-0.918953,-0.142895,2.345,2.52268
-0.911342,-0.142895,2.345,2.51992
-0.909897,-0.14387,2.361,2.53435
-0.902234,-0.14387,2.361,2.53161
-0.894571,-0.14387,2.361,2.52889
-0.886907,-0.14387,2.361,2.52619
-0.885203,-0.144845,2.377,2.54061
-0.877488,-0.144845,2.377,2.53793
-0.869772,-0.144845,2.377,2.53527
-0.862057,-0.144845,2.377,2.53264
-0.854342,-0.144845,2.377,2.53002
-0.846627,-0.144845,2.377,2.52743
-0.844912,-0.145881,2.394,2.54291
-0.837141,-0.145881,2.394,2.54034
-0.829371,-0.145881,2.394,2.53779
-0.821601,-0.145881,2.394,2.53526
-0.81383,-0.145881,2.394,2.53275
-0.80606,-0.145881,2.394,2.53027
-0.79829,-0.145881,2.394,2.5278
-0.796133,-0.146917,2.411,2.54329
-0.788307,-0.146917,2.411,2.54085
-0.780482,-0.146917,2.411,2.53844
-0.772656,-0.146917,2.411,2.53604
-0.764831,-0.146917,2.411,2.53367
-0.757005,-0.146917,2.411,2.53132
-0.74918,-0.146917,2.411,2.52899
-0.741354,-0.146917,2.411,2.52668
-0.733529,-0.146917,2.411,2.52439
-0.725703,-0.146917,2.411,2.52213
-0.717878,-0.146917,2.411,2.51989
-0.710052,-0.146917,2.411,2.51767
-0.702227,-0.146917,2.411,2.51548
-0.699297,-0.147953,2.428,2.53103
-0.691417,-0.147953,2.428,2.52886
-0.683536,-0.147953,2.428,2.52672
-0.675655,-0.147953,2.428,2.5246
-0.667775,-0.147953,2.428,2.5225
-0.659894,-0.147953,2.428,2.52042
-0.647448,-0.146917,2.411,2.50074
-0.639623,-0.146917,2.411,2.49872
-0.636252,-0.147953,2.428,2.51434
-0.628371,-0.147953,2.428,2.51235
-0.620491,-0.147953,2.428,2.5104
-0.61261,-0.147953,2.428,2.50846
-0.604729,-0.147953,2.428,2.50655
-0.596848,-0.147953,2.428,2.50466
-0.588968,-0.147953,2.428,2.50279
-0.581087,-0.147953,2.428,2.50095
-0.573206,-0.147953,2.428,2.49913
-0.565326,-0.147953,2.428,2.49733
-0.557445,-0.147953,2.428,2.49556
-0.549564,-0.147953,2.428,2.49381
-0.541684,-0.147953,2.428,2.49209
-0.533803,-0.147953,2.428,2.49039
-0.525922,-0.147953,2.428,2.48871
-0.518042,-0.147953,2.428,2.48705
-0.513733,-0.148989,2.445,2.50283
-0.505797,-0.148989,2.445,2.50121
-0.497861,-0.148989,2.445,2.49962
-0.489925,-0.148989,2.445,2.49805
-0.485538,-0.150085,2.463,2.51488
-0.477544,-0.150085,2.463,2.51335
-0.469549,-0.150085,2.463,2.51185
-0.461555,-0.150085,2.463,2.51036
-0.453561,-0.150085,2.463,2.50891
-0.448823,-0.151182,2.481,2.5258
-0.44077,-0.151182,2.481,2.52438
-0.432717,-0.151182,2.481,2.52299
-0.427746,-0.152279,2.499,2.53991
-0.419634,-0.152279,2.499,2.53856
-0.414487,-0.153376,2.517,2.55551
-0.406318,-0.153376,2.517,2.55419
-0.398148,-0.153376,2.517,2.55291
-0.392923,-0.154534,2.536,2.57091
-0.384691,-0.154534,2.536,2.56966
-0.37646,-0.154534,2.536,2.56844
-0.368229,-0.154534,2.536,2.56725
-0.359998,-0.154534,2.536,2.56608
-0.354402,-0.155692,2.555,2.58416
-0.346109,-0.155692,2.555,2.58303
-0.340328,-0.156849,2.574,2.60113
-0.331974,-0.156849,2.574,2.60005
-0.323619,-0.156849,2.574,2.599
-0.315265,-0.156849,2.574,2.59797
-0.30691,-0.156849,2.574,2.59697
-0.298555,-0.156849,2.574,2.596
-0.290201,-0.156849,2.574,2.59505
-0.281846,-0.156849,2.574,2.59413
-0.275511,-0.158007,2.593,2.61238
-0.267094,-0.158007,2.593,2.6115
-0.258678,-0.158007,2.593,2.61066
-0.250262,-0.158007,2.593,2.60984
-0.241846,-0.158007,2.593,2.60904
-0.233429,-0.158007,2.593,2.60828
-0.223364,-0.156849,2.574,2.58843
-0.21501,-0.156849,2.574,2.58772
-0.206655,-0.156849,2.574,2.58704
-0.198301,-0.156849,2.574,2.58639
-0.189946,-0.156849,2.574,2.58576
-0.181592,-0.156849,2.574,2.58516
-0.173237,-0.156849,2.574,2.58459
-0.164882,-0.156849,2.574,2.58404
-0.155372,-0.155692,2.555,2.56445
-0.14708,-0.155692,2.555,2.56396
-0.138787,-0.155692,2.555,2.5635
-0.130494,-0.155692,2.555,2.56306
-0.122201,-0.155692,2.555,2.56265
-0.113908,-0.155692,2.555,2.56227
-0.105615,-0.155692,2.555,2.56192
-0.0973222,-0.155692,2.555,2.56159
-0.0890293,-0.155692,2.555,2.56129
-0.0813368,-0.156849,2.574,2.58006
-0.0729822,-0.156849,2.574,2.57981
-0.0646277,-0.156849,2.574,2.57958
-0.0562731,-0.156849,2.574,2.57939
-0.0479185,-0.156849,2.574,2.57922
-0.039564,-0.156849,2.574,2.57908
-0.0312094,-0.156849,2.574,2.57896
-0.0228548,-0.156849,2.574,2.57888
-0.0146073,-0.158007,2.593,2.59785
-0.00619107,-0.158007,2.593,2.59782
0.00222516,-0.158007,2.593,2.59781
0.0106414,-0.158007,2.593,2.59783
0.0190576,-0.158007,2.593,2.59788
0.0274739,-0.158007,2.593,2.59796
0.0358901,-0.158007,2.593,2.59806
0.0446481,-0.159226,2.613,2.61823
0.0531292,-0.159226,2.613,2.61839
0.0616104,-0.159226,2.613,2.61857
0.0700915,-0.159226,2.613,2.61879
0.0785727,-0.159226,2.613,2.61903
0.0870538,-0.159226,2.613,2.61929
0.095535,-0.159226,2.613,2.61959
0.104016,-0.159226,2.613,2.61991
0.112497,-0.159226,2.613,2.62026
0.120978,-0.159226,2.613,2.62064
0.12946,-0.159226,2.613,2.62105
0.137941,-0.159226,2.613,2.62148
0.147543,-0.160445,2.633,2.64201
0.156089,-0.160445,2.633,2.6425
0.164635,-0.160445,2.633,2.64302
0.173181,-0.160445,2.633,2.64356
0.181727,-0.160445,2.633,2.64414
0.190273,-0.160445,2.633,2.64474
0.198819,-0.160445,2.633,2.64537
0.207365,-0.160445,2.633,2.64602
0.215911,-0.160445,2.633,2.64671
0.224457,-0.160445,2.633,2.64742
0.233003,-0.160445,2.633,2.64815
0.241549,-0.160445,2.633,2.64892
0.250095,-0.160445,2.633,2.64971
0.258641,-0.160445,2.633,2.65053
0.267187,-0.160445,2.633,2.65138
0.275734,-0.160445,2.633,2.65226
0.28428,-0.160445,2.633,2.65316
0.292826,-0.160445,2.633,2.65409
0.301372,-0.160445,2.633,2.65504
0.307564,-0.159226,2.613,2.63585
0.316045,-0.159226,2.613,2.63686
0.319682,-0.156849,2.574,2.59851
0.328037,-0.156849,2.574,2.59956
0.336391,-0.156849,2.574,2.60062
0.344746,-0.156849,2.574,2.60172
0.347888,-0.154534,2.536,2.56441
0.356119,-0.154534,2.536,2.56554
0.36708,-0.155692,2.555,2.58593
0.372581,-0.154534,2.536,2.56788
0.380813,-0.154534,2.536,2.56908
0.389044,-0.154534,2.536,2.57032
0.397275,-0.154534,2.536,2.57158
0.405506,-0.154534,2.536,2.57286
0.413738,-0.154534,2.536,2.57417
0.421969,-0.154534,2.536,2.57551
0.4302,-0.154534,2.536,2.57687
0.438431,-0.154534,2.536,2.57825
0.446662,-0.154534,2.536,2.57967
0.454894,-0.154534,2.536,2.58111
0.463125,-0.154534,2.536,2.58257
0.471356,-0.154534,2.536,2.58406
0.475994,-0.153376,2.517,2.5662
0.484164,-0.153376,2.517,2.56773
0.492333,-0.153376,2.517,2.56928
0.500503,-0.153376,2.517,2.57086
0.508672,-0.153376,2.517,2.57246
0.516842,-0.153376,2.517,2.57409
0.525012,-0.153376,2.517,2.57574
0.533181,-0.153376,2.517,2.57742
0.541351,-0.153376,2.517,2.57912
0.553668,-0.154534,2.536,2.60033
0.5619,-0.154534,2.536,2.6021
0.570131,-0.154534,2.536,2.60389
0.578362,-0.154534,2.536,2.6057
0.586593,-0.154534,2.536,2.60754
0.599281,-0.155692,2.555,2.62895
0.607574,-0.155692,2.555,2.63086
0.615867,-0.155692,2.555,2.63279
0.62416,-0.155692,2.555,2.63474
0.632453,-0.155692,2.555,2.63671
0.64551,-0.156849,2.574,2.65834
0.653865,-0.156849,2.574,2.66038
0.657331,-0.155692,2.555,2.64279
0.665624,-0.155692,2.555,2.64487
0.673917,-0.155692,2.555,2.64697
0.68221,-0.155692,2.555,2.64909
0.690503,-0.155692,2.555,2.65124
0.698796,-0.155692,2.555,2.65341
0.707089,-0.155692,2.555,2.65561
0.715382,-0.155692,2.555,2.65783
0.723674,-0.155692,2.555,2.66007
0.731967,-0.155692,2.555,2.66234
0.74026,-0.155692,2.555,2.66463
0.748553,-0.155692,2.555,2.66695
0.756846,-0.155692,2.555,2.66928
0.765139,-0.155692,2.555,2.67165
0.773432,-0.155692,2.555,2.67403
0.781725,-0.155692,2.555,2.67645
0.790018,-0.155692,2.555,2.67888
0.798311,-0.155692,2.555,2.68134
0.800605,-0.154534,2.536,2.66386
0.808836,-0.154534,2.536,2.66634
0.817068,-0.154534,2.536,2.66885
0.819116,-0.153376,2.517,2.65137
0.827285,-0.153376,2.517,2.65391
0.82948,-0.152279,2.499,2.63747
0.837591,-0.152279,2.499,2.64003
0.845702,-0.152279,2.499,2.64261
0.847664,-0.151182,2.481,2.62617
0.855716,-0.151182,2.481,2.62878
0.863769,-0.151182,2.481,2.63141
0.865497,-0.150085,2.463,2.61495
0.873491,-0.150085,2.463,2.61761
0.875043,-0.148989,2.445,2.60114
0.882979,-0.148989,2.445,2.60382
0.890915,-0.148989,2.445,2.60652
0.892601,-0.147953,2.428,2.5911
0.900482,-0.147953,2.428,2.59383
0.908362,-0.147953,2.428,2.59657
0.916243,-0.147953,2.428,2.59934
0.917653,-0.146917,2.411,2.58391
0.918953,-0.145881,2.394,2.56846
0.926724,-0.145881,2.394,2.57125
0.934494,-0.145881,2.394,2.57406
0.942264,-0.145881,2.394,2.57689
0.950035,-0.145881,2.394,2.57974
0.957805,-0.145881,2.394,2.58262
0.965575,-0.145881,2.394,2.58551
0.973346,-0.145881,2.394,2.58842
0.974149,-0.144845,2.377,2.57295
0.981864,-0.144845,2.377,2.57588
0.996657,-0.145881,2.394,2.59728
nan,nan,nan,NaN
nan,nan,nan,NaN
nan,nan,nan,NaN
nan,nan,nan,NaN
nan,nan,nan,NaN
nan,nan,nan,NaN
nan,nan,nan,NaN
nan,nan,nan,NaN
nan,nan,nan,NaN
nan,nan,nan,NaN
nan,nan,nan,NaN
nan,nan,nan,NaN
nan,nan,nan,NaN
nan,nan,nan,NaN
nan,nan,nan,NaN
nan,nan,nan,NaN
nan,nan,nan,NaN
nan,nan,nan,NaN
1.6868,-0.215043,3.529,3.91732
1.69826,-0.215043,3.529,3.92227
nan,nan,nan,NaN
nan,nan,nan,NaN
nan,nan,nan,NaN
nan,nan,nan,NaN
nan,nan,nan,NaN
nan,nan,nan,NaN
nan,nan,nan,NaN
nan,nan,nan,NaN
nan,nan,nan,NaN
nan,nan,nan,NaN
nan,nan,nan,NaN
nan,nan,nan,NaN
nan,nan,nan,NaN
nan,nan,nan,NaN
1.83245,-0.210717,3.458,3.91919
1.84367,-0.210717,3.458,3.92445
1.87367,-0.21285,3.493,3.96951
1.90444,-0.215043,3.529,4.01584
1.91589,-0.215043,3.529,4.02128
1.92734,-0.215043,3.529,4.02675
1.9388,-0.215043,3.529,4.03225
1.95025,-0.215043,3.529,4.03777
1.96171,-0.215043,3.529,4.04331
1.97316,-0.215043,3.529,4.04888
1.96437,-0.21285,3.493,4.01312
1.97571,-0.21285,3.493,4.01868
1.98704,-0.21285,3.493,4.02426
1.99838,-0.21285,3.493,4.02987
1.96944,-0.208584,3.423,3.95464
1.96088,-0.206512,3.389,3.92085
1.97188,-0.206512,3.389,3.92636
1.96357,-0.204501,3.356,3.89361
1.95564,-0.202551,3.324,3.86193
1.96643,-0.202551,3.324,3.86741
1.95818,-0.200601,3.292,3.83562
1.94973,-0.198652,3.26,3.80375
1.96031,-0.198652,3.26,3.80918
1.93401,-0.194934,3.199,3.74326
1.90914,-0.1914,3.141,3.68067
1.91934,-0.1914,3.141,3.68597
1.91172,-0.189633,3.112,3.65721
1.90453,-0.187927,3.084,3.62954
1.91454,-0.187927,3.084,3.63481
1.9077,-0.186281,3.057,3.60822
1.88375,-0.182991,3.003,3.54965
1.89349,-0.182991,3.003,3.55483
1.88676,-0.181407,2.977,3.52921
1.86394,-0.178299,2.926,3.47383
1.87343,-0.178299,2.926,3.47894
1.8514,-0.175313,2.877,3.42572
1.82969,-0.172388,2.829,3.37353
1.80897,-0.169585,2.783,3.32359
1.81801,-0.169585,2.783,3.32851
1.8126,-0.168244,2.761,3.3071
1.79253,-0.165563,2.717,3.25924
1.80135,-0.165563,2.717,3.2641
1.79618,-0.164284,2.696,3.24371
1.77681,-0.161724,2.654,3.19796
1.78542,-0.161724,2.654,3.20275
1.77984,-0.160445,2.633,3.18218
1.76122,-0.158007,2.593,3.13855
-2.04721,-0.170247,2.951,3.59561
-2.0031,-0.167362,2.901,3.52934
-1.99369,-0.167362,2.901,3.524
-1.96786,-0.165978,2.877,3.48957
-1.94218,-0.164593,2.853,3.45525
-1.93292,-0.164593,2.853,3.45005
-1.90748,-0.163208,2.829,3.4159
-1.86743,-0.160555,2.783,3.35532
-1.85839,-0.160555,2.783,3.3503
-1.83474,-0.159285,2.761,3.31885
-1.81123,-0.158016,2.739,3.2875
-1.80234,-0.158016,2.739,3.28261
-1.79345,-0.158016,2.739,3.27774
-1.78456,-0.158016,2.739,3.27288
-1.77567,-0.158016,2.739,3.26804
-1.78097,-0.159285,2.761,3.28943
-1.77201,-0.159285,2.761,3.28459
-1.7771,-0.160555,2.783,3.3059
-1.81254,-0.164593,2.853,3.38408
-1.80328,-0.164593,2.853,3.37913
-1.80911,-0.165978,2.877,3.40258
-1.83042,-0.168804,2.926,3.45549
-1.82093,-0.168804,2.926,3.45047
-1.843,-0.171747,2.977,3.50552
-1.84935,-0.173247,3.003,3.53102
-1.8396,-0.173247,3.003,3.52593
-1.82986,-0.173247,3.003,3.52085
-1.83648,-0.174804,3.03,3.54741
-1.82664,-0.174804,3.03,3.54233
-1.81681,-0.174804,3.03,3.53726
-1.80697,-0.174804,3.03,3.53222
-1.79714,-0.174804,3.03,3.5272
-1.7873,-0.174804,3.03,3.5222
-1.77747,-0.174804,3.03,3.51722
nan,nan,nan,NaN
nan,nan,nan,NaN
nan,nan,nan,NaN
nan,nan,nan,NaN
nan,nan,nan,NaN
nan,nan,nan,NaN
nan,nan,nan,NaN
nan,nan,nan,NaN
nan,nan,nan,NaN
nan,nan,nan,NaN
nan,nan,nan,NaN
nan,nan,nan,NaN
nan,nan,nan,NaN
nan,nan,nan,NaN
nan,nan,nan,NaN
nan,nan,nan,NaN
nan,nan,nan,NaN
nan,nan,nan,NaN
nan,nan,nan,NaN
nan,nan,nan,NaN
nan,nan,nan,NaN
nan,nan,nan,NaN
nan,nan,nan,NaN
nan,nan,nan,NaN
nan,nan,nan,NaN
nan,nan,nan,NaN
nan,nan,nan,NaN
nan,nan,nan,NaN
nan,nan,nan,NaN
-1.16295,-0.137132,2.377,2.64979
-1.15523,-0.137132,2.377,2.64641
-1.14752,-0.137132,2.377,2.64305
-1.1398,-0.137132,2.377,2.63971
-1.13209,-0.137132,2.377,2.63639
-1.12437,-0.137132,2.377,2.63309
-1.11666,-0.137132,2.377,2.6298
-1.10894,-0.137132,2.377,2.62654
-1.09381,-0.136209,2.361,2.60563
-1.08615,-0.136209,2.361,2.60242
-1.07849,-0.136209,2.361,2.59923
-1.07082,-0.136209,2.361,2.59606
-1.05596,-0.135286,2.345,2.57534
-1.04835,-0.135286,2.345,2.57223
-1.04073,-0.135286,2.345,2.56914
-1.03312,-0.135286,2.345,2.56606
-1.02551,-0.135286,2.345,2.56301
-1.0179,-0.135286,2.345,2.55997
-1.01029,-0.135286,2.345,2.55695
-1.00268,-0.135286,2.345,2.55396
-0.995066,-0.135286,2.345,2.55098
-0.987455,-0.135286,2.345,2.54802
-0.979844,-0.135286,2.345,2.54508
-0.972232,-0.135286,2.345,2.54216
-0.964621,-0.135286,2.345,2.53926
-0.95701,-0.135286,2.345,2.53637
-0.949399,-0.135286,2.345,2.53351
-0.941787,-0.135286,2.345,2.53067
-0.934176,-0.135286,2.345,2.52785
-0.926565,-0.135286,2.345,2.52504
-0.918953,-0.135286,2.345,2.52226
-0.911342,-0.135286,2.345,2.5195
-0.909897,-0.136209,2.361,2.53393
-0.902234,-0.136209,2.361,2.53119
-0.894571,-0.136209,2.361,2.52846
-0.886907,-0.136209,2.361,2.52576
-0.879244,-0.136209,2.361,2.52308
-0.877488,-0.137132,2.377,2.5375
-0.869772,-0.137132,2.377,2.53484
-0.862057,-0.137132,2.377,2.53221
-0.854342,-0.137132,2.377,2.52959
-0.846627,-0.137132,2.377,2.527
-0.844912,-0.138113,2.394,2.54248
-0.837141,-0.138113,2.394,2.5399
-0.829371,-0.138113,2.394,2.53735
-0.821601,-0.138113,2.394,2.53483
-0.81383,-0.138113,2.394,2.53232
-0.80606,-0.138113,2.394,2.52983
-0.79829,-0.138113,2.394,2.52737
-0.796133,-0.139094,2.411,2.54285
-0.788307,-0.139094,2.411,2.54041
-0.780482,-0.139094,2.411,2.538
-0.772656,-0.139094,2.411,2.5356
-0.764831,-0.139094,2.411,2.53323
-0.757005,-0.139094,2.411,2.53087
-0.74918,-0.139094,2.411,2.52854
-0.741354,-0.139094,2.411,2.52624
-0.733529,-0.139094,2.411,2.52395
-0.725703,-0.139094,2.411,2.52169
-0.717878,-0.139094,2.411,2.51945
-0.715059,-0.140074,2.428,2.53498
-0.707178,-0.140074,2.428,2.53277
-0.699297,-0.140074,2.428,2.53058
-0.691417,-0.140074,2.428,2.52841
-0.683536,-0.140074,2.428,2.52627
-0.675655,-0.140074,2.428,2.52415
-0.667775,-0.140074,2.428,2.52205
-0.659894,-0.140074,2.428,2.51997
-0.652013,-0.140074,2.428,2.51792
-0.644133,-0.140074,2.428,2.51589
-0.636252,-0.140074,2.428,2.51389
-0.628371,-0.140074,2.428,2.5119
-0.620491,-0.140074,2.428,2.50994
-0.61261,-0.140074,2.428,2.50801
-0.604729,-0.140074,2.428,2.50609
-0.596848,-0.140074,2.428,2.5042
-0.588968,-0.140074,2.428,2.50234
-0.581087,-0.140074,2.428,2.50049
-0.573206,-0.140074,2.428,2.49867
-0.565326,-0.140074,2.428,2.49688
-0.557445,-0.140074,2.428,2.49511
-0.549564,-0.140074,2.428,2.49336
-0.541684,-0.140074,2.428,2.49163
-0.533803,-0.140074,2.428,2.48993
-0.525922,-0.140074,2.428,2.48825
-0.518042,-0.140074,2.428,2.4866
-0.513733,-0.141055,2.445,2.50237
-0.505797,-0.141055,2.445,2.50075
-0.497861,-0.141055,2.445,2.49916
-0.489925,-0.141055,2.445,2.49759
-0.485538,-0.142093,2.463,2.51442
-0.477544,-0.142093,2.463,2.51289
-0.469549,-0.142093,2.463,2.51138
-0.461555,-0.142093,2.463,2.5099
-0.453561,-0.142093,2.463,2.50844
-0.448823,-0.143132,2.481,2.52533
-0.44077,-0.143132,2.481,2.52391
-0.432717,-0.143132,2.481,2.52252
-0.427746,-0.14417,2.499,2.53944
-0.419634,-0.14417,2.499,2.53809
-0.414487,-0.145209,2.517,2.55503
-0.406318,-0.145209,2.517,2.55372
-0.398148,-0.145209,2.517,2.55243
-0.392923,-0.146305,2.536,2.57043
-0.384691,-0.146305,2.536,2.56918
-0.37646,-0.146305,2.536,2.56796
-0.368229,-0.146305,2.536,2.56677
-0.359998,-0.146305,2.536,2.5656
-0.354402,-0.147401,2.555,2.58367
-0.346109,-0.147401,2.555,2.58255
-0.337816,-0.147401,2.555,2.58145
-0.329523,-0.147401,2.555,2.58038
-0.32123,-0.147401,2.555,2.57933
-0.312937,-0.147401,2.555,2.57831
-0.304645,-0.147401,2.555,2.57732
-0.298555,-0.148497,2.574,2.59551
-0.290201,-0.148497,2.574,2.59456
-0.281846,-0.148497,2.574,2.59364
-0.273492,-0.148497,2.574,2.59274
-0.265137,-0.148497,2.574,2.59188
-0.258678,-0.149593,2.593,2.61016
-0.250262,-0.149593,2.593,2.60934
-0.241846,-0.149593,2.593,2.60855
-0.233429,-0.149593,2.593,2.60778
-0.223364,-0.148497,2.574,2.58794
-0.21501,-0.148497,2.574,2.58723
-0.206655,-0.148497,2.574,2.58655
-0.196837,-0.147401,2.555,2.56681
-0.188544,-0.147401,2.555,2.56618
-0.181592,-0.148497,2.574,2.58467
-0.173237,-0.148497,2.574,2.58409
-0.164882,-0.148497,2.574,2.58355
-0.155372,-0.147401,2.555,2.56396
-0.14708,-0.147401,2.555,2.56347
-0.138787,-0.147401,2.555,2.56301
-0.130494,-0.147401,2.555,2.56257
-0.122201,-0.147401,2.555,2.56216
-0.113908,-0.147401,2.555,2.56178
-0.105615,-0.147401,2.555,2.56143
-0.0973222,-0.147401,2.555,2.5611
-0.0890293,-0.147401,2.555,2.5608
-0.0813368,-0.148497,2.574,2.57956
-0.0729822,-0.148497,2.574,2.57931
-0.0646277,-0.148497,2.574,2.57909
-0.0562731,-0.148497,2.574,2.57889
-0.0479185,-0.148497,2.574,2.57873
-0.039564,-0.148497,2.574,2.57858
-0.0312094,-0.148497,2.574,2.57847
-0.0228548,-0.148497,2.574,2.57838
-0.0146073,-0.149593,2.593,2.59735
-0.00619107,-0.149593,2.593,2.59732
0.00222516,-0.149593,2.593,2.59731
0.0106414,-0.149593,2.593,2.59733
0.0190576,-0.149593,2.593,2.59738
0.0274739,-0.149593,2.593,2.59746
0.0358901,-0.149593,2.593,2.59756
0.0443063,-0.149593,2.593,2.59769
0.0527226,-0.149593,2.593,2.59785
0.0616104,-0.150747,2.613,2.61807
0.0700915,-0.150747,2.613,2.61828
0.0785727,-0.150747,2.613,2.61852
0.0870538,-0.150747,2.613,2.61879
0.095535,-0.150747,2.613,2.61909
0.104016,-0.150747,2.613,2.61941
0.112497,-0.150747,2.613,2.61976
0.120978,-0.150747,2.613,2.62014
0.12946,-0.150747,2.613,2.62054
0.137941,-0.150747,2.613,2.62098
0.146422,-0.150747,2.613,2.62144
0.154903,-0.150747,2.613,2.62192
0.163384,-0.150747,2.613,2.62244
0.171865,-0.150747,2.613,2.62298
0.180346,-0.150747,2.613,2.62355
0.188828,-0.150747,2.613,2.62415
0.198819,-0.151901,2.633,2.64486
0.207365,-0.151901,2.633,2.64552
0.215911,-0.151901,2.633,2.6462
0.224457,-0.151901,2.633,2.64691
0.233003,-0.151901,2.633,2.64765
0.241549,-0.151901,2.633,2.64842
0.250095,-0.151901,2.633,2.64921
0.258641,-0.151901,2.633,2.65003
0.267187,-0.151901,2.633,2.65088
0.275734,-0.151901,2.633,2.65175
0.28428,-0.151901,2.633,2.65266
0.292826,-0.151901,2.633,2.65358
0.299083,-0.150747,2.613,2.63438
0.30521,-0.149593,2.593,2.61518
0.313626,-0.149593,2.593,2.61618
0.319682,-0.148497,2.574,2.59802
0.325615,-0.147401,2.555,2.57988
0.333908,-0.147401,2.555,2.58094
0.342201,-0.147401,2.555,2.58203
0.347888,-0.146305,2.536,2.56393
0.356119,-0.146305,2.536,2.56506
0.36435,-0.146305,2.536,2.56621
0.372581,-0.146305,2.536,2.5674
0.380813,-0.146305,2.536,2.5686
0.389044,-0.146305,2.536,2.56984
0.397275,-0.146305,2.536,2.57109
0.405506,-0.146305,2.536,2.57238
0.413738,-0.146305,2.536,2.57369
0.421969,-0.146305,2.536,2.57503
0.4302,-0.146305,2.536,2.57639
0.438431,-0.146305,2.536,2.57777
0.446662,-0.146305,2.536,2.57919
0.454894,-0.146305,2.536,2.58063
0.463125,-0.146305,2.536,2.58209
0.471356,-0.146305,2.536,2.58358
0.475994,-0.145209,2.517,2.56573
0.484164,-0.145209,2.517,2.56725
0.492333,-0.145209,2.517,2.56881
0.500503,-0.145209,2.517,2.57038
0.508672,-0.145209,2.517,2.57199
0.516842,-0.145209,2.517,2.57362
0.525012,-0.145209,2.517,2.57527
0.533181,-0.145209,2.517,2.57695
0.541351,-0.145209,2.517,2.57865
0.54952,-0.145209,2.517,2.58038
0.55769,-0.145209,2.517,2.58213
0.570131,-0.146305,2.536,2.60341
0.578362,-0.146305,2.536,2.60523
0.586593,-0.146305,2.536,2.60707
0.599281,-0.147401,2.555,2.62848
0.607574,-0.147401,2.555,2.63038
0.615867,-0.147401,2.555,2.63231
0.62416,-0.147401,2.555,2.63426
0.632453,-0.147401,2.555,2.63624
0.64551,-0.148497,2.574,2.65786
0.653865,-0.148497,2.574,2.6599
0.662219,-0.148497,2.574,2.66197
0.670574,-0.148497,2.574,2.66406
0.673917,-0.147401,2.555,2.64649
0.68221,-0.147401,2.555,2.64862
0.690503,-0.147401,2.555,2.65076
0.698796,-0.147401,2.555,2.65294
0.707089,-0.147401,2.555,2.65513
0.715382,-0.147401,2.555,2.65735
0.723674,-0.147401,2.555,2.6596
0.731967,-0.147401,2.555,2.66187
0.74026,-0.147401,2.555,2.66416
0.748553,-0.147401,2.555,2.66647
0.756846,-0.147401,2.555,2.66881
0.765139,-0.147401,2.555,2.67118
0.773432,-0.147401,2.555,2.67356
0.781725,-0.147401,2.555,2.67598
0.790018,-0.147401,2.555,2.67841
0.798311,-0.147401,2.555,2.68087
0.806603,-0.147401,2.555,2.68335
0.808836,-0.146305,2.536,2.66588
0.817068,-0.146305,2.536,2.66839
0.825299,-0.146305,2.536,2.67092
0.827285,-0.145209,2.517,2.65345
0.835455,-0.145209,2.517,2.656
0.843624,-0.145209,2.517,2.65859
0.845702,-0.14417,2.499,2.64216
0.853814,-0.14417,2.499,2.64477
0.861925,-0.14417,2.499,2.6474
0.863769,-0.143132,2.481,2.63096
0.865497,-0.142093,2.463,2.61451
0.873491,-0.142093,2.463,2.61716
0.881485,-0.142093,2.463,2.61984
0.882979,-0.141055,2.445,2.60338
0.890915,-0.141055,2.445,2.60608
0.898851,-0.141055,2.445,2.6088
0.900482,-0.140074,2.428,2.59339
0.908362,-0.140074,2.428,2.59614
0.916243,-0.140074,2.428,2.59891
0.917653,-0.139094,2.411,2.58348
0.918953,-0.138113,2.394,2.56803
0.926724,-0.138113,2.394,2.57082
0.934494,-0.138113,2.394,2.57363
0.942264,-0.138113,2.394,2.57647
0.950035,-0.138113,2.394,2.57932
0.957805,-0.138113,2.394,2.58219
0.965575,-0.138113,2.394,2.58508
0.973346,-0.138113,2.394,2.58799
0.981116,-0.138113,2.394,2.59093
0.988886,-0.138113,2.394,2.59388
nan,nan,nan,NaN
nan,nan,nan,NaN
nan,nan,nan,NaN
nan,nan,nan,NaN
nan,nan,nan,NaN
nan,nan,nan,NaN
nan,nan,nan,NaN
nan,nan,nan,NaN
nan,nan,nan,NaN
nan,nan,nan,NaN
nan,nan,nan,NaN
nan,nan,nan,NaN
nan,nan,nan,NaN
nan,nan,nan,NaN
nan,nan,nan,NaN
nan,nan,nan,NaN
nan,nan,nan,NaN
nan,nan,nan,NaN
nan,nan,nan,NaN
nan,nan,nan,NaN
nan,nan,nan,NaN
nan,nan,nan,NaN
nan,nan,nan,NaN
nan,nan,nan,NaN
nan,nan,nan,NaN
nan,nan,nan,NaN
nan,nan,nan,NaN
nan,nan,nan,NaN
nan,nan,nan,NaN
nan,nan,nan,NaN
nan,nan,nan,NaN
nan,nan,nan,NaN
nan,nan,nan,NaN
nan,nan,nan,NaN
nan,nan,nan,NaN
1.83245,-0.199496,3.458,3.9186
1.82501,-0.197477,3.423,3.88415
1.83612,-0.197477,3.423,3.88938
1.86612,-0.199496,3.458,3.93446
1.87734,-0.199496,3.458,3.9398
1.88857,-0.199496,3.458,3.94516
1.89979,-0.199496,3.458,3.95054
1.91102,-0.199496,3.458,3.95595
1.92224,-0.199496,3.458,3.96138
1.93346,-0.199496,3.458,3.96684
1.94469,-0.199496,3.458,3.97233
1.95591,-0.199496,3.458,3.97783
1.96713,-0.199496,3.458,3.98336
1.95833,-0.197477,3.423,3.94854
1.94988,-0.195516,3.389,3.91479
1.94179,-0.193612,3.356,3.88211
1.95268,-0.193612,3.356,3.88757
1.94485,-0.191766,3.324,3.85593
1.93681,-0.189919,3.292,3.82421
1.9475,-0.189919,3.292,3.82963
1.93915,-0.188073,3.26,3.7978
1.93179,-0.186343,3.23,3.76821
1.94227,-0.186343,3.23,3.7736
1.91648,-0.182881,3.17,3.70881
1.90914,-0.181208,3.141,3.68016
1.91934,-0.181208,3.141,3.68545
1.89452,-0.17792,3.084,3.6238
1.88785,-0.176362,3.057,3.59727
1.89778,-0.176362,3.057,3.60249
1.89085,-0.174804,3.03,3.57586
1.86744,-0.171747,2.977,3.51843
1.8771,-0.171747,2.977,3.52357
1.87028,-0.170247,2.951,3.49791
1.84801,-0.167362,2.901,3.44368
1.85743,-0.167362,2.901,3.44875
1.83595,-0.164593,2.853,3.39668
1.81482,-0.161882,2.806,3.34565
1.80897,-0.160555,2.783,3.32314
1.81801,-0.160555,2.783,3.32806
1.79815,-0.158016,2.739,3.28031
1.77867,-0.155536,2.696,3.23362
1.78743,-0.155536,2.696,3.23844
1.78218,-0.154324,2.675,3.21802
1.76275,-0.151901,2.633,3.17223
1.77129,-0.151901,2.633,3.17699
1.76632,-0.150747,2.613,3.15759
1.76122,-0.149593,2.593,3.13814
-2.04721,-0.160671,2.951,3.59517
-2.02036,-0.15931,2.926,3.55932
-2.01087,-0.15931,2.926,3.55393
-1.96786,-0.156642,2.877,3.48914
-1.94218,-0.155336,2.853,3.45482
-1.93292,-0.155336,2.853,3.44963
-1.90748,-0.154029,2.829,3.41547
-1.88286,-0.152777,2.806,3.38262
-1.87375,-0.152777,2.806,3.37756
-1.83474,-0.150326,2.761,3.31843
-1.82578,-0.150326,2.761,3.31349
-1.81682,-0.150326,2.761,3.30856
-1.79345,-0.149129,2.739,3.27732
-1.78456,-0.149129,2.739,3.27246
-1.77567,-0.149129,2.739,3.26762
-1.76678,-0.149129,2.739,3.2628
-1.75789,-0.149129,2.739,3.258
-1.7771,-0.151524,2.783,3.30547
-1.79729,-0.154029,2.829,3.35518
-1.78811,-0.154029,2.829,3.35027
-1.80911,-0.156642,2.877,3.40214
-1.83042,-0.15931,2.926,3.45504
-1.85267,-0.162087,2.977,3.51015
-1.843,-0.162087,2.977,3.50506
-1.83334,-0.162087,2.977,3.49999
-1.8396,-0.163502,3.003,3.52546
-1.82986,-0.163502,3.003,3.52039
-1.83648,-0.164973,3.03,3.54694
-1.82664,-0.164973,3.03,3.54185
-1.81681,-0.164973,3.03,3.53679
-1.82307,-0.166443,3.057,3.56322
-1.81315,-0.166443,3.057,3.55816
-1.80323,-0.166443,3.057,3.55311
-1.77747,-0.164973,3.03,3.51675
-1.76763,-0.164973,3.03,3.51179
nan,nan,nan,NaN
nan,nan,nan,NaN
nan,nan,nan,NaN
nan,nan,nan,NaN
nan,nan,nan,NaN
nan,nan,nan,NaN
nan,nan,nan,NaN
nan,nan,nan,NaN
nan,nan,nan,NaN
nan,nan,nan,NaN
nan,nan,nan,NaN
nan,nan,nan,NaN
nan,nan,nan,NaN
nan,nan,nan,NaN
nan,nan,nan,NaN
nan,nan,nan,NaN
nan,nan,nan,NaN
nan,nan,nan,NaN
nan,nan,nan,NaN
nan,nan,nan,NaN
nan,nan,nan,NaN
nan,nan,nan,NaN
nan,nan,nan,NaN
nan,nan,nan,NaN
nan,nan,nan,NaN
nan,nan,nan,NaN
nan,nan,nan,NaN
nan,nan,nan,NaN
-1.16295,-0.129419,2.377,2.6494
-1.15523,-0.129419,2.377,2.64602
-1.14752,-0.129419,2.377,2.64266
-1.1398,-0.129419,2.377,2.63932
-1.13209,-0.129419,2.377,2.636
-1.12437,-0.129419,2.377,2.6327
-1.11666,-0.129419,2.377,2.62941
-1.10894,-0.129419,2.377,2.62614
-1.10123,-0.129419,2.377,2.6229
-1.08615,-0.128548,2.361,2.60203
-1.07849,-0.128548,2.361,2.59884
-1.07082,-0.128548,2.361,2.59567
-1.05596,-0.127677,2.345,2.57495
-1.04835,-0.127677,2.345,2.57184
-1.04073,-0.127677,2.345,2.56875
-1.03312,-0.127677,2.345,2.56567
-1.02551,-0.127677,2.345,2.56262
-1.0179,-0.127677,2.345,2.55958
-1.01029,-0.127677,2.345,2.55656
-1.00268,-0.127677,2.345,2.55356
-0.995066,-0.127677,2.345,2.55059
-0.987455,-0.127677,2.345,2.54763
-0.979844,-0.127677,2.345,2.54468
-0.972232,-0.127677,2.345,2.54176
-0.964621,-0.127677,2.345,2.53886
-0.95701,-0.127677,2.345,2.53598
-0.949399,-0.127677,2.345,2.53312
-0.941787,-0.127677,2.345,2.53027
-0.934176,-0.127677,2.345,2.52745
-0.926565,-0.127677,2.345,2.52465
-0.918953,-0.127677,2.345,2.52186
-0.911342,-0.127677,2.345,2.5191
-0.909897,-0.128548,2.361,2.53353
-0.902234,-0.128548,2.361,2.53078
-0.894571,-0.128548,2.361,2.52806
-0.886907,-0.128548,2.361,2.52536
-0.879244,-0.128548,2.361,2.52268
-0.877488,-0.129419,2.377,2.5371
-0.869772,-0.129419,2.377,2.53444
-0.862057,-0.129419,2.377,2.5318
-0.854342,-0.129419,2.377,2.52919
-0.846627,-0.129419,2.377,2.52659
-0.844912,-0.130345,2.394,2.54207
-0.837141,-0.130345,2.394,2.53949
-0.829371,-0.130345,2.394,2.53694
-0.821601,-0.130345,2.394,2.53441
-0.81383,-0.130345,2.394,2.53191
-0.80606,-0.130345,2.394,2.52942
-0.79829,-0.130345,2.394,2.52695
-0.796133,-0.13127,2.411,2.54244
-0.788307,-0.13127,2.411,2.54
-0.780482,-0.13127,2.411,2.53758
-0.772656,-0.13127,2.411,2.53518
-0.764831,-0.13127,2.411,2.53281
-0.757005,-0.13127,2.411,2.53046
-0.74918,-0.13127,2.411,2.52813
-0.741354,-0.13127,2.411,2.52582
-0.733529,-0.13127,2.411,2.52353
-0.725703,-0.13127,2.411,2.52127
-0.717878,-0.13127,2.411,2.51903
-0.715059,-0.132196,2.428,2.53456
-0.707178,-0.132196,2.428,2.53234
-0.699297,-0.132196,2.428,2.53015
-0.691417,-0.132196,2.428,2.52799
-0.683536,-0.132196,2.428,2.52584
-0.675655,-0.132196,2.428,2.52372
-0.667775,-0.132196,2.428,2.52162
-0.659894,-0.132196,2.428,2.51955
-0.652013,-0.132196,2.428,2.5175
-0.644133,-0.132196,2.428,2.51547
-0.636252,-0.132196,2.428,2.51346
-0.628371,-0.132196,2.428,2.51148
-0.620491,-0.132196,2.428,2.50952
-0.61261,-0.132196,2.428,2.50758
-0.604729,-0.132196,2.428,2.50567
-0.596848,-0.132196,2.428,2.50377
-0.588968,-0.132196,2.428,2.50191
-0.581087,-0.132196,2.428,2.50006
-0.573206,-0.132196,2.428,2.49824
-0.565326,-0.132196,2.428,2.49645
-0.557445,-0.132196,2.428,2.49468
-0.549564,-0.132196,2.428,2.49293
-0.541684,-0.132196,2.428,2.4912
-0.533803,-0.132196,2.428,2.4895
-0.525922,-0.132196,2.428,2.48782
-0.518042,-0.132196,2.428,2.48617
-0.513733,-0.133121,2.445,2.50193
-0.505797,-0.133121,2.445,2.50032
-0.497861,-0.133121,2.445,2.49872
-0.489925,-0.133121,2.445,2.49715
-0.481989,-0.133121,2.445,2.49561
-0.474054,-0.133121,2.445,2.49409
-0.469549,-0.134101,2.463,2.51094
-0.461555,-0.134101,2.463,2.50946
-0.453561,-0.134101,2.463,2.508
-0.448823,-0.135081,2.481,2.52489
-0.44077,-0.135081,2.481,2.52347
-0.432717,-0.135081,2.481,2.52207
-0.427746,-0.136061,2.499,2.53899
-0.419634,-0.136061,2.499,2.53764
-0.414487,-0.137042,2.517,2.55458
-0.406318,-0.137042,2.517,2.55327
-0.398148,-0.137042,2.517,2.55198
-0.389979,-0.137042,2.517,2.55072
-0.381809,-0.137042,2.517,2.54948
-0.37646,-0.138076,2.536,2.56751
-0.368229,-0.138076,2.536,2.56631
-0.359998,-0.138076,2.536,2.56514
-0.351766,-0.138076,2.536,2.564
-0.343535,-0.138076,2.536,2.56288
-0.337816,-0.13911,2.555,2.58099
-0.329523,-0.13911,2.555,2.57992
-0.32123,-0.13911,2.555,2.57887
-0.312937,-0.13911,2.555,2.57785
-0.304645,-0.13911,2.555,2.57686
-0.296352,-0.13911,2.555,2.57589
-0.290201,-0.140145,2.574,2.5941
-0.281846,-0.140145,2.574,2.59317
-0.273492,-0.140145,2.574,2.59228
-0.265137,-0.140145,2.574,2.59141
-0.256783,-0.140145,2.574,2.59057
-0.248428,-0.140145,2.574,2.58976
-0.240074,-0.140145,2.574,2.58897
-0.231719,-0.140145,2.574,2.58821
-0.223364,-0.140145,2.574,2.58747
-0.213423,-0.13911,2.555,2.56767
-0.20513,-0.13911,2.555,2.56699
-0.196837,-0.13911,2.555,2.56634
-0.188544,-0.13911,2.555,2.56572
-0.181592,-0.140145,2.574,2.5842
-0.171958,-0.13911,2.555,2.56456
-0.163665,-0.13911,2.555,2.56401
-0.155372,-0.13911,2.555,2.5635
-0.14708,-0.13911,2.555,2.56301
-0.138787,-0.13911,2.555,2.56255
-0.130494,-0.13911,2.555,2.56211
-0.122201,-0.13911,2.555,2.5617
-0.113908,-0.13911,2.555,2.56132
-0.105615,-0.13911,2.555,2.56096
-0.0980459,-0.140145,2.574,2.57968
-0.0896914,-0.140145,2.574,2.57937
-0.0813368,-0.140145,2.574,2.5791
-0.0729822,-0.140145,2.574,2.57885
-0.0646277,-0.140145,2.574,2.57862
-0.0562731,-0.140145,2.574,2.57843
-0.0479185,-0.140145,2.574,2.57826
-0.039564,-0.140145,2.574,2.57812
-0.0312094,-0.140145,2.574,2.578
-0.0228548,-0.140145,2.574,2.57791
-0.0146073,-0.141179,2.593,2.59688
-0.00619107,-0.141179,2.593,2.59685
0.00222516,-0.141179,2.593,2.59684
0.0106414,-0.141179,2.593,2.59686
0.0190576,-0.141179,2.593,2.59691
0.0274739,-0.141179,2.593,2.59699
0.0358901,-0.141179,2.593,2.59709
0.0443063,-0.141179,2.593,2.59722
0.0527226,-0.141179,2.593,2.59738
0.0616104,-0.142268,2.613,2.6176
0.0700915,-0.142268,2.613,2.61781
0.0779713,-0.141179,2.593,2.59801
0.0863875,-0.141179,2.593,2.59828
0.095535,-0.142268,2.613,2.61861
0.10322,-0.141179,2.593,2.59889
0.111636,-0.141179,2.593,2.59924
0.120052,-0.141179,2.593,2.59961
0.128469,-0.141179,2.593,2.60002
0.136885,-0.141179,2.593,2.60045
0.146422,-0.142268,2.613,2.62096
0.154903,-0.142268,2.613,2.62145
0.163384,-0.142268,2.613,2.62197
0.171865,-0.142268,2.613,2.62251
0.180346,-0.142268,2.613,2.62308
0.188828,-0.142268,2.613,2.62367
0.197309,-0.142268,2.613,2.6243
0.207365,-0.143357,2.633,2.64504
0.215911,-0.143357,2.633,2.64572
0.224457,-0.143357,2.633,2.64644
0.233003,-0.143357,2.633,2.64717
0.241549,-0.143357,2.633,2.64794
0.250095,-0.143357,2.633,2.64873
0.258641,-0.143357,2.633,2.64955
0.267187,-0.143357,2.633,2.6504
0.275734,-0.143357,2.633,2.65128
0.28428,-0.143357,2.633,2.65218
0.292826,-0.143357,2.633,2.65311
0.299083,-0.142268,2.613,2.63391
0.30521,-0.141179,2.593,2.61471
0.313626,-0.141179,2.593,2.61571
0.319682,-0.140145,2.574,2.59756
0.325615,-0.13911,2.555,2.57942
0.333908,-0.13911,2.555,2.58048
0.342201,-0.13911,2.555,2.58157
0.350494,-0.13911,2.555,2.58268
0.356119,-0.138076,2.536,2.5646
0.36435,-0.138076,2.536,2.56576
0.372581,-0.138076,2.536,2.56694
0.380813,-0.138076,2.536,2.56815
0.389044,-0.138076,2.536,2.56938
0.397275,-0.138076,2.536,2.57064
0.405506,-0.138076,2.536,2.57192
0.413738,-0.138076,2.536,2.57324
0.421969,-0.138076,2.536,2.57457
0.4302,-0.138076,2.536,2.57593
0.438431,-0.138076,2.536,2.57732
0.446662,-0.138076,2.536,2.57873
0.454894,-0.138076,2.536,2.58017
0.463125,-0.138076,2.536,2.58164
0.471356,-0.138076,2.536,2.58313
0.475994,-0.137042,2.517,2.56528
0.484164,-0.137042,2.517,2.5668
0.492333,-0.137042,2.517,2.56836
0.500503,-0.137042,2.517,2.56994
0.508672,-0.137042,2.517,2.57154
0.516842,-0.137042,2.517,2.57317
0.525012,-0.137042,2.517,2.57482
0.533181,-0.137042,2.517,2.5765
0.541351,-0.137042,2.517,2.5782
0.54952,-0.137042,2.517,2.57993
0.55769,-0.137042,2.517,2.58168
0.570131,-0.138076,2.536,2.60296
0.578362,-0.138076,2.536,2.60478
0.586593,-0.138076,2.536,2.60662
0.599281,-0.13911,2.555,2.62802
0.607574,-0.13911,2.555,2.62993
0.615867,-0.13911,2.555,2.63186
0.62416,-0.13911,2.555,2.63381
0.637156,-0.140145,2.574,2.65539
0.64551,-0.140145,2.574,2.6574
0.653865,-0.140145,2.574,2.65945
0.662219,-0.140145,2.574,2.66151
0.670574,-0.140145,2.574,2.6636
0.678929,-0.140145,2.574,2.66572
0.68221,-0.13911,2.555,2.64817
0.690503,-0.13911,2.555,2.65032
0.698796,-0.13911,2.555,2.65249
0.712347,-0.140145,2.574,2.67443
0.720701,-0.140145,2.574,2.67666
0.729056,-0.140145,2.574,2.67893
0.737411,-0.140145,2.574,2.68121
0.74026,-0.13911,2.555,2.66371
0.748553,-0.13911,2.555,2.66603
0.756846,-0.13911,2.555,2.66837
0.765139,-0.13911,2.555,2.67073
0.773432,-0.13911,2.555,2.67312
0.781725,-0.13911,2.555,2.67553
0.790018,-0.13911,2.555,2.67797
0.798311,-0.13911,2.555,2.68042
0.806603,-0.13911,2.555,2.68291
0.808836,-0.138076,2.536,2.66544
0.817068,-0.138076,2.536,2.66795
0.825299,-0.138076,2.536,2.67048
0.827285,-0.137042,2.517,2.65301
0.835455,-0.137042,2.517,2.65557
0.843624,-0.137042,2.517,2.65815
0.845702,-0.136061,2.499,2.64173
0.853814,-0.136061,2.499,2.64434
0.861925,-0.136061,2.499,2.64697
0.863769,-0.135081,2.481,2.63053
0.865497,-0.134101,2.463,2.61408
0.873491,-0.134101,2.463,2.61674
0.881485,-0.134101,2.463,2.61942
0.882979,-0.133121,2.445,2.60296
0.890915,-0.133121,2.445,2.60566
0.898851,-0.133121,2.445,2.60839
0.900482,-0.132196,2.428,2.59298
0.908362,-0.132196,2.428,2.59572
0.916243,-0.132196,2.428,2.59849
0.917653,-0.13127,2.411,2.58307
0.918953,-0.130345,2.394,2.56763
0.926724,-0.130345,2.394,2.57042
0.934494,-0.130345,2.394,2.57323
0.942264,-0.130345,2.394,2.57606
0.950035,-0.130345,2.394,2.57891
0.951003,-0.129419,2.377,2.56345
0.958719,-0.129419,2.377,2.56632
0.973346,-0.130345,2.394,2.58759
0.981116,-0.130345,2.394,2.59052
0.988886,-0.130345,2.394,2.59348
nan,nan,nan,NaN
nan,nan,nan,NaN
nan,nan,nan,NaN
nan,nan,nan,NaN
nan,nan,nan,NaN
nan,nan,nan,NaN
nan,nan,nan,NaN
nan,nan,nan,NaN
nan,nan,nan,NaN
nan,nan,nan,NaN
nan,nan,nan,NaN
nan,nan,nan,NaN
nan,nan,nan,NaN
nan,nan,nan,NaN
nan,nan,nan,NaN
nan,nan,nan,NaN
nan,nan,nan,NaN
nan,nan,nan,NaN
nan,nan,nan,NaN
nan,nan,nan,NaN
nan,nan,nan,NaN
nan,nan,nan,NaN
nan,nan,nan,NaN
nan,nan,nan,NaN
nan,nan,nan,NaN
nan,nan,nan,NaN
nan,nan,nan,NaN
nan,nan,nan,NaN
nan,nan,nan,NaN
nan,nan,nan,NaN
nan,nan,nan,NaN
nan,nan,nan,NaN
nan,nan,nan,NaN
nan,nan,nan,NaN
nan,nan,nan,NaN
1.76144,-0.18098,3.324,3.76622
1.77223,-0.18098,3.324,3.77128
1.81788,-0.184519,3.389,3.8502
1.82888,-0.184519,3.389,3.85541
1.83988,-0.184519,3.389,3.86064
1.86945,-0.18637,3.423,3.90468
1.88056,-0.18637,3.423,3.91001
1.87288,-0.184519,3.389,3.87648
1.88388,-0.184519,3.389,3.8818
1.91389,-0.18637,3.423,3.92615
1.90588,-0.184519,3.389,3.89253
1.91688,-0.184519,3.389,3.89792
1.92788,-0.184519,3.389,3.90334
1.93888,-0.184519,3.389,3.90879
1.9309,-0.182722,3.356,3.87614
1.92327,-0.18098,3.324,3.84457
1.93406,-0.18098,3.324,3.84998
1.92613,-0.179237,3.292,3.81829
1.91799,-0.177495,3.26,3.78653
1.92857,-0.177495,3.26,3.7919
1.9213,-0.175862,3.23,3.76234
1.91325,-0.174174,3.199,3.73155
1.92363,-0.174174,3.199,3.73688
1.91648,-0.172595,3.17,3.70831
1.89152,-0.169437,3.112,3.64569
1.90162,-0.169437,3.112,3.65095
1.89452,-0.167913,3.084,3.62332
1.88785,-0.166443,3.057,3.5968
1.89778,-0.166443,3.057,3.60201
1.89085,-0.164973,3.03,3.57539
1.86744,-0.162087,2.977,3.51797
1.8771,-0.162087,2.977,3.52311
1.87028,-0.160671,2.951,3.49745
1.84801,-0.157949,2.901,3.44324
1.82669,-0.155336,2.853,3.39125
1.83595,-0.155336,2.853,3.39624
1.81482,-0.152777,2.806,3.34523
1.79467,-0.150326,2.761,3.29645
1.80364,-0.150326,2.761,3.30134
1.78371,-0.147931,2.717,3.25355
1.77867,-0.146787,2.696,3.23321
1.78743,-0.146787,2.696,3.23803
1.76819,-0.144501,2.654,3.19235
1.74936,-0.142268,2.613,3.14774
1.75784,-0.142268,2.613,3.15246
1.7528,-0.141179,2.593,3.13303
1.74831,-0.140145,2.574,3.11476
-2.04721,-0.151096,2.951,3.59476
-2.02036,-0.149816,2.926,3.5589
-2.01087,-0.149816,2.926,3.55352
-1.98427,-0.148536,2.901,3.51784
-1.95852,-0.147307,2.877,3.48348
-1.94918,-0.147307,2.877,3.47824
-1.90748,-0.144849,2.829,3.41507
-1.88286,-0.143672,2.806,3.38222
-1.87375,-0.143672,2.806,3.37716
-1.84936,-0.142494,2.783,3.34448
-1.82578,-0.141367,2.761,3.31309
-1.81682,-0.141367,2.761,3.30816
-1.79345,-0.140241,2.739,3.27693
-1.78456,-0.140241,2.739,3.27207
-1.77567,-0.140241,2.739,3.26723
-1.76678,-0.140241,2.739,3.26241
-1.75789,-0.140241,2.739,3.2576
-1.7771,-0.142494,2.783,3.30507
-1.79729,-0.144849,2.829,3.35477
-1.78811,-0.144849,2.829,3.34986
-1.83992,-0.149816,2.926,3.45966
-1.83042,-0.149816,2.926,3.45462
-1.85267,-0.152427,2.977,3.50972
-1.843,-0.152427,2.977,3.50463
-1.83334,-0.152427,2.977,3.49956
-1.8396,-0.153758,3.003,3.52502
-1.82986,-0.153758,3.003,3.51995
-1.83648,-0.155141,3.03,3.54649
-1.82664,-0.155141,3.03,3.54141
-1.81681,-0.155141,3.03,3.53635
-1.82307,-0.156523,3.057,3.56277
-1.81315,-0.156523,3.057,3.5577
-1.80323,-0.156523,3.057,3.55266
-1.77747,-0.155141,3.03,3.5163
-1.76763,-0.155141,3.03,3.51134
nan,nan,nan,NaN
nan,nan,nan,NaN
nan,nan,nan,NaN
nan,nan,nan,NaN
nan,nan,nan,NaN
nan,nan,nan,NaN
nan,nan,nan,NaN
nan,nan,nan,NaN
nan,nan,nan,NaN
nan,nan,nan,NaN
nan,nan,nan,NaN
nan,nan,nan,NaN
nan,nan,nan,NaN
nan,nan,nan,NaN
nan,nan,nan,NaN
nan,nan,nan,NaN
nan,nan,nan,NaN
nan,nan,nan,NaN
nan,nan,nan,NaN
nan,nan,nan,NaN
nan,nan,nan,NaN
nan,nan,nan,NaN
nan,nan,nan,NaN
nan,nan,nan,NaN
nan,nan,nan,NaN
nan,nan,nan,NaN
nan,nan,nan,NaN
nan,nan,nan,NaN
-1.16295,-0.121706,2.377,2.64904
-1.15523,-0.121706,2.377,2.64566
-1.14752,-0.121706,2.377,2.6423
-1.1398,-0.121706,2.377,2.63896
-1.13209,-0.121706,2.377,2.63563
-1.12437,-0.121706,2.377,2.63233
-1.11666,-0.121706,2.377,2.62904
-1.10894,-0.121706,2.377,2.62578
-1.10123,-0.121706,2.377,2.62253
-1.08615,-0.120887,2.361,2.60166
-1.07849,-0.120887,2.361,2.59847
-1.07082,-0.120887,2.361,2.5953
-1.05596,-0.120068,2.345,2.57458
-1.04835,-0.120068,2.345,2.57147
-1.04073,-0.120068,2.345,2.56838
-1.03312,-0.120068,2.345,2.5653
-1.02551,-0.120068,2.345,2.56225
-1.0179,-0.120068,2.345,2.55921
-1.01029,-0.120068,2.345,2.55619
-1.00268,-0.120068,2.345,2.55319
-0.995066,-0.120068,2.345,2.55022
-0.987455,-0.120068,2.345,2.54726
-0.979844,-0.120068,2.345,2.54431
-0.972232,-0.120068,2.345,2.54139
-0.964621,-0.120068,2.345,2.53849
-0.95701,-0.120068,2.345,2.53561
-0.949399,-0.120068,2.345,2.53275
-0.941787,-0.120068,2.345,2.5299
-0.934176,-0.120068,2.345,2.52708
-0.926565,-0.120068,2.345,2.52427
-0.918953,-0.120068,2.345,2.52149
-0.911342,-0.120068,2.345,2.51873
-0.909897,-0.120887,2.361,2.53315
-0.902234,-0.120887,2.361,2.53041
-0.894571,-0.120887,2.361,2.52768
-0.886907,-0.120887,2.361,2.52498
-0.879244,-0.120887,2.361,2.5223
-0.877488,-0.121706,2.377,2.53672
-0.869772,-0.121706,2.377,2.53406
-0.862057,-0.121706,2.377,2.53142
-0.854342,-0.121706,2.377,2.5288
-0.846627,-0.121706,2.377,2.52621
-0.838912,-0.121706,2.377,2.52363
-0.837141,-0.122576,2.394,2.53911
-0.829371,-0.122576,2.394,2.53656
-0.821601,-0.122576,2.394,2.53403
-0.81383,-0.122576,2.394,2.53152
-0.80606,-0.122576,2.394,2.52903
-0.79829,-0.122576,2.394,2.52656
-0.790519,-0.122576,2.394,2.52412
-0.782749,-0.122576,2.394,2.5217
-0.774979,-0.122576,2.394,2.5193
-0.772656,-0.123447,2.411,2.53479
-0.764831,-0.123447,2.411,2.53242
-0.757005,-0.123447,2.411,2.53006
-0.74918,-0.123447,2.411,2.52773
-0.741354,-0.123447,2.411,2.52542
-0.738701,-0.124317,2.428,2.54093
-0.73082,-0.124317,2.428,2.53865
-0.722939,-0.124317,2.428,2.53639
-0.715059,-0.124317,2.428,2.53416
-0.707178,-0.124317,2.428,2.53194
-0.699297,-0.124317,2.428,2.52975
-0.691417,-0.124317,2.428,2.52759
-0.683536,-0.124317,2.428,2.52544
-0.675655,-0.124317,2.428,2.52332
-0.667775,-0.124317,2.428,2.52122
-0.659894,-0.124317,2.428,2.51915
-0.652013,-0.124317,2.428,2.51709
-0.644133,-0.124317,2.428,2.51506
-0.636252,-0.124317,2.428,2.51306
-0.628371,-0.124317,2.428,2.51107
-0.620491,-0.124317,2.428,2.50911
-0.616899,-0.125188,2.445,2.52473
-0.608963,-0.125188,2.445,2.5228
-0.596848,-0.124317,2.428,2.50337
-0.588968,-0.124317,2.428,2.5015
-0.581087,-0.124317,2.428,2.49966
-0.573206,-0.124317,2.428,2.49784
-0.565326,-0.124317,2.428,2.49604
-0.557445,-0.124317,2.428,2.49427
-0.549564,-0.124317,2.428,2.49252
-0.541684,-0.124317,2.428,2.4908
-0.533803,-0.124317,2.428,2.48909
-0.525922,-0.124317,2.428,2.48742
-0.518042,-0.124317,2.428,2.48576
-0.513733,-0.125188,2.445,2.50152
-0.505797,-0.125188,2.445,2.49991
-0.497861,-0.125188,2.445,2.49831
-0.489925,-0.125188,2.445,2.49674
-0.481989,-0.125188,2.445,2.4952
-0.474054,-0.125188,2.445,2.49368
-0.469549,-0.126109,2.463,2.51053
-0.461555,-0.126109,2.463,2.50904
-0.453561,-0.126109,2.463,2.50759
-0.445566,-0.126109,2.463,2.50615
-0.44077,-0.127031,2.481,2.52305
-0.432717,-0.127031,2.481,2.52165
-0.424665,-0.127031,2.481,2.52029
-0.419634,-0.127953,2.499,2.53722
-0.411523,-0.127953,2.499,2.53589
-0.403412,-0.127953,2.499,2.53458
-0.398148,-0.128874,2.517,2.55155
-0.389979,-0.128874,2.517,2.55029
-0.381809,-0.128874,2.517,2.54905
-0.37364,-0.128874,2.517,2.54784
-0.36547,-0.128874,2.517,2.54666
-0.357301,-0.128874,2.517,2.5455
-0.351766,-0.129847,2.536,2.56357
-0.343535,-0.129847,2.536,2.56245
-0.335304,-0.129847,2.536,2.56136
-0.327073,-0.129847,2.536,2.5603
-0.32123,-0.13082,2.555,2.57844
-0.312937,-0.13082,2.555,2.57742
-0.304645,-0.13082,2.555,2.57642
-0.296352,-0.13082,2.555,2.57545
-0.288059,-0.13082,2.555,2.57451
-0.279766,-0.13082,2.555,2.5736
-0.271473,-0.13082,2.555,2.57271
-0.26318,-0.13082,2.555,2.57185
-0.254887,-0.13082,2.555,2.57101
-0.246594,-0.13082,2.555,2.5702
-0.238301,-0.13082,2.555,2.56942
-0.231719,-0.131793,2.574,2.58777
-0.223364,-0.131793,2.574,2.58703
-0.213423,-0.13082,2.555,2.56723
-0.20513,-0.13082,2.555,2.56656
-0.196837,-0.13082,2.555,2.56591
-0.188544,-0.13082,2.555,2.56529
-0.181592,-0.131793,2.574,2.58376
-0.171958,-0.13082,2.555,2.56412
-0.163665,-0.13082,2.555,2.56358
-0.155372,-0.13082,2.555,2.56306
-0.14708,-0.13082,2.555,2.56257
-0.138787,-0.13082,2.555,2.56211
-0.130494,-0.13082,2.555,2.56167
-0.122201,-0.13082,2.555,2.56126
-0.113908,-0.13082,2.555,2.56088
-0.105615,-0.13082,2.555,2.56053
-0.0980459,-0.131793,2.574,2.57924
-0.0896914,-0.131793,2.574,2.57893
-0.0813368,-0.131793,2.574,2.57866
-0.0729822,-0.131793,2.574,2.5784
-0.0646277,-0.131793,2.574,2.57818
-0.0562731,-0.131793,2.574,2.57799
-0.0479185,-0.131793,2.574,2.57782
-0.039564,-0.131793,2.574,2.57768
-0.0312094,-0.131793,2.574,2.57756
-0.0228548,-0.131793,2.574,2.57747
-0.0146073,-0.132766,2.593,2.59644
-0.00619107,-0.132766,2.593,2.5964
0.00222516,-0.132766,2.593,2.5964
0.0106414,-0.132766,2.593,2.59642
0.0190576,-0.132766,2.593,2.59647
0.0274739,-0.132766,2.593,2.59654
0.0358901,-0.132766,2.593,2.59664
0.0443063,-0.132766,2.593,2.59677
0.0527226,-0.132766,2.593,2.59693
0.0616104,-0.13379,2.613,2.61715
0.0700915,-0.13379,2.613,2.61736
0.0779713,-0.132766,2.593,2.59757
0.0863875,-0.132766,2.593,2.59783
0.095535,-0.13379,2.613,2.61817
0.10322,-0.132766,2.593,2.59845
0.111636,-0.132766,2.593,2.5988
0.120052,-0.132766,2.593,2.59917
0.128469,-0.132766,2.593,2.59957
0.136885,-0.132766,2.593,2.6
0.146422,-0.13379,2.613,2.62052
0.154903,-0.13379,2.613,2.621
0.163384,-0.13379,2.613,2.62152
0.171865,-0.13379,2.613,2.62206
0.180346,-0.13379,2.613,2.62263
0.188828,-0.13379,2.613,2.62323
0.197309,-0.13379,2.613,2.62385
0.207365,-0.134814,2.633,2.64459
0.215911,-0.134814,2.633,2.64528
0.224457,-0.134814,2.633,2.64599
0.233003,-0.134814,2.633,2.64673
0.241549,-0.134814,2.633,2.64749
0.250095,-0.134814,2.633,2.64828
0.258641,-0.134814,2.633,2.64911
0.267187,-0.134814,2.633,2.64995
0.275734,-0.134814,2.633,2.65083
0.28428,-0.134814,2.633,2.65173
0.292826,-0.134814,2.633,2.65266
0.296793,-0.132766,2.593,2.6133
0.30521,-0.132766,2.593,2.61427
0.313626,-0.132766,2.593,2.61527
0.319682,-0.131793,2.574,2.59712
0.325615,-0.13082,2.555,2.57899
0.333908,-0.13082,2.555,2.58005
0.342201,-0.13082,2.555,2.58113
0.347888,-0.129847,2.536,2.56304
0.356119,-0.129847,2.536,2.56417
0.36435,-0.129847,2.536,2.56533
0.372581,-0.129847,2.536,2.56651
0.380813,-0.129847,2.536,2.56772
0.389044,-0.129847,2.536,2.56895
0.397275,-0.129847,2.536,2.57021
0.402468,-0.128874,2.517,2.55223
0.410638,-0.128874,2.517,2.55353
0.418807,-0.128874,2.517,2.55486
0.4302,-0.129847,2.536,2.57551
0.435146,-0.128874,2.517,2.55759
0.443316,-0.128874,2.517,2.55899
0.451486,-0.128874,2.517,2.56042
0.459655,-0.128874,2.517,2.56187
0.467825,-0.128874,2.517,2.56335
0.475994,-0.128874,2.517,2.56485
0.484164,-0.128874,2.517,2.56638
0.492333,-0.128874,2.517,2.56794
0.500503,-0.128874,2.517,2.56951
0.508672,-0.128874,2.517,2.57112
0.516842,-0.128874,2.517,2.57275
0.525012,-0.128874,2.517,2.5744
0.533181,-0.128874,2.517,2.57608
0.541351,-0.128874,2.517,2.57778
0.54952,-0.128874,2.517,2.57951
0.55769,-0.128874,2.517,2.58126
0.570131,-0.129847,2.536,2.60254
0.578362,-0.129847,2.536,2.60435
0.586593,-0.129847,2.536,2.60619
0.599281,-0.13082,2.555,2.6276
0.607574,-0.13082,2.555,2.6295
0.615867,-0.13082,2.555,2.63143
0.62416,-0.13082,2.555,2.63338
0.637156,-0.131793,2.574,2.65496
0.64551,-0.131793,2.574,2.65698
0.653865,-0.131793,2.574,2.65902
0.662219,-0.131793,2.574,2.66109
0.670574,-0.131793,2.574,2.66318
0.678929,-0.131793,2.574,2.66529
0.68221,-0.13082,2.555,2.64774
0.690503,-0.13082,2.555,2.64989
0.698796,-0.13082,2.555,2.65207
0.712347,-0.131793,2.574,2.674
0.720701,-0.131793,2.574,2.67624
0.729056,-0.131793,2.574,2.6785
0.737411,-0.131793,2.574,2.68079
0.74026,-0.13082,2.555,2.66329
0.748553,-0.13082,2.555,2.66561
0.756846,-0.13082,2.555,2.66795
0.765139,-0.13082,2.555,2.67031
0.773432,-0.13082,2.555,2.6727
0.781725,-0.13082,2.555,2.67511
0.790018,-0.13082,2.555,2.67755
0.798311,-0.13082,2.555,2.68001
0.806603,-0.13082,2.555,2.68249
0.814896,-0.13082,2.555,2.68499
0.823189,-0.13082,2.555,2.68752
0.831482,-0.13082,2.555,2.69007
0.83353,-0.129847,2.536,2.67263
0.835455,-0.128874,2.517,2.65516
0.843624,-0.128874,2.517,2.65774
0.851794,-0.128874,2.517,2.66035
0.853814,-0.127953,2.499,2.64393
0.861925,-0.127953,2.499,2.64656
0.870036,-0.127953,2.499,2.64921
0.871822,-0.127031,2.481,2.63279
0.879874,-0.127031,2.481,2.63547
0.881485,-0.126109,2.463,2.61902
0.882979,-0.125188,2.445,2.60257
0.890915,-0.125188,2.445,2.60527
0.898851,-0.125188,2.445,2.60799
0.900482,-0.124317,2.428,2.59259
0.908362,-0.124317,2.428,2.59533
0.916243,-0.124317,2.428,2.5981
0.917653,-0.123447,2.411,2.58268
0.918953,-0.122576,2.394,2.56724
0.926724,-0.122576,2.394,2.57003
0.934494,-0.122576,2.394,2.57285
0.942264,-0.122576,2.394,2.57568
0.950035,-0.122576,2.394,2.57853
0.951003,-0.121706,2.377,2.56307
0.958719,-0.121706,2.377,2.56595
0.973346,-0.122576,2.394,2.58721
0.974149,-0.121706,2.377,2.57175
0.981864,-0.121706,2.377,2.57468
0.989579,-0.121706,2.377,2.57764
1.01156,-0.123447,2.411,2.61752
1.01938,-0.123447,2.411,2.62055
1.03445,-0.124317,2.428,2.64211
1.05736,-0.126109,2.463,2.68333
1.06535,-0.126109,2.463,2.68649
1.09688,-0.128874,2.517,2.74864
1.13008,-0.131793,2.574,2.81423
1.13843,-0.131793,2.574,2.8176
1.18243,-0.135889,2.654,2.90866
1.22919,-0.140241,2.739,3.00544
1.26836,-0.143672,2.806,3.0827
1.27747,-0.143672,2.806,3.08646
1.31913,-0.147307,2.877,3.16843
1.36264,-0.151096,2.951,3.25392
1.37222,-0.151096,2.951,3.25795
1.39397,-0.152427,2.977,3.29073
1.40363,-0.152427,2.977,3.29484
1.42564,-0.153758,3.003,3.32778
1.43538,-0.153758,3.003,3.33196
1.44513,-0.153758,3.003,3.33617
1.46796,-0.155141,3.03,3.37044
1.47779,-0.155141,3.03,3.37474
1.47437,-0.153758,3.003,3.34894
1.48412,-0.153758,3.003,3.35325
1.49387,-0.153758,3.003,3.35757
1.50361,-0.153758,3.003,3.36192
1.51336,-0.153758,3.003,3.36629
1.50992,-0.152427,2.977,3.3415
