-0.914845,-0.208026,2.394,2.57127
-0.900633,-0.206549,2.377,2.55028
-0.892918,-0.206549,2.377,2.54757
-0.885203,-0.206549,2.377,2.54487
-0.877488,-0.206549,2.377,2.5422
-0.869772,-0.206549,2.377,2.53955
-0.862057,-0.206549,2.377,2.53691
-0.854342,-0.206549,2.377,2.5343
-0.846627,-0.206549,2.377,2.53171
-0.838912,-0.206549,2.377,2.52914
-0.831197,-0.206549,2.377,2.52659
-0.823481,-0.206549,2.377,2.52407
-0.815766,-0.206549,2.377,2.52156
-0.81383,-0.208026,2.394,2.53709
-0.80606,-0.208026,2.394,2.53461
-0.79829,-0.208026,2.394,2.53215
-0.790519,-0.208026,2.394,2.52971
-0.782749,-0.208026,2.394,2.52729
-0.774979,-0.208026,2.394,2.5249
-0.767208,-0.208026,2.394,2.52252
-0.759438,-0.208026,2.394,2.52017
-0.751668,-0.208026,2.394,2.51784
-0.743897,-0.208026,2.394,2.51553
-0.741354,-0.209503,2.411,2.53109
-0.733529,-0.209503,2.411,2.52881
-0.725703,-0.209503,2.411,2.52655
-0.717878,-0.209503,2.411,2.52431
-0.710052,-0.209503,2.411,2.5221
-0.702227,-0.209503,2.411,2.51991
-0.694401,-0.209503,2.411,2.51774
-0.686576,-0.209503,2.411,2.51559
-0.67875,-0.209503,2.411,2.51347
-0.670925,-0.209503,2.411,2.51136
-0.663099,-0.209503,2.411,2.50929
-0.655274,-0.209503,2.411,2.50723
-0.647448,-0.209503,2.411,2.50519
-0.639623,-0.209503,2.411,2.50318
-0.636252,-0.21098,2.428,2.51883
-0.628371,-0.21098,2.428,2.51685
-0.620491,-0.21098,2.428,2.5149
-0.61261,-0.21098,2.428,2.51296
-0.604729,-0.21098,2.428,2.51105
-0.596848,-0.21098,2.428,2.50917
-0.593092,-0.212458,2.445,2.52486
-0.585156,-0.212458,2.445,2.52301
-0.581469,-0.214022,2.463,2.53974
-0.573475,-0.214022,2.463,2.53792
-0.565481,-0.214022,2.463,2.53613
-0.557486,-0.214022,2.463,2.53436
-0.553508,-0.215586,2.481,2.55112
-0.549413,-0.21715,2.499,2.56788
-0.541301,-0.21715,2.499,2.56616
-0.53319,-0.21715,2.499,2.56446
-0.528861,-0.218714,2.517,2.58124
-0.520692,-0.218714,2.517,2.57958
-0.512522,-0.218714,2.517,2.57795
-0.50816,-0.220365,2.536,2.59578
-0.499929,-0.220365,2.536,2.59418
-0.491697,-0.220365,2.536,2.59261
-0.487088,-0.222016,2.555,2.61047
-0.478795,-0.222016,2.555,2.60894
-0.470502,-0.222016,2.555,2.60743
-0.465647,-0.223667,2.574,2.62532
-0.457292,-0.223667,2.574,2.62386
-0.448938,-0.223667,2.574,2.62241
-0.443835,-0.225318,2.593,2.64034
-0.435419,-0.225318,2.593,2.63894
-0.430296,-0.227056,2.613,2.65791
-0.421815,-0.227056,2.613,2.65655
-0.413334,-0.227056,2.613,2.65522
-0.404853,-0.227056,2.613,2.65391
-0.396372,-0.227056,2.613,2.65263
-0.384922,-0.225318,2.593,2.63108
-0.376505,-0.225318,2.593,2.62986
-0.368089,-0.225318,2.593,2.62867
-0.359673,-0.225318,2.593,2.62751
-0.348683,-0.223667,2.574,2.60712
-0.340328,-0.223667,2.574,2.60602
-0.331974,-0.223667,2.574,2.60494
-0.323619,-0.223667,2.574,2.60389
-0.317592,-0.225318,2.593,2.62208
-0.309175,-0.225318,2.593,2.62107
-0.300759,-0.225318,2.593,2.62009
-0.292343,-0.225318,2.593,2.61914
-0.283927,-0.225318,2.593,2.61821
-0.275511,-0.225318,2.593,2.61731
-0.267094,-0.225318,2.593,2.61644
-0.258678,-0.225318,2.593,2.61559
-0.250262,-0.225318,2.593,2.61478
-0.243711,-0.227056,2.613,2.63414
-0.23523,-0.227056,2.613,2.63337
-0.225013,-0.225318,2.593,2.61248
-0.216597,-0.225318,2.593,2.61177
-0.209786,-0.227056,2.613,2.63122
-0.199764,-0.225318,2.593,2.61043
-0.191348,-0.225318,2.593,2.6098
-0.182932,-0.225318,2.593,2.60919
-0.174516,-0.225318,2.593,2.60862
-0.1661,-0.225318,2.593,2.60807
-0.156528,-0.223667,2.574,2.58844
-0.148173,-0.223667,2.574,2.58794
-0.139819,-0.223667,2.574,2.58748
-0.131464,-0.223667,2.574,2.58704
-0.12311,-0.223667,2.574,2.58663
-0.114755,-0.223667,2.574,2.58625
-0.1064,-0.223667,2.574,2.58589
-0.0980459,-0.223667,2.574,2.58556
-0.0896914,-0.223667,2.574,2.58526
-0.0813368,-0.223667,2.574,2.58498
-0.073521,-0.225318,2.593,2.60381
-0.0651047,-0.225318,2.593,2.60359
-0.0571257,-0.227056,2.613,2.62347
-0.0486446,-0.227056,2.613,2.6233
-0.0404708,-0.228794,2.633,2.64323
-0.0319248,-0.228794,2.633,2.64311
-0.0233787,-0.228794,2.633,2.64303
-0.0148326,-0.228794,2.633,2.64296
-0.00628658,-0.228794,2.633,2.64293
0.00225949,-0.228794,2.633,2.64292
0.0108056,-0.228794,2.633,2.64294
0.0193516,-0.228794,2.633,2.64299
0.0278977,-0.228794,2.633,2.64307
0.0361669,-0.227056,2.613,2.6231
0.0446481,-0.227056,2.613,2.62323
0.0531292,-0.227056,2.613,2.62338
0.0616104,-0.227056,2.613,2.62357
0.0700915,-0.227056,2.613,2.62378
0.0779713,-0.225318,2.593,2.60394
0.0863875,-0.225318,2.593,2.6042
0.0948037,-0.225318,2.593,2.6045
0.10322,-0.225318,2.593,2.60482
0.111636,-0.225318,2.593,2.60516
0.120052,-0.225318,2.593,2.60554
0.128469,-0.225318,2.593,2.60594
0.136885,-0.225318,2.593,2.60637
0.145301,-0.225318,2.593,2.60682
0.153717,-0.225318,2.593,2.60731
0.162134,-0.225318,2.593,2.60782
0.17055,-0.225318,2.593,2.60835
0.178966,-0.225318,2.593,2.60892
0.187382,-0.225318,2.593,2.60951
0.195799,-0.225318,2.593,2.61013
0.204215,-0.225318,2.593,2.61077
0.212631,-0.225318,2.593,2.61144
0.221047,-0.225318,2.593,2.61214
0.229463,-0.225318,2.593,2.61287
0.239715,-0.227056,2.613,2.63378
0.248196,-0.227056,2.613,2.63456
0.256677,-0.227056,2.613,2.63538
0.265158,-0.227056,2.613,2.63622
0.273639,-0.227056,2.613,2.63708
0.28212,-0.227056,2.613,2.63798
0.290601,-0.227056,2.613,2.6389
0.299083,-0.227056,2.613,2.63984
0.307564,-0.227056,2.613,2.64082
0.316045,-0.227056,2.613,2.64182
0.322042,-0.225318,2.593,2.62262
0.330458,-0.225318,2.593,2.62367
0.338875,-0.225318,2.593,2.62474
0.347291,-0.225318,2.593,2.62584
0.355707,-0.225318,2.593,2.62697
0.364123,-0.225318,2.593,2.62812
0.372539,-0.225318,2.593,2.6293
0.380956,-0.225318,2.593,2.6305
0.386519,-0.223667,2.574,2.61245
0.394873,-0.223667,2.574,2.6137
0.403228,-0.223667,2.574,2.61498
0.411583,-0.223667,2.574,2.61628
0.419937,-0.223667,2.574,2.6176
0.428292,-0.223667,2.574,2.61896
0.433423,-0.222016,2.555,2.60099
0.441716,-0.222016,2.555,2.60239
0.450009,-0.222016,2.555,2.60381
0.458302,-0.222016,2.555,2.60526
0.466595,-0.222016,2.555,2.60673
0.474888,-0.222016,2.555,2.60822
0.479587,-0.220365,2.536,2.59034
0.487819,-0.220365,2.536,2.59188
0.49605,-0.220365,2.536,2.59344
0.504281,-0.220365,2.536,2.59503
0.512512,-0.220365,2.536,2.59664
0.520743,-0.220365,2.536,2.59827
0.525012,-0.218714,2.517,2.58046
0.533181,-0.218714,2.517,2.58213
0.537479,-0.21715,2.499,2.56535
0.54559,-0.21715,2.499,2.56707
0.553702,-0.21715,2.499,2.5688
0.561813,-0.21715,2.499,2.57056
0.569924,-0.21715,2.499,2.57235
0.578035,-0.21715,2.499,2.57416
0.590368,-0.218714,2.517,2.59454
0.598538,-0.218714,2.517,2.59642
0.606707,-0.218714,2.517,2.59831
0.619518,-0.220365,2.536,2.61986
0.627749,-0.220365,2.536,2.62182
0.635981,-0.220365,2.536,2.6238
0.644212,-0.220365,2.536,2.62581
0.652443,-0.220365,2.536,2.62784
0.660674,-0.220365,2.536,2.62989
0.663894,-0.218714,2.517,2.61226
0.672064,-0.218714,2.517,2.61434
0.680233,-0.218714,2.517,2.61646
0.68348,-0.21715,2.499,2.59987
0.686609,-0.215586,2.481,2.58327
0.694662,-0.215586,2.481,2.58542
0.702715,-0.215586,2.481,2.58759
0.710768,-0.215586,2.481,2.58979
0.71882,-0.215586,2.481,2.59202
0.721599,-0.214022,2.463,2.57544
0.729594,-0.214022,2.463,2.57769
0.737588,-0.214022,2.463,2.57996
0.745582,-0.214022,2.463,2.58226
0.753577,-0.214022,2.463,2.58458
0.761571,-0.214022,2.463,2.58692
0.769565,-0.214022,2.463,2.58929
0.777559,-0.214022,2.463,2.59167
0.785554,-0.214022,2.463,2.59408
0.793548,-0.214022,2.463,2.59652
0.801542,-0.214022,2.463,2.59897
0.809537,-0.214022,2.463,2.60145
0.817531,-0.214022,2.463,2.60395
0.825525,-0.214022,2.463,2.60647
0.833519,-0.214022,2.463,2.60901
0.841514,-0.214022,2.463,2.61157
0.849508,-0.214022,2.463,2.61416
0.851236,-0.212458,2.445,2.59765
0.859171,-0.212458,2.445,2.60026
0.867107,-0.212458,2.445,2.60289
0.868959,-0.21098,2.428,2.58743
0.87684,-0.21098,2.428,2.59009
0.88472,-0.21098,2.428,2.59276
0.892601,-0.21098,2.428,2.59546
0.894177,-0.209503,2.411,2.57999
0.902002,-0.209503,2.411,2.58272
0.909828,-0.209503,2.411,2.58546
0.917653,-0.209503,2.411,2.58822
0.925479,-0.209503,2.411,2.59101
0.933304,-0.209503,2.411,2.59381
0.934494,-0.208026,2.394,2.57833
0.942264,-0.208026,2.394,2.58116
0.950035,-0.208026,2.394,2.584
0.957805,-0.208026,2.394,2.58687
0.965575,-0.208026,2.394,2.58976
0.973346,-0.208026,2.394,2.59267
0.981116,-0.208026,2.394,2.59559
0.988886,-0.208026,2.394,2.59854
nan,nan,nan,NaN
nan,nan,nan,NaN
nan,nan,nan,NaN
nan,nan,nan,NaN
nan,nan,nan,NaN
nan,nan,nan,NaN
nan,nan,nan,NaN
nan,nan,nan,NaN
nan,nan,nan,NaN
nan,nan,nan,NaN
nan,nan,nan,NaN
nan,nan,nan,NaN
nan,nan,nan,NaN
nan,nan,nan,NaN
1.73712,-0.326898,3.762,4.15657
1.74933,-0.326898,3.762,4.16169
1.76154,-0.326898,3.762,4.16684
1.77375,-0.326898,3.762,4.17201
1.78596,-0.326898,3.762,4.17722
1.79817,-0.326898,3.762,4.18246
1.81038,-0.326898,3.762,4.18772
1.8226,-0.326898,3.762,4.19301
1.83481,-0.326898,3.762,4.19834
1.82689,-0.323335,3.721,4.15787
1.83896,-0.323335,3.721,4.16319
1.85104,-0.323335,3.721,4.16854
1.86312,-0.323335,3.721,4.17392
1.8752,-0.323335,3.721,4.17932
nan,nan,nan,NaN
nan,nan,nan,NaN
nan,nan,nan,NaN
nan,nan,nan,NaN
nan,nan,nan,NaN
nan,nan,nan,NaN
nan,nan,nan,NaN
nan,nan,nan,NaN
1.92151,-0.313169,3.604,4.09623
1.93321,-0.313169,3.604,4.10173
1.94491,-0.313169,3.604,4.10726
1.95661,-0.313169,3.604,4.11281
1.9683,-0.313169,3.604,4.11839
1.98,-0.313169,3.604,4.12399
1.9917,-0.313169,3.604,4.12962
2.0034,-0.313169,3.604,4.13527
2.03634,-0.316471,3.642,4.18462
2.04816,-0.316471,3.642,4.19038
2.03849,-0.313169,3.604,4.15239
2.05019,-0.313169,3.604,4.15814
2.06189,-0.313169,3.604,4.16392
2.05172,-0.309867,3.566,4.12576
2.04189,-0.306652,3.529,4.08866
2.05334,-0.306652,3.529,4.0944
2.04373,-0.303523,3.493,4.05833
2.01389,-0.297441,3.423,3.9826
2.025,-0.297441,3.423,3.98823
2.01588,-0.294486,3.389,3.95422
1.98801,-0.288838,3.324,3.88389
1.99879,-0.288838,3.324,3.88942
1.97089,-0.283277,3.26,3.81998
1.9444,-0.277976,3.199,3.75387
1.95478,-0.277976,3.199,3.75926
1.94735,-0.275456,3.17,3.73054
1.93973,-0.272936,3.141,3.70175
1.94992,-0.272936,3.141,3.7071
1.92455,-0.267983,3.084,3.6451
1.91762,-0.265637,3.057,3.61844
1.92754,-0.265637,3.057,3.6237
1.92035,-0.263291,3.03,3.59694
1.93019,-0.263291,3.03,3.6022
1.90609,-0.258686,2.977,3.54438
1.91575,-0.258686,2.977,3.54958
1.9086,-0.256426,2.951,3.52376
1.90192,-0.254254,2.926,3.49906
1.91142,-0.254254,2.926,3.50423
1.88875,-0.249996,2.877,3.45065
1.88225,-0.247911,2.853,3.42695
1.89151,-0.247911,2.853,3.43204
1.88479,-0.245825,2.829,3.40824
1.87857,-0.243827,2.806,3.38557
1.88768,-0.243827,2.806,3.39064
1.88124,-0.241828,2.783,3.36788
1.86038,-0.238005,2.739,3.31961
-2.01252,-0.242668,2.901,3.53906
-2.0031,-0.242668,2.901,3.53371
-1.97719,-0.240661,2.877,3.49919
-1.96786,-0.240661,2.877,3.49392
-1.94218,-0.238653,2.853,3.45957
-1.93292,-0.238653,2.853,3.45438
-1.92366,-0.238653,2.853,3.44921
-1.9144,-0.238653,2.853,3.44405
-1.90514,-0.238653,2.853,3.43891
-1.89588,-0.238653,2.853,3.43379
-1.88662,-0.238653,2.853,3.42869
-1.89315,-0.240661,2.877,3.4524
-1.88381,-0.240661,2.877,3.44729
-1.9064,-0.24476,2.926,3.50082
-1.91311,-0.246851,2.951,3.52553
-1.9203,-0.249026,2.977,3.55135
-1.91064,-0.249026,2.977,3.54614
-1.93482,-0.253459,3.03,3.60398
-1.94214,-0.255718,3.057,3.63078
-1.93222,-0.255718,3.057,3.62548
-1.93927,-0.257976,3.084,3.65218
-1.94678,-0.260318,3.112,3.67998
-1.95473,-0.262744,3.141,3.70889
-1.94453,-0.262744,3.141,3.70353
-1.93434,-0.262744,3.141,3.69819
-1.92414,-0.262744,3.141,3.69286
-1.91395,-0.262744,3.141,3.68756
-1.90375,-0.262744,3.141,3.68228
-1.89356,-0.262744,3.141,3.67702
-1.88336,-0.262744,3.141,3.67178
-1.87317,-0.262744,3.141,3.66656
nan,nan,nan,NaN
nan,nan,nan,NaN
nan,nan,nan,NaN
nan,nan,nan,NaN
nan,nan,nan,NaN
nan,nan,nan,NaN
nan,nan,nan,NaN
nan,nan,nan,NaN
nan,nan,nan,NaN
nan,nan,nan,NaN
nan,nan,nan,NaN
nan,nan,nan,NaN
nan,nan,nan,NaN
nan,nan,nan,NaN
nan,nan,nan,NaN
nan,nan,nan,NaN
nan,nan,nan,NaN
nan,nan,nan,NaN
nan,nan,nan,NaN
nan,nan,nan,NaN
nan,nan,nan,NaN
nan,nan,nan,NaN
nan,nan,nan,NaN
nan,nan,nan,NaN
nan,nan,nan,NaN
nan,nan,nan,NaN
nan,nan,nan,NaN
nan,nan,nan,NaN
nan,nan,nan,NaN
nan,nan,nan,NaN
nan,nan,nan,NaN
nan,nan,nan,NaN
-1.19622,-0.204524,2.445,2.72961
-1.18828,-0.204524,2.445,2.72615
-1.17214,-0.203102,2.428,2.70376
-1.15611,-0.20168,2.411,2.68145
-1.14828,-0.20168,2.411,2.67809
-1.14046,-0.20168,2.411,2.67474
-1.12464,-0.200258,2.394,2.65258
-1.11687,-0.200258,2.394,2.64929
-1.1091,-0.200258,2.394,2.64603
-1.09351,-0.198836,2.377,2.62401
-1.0858,-0.198836,2.377,2.62081
-1.07808,-0.198836,2.377,2.61762
-1.07037,-0.198836,2.377,2.61445
-1.06265,-0.198836,2.377,2.6113
-1.05494,-0.198836,2.377,2.60817
-1.04722,-0.198836,2.377,2.60506
-1.03251,-0.197497,2.361,2.58445
-1.02485,-0.197497,2.361,2.5814
-1.01718,-0.197497,2.361,2.57837
-1.01636,-0.198836,2.377,2.59281
-1.00865,-0.198836,2.377,2.58979
-1.00093,-0.198836,2.377,2.5868
-0.993215,-0.198836,2.377,2.58382
-0.9855,-0.198836,2.377,2.58087
-0.977785,-0.198836,2.377,2.57793
-0.970069,-0.198836,2.377,2.57501
-0.962354,-0.198836,2.377,2.57212
-0.961466,-0.200258,2.394,2.58762
-0.953696,-0.200258,2.394,2.58474
-0.945926,-0.200258,2.394,2.58188
-0.938156,-0.200258,2.394,2.57905
-0.930385,-0.200258,2.394,2.57623
-0.922615,-0.200258,2.394,2.57343
-0.914845,-0.200258,2.394,2.57066
-0.900633,-0.198836,2.377,2.54967
-0.892918,-0.198836,2.377,2.54695
-0.885203,-0.198836,2.377,2.54426
-0.877488,-0.198836,2.377,2.54158
-0.869772,-0.198836,2.377,2.53893
-0.862057,-0.198836,2.377,2.5363
-0.854342,-0.198836,2.377,2.53369
-0.846627,-0.198836,2.377,2.5311
-0.838912,-0.198836,2.377,2.52852
-0.831197,-0.198836,2.377,2.52598
-0.823481,-0.198836,2.377,2.52345
-0.815766,-0.198836,2.377,2.52094
-0.81383,-0.200258,2.394,2.53647
-0.80606,-0.200258,2.394,2.53398
-0.79829,-0.200258,2.394,2.53152
-0.790519,-0.200258,2.394,2.52908
-0.782749,-0.200258,2.394,2.52666
-0.774979,-0.200258,2.394,2.52427
-0.767208,-0.200258,2.394,2.52189
-0.759438,-0.200258,2.394,2.51954
-0.751668,-0.200258,2.394,2.51721
-0.74918,-0.20168,2.411,2.53276
-0.741354,-0.20168,2.411,2.53045
-0.733529,-0.20168,2.411,2.52817
-0.725703,-0.20168,2.411,2.52591
-0.722939,-0.203102,2.428,2.54147
-0.715059,-0.203102,2.428,2.53924
-0.707178,-0.203102,2.428,2.53703
-0.699297,-0.203102,2.428,2.53485
-0.691417,-0.203102,2.428,2.53268
-0.683536,-0.203102,2.428,2.53054
-0.670925,-0.20168,2.411,2.51072
-0.663099,-0.20168,2.411,2.50864
-0.655274,-0.20168,2.411,2.50659
-0.647448,-0.20168,2.411,2.50455
-0.639623,-0.20168,2.411,2.50254
-0.636252,-0.203102,2.428,2.51818
-0.628371,-0.203102,2.428,2.5162
-0.620491,-0.203102,2.428,2.51425
-0.61261,-0.203102,2.428,2.51231
-0.604729,-0.203102,2.428,2.5104
-0.596848,-0.203102,2.428,2.50852
-0.593092,-0.204524,2.445,2.52421
-0.589464,-0.20603,2.463,2.54092
-0.581469,-0.20603,2.463,2.53908
-0.573475,-0.20603,2.463,2.53726
-0.565481,-0.20603,2.463,2.53547
-0.557486,-0.20603,2.463,2.53369
-0.553508,-0.207535,2.481,2.55045
-0.549413,-0.209041,2.499,2.56721
-0.541301,-0.209041,2.499,2.56548
-0.53319,-0.209041,2.499,2.56378
-0.525079,-0.209041,2.499,2.56211
-0.516968,-0.209041,2.499,2.56046
-0.508857,-0.209041,2.499,2.55883
-0.500746,-0.209041,2.499,2.55723
-0.496183,-0.210547,2.517,2.57407
-0.488013,-0.210547,2.517,2.5725
-0.483466,-0.212136,2.536,2.59037
-0.475235,-0.212136,2.536,2.58885
-0.467004,-0.212136,2.536,2.58735
-0.46221,-0.213725,2.555,2.60525
-0.457292,-0.215315,2.574,2.62316
-0.448938,-0.215315,2.574,2.62171
-0.443835,-0.216904,2.593,2.63964
-0.435419,-0.216904,2.593,2.63824
-0.430296,-0.218577,2.613,2.6572
-0.421815,-0.218577,2.613,2.65584
-0.41017,-0.216904,2.593,2.63419
-0.401754,-0.216904,2.593,2.63289
-0.393338,-0.216904,2.593,2.63162
-0.384922,-0.216904,2.593,2.63037
-0.376505,-0.216904,2.593,2.62915
-0.368089,-0.216904,2.593,2.62796
-0.357037,-0.215315,2.574,2.60755
-0.348683,-0.215315,2.574,2.60642
-0.34284,-0.216904,2.593,2.62455
-0.334424,-0.216904,2.593,2.62346
-0.326008,-0.216904,2.593,2.6224
-0.317592,-0.216904,2.593,2.62137
-0.309175,-0.216904,2.593,2.62036
-0.300759,-0.216904,2.593,2.61938
-0.292343,-0.216904,2.593,2.61843
-0.283927,-0.216904,2.593,2.6175
-0.275511,-0.216904,2.593,2.6166
-0.267094,-0.216904,2.593,2.61573
-0.258678,-0.216904,2.593,2.61488
-0.250262,-0.216904,2.593,2.61406
-0.243711,-0.218577,2.613,2.63343
-0.23523,-0.218577,2.613,2.63266
-0.226749,-0.218577,2.613,2.63191
-0.216597,-0.216904,2.593,2.61106
-0.208181,-0.216904,2.593,2.61037
-0.199764,-0.216904,2.593,2.60971
-0.191348,-0.216904,2.593,2.60908
-0.182932,-0.216904,2.593,2.60848
-0.174516,-0.216904,2.593,2.6079
-0.1661,-0.216904,2.593,2.60735
-0.156528,-0.215315,2.574,2.58773
-0.148173,-0.215315,2.574,2.58724
-0.139819,-0.215315,2.574,2.58677
-0.131464,-0.215315,2.574,2.58633
-0.12311,-0.215315,2.574,2.58592
-0.114755,-0.215315,2.574,2.58554
-0.1064,-0.215315,2.574,2.58518
-0.0980459,-0.215315,2.574,2.58485
-0.0896914,-0.215315,2.574,2.58455
-0.0813368,-0.215315,2.574,2.58427
-0.073521,-0.216904,2.593,2.60309
-0.0651047,-0.216904,2.593,2.60287
-0.0571257,-0.218577,2.613,2.62275
-0.0486446,-0.218577,2.613,2.62258
-0.0404708,-0.22025,2.633,2.64251
-0.0319248,-0.22025,2.633,2.64239
-0.0233787,-0.22025,2.633,2.6423
-0.0148326,-0.22025,2.633,2.64224
-0.00628658,-0.22025,2.633,2.6422
0.00225949,-0.22025,2.633,2.6422
0.0108056,-0.22025,2.633,2.64222
0.0193516,-0.22025,2.633,2.64227
0.0278977,-0.22025,2.633,2.64234
0.0361669,-0.218577,2.613,2.62238
0.0446481,-0.218577,2.613,2.62251
0.0531292,-0.218577,2.613,2.62266
0.0616104,-0.218577,2.613,2.62285
0.0700915,-0.218577,2.613,2.62306
0.0779713,-0.216904,2.593,2.60322
0.0863875,-0.216904,2.593,2.60349
0.0948037,-0.216904,2.593,2.60378
0.10322,-0.216904,2.593,2.6041
0.111636,-0.216904,2.593,2.60445
0.120052,-0.216904,2.593,2.60482
0.128469,-0.216904,2.593,2.60523
0.136885,-0.216904,2.593,2.60565
0.145301,-0.216904,2.593,2.60611
0.153717,-0.216904,2.593,2.60659
0.162134,-0.216904,2.593,2.6071
0.17055,-0.216904,2.593,2.60764
0.178966,-0.216904,2.593,2.6082
0.187382,-0.216904,2.593,2.60879
0.195799,-0.216904,2.593,2.60941
0.204215,-0.216904,2.593,2.61006
0.212631,-0.216904,2.593,2.61073
0.221047,-0.216904,2.593,2.61143
0.229463,-0.216904,2.593,2.61215
0.239715,-0.218577,2.613,2.63306
0.248196,-0.218577,2.613,2.63385
0.256677,-0.218577,2.613,2.63466
0.265158,-0.218577,2.613,2.6355
0.273639,-0.218577,2.613,2.63637
0.28212,-0.218577,2.613,2.63726
0.290601,-0.218577,2.613,2.63818
0.299083,-0.218577,2.613,2.63913
0.307564,-0.218577,2.613,2.6401
0.316045,-0.218577,2.613,2.6411
0.324526,-0.218577,2.613,2.64213
0.330458,-0.216904,2.593,2.62296
0.338875,-0.216904,2.593,2.62403
0.347291,-0.216904,2.593,2.62513
0.355707,-0.216904,2.593,2.62626
0.364123,-0.216904,2.593,2.62741
0.372539,-0.216904,2.593,2.62859
0.378164,-0.215315,2.574,2.61053
0.386519,-0.215315,2.574,2.61175
0.394873,-0.215315,2.574,2.613
0.403228,-0.215315,2.574,2.61427
0.411583,-0.215315,2.574,2.61558
0.419937,-0.215315,2.574,2.6169
0.428292,-0.215315,2.574,2.61826
0.433423,-0.213725,2.555,2.6003
0.441716,-0.213725,2.555,2.6017
0.450009,-0.213725,2.555,2.60312
0.458302,-0.213725,2.555,2.60456
0.466595,-0.213725,2.555,2.60603
0.474888,-0.213725,2.555,2.60753
0.479587,-0.212136,2.536,2.58965
0.487819,-0.212136,2.536,2.59119
0.49605,-0.212136,2.536,2.59275
0.504281,-0.212136,2.536,2.59434
0.512512,-0.212136,2.536,2.59595
0.520743,-0.212136,2.536,2.59759
0.525012,-0.210547,2.517,2.57978
0.533181,-0.210547,2.517,2.58145
0.537479,-0.209041,2.499,2.56468
0.54559,-0.209041,2.499,2.56639
0.553702,-0.209041,2.499,2.56813
0.561813,-0.209041,2.499,2.56989
0.569924,-0.209041,2.499,2.57168
0.578035,-0.209041,2.499,2.57348
0.590368,-0.210547,2.517,2.59387
0.598538,-0.210547,2.517,2.59574
0.606707,-0.210547,2.517,2.59764
0.619518,-0.212136,2.536,2.61918
0.627749,-0.212136,2.536,2.62114
0.635981,-0.212136,2.536,2.62312
0.644212,-0.212136,2.536,2.62513
0.652443,-0.212136,2.536,2.62716
0.660674,-0.212136,2.536,2.62922
0.663894,-0.210547,2.517,2.61158
0.672064,-0.210547,2.517,2.61367
0.680233,-0.210547,2.517,2.61579
0.68348,-0.209041,2.499,2.5992
0.686609,-0.207535,2.481,2.58261
0.694662,-0.207535,2.481,2.58476
0.702715,-0.207535,2.481,2.58694
0.710768,-0.207535,2.481,2.58914
0.71882,-0.207535,2.481,2.59136
0.721599,-0.20603,2.463,2.57479
0.729594,-0.20603,2.463,2.57704
0.737588,-0.20603,2.463,2.57931
0.745582,-0.20603,2.463,2.58161
0.753577,-0.20603,2.463,2.58393
0.761571,-0.20603,2.463,2.58627
0.769565,-0.20603,2.463,2.58864
0.777559,-0.20603,2.463,2.59103
0.785554,-0.20603,2.463,2.59344
0.793548,-0.20603,2.463,2.59587
0.801542,-0.20603,2.463,2.59832
0.809537,-0.20603,2.463,2.6008
0.817531,-0.20603,2.463,2.6033
0.825525,-0.20603,2.463,2.60582
0.833519,-0.20603,2.463,2.60837
0.841514,-0.20603,2.463,2.61093
0.849508,-0.20603,2.463,2.61352
0.851236,-0.204524,2.445,2.59701
0.859171,-0.204524,2.445,2.59962
0.867107,-0.204524,2.445,2.60225
0.875043,-0.204524,2.445,2.60491
0.87684,-0.203102,2.428,2.58946
0.88472,-0.203102,2.428,2.59214
0.892601,-0.203102,2.428,2.59484
0.900482,-0.203102,2.428,2.59756
0.908362,-0.203102,2.428,2.6003
0.909828,-0.20168,2.411,2.58484
0.917653,-0.20168,2.411,2.5876
0.925479,-0.20168,2.411,2.59039
0.933304,-0.20168,2.411,2.59319
0.94113,-0.20168,2.411,2.59602
0.942264,-0.200258,2.394,2.58054
0.950035,-0.200258,2.394,2.58339
0.957805,-0.200258,2.394,2.58626
0.972432,-0.20168,2.411,2.60753
0.980257,-0.20168,2.411,2.61046
0.981116,-0.200258,2.394,2.59498
0.988886,-0.200258,2.394,2.59793
nan,nan,nan,NaN
nan,nan,nan,NaN
nan,nan,nan,NaN
nan,nan,nan,NaN
nan,nan,nan,NaN
nan,nan,nan,NaN
nan,nan,nan,NaN
nan,nan,nan,NaN
nan,nan,nan,NaN
nan,nan,nan,NaN
nan,nan,nan,NaN
nan,nan,nan,NaN
nan,nan,nan,NaN
nan,nan,nan,NaN
1.73712,-0.314691,3.762,4.15563
1.74933,-0.314691,3.762,4.16075
1.76154,-0.314691,3.762,4.1659
1.79356,-0.318204,3.804,4.21764
1.8059,-0.318204,3.804,4.22291
1.79817,-0.314691,3.762,4.18152
1.81038,-0.314691,3.762,4.18679
1.8226,-0.314691,3.762,4.19208
1.83481,-0.314691,3.762,4.1974
1.82689,-0.311261,3.721,4.15695
1.83896,-0.311261,3.721,4.16227
1.85104,-0.311261,3.721,4.16762
1.86312,-0.311261,3.721,4.173
nan,nan,nan,NaN
nan,nan,nan,NaN
nan,nan,nan,NaN
nan,nan,nan,NaN
nan,nan,nan,NaN
nan,nan,nan,NaN
nan,nan,nan,NaN
nan,nan,nan,NaN
nan,nan,nan,NaN
1.92151,-0.301474,3.604,4.09535
1.93321,-0.301474,3.604,4.10085
1.94491,-0.301474,3.604,4.10638
1.95661,-0.301474,3.604,4.11194
1.9683,-0.301474,3.604,4.11751
1.98,-0.301474,3.604,4.12312
1.9917,-0.301474,3.604,4.12875
2.0034,-0.301474,3.604,4.13441
2.03634,-0.304653,3.642,4.18374
2.04816,-0.304653,3.642,4.1895
2.03849,-0.301474,3.604,4.15152
2.05019,-0.301474,3.604,4.15728
2.06189,-0.301474,3.604,4.16306
2.05172,-0.298296,3.566,4.12491
2.04189,-0.2952,3.529,4.08782
2.05334,-0.2952,3.529,4.09356
2.04373,-0.292189,3.493,4.05749
2.01389,-0.286334,3.423,3.98179
2.025,-0.286334,3.423,3.98742
2.01588,-0.283489,3.389,3.95341
1.98801,-0.278052,3.324,3.8831
1.99879,-0.278052,3.324,3.88863
1.97089,-0.272699,3.26,3.81921
1.96324,-0.270189,3.23,3.78949
1.97372,-0.270189,3.23,3.79493
1.98421,-0.270189,3.23,3.80039
nan,nan,nan,NaN
nan,nan,nan,NaN
1.94202,-0.260318,3.112,3.67747
1.93456,-0.257976,3.084,3.64967
1.94457,-0.257976,3.084,3.65499
1.92035,-0.253459,3.03,3.59623
1.93019,-0.253459,3.03,3.6015
1.90609,-0.249026,2.977,3.54369
1.91575,-0.249026,2.977,3.54889
1.9086,-0.246851,2.951,3.52308
1.90192,-0.24476,2.926,3.49839
1.91142,-0.24476,2.926,3.50356
1.88875,-0.240661,2.877,3.44999
1.88225,-0.238653,2.853,3.42629
1.89151,-0.238653,2.853,3.43138
1.88479,-0.236646,2.829,3.40759
1.87857,-0.234722,2.806,3.38493
1.88768,-0.234722,2.806,3.38999
1.88124,-0.232798,2.783,3.36724
1.86038,-0.229117,2.739,3.31898
-1.99587,-0.231325,2.877,3.50915
-1.98653,-0.231325,2.877,3.50385
-1.9607,-0.229396,2.853,3.46938
-1.93502,-0.227466,2.829,3.43501
-1.91018,-0.225617,2.806,3.40196
-1.90108,-0.225617,2.806,3.39686
-1.89197,-0.225617,2.806,3.39177
-1.88286,-0.225617,2.806,3.3867
-1.87375,-0.225617,2.806,3.38164
-1.86465,-0.225617,2.806,3.3766
-1.85554,-0.225617,2.806,3.37158
-1.86157,-0.227466,2.829,3.39417
-1.85238,-0.227466,2.829,3.38915
-1.85884,-0.229396,2.853,3.41284
-1.86514,-0.231325,2.877,3.43648
-1.88741,-0.235265,2.926,3.48986
-1.87791,-0.235265,2.926,3.48473
-1.88438,-0.237275,2.951,3.50936
-1.90783,-0.241456,3.003,3.56597
-1.89809,-0.241456,3.003,3.56076
-1.90532,-0.243627,3.03,3.58755
-1.91237,-0.245798,3.057,3.61425
-1.93668,-0.250221,3.112,3.67395
-1.92658,-0.250221,3.112,3.66863
-1.91648,-0.250221,3.112,3.66334
-1.90638,-0.250221,3.112,3.65806
-1.89628,-0.250221,3.112,3.65281
-1.88618,-0.250221,3.112,3.64758
-1.87607,-0.250221,3.112,3.64236
-1.86597,-0.250221,3.112,3.63717
-1.85587,-0.250221,3.112,3.632
nan,nan,nan,NaN
nan,nan,nan,NaN
nan,nan,nan,NaN
nan,nan,nan,NaN
nan,nan,nan,NaN
nan,nan,nan,NaN
nan,nan,nan,NaN
nan,nan,nan,NaN
nan,nan,nan,NaN
nan,nan,nan,NaN
nan,nan,nan,NaN
nan,nan,nan,NaN
nan,nan,nan,NaN
nan,nan,nan,NaN
nan,nan,nan,NaN
nan,nan,nan,NaN
nan,nan,nan,NaN
nan,nan,nan,NaN
nan,nan,nan,NaN
nan,nan,nan,NaN
nan,nan,nan,NaN
nan,nan,nan,NaN
nan,nan,nan,NaN
nan,nan,nan,NaN
nan,nan,nan,NaN
nan,nan,nan,NaN
nan,nan,nan,NaN
nan,nan,nan,NaN
nan,nan,nan,NaN
nan,nan,nan,NaN
nan,nan,nan,NaN
nan,nan,nan,NaN
-1.1879,-0.195223,2.428,2.71006
-1.18002,-0.195223,2.428,2.70661
-1.16393,-0.193857,2.411,2.68426
-1.15611,-0.193857,2.411,2.68087
-1.14828,-0.193857,2.411,2.67751
-1.13241,-0.19249,2.394,2.65531
-1.12464,-0.19249,2.394,2.652
-1.11687,-0.19249,2.394,2.64872
-1.10123,-0.191123,2.377,2.62666
-1.09351,-0.191123,2.377,2.62344
-1.0858,-0.191123,2.377,2.62023
-1.07808,-0.191123,2.377,2.61704
-1.07037,-0.191123,2.377,2.61387
-1.06265,-0.191123,2.377,2.61072
-1.05494,-0.191123,2.377,2.60759
-1.04722,-0.191123,2.377,2.60448
-1.03951,-0.191123,2.377,2.60139
-1.03179,-0.191123,2.377,2.59832
-1.02408,-0.191123,2.377,2.59526
-1.01636,-0.191123,2.377,2.59223
-1.00865,-0.191123,2.377,2.58921
-1.00093,-0.191123,2.377,2.58622
-0.993215,-0.191123,2.377,2.58324
-0.9855,-0.191123,2.377,2.58028
-0.977785,-0.191123,2.377,2.57735
-0.970069,-0.191123,2.377,2.57443
-0.962354,-0.191123,2.377,2.57153
-0.961466,-0.19249,2.394,2.58703
-0.953696,-0.19249,2.394,2.58415
-0.945926,-0.19249,2.394,2.58129
-0.938156,-0.19249,2.394,2.57845
-0.930385,-0.19249,2.394,2.57564
-0.922615,-0.19249,2.394,2.57284
-0.914845,-0.19249,2.394,2.57006
-0.907074,-0.19249,2.394,2.56731
-0.892918,-0.191123,2.377,2.54636
-0.885203,-0.191123,2.377,2.54367
-0.877488,-0.191123,2.377,2.54099
-0.869772,-0.191123,2.377,2.53834
-0.862057,-0.191123,2.377,2.53571
-0.854342,-0.191123,2.377,2.53309
-0.846627,-0.191123,2.377,2.5305
-0.838912,-0.191123,2.377,2.52793
-0.831197,-0.191123,2.377,2.52538
-0.823481,-0.191123,2.377,2.52285
-0.815766,-0.191123,2.377,2.52034
-0.81383,-0.19249,2.394,2.53586
-0.80606,-0.19249,2.394,2.53338
-0.79829,-0.19249,2.394,2.53092
-0.790519,-0.19249,2.394,2.52848
-0.782749,-0.19249,2.394,2.52606
-0.774979,-0.19249,2.394,2.52366
-0.767208,-0.19249,2.394,2.52129
-0.759438,-0.19249,2.394,2.51894
-0.751668,-0.19249,2.394,2.5166
-0.74918,-0.193857,2.411,2.53215
-0.741354,-0.193857,2.411,2.52984
-0.738701,-0.195223,2.428,2.54538
-0.73082,-0.195223,2.428,2.54311
-0.722939,-0.195223,2.428,2.54085
-0.715059,-0.195223,2.428,2.53862
-0.707178,-0.195223,2.428,2.53641
-0.699297,-0.195223,2.428,2.53423
-0.691417,-0.195223,2.428,2.53207
-0.683536,-0.195223,2.428,2.52992
-0.675655,-0.195223,2.428,2.52781
-0.667775,-0.195223,2.428,2.52571
-0.659894,-0.195223,2.428,2.52364
-0.652013,-0.195223,2.428,2.52159
-0.644133,-0.195223,2.428,2.51956
-0.636252,-0.195223,2.428,2.51756
-0.628371,-0.195223,2.428,2.51558
-0.624835,-0.19659,2.445,2.53122
-0.616899,-0.19659,2.445,2.52928
-0.608963,-0.19659,2.445,2.52735
-0.601027,-0.19659,2.445,2.52545
-0.597458,-0.198038,2.463,2.54215
-0.589464,-0.198038,2.463,2.54029
-0.581469,-0.198038,2.463,2.53844
-0.573475,-0.198038,2.463,2.53662
-0.565481,-0.198038,2.463,2.53483
-0.557486,-0.198038,2.463,2.53306
-0.553508,-0.199485,2.481,2.54981
-0.549413,-0.200932,2.499,2.56656
-0.541301,-0.200932,2.499,2.56484
-0.53319,-0.200932,2.499,2.56314
-0.525079,-0.200932,2.499,2.56146
-0.516968,-0.200932,2.499,2.55981
-0.508857,-0.200932,2.499,2.55819
-0.500746,-0.200932,2.499,2.55658
-0.496183,-0.20238,2.517,2.57341
-0.488013,-0.20238,2.517,2.57185
-0.483466,-0.203907,2.536,2.58971
-0.475235,-0.203907,2.536,2.58819
-0.467004,-0.203907,2.536,2.58669
-0.46221,-0.205435,2.555,2.60459
-0.457292,-0.206963,2.574,2.62248
-0.448938,-0.206963,2.574,2.62104
-0.443835,-0.20849,2.593,2.63896
-0.435419,-0.20849,2.593,2.63756
-0.430296,-0.210098,2.613,2.65651
-0.421815,-0.210098,2.613,2.65515
-0.41017,-0.20849,2.593,2.63351
-0.401754,-0.20849,2.593,2.63221
-0.393338,-0.20849,2.593,2.63094
-0.384922,-0.20849,2.593,2.62969
-0.376505,-0.20849,2.593,2.62847
-0.368089,-0.20849,2.593,2.62728
-0.357037,-0.206963,2.574,2.60687
-0.348683,-0.206963,2.574,2.60574
-0.34284,-0.20849,2.593,2.62386
-0.334424,-0.20849,2.593,2.62278
-0.326008,-0.20849,2.593,2.62172
-0.317592,-0.20849,2.593,2.62068
-0.309175,-0.20849,2.593,2.61968
-0.300759,-0.20849,2.593,2.6187
-0.292343,-0.20849,2.593,2.61774
-0.283927,-0.20849,2.593,2.61682
-0.275511,-0.20849,2.593,2.61592
-0.267094,-0.20849,2.593,2.61504
-0.258678,-0.20849,2.593,2.6142
-0.250262,-0.20849,2.593,2.61338
-0.243711,-0.210098,2.613,2.63274
-0.23523,-0.210098,2.613,2.63197
-0.226749,-0.210098,2.613,2.63122
-0.216597,-0.20849,2.593,2.61037
-0.208181,-0.20849,2.593,2.60969
-0.199764,-0.20849,2.593,2.60903
-0.191348,-0.20849,2.593,2.6084
-0.182932,-0.20849,2.593,2.60779
-0.174516,-0.20849,2.593,2.60722
-0.1661,-0.20849,2.593,2.60667
-0.156528,-0.206963,2.574,2.58705
-0.148173,-0.206963,2.574,2.58655
-0.139819,-0.206963,2.574,2.58609
-0.131464,-0.206963,2.574,2.58565
-0.12311,-0.206963,2.574,2.58524
-0.114755,-0.206963,2.574,2.58486
-0.1064,-0.206963,2.574,2.5845
-0.0980459,-0.206963,2.574,2.58417
-0.0896914,-0.206963,2.574,2.58386
-0.0813368,-0.206963,2.574,2.58359
-0.0729822,-0.206963,2.574,2.58334
-0.0646277,-0.206963,2.574,2.58312
-0.0571257,-0.210098,2.613,2.62206
-0.0486446,-0.210098,2.613,2.62188
-0.0404708,-0.211707,2.633,2.64181
-0.0319248,-0.211707,2.633,2.64169
-0.0233787,-0.211707,2.633,2.6416
-0.0148326,-0.211707,2.633,2.64154
-0.00628658,-0.211707,2.633,2.64151
0.00225949,-0.211707,2.633,2.6415
0.0108056,-0.211707,2.633,2.64152
0.0193516,-0.211707,2.633,2.64157
0.0278977,-0.211707,2.633,2.64164
0.0361669,-0.210098,2.613,2.62168
0.0446481,-0.210098,2.613,2.62181
0.0531292,-0.210098,2.613,2.62197
0.0616104,-0.210098,2.613,2.62216
0.0700915,-0.210098,2.613,2.62237
0.0779713,-0.20849,2.593,2.60254
0.0863875,-0.20849,2.593,2.6028
0.0948037,-0.20849,2.593,2.6031
0.102464,-0.206963,2.574,2.58434
0.110818,-0.206963,2.574,2.58468
0.119173,-0.206963,2.574,2.58506
0.127527,-0.206963,2.574,2.58545
0.135882,-0.206963,2.574,2.58588
0.144236,-0.206963,2.574,2.58633
0.152591,-0.206963,2.574,2.58681
0.160946,-0.206963,2.574,2.58732
0.17055,-0.20849,2.593,2.60695
0.178966,-0.20849,2.593,2.60752
0.187382,-0.20849,2.593,2.60811
0.195799,-0.20849,2.593,2.60873
0.204215,-0.20849,2.593,2.60937
0.212631,-0.20849,2.593,2.61004
0.221047,-0.20849,2.593,2.61074
0.229463,-0.20849,2.593,2.61147
0.239715,-0.210098,2.613,2.63237
0.248196,-0.210098,2.613,2.63316
0.256677,-0.210098,2.613,2.63397
0.265158,-0.210098,2.613,2.63481
0.273639,-0.210098,2.613,2.63568
0.28212,-0.210098,2.613,2.63657
0.290601,-0.210098,2.613,2.63749
0.299083,-0.210098,2.613,2.63844
0.307564,-0.210098,2.613,2.63941
0.316045,-0.210098,2.613,2.64042
0.324526,-0.210098,2.613,2.64144
0.330458,-0.20849,2.593,2.62227
0.338875,-0.20849,2.593,2.62335
0.347291,-0.20849,2.593,2.62445
0.355707,-0.20849,2.593,2.62558
0.364123,-0.20849,2.593,2.62673
0.372539,-0.20849,2.593,2.62791
0.378164,-0.206963,2.574,2.60985
0.386519,-0.206963,2.574,2.61107
0.394873,-0.206963,2.574,2.61232
0.403228,-0.206963,2.574,2.6136
0.411583,-0.206963,2.574,2.6149
0.419937,-0.206963,2.574,2.61623
0.42513,-0.205435,2.555,2.59826
0.433423,-0.205435,2.555,2.59963
0.441716,-0.205435,2.555,2.60103
0.453355,-0.206963,2.574,2.6218
0.458302,-0.205435,2.555,2.60389
0.466595,-0.205435,2.555,2.60537
0.474888,-0.205435,2.555,2.60687
0.479587,-0.203907,2.536,2.58899
0.487819,-0.203907,2.536,2.59053
0.49605,-0.203907,2.536,2.59209
0.504281,-0.203907,2.536,2.59368
0.512512,-0.203907,2.536,2.59529
0.520743,-0.203907,2.536,2.59693
0.525012,-0.20238,2.517,2.57912
0.533181,-0.20238,2.517,2.5808
0.541351,-0.20238,2.517,2.5825
0.54952,-0.20238,2.517,2.58423
0.55769,-0.20238,2.517,2.58597
0.565859,-0.20238,2.517,2.58775
0.574029,-0.20238,2.517,2.58955
0.582199,-0.20238,2.517,2.59137
0.594824,-0.203907,2.536,2.61279
0.603056,-0.203907,2.536,2.61468
0.611287,-0.203907,2.536,2.61659
0.619518,-0.203907,2.536,2.61853
0.627749,-0.203907,2.536,2.62049
0.635981,-0.203907,2.536,2.62247
0.644212,-0.203907,2.536,2.62448
0.652443,-0.203907,2.536,2.62651
0.660674,-0.203907,2.536,2.62857
0.668906,-0.203907,2.536,2.63065
0.672064,-0.20238,2.517,2.61303
0.680233,-0.20238,2.517,2.61514
0.68348,-0.200932,2.499,2.59856
0.691591,-0.200932,2.499,2.60071
0.699702,-0.200932,2.499,2.60287
0.702715,-0.199485,2.481,2.5863
0.710768,-0.199485,2.481,2.5885
0.71882,-0.199485,2.481,2.59073
0.726873,-0.199485,2.481,2.59297
0.729594,-0.198038,2.463,2.57641
0.737588,-0.198038,2.463,2.57869
0.745582,-0.198038,2.463,2.58098
0.753577,-0.198038,2.463,2.58331
0.761571,-0.198038,2.463,2.58565
0.769565,-0.198038,2.463,2.58801
0.777559,-0.198038,2.463,2.5904
0.791295,-0.199485,2.481,2.61176
0.799347,-0.199485,2.481,2.61421
0.801542,-0.198038,2.463,2.5977
0.809537,-0.198038,2.463,2.60018
0.823505,-0.199485,2.481,2.6217
0.831558,-0.199485,2.481,2.62424
0.833519,-0.198038,2.463,2.60775
0.841514,-0.198038,2.463,2.61031
0.849508,-0.198038,2.463,2.6129
0.857502,-0.198038,2.463,2.61551
0.865497,-0.198038,2.463,2.61814
0.873491,-0.198038,2.463,2.6208
0.875043,-0.19659,2.445,2.6043
0.882979,-0.19659,2.445,2.60698
0.890915,-0.19659,2.445,2.60967
0.892601,-0.195223,2.428,2.59423
0.900482,-0.195223,2.428,2.59695
0.908362,-0.195223,2.428,2.5997
0.916243,-0.195223,2.428,2.60246
0.917653,-0.193857,2.411,2.587
0.925479,-0.193857,2.411,2.58979
0.933304,-0.193857,2.411,2.5926
0.94113,-0.193857,2.411,2.59542
0.942264,-0.19249,2.394,2.57995
0.950035,-0.19249,2.394,2.5828
0.957805,-0.19249,2.394,2.58567
0.972432,-0.193857,2.411,2.60694
0.980257,-0.193857,2.411,2.60987
0.981116,-0.19249,2.394,2.59439
0.988886,-0.19249,2.394,2.59734
nan,nan,nan,NaN
nan,nan,nan,NaN
nan,nan,nan,NaN
nan,nan,nan,NaN
nan,nan,nan,NaN
nan,nan,nan,NaN
nan,nan,nan,NaN
nan,nan,nan,NaN
nan,nan,nan,NaN
nan,nan,nan,NaN
nan,nan,nan,NaN
nan,nan,nan,NaN
nan,nan,nan,NaN
nan,nan,nan,NaN
nan,nan,nan,NaN
nan,nan,nan,NaN
1.78121,-0.305861,3.804,4.21149
1.79356,-0.305861,3.804,4.21673
1.8059,-0.305861,3.804,4.222
1.79817,-0.302484,3.762,4.18062
1.81038,-0.302484,3.762,4.18589
1.8226,-0.302484,3.762,4.19118
1.83481,-0.302484,3.762,4.19651
1.82689,-0.299187,3.721,4.15606
1.83896,-0.299187,3.721,4.16139
nan,nan,nan,NaN
nan,nan,nan,NaN
nan,nan,nan,NaN
nan,nan,nan,NaN
nan,nan,nan,NaN
nan,nan,nan,NaN
nan,nan,nan,NaN
nan,nan,nan,NaN
nan,nan,nan,NaN
nan,nan,nan,NaN
nan,nan,nan,NaN
1.92151,-0.28978,3.604,4.09451
1.93321,-0.28978,3.604,4.10001
1.94491,-0.28978,3.604,4.10554
1.95661,-0.28978,3.604,4.11109
1.9683,-0.28978,3.604,4.11667
1.98,-0.28978,3.604,4.12228
1.9917,-0.28978,3.604,4.12791
2.0034,-0.28978,3.604,4.13357
2.03634,-0.292835,3.642,4.18289
2.04816,-0.292835,3.642,4.18866
2.03849,-0.28978,3.604,4.15069
2.05019,-0.28978,3.604,4.15645
2.06189,-0.28978,3.604,4.16223
2.05172,-0.286724,3.566,4.12409
2.04189,-0.283749,3.529,4.08701
2.05334,-0.283749,3.529,4.09275
2.04373,-0.280855,3.493,4.05669
2.01389,-0.275227,3.423,3.98101
2.025,-0.275227,3.423,3.98664
2.01588,-0.272493,3.389,3.95264
1.98801,-0.267266,3.324,3.88234
1.99879,-0.267266,3.324,3.88788
1.97089,-0.262121,3.26,3.81847
1.96324,-0.259708,3.23,3.78875
1.97372,-0.259708,3.23,3.7942
1.98421,-0.259708,3.23,3.79966
1.95764,-0.254884,3.17,3.73446
1.96793,-0.254884,3.17,3.73987
1.94202,-0.250221,3.112,3.67676
1.93456,-0.247969,3.084,3.64898
1.94457,-0.247969,3.084,3.6543
1.92035,-0.243627,3.03,3.59555
1.93019,-0.243627,3.03,3.60082
1.90609,-0.239366,2.977,3.54302
1.91575,-0.239366,2.977,3.54823
1.9086,-0.237275,2.951,3.52242
1.90192,-0.235265,2.926,3.49773
1.91142,-0.235265,2.926,3.50291
1.88875,-0.231325,2.877,3.44935
1.88225,-0.229396,2.853,3.42566
1.89151,-0.229396,2.853,3.43075
1.88479,-0.227466,2.829,3.40696
1.87857,-0.225617,2.806,3.38431
1.88768,-0.225617,2.806,3.38938
1.88124,-0.223767,2.783,3.36663
1.86038,-0.220229,2.739,3.31838
-1.97922,-0.220138,2.853,3.47928
-1.96996,-0.220138,2.853,3.47402
-1.94421,-0.218286,2.829,3.4396
-1.91929,-0.216512,2.806,3.40649
-1.89453,-0.214737,2.783,3.37349
-1.88549,-0.214737,2.783,3.36843
-1.87646,-0.214737,2.783,3.36338
-1.85267,-0.213039,2.761,3.3318
-1.8437,-0.213039,2.761,3.32682
-1.83474,-0.213039,2.761,3.32187
-1.82578,-0.213039,2.761,3.31692
-1.8313,-0.214737,2.783,3.33839
-1.82226,-0.214737,2.783,3.33344
-1.82822,-0.216512,2.806,3.35602
-1.84958,-0.220138,2.853,3.4072
-1.8558,-0.22199,2.877,3.4308
-1.84646,-0.22199,2.877,3.42576
-1.86841,-0.225771,2.926,3.479
-1.8748,-0.2277,2.951,3.50359
-1.86522,-0.2277,2.951,3.49847
-1.87199,-0.229706,2.977,3.52415
-1.87859,-0.231712,3.003,3.54976
-1.86885,-0.231712,3.003,3.54461
-1.89253,-0.235879,3.057,3.60313
-1.88261,-0.235879,3.057,3.59793
-1.87268,-0.235879,3.057,3.59275
-1.86276,-0.235879,3.057,3.58759
-1.85284,-0.235879,3.057,3.58244
-1.84292,-0.235879,3.057,3.57732
-1.833,-0.235879,3.057,3.57222
-1.82307,-0.235879,3.057,3.56714
nan,nan,nan,NaN
nan,nan,nan,NaN
nan,nan,nan,NaN
nan,nan,nan,NaN
nan,nan,nan,NaN
nan,nan,nan,NaN
nan,nan,nan,NaN
nan,nan,nan,NaN
nan,nan,nan,NaN
nan,nan,nan,NaN
nan,nan,nan,NaN
nan,nan,nan,NaN
nan,nan,nan,NaN
nan,nan,nan,NaN
nan,nan,nan,NaN
nan,nan,nan,NaN
nan,nan,nan,NaN
nan,nan,nan,NaN
nan,nan,nan,NaN
nan,nan,nan,NaN
nan,nan,nan,NaN
nan,nan,nan,NaN
nan,nan,nan,NaN
nan,nan,nan,NaN
nan,nan,nan,NaN
nan,nan,nan,NaN
nan,nan,nan,NaN
nan,nan,nan,NaN
nan,nan,nan,NaN
nan,nan,nan,NaN
nan,nan,nan,NaN
nan,nan,nan,NaN
-1.17958,-0.186033,2.411,2.69053
-1.17176,-0.186033,2.411,2.68711
-1.16393,-0.186033,2.411,2.6837
-1.14795,-0.184722,2.394,2.66142
-1.14018,-0.184722,2.394,2.65808
-1.13241,-0.184722,2.394,2.65475
-1.12464,-0.184722,2.394,2.65145
-1.11687,-0.184722,2.394,2.64816
-1.10123,-0.18341,2.377,2.62611
-1.09351,-0.18341,2.377,2.62289
-1.0858,-0.18341,2.377,2.61968
-1.07808,-0.18341,2.377,2.61649
-1.07037,-0.18341,2.377,2.61332
-1.06265,-0.18341,2.377,2.61017
-1.05494,-0.18341,2.377,2.60704
-1.04722,-0.18341,2.377,2.60393
-1.03951,-0.18341,2.377,2.60083
-1.03179,-0.18341,2.377,2.59776
-1.02408,-0.18341,2.377,2.59471
-1.01636,-0.18341,2.377,2.59167
-1.00865,-0.18341,2.377,2.58865
-1.00093,-0.18341,2.377,2.58566
-0.993215,-0.18341,2.377,2.58268
-0.9855,-0.18341,2.377,2.57972
-0.977785,-0.18341,2.377,2.57679
-0.970069,-0.18341,2.377,2.57387
-0.962354,-0.18341,2.377,2.57097
-0.961466,-0.184722,2.394,2.58646
-0.953696,-0.184722,2.394,2.58358
-0.945926,-0.184722,2.394,2.58072
-0.938156,-0.184722,2.394,2.57789
-0.930385,-0.184722,2.394,2.57507
-0.922615,-0.184722,2.394,2.57227
-0.914845,-0.184722,2.394,2.56949
-0.907074,-0.184722,2.394,2.56674
-0.892918,-0.18341,2.377,2.54579
-0.885203,-0.18341,2.377,2.5431
-0.877488,-0.18341,2.377,2.54042
-0.869772,-0.18341,2.377,2.53777
-0.862057,-0.18341,2.377,2.53514
-0.854342,-0.18341,2.377,2.53252
-0.846627,-0.18341,2.377,2.52993
-0.838912,-0.18341,2.377,2.52736
-0.831197,-0.18341,2.377,2.52481
-0.823481,-0.18341,2.377,2.52228
-0.815766,-0.18341,2.377,2.51977
-0.81383,-0.184722,2.394,2.53529
-0.80606,-0.184722,2.394,2.5328
-0.79829,-0.184722,2.394,2.53034
-0.790519,-0.184722,2.394,2.5279
-0.782749,-0.184722,2.394,2.52548
-0.774979,-0.184722,2.394,2.52308
-0.767208,-0.184722,2.394,2.52071
-0.759438,-0.184722,2.394,2.51835
-0.751668,-0.184722,2.394,2.51602
-0.74918,-0.186033,2.411,2.53156
-0.741354,-0.186033,2.411,2.52926
-0.738701,-0.187345,2.428,2.54479
-0.73082,-0.187345,2.428,2.54251
-0.722939,-0.187345,2.428,2.54026
-0.715059,-0.187345,2.428,2.53803
-0.707178,-0.187345,2.428,2.53582
-0.699297,-0.187345,2.428,2.53363
-0.691417,-0.187345,2.428,2.53147
-0.683536,-0.187345,2.428,2.52933
-0.675655,-0.187345,2.428,2.52721
-0.667775,-0.187345,2.428,2.52512
-0.659894,-0.187345,2.428,2.52304
-0.652013,-0.187345,2.428,2.52099
-0.644133,-0.187345,2.428,2.51897
-0.636252,-0.187345,2.428,2.51696
-0.628371,-0.187345,2.428,2.51498
-0.624835,-0.188657,2.445,2.53062
-0.616899,-0.188657,2.445,2.52867
-0.608963,-0.188657,2.445,2.52675
-0.601027,-0.188657,2.445,2.52485
-0.597458,-0.190046,2.463,2.54154
-0.589464,-0.190046,2.463,2.53968
-0.581469,-0.190046,2.463,2.53783
-0.573475,-0.190046,2.463,2.53601
-0.565481,-0.190046,2.463,2.53422
-0.557486,-0.190046,2.463,2.53244
-0.553508,-0.191435,2.481,2.54919
-0.549413,-0.192823,2.499,2.56594
-0.541301,-0.192823,2.499,2.56421
-0.53319,-0.192823,2.499,2.56251
-0.525079,-0.192823,2.499,2.56084
-0.516968,-0.192823,2.499,2.55919
-0.508857,-0.192823,2.499,2.55756
-0.500746,-0.192823,2.499,2.55596
-0.496183,-0.194212,2.517,2.57278
-0.488013,-0.194212,2.517,2.57122
-0.479844,-0.194212,2.517,2.56968
-0.475235,-0.195678,2.536,2.58755
-0.467004,-0.195678,2.536,2.58605
-0.458772,-0.195678,2.536,2.58458
-0.453917,-0.197144,2.555,2.60249
-0.445624,-0.197144,2.555,2.60105
-0.437331,-0.197144,2.555,2.59964
-0.435419,-0.200076,2.593,2.63691
-0.427003,-0.200076,2.593,2.63553
-0.415519,-0.19861,2.574,2.61488
-0.407165,-0.19861,2.574,2.61356
-0.401754,-0.200076,2.593,2.63156
-0.393338,-0.200076,2.593,2.63028
-0.384922,-0.200076,2.593,2.62904
-0.376505,-0.200076,2.593,2.62782
-0.365392,-0.19861,2.574,2.60738
-0.357037,-0.19861,2.574,2.60622
-0.348683,-0.19861,2.574,2.60509
-0.340328,-0.19861,2.574,2.60399
-0.331974,-0.19861,2.574,2.60291
-0.323619,-0.19861,2.574,2.60186
-0.317592,-0.200076,2.593,2.62003
-0.309175,-0.200076,2.593,2.61902
-0.300759,-0.200076,2.593,2.61804
-0.292343,-0.200076,2.593,2.61709
-0.281846,-0.19861,2.574,2.59699
-0.273492,-0.19861,2.574,2.5961
-0.267094,-0.200076,2.593,2.61439
-0.258678,-0.200076,2.593,2.61354
-0.250262,-0.200076,2.593,2.61272
-0.243711,-0.20162,2.613,2.63207
-0.23523,-0.20162,2.613,2.6313
-0.226749,-0.20162,2.613,2.63056
-0.216597,-0.200076,2.593,2.60971
-0.208181,-0.200076,2.593,2.60903
-0.199764,-0.200076,2.593,2.60837
-0.191348,-0.200076,2.593,2.60774
-0.182932,-0.200076,2.593,2.60713
-0.174516,-0.200076,2.593,2.60656
-0.1661,-0.200076,2.593,2.60601
-0.156528,-0.19861,2.574,2.58639
-0.148173,-0.19861,2.574,2.5859
-0.139819,-0.19861,2.574,2.58543
-0.131464,-0.19861,2.574,2.585
-0.12311,-0.19861,2.574,2.58458
-0.114755,-0.19861,2.574,2.5842
-0.1064,-0.19861,2.574,2.58384
-0.0980459,-0.19861,2.574,2.58351
-0.0896914,-0.19861,2.574,2.58321
-0.0813368,-0.19861,2.574,2.58293
-0.0729822,-0.19861,2.574,2.58268
-0.0646277,-0.19861,2.574,2.58246
-0.0566885,-0.200076,2.593,2.60133
-0.0486446,-0.20162,2.613,2.62122
-0.0401634,-0.20162,2.613,2.62107
-0.0316823,-0.20162,2.613,2.62096
-0.0233787,-0.203163,2.633,2.64093
-0.0148326,-0.203163,2.633,2.64087
-0.00628658,-0.203163,2.633,2.64083
0.00225949,-0.203163,2.633,2.64083
0.0108056,-0.203163,2.633,2.64085
0.0193516,-0.203163,2.633,2.6409
0.0278977,-0.203163,2.633,2.64097
0.0364437,-0.203163,2.633,2.64108
0.0449898,-0.203163,2.633,2.64121
0.0531292,-0.20162,2.613,2.62131
0.0616104,-0.20162,2.613,2.62149
0.0700915,-0.20162,2.613,2.6217
0.0779713,-0.200076,2.593,2.60188
0.0863875,-0.200076,2.593,2.60214
0.0948037,-0.200076,2.593,2.60244
0.102464,-0.19861,2.574,2.58368
0.110818,-0.19861,2.574,2.58403
0.119173,-0.19861,2.574,2.5844
0.127527,-0.19861,2.574,2.5848
0.135882,-0.19861,2.574,2.58522
0.144236,-0.19861,2.574,2.58568
0.152591,-0.19861,2.574,2.58616
0.160946,-0.19861,2.574,2.58666
0.1693,-0.19861,2.574,2.5872
0.177655,-0.19861,2.574,2.58776
0.186009,-0.19861,2.574,2.58834
0.194364,-0.19861,2.574,2.58896
0.202718,-0.19861,2.574,2.5896
0.211073,-0.19861,2.574,2.59027
0.219428,-0.19861,2.574,2.59096
0.229463,-0.200076,2.593,2.61081
0.23788,-0.200076,2.593,2.61156
0.246296,-0.200076,2.593,2.61234
0.254712,-0.200076,2.593,2.61315
0.265158,-0.20162,2.613,2.63415
0.273639,-0.20162,2.613,2.63501
0.28212,-0.20162,2.613,2.63591
0.290601,-0.20162,2.613,2.63683
0.299083,-0.20162,2.613,2.63778
0.307564,-0.20162,2.613,2.63875
0.316045,-0.20162,2.613,2.63975
0.324526,-0.20162,2.613,2.64078
0.333007,-0.20162,2.613,2.64184
0.338875,-0.200076,2.593,2.62269
0.347291,-0.200076,2.593,2.62379
0.355707,-0.200076,2.593,2.62492
0.364123,-0.200076,2.593,2.62607
0.372539,-0.200076,2.593,2.62725
0.378164,-0.19861,2.574,2.6092
0.386519,-0.19861,2.574,2.61043
0.394873,-0.19861,2.574,2.61168
0.403228,-0.19861,2.574,2.61295
0.408544,-0.197144,2.555,2.59496
0.416837,-0.197144,2.555,2.59628
0.42513,-0.197144,2.555,2.59762
0.433423,-0.197144,2.555,2.59899
0.441716,-0.197144,2.555,2.60039
0.450009,-0.197144,2.555,2.60181
0.458302,-0.197144,2.555,2.60325
0.466595,-0.197144,2.555,2.60473
0.474888,-0.197144,2.555,2.60623
0.479587,-0.195678,2.536,2.58836
0.487819,-0.195678,2.536,2.58989
0.49605,-0.195678,2.536,2.59146
0.504281,-0.195678,2.536,2.59305
0.512512,-0.195678,2.536,2.59466
0.520743,-0.195678,2.536,2.5963
0.525012,-0.194212,2.517,2.5785
0.533181,-0.194212,2.517,2.58017
0.541351,-0.194212,2.517,2.58187
0.54952,-0.194212,2.517,2.5836
0.55769,-0.194212,2.517,2.58535
0.565859,-0.194212,2.517,2.58712
0.578362,-0.195678,2.536,2.60846
0.586593,-0.195678,2.536,2.6103
0.594824,-0.195678,2.536,2.61216
0.603056,-0.195678,2.536,2.61405
0.611287,-0.195678,2.536,2.61596
0.619518,-0.195678,2.536,2.6179
0.632453,-0.197144,2.555,2.63949
0.640746,-0.197144,2.555,2.64149
0.649038,-0.197144,2.555,2.64351
0.652443,-0.195678,2.536,2.62588
0.660674,-0.195678,2.536,2.62794
0.668906,-0.195678,2.536,2.63002
0.672064,-0.194212,2.517,2.61241
0.680233,-0.194212,2.517,2.61452
0.688403,-0.194212,2.517,2.61666
0.691591,-0.192823,2.499,2.60009
0.699702,-0.192823,2.499,2.60226
0.702715,-0.191435,2.481,2.58569
0.710768,-0.191435,2.481,2.58789
0.71882,-0.191435,2.481,2.59012
0.726873,-0.191435,2.481,2.59236
0.734926,-0.191435,2.481,2.59463
0.737588,-0.190046,2.463,2.57808
0.745582,-0.190046,2.463,2.58038
0.753577,-0.190046,2.463,2.5827
0.761571,-0.190046,2.463,2.58505
0.775189,-0.191435,2.481,2.60632
0.783242,-0.191435,2.481,2.60873
0.791295,-0.191435,2.481,2.61116
0.799347,-0.191435,2.481,2.61361
0.8074,-0.191435,2.481,2.61609
0.815453,-0.191435,2.481,2.61858
0.823505,-0.191435,2.481,2.6211
0.831558,-0.191435,2.481,2.62364
0.839611,-0.191435,2.481,2.62621
0.847664,-0.191435,2.481,2.62879
0.855716,-0.191435,2.481,2.6314
0.863769,-0.191435,2.481,2.63403
0.865497,-0.190046,2.463,2.61755
0.873491,-0.190046,2.463,2.6202
0.881485,-0.190046,2.463,2.62288
0.882979,-0.188657,2.445,2.60639
0.890915,-0.188657,2.445,2.60909
0.898851,-0.188657,2.445,2.61181
0.906787,-0.188657,2.445,2.61455
0.914722,-0.188657,2.445,2.61731
0.916243,-0.187345,2.428,2.60188
0.917653,-0.186033,2.411,2.58643
0.925479,-0.186033,2.411,2.58922
0.933304,-0.186033,2.411,2.59202
0.94113,-0.186033,2.411,2.59485
0.942264,-0.184722,2.394,2.57938
0.950035,-0.184722,2.394,2.58223
0.957805,-0.184722,2.394,2.5851
0.965575,-0.184722,2.394,2.58799
0.973346,-0.184722,2.394,2.5909
0.981116,-0.184722,2.394,2.59383
0.988886,-0.184722,2.394,2.59678
nan,nan,nan,NaN
nan,nan,nan,NaN
nan,nan,nan,NaN
nan,nan,nan,NaN
nan,nan,nan,NaN
nan,nan,nan,NaN
nan,nan,nan,NaN
nan,nan,nan,NaN
nan,nan,nan,NaN
nan,nan,nan,NaN
nan,nan,nan,NaN
nan,nan,nan,NaN
nan,nan,nan,NaN
nan,nan,nan,NaN
nan,nan,nan,NaN
nan,nan,nan,NaN
1.78121,-0.293518,3.804,4.21061
1.79356,-0.293518,3.804,4.21585
1.8059,-0.293518,3.804,4.22112
1.79817,-0.290277,3.762,4.17975
1.79065,-0.287113,3.721,4.13941
1.80273,-0.287113,3.721,4.14465
1.81481,-0.287113,3.721,4.14992
1.82689,-0.287113,3.721,4.15521
1.83896,-0.287113,3.721,4.16054
nan,nan,nan,NaN
nan,nan,nan,NaN
nan,nan,nan,NaN
nan,nan,nan,NaN
nan,nan,nan,NaN
nan,nan,nan,NaN
nan,nan,nan,NaN
nan,nan,nan,NaN
nan,nan,nan,NaN
nan,nan,nan,NaN
1.88968,-0.275153,3.566,4.04511
1.90125,-0.275153,3.566,4.05053
1.93321,-0.278085,3.604,4.0992
1.94491,-0.278085,3.604,4.10473
1.95661,-0.278085,3.604,4.11029
1.9683,-0.278085,3.604,4.11587
1.98,-0.278085,3.604,4.12148
