-0.481034,-0.320242,2.481,2.54741
-0.472981,-0.320242,2.481,2.5459
-0.464928,-0.320242,2.481,2.54442
-0.456875,-0.320242,2.481,2.54296
-0.448823,-0.320242,2.481,2.54153
-0.44077,-0.320242,2.481,2.54012
-0.432717,-0.320242,2.481,2.53873
-0.424665,-0.320242,2.481,2.53737
-0.419634,-0.322565,2.499,2.55444
-0.411523,-0.322565,2.499,2.55312
-0.403412,-0.322565,2.499,2.55182
-0.398148,-0.324888,2.517,2.56892
-0.389979,-0.324888,2.517,2.56767
-0.379079,-0.322565,2.499,2.54809
-0.370968,-0.322565,2.499,2.54689
-0.362857,-0.322565,2.499,2.54572
-0.354745,-0.322565,2.499,2.54458
-0.346634,-0.322565,2.499,2.54346
-0.338523,-0.322565,2.499,2.54237
-0.330412,-0.322565,2.499,2.5413
-0.322301,-0.322565,2.499,2.54026
-0.31419,-0.322565,2.499,2.53924
-0.306079,-0.322565,2.499,2.53825
-0.297967,-0.322565,2.499,2.53729
-0.289856,-0.322565,2.499,2.53635
-0.281745,-0.322565,2.499,2.53543
-0.273634,-0.322565,2.499,2.53455
-0.265523,-0.322565,2.499,2.53368
-0.257412,-0.322565,2.499,2.53285
-0.249301,-0.322565,2.499,2.53203
-0.24119,-0.322565,2.499,2.53125
-0.234757,-0.324888,2.517,2.54872
-0.226588,-0.324888,2.517,2.54798
-0.218418,-0.324888,2.517,2.54726
-0.208745,-0.322565,2.499,2.52836
-0.200634,-0.322565,2.499,2.52771
-0.192523,-0.322565,2.499,2.52708
-0.184412,-0.322565,2.499,2.52647
-0.17757,-0.324888,2.517,2.54409
-0.169401,-0.324888,2.517,2.54353
-0.161231,-0.324888,2.517,2.543
-0.153062,-0.324888,2.517,2.54249
-0.144892,-0.324888,2.517,2.54201
-0.136723,-0.324888,2.517,2.54156
-0.128553,-0.324888,2.517,2.54114
-0.120383,-0.324888,2.517,2.54074
-0.112214,-0.324888,2.517,2.54036
-0.104044,-0.324888,2.517,2.54001
-0.0958747,-0.324888,2.517,2.53969
-0.0877052,-0.324888,2.517,2.5394
-0.080136,-0.327341,2.536,2.55829
-0.0719048,-0.327341,2.536,2.55805
-0.0636736,-0.327341,2.536,2.55783
-0.0558577,-0.329793,2.555,2.5768
-0.0475648,-0.329793,2.555,2.57664
-0.0392719,-0.329793,2.555,2.5765
-0.030979,-0.329793,2.555,2.57638
-0.0228548,-0.332246,2.574,2.59545
-0.0145003,-0.332246,2.574,2.59539
-0.00614571,-0.332246,2.574,2.59536
0.00222516,-0.334698,2.593,2.61451
0.0106414,-0.334698,2.593,2.61453
0.0190576,-0.334698,2.593,2.61458
0.0274739,-0.334698,2.593,2.61466
0.0358901,-0.334698,2.593,2.61476
0.0443063,-0.334698,2.593,2.61489
0.0527226,-0.334698,2.593,2.61504
0.0611388,-0.334698,2.593,2.61523
0.069555,-0.334698,2.593,2.61544
0.0779713,-0.334698,2.593,2.61567
0.0863875,-0.334698,2.593,2.61594
0.095535,-0.33728,2.613,2.63641
0.104016,-0.33728,2.613,2.63673
0.112497,-0.33728,2.613,2.63708
0.120978,-0.33728,2.613,2.63745
0.12946,-0.33728,2.613,2.63786
0.137941,-0.33728,2.613,2.63829
0.146422,-0.33728,2.613,2.63874
0.154903,-0.33728,2.613,2.63923
0.163384,-0.33728,2.613,2.63974
0.171865,-0.33728,2.613,2.64028
0.180346,-0.33728,2.613,2.64084
0.188828,-0.33728,2.613,2.64144
0.197309,-0.33728,2.613,2.64206
0.20579,-0.33728,2.613,2.6427
0.214271,-0.33728,2.613,2.64338
0.222752,-0.33728,2.613,2.64408
0.231233,-0.33728,2.613,2.64481
0.239715,-0.33728,2.613,2.64556
0.248196,-0.33728,2.613,2.64634
0.256677,-0.33728,2.613,2.64715
0.265158,-0.33728,2.613,2.64799
0.273639,-0.33728,2.613,2.64885
0.28212,-0.33728,2.613,2.64974
0.290601,-0.33728,2.613,2.65066
0.299083,-0.33728,2.613,2.6516
0.307564,-0.33728,2.613,2.65257
0.316045,-0.33728,2.613,2.65357
0.324526,-0.33728,2.613,2.65459
0.333007,-0.33728,2.613,2.65564
0.341488,-0.33728,2.613,2.65672
0.347291,-0.334698,2.593,2.63748
0.353101,-0.332246,2.574,2.61926
0.361455,-0.332246,2.574,2.6204
0.36981,-0.332246,2.574,2.62157
0.375373,-0.329793,2.555,2.6034
0.383666,-0.329793,2.555,2.60461
0.391959,-0.329793,2.555,2.60584
0.400252,-0.329793,2.555,2.6071
0.408544,-0.329793,2.555,2.60839
0.416837,-0.329793,2.555,2.6097
0.42513,-0.329793,2.555,2.61104
0.433423,-0.329793,2.555,2.6124
0.441716,-0.329793,2.555,2.61379
0.450009,-0.329793,2.555,2.6152
0.458302,-0.329793,2.555,2.61664
0.466595,-0.329793,2.555,2.61811
0.474888,-0.329793,2.555,2.6196
0.48318,-0.329793,2.555,2.62112
0.491473,-0.329793,2.555,2.62266
0.499766,-0.329793,2.555,2.62422
0.508059,-0.329793,2.555,2.62582
0.516352,-0.329793,2.555,2.62743
0.528546,-0.332246,2.574,2.64863
0.536901,-0.332246,2.574,2.65031
0.541231,-0.329793,2.555,2.63244
0.549524,-0.329793,2.555,2.63415
0.561965,-0.332246,2.574,2.6555
0.570319,-0.332246,2.574,2.65728
0.578674,-0.332246,2.574,2.65908
0.587028,-0.332246,2.574,2.66091
0.595383,-0.332246,2.574,2.66277
0.603738,-0.332246,2.574,2.66465
0.612092,-0.332246,2.574,2.66656
0.620447,-0.332246,2.574,2.66849
0.628801,-0.332246,2.574,2.67044
0.637156,-0.332246,2.574,2.67242
0.64551,-0.332246,2.574,2.67442
0.649038,-0.329793,2.555,2.6567
0.657331,-0.329793,2.555,2.65874
0.665624,-0.329793,2.555,2.6608
0.673917,-0.329793,2.555,2.66288
0.68221,-0.329793,2.555,2.665
0.690503,-0.329793,2.555,2.66713
0.698796,-0.329793,2.555,2.66929
0.70183,-0.327341,2.536,2.65161
0.710062,-0.327341,2.536,2.6538
0.718293,-0.327341,2.536,2.65601
0.726524,-0.327341,2.536,2.65825
0.734755,-0.327341,2.536,2.66051
0.742987,-0.327341,2.536,2.6628
0.74559,-0.324888,2.517,2.64514
0.753759,-0.324888,2.517,2.64745
0.761929,-0.324888,2.517,2.64979
0.770098,-0.324888,2.517,2.65215
0.778268,-0.324888,2.517,2.65453
0.786437,-0.324888,2.517,2.65694
0.794607,-0.324888,2.517,2.65937
0.802777,-0.324888,2.517,2.66182
0.810946,-0.324888,2.517,2.6643
0.813258,-0.322565,2.499,2.64772
0.821369,-0.322565,2.499,2.65023
0.835455,-0.324888,2.517,2.67186
0.843624,-0.324888,2.517,2.67442
0.845702,-0.322565,2.499,2.65787
0.853814,-0.322565,2.499,2.66046
0.861925,-0.322565,2.499,2.66307
0.870036,-0.322565,2.499,2.66571
0.871822,-0.320242,2.481,2.64915
0.879874,-0.320242,2.481,2.65181
0.887927,-0.320242,2.481,2.65449
0.89598,-0.320242,2.481,2.6572
0.904033,-0.320242,2.481,2.65992
0.905468,-0.317918,2.463,2.64335
0.913462,-0.317918,2.463,2.6461
0.921457,-0.317918,2.463,2.64887
0.929451,-0.317918,2.463,2.65166
0.930594,-0.315595,2.445,2.63508
0.93853,-0.315595,2.445,2.63789
0.953434,-0.317918,2.463,2.66016
0.954402,-0.315595,2.445,2.64358
0.955646,-0.3134,2.428,2.62805
0.963527,-0.3134,2.428,2.63093
0.971408,-0.3134,2.428,2.63383
0.986145,-0.315595,2.445,2.6552
0.994081,-0.315595,2.445,2.65816
0.99505,-0.3134,2.428,2.64264
1.00293,-0.3134,2.428,2.64561
1.01789,-0.315595,2.445,2.66716
1.02582,-0.315595,2.445,2.6702
nan,nan,nan,NaN
nan,nan,nan,NaN
nan,nan,nan,NaN
nan,nan,nan,NaN
1.26422,-0.374454,2.901,3.18658
1.27364,-0.374454,2.901,3.19033
1.28306,-0.374454,2.901,3.1941
1.34994,-0.391105,3.03,3.34009
1.35978,-0.391105,3.03,3.34408
1.40668,-0.40169,3.112,3.4387
1.41678,-0.40169,3.112,3.44284
1.46677,-0.412919,3.199,3.54338
1.49147,-0.416921,3.23,3.58207
1.50195,-0.416921,3.23,3.58644
1.54147,-0.424924,3.292,3.65977
1.56724,-0.429054,3.324,3.69991
1.57803,-0.429054,3.324,3.70449
1.58882,-0.429054,3.324,3.7091
1.59961,-0.429054,3.324,3.71373
1.6104,-0.429054,3.324,3.71839
1.60558,-0.424924,3.292,3.68724
1.58582,-0.416921,3.23,3.62237
1.59631,-0.416921,3.23,3.62697
1.60679,-0.416921,3.23,3.6316
1.60175,-0.412919,3.199,3.60135
1.61213,-0.412919,3.199,3.60598
1.60781,-0.409176,3.17,3.5779
1.6181,-0.409176,3.17,3.58254
1.65921,-0.416921,3.23,3.65509
1.66969,-0.416921,3.23,3.65986
1.68018,-0.416921,3.23,3.66466
1.69066,-0.416921,3.23,3.66948
1.7338,-0.424924,3.292,3.74485
1.74448,-0.424924,3.292,3.74981
1.78929,-0.433184,3.356,3.82779
1.83612,-0.441833,3.423,3.90941
1.84723,-0.441833,3.423,3.91464
1.91589,-0.455515,3.529,4.04128
1.94755,-0.460291,3.566,4.08915
1.95913,-0.460291,3.566,4.09468
1.9707,-0.460291,3.566,4.10023
2.0034,-0.465196,3.604,4.14956
2.03634,-0.470101,3.642,4.19903
2.04816,-0.470101,3.642,4.20477
2.08204,-0.475135,3.681,4.25563
2.09399,-0.475135,3.681,4.26149
2.10594,-0.475135,3.681,4.26737
2.11789,-0.475135,3.681,4.27328
2.10727,-0.470101,3.642,4.23388
2.11909,-0.470101,3.642,4.23978
2.13091,-0.470101,3.642,4.2457
2.09802,-0.460291,3.566,4.16292
2.10959,-0.460291,3.566,4.16877
2.09916,-0.455515,3.529,4.13132
2.04722,-0.441833,3.423,4.01288
2.05833,-0.441833,3.423,4.01856
2.04888,-0.437444,3.389,3.98429
2.02037,-0.429054,3.324,3.91343
2.03116,-0.429054,3.324,3.91902
2.00264,-0.420793,3.26,3.84905
1.97555,-0.412919,3.199,3.78244
1.98593,-0.412919,3.199,3.78788
1.94202,-0.40169,3.112,3.69017
1.91762,-0.39459,3.057,3.63018
1.92754,-0.39459,3.057,3.63543
1.90324,-0.38762,3.003,3.57639
1.87986,-0.380908,2.951,3.51957
1.88944,-0.380908,2.951,3.5247
1.88293,-0.377681,2.926,3.49994
1.87626,-0.374454,2.901,3.47511
1.88567,-0.374454,2.901,3.4802
1.87941,-0.371356,2.877,3.45648
1.87299,-0.368258,2.853,3.43269
1.85125,-0.362192,2.806,3.38111
1.86035,-0.362192,2.806,3.38611
1.85414,-0.359223,2.783,3.36333
1.84844,-0.356383,2.761,3.34169
1.8574,-0.356383,2.761,3.34665
1.85149,-0.353544,2.739,3.32493
1.84544,-0.350704,2.717,3.30314
-2.19913,-0.39889,3.17,3.87868
-2.23027,-0.40644,3.23,3.94616
-2.21979,-0.40644,3.23,3.94025
-2.20931,-0.40644,3.23,3.93435
-2.21924,-0.410215,3.26,3.96496
-2.23034,-0.414242,3.292,3.99791
-2.21966,-0.414242,3.292,3.99196
-2.20897,-0.414242,3.292,3.98603
-2.21966,-0.418268,3.324,4.01881
-2.20887,-0.418268,3.324,4.01286
-2.21924,-0.422295,3.356,4.0455
-2.20835,-0.422295,3.356,4.03954
-2.21906,-0.426447,3.389,4.07326
-2.20806,-0.426447,3.389,4.06727
-2.19706,-0.426447,3.389,4.06131
-2.20799,-0.430726,3.423,4.09606
-2.19688,-0.430726,3.423,4.09008
-2.18577,-0.430726,3.423,4.08412
-2.17466,-0.430726,3.423,4.07819
-2.16355,-0.430726,3.423,4.07227
-2.17445,-0.43513,3.458,4.10796
-2.16323,-0.43513,3.458,4.10203
-2.152,-0.43513,3.458,4.09612
-2.14078,-0.43513,3.458,4.09024
-2.108,-0.430726,3.423,4.04303
-2.09689,-0.430726,3.423,4.03725
-2.08578,-0.430726,3.423,4.03149
-2.07467,-0.430726,3.423,4.02576
-2.06356,-0.430726,3.423,4.02004
-2.05245,-0.430726,3.423,4.01435
-2.04134,-0.430726,3.423,4.00868
nan,nan,nan,NaN
nan,nan,nan,NaN
nan,nan,nan,NaN
nan,nan,nan,NaN
nan,nan,nan,NaN
nan,nan,nan,NaN
nan,nan,nan,NaN
nan,nan,nan,NaN
nan,nan,nan,NaN
nan,nan,nan,NaN
nan,nan,nan,NaN
nan,nan,nan,NaN
nan,nan,nan,NaN
nan,nan,nan,NaN
nan,nan,nan,NaN
nan,nan,nan,NaN
nan,nan,nan,NaN
nan,nan,nan,NaN
nan,nan,nan,NaN
nan,nan,nan,NaN
nan,nan,nan,NaN
nan,nan,nan,NaN
nan,nan,nan,NaN
nan,nan,nan,NaN
nan,nan,nan,NaN
nan,nan,nan,NaN
nan,nan,nan,NaN
nan,nan,nan,NaN
nan,nan,nan,NaN
nan,nan,nan,NaN
nan,nan,nan,NaN
-1.16278,-0.297091,2.361,2.64852
-1.15512,-0.297091,2.361,2.64516
-1.14746,-0.297091,2.361,2.64183
-1.13979,-0.297091,2.361,2.63851
-1.13213,-0.297091,2.361,2.6352
-1.12447,-0.297091,2.361,2.63192
-1.1168,-0.297091,2.361,2.62866
-1.10914,-0.297091,2.361,2.62541
-1.10148,-0.297091,2.361,2.62218
-1.09381,-0.297091,2.361,2.61897
-1.08615,-0.297091,2.361,2.61578
-1.07849,-0.297091,2.361,2.61261
-1.07082,-0.297091,2.361,2.60945
-1.05596,-0.295078,2.345,2.58866
-1.04835,-0.295078,2.345,2.58556
-1.04073,-0.295078,2.345,2.58248
-1.03312,-0.295078,2.345,2.57943
-1.01851,-0.293065,2.329,2.55881
-1.01096,-0.293065,2.329,2.55581
-1.0034,-0.293065,2.329,2.55283
-0.995836,-0.293065,2.329,2.54987
-0.988277,-0.293065,2.329,2.54692
-0.97398,-0.291051,2.313,2.52652
-0.966473,-0.291051,2.313,2.52364
-0.958965,-0.291051,2.313,2.52077
-0.951458,-0.291051,2.313,2.51793
-0.943951,-0.291051,2.313,2.5151
-0.936443,-0.291051,2.313,2.51229
-0.928936,-0.291051,2.313,2.5095
-0.921428,-0.291051,2.313,2.50673
-0.907994,-0.289164,2.298,2.48774
-0.900535,-0.289164,2.298,2.48503
-0.893076,-0.289164,2.298,2.48234
-0.885618,-0.289164,2.298,2.47967
-0.878159,-0.289164,2.298,2.47701
-0.8707,-0.289164,2.298,2.47438
-0.863242,-0.289164,2.298,2.47176
-0.855783,-0.289164,2.298,2.46917
-0.848324,-0.289164,2.298,2.46659
-0.840865,-0.289164,2.298,2.46404
-0.833407,-0.289164,2.298,2.4615
-0.831339,-0.291051,2.313,2.47504
-0.823832,-0.291051,2.313,2.47252
-0.816324,-0.291051,2.313,2.47003
-0.808817,-0.291051,2.313,2.46756
-0.801309,-0.291051,2.313,2.46511
-0.799293,-0.293065,2.329,2.47972
-0.791734,-0.293065,2.329,2.47729
-0.784174,-0.293065,2.329,2.47489
-0.776615,-0.293065,2.329,2.4725
-0.769056,-0.293065,2.329,2.47014
-0.766728,-0.295078,2.345,2.48475
-0.759116,-0.295078,2.345,2.48241
-0.751505,-0.295078,2.345,2.48009
-0.748969,-0.297091,2.361,2.4947
-0.741306,-0.297091,2.361,2.49241
-0.733643,-0.297091,2.361,2.49014
-0.72598,-0.297091,2.361,2.4879
-0.718317,-0.297091,2.361,2.48567
-0.715469,-0.299105,2.377,2.5003
-0.707754,-0.299105,2.377,2.4981
-0.705046,-0.301244,2.394,2.51378
-0.697275,-0.301244,2.394,2.51161
-0.689505,-0.301244,2.394,2.50946
-0.686576,-0.303383,2.411,2.52514
-0.67875,-0.303383,2.411,2.52303
-0.670925,-0.303383,2.411,2.52093
-0.667775,-0.305522,2.428,2.53662
-0.659894,-0.305522,2.428,2.53456
-0.652013,-0.305522,2.428,2.53252
-0.644133,-0.305522,2.428,2.5305
-0.640707,-0.307661,2.445,2.54621
-0.632771,-0.307661,2.445,2.54422
-0.624835,-0.307661,2.445,2.54226
-0.616899,-0.307661,2.445,2.54032
-0.608963,-0.307661,2.445,2.53841
-0.601027,-0.307661,2.445,2.53652
-0.593092,-0.307661,2.445,2.53465
-0.585156,-0.307661,2.445,2.5328
-0.581469,-0.309926,2.463,2.54961
-0.573475,-0.309926,2.463,2.5478
-0.565481,-0.309926,2.463,2.54601
-0.557486,-0.309926,2.463,2.54425
-0.549492,-0.309926,2.463,2.54251
-0.541498,-0.309926,2.463,2.5408
-0.533504,-0.309926,2.463,2.5391
-0.525509,-0.309926,2.463,2.53744
-0.517515,-0.309926,2.463,2.53579
-0.509521,-0.309926,2.463,2.53417
-0.501526,-0.309926,2.463,2.53258
-0.493532,-0.309926,2.463,2.53101
-0.485538,-0.309926,2.463,2.52946
-0.481034,-0.312191,2.481,2.54641
-0.472981,-0.312191,2.481,2.5449
-0.464928,-0.312191,2.481,2.54342
-0.456875,-0.312191,2.481,2.54196
-0.448823,-0.312191,2.481,2.54052
-0.443968,-0.314456,2.499,2.55754
-0.435857,-0.314456,2.499,2.55614
-0.427746,-0.314456,2.499,2.55477
-0.422657,-0.316721,2.517,2.57182
-0.414487,-0.316721,2.517,2.57049
-0.406318,-0.316721,2.517,2.56918
-0.398148,-0.316721,2.517,2.5679
-0.389979,-0.316721,2.517,2.56665
-0.381809,-0.316721,2.517,2.56542
-0.37364,-0.316721,2.517,2.56422
-0.36547,-0.316721,2.517,2.56304
-0.357301,-0.316721,2.517,2.56189
-0.349131,-0.316721,2.517,2.56076
-0.340961,-0.316721,2.517,2.55966
-0.332792,-0.316721,2.517,2.55858
-0.324622,-0.316721,2.517,2.55753
-0.316453,-0.316721,2.517,2.55651
-0.308283,-0.316721,2.517,2.55551
-0.300114,-0.316721,2.517,2.55454
-0.291944,-0.316721,2.517,2.55359
-0.283775,-0.316721,2.517,2.55267
-0.275605,-0.316721,2.517,2.55178
-0.267435,-0.316721,2.517,2.55091
-0.259266,-0.316721,2.517,2.55006
-0.251096,-0.316721,2.517,2.54925
-0.242927,-0.316721,2.517,2.54845
-0.234757,-0.316721,2.517,2.54769
-0.226588,-0.316721,2.517,2.54695
-0.218418,-0.316721,2.517,2.54623
-0.210249,-0.316721,2.517,2.54555
-0.202079,-0.316721,2.517,2.54488
-0.193909,-0.316721,2.517,2.54425
-0.18574,-0.316721,2.517,2.54364
-0.17757,-0.316721,2.517,2.54306
-0.169401,-0.316721,2.517,2.5425
-0.161231,-0.316721,2.517,2.54197
-0.153062,-0.316721,2.517,2.54146
-0.144892,-0.316721,2.517,2.54098
-0.136723,-0.316721,2.517,2.54053
-0.128553,-0.316721,2.517,2.5401
-0.120383,-0.316721,2.517,2.5397
-0.112214,-0.316721,2.517,2.53933
-0.104044,-0.316721,2.517,2.53898
-0.0958747,-0.316721,2.517,2.53866
-0.0877052,-0.316721,2.517,2.53836
-0.080136,-0.319112,2.536,2.55725
-0.0719048,-0.319112,2.536,2.55701
-0.0636736,-0.319112,2.536,2.55679
-0.0558577,-0.321503,2.555,2.57575
-0.0475648,-0.321503,2.555,2.57559
-0.0392719,-0.321503,2.555,2.57545
-0.030979,-0.321503,2.555,2.57533
-0.0228548,-0.323894,2.574,2.5944
-0.0146073,-0.326284,2.593,2.61349
-0.00619107,-0.326284,2.593,2.61346
0.00222516,-0.326284,2.593,2.61345
0.0106414,-0.326284,2.593,2.61347
0.0190576,-0.326284,2.593,2.61352
0.0274739,-0.326284,2.593,2.61359
0.0358901,-0.326284,2.593,2.61369
0.0443063,-0.326284,2.593,2.61382
0.0527226,-0.326284,2.593,2.61398
0.0611388,-0.326284,2.593,2.61416
0.069555,-0.326284,2.593,2.61437
0.0779713,-0.326284,2.593,2.61461
0.0863875,-0.326284,2.593,2.61488
0.095535,-0.328801,2.613,2.63534
0.104016,-0.328801,2.613,2.63566
0.112497,-0.328801,2.613,2.63601
0.120978,-0.328801,2.613,2.63638
0.12946,-0.328801,2.613,2.63679
0.137941,-0.328801,2.613,2.63722
0.146422,-0.328801,2.613,2.63767
0.154903,-0.328801,2.613,2.63816
0.163384,-0.328801,2.613,2.63867
0.171865,-0.328801,2.613,2.63921
0.180346,-0.328801,2.613,2.63977
0.188828,-0.328801,2.613,2.64037
0.197309,-0.328801,2.613,2.64099
0.20579,-0.328801,2.613,2.64163
0.214271,-0.328801,2.613,2.64231
0.222752,-0.328801,2.613,2.64301
0.231233,-0.328801,2.613,2.64374
0.239715,-0.328801,2.613,2.64449
0.248196,-0.328801,2.613,2.64528
0.256677,-0.328801,2.613,2.64608
0.265158,-0.328801,2.613,2.64692
0.273639,-0.328801,2.613,2.64778
0.28212,-0.328801,2.613,2.64867
0.290601,-0.328801,2.613,2.64959
0.299083,-0.328801,2.613,2.65053
0.307564,-0.328801,2.613,2.6515
0.316045,-0.328801,2.613,2.6525
0.322042,-0.326284,2.593,2.63322
0.330458,-0.326284,2.593,2.63426
0.338875,-0.326284,2.593,2.63533
0.347291,-0.326284,2.593,2.63642
0.353101,-0.323894,2.574,2.61822
0.361455,-0.323894,2.574,2.61936
0.36981,-0.323894,2.574,2.62052
0.375373,-0.321503,2.555,2.60236
0.383666,-0.321503,2.555,2.60357
0.391959,-0.321503,2.555,2.60481
0.400252,-0.321503,2.555,2.60607
0.408544,-0.321503,2.555,2.60735
0.416837,-0.321503,2.555,2.60867
0.42513,-0.321503,2.555,2.61
0.433423,-0.321503,2.555,2.61137
0.441716,-0.321503,2.555,2.61276
0.450009,-0.321503,2.555,2.61417
0.458302,-0.321503,2.555,2.61561
0.466595,-0.321503,2.555,2.61708
0.474888,-0.321503,2.555,2.61857
0.48318,-0.321503,2.555,2.62009
0.491473,-0.321503,2.555,2.62163
0.499766,-0.321503,2.555,2.6232
0.508059,-0.321503,2.555,2.62479
0.516352,-0.321503,2.555,2.62641
0.528546,-0.323894,2.574,2.64759
0.536901,-0.323894,2.574,2.64927
0.541231,-0.321503,2.555,2.63141
0.549524,-0.321503,2.555,2.63313
0.561965,-0.323894,2.574,2.65447
0.570319,-0.323894,2.574,2.65625
0.578674,-0.323894,2.574,2.65805
0.587028,-0.323894,2.574,2.65988
0.595383,-0.323894,2.574,2.66174
0.603738,-0.323894,2.574,2.66362
0.612092,-0.323894,2.574,2.66553
0.620447,-0.323894,2.574,2.66746
0.628801,-0.323894,2.574,2.66941
0.637156,-0.323894,2.574,2.6714
0.64551,-0.323894,2.574,2.6734
0.649038,-0.321503,2.555,2.65568
0.657331,-0.321503,2.555,2.65772
0.665624,-0.321503,2.555,2.65978
0.673917,-0.321503,2.555,2.66187
0.68221,-0.321503,2.555,2.66398
0.690503,-0.321503,2.555,2.66612
0.698796,-0.321503,2.555,2.66828
0.70183,-0.319112,2.536,2.6506
0.710062,-0.319112,2.536,2.65279
0.718293,-0.319112,2.536,2.65501
0.726524,-0.319112,2.536,2.65725
0.734755,-0.319112,2.536,2.65951
0.742987,-0.319112,2.536,2.6618
0.74559,-0.316721,2.517,2.64415
0.753759,-0.316721,2.517,2.64646
0.761929,-0.316721,2.517,2.6488
0.770098,-0.316721,2.517,2.65116
0.778268,-0.316721,2.517,2.65355
0.786437,-0.316721,2.517,2.65595
0.794607,-0.316721,2.517,2.65838
0.802777,-0.316721,2.517,2.66084
0.810946,-0.316721,2.517,2.66331
0.819116,-0.316721,2.517,2.66581
0.827285,-0.316721,2.517,2.66833
0.835455,-0.316721,2.517,2.67088
0.843624,-0.316721,2.517,2.67344
0.851794,-0.316721,2.517,2.67603
0.853814,-0.314456,2.499,2.65949
0.861925,-0.314456,2.499,2.6621
0.870036,-0.314456,2.499,2.66474
0.878147,-0.314456,2.499,2.6674
0.886258,-0.314456,2.499,2.67008
0.894369,-0.314456,2.499,2.67279
0.89598,-0.312191,2.481,2.65624
0.904033,-0.312191,2.481,2.65897
0.912085,-0.312191,2.481,2.66171
0.913462,-0.309926,2.463,2.64515
0.921457,-0.309926,2.463,2.64792
0.929451,-0.309926,2.463,2.65072
0.937445,-0.309926,2.463,2.65353
0.945439,-0.309926,2.463,2.65637
0.953434,-0.309926,2.463,2.65922
0.954402,-0.307661,2.445,2.64264
0.962338,-0.307661,2.445,2.64552
0.970273,-0.307661,2.445,2.64842
0.978209,-0.307661,2.445,2.65133
0.986145,-0.307661,2.445,2.65427
0.994081,-0.307661,2.445,2.65723
1.00202,-0.307661,2.445,2.66021
1.00995,-0.307661,2.445,2.66321
1.02538,-0.309926,2.463,2.68586
1.03338,-0.309926,2.463,2.68892
nan,nan,nan,NaN
nan,nan,nan,NaN
nan,nan,nan,NaN
nan,nan,nan,NaN
nan,nan,nan,NaN
nan,nan,nan,NaN
nan,nan,nan,NaN
nan,nan,nan,NaN
nan,nan,nan,NaN
nan,nan,nan,NaN
1.52786,-0.422295,3.356,3.71153
1.53876,-0.422295,3.356,3.71602
1.62953,-0.444064,3.529,3.91234
1.65819,-0.44872,3.566,3.95819
1.63558,-0.439534,3.493,3.88193
1.64692,-0.439534,3.493,3.88672
1.67535,-0.444064,3.529,3.93165
1.6868,-0.444064,3.529,3.93654
1.68093,-0.439534,3.493,3.90125
1.69227,-0.439534,3.493,3.90615
1.66947,-0.430726,3.423,3.8327
1.64768,-0.422295,3.356,3.76244
1.65858,-0.422295,3.356,3.76722
1.66947,-0.422295,3.356,3.77203
1.64832,-0.414242,3.292,3.70484
1.659,-0.414242,3.292,3.7096
1.65346,-0.410215,3.26,3.67829
1.66404,-0.410215,3.26,3.68306
1.67462,-0.410215,3.26,3.68785
1.6852,-0.410215,3.26,3.69267
1.69578,-0.410215,3.26,3.69751
1.70636,-0.410215,3.26,3.70237
1.75065,-0.418268,3.324,3.78004
1.76144,-0.418268,3.324,3.78505
1.80688,-0.426447,3.389,3.8642
1.8549,-0.43513,3.458,3.94813
1.86612,-0.43513,3.458,3.95342
1.91589,-0.444064,3.529,4.04001
1.94755,-0.44872,3.566,4.08787
1.98,-0.453501,3.604,4.13701
1.9917,-0.453501,3.604,4.14263
2.0034,-0.453501,3.604,4.14826
2.03634,-0.458283,3.642,4.19772
2.04816,-0.458283,3.642,4.20347
2.08204,-0.46319,3.681,4.25432
2.11675,-0.468224,3.721,4.30647
2.12882,-0.468224,3.721,4.31242
2.11789,-0.46319,3.681,4.27197
2.10727,-0.458283,3.642,4.23258
2.11909,-0.458283,3.642,4.23848
2.13091,-0.458283,3.642,4.2444
2.12037,-0.453501,3.604,4.206
2.13207,-0.453501,3.604,4.21191
2.09916,-0.444064,3.529,4.13007
2.06815,-0.43513,3.458,4.0527
2.07937,-0.43513,3.458,4.05843
2.04888,-0.426447,3.389,3.9831
2.02037,-0.418268,3.324,3.91227
2.03116,-0.418268,3.324,3.91785
2.00264,-0.410215,3.26,3.84791
1.97555,-0.402539,3.199,3.78133
1.98593,-0.402539,3.199,3.78676
1.96012,-0.395241,3.141,3.72346
1.93456,-0.388068,3.084,3.66117
1.94457,-0.388068,3.084,3.66647
1.92035,-0.381273,3.03,3.6075
1.91299,-0.377876,3.003,3.58055
1.92273,-0.377876,3.003,3.58576
1.89902,-0.371333,2.951,3.52882
1.87626,-0.365041,2.901,3.4741
1.88567,-0.365041,2.901,3.4792
1.89509,-0.365041,2.901,3.48431
1.88875,-0.362021,2.877,3.46057
1.88225,-0.359001,2.853,3.43677
1.89151,-0.359001,2.853,3.44185
1.86946,-0.353087,2.806,3.39016
1.86317,-0.350193,2.783,3.36736
1.8722,-0.350193,2.783,3.37237
1.85149,-0.344656,2.739,3.32399
1.86038,-0.344656,2.739,3.32895
-2.19913,-0.388604,3.17,3.87764
-2.20887,-0.392159,3.199,3.90724
-2.19848,-0.392159,3.199,3.90137
-2.20931,-0.395959,3.23,3.93328
-2.21924,-0.399637,3.26,3.96388
-2.20866,-0.399637,3.26,3.95797
-2.19808,-0.399637,3.26,3.95207
-2.20897,-0.40356,3.292,3.98493
-2.21966,-0.407482,3.324,4.0177
-2.20887,-0.407482,3.324,4.01175
-2.21924,-0.411405,3.356,4.04438
-2.20835,-0.411405,3.356,4.03841
-2.21906,-0.415451,3.389,4.07212
-2.20806,-0.415451,3.389,4.06614
-2.19706,-0.415451,3.389,4.06017
-2.18606,-0.415451,3.389,4.05423
-2.17506,-0.415451,3.389,4.04831
-2.18577,-0.419619,3.423,4.08297
-2.17466,-0.419619,3.423,4.07703
-2.16355,-0.419619,3.423,4.07111
-2.17445,-0.423909,3.458,4.10679
-2.16323,-0.423909,3.458,4.10086
-2.152,-0.423909,3.458,4.09495
-2.11911,-0.419619,3.423,4.04767
-2.108,-0.419619,3.423,4.04187
-2.09689,-0.419619,3.423,4.03608
-2.08578,-0.419619,3.423,4.03032
-2.07467,-0.419619,3.423,4.02458
-2.06356,-0.419619,3.423,4.01887
-2.05245,-0.419619,3.423,4.01317
-2.04134,-0.419619,3.423,4.0075
nan,nan,nan,NaN
nan,nan,nan,NaN
nan,nan,nan,NaN
nan,nan,nan,NaN
nan,nan,nan,NaN
nan,nan,nan,NaN
nan,nan,nan,NaN
nan,nan,nan,NaN
nan,nan,nan,NaN
nan,nan,nan,NaN
nan,nan,nan,NaN
nan,nan,nan,NaN
nan,nan,nan,NaN
nan,nan,nan,NaN
nan,nan,nan,NaN
nan,nan,nan,NaN
nan,nan,nan,NaN
nan,nan,nan,NaN
nan,nan,nan,NaN
nan,nan,nan,NaN
nan,nan,nan,NaN
nan,nan,nan,NaN
nan,nan,nan,NaN
nan,nan,nan,NaN
nan,nan,nan,NaN
nan,nan,nan,NaN
nan,nan,nan,NaN
nan,nan,nan,NaN
nan,nan,nan,NaN
nan,nan,nan,NaN
nan,nan,nan,NaN
-1.16278,-0.28943,2.361,2.64767
-1.15512,-0.28943,2.361,2.64431
-1.14746,-0.28943,2.361,2.64097
-1.13979,-0.28943,2.361,2.63765
-1.1398,-0.291392,2.377,2.6522
-1.13209,-0.291392,2.377,2.6489
-1.12437,-0.291392,2.377,2.64561
-1.11666,-0.291392,2.377,2.64234
-1.10894,-0.291392,2.377,2.63909
-1.09381,-0.28943,2.361,2.61811
-1.08615,-0.28943,2.361,2.61492
-1.07849,-0.28943,2.361,2.61175
-1.07082,-0.28943,2.361,2.60859
-1.05596,-0.287469,2.345,2.5878
-1.04835,-0.287469,2.345,2.5847
-1.04073,-0.287469,2.345,2.58163
-1.03312,-0.287469,2.345,2.57857
-1.01851,-0.285507,2.329,2.55795
-1.01096,-0.285507,2.329,2.55495
-1.0034,-0.285507,2.329,2.55197
-0.988995,-0.283546,2.313,2.5315
-0.981488,-0.283546,2.313,2.52857
-0.97398,-0.283546,2.313,2.52567
-0.966473,-0.283546,2.313,2.52278
-0.958965,-0.283546,2.313,2.51992
-0.951458,-0.283546,2.313,2.51707
-0.943951,-0.283546,2.313,2.51424
-0.93037,-0.281707,2.298,2.49515
-0.922911,-0.281707,2.298,2.49237
-0.915453,-0.281707,2.298,2.48962
-0.907994,-0.281707,2.298,2.48689
-0.900535,-0.281707,2.298,2.48418
-0.893076,-0.281707,2.298,2.48148
-0.885618,-0.281707,2.298,2.47881
-0.878159,-0.281707,2.298,2.47615
-0.8707,-0.281707,2.298,2.47352
-0.863242,-0.281707,2.298,2.4709
-0.855783,-0.281707,2.298,2.4683
-0.848324,-0.281707,2.298,2.46573
-0.840865,-0.281707,2.298,2.46317
-0.833407,-0.281707,2.298,2.46064
-0.825948,-0.281707,2.298,2.45812
-0.818489,-0.281707,2.298,2.45562
-0.816324,-0.283546,2.313,2.46916
-0.808817,-0.283546,2.313,2.46669
-0.801309,-0.283546,2.313,2.46424
-0.793802,-0.283546,2.313,2.46181
-0.791734,-0.285507,2.329,2.47641
-0.784174,-0.285507,2.329,2.474
-0.776615,-0.285507,2.329,2.47162
-0.769056,-0.285507,2.329,2.46925
-0.766728,-0.287469,2.345,2.48386
-0.759116,-0.287469,2.345,2.48152
-0.751505,-0.287469,2.345,2.4792
-0.748969,-0.28943,2.361,2.4938
-0.741306,-0.28943,2.361,2.49151
-0.733643,-0.28943,2.361,2.48924
-0.72598,-0.28943,2.361,2.48699
-0.718317,-0.28943,2.361,2.48477
-0.710653,-0.28943,2.361,2.48256
-0.707754,-0.291392,2.377,2.49719
-0.705046,-0.293476,2.394,2.51286
-0.697275,-0.293476,2.394,2.51069
-0.689505,-0.293476,2.394,2.50854
-0.686576,-0.29556,2.411,2.52422
-0.67875,-0.29556,2.411,2.5221
-0.670925,-0.29556,2.411,2.52
-0.667775,-0.297644,2.428,2.53569
-0.659894,-0.297644,2.428,2.53362
-0.652013,-0.297644,2.428,2.53158
-0.644133,-0.297644,2.428,2.52956
-0.640707,-0.299727,2.445,2.54526
-0.632771,-0.299727,2.445,2.54328
-0.624835,-0.299727,2.445,2.54131
-0.616899,-0.299727,2.445,2.53938
-0.608963,-0.299727,2.445,2.53746
-0.601027,-0.299727,2.445,2.53557
-0.597458,-0.301934,2.463,2.55235
-0.589464,-0.301934,2.463,2.55049
-0.581469,-0.301934,2.463,2.54865
-0.573475,-0.301934,2.463,2.54684
-0.565481,-0.301934,2.463,2.54505
-0.557486,-0.301934,2.463,2.54329
-0.549492,-0.301934,2.463,2.54155
-0.541498,-0.301934,2.463,2.53983
-0.533504,-0.301934,2.463,2.53814
-0.525509,-0.301934,2.463,2.53647
-0.521297,-0.304141,2.481,2.55335
-0.513244,-0.304141,2.481,2.55172
-0.505192,-0.304141,2.481,2.55011
-0.500746,-0.306347,2.499,2.56702
-0.492635,-0.306347,2.499,2.56545
-0.484524,-0.306347,2.499,2.56391
-0.476412,-0.306347,2.499,2.56239
-0.468301,-0.306347,2.499,2.56089
-0.46019,-0.306347,2.499,2.55942
-0.455335,-0.308554,2.517,2.5764
-0.447166,-0.308554,2.517,2.57497
-0.438996,-0.308554,2.517,2.57356
-0.430827,-0.308554,2.517,2.57218
-0.422657,-0.308554,2.517,2.57082
-0.414487,-0.308554,2.517,2.56949
-0.406318,-0.308554,2.517,2.56819
-0.401154,-0.310883,2.536,2.58628
-0.392923,-0.310883,2.536,2.58502
-0.384691,-0.310883,2.536,2.58378
-0.37646,-0.310883,2.536,2.58257
-0.368229,-0.310883,2.536,2.58138
-0.359998,-0.310883,2.536,2.58022
-0.351766,-0.310883,2.536,2.57909
-0.343535,-0.310883,2.536,2.57798
-0.335304,-0.310883,2.536,2.57689
-0.327073,-0.310883,2.536,2.57583
-0.318842,-0.310883,2.536,2.5748
-0.31061,-0.310883,2.536,2.5738
-0.300114,-0.308554,2.517,2.55354
-0.291944,-0.308554,2.517,2.55259
-0.283775,-0.308554,2.517,2.55167
-0.275605,-0.308554,2.517,2.55078
-0.267435,-0.308554,2.517,2.54991
-0.261223,-0.310883,2.536,2.5683
-0.252992,-0.310883,2.536,2.56748
-0.244761,-0.310883,2.536,2.56668
-0.236529,-0.310883,2.536,2.56591
-0.226588,-0.308554,2.517,2.54595
-0.218418,-0.308554,2.517,2.54523
-0.210249,-0.308554,2.517,2.54454
-0.202079,-0.308554,2.517,2.54388
-0.193909,-0.308554,2.517,2.54325
-0.18574,-0.308554,2.517,2.54264
-0.17757,-0.308554,2.517,2.54205
-0.169401,-0.308554,2.517,2.54149
-0.161231,-0.308554,2.517,2.54096
-0.153062,-0.308554,2.517,2.54046
-0.144892,-0.308554,2.517,2.53998
-0.136723,-0.308554,2.517,2.53953
-0.128553,-0.308554,2.517,2.5391
-0.120383,-0.308554,2.517,2.5387
-0.112214,-0.308554,2.517,2.53832
-0.104044,-0.308554,2.517,2.53798
-0.0958747,-0.308554,2.517,2.53765
-0.0877052,-0.308554,2.517,2.53736
-0.080136,-0.310883,2.536,2.55624
-0.0719048,-0.310883,2.536,2.556
-0.0636736,-0.310883,2.536,2.55578
-0.0558577,-0.313212,2.555,2.57473
-0.0475648,-0.313212,2.555,2.57457
-0.0392719,-0.313212,2.555,2.57443
-0.030979,-0.313212,2.555,2.57431
-0.0228548,-0.315541,2.574,2.59337
-0.0145003,-0.315541,2.574,2.59331
-0.00614571,-0.315541,2.574,2.59328
0.00220886,-0.315541,2.574,2.59327
0.0105634,-0.315541,2.574,2.59329
0.018918,-0.315541,2.574,2.59334
0.0274739,-0.317871,2.593,2.61256
0.0358901,-0.317871,2.593,2.61266
0.0443063,-0.317871,2.593,2.61279
0.0527226,-0.317871,2.593,2.61294
0.0611388,-0.317871,2.593,2.61313
0.069555,-0.317871,2.593,2.61334
0.0779713,-0.317871,2.593,2.61357
0.0863875,-0.317871,2.593,2.61384
0.0948037,-0.317871,2.593,2.61413
0.10322,-0.317871,2.593,2.61445
0.111636,-0.317871,2.593,2.6148
0.120052,-0.317871,2.593,2.61517
0.128469,-0.317871,2.593,2.61557
0.136885,-0.317871,2.593,2.61599
0.146422,-0.320322,2.613,2.63663
0.154903,-0.320322,2.613,2.63711
0.163384,-0.320322,2.613,2.63763
0.171865,-0.320322,2.613,2.63816
0.180346,-0.320322,2.613,2.63873
0.188828,-0.320322,2.613,2.63932
0.197309,-0.320322,2.613,2.63994
0.20579,-0.320322,2.613,2.64059
0.214271,-0.320322,2.613,2.64127
0.222752,-0.320322,2.613,2.64197
0.231233,-0.320322,2.613,2.6427
0.239715,-0.320322,2.613,2.64345
0.248196,-0.320322,2.613,2.64423
0.256677,-0.320322,2.613,2.64504
0.265158,-0.320322,2.613,2.64588
0.273639,-0.320322,2.613,2.64674
0.28212,-0.320322,2.613,2.64763
0.290601,-0.320322,2.613,2.64855
0.299083,-0.320322,2.613,2.6495
0.307564,-0.320322,2.613,2.65047
0.316045,-0.320322,2.613,2.65146
0.322042,-0.317871,2.593,2.63219
0.330458,-0.317871,2.593,2.63323
0.338875,-0.317871,2.593,2.6343
0.347291,-0.317871,2.593,2.63539
0.353101,-0.315541,2.574,2.6172
0.361455,-0.315541,2.574,2.61834
0.36981,-0.315541,2.574,2.6195
0.375373,-0.313212,2.555,2.60135
0.383666,-0.313212,2.555,2.60256
0.391959,-0.313212,2.555,2.6038
0.400252,-0.313212,2.555,2.60506
0.408544,-0.313212,2.555,2.60635
0.416837,-0.313212,2.555,2.60766
0.42513,-0.313212,2.555,2.609
0.433423,-0.313212,2.555,2.61036
0.441716,-0.313212,2.555,2.61175
0.450009,-0.313212,2.555,2.61317
0.458302,-0.313212,2.555,2.61461
0.466595,-0.313212,2.555,2.61607
0.474888,-0.313212,2.555,2.61756
0.48318,-0.313212,2.555,2.61908
0.491473,-0.313212,2.555,2.62062
0.503483,-0.315541,2.574,2.64169
0.511837,-0.315541,2.574,2.6433
0.520192,-0.315541,2.574,2.64493
0.528546,-0.315541,2.574,2.64658
0.536901,-0.315541,2.574,2.64826
0.541231,-0.313212,2.555,2.63041
0.549524,-0.313212,2.555,2.63213
0.561965,-0.315541,2.574,2.65346
0.570319,-0.315541,2.574,2.65524
0.578674,-0.315541,2.574,2.65705
0.587028,-0.315541,2.574,2.65888
0.595383,-0.315541,2.574,2.66074
0.603738,-0.315541,2.574,2.66262
0.612092,-0.315541,2.574,2.66453
0.620447,-0.315541,2.574,2.66646
0.628801,-0.315541,2.574,2.66841
0.637156,-0.315541,2.574,2.6704
0.64551,-0.315541,2.574,2.6724
0.653865,-0.315541,2.574,2.67443
0.662219,-0.315541,2.574,2.67649
0.670574,-0.315541,2.574,2.67857
0.678929,-0.315541,2.574,2.68067
0.687283,-0.315541,2.574,2.6828
0.695638,-0.315541,2.574,2.68495
0.698796,-0.313212,2.555,2.66729
0.707089,-0.313212,2.555,2.66948
0.715382,-0.313212,2.555,2.67168
0.723674,-0.313212,2.555,2.67392
0.731967,-0.313212,2.555,2.67617
0.74026,-0.313212,2.555,2.67845
0.742987,-0.310883,2.536,2.66082
0.74559,-0.308554,2.517,2.64318
0.753759,-0.308554,2.517,2.6455
0.761929,-0.308554,2.517,2.64784
0.770098,-0.308554,2.517,2.6502
0.778268,-0.308554,2.517,2.65258
0.792374,-0.310883,2.536,2.67503
0.800605,-0.310883,2.536,2.67748
0.802777,-0.308554,2.517,2.65988
0.810946,-0.308554,2.517,2.66235
0.819116,-0.308554,2.517,2.66485
0.827285,-0.308554,2.517,2.66738
0.835455,-0.308554,2.517,2.66992
0.843624,-0.308554,2.517,2.67249
0.851794,-0.308554,2.517,2.67508
0.859963,-0.308554,2.517,2.67769
0.868133,-0.308554,2.517,2.68033
0.870036,-0.306347,2.499,2.6638
0.878147,-0.306347,2.499,2.66646
0.886258,-0.306347,2.499,2.66914
0.894369,-0.306347,2.499,2.67184
0.90248,-0.306347,2.499,2.67457
0.910591,-0.306347,2.499,2.67732
0.912085,-0.304141,2.481,2.66078
0.920138,-0.304141,2.481,2.66355
0.928191,-0.304141,2.481,2.66635
0.936243,-0.304141,2.481,2.66916
0.937445,-0.301934,2.463,2.65261
0.945439,-0.301934,2.463,2.65545
0.953434,-0.301934,2.463,2.6583
0.954402,-0.299727,2.445,2.64173
0.962338,-0.299727,2.445,2.64461
0.977417,-0.301934,2.463,2.667
0.985411,-0.301934,2.463,2.66994
0.986145,-0.299727,2.445,2.65336
0.994081,-0.299727,2.445,2.65632
1.00202,-0.299727,2.445,2.6593
nan,nan,nan,NaN
nan,nan,nan,NaN
nan,nan,nan,NaN
nan,nan,nan,NaN
nan,nan,nan,NaN
nan,nan,nan,NaN
nan,nan,nan,NaN
nan,nan,nan,NaN
nan,nan,nan,NaN
nan,nan,nan,NaN
nan,nan,nan,NaN
nan,nan,nan,NaN
nan,nan,nan,NaN
1.5743,-0.423909,3.458,3.82307
1.58552,-0.423909,3.458,3.82771
1.62953,-0.432613,3.529,3.91106
1.65819,-0.437149,3.566,3.9569
1.66977,-0.437149,3.566,3.96176
1.69926,-0.441807,3.604,4.00893
1.71096,-0.441807,3.604,4.0139
1.72265,-0.441807,3.604,4.0189
1.71606,-0.437149,3.566,3.9815
1.72764,-0.437149,3.566,3.9865
1.72117,-0.432613,3.529,3.95012
1.69776,-0.423909,3.458,3.87555
1.70899,-0.423909,3.458,3.88048
1.68589,-0.415451,3.389,3.8079
1.66434,-0.407482,3.324,3.73966
1.67513,-0.407482,3.324,3.74447
1.68592,-0.407482,3.324,3.74931
1.69671,-0.407482,3.324,3.75418
1.7075,-0.407482,3.324,3.75906
1.71828,-0.407482,3.324,3.76398
1.71243,-0.40356,3.292,3.73263
1.72311,-0.40356,3.292,3.73754
1.75065,-0.407482,3.324,3.77886
1.76144,-0.407482,3.324,3.78387
1.80688,-0.415451,3.389,3.863
1.87367,-0.4282,3.493,3.98686
1.88501,-0.4282,3.493,3.9922
1.91589,-0.432613,3.529,4.03877
1.94755,-0.437149,3.566,4.08661
2.00088,-0.446465,3.642,4.17936
2.0127,-0.446465,3.642,4.18503
2.02452,-0.446465,3.642,4.19073
2.05815,-0.451246,3.681,4.24139
2.0701,-0.451246,3.681,4.2472
2.08204,-0.451246,3.681,4.25303
2.11675,-0.45615,3.721,4.30517
2.12882,-0.45615,3.721,4.31113
2.11789,-0.451246,3.681,4.27069
2.10727,-0.446465,3.642,4.23132
2.11909,-0.446465,3.642,4.23722
2.13091,-0.446465,3.642,4.24314
2.12037,-0.441807,3.604,4.20476
2.13207,-0.441807,3.604,4.21067
2.09916,-0.432613,3.529,4.12886
2.06815,-0.423909,3.458,4.05151
2.07937,-0.423909,3.458,4.05725
2.04888,-0.415451,3.389,3.98194
2.02037,-0.407482,3.324,3.91113
2.03116,-0.407482,3.324,3.91671
2.00264,-0.399637,3.26,3.8468
1.97555,-0.392159,3.199,3.78023
1.98593,-0.392159,3.199,3.78567
1.96012,-0.385049,3.141,3.72239
1.93456,-0.378061,3.084,3.66012
1.94457,-0.378061,3.084,3.66542
1.92035,-0.371441,3.03,3.60647
1.91299,-0.368132,3.003,3.57953
1.92273,-0.368132,3.003,3.58475
1.89902,-0.361757,2.951,3.52782
1.87626,-0.355628,2.901,3.47313
1.88567,-0.355628,2.901,3.47822
1.89509,-0.355628,2.901,3.48334
1.88875,-0.352685,2.877,3.45961
1.88225,-0.349743,2.853,3.43581
1.89151,-0.349743,2.853,3.4409
1.86946,-0.343982,2.806,3.38923
1.86317,-0.341162,2.783,3.36644
1.8722,-0.341162,2.783,3.37144
1.85149,-0.335768,2.739,3.32308
1.86038,-0.335768,2.739,3.32805
-2.17901,-0.374857,3.141,3.84116
-2.18884,-0.378318,3.17,3.8708
-2.17855,-0.378318,3.17,3.86499
-2.20931,-0.385478,3.23,3.93224
-2.19882,-0.385478,3.23,3.92636
-2.20866,-0.389059,3.26,3.95691
-2.19808,-0.389059,3.26,3.95102
-2.20897,-0.392878,3.292,3.98386
-2.19829,-0.392878,3.292,3.97795
-2.1876,-0.392878,3.292,3.97206
-2.19808,-0.396696,3.324,4.00473
-2.20835,-0.400515,3.356,4.03732
-2.19745,-0.400515,3.356,4.03137
-2.18656,-0.400515,3.356,4.02544
-2.19706,-0.404454,3.389,4.05906
-2.18606,-0.404454,3.389,4.05312
-2.17506,-0.404454,3.389,4.0472
-2.16406,-0.404454,3.389,4.0413
-2.17466,-0.408511,3.423,4.0759
-2.16355,-0.408511,3.423,4.06998
-2.15244,-0.408511,3.423,4.06409
-2.14133,-0.408511,3.423,4.05822
-2.13022,-0.408511,3.423,4.05236
-2.11911,-0.408511,3.423,4.04654
-2.108,-0.408511,3.423,4.04073
-2.09689,-0.408511,3.423,4.03494
-2.08578,-0.408511,3.423,4.02918
-2.07467,-0.408511,3.423,4.02344
-2.06356,-0.408511,3.423,4.01772
-2.05245,-0.408511,3.423,4.01203
-2.04134,-0.408511,3.423,4.00636
nan,nan,nan,NaN
nan,nan,nan,NaN
nan,nan,nan,NaN
nan,nan,nan,NaN
nan,nan,nan,NaN
nan,nan,nan,NaN
nan,nan,nan,NaN
nan,nan,nan,NaN
nan,nan,nan,NaN
nan,nan,nan,NaN
nan,nan,nan,NaN
nan,nan,nan,NaN
nan,nan,nan,NaN
nan,nan,nan,NaN
nan,nan,nan,NaN
nan,nan,nan,NaN
nan,nan,nan,NaN
nan,nan,nan,NaN
nan,nan,nan,NaN
nan,nan,nan,NaN
nan,nan,nan,NaN
nan,nan,nan,NaN
nan,nan,nan,NaN
nan,nan,nan,NaN
nan,nan,nan,NaN
nan,nan,nan,NaN
nan,nan,nan,NaN
nan,nan,nan,NaN
nan,nan,nan,NaN
nan,nan,nan,NaN
nan,nan,nan,NaN
-1.17904,-0.285707,2.394,2.68384
-1.17127,-0.285707,2.394,2.68043
-1.15523,-0.283679,2.377,2.65804
-1.14752,-0.283679,2.377,2.65469
-1.1398,-0.283679,2.377,2.65137
-1.13209,-0.283679,2.377,2.64806
-1.12437,-0.283679,2.377,2.64477
-1.11666,-0.283679,2.377,2.6415
-1.10894,-0.283679,2.377,2.63825
-1.10123,-0.283679,2.377,2.63502
-1.08615,-0.281769,2.361,2.61408
-1.07849,-0.281769,2.361,2.61091
-1.07082,-0.281769,2.361,2.60775
-1.06316,-0.281769,2.361,2.60462
-1.0555,-0.281769,2.361,2.6015
-1.04073,-0.27986,2.345,2.58079
-1.03312,-0.27986,2.345,2.57773
-1.01851,-0.27795,2.329,2.55712
-1.01096,-0.27795,2.329,2.55412
-1.0034,-0.27795,2.329,2.55114
-0.988995,-0.276041,2.313,2.53067
-0.981488,-0.276041,2.313,2.52774
-0.97398,-0.276041,2.313,2.52484
-0.966473,-0.276041,2.313,2.52195
-0.958965,-0.276041,2.313,2.51908
-0.951458,-0.276041,2.313,2.51624
-0.943951,-0.276041,2.313,2.51341
-0.93037,-0.27425,2.298,2.49431
-0.922911,-0.27425,2.298,2.49154
-0.915453,-0.27425,2.298,2.48879
-0.907994,-0.27425,2.298,2.48606
-0.900535,-0.27425,2.298,2.48334
-0.893076,-0.27425,2.298,2.48065
-0.885618,-0.27425,2.298,2.47797
-0.878159,-0.27425,2.298,2.47531
-0.8707,-0.27425,2.298,2.47268
-0.863242,-0.27425,2.298,2.47006
-0.855783,-0.27425,2.298,2.46746
-0.848324,-0.27425,2.298,2.46489
-0.840865,-0.27425,2.298,2.46233
-0.833407,-0.27425,2.298,2.45979
-0.825948,-0.27425,2.298,2.45728
-0.818489,-0.27425,2.298,2.45478
-0.816324,-0.276041,2.313,2.46831
-0.808817,-0.276041,2.313,2.46584
-0.801309,-0.276041,2.313,2.46338
-0.793802,-0.276041,2.313,2.46095
-0.791734,-0.27795,2.329,2.47555
-0.784174,-0.27795,2.329,2.47314
-0.776615,-0.27795,2.329,2.47075
-0.774339,-0.27986,2.345,2.48535
-0.766728,-0.27986,2.345,2.48299
-0.759116,-0.27986,2.345,2.48065
-0.751505,-0.27986,2.345,2.47833
-0.748969,-0.281769,2.361,2.49292
-0.741306,-0.281769,2.361,2.49063
-0.733643,-0.281769,2.361,2.48836
-0.72598,-0.281769,2.361,2.48611
-0.718317,-0.281769,2.361,2.48389
-0.710653,-0.281769,2.361,2.48168
-0.707754,-0.283679,2.377,2.4963
-0.705046,-0.285707,2.394,2.51196
-0.697275,-0.285707,2.394,2.50979
-0.689505,-0.285707,2.394,2.50764
-0.686576,-0.287736,2.411,2.52331
-0.67875,-0.287736,2.411,2.52119
-0.670925,-0.287736,2.411,2.5191
-0.667775,-0.289765,2.428,2.53477
-0.659894,-0.289765,2.428,2.53271
-0.652013,-0.289765,2.428,2.53067
-0.644133,-0.289765,2.428,2.52865
-0.640707,-0.291794,2.445,2.54434
-0.632771,-0.291794,2.445,2.54236
-0.624835,-0.291794,2.445,2.54039
-0.616899,-0.291794,2.445,2.53845
-0.608963,-0.291794,2.445,2.53653
-0.601027,-0.291794,2.445,2.53464
-0.597458,-0.293942,2.463,2.55142
-0.589464,-0.293942,2.463,2.54956
-0.581469,-0.293942,2.463,2.54772
-0.573475,-0.293942,2.463,2.54591
-0.565481,-0.293942,2.463,2.54412
-0.557486,-0.293942,2.463,2.54235
-0.549492,-0.293942,2.463,2.54061
-0.541498,-0.293942,2.463,2.5389
-0.533504,-0.293942,2.463,2.5372
-0.525509,-0.293942,2.463,2.53553
-0.521297,-0.29609,2.481,2.55241
-0.513244,-0.29609,2.481,2.55077
-0.505192,-0.29609,2.481,2.54917
-0.500746,-0.298238,2.499,2.56607
-0.492635,-0.298238,2.499,2.5645
-0.484524,-0.298238,2.499,2.56295
-0.476412,-0.298238,2.499,2.56143
-0.468301,-0.298238,2.499,2.55993
-0.46019,-0.298238,2.499,2.55846
-0.455335,-0.300387,2.517,2.57543
-0.447166,-0.300387,2.517,2.574
-0.438996,-0.300387,2.517,2.57259
-0.430827,-0.300387,2.517,2.57121
-0.422657,-0.300387,2.517,2.56986
-0.414487,-0.300387,2.517,2.56853
-0.406318,-0.300387,2.517,2.56722
-0.401154,-0.302654,2.536,2.58531
-0.392923,-0.302654,2.536,2.58404
-0.384691,-0.302654,2.536,2.58281
-0.37646,-0.302654,2.536,2.58159
-0.368229,-0.302654,2.536,2.5804
-0.359998,-0.302654,2.536,2.57924
-0.351766,-0.302654,2.536,2.57811
-0.343535,-0.302654,2.536,2.577
-0.335304,-0.302654,2.536,2.57591
-0.327073,-0.302654,2.536,2.57485
-0.318842,-0.302654,2.536,2.57382
-0.31061,-0.302654,2.536,2.57281
-0.300114,-0.300387,2.517,2.55257
-0.291944,-0.300387,2.517,2.55162
-0.283775,-0.300387,2.517,2.5507
-0.275605,-0.300387,2.517,2.5498
-0.267435,-0.300387,2.517,2.54893
-0.259266,-0.300387,2.517,2.54809
-0.251096,-0.300387,2.517,2.54727
-0.244761,-0.302654,2.536,2.5657
-0.236529,-0.302654,2.536,2.56493
-0.226588,-0.300387,2.517,2.54497
-0.218418,-0.300387,2.517,2.54425
-0.210249,-0.300387,2.517,2.54357
-0.202079,-0.300387,2.517,2.5429
-0.193909,-0.300387,2.517,2.54227
-0.18574,-0.300387,2.517,2.54166
-0.17757,-0.300387,2.517,2.54107
-0.169401,-0.300387,2.517,2.54052
-0.161231,-0.300387,2.517,2.53998
-0.153062,-0.300387,2.517,2.53948
-0.144892,-0.300387,2.517,2.539
-0.136723,-0.300387,2.517,2.53855
-0.128553,-0.300387,2.517,2.53812
-0.120383,-0.300387,2.517,2.53772
-0.112214,-0.300387,2.517,2.53734
-0.10483,-0.302654,2.536,2.55615
-0.0965985,-0.302654,2.536,2.55582
-0.0883672,-0.302654,2.536,2.55552
-0.080136,-0.302654,2.536,2.55525
-0.0719048,-0.302654,2.536,2.55501
-0.0636736,-0.302654,2.536,2.55479
-0.0554423,-0.302654,2.536,2.5546
-0.0475648,-0.304922,2.555,2.57357
-0.0392719,-0.304922,2.555,2.57343
-0.030979,-0.304922,2.555,2.57332
-0.0226861,-0.304922,2.555,2.57323
-0.0143932,-0.304922,2.555,2.57317
-0.00610034,-0.304922,2.555,2.57314
0.00219255,-0.304922,2.555,2.57313
0.0105634,-0.307189,2.574,2.59229
0.018918,-0.307189,2.574,2.59233
0.0272725,-0.307189,2.574,2.59241
0.0356271,-0.307189,2.574,2.59251
0.0439817,-0.307189,2.574,2.59264
0.0523362,-0.307189,2.574,2.59279
0.0606908,-0.307189,2.574,2.59298
0.0690454,-0.307189,2.574,2.59319
0.0773999,-0.307189,2.574,2.59342
0.0863875,-0.309457,2.593,2.61283
0.0948037,-0.309457,2.593,2.61312
0.10322,-0.309457,2.593,2.61344
0.111636,-0.309457,2.593,2.61379
0.120052,-0.309457,2.593,2.61416
0.127527,-0.307189,2.574,2.5954
0.135882,-0.307189,2.574,2.59582
0.145301,-0.309457,2.593,2.61544
0.153717,-0.309457,2.593,2.61592
0.162134,-0.309457,2.593,2.61643
0.17055,-0.309457,2.593,2.61696
0.180346,-0.311844,2.613,2.63772
0.188828,-0.311844,2.613,2.63831
0.197309,-0.311844,2.613,2.63893
0.20579,-0.311844,2.613,2.63958
0.214271,-0.311844,2.613,2.64025
0.222752,-0.311844,2.613,2.64095
0.231233,-0.311844,2.613,2.64168
0.239715,-0.311844,2.613,2.64244
0.248196,-0.311844,2.613,2.64322
0.256677,-0.311844,2.613,2.64403
0.265158,-0.311844,2.613,2.64487
0.273639,-0.311844,2.613,2.64573
0.28212,-0.311844,2.613,2.64662
0.290601,-0.311844,2.613,2.64754
0.299083,-0.311844,2.613,2.64848
0.307564,-0.311844,2.613,2.64945
0.316045,-0.311844,2.613,2.65045
0.322042,-0.309457,2.593,2.63118
0.330458,-0.309457,2.593,2.63223
0.338875,-0.309457,2.593,2.6333
0.347291,-0.309457,2.593,2.63439
0.353101,-0.307189,2.574,2.6162
0.361455,-0.307189,2.574,2.61734
0.36981,-0.307189,2.574,2.61851
0.375373,-0.304922,2.555,2.60037
0.383666,-0.304922,2.555,2.60158
0.391959,-0.304922,2.555,2.60281
0.400252,-0.304922,2.555,2.60407
0.408544,-0.304922,2.555,2.60536
0.416837,-0.304922,2.555,2.60668
0.42513,-0.304922,2.555,2.60801
0.433423,-0.304922,2.555,2.60938
0.441716,-0.304922,2.555,2.61077
0.450009,-0.304922,2.555,2.61219
0.458302,-0.304922,2.555,2.61363
0.470064,-0.307189,2.574,2.63454
0.478419,-0.307189,2.574,2.63604
0.486774,-0.307189,2.574,2.63757
0.495128,-0.307189,2.574,2.63913
0.503483,-0.307189,2.574,2.64071
0.511837,-0.307189,2.574,2.64231
0.520192,-0.307189,2.574,2.64394
0.528546,-0.307189,2.574,2.6456
0.536901,-0.307189,2.574,2.64728
0.545256,-0.307189,2.574,2.64899
0.55361,-0.307189,2.574,2.65072
0.561965,-0.307189,2.574,2.65248
0.570319,-0.307189,2.574,2.65426
0.578674,-0.307189,2.574,2.65607
0.587028,-0.307189,2.574,2.6579
0.595383,-0.307189,2.574,2.65976
0.603738,-0.307189,2.574,2.66164
0.612092,-0.307189,2.574,2.66355
0.620447,-0.307189,2.574,2.66548
0.628801,-0.307189,2.574,2.66744
0.637156,-0.307189,2.574,2.66942
0.64551,-0.307189,2.574,2.67143
0.653865,-0.307189,2.574,2.67346
0.662219,-0.307189,2.574,2.67551
0.670574,-0.307189,2.574,2.67759
0.678929,-0.307189,2.574,2.6797
0.687283,-0.307189,2.574,2.68183
0.695638,-0.307189,2.574,2.68398
0.703992,-0.307189,2.574,2.68616
0.707089,-0.304922,2.555,2.66852
0.715382,-0.304922,2.555,2.67073
0.723674,-0.304922,2.555,2.67296
0.731967,-0.304922,2.555,2.67522
0.74026,-0.304922,2.555,2.6775
0.748553,-0.304922,2.555,2.6798
0.751218,-0.302654,2.536,2.66218
0.759449,-0.302654,2.536,2.66452
0.76768,-0.302654,2.536,2.66688
0.775912,-0.302654,2.536,2.66926
0.784143,-0.302654,2.536,2.67166
0.792374,-0.302654,2.536,2.67409
0.800605,-0.302654,2.536,2.67654
0.802777,-0.300387,2.517,2.65894
0.810946,-0.300387,2.517,2.66142
0.819116,-0.300387,2.517,2.66392
0.827285,-0.300387,2.517,2.66644
0.835455,-0.300387,2.517,2.66899
0.843624,-0.300387,2.517,2.67156
0.851794,-0.300387,2.517,2.67415
0.859963,-0.300387,2.517,2.67676
0.868133,-0.300387,2.517,2.6794
0.876303,-0.300387,2.517,2.68206
0.878147,-0.298238,2.499,2.66554
0.886258,-0.298238,2.499,2.66822
0.894369,-0.298238,2.499,2.67093
0.90248,-0.298238,2.499,2.67365
0.910591,-0.298238,2.499,2.6764
0.912085,-0.29609,2.481,2.65987
0.920138,-0.29609,2.481,2.66265
0.928191,-0.29609,2.481,2.66544
0.936243,-0.29609,2.481,2.66825
0.937445,-0.293942,2.463,2.65171
0.945439,-0.293942,2.463,2.65455
0.953434,-0.293942,2.463,2.65741
0.954402,-0.291794,2.445,2.64084
0.962338,-0.291794,2.445,2.64372
0.970273,-0.291794,2.445,2.64662
0.978209,-0.291794,2.445,2.64954
0.986145,-0.291794,2.445,2.65248
0.994081,-0.291794,2.445,2.65544
1.00202,-0.291794,2.445,2.65842
1.00995,-0.291794,2.445,2.66142
nan,nan,nan,NaN
nan,nan,nan,NaN
nan,nan,nan,NaN
nan,nan,nan,NaN
nan,nan,nan,NaN
nan,nan,nan,NaN
nan,nan,nan,NaN
nan,nan,nan,NaN
nan,nan,nan,NaN
nan,nan,nan,NaN
nan,nan,nan,NaN
nan,nan,nan,NaN
1.5743,-0.412688,3.458,3.82185
1.58552,-0.412688,3.458,3.82648
1.62953,-0.421162,3.529,3.90981
1.65819,-0.425577,3.566,3.95564
1.66977,-0.425577,3.566,3.9605
1.69926,-0.430113,3.604,4.00765
1.71096,-0.430113,3.604,4.01263
1.72265,-0.430113,3.604,4.01763
1.71606,-0.425577,3.566,3.98024
1.72764,-0.425577,3.566,3.98525
1.72117,-0.421162,3.529,3.94888
1.69776,-0.412688,3.458,3.87434
1.70899,-0.412688,3.458,3.87927
1.68589,-0.404454,3.389,3.80672
1.66434,-0.396696,3.324,3.7385
1.67513,-0.396696,3.324,3.74331
1.68592,-0.396696,3.324,3.74815
1.69671,-0.396696,3.324,3.75302
1.7075,-0.396696,3.324,3.75791
1.71828,-0.396696,3.324,3.76282
1.71243,-0.392878,3.292,3.73149
1.72311,-0.392878,3.292,3.73641
1.75065,-0.396696,3.324,3.77771
1.76144,-0.396696,3.324,3.78273
1.80688,-0.404454,3.389,3.86183
1.87367,-0.416865,3.493,3.98566
1.88501,-0.416865,3.493,3.991
1.91589,-0.421162,3.529,4.03756
1.94755,-0.425577,3.566,4.08539
2.00088,-0.434648,3.642,4.17811
2.0127,-0.434648,3.642,4.18378
2.02452,-0.434648,3.642,4.18948
2.05815,-0.439302,3.681,4.24013
2.0701,-0.439302,3.681,4.24594
2.08204,-0.439302,3.681,4.25178
2.11675,-0.444076,3.721,4.30391
2.12882,-0.444076,3.721,4.30986
2.1409,-0.444076,3.721,4.31584
2.12983,-0.439302,3.681,4.27539
2.14178,-0.439302,3.681,4.28135
2.15373,-0.439302,3.681,4.28734
2.12037,-0.430113,3.604,4.20355
2.13207,-0.430113,3.604,4.20946
2.09916,-0.421162,3.529,4.12767
2.06815,-0.412688,3.458,4.05035
2.07937,-0.412688,3.458,4.05609
2.06944,-0.408511,3.423,4.02074
2.02037,-0.396696,3.324,3.91002
2.03116,-0.396696,3.324,3.91561
2.00264,-0.389059,3.26,3.84571
1.99469,-0.385478,3.23,3.81579
2.00517,-0.385478,3.23,3.82128
1.96012,-0.374857,3.141,3.72135
1.93456,-0.368054,3.084,3.6591
1.94457,-0.368054,3.084,3.6644
1.92035,-0.36161,3.03,3.60547
