-0.722939,-0.36855,2.428,2.56001
-0.720065,-0.37113,2.445,2.57571
-0.712129,-0.37113,2.445,2.5735
-0.704194,-0.37113,2.445,2.57131
-0.696258,-0.37113,2.445,2.56915
-0.688322,-0.37113,2.445,2.56701
-0.680386,-0.37113,2.445,2.5649
-0.677401,-0.373862,2.463,2.58167
-0.669406,-0.373862,2.463,2.57958
-0.661412,-0.373862,2.463,2.57752
-0.653418,-0.373862,2.463,2.57548
-0.65014,-0.376595,2.481,2.59227
-0.642088,-0.376595,2.481,2.59026
-0.634035,-0.376595,2.481,2.58828
-0.625982,-0.376595,2.481,2.58632
-0.61793,-0.376595,2.481,2.58438
-0.614302,-0.379327,2.499,2.6012
-0.606191,-0.379327,2.499,2.5993
-0.598079,-0.379327,2.499,2.59742
-0.589968,-0.379327,2.499,2.59556
-0.581857,-0.379327,2.499,2.59373
-0.573746,-0.379327,2.499,2.59192
-0.565635,-0.379327,2.499,2.59014
-0.557524,-0.379327,2.499,2.58838
-0.549413,-0.379327,2.499,2.58665
-0.541301,-0.379327,2.499,2.58494
-0.53319,-0.379327,2.499,2.58325
-0.525079,-0.379327,2.499,2.58159
-0.513244,-0.376595,2.481,2.56137
-0.505192,-0.376595,2.481,2.55977
-0.497139,-0.376595,2.481,2.55819
-0.489086,-0.376595,2.481,2.55664
-0.481034,-0.376595,2.481,2.55511
-0.472981,-0.376595,2.481,2.5536
-0.464928,-0.376595,2.481,2.55213
-0.453561,-0.373862,2.463,2.53217
-0.445566,-0.373862,2.463,2.53075
-0.437572,-0.373862,2.463,2.52935
-0.429578,-0.373862,2.463,2.52798
-0.421584,-0.373862,2.463,2.52663
-0.413589,-0.373862,2.463,2.52531
-0.405595,-0.373862,2.463,2.52401
-0.397601,-0.373862,2.463,2.52274
-0.389606,-0.373862,2.463,2.52149
-0.378823,-0.37113,2.445,2.50185
-0.370887,-0.37113,2.445,2.50066
-0.362952,-0.37113,2.445,2.4995
-0.357629,-0.373862,2.463,2.51675
-0.349635,-0.373862,2.463,2.51563
-0.341641,-0.373862,2.463,2.51453
-0.336085,-0.376595,2.481,2.53183
-0.325652,-0.373862,2.463,2.51241
-0.317658,-0.373862,2.463,2.51138
-0.309664,-0.373862,2.463,2.51039
-0.301669,-0.373862,2.463,2.50941
-0.295821,-0.376595,2.481,2.5268
-0.287769,-0.376595,2.481,2.52587
-0.281745,-0.379327,2.499,2.54328
-0.273634,-0.379327,2.499,2.54239
-0.265523,-0.379327,2.499,2.54153
-0.257412,-0.379327,2.499,2.5407
-0.249301,-0.379327,2.499,2.53989
-0.242927,-0.382059,2.517,2.5574
-0.234757,-0.382059,2.517,2.55663
-0.226588,-0.382059,2.517,2.5559
-0.218418,-0.382059,2.517,2.55518
-0.210249,-0.382059,2.517,2.5545
-0.202079,-0.382059,2.517,2.55384
-0.193909,-0.382059,2.517,2.55321
-0.18574,-0.382059,2.517,2.5526
-0.17757,-0.382059,2.517,2.55202
-0.168189,-0.379327,2.499,2.53321
-0.160078,-0.379327,2.499,2.53269
-0.151967,-0.379327,2.499,2.53219
-0.143856,-0.379327,2.499,2.53172
-0.135745,-0.379327,2.499,2.53127
-0.127634,-0.379327,2.499,2.53085
-0.119523,-0.379327,2.499,2.53045
-0.111411,-0.379327,2.499,2.53008
-0.1033,-0.379327,2.499,2.52974
-0.0951891,-0.379327,2.499,2.52942
-0.087078,-0.379327,2.499,2.52912
-0.0789668,-0.379327,2.499,2.52886
-0.0713661,-0.382059,2.517,2.54683
-0.0631965,-0.382059,2.517,2.54662
-0.055027,-0.382059,2.517,2.54643
-0.0468574,-0.382059,2.517,2.54626
-0.0386878,-0.382059,2.517,2.54613
-0.0305183,-0.382059,2.517,2.54601
-0.0223487,-0.382059,2.517,2.54593
-0.0142862,-0.384943,2.536,2.56509
-0.00605498,-0.384943,2.536,2.56506
0.00217625,-0.384943,2.536,2.56505
0.0104075,-0.384943,2.536,2.56507
0.0186387,-0.384943,2.536,2.56512
0.0268699,-0.384943,2.536,2.56519
0.0353641,-0.387827,2.555,2.58451
0.043657,-0.387827,2.555,2.58464
0.0519499,-0.387827,2.555,2.58479
0.0602428,-0.387827,2.555,2.58497
0.0685357,-0.387827,2.555,2.58518
0.0773999,-0.390711,2.574,2.60464
0.0857545,-0.390711,2.574,2.6049
0.0948037,-0.393595,2.593,2.62442
0.102464,-0.390711,2.574,2.6055
0.110818,-0.390711,2.574,2.60584
0.119173,-0.390711,2.574,2.60621
0.127527,-0.390711,2.574,2.60661
0.135882,-0.390711,2.574,2.60703
0.144236,-0.390711,2.574,2.60748
0.152591,-0.390711,2.574,2.60795
0.160946,-0.390711,2.574,2.60845
0.1693,-0.390711,2.574,2.60898
0.177655,-0.390711,2.574,2.60954
0.184636,-0.387827,2.555,2.59085
0.192929,-0.387827,2.555,2.59146
0.201222,-0.387827,2.555,2.59209
0.209515,-0.387827,2.555,2.59275
0.217808,-0.387827,2.555,2.59343
0.227782,-0.390711,2.574,2.61343
0.236137,-0.390711,2.574,2.61417
0.244491,-0.390711,2.574,2.61494
0.252846,-0.390711,2.574,2.61573
0.2612,-0.390711,2.574,2.61655
0.269555,-0.390711,2.574,2.6174
0.27791,-0.390711,2.574,2.61828
0.286264,-0.390711,2.574,2.61918
0.294619,-0.390711,2.574,2.6201
0.302973,-0.390711,2.574,2.62105
0.311328,-0.390711,2.574,2.62203
0.319682,-0.390711,2.574,2.62304
0.328037,-0.390711,2.574,2.62407
0.336391,-0.390711,2.574,2.62513
0.344746,-0.390711,2.574,2.62621
0.353101,-0.390711,2.574,2.62732
0.361455,-0.390711,2.574,2.62846
0.36708,-0.387827,2.555,2.61021
0.375373,-0.387827,2.555,2.61139
0.383666,-0.387827,2.555,2.61259
0.391959,-0.387827,2.555,2.61382
0.400252,-0.387827,2.555,2.61508
0.408544,-0.387827,2.555,2.61636
0.416837,-0.387827,2.555,2.61767
0.421969,-0.384943,2.536,2.59953
0.4302,-0.384943,2.536,2.60087
0.438431,-0.384943,2.536,2.60225
0.446662,-0.384943,2.536,2.60365
0.454894,-0.384943,2.536,2.60507
0.459655,-0.382059,2.517,2.58699
0.467825,-0.382059,2.517,2.58846
0.475994,-0.382059,2.517,2.58995
0.480701,-0.379327,2.499,2.57293
0.488812,-0.379327,2.499,2.57446
0.496924,-0.379327,2.499,2.57601
0.505035,-0.379327,2.499,2.57759
0.516842,-0.382059,2.517,2.59777
0.525012,-0.382059,2.517,2.5994
0.533181,-0.382059,2.517,2.60107
0.541351,-0.382059,2.517,2.60275
0.54952,-0.382059,2.517,2.60446
0.5619,-0.384943,2.536,2.62587
0.570131,-0.384943,2.536,2.62765
0.578362,-0.384943,2.536,2.62944
0.586593,-0.384943,2.536,2.63127
0.599281,-0.387827,2.555,2.65284
0.612092,-0.390711,2.574,2.67447
0.615867,-0.387827,2.555,2.65664
0.62416,-0.387827,2.555,2.65857
0.632453,-0.387827,2.555,2.66053
0.640746,-0.387827,2.555,2.66252
0.649038,-0.387827,2.555,2.66452
0.657331,-0.387827,2.555,2.66656
0.665624,-0.387827,2.555,2.66861
0.668906,-0.384943,2.536,2.65083
0.677137,-0.384943,2.536,2.65292
0.685368,-0.384943,2.536,2.65503
0.693599,-0.384943,2.536,2.65717
0.696572,-0.382059,2.517,2.63941
0.704742,-0.382059,2.517,2.64158
0.707813,-0.379327,2.499,2.62486
0.715924,-0.379327,2.499,2.62706
0.724035,-0.379327,2.499,2.62928
0.732147,-0.379327,2.499,2.63153
0.740258,-0.379327,2.499,2.63379
0.753759,-0.382059,2.517,2.65507
0.761929,-0.382059,2.517,2.6574
0.770098,-0.382059,2.517,2.65976
0.778268,-0.382059,2.517,2.66213
0.786437,-0.382059,2.517,2.66453
0.794607,-0.382059,2.517,2.66696
0.797036,-0.379327,2.499,2.65031
0.805147,-0.379327,2.499,2.65276
0.813258,-0.379327,2.499,2.65524
0.827285,-0.382059,2.517,2.67688
0.835455,-0.382059,2.517,2.67941
0.843624,-0.382059,2.517,2.68197
0.845702,-0.379327,2.499,2.66535
0.853814,-0.379327,2.499,2.66794
0.861925,-0.379327,2.499,2.67054
0.863769,-0.376595,2.481,2.65392
0.871822,-0.376595,2.481,2.65655
0.879874,-0.376595,2.481,2.6592
0.887927,-0.376595,2.481,2.66188
0.89598,-0.376595,2.481,2.66458
0.904033,-0.376595,2.481,2.66729
0.905468,-0.373862,2.463,2.65066
0.913462,-0.373862,2.463,2.6534
0.921457,-0.373862,2.463,2.65617
0.929451,-0.373862,2.463,2.65895
0.930594,-0.37113,2.445,2.6423
0.93853,-0.37113,2.445,2.64511
0.946466,-0.37113,2.445,2.64794
0.954402,-0.37113,2.445,2.65078
0.962338,-0.37113,2.445,2.65365
0.970273,-0.37113,2.445,2.65654
0.978209,-0.37113,2.445,2.65945
0.986145,-0.37113,2.445,2.66238
0.994081,-0.37113,2.445,2.66533
1.00202,-0.37113,2.445,2.6683
1.00995,-0.37113,2.445,2.67129
1.01789,-0.37113,2.445,2.6743
1.02582,-0.37113,2.445,2.67733
1.03376,-0.37113,2.445,2.68038
nan,nan,nan,NaN
nan,nan,nan,NaN
1.07314,-0.376595,2.481,2.72925
1.08119,-0.376595,2.481,2.73243
1.10505,-0.382059,2.517,2.77532
1.10526,-0.379327,2.499,2.75871
1.11337,-0.379327,2.499,2.76197
1.12956,-0.382059,2.517,2.78517
1.13773,-0.382059,2.517,2.78849
1.1377,-0.379327,2.499,2.77187
1.14581,-0.379327,2.499,2.77521
1.15393,-0.379327,2.499,2.77857
1.16204,-0.379327,2.499,2.78195
1.17015,-0.379327,2.499,2.78534
1.17826,-0.379327,2.499,2.78876
1.18637,-0.379327,2.499,2.7922
1.20308,-0.382059,2.517,2.81579
1.22954,-0.387827,2.555,2.86185
1.23783,-0.387827,2.555,2.86543
1.24613,-0.387827,2.555,2.86902
1.27308,-0.393595,2.593,2.91535
1.28149,-0.393595,2.593,2.91904
1.32025,-0.402855,2.654,2.9915
1.32887,-0.402855,2.654,2.99531
1.35865,-0.40923,2.696,3.04661
1.3674,-0.40923,2.696,3.05052
1.37615,-0.40923,2.696,3.05445
1.46555,-0.433061,2.853,3.23651
1.47481,-0.433061,2.853,3.24071
nan,nan,nan,NaN
nan,nan,nan,NaN
nan,nan,nan,NaN
nan,nan,nan,NaN
nan,nan,nan,NaN
nan,nan,nan,NaN
1.84723,-0.519582,3.423,3.92418
1.85834,-0.519582,3.423,3.92942
1.90768,-0.530208,3.493,4.01515
1.9388,-0.535672,3.529,4.06199
1.93036,-0.530208,3.493,4.02597
1.94169,-0.530208,3.493,4.03142
1.97316,-0.535672,3.529,4.0785
1.98461,-0.535672,3.529,4.08405
1.99607,-0.535672,3.529,4.08963
2.00752,-0.535672,3.529,4.09523
2.01898,-0.535672,3.529,4.10086
2.05172,-0.541288,3.566,4.14957
2.06329,-0.541288,3.566,4.1553
2.05334,-0.535672,3.529,4.11789
2.06479,-0.535672,3.529,4.12361
2.07625,-0.535672,3.529,4.12936
2.0877,-0.535672,3.529,4.13513
2.07774,-0.530208,3.493,4.09868
2.06815,-0.524895,3.458,4.06331
2.07937,-0.524895,3.458,4.06904
2.04888,-0.514421,3.389,3.99348
2.03982,-0.509412,3.356,3.96019
2.05072,-0.509412,3.356,3.96581
2.02229,-0.499698,3.292,3.89572
1.99469,-0.490286,3.23,3.8278
2.00517,-0.490286,3.23,3.83328
1.96012,-0.476777,3.141,3.733
1.91762,-0.464027,3.057,3.63838
1.92754,-0.464027,3.057,3.64362
1.88676,-0.451883,2.977,3.55339
1.87986,-0.447937,2.951,3.52745
1.88944,-0.447937,2.951,3.53257
1.86684,-0.440347,2.901,3.47776
1.84521,-0.433061,2.853,3.4252
1.85447,-0.433061,2.853,3.43019
1.84806,-0.429418,2.829,3.40631
1.82704,-0.422436,2.783,3.35583
1.82156,-0.419096,2.761,3.33419
1.83052,-0.419096,2.761,3.3391
1.82482,-0.415757,2.739,3.31737
1.80493,-0.40923,2.696,3.27011
1.81368,-0.40923,2.696,3.27495
1.80823,-0.406042,2.675,3.25426
1.80265,-0.402855,2.654,3.23351
-2.24076,-0.479806,3.23,3.96032
-2.23027,-0.479806,3.23,3.95439
-2.21979,-0.479806,3.23,3.94849
-2.22983,-0.484262,3.26,3.97922
-2.21924,-0.484262,3.26,3.97331
-2.20866,-0.484262,3.26,3.96741
-2.19808,-0.484262,3.26,3.96152
-2.1875,-0.484262,3.26,3.95566
-2.17692,-0.484262,3.26,3.94982
-2.16634,-0.484262,3.26,3.944
-2.17692,-0.489016,3.292,3.97685
-2.16623,-0.489016,3.292,3.97102
-2.15555,-0.489016,3.292,3.9652
-2.16571,-0.493769,3.324,3.99789
-2.15492,-0.493769,3.324,3.99205
-2.14413,-0.493769,3.324,3.98624
-2.13335,-0.493769,3.324,3.98045
-2.12256,-0.493769,3.324,3.97467
-2.1321,-0.498522,3.356,4.00713
-2.1212,-0.498522,3.356,4.00135
-2.13106,-0.503425,3.389,4.03487
-2.12006,-0.503425,3.389,4.02907
-2.10906,-0.503425,3.389,4.0233
-2.11911,-0.508475,3.423,4.05785
-2.108,-0.508475,3.423,4.05205
-2.09689,-0.508475,3.423,4.04629
-2.08578,-0.508475,3.423,4.04054
-2.07467,-0.508475,3.423,4.03482
-2.06356,-0.508475,3.423,4.02911
-2.05245,-0.508475,3.423,4.02344
-2.04134,-0.508475,3.423,4.01778
nan,nan,nan,NaN
nan,nan,nan,NaN
nan,nan,nan,NaN
nan,nan,nan,NaN
nan,nan,nan,NaN
nan,nan,nan,NaN
nan,nan,nan,NaN
nan,nan,nan,NaN
nan,nan,nan,NaN
nan,nan,nan,NaN
nan,nan,nan,NaN
nan,nan,nan,NaN
nan,nan,nan,NaN
nan,nan,nan,NaN
nan,nan,nan,NaN
nan,nan,nan,NaN
nan,nan,nan,NaN
nan,nan,nan,NaN
nan,nan,nan,NaN
nan,nan,nan,NaN
nan,nan,nan,NaN
nan,nan,nan,NaN
nan,nan,nan,NaN
nan,nan,nan,NaN
nan,nan,nan,NaN
nan,nan,nan,NaN
nan,nan,nan,NaN
nan,nan,nan,NaN
nan,nan,nan,NaN
nan,nan,nan,NaN
-1.17838,-0.353095,2.377,2.67645
-1.17066,-0.353095,2.377,2.67306
-1.17127,-0.355621,2.394,2.68879
-1.15523,-0.353095,2.377,2.66634
-1.14752,-0.353095,2.377,2.66301
-1.1398,-0.353095,2.377,2.65969
-1.13209,-0.353095,2.377,2.65639
-1.13241,-0.355621,2.394,2.67209
-1.12464,-0.355621,2.394,2.66881
-1.11687,-0.355621,2.394,2.66554
-1.1091,-0.355621,2.394,2.66229
-1.10133,-0.355621,2.394,2.65907
-1.09356,-0.355621,2.394,2.65586
-1.08579,-0.355621,2.394,2.65267
-1.07802,-0.355621,2.394,2.6495
-1.07025,-0.355621,2.394,2.64634
-1.06248,-0.355621,2.394,2.64321
-1.05471,-0.355621,2.394,2.6401
-1.03951,-0.353095,2.377,2.61828
-1.03179,-0.353095,2.377,2.61522
-1.02408,-0.353095,2.377,2.61219
-1.01636,-0.353095,2.377,2.60917
-1.00865,-0.353095,2.377,2.60618
-1.00093,-0.353095,2.377,2.6032
-1.00032,-0.355621,2.394,2.61884
-0.992548,-0.355621,2.394,2.61588
-0.984778,-0.355621,2.394,2.61295
-0.977007,-0.355621,2.394,2.61003
-0.976119,-0.358146,2.411,2.62564
-0.968294,-0.358146,2.411,2.62274
-0.960468,-0.358146,2.411,2.61986
-0.952643,-0.358146,2.411,2.61701
-0.944817,-0.358146,2.411,2.61417
-0.936992,-0.358146,2.411,2.61135
-0.929166,-0.358146,2.411,2.60855
-0.921341,-0.358146,2.411,2.60577
-0.907074,-0.355621,2.394,2.58466
-0.899304,-0.355621,2.394,2.58195
-0.891534,-0.355621,2.394,2.57925
-0.883763,-0.355621,2.394,2.57658
-0.875993,-0.355621,2.394,2.57392
-0.868223,-0.355621,2.394,2.57129
-0.860452,-0.355621,2.394,2.56867
-0.852682,-0.355621,2.394,2.56608
-0.844912,-0.355621,2.394,2.56351
-0.837141,-0.355621,2.394,2.56096
-0.829371,-0.355621,2.394,2.55843
-0.821601,-0.355621,2.394,2.55592
-0.81383,-0.355621,2.394,2.55343
-0.80606,-0.355621,2.394,2.55097
-0.79829,-0.355621,2.394,2.54852
-0.796133,-0.358146,2.411,2.56418
-0.788307,-0.358146,2.411,2.56176
-0.780482,-0.358146,2.411,2.55936
-0.772656,-0.358146,2.411,2.55699
-0.764831,-0.358146,2.411,2.55463
-0.757005,-0.358146,2.411,2.5523
-0.74918,-0.358146,2.411,2.54999
-0.746581,-0.360671,2.428,2.56567
-0.738701,-0.360671,2.428,2.56339
-0.73082,-0.360671,2.428,2.56113
-0.722939,-0.360671,2.428,2.55889
-0.720065,-0.363196,2.445,2.57457
-0.712129,-0.363196,2.445,2.57237
-0.704194,-0.363196,2.445,2.57018
-0.696258,-0.363196,2.445,2.56802
-0.688322,-0.363196,2.445,2.56588
-0.680386,-0.363196,2.445,2.56376
-0.677401,-0.36587,2.463,2.58052
-0.669406,-0.36587,2.463,2.57844
-0.661412,-0.36587,2.463,2.57637
-0.653418,-0.36587,2.463,2.57433
-0.65014,-0.368544,2.481,2.59111
-0.642088,-0.368544,2.481,2.5891
-0.634035,-0.368544,2.481,2.58712
-0.625982,-0.368544,2.481,2.58516
-0.61793,-0.368544,2.481,2.58322
-0.614302,-0.371218,2.499,2.60003
-0.606191,-0.371218,2.499,2.59813
-0.598079,-0.371218,2.499,2.59625
-0.589968,-0.371218,2.499,2.59439
-0.581857,-0.371218,2.499,2.59256
-0.573746,-0.371218,2.499,2.59075
-0.565635,-0.371218,2.499,2.58897
-0.557524,-0.371218,2.499,2.58721
-0.549413,-0.371218,2.499,2.58547
-0.541301,-0.371218,2.499,2.58376
-0.53319,-0.371218,2.499,2.58207
-0.525079,-0.371218,2.499,2.58041
-0.516968,-0.371218,2.499,2.57877
-0.505192,-0.368544,2.481,2.55859
-0.497139,-0.368544,2.481,2.55702
-0.489086,-0.368544,2.481,2.55546
-0.481034,-0.368544,2.481,2.55393
-0.472981,-0.368544,2.481,2.55243
-0.464928,-0.368544,2.481,2.55095
-0.456875,-0.368544,2.481,2.54949
-0.448823,-0.368544,2.481,2.54806
-0.44077,-0.368544,2.481,2.54666
-0.429578,-0.36587,2.463,2.52681
-0.421584,-0.36587,2.463,2.52546
-0.413589,-0.36587,2.463,2.52414
-0.405595,-0.36587,2.463,2.52284
-0.397601,-0.36587,2.463,2.52157
-0.392454,-0.368544,2.481,2.53874
-0.381612,-0.36587,2.463,2.5191
-0.373618,-0.36587,2.463,2.5179
-0.365624,-0.36587,2.463,2.51673
-0.357629,-0.36587,2.463,2.51558
-0.349635,-0.36587,2.463,2.51445
-0.341641,-0.36587,2.463,2.51335
-0.336085,-0.368544,2.481,2.53064
-0.325652,-0.36587,2.463,2.51123
-0.317658,-0.36587,2.463,2.51021
-0.309664,-0.36587,2.463,2.50921
-0.301669,-0.36587,2.463,2.50823
-0.295821,-0.368544,2.481,2.52561
-0.287769,-0.368544,2.481,2.52468
-0.281745,-0.371218,2.499,2.54208
-0.273634,-0.371218,2.499,2.5412
-0.265523,-0.371218,2.499,2.54034
-0.257412,-0.371218,2.499,2.5395
-0.249301,-0.371218,2.499,2.53869
-0.242927,-0.373892,2.517,2.55619
-0.234757,-0.373892,2.517,2.55542
-0.226588,-0.373892,2.517,2.55469
-0.218418,-0.373892,2.517,2.55398
-0.210249,-0.373892,2.517,2.55329
-0.202079,-0.373892,2.517,2.55263
-0.193909,-0.373892,2.517,2.552
-0.18574,-0.373892,2.517,2.55139
-0.17757,-0.373892,2.517,2.55081
-0.168189,-0.371218,2.499,2.53201
-0.160078,-0.371218,2.499,2.53149
-0.151967,-0.371218,2.499,2.53099
-0.143856,-0.371218,2.499,2.53051
-0.135745,-0.371218,2.499,2.53007
-0.127634,-0.371218,2.499,2.52964
-0.119523,-0.371218,2.499,2.52925
-0.112214,-0.373892,2.517,2.54709
-0.104044,-0.373892,2.517,2.54675
-0.0958747,-0.373892,2.517,2.54642
-0.0877052,-0.373892,2.517,2.54613
-0.0795356,-0.373892,2.517,2.54586
-0.0713661,-0.373892,2.517,2.54562
-0.0631965,-0.373892,2.517,2.5454
-0.055027,-0.373892,2.517,2.54521
-0.0468574,-0.373892,2.517,2.54505
-0.0386878,-0.373892,2.517,2.54491
-0.0307487,-0.376714,2.536,2.56401
-0.0225174,-0.376714,2.536,2.56393
-0.0142862,-0.376714,2.536,2.56387
-0.00605498,-0.376714,2.536,2.56383
0.00217625,-0.376714,2.536,2.56383
0.0104075,-0.376714,2.536,2.56385
0.0186387,-0.376714,2.536,2.56389
0.0270712,-0.379537,2.555,2.58318
0.0353641,-0.379537,2.555,2.58328
0.043657,-0.379537,2.555,2.5834
0.0523362,-0.382359,2.574,2.60277
0.0611388,-0.385181,2.593,2.62217
0.069555,-0.385181,2.593,2.62238
0.0779713,-0.385181,2.593,2.62261
0.0863875,-0.385181,2.593,2.62288
0.0948037,-0.385181,2.593,2.62317
0.102464,-0.382359,2.574,2.60426
0.110818,-0.382359,2.574,2.6046
0.119173,-0.382359,2.574,2.60497
0.127527,-0.382359,2.574,2.60537
0.135882,-0.382359,2.574,2.60579
0.145301,-0.385181,2.593,2.62548
0.152591,-0.382359,2.574,2.60671
0.160946,-0.382359,2.574,2.60722
0.1693,-0.382359,2.574,2.60775
0.177655,-0.382359,2.574,2.6083
0.186009,-0.382359,2.574,2.60888
0.194364,-0.382359,2.574,2.60949
0.202718,-0.382359,2.574,2.61013
0.211073,-0.382359,2.574,2.61079
0.219428,-0.382359,2.574,2.61148
0.227782,-0.382359,2.574,2.61219
0.236137,-0.382359,2.574,2.61294
0.244491,-0.382359,2.574,2.6137
0.252846,-0.382359,2.574,2.6145
0.2612,-0.382359,2.574,2.61532
0.269555,-0.382359,2.574,2.61617
0.27791,-0.382359,2.574,2.61704
0.286264,-0.382359,2.574,2.61794
0.294619,-0.382359,2.574,2.61887
0.302973,-0.382359,2.574,2.61982
0.311328,-0.382359,2.574,2.6208
0.319682,-0.382359,2.574,2.62181
0.328037,-0.382359,2.574,2.62284
0.336391,-0.382359,2.574,2.6239
0.344746,-0.382359,2.574,2.62498
0.353101,-0.382359,2.574,2.62609
0.361455,-0.382359,2.574,2.62723
0.36708,-0.379537,2.555,2.60899
0.375373,-0.379537,2.555,2.61017
0.383666,-0.379537,2.555,2.61137
0.391959,-0.379537,2.555,2.6126
0.400252,-0.379537,2.555,2.61386
0.408544,-0.379537,2.555,2.61514
0.416837,-0.379537,2.555,2.61645
0.421969,-0.376714,2.536,2.59832
0.4302,-0.376714,2.536,2.59967
0.438431,-0.376714,2.536,2.60104
0.446662,-0.376714,2.536,2.60244
0.454894,-0.376714,2.536,2.60387
0.459655,-0.373892,2.517,2.5858
0.467825,-0.373892,2.517,2.58727
0.475994,-0.373892,2.517,2.58876
0.480701,-0.371218,2.499,2.57175
0.488812,-0.371218,2.499,2.57327
0.496924,-0.371218,2.499,2.57483
0.505035,-0.371218,2.499,2.57641
0.516842,-0.373892,2.517,2.59658
0.525012,-0.373892,2.517,2.59822
0.533181,-0.373892,2.517,2.59988
0.541351,-0.373892,2.517,2.60157
0.54952,-0.373892,2.517,2.60328
0.5619,-0.376714,2.536,2.62468
0.570131,-0.376714,2.536,2.62645
0.578362,-0.376714,2.536,2.62825
0.586593,-0.376714,2.536,2.63008
0.599281,-0.379537,2.555,2.65164
0.612092,-0.382359,2.574,2.67326
0.615867,-0.379537,2.555,2.65544
0.62416,-0.379537,2.555,2.65738
0.632453,-0.379537,2.555,2.65934
0.640746,-0.379537,2.555,2.66132
0.649038,-0.379537,2.555,2.66333
0.657331,-0.379537,2.555,2.66536
0.660674,-0.376714,2.536,2.64758
0.668906,-0.376714,2.536,2.64965
0.677137,-0.376714,2.536,2.65174
0.685368,-0.376714,2.536,2.65385
0.693599,-0.376714,2.536,2.65599
0.696572,-0.373892,2.517,2.63824
0.704742,-0.373892,2.517,2.64041
0.707813,-0.371218,2.499,2.6237
0.715924,-0.371218,2.499,2.6259
0.724035,-0.371218,2.499,2.62812
0.732147,-0.371218,2.499,2.63037
0.740258,-0.371218,2.499,2.63264
0.753759,-0.373892,2.517,2.65391
0.761929,-0.373892,2.517,2.65624
0.770098,-0.373892,2.517,2.6586
0.778268,-0.373892,2.517,2.66097
0.786437,-0.373892,2.517,2.66338
0.794607,-0.373892,2.517,2.6658
0.797036,-0.371218,2.499,2.64916
0.805147,-0.371218,2.499,2.65162
0.813258,-0.371218,2.499,2.65409
0.827285,-0.373892,2.517,2.67572
0.835455,-0.373892,2.517,2.67826
0.843624,-0.373892,2.517,2.68082
0.845702,-0.371218,2.499,2.66421
0.853814,-0.371218,2.499,2.6668
0.861925,-0.371218,2.499,2.6694
0.863769,-0.368544,2.481,2.65279
0.871822,-0.368544,2.481,2.65542
0.879874,-0.368544,2.481,2.65808
0.887927,-0.368544,2.481,2.66075
0.89598,-0.368544,2.481,2.66345
0.904033,-0.368544,2.481,2.66617
0.905468,-0.36587,2.463,2.64955
0.913462,-0.36587,2.463,2.65229
0.921457,-0.36587,2.463,2.65505
0.929451,-0.36587,2.463,2.65784
0.930594,-0.363196,2.445,2.6412
0.93853,-0.363196,2.445,2.64401
0.946466,-0.363196,2.445,2.64684
0.954402,-0.363196,2.445,2.64968
0.962338,-0.363196,2.445,2.65255
0.970273,-0.363196,2.445,2.65544
0.971408,-0.360671,2.428,2.63987
0.979289,-0.360671,2.428,2.64278
0.994081,-0.363196,2.445,2.66423
1.00202,-0.363196,2.445,2.6672
1.00995,-0.363196,2.445,2.6702
1.01789,-0.363196,2.445,2.67321
1.02582,-0.363196,2.445,2.67624
1.03376,-0.363196,2.445,2.67929
nan,nan,nan,NaN
nan,nan,nan,NaN
1.08093,-0.371218,2.499,2.74795
1.08904,-0.371218,2.499,2.75115
1.11339,-0.376714,2.536,2.79515
1.12162,-0.376714,2.536,2.79844
1.12985,-0.376714,2.536,2.80175
1.14661,-0.379537,2.555,2.82609
1.1549,-0.379537,2.555,2.82947
1.1632,-0.379537,2.555,2.83286
1.17149,-0.379537,2.555,2.83628
1.17978,-0.379537,2.555,2.83971
1.19691,-0.382359,2.574,2.86431
1.20527,-0.382359,2.574,2.86781
1.21362,-0.382359,2.574,2.87133
1.22198,-0.382359,2.574,2.87487
1.24897,-0.388152,2.613,2.92205
1.33926,-0.413405,2.783,3.11603
1.29597,-0.397362,2.675,2.99884
1.30465,-0.397362,2.675,3.00261
1.31334,-0.397362,2.675,3.00639
1.32202,-0.397362,2.675,3.01019
1.34115,-0.400482,2.696,3.03768
1.36041,-0.403601,2.717,3.06524
1.3914,-0.410137,2.761,3.11887
1.40037,-0.410137,2.761,3.12288
1.42056,-0.413405,2.783,3.15182
1.46555,-0.423804,2.853,3.23528
1.47481,-0.423804,2.853,3.23949
1.57614,-0.450096,3.03,3.44495
1.58598,-0.450096,3.03,3.44946
nan,nan,nan,NaN
nan,nan,nan,NaN
nan,nan,nan,NaN
nan,nan,nan,NaN
1.84723,-0.508475,3.423,3.92272
1.85834,-0.508475,3.423,3.92797
1.90768,-0.518873,3.493,4.01367
1.9388,-0.524221,3.529,4.06049
1.93036,-0.518873,3.493,4.0245
1.94169,-0.518873,3.493,4.02995
1.97316,-0.524221,3.529,4.07701
1.98461,-0.524221,3.529,4.08257
1.99607,-0.524221,3.529,4.08815
2.02857,-0.529717,3.566,4.13667
2.04015,-0.529717,3.566,4.14236
2.05172,-0.529717,3.566,4.14807
2.08528,-0.535362,3.604,4.19807
2.07487,-0.529717,3.566,4.15957
2.08644,-0.529717,3.566,4.16536
2.09802,-0.529717,3.566,4.17117
2.10959,-0.529717,3.566,4.177
2.07774,-0.518873,3.493,4.09723
2.06815,-0.513674,3.458,4.06188
2.07937,-0.513674,3.458,4.06761
2.06944,-0.508475,3.423,4.03213
2.03982,-0.498522,3.356,3.95881
2.05072,-0.498522,3.356,3.96443
2.04195,-0.493769,3.324,3.93222
2.01322,-0.484262,3.26,3.86201
2.0238,-0.484262,3.26,3.86754
1.97821,-0.470893,3.17,3.76616
1.93456,-0.458118,3.084,3.66926
1.94457,-0.458118,3.084,3.67454
1.90324,-0.446086,3.003,3.5832
1.89642,-0.442223,2.977,3.55732
1.90609,-0.442223,2.977,3.56248
1.88293,-0.434647,2.926,3.50654
1.86074,-0.427369,2.877,3.45284
1.87007,-0.427369,2.877,3.45788
1.84806,-0.420238,2.829,3.40517
1.84214,-0.416822,2.806,3.38243
1.82156,-0.410137,2.761,3.33308
1.83052,-0.410137,2.761,3.33798
1.82482,-0.406869,2.739,3.31627
1.81899,-0.403601,2.717,3.29449
1.8278,-0.403601,2.717,3.29937
1.82243,-0.400482,2.696,3.27873
1.80265,-0.394243,2.654,3.23244
-2.24076,-0.469325,3.23,3.95906
-2.23027,-0.469325,3.23,3.95314
-2.21979,-0.469325,3.23,3.94723
-2.22983,-0.473684,3.26,3.97795
-2.21924,-0.473684,3.26,3.97203
-2.20866,-0.473684,3.26,3.96613
-2.19808,-0.473684,3.26,3.96025
-2.1875,-0.473684,3.26,3.95438
-2.19829,-0.478334,3.292,3.9873
-2.1876,-0.478334,3.292,3.98142
-2.17692,-0.478334,3.292,3.97556
-2.16623,-0.478334,3.292,3.96971
-2.15555,-0.478334,3.292,3.96389
-2.16571,-0.482983,3.324,3.99657
-2.15492,-0.482983,3.324,3.99073
-2.14413,-0.482983,3.324,3.98492
-2.13335,-0.482983,3.324,3.97912
-2.12256,-0.482983,3.324,3.97335
-2.1321,-0.487633,3.356,4.00579
-2.1212,-0.487633,3.356,4
-2.13106,-0.492428,3.389,4.03351
-2.12006,-0.492428,3.389,4.02771
-2.10906,-0.492428,3.389,4.02193
-2.11911,-0.497368,3.423,4.05647
-2.108,-0.497368,3.423,4.05068
-2.09689,-0.497368,3.423,4.04491
-2.08578,-0.497368,3.423,4.03916
-2.07467,-0.497368,3.423,4.03343
-2.06356,-0.497368,3.423,4.02773
-2.05245,-0.497368,3.423,4.02205
-2.04134,-0.497368,3.423,4.01639
nan,nan,nan,NaN
nan,nan,nan,NaN
nan,nan,nan,NaN
nan,nan,nan,NaN
nan,nan,nan,NaN
nan,nan,nan,NaN
nan,nan,nan,NaN
nan,nan,nan,NaN
nan,nan,nan,NaN
nan,nan,nan,NaN
nan,nan,nan,NaN
nan,nan,nan,NaN
nan,nan,nan,NaN
nan,nan,nan,NaN
nan,nan,nan,NaN
nan,nan,nan,NaN
nan,nan,nan,NaN
nan,nan,nan,NaN
nan,nan,nan,NaN
nan,nan,nan,NaN
nan,nan,nan,NaN
nan,nan,nan,NaN
nan,nan,nan,NaN
nan,nan,nan,NaN
nan,nan,nan,NaN
nan,nan,nan,NaN
nan,nan,nan,NaN
nan,nan,nan,NaN
nan,nan,nan,NaN
nan,nan,nan,NaN
-1.17838,-0.345382,2.377,2.67544
-1.17066,-0.345382,2.377,2.67205
-1.17127,-0.347852,2.394,2.68777
-1.15523,-0.345382,2.377,2.66533
-1.14752,-0.345382,2.377,2.66199
-1.1398,-0.345382,2.377,2.65868
-1.13209,-0.345382,2.377,2.65538
-1.13241,-0.347852,2.394,2.67107
-1.12464,-0.347852,2.394,2.66778
-1.11687,-0.347852,2.394,2.66452
-1.1091,-0.347852,2.394,2.66127
-1.10133,-0.347852,2.394,2.65804
-1.09356,-0.347852,2.394,2.65483
-1.08579,-0.347852,2.394,2.65164
-1.07802,-0.347852,2.394,2.64847
-1.07025,-0.347852,2.394,2.64531
-1.06248,-0.347852,2.394,2.64218
-1.05471,-0.347852,2.394,2.63906
-1.04694,-0.347852,2.394,2.63597
-1.03917,-0.347852,2.394,2.63289
-1.0314,-0.347852,2.394,2.62983
-1.02363,-0.347852,2.394,2.6268
-1.01586,-0.347852,2.394,2.62378
-1.00809,-0.347852,2.394,2.62078
-1.00032,-0.347852,2.394,2.6178
-0.992548,-0.347852,2.394,2.61484
-0.984778,-0.347852,2.394,2.6119
-0.977007,-0.347852,2.394,2.60898
-0.976119,-0.350323,2.411,2.62459
-0.968294,-0.350323,2.411,2.62169
-0.960468,-0.350323,2.411,2.61881
-0.952643,-0.350323,2.411,2.61595
-0.944817,-0.350323,2.411,2.61311
-0.930385,-0.347852,2.394,2.59188
-0.922615,-0.347852,2.394,2.5891
-0.914845,-0.347852,2.394,2.58634
-0.907074,-0.347852,2.394,2.58361
-0.892918,-0.345382,2.377,2.56256
-0.885203,-0.345382,2.377,2.55988
-0.877488,-0.345382,2.377,2.55723
-0.869772,-0.345382,2.377,2.55459
-0.862057,-0.345382,2.377,2.55197
-0.854342,-0.345382,2.377,2.54938
-0.846627,-0.345382,2.377,2.5468
-0.838912,-0.345382,2.377,2.54425
-0.837141,-0.347852,2.394,2.55989
-0.829371,-0.347852,2.394,2.55736
-0.821601,-0.347852,2.394,2.55485
-0.81383,-0.347852,2.394,2.55236
-0.80606,-0.347852,2.394,2.5499
-0.79829,-0.347852,2.394,2.54745
-0.796133,-0.350323,2.411,2.5631
-0.788307,-0.350323,2.411,2.56068
-0.780482,-0.350323,2.411,2.55828
-0.772656,-0.350323,2.411,2.5559
-0.764831,-0.350323,2.411,2.55355
-0.757005,-0.350323,2.411,2.55122
-0.754462,-0.352793,2.428,2.56688
-0.746581,-0.352793,2.428,2.56457
-0.738701,-0.352793,2.428,2.56229
-0.73082,-0.352793,2.428,2.56003
-0.728001,-0.355263,2.445,2.5757
-0.720065,-0.355263,2.445,2.57347
-0.712129,-0.355263,2.445,2.57126
-0.704194,-0.355263,2.445,2.56907
-0.696258,-0.355263,2.445,2.56691
-0.688322,-0.355263,2.445,2.56477
-0.680386,-0.355263,2.445,2.56265
-0.677401,-0.357878,2.463,2.5794
-0.669406,-0.357878,2.463,2.57731
-0.661412,-0.357878,2.463,2.57525
-0.653418,-0.357878,2.463,2.57321
-0.65014,-0.360494,2.481,2.58998
-0.642088,-0.360494,2.481,2.58797
-0.634035,-0.360494,2.481,2.58598
-0.625982,-0.360494,2.481,2.58402
-0.61793,-0.360494,2.481,2.58208
-0.614302,-0.363109,2.499,2.59889
-0.606191,-0.363109,2.499,2.59698
-0.598079,-0.363109,2.499,2.5951
-0.589968,-0.363109,2.499,2.59324
-0.581857,-0.363109,2.499,2.59141
-0.573746,-0.363109,2.499,2.5896
-0.565635,-0.363109,2.499,2.58782
-0.557524,-0.363109,2.499,2.58606
-0.549413,-0.363109,2.499,2.58432
-0.541301,-0.363109,2.499,2.58261
-0.53319,-0.363109,2.499,2.58092
-0.525079,-0.363109,2.499,2.57926
-0.516968,-0.363109,2.499,2.57762
-0.508857,-0.363109,2.499,2.576
-0.500746,-0.363109,2.499,2.57441
-0.492635,-0.363109,2.499,2.57285
-0.484524,-0.363109,2.499,2.57131
-0.472981,-0.360494,2.481,2.55128
-0.464928,-0.360494,2.481,2.5498
-0.456875,-0.360494,2.481,2.54834
-0.448823,-0.360494,2.481,2.54691
-0.44077,-0.360494,2.481,2.54551
-0.432717,-0.360494,2.481,2.54412
-0.424665,-0.360494,2.481,2.54277
-0.416612,-0.360494,2.481,2.54143
-0.408559,-0.360494,2.481,2.54013
-0.400506,-0.360494,2.481,2.53884
-0.392454,-0.360494,2.481,2.53759
-0.381612,-0.357878,2.463,2.51795
-0.373618,-0.357878,2.463,2.51675
-0.365624,-0.357878,2.463,2.51558
-0.357629,-0.357878,2.463,2.51443
-0.349635,-0.357878,2.463,2.5133
-0.341641,-0.357878,2.463,2.5122
-0.336085,-0.360494,2.481,2.52948
-0.328032,-0.360494,2.481,2.52842
-0.319979,-0.360494,2.481,2.52739
-0.311927,-0.360494,2.481,2.52638
-0.303874,-0.360494,2.481,2.5254
-0.297967,-0.363109,2.499,2.54276
-0.289856,-0.363109,2.499,2.54182
-0.281745,-0.363109,2.499,2.54091
-0.273634,-0.363109,2.499,2.54002
-0.265523,-0.363109,2.499,2.53916
-0.259266,-0.365725,2.517,2.55661
-0.251096,-0.365725,2.517,2.5558
-0.242927,-0.365725,2.517,2.55501
-0.234757,-0.365725,2.517,2.55424
-0.226588,-0.365725,2.517,2.5535
-0.218418,-0.365725,2.517,2.55279
-0.210249,-0.365725,2.517,2.55211
-0.202079,-0.365725,2.517,2.55145
-0.193909,-0.365725,2.517,2.55081
-0.18574,-0.365725,2.517,2.5502
-0.17757,-0.365725,2.517,2.54962
-0.169401,-0.365725,2.517,2.54907
-0.161231,-0.365725,2.517,2.54854
-0.153062,-0.365725,2.517,2.54803
-0.144892,-0.365725,2.517,2.54756
-0.136723,-0.365725,2.517,2.5471
-0.128553,-0.365725,2.517,2.54668
-0.120383,-0.365725,2.517,2.54628
-0.112214,-0.365725,2.517,2.54591
-0.104044,-0.365725,2.517,2.54556
-0.0965985,-0.368485,2.536,2.56445
-0.0883672,-0.368485,2.536,2.56415
-0.080136,-0.368485,2.536,2.56388
-0.0719048,-0.368485,2.536,2.56364
-0.0636736,-0.368485,2.536,2.56342
-0.0554423,-0.368485,2.536,2.56323
-0.0475648,-0.371246,2.555,2.58227
-0.0392719,-0.371246,2.555,2.58213
-0.030979,-0.371246,2.555,2.58202
-0.0225174,-0.368485,2.536,2.56273
-0.0142862,-0.368485,2.536,2.56267
-0.00605498,-0.368485,2.536,2.56264
0.00217625,-0.368485,2.536,2.56263
0.0104075,-0.368485,2.536,2.56265
0.0186387,-0.368485,2.536,2.5627
0.0270712,-0.371246,2.555,2.58197
0.0353641,-0.371246,2.555,2.58207
0.043657,-0.371246,2.555,2.5822
0.0523362,-0.374007,2.574,2.60156
0.0611388,-0.376768,2.593,2.62094
0.069555,-0.376768,2.593,2.62115
0.0779713,-0.376768,2.593,2.62139
0.0863875,-0.376768,2.593,2.62165
0.0948037,-0.376768,2.593,2.62194
0.102464,-0.374007,2.574,2.60305
0.110818,-0.374007,2.574,2.60339
0.119173,-0.374007,2.574,2.60376
0.127527,-0.374007,2.574,2.60415
0.135882,-0.374007,2.574,2.60458
0.145301,-0.376768,2.593,2.62426
0.152591,-0.374007,2.574,2.6055
0.160946,-0.374007,2.574,2.606
0.1693,-0.374007,2.574,2.60653
0.177655,-0.374007,2.574,2.60709
0.186009,-0.374007,2.574,2.60767
0.194364,-0.374007,2.574,2.60828
0.202718,-0.374007,2.574,2.60892
0.211073,-0.374007,2.574,2.60958
0.219428,-0.374007,2.574,2.61027
0.227782,-0.374007,2.574,2.61099
0.236137,-0.374007,2.574,2.61173
0.244491,-0.374007,2.574,2.6125
0.252846,-0.374007,2.574,2.61329
0.2612,-0.374007,2.574,2.61411
0.269555,-0.374007,2.574,2.61496
0.27791,-0.374007,2.574,2.61583
0.286264,-0.374007,2.574,2.61674
0.294619,-0.374007,2.574,2.61766
0.302973,-0.374007,2.574,2.61862
0.311328,-0.374007,2.574,2.6196
0.319682,-0.374007,2.574,2.6206
0.328037,-0.374007,2.574,2.62163
0.336391,-0.374007,2.574,2.62269
0.344746,-0.374007,2.574,2.62378
0.353101,-0.374007,2.574,2.62489
0.361455,-0.374007,2.574,2.62602
0.36708,-0.371246,2.555,2.6078
0.375373,-0.371246,2.555,2.60898
0.383666,-0.371246,2.555,2.61018
0.391959,-0.371246,2.555,2.61141
0.400252,-0.371246,2.555,2.61267
0.408544,-0.371246,2.555,2.61395
0.416837,-0.371246,2.555,2.61526
0.421969,-0.368485,2.536,2.59714
0.4302,-0.368485,2.536,2.59849
0.438431,-0.368485,2.536,2.59987
0.446662,-0.368485,2.536,2.60127
0.451486,-0.365725,2.517,2.58319
0.459655,-0.365725,2.517,2.58463
0.467825,-0.365725,2.517,2.5861
0.475994,-0.365725,2.517,2.58759
0.484164,-0.365725,2.517,2.5891
0.492333,-0.365725,2.517,2.59064
0.500503,-0.365725,2.517,2.59221
0.508672,-0.365725,2.517,2.5938
0.516842,-0.365725,2.517,2.59541
0.525012,-0.365725,2.517,2.59705
0.533181,-0.365725,2.517,2.59872
0.545437,-0.368485,2.536,2.62003
0.553668,-0.368485,2.536,2.62176
0.5619,-0.368485,2.536,2.62351
0.574402,-0.371246,2.555,2.64495
0.582695,-0.371246,2.555,2.64677
0.590988,-0.371246,2.555,2.64861
0.599281,-0.371246,2.555,2.65047
0.612092,-0.374007,2.574,2.67208
0.620447,-0.374007,2.574,2.67401
0.62416,-0.371246,2.555,2.6562
0.632453,-0.371246,2.555,2.65817
0.640746,-0.371246,2.555,2.66015
0.649038,-0.371246,2.555,2.66216
0.657331,-0.371246,2.555,2.66419
0.660674,-0.368485,2.536,2.64643
0.668906,-0.368485,2.536,2.64849
0.677137,-0.368485,2.536,2.65058
0.685368,-0.368485,2.536,2.6527
0.688403,-0.365725,2.517,2.63495
0.696572,-0.365725,2.517,2.63709
0.704742,-0.365725,2.517,2.63926
0.712911,-0.365725,2.517,2.64146
0.715924,-0.363109,2.499,2.62477
0.724035,-0.363109,2.499,2.62699
0.732147,-0.363109,2.499,2.62924
0.740258,-0.363109,2.499,2.63151
0.748369,-0.363109,2.499,2.6338
0.75648,-0.363109,2.499,2.63612
0.764591,-0.363109,2.499,2.63846
0.778268,-0.365725,2.517,2.65984
0.786437,-0.365725,2.517,2.66224
0.794607,-0.365725,2.517,2.66467
0.797036,-0.363109,2.499,2.64804
0.805147,-0.363109,2.499,2.65049
0.813258,-0.363109,2.499,2.65297
0.821369,-0.363109,2.499,2.65547
0.835455,-0.365725,2.517,2.67713
0.843624,-0.365725,2.517,2.67969
0.845702,-0.363109,2.499,2.66309
0.853814,-0.363109,2.499,2.66568
0.861925,-0.363109,2.499,2.66829
0.863769,-0.360494,2.481,2.65168
0.871822,-0.360494,2.481,2.65432
0.879874,-0.360494,2.481,2.65697
0.887927,-0.360494,2.481,2.65965
0.89598,-0.360494,2.481,2.66235
0.904033,-0.360494,2.481,2.66507
0.905468,-0.357878,2.463,2.64846
0.913462,-0.357878,2.463,2.6512
0.921457,-0.357878,2.463,2.65396
0.929451,-0.357878,2.463,2.65675
0.937445,-0.357878,2.463,2.65956
0.945439,-0.357878,2.463,2.66239
0.946466,-0.355263,2.445,2.64576
0.954402,-0.355263,2.445,2.64861
0.962338,-0.355263,2.445,2.65148
0.970273,-0.355263,2.445,2.65437
0.971408,-0.352793,2.428,2.6388
0.979289,-0.352793,2.428,2.64171
0.987169,-0.352793,2.428,2.64465
0.99505,-0.352793,2.428,2.6476
1.00995,-0.355263,2.445,2.66913
1.01789,-0.355263,2.445,2.67214
1.02582,-0.355263,2.445,2.67517
nan,nan,nan,NaN
nan,nan,nan,NaN
nan,nan,nan,NaN
1.08871,-0.365725,2.517,2.76665
1.09688,-0.365725,2.517,2.76987
1.13008,-0.374007,2.574,2.83592
1.13843,-0.374007,2.574,2.83926
1.15525,-0.376768,2.593,2.8636
1.17264,-0.379674,2.613,2.88912
1.18112,-0.379674,2.613,2.89257
1.19871,-0.38258,2.633,2.91821
1.21688,-0.385631,2.654,2.94504
1.23519,-0.388682,2.675,2.97194
1.24388,-0.388682,2.675,2.97556
1.26239,-0.391734,2.696,3.00258
1.27114,-0.391734,2.696,3.00627
1.27989,-0.391734,2.696,3.00998
1.3092,-0.397982,2.739,3.06178
1.33926,-0.404375,2.783,3.11484
1.34829,-0.404375,2.783,3.11873
1.36854,-0.407717,2.806,3.14846
1.37765,-0.407717,2.806,3.15243
1.38676,-0.407717,2.806,3.15642
1.39587,-0.407717,2.806,3.16043
1.41649,-0.411059,2.829,3.1904
1.43777,-0.414546,2.853,3.22159
1.44703,-0.414546,2.853,3.22573
1.46854,-0.418033,2.877,3.25707
nan,nan,nan,NaN
nan,nan,nan,NaN
1.57614,-0.440264,3.03,3.44368
1.58598,-0.440264,3.03,3.4482
nan,nan,nan,NaN
nan,nan,nan,NaN
nan,nan,nan,NaN
nan,nan,nan,NaN
1.84723,-0.497368,3.423,3.9213
1.85834,-0.497368,3.423,3.92654
1.90768,-0.507539,3.493,4.01222
1.9388,-0.51277,3.529,4.05903
1.95025,-0.51277,3.529,4.06451
1.96171,-0.51277,3.529,4.07002
1.97316,-0.51277,3.529,4.07555
1.98461,-0.51277,3.529,4.08111
2.017,-0.518146,3.566,4.12954
2.02857,-0.518146,3.566,4.13521
2.04015,-0.518146,3.566,4.1409
2.07358,-0.523668,3.604,4.1908
2.08528,-0.523668,3.604,4.1966
2.09698,-0.523668,3.604,4.20242
2.08644,-0.518146,3.566,4.1639
2.09802,-0.518146,3.566,4.16971
2.10959,-0.518146,3.566,4.17555
2.09916,-0.51277,3.529,4.13802
2.06815,-0.502454,3.458,4.06048
2.07937,-0.502454,3.458,4.0662
2.06944,-0.497368,3.423,4.03074
2.05988,-0.492428,3.389,3.99636
2.07088,-0.492428,3.389,4.00204
2.04195,-0.482983,3.324,3.93088
2.01322,-0.473684,3.26,3.8607
2.0238,-0.473684,3.26,3.86623
1.97821,-0.460607,3.17,3.76489
1.95212,-0.452179,3.112,3.70132
1.96222,-0.452179,3.112,3.70666
1.92035,-0.440264,3.03,3.61421
1.89642,-0.432563,2.977,3.55613
1.90609,-0.432563,2.977,3.56129
1.88293,-0.425153,2.926,3.50538
1.86074,-0.418033,2.877,3.4517
1.87007,-0.418033,2.877,3.45674
1.86373,-0.414546,2.853,3.43292
1.84214,-0.407717,2.806,3.38132
1.82156,-0.401178,2.761,3.33199
1.83052,-0.401178,2.761,3.33689
1.82482,-0.397982,2.739,3.31519
1.81899,-0.394785,2.717,3.29343
1.8278,-0.394785,2.717,3.2983
1.82243,-0.391734,2.696,3.27767
1.80265,-0.385631,2.654,3.2314
-2.24076,-0.458844,3.23,3.95783
-2.23027,-0.458844,3.23,3.95191
-2.21979,-0.458844,3.23,3.946
-2.20931,-0.458844,3.23,3.94011
-2.21924,-0.463106,3.26,3.97078
-2.20866,-0.463106,3.26,3.96488
-2.19808,-0.463106,3.26,3.95899
-2.1875,-0.463106,3.26,3.95313
-2.19829,-0.467652,3.292,3.98603
-2.1876,-0.467652,3.292,3.98015
-2.17692,-0.467652,3.292,3.97428
-2.16623,-0.467652,3.292,3.96844
-2.15555,-0.467652,3.292,3.96262
-2.16571,-0.472197,3.324,3.99528
-2.15492,-0.472197,3.324,3.98944
-2.14413,-0.472197,3.324,3.98362
-2.13335,-0.472197,3.324,3.97783
-2.14299,-0.476743,3.356,4.01029
-2.1321,-0.476743,3.356,4.00448
-2.1212,-0.476743,3.356,3.99869
-2.13106,-0.481431,3.389,4.03219
-2.14133,-0.486261,3.423,4.06678
-2.13022,-0.486261,3.423,4.06094
-2.11911,-0.486261,3.423,4.05512
-2.108,-0.486261,3.423,4.04933
-2.09689,-0.486261,3.423,4.04355
-2.08578,-0.486261,3.423,4.0378
-2.09589,-0.491233,3.458,4.0733
-2.08466,-0.491233,3.458,4.06754
-2.07344,-0.491233,3.458,4.0618
-2.06221,-0.491233,3.458,4.05608
nan,nan,nan,NaN
nan,nan,nan,NaN
nan,nan,nan,NaN
nan,nan,nan,NaN
nan,nan,nan,NaN
nan,nan,nan,NaN
nan,nan,nan,NaN
nan,nan,nan,NaN
nan,nan,nan,NaN
nan,nan,nan,NaN
nan,nan,nan,NaN
nan,nan,nan,NaN
nan,nan,nan,NaN
nan,nan,nan,NaN
nan,nan,nan,NaN
nan,nan,nan,NaN
nan,nan,nan,NaN
nan,nan,nan,NaN
nan,nan,nan,NaN
nan,nan,nan,NaN
nan,nan,nan,NaN
nan,nan,nan,NaN
nan,nan,nan,NaN
nan,nan,nan,NaN
nan,nan,nan,NaN
nan,nan,nan,NaN
nan,nan,nan,NaN
nan,nan,nan,NaN
nan,nan,nan,NaN
nan,nan,nan,NaN
-1.18681,-0.340084,2.394,2.69359
-1.17904,-0.340084,2.394,2.69017
-1.17127,-0.340084,2.394,2.68677
-1.1635,-0.340084,2.394,2.6834
-1.15572,-0.340084,2.394,2.68004
-1.14795,-0.340084,2.394,2.67669
-1.14018,-0.340084,2.394,2.67337
-1.13241,-0.340084,2.394,2.67007
-1.12464,-0.340084,2.394,2.66678
-1.11687,-0.340084,2.394,2.66351
-1.1091,-0.340084,2.394,2.66026
-1.10133,-0.340084,2.394,2.65703
-1.09356,-0.340084,2.394,2.65382
-1.08579,-0.340084,2.394,2.65063
-1.08568,-0.342499,2.411,2.66626
-1.07785,-0.342499,2.411,2.66308
-1.07003,-0.342499,2.411,2.65992
-1.0622,-0.342499,2.411,2.65678
-1.04694,-0.340084,2.394,2.63495
-1.03917,-0.340084,2.394,2.63188
-1.0314,-0.340084,2.394,2.62882
-1.02363,-0.340084,2.394,2.62578
-1.01586,-0.340084,2.394,2.62276
-1.00809,-0.340084,2.394,2.61976
-1.00032,-0.340084,2.394,2.61678
-0.992548,-0.340084,2.394,2.61382
-0.984778,-0.340084,2.394,2.61088
-0.977007,-0.340084,2.394,2.60796
-0.969237,-0.340084,2.394,2.60506
-0.961466,-0.340084,2.394,2.60217
-0.953696,-0.340084,2.394,2.59931
-0.952643,-0.342499,2.411,2.61491
-0.944817,-0.342499,2.411,2.61207
-0.930385,-0.340084,2.394,2.59085
-0.922615,-0.340084,2.394,2.58807
-0.914845,-0.340084,2.394,2.58531
-0.907074,-0.340084,2.394,2.58257
-0.892918,-0.337669,2.377,2.56153
-0.885203,-0.337669,2.377,2.55885
-0.877488,-0.337669,2.377,2.5562
-0.869772,-0.337669,2.377,2.55356
-0.862057,-0.337669,2.377,2.55094
-0.854342,-0.337669,2.377,2.54834
-0.846627,-0.337669,2.377,2.54577
-0.838912,-0.337669,2.377,2.54321
-0.837141,-0.340084,2.394,2.55885
-0.829371,-0.340084,2.394,2.55632
-0.821601,-0.340084,2.394,2.55381
-0.81383,-0.340084,2.394,2.55132
-0.80606,-0.340084,2.394,2.54885
-0.79829,-0.340084,2.394,2.5464
-0.796133,-0.342499,2.411,2.56204
-0.788307,-0.342499,2.411,2.55962
-0.780482,-0.342499,2.411,2.55722
-0.772656,-0.342499,2.411,2.55484
-0.770224,-0.344914,2.428,2.57049
-0.762343,-0.344914,2.428,2.56814
-0.754462,-0.344914,2.428,2.56581
-0.746581,-0.344914,2.428,2.5635
-0.738701,-0.344914,2.428,2.56122
-0.735937,-0.347329,2.445,2.57687
-0.728001,-0.347329,2.445,2.57462
-0.720065,-0.347329,2.445,2.57238
-0.712129,-0.347329,2.445,2.57017
-0.704194,-0.347329,2.445,2.56799
-0.701384,-0.349886,2.463,2.58471
-0.693389,-0.349886,2.463,2.58255
-0.685395,-0.349886,2.463,2.58042
-0.677401,-0.349886,2.463,2.57831
-0.669406,-0.349886,2.463,2.57622
-0.661412,-0.349886,2.463,2.57415
-0.653418,-0.349886,2.463,2.57211
-0.65014,-0.352443,2.481,2.58887
-0.642088,-0.352443,2.481,2.58686
-0.634035,-0.352443,2.481,2.58487
-0.625982,-0.352443,2.481,2.58291
-0.61793,-0.352443,2.481,2.58097
-0.614302,-0.355,2.499,2.59777
-0.606191,-0.355,2.499,2.59586
-0.598079,-0.355,2.499,2.59398
-0.589968,-0.355,2.499,2.59212
-0.581857,-0.355,2.499,2.59029
-0.573746,-0.355,2.499,2.58848
-0.565635,-0.355,2.499,2.58669
-0.557524,-0.355,2.499,2.58493
-0.549413,-0.355,2.499,2.58319
-0.541301,-0.355,2.499,2.58148
-0.537031,-0.357557,2.517,2.59837
-0.528861,-0.357557,2.517,2.5967
-0.516968,-0.355,2.499,2.57649
-0.508857,-0.355,2.499,2.57487
-0.500746,-0.355,2.499,2.57328
-0.492635,-0.355,2.499,2.57171
-0.484524,-0.355,2.499,2.57017
-0.472981,-0.352443,2.481,2.55015
-0.464928,-0.352443,2.481,2.54867
-0.456875,-0.352443,2.481,2.54722
-0.448823,-0.352443,2.481,2.54578
-0.44077,-0.352443,2.481,2.54438
-0.432717,-0.352443,2.481,2.54299
-0.424665,-0.352443,2.481,2.54164
-0.416612,-0.352443,2.481,2.5403
-0.408559,-0.352443,2.481,2.539
-0.400506,-0.352443,2.481,2.53771
-0.392454,-0.352443,2.481,2.53645
-0.381612,-0.349886,2.463,2.51683
-0.373618,-0.349886,2.463,2.51563
-0.365624,-0.349886,2.463,2.51445
-0.357629,-0.349886,2.463,2.5133
-0.349635,-0.349886,2.463,2.51218
-0.341641,-0.349886,2.463,2.51108
-0.336085,-0.352443,2.481,2.52835
-0.328032,-0.352443,2.481,2.52729
-0.319979,-0.352443,2.481,2.52626
-0.311927,-0.352443,2.481,2.52525
-0.303874,-0.352443,2.481,2.52427
-0.297967,-0.355,2.499,2.54162
-0.289856,-0.355,2.499,2.54068
-0.281745,-0.355,2.499,2.53977
-0.273634,-0.355,2.499,2.53888
-0.265523,-0.355,2.499,2.53802
-0.259266,-0.357557,2.517,2.55546
-0.251096,-0.357557,2.517,2.55464
-0.242927,-0.357557,2.517,2.55385
-0.234757,-0.357557,2.517,2.55309
-0.226588,-0.357557,2.517,2.55235
-0.218418,-0.357557,2.517,2.55164
-0.210249,-0.357557,2.517,2.55095
-0.202079,-0.357557,2.517,2.55029
-0.193909,-0.357557,2.517,2.54965
-0.18574,-0.357557,2.517,2.54905
-0.17757,-0.357557,2.517,2.54846
-0.169401,-0.357557,2.517,2.54791
-0.161231,-0.357557,2.517,2.54738
-0.153062,-0.357557,2.517,2.54687
-0.144892,-0.357557,2.517,2.5464
-0.136723,-0.357557,2.517,2.54594
-0.128553,-0.357557,2.517,2.54552
-0.120383,-0.357557,2.517,2.54512
-0.112214,-0.357557,2.517,2.54475
-0.104044,-0.357557,2.517,2.5444
-0.0965985,-0.360256,2.536,2.56328
-0.0883672,-0.360256,2.536,2.56298
-0.080136,-0.360256,2.536,2.56271
-0.0719048,-0.360256,2.536,2.56247
-0.0636736,-0.360256,2.536,2.56225
-0.0554423,-0.360256,2.536,2.56206
-0.0475648,-0.362956,2.555,2.58109
-0.0392719,-0.362956,2.555,2.58095
-0.030979,-0.362956,2.555,2.58084
-0.0226861,-0.362956,2.555,2.58075
-0.0143932,-0.362956,2.555,2.58069
-0.00610034,-0.362956,2.555,2.58066
0.00219255,-0.362956,2.555,2.58065
0.0105634,-0.365655,2.574,2.59986
0.018918,-0.365655,2.574,2.59991
0.0272725,-0.365655,2.574,2.59999
0.0356271,-0.365655,2.574,2.60009
0.0439817,-0.365655,2.574,2.60021
0.0527226,-0.368354,2.593,2.61956
0.0611388,-0.368354,2.593,2.61975
0.069555,-0.368354,2.593,2.61996
0.0779713,-0.368354,2.593,2.62019
0.0870538,-0.371195,2.613,2.64067
0.095535,-0.371195,2.613,2.64096
0.10322,-0.368354,2.593,2.62107
0.111636,-0.368354,2.593,2.62141
0.120052,-0.368354,2.593,2.62178
0.127527,-0.365655,2.574,2.60297
0.135882,-0.365655,2.574,2.60339
0.145301,-0.368354,2.593,2.62306
0.152591,-0.365655,2.574,2.60432
0.160946,-0.365655,2.574,2.60482
0.1693,-0.365655,2.574,2.60535
0.177655,-0.365655,2.574,2.60591
0.186009,-0.365655,2.574,2.60649
0.194364,-0.365655,2.574,2.6071
0.202718,-0.365655,2.574,2.60773
0.211073,-0.365655,2.574,2.6084
0.219428,-0.365655,2.574,2.60909
0.227782,-0.365655,2.574,2.6098
0.236137,-0.365655,2.574,2.61054
0.244491,-0.365655,2.574,2.61131
0.252846,-0.365655,2.574,2.61211
0.2612,-0.365655,2.574,2.61293
0.271545,-0.368354,2.593,2.63307
0.279961,-0.368354,2.593,2.63395
0.288377,-0.368354,2.593,2.63486
0.296793,-0.368354,2.593,2.6358
0.30521,-0.368354,2.593,2.63676
0.313626,-0.368354,2.593,2.63774
0.322042,-0.368354,2.593,2.63876
0.330458,-0.368354,2.593,2.6398
0.338875,-0.368354,2.593,2.64087
0.344746,-0.365655,2.574,2.6226
0.353101,-0.365655,2.574,2.62371
0.358787,-0.362956,2.555,2.60547
0.36708,-0.362956,2.555,2.60663
0.375373,-0.362956,2.555,2.60781
0.383666,-0.362956,2.555,2.60902
0.391959,-0.362956,2.555,2.61025
0.400252,-0.362956,2.555,2.61151
0.405506,-0.360256,2.536,2.59336
0.413738,-0.360256,2.536,2.59466
0.421969,-0.360256,2.536,2.59598
0.4302,-0.360256,2.536,2.59734
0.438431,-0.360256,2.536,2.59871
0.446662,-0.360256,2.536,2.60011
0.451486,-0.357557,2.517,2.58205
0.459655,-0.357557,2.517,2.58349
0.467825,-0.357557,2.517,2.58496
0.475994,-0.357557,2.517,2.58645
0.484164,-0.357557,2.517,2.58796
0.492333,-0.357557,2.517,2.5895
0.500503,-0.357557,2.517,2.59107
0.512512,-0.360256,2.536,2.61223
0.520743,-0.360256,2.536,2.61386
0.528975,-0.360256,2.536,2.61551
0.537206,-0.360256,2.536,2.61719
0.545437,-0.360256,2.536,2.61889
0.553668,-0.360256,2.536,2.62062
0.566109,-0.362956,2.555,2.64201
0.574402,-0.362956,2.555,2.6438
0.582695,-0.362956,2.555,2.64562
0.590988,-0.362956,2.555,2.64746
0.603738,-0.365655,2.574,2.66902
0.612092,-0.365655,2.574,2.67092
0.620447,-0.365655,2.574,2.67285
0.62416,-0.362956,2.555,2.65506
0.632453,-0.362956,2.555,2.65702
0.640746,-0.362956,2.555,2.65901
0.649038,-0.362956,2.555,2.66102
0.657331,-0.362956,2.555,2.66305
0.660674,-0.360256,2.536,2.64529
0.668906,-0.360256,2.536,2.64736
0.677137,-0.360256,2.536,2.64945
0.685368,-0.360256,2.536,2.65157
0.688403,-0.357557,2.517,2.63383
0.696572,-0.357557,2.517,2.63597
0.704742,-0.357557,2.517,2.63814
0.712911,-0.357557,2.517,2.64034
0.721081,-0.357557,2.517,2.64255
0.729251,-0.357557,2.517,2.6448
0.732147,-0.355,2.499,2.62813
0.740258,-0.355,2.499,2.6304
0.748369,-0.355,2.499,2.63269
0.75648,-0.355,2.499,2.63501
0.764591,-0.355,2.499,2.63735
0.778268,-0.357557,2.517,2.65873
0.786437,-0.357557,2.517,2.66113
0.794607,-0.357557,2.517,2.66356
0.797036,-0.355,2.499,2.64694
0.805147,-0.355,2.499,2.64939
0.813258,-0.355,2.499,2.65187
0.821369,-0.355,2.499,2.65437
0.835455,-0.357557,2.517,2.67603
0.843624,-0.357557,2.517,2.67859
0.845702,-0.355,2.499,2.662
0.853814,-0.355,2.499,2.66459
0.861925,-0.355,2.499,2.6672
0.863769,-0.352443,2.481,2.6506
0.871822,-0.352443,2.481,2.65323
0.879874,-0.352443,2.481,2.65589
0.887927,-0.352443,2.481,2.65857
0.89598,-0.352443,2.481,2.66127
0.904033,-0.352443,2.481,2.66399
0.905468,-0.349886,2.463,2.64739
0.913462,-0.349886,2.463,2.65013
0.921457,-0.349886,2.463,2.6529
0.929451,-0.349886,2.463,2.65569
0.937445,-0.349886,2.463,2.65849
0.945439,-0.349886,2.463,2.66132
0.946466,-0.347329,2.445,2.6447
0.954402,-0.347329,2.445,2.64755
0.962338,-0.347329,2.445,2.65043
0.970273,-0.347329,2.445,2.65332
0.971408,-0.344914,2.428,2.63776
0.979289,-0.344914,2.428,2.64067
0.987169,-0.344914,2.428,2.64361
0.99505,-0.344914,2.428,2.64656
1.00995,-0.347329,2.445,2.66808
1.01789,-0.347329,2.445,2.6711
1.02582,-0.347329,2.445,2.67413
nan,nan,nan,NaN
nan,nan,nan,NaN
nan,nan,nan,NaN
1.09693,-0.360256,2.536,2.78646
1.10516,-0.360256,2.536,2.78971
1.13842,-0.368354,2.593,2.85575
1.14683,-0.368354,2.593,2.85912
1.18243,-0.377019,2.654,2.92985
1.20989,-0.382986,2.696,2.97975
1.19016,-0.374036,2.633,2.9136
1.19871,-0.374036,2.633,2.9171
1.21688,-0.377019,2.654,2.94392
1.23519,-0.380002,2.675,2.97081
1.24388,-0.380002,2.675,2.97443
1.26239,-0.382986,2.696,3.00145
1.27114,-0.382986,2.696,3.00515
1.27989,-0.382986,2.696,3.00886
1.3092,-0.389094,2.739,3.06064
1.33926,-0.395345,2.783,3.11368
1.34829,-0.395345,2.783,3.11758
1.36854,-0.398612,2.806,3.14729
1.37765,-0.398612,2.806,3.15126
1.38676,-0.398612,2.806,3.15525
1.39587,-0.398612,2.806,3.15927
1.41649,-0.401879,2.829,3.18923
