0.186009,-0.399063,2.574,2.61138
0.194364,-0.399063,2.574,2.61199
0.202718,-0.399063,2.574,2.61263
0.209515,-0.396118,2.555,2.594
0.217808,-0.396118,2.555,2.59468
0.226101,-0.396118,2.555,2.59539
0.234394,-0.396118,2.555,2.59613
0.240882,-0.393172,2.536,2.57758
0.249113,-0.393172,2.536,2.57836
0.257344,-0.393172,2.536,2.57917
0.265575,-0.393172,2.536,2.58
0.273807,-0.393172,2.536,2.58086
0.282038,-0.393172,2.536,2.58175
0.290269,-0.393172,2.536,2.58266
0.2985,-0.393172,2.536,2.5836
0.306732,-0.393172,2.536,2.58456
0.314963,-0.393172,2.536,2.58555
0.323194,-0.393172,2.536,2.58657
0.331425,-0.393172,2.536,2.58761
0.339657,-0.393172,2.536,2.58868
0.347888,-0.393172,2.536,2.58977
0.358787,-0.396118,2.555,2.6103
0.36708,-0.396118,2.555,2.61145
0.375373,-0.396118,2.555,2.61263
0.383666,-0.396118,2.555,2.61384
0.391959,-0.396118,2.555,2.61507
0.400252,-0.396118,2.555,2.61632
0.408544,-0.396118,2.555,2.6176
0.416837,-0.396118,2.555,2.61891
0.42513,-0.396118,2.555,2.62024
0.433423,-0.396118,2.555,2.6216
0.441716,-0.396118,2.555,2.62298
0.450009,-0.396118,2.555,2.62439
0.458302,-0.396118,2.555,2.62583
0.466595,-0.396118,2.555,2.62729
0.474888,-0.396118,2.555,2.62877
0.479587,-0.393172,2.536,2.61072
0.487819,-0.393172,2.536,2.61225
0.49605,-0.393172,2.536,2.6138
0.504281,-0.393172,2.536,2.61537
0.512512,-0.393172,2.536,2.61697
0.520743,-0.393172,2.536,2.6186
0.528975,-0.393172,2.536,2.62025
0.537206,-0.393172,2.536,2.62192
0.545437,-0.393172,2.536,2.62362
0.553668,-0.393172,2.536,2.62534
0.5619,-0.393172,2.536,2.62709
0.570131,-0.393172,2.536,2.62886
0.578362,-0.393172,2.536,2.63066
0.586593,-0.393172,2.536,2.63248
0.594824,-0.393172,2.536,2.63433
0.603056,-0.393172,2.536,2.6362
0.611287,-0.393172,2.536,2.6381
0.614877,-0.390226,2.517,2.62024
0.623046,-0.390226,2.517,2.62217
0.631216,-0.390226,2.517,2.62412
0.634813,-0.387436,2.499,2.60732
0.642924,-0.387436,2.499,2.6093
0.651035,-0.387436,2.499,2.61131
0.654399,-0.384645,2.481,2.59452
0.662451,-0.384645,2.481,2.59657
0.670504,-0.384645,2.481,2.59863
0.673634,-0.381854,2.463,2.58185
0.681628,-0.381854,2.463,2.58395
0.689622,-0.381854,2.463,2.58607
0.692518,-0.379064,2.445,2.5693
0.700454,-0.379064,2.445,2.57145
0.70839,-0.379064,2.445,2.57362
0.716326,-0.379064,2.445,2.57582
0.724262,-0.379064,2.445,2.57804
0.732198,-0.379064,2.445,2.58028
0.734987,-0.376428,2.428,2.56458
0.742868,-0.376428,2.428,2.56685
0.756005,-0.379064,2.445,2.58713
0.763941,-0.379064,2.445,2.58946
0.771877,-0.379064,2.445,2.59182
0.779813,-0.379064,2.445,2.59419
0.787749,-0.379064,2.445,2.59659
0.795684,-0.379064,2.445,2.59901
0.809537,-0.381854,2.463,2.6206
0.817531,-0.381854,2.463,2.62308
0.825525,-0.381854,2.463,2.62558
0.833519,-0.381854,2.463,2.62811
0.841514,-0.381854,2.463,2.63065
0.849508,-0.381854,2.463,2.63322
0.857502,-0.381854,2.463,2.63581
0.865497,-0.381854,2.463,2.63842
0.873491,-0.381854,2.463,2.64105
0.881485,-0.381854,2.463,2.64371
0.889479,-0.381854,2.463,2.64639
0.897474,-0.381854,2.463,2.64908
0.905468,-0.381854,2.463,2.6518
0.913462,-0.381854,2.463,2.65454
0.921457,-0.381854,2.463,2.6573
0.929451,-0.381854,2.463,2.66009
0.937445,-0.381854,2.463,2.66289
0.952349,-0.384645,2.481,2.6852
0.953434,-0.381854,2.463,2.66856
0.961428,-0.381854,2.463,2.67143
0.969422,-0.381854,2.463,2.67432
0.977417,-0.381854,2.463,2.67722
0.985411,-0.381854,2.463,2.68015
0.993405,-0.381854,2.463,2.6831
1.0014,-0.381854,2.463,2.68607
1.00939,-0.381854,2.463,2.68906
1.01739,-0.381854,2.463,2.69207
1.02538,-0.381854,2.463,2.69511
1.03338,-0.381854,2.463,2.69816
nan,nan,nan,NaN
nan,nan,nan,NaN
nan,nan,nan,NaN
1.07314,-0.384645,2.481,2.73037
1.08119,-0.384645,2.481,2.73355
1.08924,-0.384645,2.481,2.73674
1.0973,-0.384645,2.481,2.73996
1.09733,-0.381854,2.463,2.72329
1.10533,-0.381854,2.463,2.72652
1.11332,-0.381854,2.463,2.72977
1.12131,-0.381854,2.463,2.73304
1.12931,-0.381854,2.463,2.73633
1.1373,-0.381854,2.463,2.73964
1.1453,-0.381854,2.463,2.74297
1.15329,-0.381854,2.463,2.74632
1.1528,-0.379064,2.445,2.72959
1.16073,-0.379064,2.445,2.73295
1.16054,-0.376428,2.428,2.7173
1.16842,-0.376428,2.428,2.72068
1.17631,-0.376428,2.428,2.72407
1.18419,-0.376428,2.428,2.72749
1.19207,-0.376428,2.428,2.73092
1.19995,-0.376428,2.428,2.73437
1.20783,-0.376428,2.428,2.73783
1.21571,-0.376428,2.428,2.74132
1.22359,-0.376428,2.428,2.74482
1.23147,-0.376428,2.428,2.74835
1.25722,-0.381854,2.463,2.79155
nan,nan,nan,NaN
nan,nan,nan,NaN
nan,nan,nan,NaN
nan,nan,nan,NaN
nan,nan,nan,NaN
nan,nan,nan,NaN
1.84367,-0.536116,3.458,3.95529
1.8549,-0.536116,3.458,3.96053
1.86612,-0.536116,3.458,3.9658
1.89635,-0.541542,3.493,4.01129
1.90768,-0.541542,3.493,4.01666
1.91902,-0.541542,3.493,4.02206
1.91102,-0.536116,3.458,3.98712
1.92224,-0.536116,3.458,3.99252
1.93346,-0.536116,3.458,3.99793
1.925,-0.530689,3.423,3.96285
1.91688,-0.525418,3.389,3.92885
1.92788,-0.525418,3.389,3.93422
1.93888,-0.525418,3.389,3.93963
1.94988,-0.525418,3.389,3.94505
1.96088,-0.525418,3.389,3.9505
1.95268,-0.520302,3.356,3.91745
1.96357,-0.520302,3.356,3.92289
1.99388,-0.525418,3.389,3.96698
1.98536,-0.520302,3.356,3.93384
1.99625,-0.520302,3.356,3.93935
1.98801,-0.515341,3.324,3.90727
1.99879,-0.515341,3.324,3.91277
1.99024,-0.51038,3.292,3.88057
2.00092,-0.51038,3.292,3.88606
2.01161,-0.51038,3.292,3.89157
2.00264,-0.505418,3.26,3.85922
1.97555,-0.495961,3.199,3.79241
1.98593,-0.495961,3.199,3.79783
1.94202,-0.482473,3.112,3.69983
1.91762,-0.473946,3.057,3.63966
1.92754,-0.473946,3.057,3.6449
1.87028,-0.457512,2.951,3.52359
1.83272,-0.446039,2.877,3.4402
1.84206,-0.446039,2.877,3.44518
1.82051,-0.438598,2.829,3.39262
1.78571,-0.428055,2.761,3.31589
1.79467,-0.428055,2.761,3.32072
1.78926,-0.424644,2.739,3.29908
1.78371,-0.421234,2.717,3.27737
1.79253,-0.421234,2.717,3.28218
1.80135,-0.421234,2.717,3.287
1.81017,-0.421234,2.717,3.29184
1.80493,-0.417978,2.696,3.27122
1.81368,-0.417978,2.696,3.27606
1.82243,-0.417978,2.696,3.28091
1.83118,-0.417978,2.696,3.28578
-2.30597,-0.504555,3.324,4.07689
-2.29518,-0.504555,3.324,4.0708
-2.28439,-0.504555,3.324,4.06472
-2.2736,-0.504555,3.324,4.05867
-2.2846,-0.509412,3.356,4.09165
-2.2737,-0.509412,3.356,4.08558
-2.24123,-0.504555,3.324,4.04063
-2.23045,-0.504555,3.324,4.03465
-2.21966,-0.504555,3.324,4.0287
-2.20887,-0.504555,3.324,4.02277
-2.19808,-0.504555,3.324,4.01685
-2.18729,-0.504555,3.324,4.01096
-2.1765,-0.504555,3.324,4.00509
-2.16571,-0.504555,3.324,3.99923
-2.15492,-0.504555,3.324,3.9934
-2.14413,-0.504555,3.324,3.98759
-2.13335,-0.504555,3.324,3.9818
-2.14299,-0.509412,3.356,4.01431
-2.1321,-0.509412,3.356,4.0085
-2.1212,-0.509412,3.356,4.00272
-2.11031,-0.509412,3.356,3.99696
-2.12006,-0.514421,3.389,4.03046
-2.10906,-0.514421,3.389,4.02469
-2.09806,-0.514421,3.389,4.01893
-2.08706,-0.514421,3.389,4.0132
-2.07606,-0.514421,3.389,4.00749
-2.06506,-0.514421,3.389,4.0018
-2.05406,-0.514421,3.389,3.99614
-2.06356,-0.519582,3.423,4.03053
-2.05245,-0.519582,3.423,4.02485
-2.04134,-0.519582,3.423,4.0192
nan,nan,nan,NaN
nan,nan,nan,NaN
nan,nan,nan,NaN
nan,nan,nan,NaN
nan,nan,nan,NaN
nan,nan,nan,NaN
nan,nan,nan,NaN
nan,nan,nan,NaN
nan,nan,nan,NaN
nan,nan,nan,NaN
nan,nan,nan,NaN
nan,nan,nan,NaN
nan,nan,nan,NaN
nan,nan,nan,NaN
nan,nan,nan,NaN
nan,nan,nan,NaN
nan,nan,nan,NaN
nan,nan,nan,NaN
nan,nan,nan,NaN
nan,nan,nan,NaN
nan,nan,nan,NaN
nan,nan,nan,NaN
nan,nan,nan,NaN
nan,nan,nan,NaN
nan,nan,nan,NaN
nan,nan,nan,NaN
nan,nan,nan,NaN
nan,nan,nan,NaN
nan,nan,nan,NaN
nan,nan,nan,NaN
nan,nan,nan,NaN
-1.16278,-0.35838,2.361,2.65609
-1.15512,-0.35838,2.361,2.65275
-1.14746,-0.35838,2.361,2.64942
-1.14752,-0.360808,2.377,2.66404
-1.1398,-0.360808,2.377,2.66073
-1.13209,-0.360808,2.377,2.65743
-1.12437,-0.360808,2.377,2.65415
-1.11666,-0.360808,2.377,2.65089
-1.11687,-0.363389,2.394,2.66659
-1.10123,-0.360808,2.377,2.64443
-1.09351,-0.360808,2.377,2.64123
-1.09356,-0.363389,2.394,2.65691
-1.07808,-0.360808,2.377,2.63488
-1.07037,-0.360808,2.377,2.63173
-1.06265,-0.360808,2.377,2.6286
-1.05494,-0.360808,2.377,2.62549
-1.04722,-0.360808,2.377,2.6224
-1.03951,-0.360808,2.377,2.61933
-1.03179,-0.360808,2.377,2.61628
-1.02408,-0.360808,2.377,2.61324
-1.01636,-0.360808,2.377,2.61023
-1.00865,-0.360808,2.377,2.60724
-1.00093,-0.360808,2.377,2.60426
-0.993215,-0.360808,2.377,2.60131
-0.9855,-0.360808,2.377,2.59837
-0.977785,-0.360808,2.377,2.59545
-0.970069,-0.360808,2.377,2.59256
-0.962354,-0.360808,2.377,2.58968
-0.954639,-0.360808,2.377,2.58682
-0.946924,-0.360808,2.377,2.58398
-0.939209,-0.360808,2.377,2.58117
-0.931494,-0.360808,2.377,2.57837
-0.923778,-0.360808,2.377,2.57559
-0.916063,-0.360808,2.377,2.57284
-0.908348,-0.360808,2.377,2.5701
-0.900633,-0.360808,2.377,2.56738
-0.892918,-0.360808,2.377,2.56469
-0.885203,-0.360808,2.377,2.56201
-0.877488,-0.360808,2.377,2.55935
-0.869772,-0.360808,2.377,2.55672
-0.862057,-0.360808,2.377,2.55411
-0.854342,-0.360808,2.377,2.55151
-0.846627,-0.360808,2.377,2.54894
-0.844912,-0.363389,2.394,2.5646
-0.837141,-0.363389,2.394,2.56205
-0.829371,-0.363389,2.394,2.55952
-0.821601,-0.363389,2.394,2.55701
-0.819609,-0.365969,2.411,2.57267
-0.811784,-0.365969,2.411,2.57018
-0.803958,-0.365969,2.411,2.56772
-0.796133,-0.365969,2.411,2.56528
-0.788307,-0.365969,2.411,2.56287
-0.780482,-0.365969,2.411,2.56047
-0.778104,-0.36855,2.428,2.57613
-0.770224,-0.36855,2.428,2.57376
-0.762343,-0.36855,2.428,2.57142
-0.754462,-0.36855,2.428,2.56909
-0.746581,-0.36855,2.428,2.56679
-0.738701,-0.36855,2.428,2.56451
-0.73082,-0.36855,2.428,2.56225
-0.722939,-0.36855,2.428,2.56001
-0.715059,-0.36855,2.428,2.5578
-0.707178,-0.36855,2.428,2.5556
-0.699297,-0.36855,2.428,2.55344
-0.696258,-0.37113,2.445,2.56915
-0.688322,-0.37113,2.445,2.56701
-0.680386,-0.37113,2.445,2.5649
-0.67245,-0.37113,2.445,2.5628
-0.664514,-0.37113,2.445,2.56073
-0.656578,-0.37113,2.445,2.55868
-0.648643,-0.37113,2.445,2.55666
-0.645424,-0.373862,2.463,2.57346
-0.637429,-0.373862,2.463,2.57147
-0.629435,-0.373862,2.463,2.5695
-0.621441,-0.373862,2.463,2.56755
-0.613446,-0.373862,2.463,2.56563
-0.605452,-0.373862,2.463,2.56373
-0.597458,-0.373862,2.463,2.56185
-0.589464,-0.373862,2.463,2.56
-0.581469,-0.373862,2.463,2.55817
-0.573475,-0.373862,2.463,2.55637
-0.565481,-0.373862,2.463,2.55459
-0.557486,-0.373862,2.463,2.55283
-0.553508,-0.376595,2.481,2.56974
-0.545455,-0.376595,2.481,2.56802
-0.537403,-0.376595,2.481,2.56632
-0.52935,-0.376595,2.481,2.56464
-0.521297,-0.376595,2.481,2.56299
-0.513244,-0.376595,2.481,2.56137
-0.505192,-0.376595,2.481,2.55977
-0.497139,-0.376595,2.481,2.55819
-0.489086,-0.376595,2.481,2.55664
-0.481034,-0.376595,2.481,2.55511
-0.472981,-0.376595,2.481,2.5536
-0.464928,-0.376595,2.481,2.55213
-0.456875,-0.376595,2.481,2.55067
-0.452079,-0.379327,2.499,2.56774
-0.443968,-0.379327,2.499,2.56632
-0.435857,-0.379327,2.499,2.56493
-0.427746,-0.379327,2.499,2.56356
-0.419634,-0.379327,2.499,2.56222
-0.411523,-0.379327,2.499,2.56091
-0.403412,-0.379327,2.499,2.55962
-0.398148,-0.382059,2.517,2.57678
-0.389979,-0.382059,2.517,2.57553
-0.381809,-0.382059,2.517,2.5743
-0.37364,-0.382059,2.517,2.5731
-0.36547,-0.382059,2.517,2.57193
-0.357301,-0.382059,2.517,2.57078
-0.349131,-0.382059,2.517,2.56966
-0.340961,-0.382059,2.517,2.56856
-0.330412,-0.379327,2.499,2.54913
-0.322301,-0.379327,2.499,2.54809
-0.31419,-0.379327,2.499,2.54708
-0.306079,-0.379327,2.499,2.54609
-0.297967,-0.379327,2.499,2.54513
-0.289856,-0.379327,2.499,2.54419
-0.281745,-0.379327,2.499,2.54328
-0.273634,-0.379327,2.499,2.54239
-0.265523,-0.379327,2.499,2.54153
-0.257412,-0.379327,2.499,2.5407
-0.249301,-0.379327,2.499,2.53989
-0.24119,-0.379327,2.499,2.53911
-0.233078,-0.379327,2.499,2.53835
-0.224967,-0.379327,2.499,2.53762
-0.216856,-0.379327,2.499,2.53691
-0.208745,-0.379327,2.499,2.53623
-0.200634,-0.379327,2.499,2.53558
-0.192523,-0.379327,2.499,2.53495
-0.184412,-0.379327,2.499,2.53434
-0.1763,-0.379327,2.499,2.53377
-0.168189,-0.379327,2.499,2.53321
-0.160078,-0.379327,2.499,2.53269
-0.151967,-0.379327,2.499,2.53219
-0.14282,-0.376595,2.481,2.51348
-0.134767,-0.376595,2.481,2.51304
-0.126714,-0.376595,2.481,2.51262
-0.118662,-0.376595,2.481,2.51222
-0.110609,-0.376595,2.481,2.51186
-0.102556,-0.376595,2.481,2.51151
-0.0951891,-0.379327,2.499,2.52942
-0.0864508,-0.376595,2.481,2.51091
-0.078398,-0.376595,2.481,2.51064
-0.0703453,-0.376595,2.481,2.51041
-0.0622926,-0.376595,2.481,2.51019
-0.0542399,-0.376595,2.481,2.51001
-0.0461872,-0.376595,2.481,2.50984
-0.0381345,-0.376595,2.481,2.50971
-0.0303,-0.379327,2.499,2.52781
-0.0221889,-0.379327,2.499,2.52772
-0.0141792,-0.382059,2.517,2.54587
-0.00600962,-0.382059,2.517,2.54584
0.00215994,-0.382059,2.517,2.54583
0.0104075,-0.384943,2.536,2.56507
0.0186387,-0.384943,2.536,2.56512
0.0268699,-0.384943,2.536,2.56519
0.0353641,-0.387827,2.555,2.58451
0.043657,-0.387827,2.555,2.58464
0.0523362,-0.390711,2.574,2.60401
0.0606908,-0.390711,2.574,2.60419
0.0690454,-0.390711,2.574,2.6044
0.0773999,-0.390711,2.574,2.60464
0.0863875,-0.393595,2.593,2.62412
0.0948037,-0.393595,2.593,2.62442
0.10322,-0.393595,2.593,2.62473
0.110818,-0.390711,2.574,2.60584
0.119173,-0.390711,2.574,2.60621
0.127527,-0.390711,2.574,2.60661
0.135882,-0.390711,2.574,2.60703
0.145301,-0.393595,2.593,2.62672
0.152591,-0.390711,2.574,2.60795
0.160946,-0.390711,2.574,2.60845
0.1693,-0.390711,2.574,2.60898
0.177655,-0.390711,2.574,2.60954
0.184636,-0.387827,2.555,2.59085
0.192929,-0.387827,2.555,2.59146
0.201222,-0.387827,2.555,2.59209
0.209515,-0.387827,2.555,2.59275
0.217808,-0.387827,2.555,2.59343
0.226101,-0.387827,2.555,2.59414
0.234394,-0.387827,2.555,2.59487
0.240882,-0.384943,2.536,2.57633
0.249113,-0.384943,2.536,2.57712
0.257344,-0.384943,2.536,2.57793
0.265575,-0.384943,2.536,2.57876
0.273807,-0.384943,2.536,2.57962
0.282038,-0.384943,2.536,2.58051
0.290269,-0.384943,2.536,2.58142
0.2985,-0.384943,2.536,2.58236
0.306732,-0.384943,2.536,2.58332
0.314963,-0.384943,2.536,2.58431
0.323194,-0.384943,2.536,2.58533
0.331425,-0.384943,2.536,2.58637
0.339657,-0.384943,2.536,2.58744
0.350494,-0.387827,2.555,2.60793
0.358787,-0.387827,2.555,2.60905
0.36708,-0.387827,2.555,2.61021
0.375373,-0.387827,2.555,2.61139
0.383666,-0.387827,2.555,2.61259
0.391959,-0.387827,2.555,2.61382
0.400252,-0.387827,2.555,2.61508
0.408544,-0.387827,2.555,2.61636
0.416837,-0.387827,2.555,2.61767
0.42513,-0.387827,2.555,2.619
0.433423,-0.387827,2.555,2.62036
0.441716,-0.387827,2.555,2.62175
0.450009,-0.387827,2.555,2.62316
0.458302,-0.387827,2.555,2.62459
0.466595,-0.387827,2.555,2.62605
0.474888,-0.387827,2.555,2.62754
0.479587,-0.384943,2.536,2.6095
0.487819,-0.384943,2.536,2.61102
0.49605,-0.384943,2.536,2.61257
0.504281,-0.384943,2.536,2.61415
0.512512,-0.384943,2.536,2.61575
0.520743,-0.384943,2.536,2.61737
0.528975,-0.384943,2.536,2.61902
0.537206,-0.384943,2.536,2.6207
0.545437,-0.384943,2.536,2.6224
0.553668,-0.384943,2.536,2.62412
0.5619,-0.384943,2.536,2.62587
0.570131,-0.384943,2.536,2.62765
0.578362,-0.384943,2.536,2.62944
0.586593,-0.384943,2.536,2.63127
0.594824,-0.384943,2.536,2.63311
0.603056,-0.384943,2.536,2.63499
0.611287,-0.384943,2.536,2.63688
0.614877,-0.382059,2.517,2.61903
0.623046,-0.382059,2.517,2.62096
0.631216,-0.382059,2.517,2.62292
0.634813,-0.379327,2.499,2.60612
0.642924,-0.379327,2.499,2.60811
0.651035,-0.379327,2.499,2.61012
0.654399,-0.376595,2.481,2.59334
0.662451,-0.376595,2.481,2.59539
0.670504,-0.376595,2.481,2.59745
0.673634,-0.373862,2.463,2.58068
0.681628,-0.373862,2.463,2.58278
0.689622,-0.373862,2.463,2.5849
0.692518,-0.37113,2.445,2.56814
0.700454,-0.37113,2.445,2.57029
0.70839,-0.37113,2.445,2.57247
0.716326,-0.37113,2.445,2.57466
0.724262,-0.37113,2.445,2.57688
0.732198,-0.37113,2.445,2.57912
0.734987,-0.36855,2.428,2.56344
0.742868,-0.36855,2.428,2.56571
0.756005,-0.37113,2.445,2.58598
0.763941,-0.37113,2.445,2.58831
0.771877,-0.37113,2.445,2.59067
0.779813,-0.37113,2.445,2.59304
0.787749,-0.37113,2.445,2.59544
0.795684,-0.37113,2.445,2.59786
0.809537,-0.373862,2.463,2.61944
0.817531,-0.373862,2.463,2.62193
0.825525,-0.373862,2.463,2.62443
0.833519,-0.373862,2.463,2.62696
0.841514,-0.373862,2.463,2.6295
0.849508,-0.373862,2.463,2.63207
0.857502,-0.373862,2.463,2.63466
0.865497,-0.373862,2.463,2.63728
0.873491,-0.373862,2.463,2.63991
0.881485,-0.373862,2.463,2.64257
0.889479,-0.373862,2.463,2.64524
0.897474,-0.373862,2.463,2.64794
0.905468,-0.373862,2.463,2.65066
0.913462,-0.373862,2.463,2.6534
0.921457,-0.373862,2.463,2.65617
0.929451,-0.373862,2.463,2.65895
0.937445,-0.373862,2.463,2.66176
0.952349,-0.376595,2.481,2.68406
0.953434,-0.373862,2.463,2.66743
0.961428,-0.373862,2.463,2.6703
0.969422,-0.373862,2.463,2.67319
0.977417,-0.373862,2.463,2.6761
0.978209,-0.37113,2.445,2.65945
0.986145,-0.37113,2.445,2.66238
0.994081,-0.37113,2.445,2.66533
1.00202,-0.37113,2.445,2.6683
1.00995,-0.37113,2.445,2.67129
1.02538,-0.373862,2.463,2.69398
1.02582,-0.37113,2.445,2.67733
1.03376,-0.37113,2.445,2.68038
nan,nan,nan,NaN
nan,nan,nan,NaN
1.06535,-0.373862,2.463,2.70945
1.07335,-0.373862,2.463,2.7126
1.08924,-0.376595,2.481,2.73562
1.0973,-0.376595,2.481,2.73884
1.09733,-0.373862,2.463,2.72218
1.10533,-0.373862,2.463,2.72541
1.11332,-0.373862,2.463,2.72867
1.12131,-0.373862,2.463,2.73194
1.12931,-0.373862,2.463,2.73523
1.1373,-0.373862,2.463,2.73854
1.1453,-0.373862,2.463,2.74187
1.15329,-0.373862,2.463,2.74522
1.1528,-0.37113,2.445,2.7285
1.16073,-0.37113,2.445,2.73186
1.16054,-0.36855,2.428,2.71622
1.16842,-0.36855,2.428,2.7196
1.17631,-0.36855,2.428,2.723
1.18419,-0.36855,2.428,2.72641
1.19207,-0.36855,2.428,2.72984
1.19995,-0.36855,2.428,2.73329
1.20783,-0.36855,2.428,2.73676
1.21571,-0.36855,2.428,2.74025
1.22359,-0.36855,2.428,2.74375
1.23147,-0.36855,2.428,2.74728
1.25722,-0.373862,2.463,2.79047
1.30271,-0.384943,2.536,2.8769
1.31094,-0.384943,2.536,2.88063
1.35923,-0.396631,2.613,2.97197
nan,nan,nan,NaN
nan,nan,nan,NaN
nan,nan,nan,NaN
1.80688,-0.514421,3.389,3.87489
1.81788,-0.514421,3.389,3.88003
1.82888,-0.514421,3.389,3.8852
1.87734,-0.524895,3.458,3.9696
1.88857,-0.524895,3.458,3.97492
1.89979,-0.524895,3.458,3.98026
1.91102,-0.524895,3.458,3.98563
1.92224,-0.524895,3.458,3.99103
1.93346,-0.524895,3.458,3.99644
1.925,-0.519582,3.423,3.96138
1.91688,-0.514421,3.389,3.92739
1.92788,-0.514421,3.389,3.93277
1.93888,-0.514421,3.389,3.93817
1.94988,-0.514421,3.389,3.9436
1.96088,-0.514421,3.389,3.94905
1.95268,-0.509412,3.356,3.91602
1.96357,-0.509412,3.356,3.92146
1.99388,-0.514421,3.389,3.96554
1.98536,-0.509412,3.356,3.93242
1.99625,-0.509412,3.356,3.93793
1.98801,-0.504555,3.324,3.90586
1.99879,-0.504555,3.324,3.91136
2.00958,-0.504555,3.324,3.91688
2.02037,-0.504555,3.324,3.92243
2.03116,-0.504555,3.324,3.928
2.02229,-0.499698,3.292,3.89572
1.99469,-0.490286,3.23,3.8278
2.00517,-0.490286,3.23,3.83328
1.96012,-0.476777,3.141,3.733
1.91762,-0.464027,3.057,3.63838
1.92754,-0.464027,3.057,3.64362
1.88676,-0.451883,2.977,3.55339
1.86394,-0.444142,2.926,3.49757
1.87343,-0.444142,2.926,3.50264
1.83595,-0.433061,2.853,3.42022
1.81482,-0.425927,2.806,3.36877
1.82392,-0.425927,2.806,3.37368
1.81801,-0.422436,2.783,3.35092
1.8126,-0.419096,2.761,3.3293
1.82156,-0.419096,2.761,3.33419
1.81593,-0.415757,2.739,3.31249
1.82482,-0.415757,2.739,3.31737
1.81899,-0.412417,2.717,3.29559
1.8278,-0.412417,2.717,3.30046
1.83662,-0.412417,2.717,3.30535
1.83118,-0.40923,2.696,3.28468
-2.30597,-0.493769,3.324,4.07557
-2.31727,-0.498522,3.356,4.10865
-2.30638,-0.498522,3.356,4.10252
-2.29549,-0.498522,3.356,4.0964
-2.2846,-0.498522,3.356,4.09031
-2.2737,-0.498522,3.356,4.08424
-2.26281,-0.498522,3.356,4.07818
-2.23045,-0.493769,3.324,4.03332
-2.21966,-0.493769,3.324,4.02736
-2.20887,-0.493769,3.324,4.02143
-2.19808,-0.493769,3.324,4.01551
-2.18729,-0.493769,3.324,4.00962
-2.1765,-0.493769,3.324,4.00374
-2.16571,-0.493769,3.324,3.99789
-2.17567,-0.498522,3.356,4.03048
-2.16478,-0.498522,3.356,4.02461
-2.15388,-0.498522,3.356,4.01877
-2.14299,-0.498522,3.356,4.01294
-2.1321,-0.498522,3.356,4.00713
-2.1212,-0.498522,3.356,4.00135
-2.13106,-0.503425,3.389,4.03487
-2.14133,-0.508475,3.423,4.06949
-2.13022,-0.508475,3.423,4.06366
-2.11911,-0.508475,3.423,4.05785
-2.108,-0.508475,3.423,4.05205
-2.09689,-0.508475,3.423,4.04629
-2.08578,-0.508475,3.423,4.04054
-2.07467,-0.508475,3.423,4.03482
-2.08466,-0.513674,3.458,4.07031
-2.07344,-0.513674,3.458,4.06457
-2.06221,-0.513674,3.458,4.05886
nan,nan,nan,NaN
nan,nan,nan,NaN
nan,nan,nan,NaN
nan,nan,nan,NaN
nan,nan,nan,NaN
nan,nan,nan,NaN
nan,nan,nan,NaN
nan,nan,nan,NaN
nan,nan,nan,NaN
nan,nan,nan,NaN
nan,nan,nan,NaN
nan,nan,nan,NaN
nan,nan,nan,NaN
nan,nan,nan,NaN
nan,nan,nan,NaN
nan,nan,nan,NaN
nan,nan,nan,NaN
nan,nan,nan,NaN
nan,nan,nan,NaN
nan,nan,nan,NaN
nan,nan,nan,NaN
nan,nan,nan,NaN
nan,nan,nan,NaN
nan,nan,nan,NaN
nan,nan,nan,NaN
nan,nan,nan,NaN
nan,nan,nan,NaN
nan,nan,nan,NaN
nan,nan,nan,NaN
nan,nan,nan,NaN
nan,nan,nan,NaN
-1.16278,-0.350719,2.361,2.65507
-1.15512,-0.350719,2.361,2.65172
-1.14746,-0.350719,2.361,2.64839
-1.14752,-0.353095,2.377,2.66301
-1.1398,-0.353095,2.377,2.65969
-1.13209,-0.353095,2.377,2.65639
-1.12437,-0.353095,2.377,2.65311
-1.11666,-0.353095,2.377,2.64985
-1.11687,-0.355621,2.394,2.66554
-1.10123,-0.353095,2.377,2.64339
-1.09351,-0.353095,2.377,2.64018
-1.0858,-0.353095,2.377,2.637
-1.07808,-0.353095,2.377,2.63383
-1.07037,-0.353095,2.377,2.63068
-1.06265,-0.353095,2.377,2.62755
-1.05494,-0.353095,2.377,2.62444
-1.04722,-0.353095,2.377,2.62135
-1.03951,-0.353095,2.377,2.61828
-1.03179,-0.353095,2.377,2.61522
-1.02408,-0.353095,2.377,2.61219
-1.01636,-0.353095,2.377,2.60917
-1.00865,-0.353095,2.377,2.60618
-1.00093,-0.353095,2.377,2.6032
-0.993215,-0.353095,2.377,2.60025
-0.9855,-0.353095,2.377,2.59731
-0.977785,-0.353095,2.377,2.59439
-0.970069,-0.353095,2.377,2.59149
-0.962354,-0.353095,2.377,2.58862
-0.954639,-0.353095,2.377,2.58576
-0.946924,-0.353095,2.377,2.58292
-0.932887,-0.350719,2.361,2.56273
-0.925224,-0.350719,2.361,2.55995
-0.91756,-0.350719,2.361,2.55719
-0.909897,-0.350719,2.361,2.55445
-0.902234,-0.350719,2.361,2.55173
-0.894571,-0.350719,2.361,2.54904
-0.892918,-0.353095,2.377,2.56361
-0.885203,-0.353095,2.377,2.56094
-0.877488,-0.353095,2.377,2.55828
-0.869772,-0.353095,2.377,2.55564
-0.862057,-0.353095,2.377,2.55303
-0.854342,-0.353095,2.377,2.55043
-0.846627,-0.353095,2.377,2.54786
-0.844912,-0.355621,2.394,2.56351
-0.837141,-0.355621,2.394,2.56096
-0.829371,-0.355621,2.394,2.55843
-0.821601,-0.355621,2.394,2.55592
-0.819609,-0.358146,2.411,2.57157
-0.811784,-0.358146,2.411,2.56908
-0.803958,-0.358146,2.411,2.56662
-0.796133,-0.358146,2.411,2.56418
-0.788307,-0.358146,2.411,2.56176
-0.780482,-0.358146,2.411,2.55936
-0.778104,-0.360671,2.428,2.57502
-0.770224,-0.360671,2.428,2.57265
-0.762343,-0.360671,2.428,2.5703
-0.754462,-0.360671,2.428,2.56797
-0.746581,-0.360671,2.428,2.56567
-0.738701,-0.360671,2.428,2.56339
-0.73082,-0.360671,2.428,2.56113
-0.722939,-0.360671,2.428,2.55889
-0.715059,-0.360671,2.428,2.55667
-0.707178,-0.360671,2.428,2.55448
-0.699297,-0.360671,2.428,2.55231
-0.696258,-0.363196,2.445,2.56802
-0.688322,-0.363196,2.445,2.56588
-0.680386,-0.363196,2.445,2.56376
-0.67245,-0.363196,2.445,2.56166
-0.664514,-0.363196,2.445,2.55959
-0.656578,-0.363196,2.445,2.55754
-0.648643,-0.363196,2.445,2.55552
-0.645424,-0.36587,2.463,2.57231
-0.637429,-0.36587,2.463,2.57032
-0.629435,-0.36587,2.463,2.56835
-0.621441,-0.36587,2.463,2.5664
-0.613446,-0.36587,2.463,2.56448
-0.609877,-0.368544,2.481,2.58131
-0.601824,-0.368544,2.481,2.57941
-0.593771,-0.368544,2.481,2.57755
-0.585719,-0.368544,2.481,2.5757
-0.577666,-0.368544,2.481,2.57389
-0.569613,-0.368544,2.481,2.57209
-0.561561,-0.368544,2.481,2.57032
-0.557524,-0.371218,2.499,2.58721
-0.549413,-0.371218,2.499,2.58547
-0.541301,-0.371218,2.499,2.58376
-0.53319,-0.371218,2.499,2.58207
-0.525079,-0.371218,2.499,2.58041
-0.516968,-0.371218,2.499,2.57877
-0.508857,-0.371218,2.499,2.57716
-0.500746,-0.371218,2.499,2.57557
-0.492635,-0.371218,2.499,2.574
-0.484524,-0.371218,2.499,2.57246
-0.476412,-0.371218,2.499,2.57095
-0.471674,-0.373892,2.517,2.58796
-0.46019,-0.371218,2.499,2.56799
-0.452079,-0.371218,2.499,2.56655
-0.447166,-0.373892,2.517,2.58361
-0.438996,-0.373892,2.517,2.58221
-0.430827,-0.373892,2.517,2.58083
-0.422657,-0.373892,2.517,2.57948
-0.414487,-0.373892,2.517,2.57816
-0.406318,-0.373892,2.517,2.57685
-0.398148,-0.373892,2.517,2.57558
-0.389979,-0.373892,2.517,2.57433
-0.381809,-0.373892,2.517,2.5731
-0.37364,-0.373892,2.517,2.5719
-0.36547,-0.373892,2.517,2.57073
-0.357301,-0.373892,2.517,2.56958
-0.349131,-0.373892,2.517,2.56846
-0.340961,-0.373892,2.517,2.56736
-0.332792,-0.373892,2.517,2.56629
-0.322301,-0.371218,2.499,2.5469
-0.31419,-0.371218,2.499,2.54588
-0.306079,-0.371218,2.499,2.54489
-0.300114,-0.373892,2.517,2.56226
-0.289856,-0.371218,2.499,2.54299
-0.281745,-0.371218,2.499,2.54208
-0.273634,-0.371218,2.499,2.5412
-0.265523,-0.371218,2.499,2.54034
-0.259266,-0.373892,2.517,2.55779
-0.251096,-0.373892,2.517,2.55698
-0.24119,-0.371218,2.499,2.53791
-0.233078,-0.371218,2.499,2.53715
-0.224967,-0.371218,2.499,2.53642
-0.216856,-0.371218,2.499,2.53571
-0.210249,-0.373892,2.517,2.55329
-0.202079,-0.373892,2.517,2.55263
-0.193909,-0.373892,2.517,2.552
-0.18574,-0.373892,2.517,2.55139
-0.17757,-0.373892,2.517,2.55081
-0.168189,-0.371218,2.499,2.53201
-0.160078,-0.371218,2.499,2.53149
-0.151967,-0.371218,2.499,2.53099
-0.143856,-0.371218,2.499,2.53051
-0.135745,-0.371218,2.499,2.53007
-0.127634,-0.371218,2.499,2.52964
-0.119523,-0.371218,2.499,2.52925
-0.111411,-0.371218,2.499,2.52888
-0.1033,-0.371218,2.499,2.52853
-0.0951891,-0.371218,2.499,2.52821
-0.087078,-0.371218,2.499,2.52792
-0.0789668,-0.371218,2.499,2.52766
-0.0708557,-0.371218,2.499,2.52741
-0.0627446,-0.371218,2.499,2.5272
-0.0546334,-0.371218,2.499,2.52701
-0.0468574,-0.373892,2.517,2.54505
-0.0386878,-0.373892,2.517,2.54491
-0.0305183,-0.373892,2.517,2.5448
-0.0223487,-0.373892,2.517,2.54472
-0.0142862,-0.376714,2.536,2.56387
-0.00605498,-0.376714,2.536,2.56383
0.00217625,-0.376714,2.536,2.56383
0.0104854,-0.379537,2.555,2.58306
0.0187783,-0.379537,2.555,2.5831
0.0270712,-0.379537,2.555,2.58318
0.0356271,-0.382359,2.574,2.60249
0.0439817,-0.382359,2.574,2.60262
0.0523362,-0.382359,2.574,2.60277
0.0606908,-0.382359,2.574,2.60295
0.069555,-0.385181,2.593,2.62238
0.0779713,-0.385181,2.593,2.62261
0.0863875,-0.385181,2.593,2.62288
0.0948037,-0.385181,2.593,2.62317
0.10322,-0.385181,2.593,2.62348
0.111636,-0.385181,2.593,2.62383
0.120978,-0.388152,2.613,2.64444
0.128469,-0.385181,2.593,2.6246
0.136885,-0.385181,2.593,2.62502
0.145301,-0.385181,2.593,2.62548
0.152591,-0.382359,2.574,2.60671
0.160946,-0.382359,2.574,2.60722
0.1693,-0.382359,2.574,2.60775
0.177655,-0.382359,2.574,2.6083
0.184636,-0.379537,2.555,2.58963
0.192929,-0.379537,2.555,2.59023
0.201222,-0.379537,2.555,2.59086
0.209515,-0.379537,2.555,2.59152
0.217808,-0.379537,2.555,2.5922
0.226101,-0.379537,2.555,2.59291
0.234394,-0.379537,2.555,2.59365
0.240882,-0.376714,2.536,2.57512
0.249113,-0.376714,2.536,2.5759
0.257344,-0.376714,2.536,2.57671
0.265575,-0.376714,2.536,2.57755
0.273807,-0.376714,2.536,2.57841
0.282038,-0.376714,2.536,2.57929
0.290269,-0.376714,2.536,2.58021
0.2985,-0.376714,2.536,2.58115
0.306732,-0.376714,2.536,2.58211
0.314963,-0.376714,2.536,2.5831
0.323194,-0.376714,2.536,2.58412
0.333908,-0.379537,2.555,2.60453
0.342201,-0.379537,2.555,2.6056
0.350494,-0.379537,2.555,2.60671
0.358787,-0.379537,2.555,2.60783
0.36708,-0.379537,2.555,2.60899
0.375373,-0.379537,2.555,2.61017
0.383666,-0.379537,2.555,2.61137
0.391959,-0.379537,2.555,2.6126
0.400252,-0.379537,2.555,2.61386
0.408544,-0.379537,2.555,2.61514
0.416837,-0.379537,2.555,2.61645
0.42513,-0.379537,2.555,2.61779
0.433423,-0.379537,2.555,2.61915
0.441716,-0.379537,2.555,2.62053
0.450009,-0.379537,2.555,2.62194
0.458302,-0.379537,2.555,2.62338
0.466595,-0.379537,2.555,2.62484
0.474888,-0.379537,2.555,2.62633
0.48318,-0.379537,2.555,2.62784
0.487819,-0.376714,2.536,2.60982
0.49605,-0.376714,2.536,2.61137
0.504281,-0.376714,2.536,2.61295
0.512512,-0.376714,2.536,2.61455
0.520743,-0.376714,2.536,2.61618
0.528975,-0.376714,2.536,2.61783
0.537206,-0.376714,2.536,2.6195
0.545437,-0.376714,2.536,2.6212
0.553668,-0.376714,2.536,2.62293
0.5619,-0.376714,2.536,2.62468
0.570131,-0.376714,2.536,2.62645
0.578362,-0.376714,2.536,2.62825
0.586593,-0.376714,2.536,2.63008
0.594824,-0.376714,2.536,2.63192
0.603056,-0.376714,2.536,2.6338
0.611287,-0.376714,2.536,2.63569
0.614877,-0.373892,2.517,2.61785
0.623046,-0.373892,2.517,2.61978
0.631216,-0.373892,2.517,2.62174
0.634813,-0.371218,2.499,2.60496
0.642924,-0.371218,2.499,2.60694
0.651035,-0.371218,2.499,2.60896
0.654399,-0.368544,2.481,2.59219
0.662451,-0.368544,2.481,2.59423
0.670504,-0.368544,2.481,2.5963
0.673634,-0.36587,2.463,2.57954
0.681628,-0.36587,2.463,2.58164
0.689622,-0.36587,2.463,2.58376
0.692518,-0.363196,2.445,2.56701
0.700454,-0.363196,2.445,2.56916
0.70839,-0.363196,2.445,2.57133
0.711345,-0.360671,2.428,2.55564
0.719226,-0.360671,2.428,2.55784
0.732198,-0.363196,2.445,2.57799
0.734987,-0.360671,2.428,2.56232
0.742868,-0.360671,2.428,2.56459
0.756005,-0.363196,2.445,2.58486
0.763941,-0.363196,2.445,2.58719
0.771877,-0.363196,2.445,2.58954
0.779813,-0.363196,2.445,2.59192
0.787749,-0.363196,2.445,2.59432
0.795684,-0.363196,2.445,2.59674
0.80362,-0.363196,2.445,2.59918
0.817531,-0.36587,2.463,2.6208
0.825525,-0.36587,2.463,2.6233
0.833519,-0.36587,2.463,2.62583
0.841514,-0.36587,2.463,2.62838
0.849508,-0.36587,2.463,2.63095
0.857502,-0.36587,2.463,2.63354
0.865497,-0.36587,2.463,2.63616
0.873491,-0.36587,2.463,2.63879
0.881485,-0.36587,2.463,2.64145
0.889479,-0.36587,2.463,2.64413
0.897474,-0.36587,2.463,2.64683
0.905468,-0.36587,2.463,2.64955
0.913462,-0.36587,2.463,2.65229
0.921457,-0.36587,2.463,2.65505
0.929451,-0.36587,2.463,2.65784
0.937445,-0.36587,2.463,2.66065
0.945439,-0.36587,2.463,2.66347
0.953434,-0.36587,2.463,2.66632
0.954402,-0.363196,2.445,2.64968
0.962338,-0.363196,2.445,2.65255
0.970273,-0.363196,2.445,2.65544
0.978209,-0.363196,2.445,2.65835
0.986145,-0.363196,2.445,2.66128
0.994081,-0.363196,2.445,2.66423
1.00202,-0.363196,2.445,2.6672
1.00995,-0.363196,2.445,2.6702
1.02538,-0.36587,2.463,2.69289
1.02582,-0.363196,2.445,2.67624
1.03376,-0.363196,2.445,2.67929
nan,nan,nan,NaN
nan,nan,nan,NaN
1.06535,-0.36587,2.463,2.70836
1.07335,-0.36587,2.463,2.71151
1.08924,-0.368544,2.481,2.73453
1.0973,-0.368544,2.481,2.73775
1.10535,-0.368544,2.481,2.74098
1.1134,-0.368544,2.481,2.74424
1.12146,-0.368544,2.481,2.74752
1.12951,-0.368544,2.481,2.75081
1.14581,-0.371218,2.499,2.77411
1.14561,-0.368544,2.481,2.75747
1.15367,-0.368544,2.481,2.76082
1.16172,-0.368544,2.481,2.7642
1.17826,-0.371218,2.499,2.78767
1.18637,-0.371218,2.499,2.79111
1.18588,-0.368544,2.481,2.77444
1.19393,-0.368544,2.481,2.77789
1.19326,-0.36587,2.463,2.76118
1.20126,-0.36587,2.463,2.76464
1.20925,-0.36587,2.463,2.76813
1.21725,-0.36587,2.463,2.77163
1.22524,-0.36587,2.463,2.77515
1.23323,-0.36587,2.463,2.77869
1.24123,-0.36587,2.463,2.78224
1.25835,-0.368544,2.481,2.80618
1.28478,-0.373892,2.517,2.85057
1.30271,-0.376714,2.536,2.87581
1.31094,-0.376714,2.536,2.87954
1.35923,-0.388152,2.613,2.97085
nan,nan,nan,NaN
nan,nan,nan,NaN
nan,nan,nan,NaN
1.77223,-0.493769,3.324,3.79915
1.78302,-0.493769,3.324,3.8042
1.79381,-0.493769,3.324,3.80927
1.85834,-0.508475,3.423,3.92797
1.88857,-0.513674,3.458,3.97345
1.89979,-0.513674,3.458,3.9788
1.91102,-0.513674,3.458,3.98417
1.92224,-0.513674,3.458,3.98956
1.93346,-0.513674,3.458,3.99498
1.925,-0.508475,3.423,3.95994
1.91688,-0.503425,3.389,3.92596
1.92788,-0.503425,3.389,3.93135
1.93888,-0.503425,3.389,3.93675
1.94988,-0.503425,3.389,3.94218
1.96088,-0.503425,3.389,3.94763
1.97188,-0.503425,3.389,3.95311
1.98288,-0.503425,3.389,3.95861
1.99388,-0.503425,3.389,3.96413
2.00488,-0.503425,3.389,3.96967
2.01588,-0.503425,3.389,3.97524
2.00714,-0.498522,3.356,3.94207
2.01804,-0.498522,3.356,3.94762
2.02893,-0.498522,3.356,3.9532
2.02037,-0.493769,3.324,3.92106
2.03116,-0.493769,3.324,3.92663
2.02229,-0.489016,3.292,3.89436
1.99469,-0.479806,3.23,3.82647
2.00517,-0.479806,3.23,3.83195
1.97821,-0.470893,3.17,3.76616
1.93456,-0.458118,3.084,3.66926
1.94457,-0.458118,3.084,3.67454
1.92035,-0.450096,3.03,3.61542
1.87986,-0.438361,2.951,3.52625
1.88944,-0.438361,2.951,3.53137
1.86684,-0.430934,2.901,3.47658
1.82969,-0.420238,2.829,3.39523
1.83887,-0.420238,2.829,3.40019
1.83303,-0.416822,2.806,3.37748
1.82704,-0.413405,2.783,3.35471
1.82156,-0.410137,2.761,3.33308
1.83052,-0.410137,2.761,3.33798
1.83948,-0.410137,2.761,3.34291
1.83371,-0.406869,2.739,3.32117
1.8426,-0.406869,2.739,3.32609
1.83662,-0.403601,2.717,3.30427
1.83118,-0.400482,2.696,3.2836
-2.30597,-0.482983,3.324,4.07428
-2.31727,-0.487633,3.356,4.10734
-2.30638,-0.487633,3.356,4.10121
-2.29549,-0.487633,3.356,4.09509
-2.2846,-0.487633,3.356,4.089
-2.29606,-0.492428,3.389,4.12307
-2.26281,-0.487633,3.356,4.07687
-2.23045,-0.482983,3.324,4.03201
-2.21966,-0.482983,3.324,4.02606
-2.20887,-0.482983,3.324,4.02012
-2.19808,-0.482983,3.324,4.0142
-2.18729,-0.482983,3.324,4.0083
-2.1765,-0.482983,3.324,4.00242
-2.16571,-0.482983,3.324,3.99657
-2.17567,-0.487633,3.356,4.02915
-2.16478,-0.487633,3.356,4.02328
-2.15388,-0.487633,3.356,4.01743
-2.14299,-0.487633,3.356,4.0116
-2.1321,-0.487633,3.356,4.00579
-2.1212,-0.487633,3.356,4
-2.13106,-0.492428,3.389,4.03351
-2.14133,-0.497368,3.423,4.06812
-2.13022,-0.497368,3.423,4.06228
-2.11911,-0.497368,3.423,4.05647
-2.108,-0.497368,3.423,4.05068
-2.09689,-0.497368,3.423,4.04491
-2.08578,-0.497368,3.423,4.03916
-2.07467,-0.497368,3.423,4.03343
-2.08466,-0.502454,3.458,4.06891
-2.07344,-0.502454,3.458,4.06317
-2.06221,-0.502454,3.458,4.05746
nan,nan,nan,NaN
nan,nan,nan,NaN
nan,nan,nan,NaN
nan,nan,nan,NaN
nan,nan,nan,NaN
nan,nan,nan,NaN
nan,nan,nan,NaN
nan,nan,nan,NaN
nan,nan,nan,NaN
nan,nan,nan,NaN
nan,nan,nan,NaN
nan,nan,nan,NaN
nan,nan,nan,NaN
nan,nan,nan,NaN
nan,nan,nan,NaN
nan,nan,nan,NaN
nan,nan,nan,NaN
nan,nan,nan,NaN
nan,nan,nan,NaN
nan,nan,nan,NaN
nan,nan,nan,NaN
nan,nan,nan,NaN
nan,nan,nan,NaN
nan,nan,nan,NaN
nan,nan,nan,NaN
nan,nan,nan,NaN
nan,nan,nan,NaN
nan,nan,nan,NaN
nan,nan,nan,NaN
nan,nan,nan,NaN
nan,nan,nan,NaN
-1.16278,-0.343058,2.361,2.65407
-1.15512,-0.343058,2.361,2.65072
-1.14746,-0.343058,2.361,2.64739
-1.14752,-0.345382,2.377,2.66199
-1.1398,-0.345382,2.377,2.65868
-1.13209,-0.345382,2.377,2.65538
-1.12437,-0.345382,2.377,2.6521
-1.11666,-0.345382,2.377,2.64884
-1.10894,-0.345382,2.377,2.64559
-1.10123,-0.345382,2.377,2.64237
-1.09351,-0.345382,2.377,2.63916
-1.0858,-0.345382,2.377,2.63598
-1.07808,-0.345382,2.377,2.63281
-1.07037,-0.345382,2.377,2.62966
-1.06265,-0.345382,2.377,2.62653
-1.05494,-0.345382,2.377,2.62342
-1.04722,-0.345382,2.377,2.62032
-1.03251,-0.343058,2.361,2.59963
-1.02485,-0.343058,2.361,2.5966
-1.01718,-0.343058,2.361,2.59358
-1.00952,-0.343058,2.361,2.59059
-1.00186,-0.343058,2.361,2.58761
-0.994193,-0.343058,2.361,2.58465
-0.986529,-0.343058,2.361,2.58171
-0.978866,-0.343058,2.361,2.5788
-0.971203,-0.343058,2.361,2.5759
-0.96354,-0.343058,2.361,2.57302
-0.955876,-0.343058,2.361,2.57016
-0.948213,-0.343058,2.361,2.56732
-0.94055,-0.343058,2.361,2.5645
-0.932887,-0.343058,2.361,2.5617
-0.925224,-0.343058,2.361,2.55892
-0.91756,-0.343058,2.361,2.55615
-0.909897,-0.343058,2.361,2.55341
-0.902234,-0.343058,2.361,2.55069
-0.894571,-0.343058,2.361,2.54799
-0.892918,-0.345382,2.377,2.56256
-0.885203,-0.345382,2.377,2.55988
-0.877488,-0.345382,2.377,2.55723
-0.869772,-0.345382,2.377,2.55459
-0.862057,-0.345382,2.377,2.55197
-0.860452,-0.347852,2.394,2.56761
-0.852682,-0.347852,2.394,2.56502
-0.844912,-0.347852,2.394,2.56244
-0.837141,-0.347852,2.394,2.55989
-0.829371,-0.347852,2.394,2.55736
-0.821601,-0.347852,2.394,2.55485
-0.819609,-0.350323,2.411,2.57049
-0.811784,-0.350323,2.411,2.568
-0.803958,-0.350323,2.411,2.56554
-0.796133,-0.350323,2.411,2.5631
-0.788307,-0.350323,2.411,2.56068
-0.780482,-0.350323,2.411,2.55828
-0.778104,-0.352793,2.428,2.57393
-0.770224,-0.352793,2.428,2.57155
-0.762343,-0.352793,2.428,2.56921
-0.754462,-0.352793,2.428,2.56688
-0.746581,-0.352793,2.428,2.56457
-0.738701,-0.352793,2.428,2.56229
-0.73082,-0.352793,2.428,2.56003
-0.722939,-0.352793,2.428,2.55779
-0.720065,-0.355263,2.445,2.57347
-0.712129,-0.355263,2.445,2.57126
-0.704194,-0.355263,2.445,2.56907
-0.696258,-0.355263,2.445,2.56691
-0.688322,-0.355263,2.445,2.56477
-0.680386,-0.355263,2.445,2.56265
-0.67245,-0.355263,2.445,2.56055
-0.664514,-0.355263,2.445,2.55848
-0.656578,-0.355263,2.445,2.55643
-0.653418,-0.357878,2.463,2.57321
-0.645424,-0.357878,2.463,2.57119
-0.637429,-0.357878,2.463,2.56919
-0.629435,-0.357878,2.463,2.56722
-0.625982,-0.360494,2.481,2.58402
-0.61793,-0.360494,2.481,2.58208
-0.609877,-0.360494,2.481,2.58017
-0.601824,-0.360494,2.481,2.57828
-0.593771,-0.360494,2.481,2.57641
-0.585719,-0.360494,2.481,2.57456
-0.577666,-0.360494,2.481,2.57274
-0.569613,-0.360494,2.481,2.57095
-0.565635,-0.363109,2.499,2.58782
-0.557524,-0.363109,2.499,2.58606
-0.549413,-0.363109,2.499,2.58432
-0.541301,-0.363109,2.499,2.58261
-0.53319,-0.363109,2.499,2.58092
-0.525079,-0.363109,2.499,2.57926
-0.516968,-0.363109,2.499,2.57762
-0.508857,-0.363109,2.499,2.576
-0.500746,-0.363109,2.499,2.57441
-0.492635,-0.363109,2.499,2.57285
-0.488013,-0.365725,2.517,2.58983
-0.479844,-0.365725,2.517,2.5883
-0.471674,-0.365725,2.517,2.5868
-0.463505,-0.365725,2.517,2.58532
-0.455335,-0.365725,2.517,2.58387
-0.450541,-0.368485,2.536,2.60193
-0.44231,-0.368485,2.536,2.60052
-0.434079,-0.368485,2.536,2.59913
-0.425848,-0.368485,2.536,2.59777
-0.417616,-0.368485,2.536,2.59644
-0.409385,-0.368485,2.536,2.59512
-0.401154,-0.368485,2.536,2.59384
-0.392923,-0.368485,2.536,2.59258
-0.384691,-0.368485,2.536,2.59134
-0.37646,-0.368485,2.536,2.59014
-0.368229,-0.368485,2.536,2.58895
-0.359998,-0.368485,2.536,2.58779
-0.351766,-0.368485,2.536,2.58666
-0.343535,-0.368485,2.536,2.58555
-0.335304,-0.368485,2.536,2.58447
-0.327073,-0.368485,2.536,2.58342
-0.318842,-0.368485,2.536,2.58239
-0.31061,-0.368485,2.536,2.58139
-0.300114,-0.365725,2.517,2.56108
-0.291944,-0.365725,2.517,2.56013
-0.283775,-0.365725,2.517,2.55921
-0.275605,-0.365725,2.517,2.55832
-0.267435,-0.365725,2.517,2.55745
-0.259266,-0.365725,2.517,2.55661
-0.251096,-0.365725,2.517,2.5558
-0.242927,-0.365725,2.517,2.55501
-0.234757,-0.365725,2.517,2.55424
-0.226588,-0.365725,2.517,2.5535
-0.218418,-0.365725,2.517,2.55279
-0.210249,-0.365725,2.517,2.55211
-0.202079,-0.365725,2.517,2.55145
-0.193909,-0.365725,2.517,2.55081
-0.18574,-0.365725,2.517,2.5502
-0.17757,-0.365725,2.517,2.54962
-0.169401,-0.365725,2.517,2.54907
-0.160078,-0.363109,2.499,2.53031
-0.151967,-0.363109,2.499,2.52981
-0.143856,-0.363109,2.499,2.52934
-0.135745,-0.363109,2.499,2.52889
-0.127634,-0.363109,2.499,2.52847
-0.119523,-0.363109,2.499,2.52807
-0.111411,-0.363109,2.499,2.5277
-0.1033,-0.363109,2.499,2.52735
-0.0951891,-0.363109,2.499,2.52704
-0.087078,-0.363109,2.499,2.52674
-0.0789668,-0.363109,2.499,2.52648
-0.0708557,-0.363109,2.499,2.52624
-0.0627446,-0.363109,2.499,2.52602
-0.055027,-0.365725,2.517,2.54403
-0.0468574,-0.365725,2.517,2.54386
-0.0386878,-0.365725,2.517,2.54373
-0.0305183,-0.365725,2.517,2.54361
-0.0225174,-0.368485,2.536,2.56273
-0.0142862,-0.368485,2.536,2.56267
-0.00605498,-0.368485,2.536,2.56264
0.00217625,-0.368485,2.536,2.56263
0.0104854,-0.371246,2.555,2.58185
0.0187783,-0.371246,2.555,2.5819
0.0270712,-0.371246,2.555,2.58197
0.0356271,-0.374007,2.574,2.60127
0.0439817,-0.374007,2.574,2.6014
0.0523362,-0.374007,2.574,2.60156
0.0606908,-0.374007,2.574,2.60174
0.069555,-0.376768,2.593,2.62115
0.0779713,-0.376768,2.593,2.62139
0.0863875,-0.376768,2.593,2.62165
0.0948037,-0.376768,2.593,2.62194
0.10322,-0.376768,2.593,2.62226
0.111636,-0.376768,2.593,2.62261
0.120978,-0.379674,2.613,2.64321
0.128469,-0.376768,2.593,2.62338
0.136885,-0.376768,2.593,2.6238
0.145301,-0.376768,2.593,2.62426
0.152591,-0.374007,2.574,2.6055
0.160946,-0.374007,2.574,2.606
0.1693,-0.374007,2.574,2.60653
0.177655,-0.374007,2.574,2.60709
0.184636,-0.371246,2.555,2.58842
0.192929,-0.371246,2.555,2.58903
0.201222,-0.371246,2.555,2.58966
0.209515,-0.371246,2.555,2.59032
0.217808,-0.371246,2.555,2.591
0.226101,-0.371246,2.555,2.59171
0.234394,-0.371246,2.555,2.59245
0.240882,-0.368485,2.536,2.57393
0.249113,-0.368485,2.536,2.57471
0.257344,-0.368485,2.536,2.57552
0.265575,-0.368485,2.536,2.57636
0.273807,-0.368485,2.536,2.57722
0.282038,-0.368485,2.536,2.5781
0.290269,-0.368485,2.536,2.57902
0.2985,-0.368485,2.536,2.57996
0.306732,-0.368485,2.536,2.58092
0.314963,-0.368485,2.536,2.58191
0.323194,-0.368485,2.536,2.58293
0.331425,-0.368485,2.536,2.58397
0.339657,-0.368485,2.536,2.58504
0.347888,-0.368485,2.536,2.58614
0.358787,-0.371246,2.555,2.60664
0.36708,-0.371246,2.555,2.6078
0.372581,-0.368485,2.536,2.58957
0.380813,-0.368485,2.536,2.59077
0.389044,-0.368485,2.536,2.59199
0.397275,-0.368485,2.536,2.59324
0.408544,-0.371246,2.555,2.61395
0.416837,-0.371246,2.555,2.61526
0.421969,-0.368485,2.536,2.59714
0.4302,-0.368485,2.536,2.59849
0.438431,-0.368485,2.536,2.59987
0.446662,-0.368485,2.536,2.60127
0.458302,-0.371246,2.555,2.62219
0.466595,-0.371246,2.555,2.62365
0.474888,-0.371246,2.555,2.62514
0.48318,-0.371246,2.555,2.62665
0.487819,-0.368485,2.536,2.60865
0.49605,-0.368485,2.536,2.6102
0.504281,-0.368485,2.536,2.61178
0.512512,-0.368485,2.536,2.61338
0.520743,-0.368485,2.536,2.61501
0.528975,-0.368485,2.536,2.61666
0.537206,-0.368485,2.536,2.61833
0.545437,-0.368485,2.536,2.62003
0.553668,-0.368485,2.536,2.62176
0.5619,-0.368485,2.536,2.62351
0.570131,-0.368485,2.536,2.62529
0.578362,-0.368485,2.536,2.62709
0.586593,-0.368485,2.536,2.62891
0.594824,-0.368485,2.536,2.63076
0.603056,-0.368485,2.536,2.63263
0.606707,-0.365725,2.517,2.61479
0.610479,-0.363109,2.499,2.59799
0.618591,-0.363109,2.499,2.5999
0.626702,-0.363109,2.499,2.60185
0.634813,-0.363109,2.499,2.60381
0.642924,-0.363109,2.499,2.6058
0.646346,-0.360494,2.481,2.58903
0.654399,-0.360494,2.481,2.59105
0.657645,-0.357878,2.463,2.57429
0.665639,-0.357878,2.463,2.57634
0.673634,-0.357878,2.463,2.57842
0.676647,-0.355263,2.445,2.56166
0.684582,-0.355263,2.445,2.56377
0.692518,-0.355263,2.445,2.5659
0.700454,-0.355263,2.445,2.56805
0.70839,-0.355263,2.445,2.57022
0.711345,-0.352793,2.428,2.55454
0.719226,-0.352793,2.428,2.55674
0.732198,-0.355263,2.445,2.57689
0.740133,-0.355263,2.445,2.57915
0.748069,-0.355263,2.445,2.58144
0.756005,-0.355263,2.445,2.58375
0.763941,-0.355263,2.445,2.58609
0.771877,-0.355263,2.445,2.58844
0.779813,-0.355263,2.445,2.59082
0.787749,-0.355263,2.445,2.59322
0.795684,-0.355263,2.445,2.59564
0.80362,-0.355263,2.445,2.59808
0.811556,-0.355263,2.445,2.60055
0.819492,-0.355263,2.445,2.60304
0.833519,-0.357878,2.463,2.62473
0.841514,-0.357878,2.463,2.62728
0.8433,-0.355263,2.445,2.61063
0.851236,-0.355263,2.445,2.6132
0.865497,-0.357878,2.463,2.63506
0.873491,-0.357878,2.463,2.63769
0.881485,-0.357878,2.463,2.64035
0.889479,-0.357878,2.463,2.64303
0.897474,-0.357878,2.463,2.64573
0.905468,-0.357878,2.463,2.64846
0.906787,-0.355263,2.445,2.63182
0.914722,-0.355263,2.445,2.63457
0.922658,-0.355263,2.445,2.63734
0.930594,-0.355263,2.445,2.64012
0.93853,-0.355263,2.445,2.64293
0.946466,-0.355263,2.445,2.64576
0.954402,-0.355263,2.445,2.64861
0.962338,-0.355263,2.445,2.65148
0.970273,-0.355263,2.445,2.65437
0.978209,-0.355263,2.445,2.65728
0.986145,-0.355263,2.445,2.66021
0.994081,-0.355263,2.445,2.66316
1.00202,-0.355263,2.445,2.66613
1.00995,-0.355263,2.445,2.66913
1.01789,-0.355263,2.445,2.67214
1.02582,-0.355263,2.445,2.67517
nan,nan,nan,NaN
nan,nan,nan,NaN
nan,nan,nan,NaN
1.06535,-0.357878,2.463,2.70729
1.07335,-0.357878,2.463,2.71045
1.09715,-0.363109,2.499,2.75329
1.10526,-0.363109,2.499,2.75653
1.11337,-0.363109,2.499,2.75979
1.12148,-0.363109,2.499,2.76307
1.12959,-0.363109,2.499,2.76637
1.1459,-0.365725,2.517,2.78965
1.16278,-0.368485,2.536,2.8141
1.17101,-0.368485,2.536,2.81751
1.18808,-0.371246,2.555,2.84207
1.20527,-0.374007,2.574,2.86671
1.21362,-0.374007,2.574,2.87023
1.22198,-0.374007,2.574,2.87377
1.23033,-0.374007,2.574,2.87734
1.23868,-0.374007,2.574,2.88092
1.24704,-0.374007,2.574,2.88452
1.24613,-0.371246,2.555,2.86682
1.25442,-0.371246,2.555,2.87044
1.25332,-0.368485,2.536,2.8527
1.26155,-0.368485,2.536,2.85633
1.26979,-0.368485,2.536,2.85997
1.27802,-0.368485,2.536,2.86363
1.28625,-0.368485,2.536,2.86732
1.31388,-0.374007,2.574,2.91404
nan,nan,nan,NaN
nan,nan,nan,NaN
nan,nan,nan,NaN
nan,nan,nan,NaN
nan,nan,nan,NaN
nan,nan,nan,NaN
1.77223,-0.482983,3.324,3.79777
1.78302,-0.482983,3.324,3.80281
1.79381,-0.482983,3.324,3.80789
1.85834,-0.497368,3.423,3.92654
1.88857,-0.502454,3.458,3.97202
1.89979,-0.502454,3.458,3.97736
1.91102,-0.502454,3.458,3.98274
1.92224,-0.502454,3.458,3.98814
1.93346,-0.502454,3.458,3.99356
1.925,-0.497368,3.423,3.95853
1.93611,-0.497368,3.423,3.96394
1.94722,-0.497368,3.423,3.96938
1.95833,-0.497368,3.423,3.97484
1.94988,-0.492428,3.389,3.94079
1.96088,-0.492428,3.389,3.94625
1.97188,-0.492428,3.389,3.95172
2.00277,-0.497368,3.423,3.99693
2.01389,-0.497368,3.423,4.0025
2.025,-0.497368,3.423,4.00811
2.01588,-0.492428,3.389,3.97386
2.02688,-0.492428,3.389,3.97945
2.03788,-0.492428,3.389,3.98507
2.02893,-0.487633,3.356,3.95185
2.02037,-0.482983,3.324,3.91971
2.03116,-0.482983,3.324,3.92529
2.02229,-0.478334,3.292,3.89304
2.01322,-0.473684,3.26,3.8607
2.0238,-0.473684,3.26,3.86623
1.97821,-0.460607,3.17,3.76489
1.93456,-0.448111,3.084,3.66802
1.94457,-0.448111,3.084,3.67331
1.92035,-0.440264,3.03,3.61421
1.89642,-0.432563,2.977,3.55613
1.90609,-0.432563,2.977,3.56129
1.88293,-0.425153,2.926,3.50538
1.86074,-0.418033,2.877,3.4517
1.87007,-0.418033,2.877,3.45674
1.86373,-0.414546,2.853,3.43292
1.82704,-0.404375,2.783,3.35361
1.82156,-0.401178,2.761,3.33199
1.83052,-0.401178,2.761,3.33689
1.83948,-0.401178,2.761,3.34182
1.83371,-0.397982,2.739,3.32009
1.8426,-0.397982,2.739,3.32501
1.83662,-0.394785,2.717,3.3032
1.83118,-0.391734,2.696,3.28254
-2.30597,-0.472197,3.324,4.07301
-2.31727,-0.476743,3.356,4.10607
-2.30638,-0.476743,3.356,4.09993
-2.29549,-0.476743,3.356,4.09381
-2.2846,-0.476743,3.356,4.08771
-2.29606,-0.481431,3.389,4.12177
-2.26281,-0.476743,3.356,4.07558
-2.23045,-0.472197,3.324,4.03074
-2.21966,-0.472197,3.324,4.02478
-2.20887,-0.472197,3.324,4.01884
-2.19808,-0.472197,3.324,4.01292
-2.20835,-0.476743,3.356,4.04559
-2.19745,-0.476743,3.356,4.03966
-2.18656,-0.476743,3.356,4.03374
-2.17567,-0.476743,3.356,4.02785
-2.16478,-0.476743,3.356,4.02197
-2.15388,-0.476743,3.356,4.01612
-2.14299,-0.476743,3.356,4.01029
-2.15306,-0.481431,3.389,4.04386
-2.14206,-0.481431,3.389,4.03801
-2.15244,-0.486261,3.423,4.07264
-2.14133,-0.486261,3.423,4.06678
-2.13022,-0.486261,3.423,4.06094
-2.11911,-0.486261,3.423,4.05512
-2.108,-0.486261,3.423,4.04933
-2.09689,-0.486261,3.423,4.04355
-2.08578,-0.486261,3.423,4.0378
-2.09589,-0.491233,3.458,4.0733
-2.08466,-0.491233,3.458,4.06754
-2.07344,-0.491233,3.458,4.0618
-2.06221,-0.491233,3.458,4.05608
nan,nan,nan,NaN
nan,nan,nan,NaN
nan,nan,nan,NaN
nan,nan,nan,NaN
nan,nan,nan,NaN
nan,nan,nan,NaN
nan,nan,nan,NaN
nan,nan,nan,NaN
nan,nan,nan,NaN
nan,nan,nan,NaN
nan,nan,nan,NaN
nan,nan,nan,NaN
nan,nan,nan,NaN
nan,nan,nan,NaN
nan,nan,nan,NaN
nan,nan,nan,NaN
nan,nan,nan,NaN
nan,nan,nan,NaN
nan,nan,nan,NaN
nan,nan,nan,NaN
nan,nan,nan,NaN
nan,nan,nan,NaN
nan,nan,nan,NaN
nan,nan,nan,NaN
nan,nan,nan,NaN
nan,nan,nan,NaN
nan,nan,nan,NaN
nan,nan,nan,NaN
nan,nan,nan,NaN
nan,nan,nan,NaN
nan,nan,nan,NaN
-1.16278,-0.335396,2.361,2.65309
-1.15512,-0.335396,2.361,2.64974
-1.14746,-0.335396,2.361,2.64641
-1.14752,-0.337669,2.377,2.66101
-1.1398,-0.337669,2.377,2.65769
-1.13209,-0.337669,2.377,2.65439
-1.12437,-0.337669,2.377,2.65111
-1.11666,-0.337669,2.377,2.64784
-1.10894,-0.337669,2.377,2.6446
-1.10123,-0.337669,2.377,2.64137
-1.09351,-0.337669,2.377,2.63817
-1.0858,-0.337669,2.377,2.63498
-1.07808,-0.337669,2.377,2.63181
-1.06316,-0.335396,2.361,2.61096
-1.0555,-0.335396,2.361,2.60785
-1.04784,-0.335396,2.361,2.60476
-1.04017,-0.335396,2.361,2.60169
-1.03251,-0.335396,2.361,2.59863
-1.02485,-0.335396,2.361,2.5956
