0.286264,-0.0566229,2.574,2.59049
0.294619,-0.0566229,2.574,2.59142
0.302973,-0.0566229,2.574,2.59239
0.30903,-0.0562049,2.555,2.57423
0.317323,-0.0562049,2.555,2.57524
0.323194,-0.0557869,2.536,2.55712
0.331425,-0.0557869,2.536,2.55817
0.339657,-0.0557869,2.536,2.55925
0.347888,-0.0557869,2.536,2.56036
0.356119,-0.0557869,2.536,2.56149
0.36435,-0.0557869,2.536,2.56265
0.372581,-0.0557869,2.536,2.56383
0.37796,-0.055369,2.517,2.54582
0.386129,-0.055369,2.517,2.54705
0.394299,-0.055369,2.517,2.5483
0.402468,-0.055369,2.517,2.54958
0.410638,-0.055369,2.517,2.55088
nan,nan,nan,NaN
nan,nan,nan,NaN
nan,nan,nan,NaN
nan,nan,nan,NaN
nan,nan,nan,NaN
nan,nan,nan,NaN
nan,nan,nan,NaN
nan,nan,nan,NaN
nan,nan,nan,NaN
nan,nan,nan,NaN
nan,nan,nan,NaN
nan,nan,nan,NaN
nan,nan,nan,NaN
nan,nan,nan,NaN
nan,nan,nan,NaN
nan,nan,nan,NaN
nan,nan,nan,NaN
0.55769,-0.055369,2.517,2.57864
0.565859,-0.055369,2.517,2.58042
0.578362,-0.0557869,2.536,2.60171
0.582199,-0.055369,2.517,2.58405
0.590368,-0.055369,2.517,2.5859
0.598538,-0.055369,2.517,2.58778
0.606707,-0.055369,2.517,2.58968
0.614877,-0.055369,2.517,2.59161
0.623046,-0.055369,2.517,2.59356
0.635981,-0.0557869,2.536,2.61513
0.644212,-0.0557869,2.536,2.61714
0.657331,-0.0562049,2.555,2.6388
0.670574,-0.0566229,2.574,2.66052
0.673917,-0.0562049,2.555,2.64298
0.68221,-0.0562049,2.555,2.64511
0.695638,-0.0566229,2.574,2.66694
0.703992,-0.0566229,2.574,2.66914
0.717605,-0.0570408,2.593,2.69107
0.726021,-0.0570408,2.593,2.69333
0.734438,-0.0570408,2.593,2.69561
0.742854,-0.0570408,2.593,2.69791
0.75127,-0.0570408,2.593,2.70024
0.759686,-0.0570408,2.593,2.7026
0.768102,-0.0570408,2.593,2.70497
0.776519,-0.0570408,2.593,2.70738
0.784935,-0.0570408,2.593,2.7098
0.793351,-0.0570408,2.593,2.71225
0.801767,-0.0570408,2.593,2.71473
0.810184,-0.0570408,2.593,2.71722
0.812602,-0.0566229,2.574,2.69982
0.814896,-0.0562049,2.555,2.68239
0.823189,-0.0562049,2.555,2.68493
0.831482,-0.0562049,2.555,2.68748
0.83353,-0.0557869,2.536,2.67005
0.841761,-0.0557869,2.536,2.67263
0.849993,-0.0557869,2.536,2.67524
0.851794,-0.055369,2.517,2.6578
0.853814,-0.054973,2.499,2.64141
0.861925,-0.054973,2.499,2.64404
0.863769,-0.0545771,2.481,2.62763
0.871822,-0.0545771,2.481,2.63029
0.879874,-0.0545771,2.481,2.63297
0.881485,-0.0541811,2.463,2.61655
0.889479,-0.0541811,2.463,2.61925
0.897474,-0.0541811,2.463,2.62198
0.898851,-0.0537851,2.445,2.60554
0.906787,-0.0537851,2.445,2.60829
0.908362,-0.0534112,2.428,2.59291
0.916243,-0.0534112,2.428,2.59568
0.917653,-0.0530372,2.411,2.58028
0.925479,-0.0530372,2.411,2.58307
0.933304,-0.0530372,2.411,2.58588
0.94113,-0.0530372,2.411,2.58872
0.948955,-0.0530372,2.411,2.59157
0.956781,-0.0530372,2.411,2.59445
0.964606,-0.0530372,2.411,2.59734
0.979289,-0.0534112,2.428,2.6186
0.987169,-0.0534112,2.428,2.62155
0.99505,-0.0534112,2.428,2.62453
1.00995,-0.0537851,2.445,2.64593
1.01789,-0.0537851,2.445,2.64897
1.02582,-0.0537851,2.445,2.65202
1.03376,-0.0537851,2.445,2.6551
1.04937,-0.0541811,2.463,2.67777
1.07281,-0.054973,2.499,2.7201
1.08093,-0.054973,2.499,2.72331
1.09688,-0.055369,2.517,2.74618
1.11339,-0.0557869,2.536,2.77021
1.12162,-0.0557869,2.536,2.77353
1.13832,-0.0562049,2.555,2.79767
1.15514,-0.0566229,2.574,2.82188
1.16349,-0.0566229,2.574,2.82531
1.17185,-0.0566229,2.574,2.82876
1.20725,-0.0579208,2.633,2.89716
1.2255,-0.0583827,2.654,2.92386
1.23411,-0.0583827,2.654,2.92748
1.25256,-0.0588447,2.675,2.95432
1.27114,-0.0593066,2.696,2.98123
1.27989,-0.0593066,2.696,2.98497
1.29868,-0.0597686,2.717,3.01202
1.31809,-0.0602525,2.739,3.04025
1.34829,-0.0612205,2.783,3.09301
1.35733,-0.0612205,2.783,3.09696
1.38894,-0.0622324,2.829,3.15219
1.40999,-0.0627603,2.853,3.18302
1.41925,-0.0627603,2.853,3.18713
1.45254,-0.0638162,2.901,3.24496
1.47456,-0.0643662,2.926,3.27718
1.49673,-0.0649161,2.951,3.30951
1.50631,-0.0649161,2.951,3.31385
1.5426,-0.06606,3.003,3.37668
1.56631,-0.066654,3.03,3.41155
1.57614,-0.066654,3.03,3.41607
1.60011,-0.0672479,3.057,3.4511
1.62425,-0.0678419,3.084,3.48624
1.63426,-0.0678419,3.084,3.49091
1.6592,-0.0684578,3.112,3.52735
1.68485,-0.0690957,3.141,3.56502
1.69505,-0.0690957,3.141,3.56985
1.70524,-0.0690957,3.141,3.5747
1.73128,-0.0697337,3.17,3.61263
1.74157,-0.0697337,3.17,3.61757
1.75186,-0.0697337,3.17,3.62254
1.74602,-0.0690957,3.141,3.59434
1.75622,-0.0690957,3.141,3.5993
1.75011,-0.0684578,3.112,3.57101
1.76021,-0.0684578,3.112,3.57597
1.77031,-0.0684578,3.112,3.58095
1.76439,-0.0678419,3.084,3.55369
1.75886,-0.0672479,3.057,3.52752
1.76879,-0.0672479,3.057,3.53247
1.77871,-0.0672479,3.057,3.53745
1.78863,-0.0672479,3.057,3.54245
1.78267,-0.066654,3.03,3.51614
1.7925,-0.066654,3.03,3.52114
1.80234,-0.066654,3.03,3.52615
1.79602,-0.06606,3.003,3.49972
1.80577,-0.06606,3.003,3.50474
1.7998,-0.0654881,2.977,3.47938
1.80946,-0.0654881,2.977,3.48439
1.81912,-0.0654881,2.977,3.48942
1.81281,-0.0649161,2.951,3.46394
1.82239,-0.0649161,2.951,3.46897
1.83197,-0.0649161,2.951,3.47401
1.82595,-0.0643662,2.926,3.4496
1.81976,-0.0638162,2.901,3.42511
1.82918,-0.0638162,2.901,3.43013
1.80817,-0.0627603,2.853,3.37832
1.80215,-0.0622324,2.829,3.35482
1.78187,-0.0612205,2.783,3.30514
1.79091,-0.0612205,2.783,3.31001
1.77148,-0.0602525,2.739,3.2625
1.75242,-0.0593066,2.696,3.21604
1.76117,-0.0593066,2.696,3.22082
1.74235,-0.0583827,2.654,3.17536
1.72392,-0.0574808,2.613,3.13097
1.7324,-0.0574808,2.613,3.13565
1.71489,-0.0566229,2.574,3.09347
1.71053,-0.0562049,2.555,3.07524
1.71882,-0.0562049,2.555,3.07986
1.70143,-0.055369,2.517,3.03862
1.68515,-0.0545771,2.481,2.99968
-1.88487,-0.0509524,2.717,3.30718
-1.86155,-0.0505585,2.696,3.27664
-1.8528,-0.0505585,2.696,3.27167
-1.84405,-0.0505585,2.696,3.26673
-1.8496,-0.0509524,2.717,3.2872
-1.84078,-0.0509524,2.717,3.28225
-1.83196,-0.0509524,2.717,3.27731
-1.8379,-0.0513649,2.739,3.29889
-1.82901,-0.0513649,2.739,3.29394
-1.82012,-0.0513649,2.739,3.28901
-1.82578,-0.0517775,2.761,3.31048
-1.8313,-0.0521901,2.783,3.33189
-1.83732,-0.0526214,2.806,3.35442
-1.82822,-0.0526214,2.806,3.34944
-1.83402,-0.0530527,2.829,3.3719
-1.84032,-0.0535028,2.853,3.39547
-1.83106,-0.0535028,2.853,3.39046
-1.83712,-0.0539529,2.877,3.41395
-1.84303,-0.0544029,2.901,3.43737
-1.83362,-0.0544029,2.901,3.43233
-1.8242,-0.0544029,2.901,3.42731
-1.83042,-0.0548718,2.926,3.4518
-1.82093,-0.0548718,2.926,3.44678
-1.81143,-0.0548718,2.926,3.44177
-1.81733,-0.0553406,2.951,3.46614
-1.82368,-0.0558282,2.977,3.49163
-1.81401,-0.0558282,2.977,3.48659
-1.80435,-0.0558282,2.977,3.48157
-1.79469,-0.0558282,2.977,3.47657
-1.78503,-0.0558282,2.977,3.47159
-1.77536,-0.0558282,2.977,3.46664
-1.7657,-0.0558282,2.977,3.4617
-1.77138,-0.0563158,3.003,3.48697
-1.74638,-0.0558282,2.977,3.45188
-1.72155,-0.0553406,2.951,3.4169
-1.71197,-0.0553406,2.951,3.41208
-1.68797,-0.0548718,2.926,3.37842
-1.65036,-0.0539529,2.877,3.31719
-1.64102,-0.0539529,2.877,3.31255
-1.61807,-0.0535028,2.853,3.28034
-1.59528,-0.0530527,2.829,3.24823
-1.5861,-0.0530527,2.829,3.24373
-1.5641,-0.0526214,2.806,3.21291
-1.54224,-0.0521901,2.783,3.18219
-1.52109,-0.0517775,2.761,3.1527
-1.51213,-0.0517775,2.761,3.14839
-1.50317,-0.0517775,2.761,3.14409
-1.4942,-0.0517775,2.761,3.13982
-1.49708,-0.0521901,2.783,3.16055
-1.48804,-0.0521901,2.783,3.15628
-1.49124,-0.0526214,2.806,3.17808
-1.49428,-0.0530527,2.829,3.19983
-1.48509,-0.0530527,2.829,3.19555
-1.47591,-0.0530527,2.829,3.1913
-1.47917,-0.0535028,2.853,3.2141
-1.46991,-0.0535028,2.853,3.20985
-1.46065,-0.0535028,2.853,3.20562
-1.41578,-0.0521901,2.783,3.12286
-1.40675,-0.0521901,2.783,3.11877
-1.37562,-0.0513649,2.739,3.06547
-1.34527,-0.0505585,2.696,3.01342
-1.33652,-0.0505585,2.696,3.00953
-1.29674,-0.0493771,2.633,2.93542
-1.26863,-0.048627,2.593,2.88711
-1.26021,-0.048627,2.593,2.88343
-1.23345,-0.0479144,2.555,2.83755
-1.21605,-0.047558,2.536,2.81289
-1.20781,-0.047558,2.536,2.80934
-1.18208,-0.0468642,2.499,2.76487
-1.15706,-0.0461891,2.463,2.72163
-1.14067,-0.0458515,2.445,2.69838
-1.13273,-0.0458515,2.445,2.69503
-1.12479,-0.0458515,2.445,2.69171
-1.11686,-0.0458515,2.445,2.6884
-1.10892,-0.0458515,2.445,2.68511
-1.10099,-0.0458515,2.445,2.68185
-1.08545,-0.0455327,2.428,2.65997
-1.07757,-0.0455327,2.428,2.65677
-1.06969,-0.0455327,2.428,2.65358
-1.06181,-0.0455327,2.428,2.65041
-1.05393,-0.0455327,2.428,2.64727
-1.04605,-0.0455327,2.428,2.64414
-1.0309,-0.0452139,2.411,2.62254
-1.02307,-0.0452139,2.411,2.61947
-1.01525,-0.0452139,2.411,2.61643
-1.00742,-0.0452139,2.411,2.6134
-0.999596,-0.0452139,2.411,2.61039
-0.99177,-0.0452139,2.411,2.60741
-0.983945,-0.0452139,2.411,2.60444
-0.976119,-0.0452139,2.411,2.60149
-0.968294,-0.0452139,2.411,2.59857
-0.960468,-0.0452139,2.411,2.59566
-0.952643,-0.0452139,2.411,2.59278
-0.944817,-0.0452139,2.411,2.58991
-0.936992,-0.0452139,2.411,2.58707
-0.922615,-0.0448951,2.394,2.56602
-0.914845,-0.0448951,2.394,2.56324
-0.907074,-0.0448951,2.394,2.56048
-0.899304,-0.0448951,2.394,2.55773
-0.891534,-0.0448951,2.394,2.55501
-0.890039,-0.0452139,2.411,2.57043
-0.882213,-0.0452139,2.411,2.56774
-0.868223,-0.0448951,2.394,2.54697
-0.860452,-0.0448951,2.394,2.54433
-0.852682,-0.0448951,2.394,2.54172
-0.844912,-0.0448951,2.394,2.53912
-0.837141,-0.0448951,2.394,2.53654
-0.829371,-0.0448951,2.394,2.53399
-0.821601,-0.0448951,2.394,2.53146
-0.81383,-0.0448951,2.394,2.52895
-0.80606,-0.0448951,2.394,2.52646
-0.79829,-0.0448951,2.394,2.52399
-0.790519,-0.0448951,2.394,2.52154
-0.782749,-0.0448951,2.394,2.51912
-0.774979,-0.0448951,2.394,2.51671
-0.767208,-0.0448951,2.394,2.51433
-0.759438,-0.0448951,2.394,2.51197
-0.757005,-0.0452139,2.411,2.52745
-0.743897,-0.0448951,2.394,2.50732
-0.736127,-0.0448951,2.394,2.50502
-0.728357,-0.0448951,2.394,2.50275
-0.720586,-0.0448951,2.394,2.5005
-0.712816,-0.0448951,2.394,2.49827
-0.705046,-0.0448951,2.394,2.49607
-0.697275,-0.0448951,2.394,2.49388
-0.689505,-0.0448951,2.394,2.49172
-0.686576,-0.0452139,2.411,2.50726
-0.67875,-0.0452139,2.411,2.50513
-0.670925,-0.0452139,2.411,2.50302
-0.663099,-0.0452139,2.411,2.50093
-0.655274,-0.0452139,2.411,2.49887
-0.647448,-0.0452139,2.411,2.49683
-0.644133,-0.0455327,2.428,2.5124
-0.640707,-0.0458515,2.445,2.52797
-0.632771,-0.0458515,2.445,2.52597
-0.624835,-0.0458515,2.445,2.52399
-0.616899,-0.0458515,2.445,2.52204
-0.613446,-0.0461891,2.463,2.53866
-0.605452,-0.0461891,2.463,2.53674
-0.597458,-0.0461891,2.463,2.53485
-0.589464,-0.0461891,2.463,2.53298
-0.581469,-0.0461891,2.463,2.53113
-0.573475,-0.0461891,2.463,2.5293
-0.565481,-0.0461891,2.463,2.5275
-0.557486,-0.0461891,2.463,2.52573
-0.553508,-0.0465266,2.481,2.54242
-0.545455,-0.0465266,2.481,2.54068
-0.537403,-0.0465266,2.481,2.53896
-0.52935,-0.0465266,2.481,2.53727
-0.521297,-0.0465266,2.481,2.5356
-0.513244,-0.0465266,2.481,2.53396
-0.505192,-0.0465266,2.481,2.53234
-0.497139,-0.0465266,2.481,2.53075
-0.489086,-0.0465266,2.481,2.52918
-0.481034,-0.0465266,2.481,2.52763
-0.469549,-0.0461891,2.463,2.50778
-0.461555,-0.0461891,2.463,2.5063
-0.453561,-0.0461891,2.463,2.50484
-0.445566,-0.0461891,2.463,2.5034
-0.437572,-0.0461891,2.463,2.50199
-0.429578,-0.0461891,2.463,2.50061
-0.421584,-0.0461891,2.463,2.49925
-0.416612,-0.0465266,2.481,2.51617
-0.408559,-0.0465266,2.481,2.51485
-0.400506,-0.0465266,2.481,2.51355
-0.392454,-0.0465266,2.481,2.51228
-0.384401,-0.0465266,2.481,2.51103
-0.376348,-0.0465266,2.481,2.50981
-0.368296,-0.0465266,2.481,2.50862
-0.360243,-0.0465266,2.481,2.50745
-0.35219,-0.0465266,2.481,2.5063
-0.344137,-0.0465266,2.481,2.50519
-0.338523,-0.0468642,2.499,2.52226
-0.330412,-0.0468642,2.499,2.52118
-0.322301,-0.0468642,2.499,2.52013
-0.31419,-0.0468642,2.499,2.51911
-0.308283,-0.0472017,2.517,2.53625
-0.300114,-0.0472017,2.517,2.53527
-0.294148,-0.047558,2.536,2.55344
-0.285917,-0.047558,2.536,2.55251
-0.277685,-0.047558,2.536,2.5516
-0.271473,-0.0479144,2.555,2.56983
-0.26318,-0.0479144,2.555,2.56897
-0.254887,-0.0479144,2.555,2.56813
-0.246594,-0.0479144,2.555,2.56732
-0.240074,-0.0482707,2.574,2.58562
-0.231719,-0.0482707,2.574,2.58486
-0.223364,-0.0482707,2.574,2.58412
-0.21501,-0.0482707,2.574,2.58342
-0.206655,-0.0482707,2.574,2.58273
-0.198301,-0.0482707,2.574,2.58208
-0.189946,-0.0482707,2.574,2.58145
-0.181592,-0.0482707,2.574,2.58085
-0.173237,-0.0482707,2.574,2.58027
-0.164882,-0.0482707,2.574,2.57973
-0.156528,-0.0482707,2.574,2.57921
-0.148173,-0.0482707,2.574,2.57871
-0.139819,-0.0482707,2.574,2.57825
-0.130494,-0.0479144,2.555,2.55878
-0.122201,-0.0479144,2.555,2.55837
-0.113908,-0.0479144,2.555,2.55799
-0.1064,-0.0482707,2.574,2.57665
-0.0980459,-0.0482707,2.574,2.57632
-0.0896914,-0.0482707,2.574,2.57601
-0.0813368,-0.0482707,2.574,2.57574
-0.0729822,-0.0482707,2.574,2.57549
-0.0646277,-0.0482707,2.574,2.57526
-0.0562731,-0.0482707,2.574,2.57507
-0.0479185,-0.0482707,2.574,2.5749
-0.039564,-0.0482707,2.574,2.57476
-0.0312094,-0.0482707,2.574,2.57464
-0.0230235,-0.048627,2.593,2.59356
-0.0146073,-0.048627,2.593,2.5935
-0.00619107,-0.048627,2.593,2.59346
0.00222516,-0.048627,2.593,2.59346
0.0106414,-0.048627,2.593,2.59348
0.0190576,-0.048627,2.593,2.59353
0.0274739,-0.048627,2.593,2.5936
0.0356271,-0.0482707,2.574,2.5747
0.0439817,-0.0482707,2.574,2.57483
0.0523362,-0.0482707,2.574,2.57498
0.0602428,-0.0479144,2.555,2.55616
0.0685357,-0.0479144,2.555,2.55637
0.0768286,-0.0479144,2.555,2.5566
0.0851215,-0.0479144,2.555,2.55687
0.0934144,-0.0479144,2.555,2.55716
0.100951,-0.047558,2.536,2.53845
0.109182,-0.047558,2.536,2.53879
0.117413,-0.047558,2.536,2.53916
0.125645,-0.047558,2.536,2.53956
0.133876,-0.047558,2.536,2.53998
0.142107,-0.047558,2.536,2.54042
0.151465,-0.0479144,2.555,2.55993
0.159758,-0.0479144,2.555,2.56044
0.16805,-0.0479144,2.555,2.56097
0.177655,-0.0482707,2.574,2.58058
0.186009,-0.0482707,2.574,2.58116
0.194364,-0.0482707,2.574,2.58178
0.202718,-0.0482707,2.574,2.58242
0.212631,-0.048627,2.593,2.60216
0.221047,-0.048627,2.593,2.60286
0.229463,-0.048627,2.593,2.60359
0.23788,-0.048627,2.593,2.60434
0.246296,-0.048627,2.593,2.60512
0.252846,-0.0482707,2.574,2.58684
0.2612,-0.0482707,2.574,2.58767
0.269555,-0.0482707,2.574,2.58853
0.27791,-0.0482707,2.574,2.58941
0.286264,-0.0482707,2.574,2.59032
0.294619,-0.0482707,2.574,2.59126
0.300737,-0.0479144,2.555,2.57308
0.30903,-0.0479144,2.555,2.57407
0.317323,-0.0479144,2.555,2.57508
0.323194,-0.047558,2.536,2.55695
0.331425,-0.047558,2.536,2.55801
0.339657,-0.047558,2.536,2.55909
0.347888,-0.047558,2.536,2.56019
0.356119,-0.047558,2.536,2.56132
0.36435,-0.047558,2.536,2.56248
0.372581,-0.047558,2.536,2.56366
0.37796,-0.0472017,2.517,2.54566
0.386129,-0.0472017,2.517,2.54688
0.394299,-0.0472017,2.517,2.54813
0.402468,-0.0472017,2.517,2.54941
0.410638,-0.0472017,2.517,2.55071
nan,nan,nan,NaN
nan,nan,nan,NaN
nan,nan,nan,NaN
nan,nan,nan,NaN
nan,nan,nan,NaN
nan,nan,nan,NaN
nan,nan,nan,NaN
nan,nan,nan,NaN
nan,nan,nan,NaN
nan,nan,nan,NaN
nan,nan,nan,NaN
nan,nan,nan,NaN
nan,nan,nan,NaN
nan,nan,nan,NaN
nan,nan,nan,NaN
nan,nan,nan,NaN
nan,nan,nan,NaN
0.55769,-0.0472017,2.517,2.57848
0.565859,-0.0472017,2.517,2.58025
0.574029,-0.0472017,2.517,2.58206
0.578035,-0.0468642,2.499,2.56541
0.586146,-0.0468642,2.499,2.56725
0.594257,-0.0468642,2.499,2.56911
0.602368,-0.0468642,2.499,2.571
0.614877,-0.0472017,2.517,2.59145
0.623046,-0.0472017,2.517,2.5934
0.635981,-0.047558,2.536,2.61496
0.644212,-0.047558,2.536,2.61698
0.652443,-0.047558,2.536,2.61901
0.665624,-0.0479144,2.555,2.64072
0.673917,-0.0479144,2.555,2.64282
0.68221,-0.0479144,2.555,2.64494
0.695638,-0.0482707,2.574,2.66678
0.703992,-0.0482707,2.574,2.66897
0.717605,-0.048627,2.593,2.69091
0.726021,-0.048627,2.593,2.69316
0.734438,-0.048627,2.593,2.69544
0.742854,-0.048627,2.593,2.69775
0.75127,-0.048627,2.593,2.70008
0.759686,-0.048627,2.593,2.70243
0.768102,-0.048627,2.593,2.70481
0.776519,-0.048627,2.593,2.70721
0.784935,-0.048627,2.593,2.70964
0.793351,-0.048627,2.593,2.71209
0.795892,-0.0482707,2.574,2.69467
0.804247,-0.0482707,2.574,2.69715
0.812602,-0.0482707,2.574,2.69965
0.814896,-0.0479144,2.555,2.68223
0.823189,-0.0479144,2.555,2.68476
0.831482,-0.0479144,2.555,2.68732
0.839775,-0.0479144,2.555,2.6899
0.841761,-0.047558,2.536,2.67247
0.849993,-0.047558,2.536,2.67508
0.851794,-0.0472017,2.517,2.65764
0.853814,-0.0468642,2.499,2.64125
0.861925,-0.0468642,2.499,2.64388
0.870036,-0.0468642,2.499,2.64654
0.871822,-0.0465266,2.481,2.63013
0.879874,-0.0465266,2.481,2.63281
0.881485,-0.0461891,2.463,2.61639
0.889479,-0.0461891,2.463,2.6191
0.890915,-0.0458515,2.445,2.60266
0.898851,-0.0458515,2.445,2.60539
0.906787,-0.0458515,2.445,2.60814
0.908362,-0.0455327,2.428,2.59276
0.916243,-0.0455327,2.428,2.59553
0.924124,-0.0455327,2.428,2.59832
0.932004,-0.0455327,2.428,2.60113
0.939885,-0.0455327,2.428,2.60397
0.947766,-0.0455327,2.428,2.60682
0.955646,-0.0455327,2.428,2.6097
0.963527,-0.0455327,2.428,2.61259
0.971408,-0.0455327,2.428,2.61551
0.979289,-0.0455327,2.428,2.61845
0.994081,-0.0458515,2.445,2.63976
1.00202,-0.0458515,2.445,2.64276
1.00995,-0.0458515,2.445,2.64578
1.01789,-0.0458515,2.445,2.64882
1.02582,-0.0458515,2.445,2.65188
1.03376,-0.0458515,2.445,2.65496
1.04937,-0.0461891,2.463,2.67762
1.06509,-0.0465266,2.481,2.70036
1.07314,-0.0465266,2.481,2.70354
1.08904,-0.0468642,2.499,2.72639
1.09715,-0.0468642,2.499,2.72964
1.10526,-0.0468642,2.499,2.73291
1.12139,-0.0472017,2.517,2.75591
1.13809,-0.047558,2.536,2.78007
1.1549,-0.0479144,2.555,2.8043
1.1632,-0.0479144,2.555,2.80773
1.1802,-0.0482707,2.574,2.83208
1.2158,-0.0493771,2.633,2.90057
1.22435,-0.0493771,2.633,2.90416
1.24273,-0.0497709,2.654,2.93097
1.26124,-0.0501647,2.675,2.95785
1.26992,-0.0501647,2.675,2.96156
1.28864,-0.0505585,2.696,2.98857
1.3075,-0.0509524,2.717,3.01567
1.34829,-0.0521901,2.783,3.09285
1.35733,-0.0521901,2.783,3.0968
1.38894,-0.0530527,2.829,3.15202
1.40999,-0.0535028,2.853,3.18285
1.41925,-0.0535028,2.853,3.18696
1.45254,-0.0544029,2.901,3.24479
1.47456,-0.0548718,2.926,3.27701
1.49673,-0.0553406,2.951,3.30933
1.50631,-0.0553406,2.951,3.31367
1.5426,-0.0563158,3.003,3.37651
1.56631,-0.0568221,3.03,3.41137
1.57614,-0.0568221,3.03,3.4159
1.60011,-0.0573284,3.057,3.45092
1.62425,-0.0578348,3.084,3.48606
1.63426,-0.0578348,3.084,3.49073
1.6592,-0.0583599,3.112,3.52716
1.68485,-0.0589037,3.141,3.56484
1.69505,-0.0589037,3.141,3.56967
1.70524,-0.0589037,3.141,3.57452
1.73128,-0.0594476,3.17,3.61244
1.74157,-0.0594476,3.17,3.61739
1.75186,-0.0594476,3.17,3.62235
1.74602,-0.0589037,3.141,3.59416
1.75622,-0.0589037,3.141,3.59912
1.75011,-0.0583599,3.112,3.57083
1.76021,-0.0583599,3.112,3.57579
1.77031,-0.0583599,3.112,3.58077
1.76439,-0.0578348,3.084,3.55351
1.75886,-0.0573284,3.057,3.52734
1.76879,-0.0573284,3.057,3.5323
1.77871,-0.0573284,3.057,3.53728
1.78863,-0.0573284,3.057,3.54228
1.78267,-0.0568221,3.03,3.51597
1.7925,-0.0568221,3.03,3.52097
1.80234,-0.0568221,3.03,3.52598
1.79602,-0.0563158,3.003,3.49955
1.80577,-0.0563158,3.003,3.50457
1.7998,-0.0558282,2.977,3.47921
1.80946,-0.0558282,2.977,3.48422
1.81912,-0.0558282,2.977,3.48925
1.81281,-0.0553406,2.951,3.46378
1.82239,-0.0553406,2.951,3.4688
1.83197,-0.0553406,2.951,3.47384
1.82595,-0.0548718,2.926,3.44943
1.81976,-0.0544029,2.901,3.42495
1.82918,-0.0544029,2.901,3.42996
1.82338,-0.0539529,2.877,3.40658
1.80215,-0.0530527,2.829,3.35467
1.78187,-0.0521901,2.783,3.30498
1.79091,-0.0521901,2.783,3.30986
1.77148,-0.0513649,2.739,3.26235
1.75242,-0.0505585,2.696,3.21589
1.76117,-0.0505585,2.696,3.22067
1.74235,-0.0497709,2.654,3.17521
1.72392,-0.049002,2.613,3.13082
1.7324,-0.049002,2.613,3.1355
1.72755,-0.048627,2.593,3.11616
1.71053,-0.0479144,2.555,3.0751
1.71882,-0.0479144,2.555,3.07972
1.70143,-0.0472017,2.517,3.03848
1.68515,-0.0465266,2.481,2.99954
-1.88487,-0.0421361,2.717,3.30705
-1.86155,-0.0418105,2.696,3.27651
-1.8528,-0.0418105,2.696,3.27155
-1.84405,-0.0418105,2.696,3.2666
-1.8496,-0.0421361,2.717,3.28708
-1.84078,-0.0421361,2.717,3.28212
-1.83196,-0.0421361,2.717,3.27718
-1.8379,-0.0424773,2.739,3.29876
-1.82901,-0.0424773,2.739,3.29381
-1.82012,-0.0424773,2.739,3.28889
-1.82578,-0.0428185,2.761,3.31035
-1.8313,-0.0431597,2.783,3.33176
-1.83732,-0.0435164,2.806,3.35429
-1.82822,-0.0435164,2.806,3.34931
-1.81911,-0.0435164,2.806,3.34435
-1.82484,-0.0438731,2.829,3.36678
-1.81565,-0.0438731,2.829,3.36181
-1.8218,-0.0442453,2.853,3.38534
-1.82778,-0.0446175,2.877,3.4088
-1.81845,-0.0446175,2.877,3.4038
-1.8242,-0.0449897,2.901,3.42718
-1.81478,-0.0449897,2.901,3.42217
-1.82093,-0.0453774,2.926,3.44664
-1.81143,-0.0453774,2.926,3.44163
-1.81733,-0.0457651,2.951,3.466
-1.80775,-0.0457651,2.951,3.46099
-1.79817,-0.0457651,2.951,3.456
-1.80435,-0.0461683,2.977,3.48143
-1.79469,-0.0461683,2.977,3.47643
-1.78503,-0.0461683,2.977,3.47145
-1.77536,-0.0461683,2.977,3.46649
-1.7657,-0.0461683,2.977,3.46156
-1.77138,-0.0465715,3.003,3.48683
-1.73112,-0.0457651,2.951,3.42159
-1.72155,-0.0457651,2.951,3.41676
-1.71197,-0.0457651,2.951,3.41194
-1.68797,-0.0453774,2.926,3.37828
-1.65036,-0.0446175,2.877,3.31705
-1.64102,-0.0446175,2.877,3.31241
-1.61807,-0.0442453,2.853,3.2802
-1.59528,-0.0438731,2.829,3.24809
-1.5861,-0.0438731,2.829,3.24359
-1.55128,-0.0431597,2.783,3.18644
-1.53005,-0.0428185,2.761,3.1569
-1.50897,-0.0424773,2.739,3.12745
-1.50008,-0.0424773,2.739,3.12317
-1.49119,-0.0424773,2.739,3.11891
-1.4942,-0.0428185,2.761,3.13968
-1.49708,-0.0431597,2.783,3.16041
-1.48804,-0.0431597,2.783,3.15614
-1.49124,-0.0435164,2.806,3.17794
-1.49428,-0.0438731,2.829,3.19969
-1.48509,-0.0438731,2.829,3.19541
-1.47591,-0.0438731,2.829,3.19116
-1.47917,-0.0442453,2.853,3.21396
-1.46991,-0.0442453,2.853,3.20971
-1.46065,-0.0442453,2.853,3.20548
-1.43918,-0.0438731,2.829,3.17434
-1.43,-0.0438731,2.829,3.17018
-1.38667,-0.0428185,2.761,3.08995
-1.34527,-0.0418105,2.696,3.01329
-1.33652,-0.0418105,2.696,3.00939
-1.29674,-0.0408334,2.633,2.93529
-1.27841,-0.0405233,2.613,2.90925
-1.26993,-0.0405233,2.613,2.90554
-1.24262,-0.0399185,2.574,2.85853
-1.21605,-0.0393291,2.536,2.81276
-1.19876,-0.0390345,2.517,2.78816
-1.18208,-0.0387553,2.499,2.76475
-1.16551,-0.0384762,2.481,2.7414
-1.14906,-0.038197,2.463,2.71812
-1.14107,-0.038197,2.463,2.71475
-1.13308,-0.038197,2.463,2.7114
-1.11686,-0.0379179,2.445,2.68828
-1.10892,-0.0379179,2.445,2.68499
-1.10099,-0.0379179,2.445,2.68172
-1.09305,-0.0379179,2.445,2.67847
-1.08512,-0.0379179,2.445,2.67525
-1.06969,-0.0376542,2.428,2.65346
-1.06181,-0.0376542,2.428,2.65029
-1.05393,-0.0376542,2.428,2.64714
-1.04605,-0.0376542,2.428,2.64402
-1.0309,-0.0373906,2.411,2.62242
-1.02307,-0.0373906,2.411,2.61935
-1.01525,-0.0373906,2.411,2.6163
-1.00742,-0.0373906,2.411,2.61328
-0.999596,-0.0373906,2.411,2.61027
-0.99177,-0.0373906,2.411,2.60728
-0.983945,-0.0373906,2.411,2.60432
-0.976119,-0.0373906,2.411,2.60137
-0.968294,-0.0373906,2.411,2.59844
-0.960468,-0.0373906,2.411,2.59554
-0.952643,-0.0373906,2.411,2.59265
-0.944817,-0.0373906,2.411,2.58979
-0.936992,-0.0373906,2.411,2.58694
-0.929166,-0.0373906,2.411,2.58412
-0.921341,-0.0373906,2.411,2.58132
-0.913515,-0.0373906,2.411,2.57853
-0.899304,-0.037127,2.394,2.55761
-0.891534,-0.037127,2.394,2.55489
-0.890039,-0.0373906,2.411,2.57031
-0.882213,-0.0373906,2.411,2.56761
-0.874388,-0.0373906,2.411,2.56493
-0.866562,-0.0373906,2.411,2.56227
-0.858737,-0.0373906,2.411,2.55964
-0.850911,-0.0373906,2.411,2.55702
-0.843086,-0.0373906,2.411,2.55443
-0.83526,-0.0373906,2.411,2.55186
-0.827435,-0.0373906,2.411,2.54931
-0.819609,-0.0373906,2.411,2.54678
-0.811784,-0.0373906,2.411,2.54427
-0.803958,-0.0373906,2.411,2.54178
-0.796133,-0.0373906,2.411,2.53932
-0.788307,-0.0373906,2.411,2.53688
-0.780482,-0.0373906,2.411,2.53446
-0.772656,-0.0373906,2.411,2.53206
-0.764831,-0.0373906,2.411,2.52968
-0.757005,-0.0373906,2.411,2.52733
-0.74918,-0.0373906,2.411,2.52499
-0.741354,-0.0373906,2.411,2.52268
-0.733529,-0.0373906,2.411,2.52039
-0.720586,-0.037127,2.394,2.50037
-0.712816,-0.037127,2.394,2.49814
-0.705046,-0.037127,2.394,2.49594
-0.697275,-0.037127,2.394,2.49375
-0.694401,-0.0373906,2.411,2.50929
-0.686576,-0.0373906,2.411,2.50713
-0.67875,-0.0373906,2.411,2.505
-0.670925,-0.0373906,2.411,2.50289
-0.663099,-0.0373906,2.411,2.5008
-0.659894,-0.0376542,2.428,2.51636
-0.652013,-0.0376542,2.428,2.5143
-0.644133,-0.0376542,2.428,2.51227
-0.640707,-0.0379179,2.445,2.52784
-0.632771,-0.0379179,2.445,2.52584
-0.624835,-0.0379179,2.445,2.52386
-0.621441,-0.038197,2.463,2.54048
-0.613446,-0.038197,2.463,2.53853
-0.605452,-0.038197,2.463,2.53661
-0.597458,-0.038197,2.463,2.53472
-0.593771,-0.0384762,2.481,2.55135
-0.585719,-0.0384762,2.481,2.54949
-0.573475,-0.038197,2.463,2.52917
-0.565481,-0.038197,2.463,2.52737
-0.557486,-0.038197,2.463,2.52559
-0.553508,-0.0384762,2.481,2.54228
-0.545455,-0.0384762,2.481,2.54054
-0.537403,-0.0384762,2.481,2.53883
-0.52935,-0.0384762,2.481,2.53713
-0.521297,-0.0384762,2.481,2.53547
-0.513244,-0.0384762,2.481,2.53382
-0.505192,-0.0384762,2.481,2.5322
-0.497139,-0.0384762,2.481,2.53061
-0.489086,-0.0384762,2.481,2.52904
-0.481034,-0.0384762,2.481,2.5275
-0.469549,-0.038197,2.463,2.50765
-0.461555,-0.038197,2.463,2.50616
-0.453561,-0.038197,2.463,2.5047
-0.445566,-0.038197,2.463,2.50327
-0.437572,-0.038197,2.463,2.50186
-0.429578,-0.038197,2.463,2.50047
-0.421584,-0.038197,2.463,2.49911
-0.416612,-0.0384762,2.481,2.51603
-0.408559,-0.0384762,2.481,2.51471
-0.400506,-0.0384762,2.481,2.51341
-0.392454,-0.0384762,2.481,2.51214
-0.384401,-0.0384762,2.481,2.5109
-0.376348,-0.0384762,2.481,2.50968
-0.368296,-0.0384762,2.481,2.50848
-0.360243,-0.0384762,2.481,2.50731
-0.35219,-0.0384762,2.481,2.50617
-0.344137,-0.0384762,2.481,2.50505
-0.338523,-0.0387553,2.499,2.52212
-0.330412,-0.0387553,2.499,2.52105
-0.322301,-0.0387553,2.499,2.52
-0.31419,-0.0387553,2.499,2.51897
-0.308283,-0.0390345,2.517,2.53611
-0.300114,-0.0390345,2.517,2.53513
-0.291944,-0.0390345,2.517,2.53418
-0.285917,-0.0393291,2.536,2.55237
-0.277685,-0.0393291,2.536,2.55146
-0.269454,-0.0393291,2.536,2.55058
-0.26318,-0.0396238,2.555,2.56882
-0.254887,-0.0396238,2.555,2.56799
-0.246594,-0.0396238,2.555,2.56718
-0.240074,-0.0399185,2.574,2.58548
-0.231719,-0.0399185,2.574,2.58472
-0.223364,-0.0399185,2.574,2.58398
-0.21501,-0.0399185,2.574,2.58327
-0.206655,-0.0399185,2.574,2.58259
-0.198301,-0.0399185,2.574,2.58194
-0.189946,-0.0399185,2.574,2.58131
-0.181592,-0.0399185,2.574,2.58071
-0.173237,-0.0399185,2.574,2.58013
-0.164882,-0.0399185,2.574,2.57958
-0.156528,-0.0399185,2.574,2.57906
-0.148173,-0.0399185,2.574,2.57857
-0.139819,-0.0399185,2.574,2.5781
-0.130494,-0.0396238,2.555,2.55864
-0.122201,-0.0396238,2.555,2.55823
-0.113908,-0.0396238,2.555,2.55784
-0.1064,-0.0399185,2.574,2.57651
-0.0980459,-0.0399185,2.574,2.57618
-0.0896914,-0.0399185,2.574,2.57587
-0.0813368,-0.0399185,2.574,2.57559
-0.0729822,-0.0399185,2.574,2.57534
-0.0646277,-0.0399185,2.574,2.57512
-0.0562731,-0.0399185,2.574,2.57492
-0.0479185,-0.0399185,2.574,2.57476
-0.039564,-0.0399185,2.574,2.57461
-0.0312094,-0.0399185,2.574,2.5745
-0.0230235,-0.0402131,2.593,2.59341
-0.0146073,-0.0402131,2.593,2.59335
-0.00619107,-0.0402131,2.593,2.59332
0.00222516,-0.0402131,2.593,2.59331
0.0106414,-0.0402131,2.593,2.59333
0.0190576,-0.0402131,2.593,2.59338
0.0274739,-0.0402131,2.593,2.59346
0.0356271,-0.0399185,2.574,2.57456
0.0439817,-0.0399185,2.574,2.57469
0.0523362,-0.0399185,2.574,2.57484
0.0602428,-0.0396238,2.555,2.55602
0.0685357,-0.0396238,2.555,2.55623
0.0768286,-0.0396238,2.555,2.55646
0.0851215,-0.0396238,2.555,2.55672
0.0934144,-0.0396238,2.555,2.55701
0.100951,-0.0393291,2.536,2.53831
0.109182,-0.0393291,2.536,2.53865
0.117413,-0.0393291,2.536,2.53902
0.125645,-0.0393291,2.536,2.53942
0.133876,-0.0393291,2.536,2.53984
0.142107,-0.0393291,2.536,2.54028
0.151465,-0.0396238,2.555,2.55979
0.159758,-0.0396238,2.555,2.5603
0.16805,-0.0396238,2.555,2.56083
0.177655,-0.0399185,2.574,2.58043
0.186009,-0.0399185,2.574,2.58102
0.194364,-0.0399185,2.574,2.58164
0.202718,-0.0399185,2.574,2.58228
0.212631,-0.0402131,2.593,2.60201
0.219428,-0.0399185,2.574,2.58364
0.227782,-0.0399185,2.574,2.58437
0.236137,-0.0399185,2.574,2.58512
0.244491,-0.0399185,2.574,2.58589
0.252846,-0.0399185,2.574,2.5867
0.2612,-0.0399185,2.574,2.58753
0.269555,-0.0399185,2.574,2.58838
0.27791,-0.0399185,2.574,2.58927
0.286264,-0.0399185,2.574,2.59018
0.294619,-0.0399185,2.574,2.59111
0.300737,-0.0396238,2.555,2.57294
0.30903,-0.0396238,2.555,2.57393
0.317323,-0.0396238,2.555,2.57493
0.325615,-0.0396238,2.555,2.57597
0.331425,-0.0393291,2.536,2.55787
0.339657,-0.0393291,2.536,2.55895
0.347888,-0.0393291,2.536,2.56005
0.356119,-0.0393291,2.536,2.56118
0.36435,-0.0393291,2.536,2.56234
0.372581,-0.0393291,2.536,2.56352
nan,nan,nan,NaN
nan,nan,nan,NaN
nan,nan,nan,NaN
nan,nan,nan,NaN
nan,nan,nan,NaN
nan,nan,nan,NaN
nan,nan,nan,NaN
nan,nan,nan,NaN
nan,nan,nan,NaN
nan,nan,nan,NaN
nan,nan,nan,NaN
nan,nan,nan,NaN
nan,nan,nan,NaN
nan,nan,nan,NaN
nan,nan,nan,NaN
nan,nan,nan,NaN
nan,nan,nan,NaN
nan,nan,nan,NaN
nan,nan,nan,NaN
nan,nan,nan,NaN
nan,nan,nan,NaN
nan,nan,nan,NaN
nan,nan,nan,NaN
0.565859,-0.0390345,2.517,2.58012
0.574029,-0.0390345,2.517,2.58192
0.578035,-0.0387553,2.499,2.56527
0.586146,-0.0387553,2.499,2.56711
0.594257,-0.0387553,2.499,2.56898
0.602368,-0.0387553,2.499,2.57087
0.614877,-0.0390345,2.517,2.59131
0.627749,-0.0393291,2.536,2.61284
0.635981,-0.0393291,2.536,2.61483
0.644212,-0.0393291,2.536,2.61684
0.652443,-0.0393291,2.536,2.61888
0.660674,-0.0393291,2.536,2.62094
0.668906,-0.0393291,2.536,2.62303
0.68221,-0.0396238,2.555,2.64481
0.695638,-0.0399185,2.574,2.66664
0.703992,-0.0399185,2.574,2.66883
0.712347,-0.0399185,2.574,2.67105
0.726021,-0.0402131,2.593,2.69302
0.734438,-0.0402131,2.593,2.6953
0.742854,-0.0402131,2.593,2.69761
0.75127,-0.0402131,2.593,2.69994
0.759686,-0.0402131,2.593,2.70229
0.768102,-0.0402131,2.593,2.70467
0.776519,-0.0402131,2.593,2.70707
0.784935,-0.0402131,2.593,2.7095
0.793351,-0.0402131,2.593,2.71195
0.795892,-0.0399185,2.574,2.69453
0.804247,-0.0399185,2.574,2.69701
0.812602,-0.0399185,2.574,2.69952
0.814896,-0.0396238,2.555,2.6821
0.823189,-0.0396238,2.555,2.68463
0.831482,-0.0396238,2.555,2.68718
0.839775,-0.0396238,2.555,2.68976
0.841761,-0.0393291,2.536,2.67234
0.849993,-0.0393291,2.536,2.67494
0.858224,-0.0393291,2.536,2.67757
0.859963,-0.0390345,2.517,2.66014
0.868133,-0.0390345,2.517,2.66279
0.870036,-0.0387553,2.499,2.64641
0.871822,-0.0384762,2.481,2.63
0.879874,-0.0384762,2.481,2.63268
0.881485,-0.038197,2.463,2.61627
0.889479,-0.038197,2.463,2.61897
0.890915,-0.0379179,2.445,2.60254
0.898851,-0.0379179,2.445,2.60526
0.906787,-0.0379179,2.445,2.60801
0.914722,-0.0379179,2.445,2.61078
0.922658,-0.0379179,2.445,2.61357
0.924124,-0.0376542,2.428,2.59819
0.932004,-0.0376542,2.428,2.60101
0.939885,-0.0376542,2.428,2.60384
0.947766,-0.0376542,2.428,2.6067
0.955646,-0.0376542,2.428,2.60957
0.963527,-0.0376542,2.428,2.61247
0.971408,-0.0376542,2.428,2.61538
0.986145,-0.0379179,2.445,2.63665
0.994081,-0.0379179,2.445,2.63963
1.00202,-0.0379179,2.445,2.64263
1.00995,-0.0379179,2.445,2.64565
1.01789,-0.0379179,2.445,2.64869
1.02582,-0.0379179,2.445,2.65175
1.03376,-0.0379179,2.445,2.65483
1.04937,-0.038197,2.463,2.6775
1.06509,-0.0384762,2.481,2.70023
1.07314,-0.0384762,2.481,2.70342
1.08904,-0.0387553,2.499,2.72626
1.09715,-0.0387553,2.499,2.72951
1.10526,-0.0387553,2.499,2.73278
1.12139,-0.0390345,2.517,2.75578
1.13809,-0.0393291,2.536,2.77994
1.1549,-0.0396238,2.555,2.80418
1.1632,-0.0396238,2.555,2.8076
1.1802,-0.0399185,2.574,2.83195
1.2158,-0.0408334,2.633,2.90044
1.22435,-0.0408334,2.633,2.90403
1.24273,-0.0411591,2.654,2.93083
1.26124,-0.0414848,2.675,2.95771
1.26992,-0.0414848,2.675,2.96143
1.28864,-0.0418105,2.696,2.98844
1.3075,-0.0421361,2.717,3.01553
1.34829,-0.0431597,2.783,3.09271
1.35733,-0.0431597,2.783,3.09666
1.38894,-0.0438731,2.829,3.15188
1.40999,-0.0442453,2.853,3.18271
1.41925,-0.0442453,2.853,3.18682
1.45254,-0.0449897,2.901,3.24464
1.47456,-0.0453774,2.926,3.27687
1.49673,-0.0457651,2.951,3.30919
1.50631,-0.0457651,2.951,3.31353
1.5426,-0.0465715,3.003,3.37636
1.56631,-0.0469903,3.03,3.41122
1.57614,-0.0469903,3.03,3.41575
1.60011,-0.047409,3.057,3.45077
1.62425,-0.0478277,3.084,3.4859
1.63426,-0.0478277,3.084,3.49058
1.64427,-0.0478277,3.084,3.49528
1.6693,-0.0482619,3.112,3.53177
1.6794,-0.0482619,3.112,3.53656
1.70524,-0.0487117,3.141,3.57437
1.71544,-0.0487117,3.141,3.57924
1.72563,-0.0487117,3.141,3.58414
1.73583,-0.0487117,3.141,3.58906
1.7299,-0.0482619,3.112,3.56082
1.74,-0.0482619,3.112,3.56574
1.75011,-0.0482619,3.112,3.57068
1.74437,-0.0478277,3.084,3.54347
1.75438,-0.0478277,3.084,3.54841
1.76439,-0.0478277,3.084,3.55337
1.75886,-0.047409,3.057,3.52719
1.76879,-0.047409,3.057,3.53215
1.77871,-0.047409,3.057,3.53713
1.77283,-0.0469903,3.03,3.51085
1.78267,-0.0469903,3.03,3.51582
1.7925,-0.0469903,3.03,3.52082
1.80234,-0.0469903,3.03,3.52584
1.79602,-0.0465715,3.003,3.49941
1.80577,-0.0465715,3.003,3.50442
1.7998,-0.0461683,2.977,3.47907
1.80946,-0.0461683,2.977,3.48408
1.81912,-0.0461683,2.977,3.48911
1.81281,-0.0457651,2.951,3.46364
1.82239,-0.0457651,2.951,3.46866
1.83197,-0.0457651,2.951,3.4737
1.82595,-0.0453774,2.926,3.44929
1.81976,-0.0449897,2.901,3.42482
1.82918,-0.0449897,2.901,3.42983
1.80817,-0.0442453,2.853,3.37803
1.80215,-0.0438731,2.829,3.35453
1.78187,-0.0431597,2.783,3.30485
1.79091,-0.0431597,2.783,3.30973
1.77148,-0.0424773,2.739,3.26222
1.75242,-0.0418105,2.696,3.21577
1.76117,-0.0418105,2.696,3.22054
1.74235,-0.0411591,2.654,3.17509
1.72392,-0.0405233,2.613,3.1307
1.7324,-0.0405233,2.613,3.13538
1.71489,-0.0399185,2.574,3.09321
1.71053,-0.0396238,2.555,3.07498
1.71882,-0.0396238,2.555,3.0796
1.70143,-0.0390345,2.517,3.03837
1.68515,-0.0384762,2.481,2.99943
-1.88487,-0.0333199,2.717,3.30695
-1.87605,-0.0333199,2.717,3.30194
-1.86723,-0.0333199,2.717,3.29693
-1.84405,-0.0330624,2.696,3.2665
-1.8353,-0.0330624,2.696,3.26157
-1.84078,-0.0333199,2.717,3.28202
-1.83196,-0.0333199,2.717,3.27708
-1.82314,-0.0333199,2.717,3.27216
-1.82901,-0.0335897,2.739,3.29371
-1.82012,-0.0335897,2.739,3.28878
-1.81123,-0.0335897,2.739,3.28387
-1.81682,-0.0338595,2.761,3.30531
-1.82226,-0.0341293,2.783,3.32669
-1.81323,-0.0341293,2.783,3.32176
-1.81911,-0.0344114,2.806,3.34425
-1.82484,-0.0346934,2.829,3.36667
-1.81565,-0.0346934,2.829,3.3617
-1.8218,-0.0349878,2.853,3.38523
-1.82778,-0.0352821,2.877,3.40869
-1.81845,-0.0352821,2.877,3.40369
-1.80911,-0.0352821,2.877,3.39871
-1.81478,-0.0355764,2.901,3.42206
-1.82093,-0.035883,2.926,3.44653
-1.81143,-0.035883,2.926,3.44152
-1.81733,-0.0361896,2.951,3.46589
-1.80775,-0.0361896,2.951,3.46088
-1.79817,-0.0361896,2.951,3.45588
-1.78859,-0.0361896,2.951,3.45091
-1.77902,-0.0361896,2.951,3.44596
-1.76944,-0.0361896,2.951,3.44102
-1.75986,-0.0361896,2.951,3.4361
-1.73545,-0.035883,2.926,3.40214
-1.72596,-0.035883,2.926,3.39731
-1.71646,-0.035883,2.926,3.39249
-1.67838,-0.0352821,2.877,3.33096
-1.66904,-0.0352821,2.877,3.32627
-1.64585,-0.0349878,2.853,3.29388
-1.62283,-0.0346934,2.829,3.2616
-1.61365,-0.0346934,2.829,3.25704
-1.60446,-0.0346934,2.829,3.2525
nan,nan,nan,NaN
nan,nan,nan,NaN
-1.55128,-0.0341293,2.783,3.18633
-1.53005,-0.0338595,2.761,3.15679
-1.50897,-0.0335897,2.739,3.12734
-1.50008,-0.0335897,2.739,3.12306
-1.49119,-0.0335897,2.739,3.1188
-1.4942,-0.0338595,2.761,3.13957
-1.49708,-0.0341293,2.783,3.1603
-1.48804,-0.0341293,2.783,3.15603
-1.49124,-0.0344114,2.806,3.17783
-1.49428,-0.0346934,2.829,3.19958
-1.48509,-0.0346934,2.829,3.1953
-1.48843,-0.0349878,2.853,3.21812
-1.47917,-0.0349878,2.853,3.21384
-1.48228,-0.0352821,2.877,3.23659
-1.46065,-0.0349878,2.853,3.20536
-1.43918,-0.0346934,2.829,3.17422
-1.43,-0.0346934,2.829,3.17007
-1.39772,-0.0341293,2.783,3.11446
-1.35575,-0.0333199,2.717,3.03665
-1.34693,-0.0333199,2.717,3.03273
-1.30708,-0.0325473,2.654,2.95859
-1.2882,-0.0322898,2.633,2.93141
-1.27965,-0.0322898,2.633,2.92767
-1.25179,-0.0317992,2.593,2.87952
-1.22516,-0.0313332,2.555,2.83373
-1.19876,-0.0308672,2.517,2.78806
-1.1906,-0.0308672,2.517,2.78456
-1.16551,-0.0304257,2.481,2.7413
-1.14906,-0.030205,2.463,2.71802
-1.14107,-0.030205,2.463,2.71465
-1.13308,-0.030205,2.463,2.7113
-1.12508,-0.030205,2.463,2.70797
-1.11709,-0.030205,2.463,2.70466
-1.10099,-0.0299843,2.445,2.68162
-1.09305,-0.0299843,2.445,2.67837
-1.08512,-0.0299843,2.445,2.67514
-1.06969,-0.0297758,2.428,2.65336
-1.06181,-0.0297758,2.428,2.65019
-1.05393,-0.0297758,2.428,2.64704
-1.04605,-0.0297758,2.428,2.64391
-1.0309,-0.0295673,2.411,2.62232
-1.02307,-0.0295673,2.411,2.61925
-1.01525,-0.0295673,2.411,2.6162
-1.00742,-0.0295673,2.411,2.61318
-0.999596,-0.0295673,2.411,2.61017
-0.99177,-0.0295673,2.411,2.60718
-0.983945,-0.0295673,2.411,2.60422
-0.976119,-0.0295673,2.411,2.60127
-0.968294,-0.0295673,2.411,2.59834
-0.960468,-0.0295673,2.411,2.59544
-0.952643,-0.0295673,2.411,2.59255
-0.944817,-0.0295673,2.411,2.58969
-0.936992,-0.0295673,2.411,2.58684
-0.929166,-0.0295673,2.411,2.58402
-0.921341,-0.0295673,2.411,2.58121
-0.913515,-0.0295673,2.411,2.57843
-0.90569,-0.0295673,2.411,2.57567
-0.897864,-0.0295673,2.411,2.57293
-0.890039,-0.0295673,2.411,2.57021
-0.882213,-0.0295673,2.411,2.56751
-0.874388,-0.0295673,2.411,2.56483
-0.866562,-0.0295673,2.411,2.56217
-0.858737,-0.0295673,2.411,2.55954
-0.850911,-0.0295673,2.411,2.55692
-0.843086,-0.0295673,2.411,2.55433
-0.83526,-0.0295673,2.411,2.55176
-0.827435,-0.0295673,2.411,2.5492
-0.819609,-0.0295673,2.411,2.54668
-0.811784,-0.0295673,2.411,2.54417
-0.803958,-0.0295673,2.411,2.54168
-0.796133,-0.0295673,2.411,2.53922
-0.788307,-0.0295673,2.411,2.53677
-0.780482,-0.0295673,2.411,2.53435
-0.772656,-0.0295673,2.411,2.53195
-0.764831,-0.0295673,2.411,2.52958
-0.757005,-0.0295673,2.411,2.52722
-0.74918,-0.0295673,2.411,2.52489
-0.741354,-0.0295673,2.411,2.52258
-0.733529,-0.0295673,2.411,2.52029
-0.720586,-0.0293588,2.394,2.50027
-0.712816,-0.0293588,2.394,2.49804
-0.705046,-0.0293588,2.394,2.49583
-0.697275,-0.0293588,2.394,2.49365
-0.694401,-0.0295673,2.411,2.50918
-0.686576,-0.0295673,2.411,2.50703
-0.67875,-0.0295673,2.411,2.50489
-0.670925,-0.0295673,2.411,2.50279
-0.663099,-0.0295673,2.411,2.5007
-0.659894,-0.0297758,2.428,2.51625
-0.652013,-0.0297758,2.428,2.5142
-0.644133,-0.0297758,2.428,2.51217
-0.640707,-0.0299843,2.445,2.52773
-0.632771,-0.0299843,2.445,2.52573
-0.624835,-0.0299843,2.445,2.52376
-0.621441,-0.030205,2.463,2.54037
-0.613446,-0.030205,2.463,2.53842
-0.605452,-0.030205,2.463,2.5365
-0.597458,-0.030205,2.463,2.53461
-0.593771,-0.0304257,2.481,2.55125
-0.585719,-0.0304257,2.481,2.54938
-0.573475,-0.030205,2.463,2.52906
-0.565481,-0.030205,2.463,2.52726
-0.557486,-0.030205,2.463,2.52548
-0.553508,-0.0304257,2.481,2.54218
-0.545455,-0.0304257,2.481,2.54043
-0.537403,-0.0304257,2.481,2.53872
-0.52935,-0.0304257,2.481,2.53703
-0.521297,-0.0304257,2.481,2.53536
-0.513244,-0.0304257,2.481,2.53371
-0.505192,-0.0304257,2.481,2.5321
-0.497139,-0.0304257,2.481,2.5305
-0.489086,-0.0304257,2.481,2.52893
-0.481034,-0.0304257,2.481,2.52739
-0.469549,-0.030205,2.463,2.50754
-0.461555,-0.030205,2.463,2.50606
-0.453561,-0.030205,2.463,2.5046
-0.445566,-0.030205,2.463,2.50316
-0.437572,-0.030205,2.463,2.50175
-0.429578,-0.030205,2.463,2.50036
-0.421584,-0.030205,2.463,2.499
-0.416612,-0.0304257,2.481,2.51592
-0.408559,-0.0304257,2.481,2.5146
-0.400506,-0.0304257,2.481,2.5133
-0.392454,-0.0304257,2.481,2.51203
-0.384401,-0.0304257,2.481,2.51079
-0.376348,-0.0304257,2.481,2.50957
-0.368296,-0.0304257,2.481,2.50837
-0.360243,-0.0304257,2.481,2.5072
-0.35219,-0.0304257,2.481,2.50606
-0.344137,-0.0304257,2.481,2.50494
-0.338523,-0.0306465,2.499,2.52201
-0.330412,-0.0306465,2.499,2.52093
-0.322301,-0.0306465,2.499,2.51988
-0.31419,-0.0306465,2.499,2.51886
-0.308283,-0.0308672,2.517,2.536
-0.300114,-0.0308672,2.517,2.53502
-0.291944,-0.0308672,2.517,2.53406
-0.285917,-0.0311002,2.536,2.55226
-0.277685,-0.0311002,2.536,2.55135
-0.269454,-0.0311002,2.536,2.55046
-0.26318,-0.0313332,2.555,2.56871
-0.254887,-0.0313332,2.555,2.56787
-0.246594,-0.0313332,2.555,2.56706
-0.238301,-0.0313332,2.555,2.56628
-0.231719,-0.0315662,2.574,2.5846
-0.223364,-0.0315662,2.574,2.58387
-0.21501,-0.0315662,2.574,2.58316
-0.206655,-0.0315662,2.574,2.58248
-0.198301,-0.0315662,2.574,2.58182
-0.189946,-0.0315662,2.574,2.58119
-0.181592,-0.0315662,2.574,2.58059
-0.173237,-0.0315662,2.574,2.58002
-0.164882,-0.0315662,2.574,2.57947
-0.156528,-0.0315662,2.574,2.57895
-0.148173,-0.0315662,2.574,2.57845
-0.138787,-0.0313332,2.555,2.55896
-0.130494,-0.0313332,2.555,2.55852
-0.122201,-0.0313332,2.555,2.55811
-0.113908,-0.0313332,2.555,2.55773
-0.105615,-0.0313332,2.555,2.55737
-0.0980459,-0.0315662,2.574,2.57606
-0.0896914,-0.0315662,2.574,2.57576
-0.0813368,-0.0315662,2.574,2.57548
-0.0729822,-0.0315662,2.574,2.57523
-0.0646277,-0.0315662,2.574,2.575
-0.0562731,-0.0315662,2.574,2.57481
-0.0479185,-0.0315662,2.574,2.57464
-0.039564,-0.0315662,2.574,2.5745
-0.0312094,-0.0315662,2.574,2.57438
-0.0230235,-0.0317992,2.593,2.5933
-0.01472,-0.0320445,2.613,2.61324
-0.00623883,-0.0320445,2.613,2.6132
0.00222516,-0.0317992,2.593,2.5932
0.0105634,-0.0315662,2.574,2.57422
0.018918,-0.0315662,2.574,2.57426
0.0272725,-0.0315662,2.574,2.57434
0.0356271,-0.0315662,2.574,2.57444
0.0439817,-0.0315662,2.574,2.57457
0.0523362,-0.0315662,2.574,2.57473
0.0606908,-0.0315662,2.574,2.57491
0.0690454,-0.0315662,2.574,2.57512
0.0768286,-0.0313332,2.555,2.55635
0.0851215,-0.0313332,2.555,2.55661
0.0934144,-0.0313332,2.555,2.5569
0.100951,-0.0311002,2.536,2.5382
0.109182,-0.0311002,2.536,2.53854
0.117413,-0.0311002,2.536,2.53891
0.125645,-0.0311002,2.536,2.5393
0.133876,-0.0311002,2.536,2.53972
0.142107,-0.0311002,2.536,2.54017
0.151465,-0.0313332,2.555,2.55968
0.159758,-0.0313332,2.555,2.56018
0.16805,-0.0313332,2.555,2.56071
0.176343,-0.0313332,2.555,2.56127
0.184636,-0.0313332,2.555,2.56185
0.192929,-0.0313332,2.555,2.56247
0.202718,-0.0315662,2.574,2.58216
0.211073,-0.0315662,2.574,2.58283
0.219428,-0.0315662,2.574,2.58353
0.227782,-0.0315662,2.574,2.58425
0.236137,-0.0315662,2.574,2.585
0.244491,-0.0315662,2.574,2.58578
0.252846,-0.0315662,2.574,2.58658
0.2612,-0.0315662,2.574,2.58741
0.269555,-0.0315662,2.574,2.58827
0.27791,-0.0315662,2.574,2.58915
0.286264,-0.0315662,2.574,2.59006
0.294619,-0.0315662,2.574,2.591
0.300737,-0.0313332,2.555,2.57283
0.30903,-0.0313332,2.555,2.57381
0.317323,-0.0313332,2.555,2.57482
0.325615,-0.0313332,2.555,2.57586
0.331425,-0.0311002,2.536,2.55775
0.339657,-0.0311002,2.536,2.55883
0.347888,-0.0311002,2.536,2.55994
nan,nan,nan,NaN
nan,nan,nan,NaN
nan,nan,nan,NaN
nan,nan,nan,NaN
nan,nan,nan,NaN
nan,nan,nan,NaN
nan,nan,nan,NaN
nan,nan,nan,NaN
nan,nan,nan,NaN
nan,nan,nan,NaN
nan,nan,nan,NaN
nan,nan,nan,NaN
nan,nan,nan,NaN
nan,nan,nan,NaN
nan,nan,nan,NaN
nan,nan,nan,NaN
nan,nan,nan,NaN
nan,nan,nan,NaN
nan,nan,nan,NaN
nan,nan,nan,NaN
nan,nan,nan,NaN
nan,nan,nan,NaN
nan,nan,nan,NaN
nan,nan,nan,NaN
nan,nan,nan,NaN
nan,nan,nan,NaN
nan,nan,nan,NaN
nan,nan,nan,NaN
nan,nan,nan,NaN
nan,nan,nan,NaN
nan,nan,nan,NaN
nan,nan,nan,NaN
nan,nan,nan,NaN
nan,nan,nan,NaN
nan,nan,nan,NaN
0.644212,-0.0311002,2.536,2.61673
0.652443,-0.0311002,2.536,2.61877
0.660674,-0.0311002,2.536,2.62083
0.668906,-0.0311002,2.536,2.62292
0.68221,-0.0313332,2.555,2.6447
0.695638,-0.0315662,2.574,2.66653
0.703992,-0.0315662,2.574,2.66872
0.712347,-0.0315662,2.574,2.67094
0.726021,-0.0317992,2.593,2.69291
0.734438,-0.0317992,2.593,2.69519
0.742854,-0.0317992,2.593,2.6975
0.75127,-0.0317992,2.593,2.69983
0.759686,-0.0317992,2.593,2.70218
0.768102,-0.0317992,2.593,2.70456
0.776519,-0.0317992,2.593,2.70696
0.784935,-0.0317992,2.593,2.70939
0.787538,-0.0315662,2.574,2.69197
0.795892,-0.0315662,2.574,2.69442
0.804247,-0.0315662,2.574,2.6969
0.806603,-0.0313332,2.555,2.67948
0.814896,-0.0313332,2.555,2.68199
0.823189,-0.0313332,2.555,2.68452
0.831482,-0.0313332,2.555,2.68707
0.839775,-0.0313332,2.555,2.68965
0.841761,-0.0311002,2.536,2.67223
0.849993,-0.0311002,2.536,2.67484
0.851794,-0.0308672,2.517,2.6574
0.853814,-0.0306465,2.499,2.64101
0.861925,-0.0306465,2.499,2.64364
0.863769,-0.0304257,2.481,2.62724
0.865497,-0.030205,2.463,2.61082
0.873491,-0.030205,2.463,2.61348
0.881485,-0.030205,2.463,2.61616
0.882979,-0.0299843,2.445,2.59973
0.890915,-0.0299843,2.445,2.60243
0.898851,-0.0299843,2.445,2.60516
0.906787,-0.0299843,2.445,2.60791
0.908362,-0.0297758,2.428,2.59253
0.916243,-0.0297758,2.428,2.5953
0.924124,-0.0297758,2.428,2.59809
0.932004,-0.0297758,2.428,2.6009
0.939885,-0.0297758,2.428,2.60374
0.947766,-0.0297758,2.428,2.60659
0.955646,-0.0297758,2.428,2.60947
0.963527,-0.0297758,2.428,2.61237
0.971408,-0.0297758,2.428,2.61528
0.979289,-0.0297758,2.428,2.61822
0.994081,-0.0299843,2.445,2.63953
1.00202,-0.0299843,2.445,2.64253
1.00293,-0.0297758,2.428,2.62715
1.01081,-0.0297758,2.428,2.63017
1.01869,-0.0297758,2.428,2.63321
1.02657,-0.0297758,2.428,2.63627
1.0417,-0.0299843,2.445,2.65783
1.05736,-0.030205,2.463,2.68054
1.06535,-0.030205,2.463,2.6837
1.07335,-0.030205,2.463,2.68689
1.08924,-0.0304257,2.481,2.70975
1.0973,-0.0304257,2.481,2.713
1.11337,-0.0306465,2.499,2.73597
1.12956,-0.0308672,2.517,2.75901
1.14632,-0.0311002,2.536,2.78322
1.15455,-0.0311002,2.536,2.78662
1.17149,-0.0313332,2.555,2.81094
1.20657,-0.0320445,2.613,2.8783
1.21505,-0.0320445,2.613,2.88186
1.23289,-0.0322898,2.633,2.90753
1.25134,-0.0325473,2.654,2.93439
1.25995,-0.0325473,2.654,2.93807
1.27861,-0.0328049,2.675,2.96505
1.3075,-0.0333199,2.717,3.01542
1.33764,-0.0338595,2.761,3.06815
1.3466,-0.0338595,2.761,3.07207
1.37765,-0.0344114,2.806,3.12614
1.40999,-0.0349878,2.853,3.18259
1.41925,-0.0349878,2.853,3.18671
1.45254,-0.0355764,2.901,3.24453
1.47456,-0.035883,2.926,3.27675
1.49673,-0.0361896,2.951,3.30907
1.50631,-0.0361896,2.951,3.31341
1.5426,-0.0368273,3.003,3.37624
1.56631,-0.0371584,3.03,3.4111
1.57614,-0.0371584,3.03,3.41563
1.60011,-0.0374895,3.057,3.45065
1.62425,-0.0378206,3.084,3.48578
1.63426,-0.0378206,3.084,3.49046
1.64427,-0.0378206,3.084,3.49516
1.6693,-0.038164,3.112,3.53165
1.6794,-0.038164,3.112,3.53644
1.6895,-0.038164,3.112,3.54124
1.71544,-0.0385196,3.141,3.57912
1.72563,-0.0385196,3.141,3.58402
1.7198,-0.038164,3.112,3.5558
1.7299,-0.038164,3.112,3.5607
1.74,-0.038164,3.112,3.56562
1.73436,-0.0378206,3.084,3.53843
1.74437,-0.0378206,3.084,3.54335
1.75438,-0.0378206,3.084,3.54829
1.76439,-0.0378206,3.084,3.55325
1.75886,-0.0374895,3.057,3.52708
1.76879,-0.0374895,3.057,3.53203
1.763,-0.0371584,3.03,3.50577
1.77283,-0.0371584,3.03,3.51073
1.78267,-0.0371584,3.03,3.51571
1.7925,-0.0371584,3.03,3.5207
1.80234,-0.0371584,3.03,3.52572
1.79602,-0.0368273,3.003,3.4993
1.80577,-0.0368273,3.003,3.50431
1.7998,-0.0365084,2.977,3.47896
1.80946,-0.0365084,2.977,3.48397
1.81912,-0.0365084,2.977,3.48899
1.81281,-0.0361896,2.951,3.46353
1.82239,-0.0361896,2.951,3.46855
1.83197,-0.0361896,2.951,3.47359
1.82595,-0.035883,2.926,3.44918
1.81976,-0.0355764,2.901,3.42471
1.82918,-0.0355764,2.901,3.42972
1.80817,-0.0349878,2.853,3.37792
1.80215,-0.0346934,2.829,3.35443
1.78187,-0.0341293,2.783,3.30474
1.79091,-0.0341293,2.783,3.30962
1.77148,-0.0335897,2.739,3.26212
1.75242,-0.0330624,2.696,3.21566
1.76117,-0.0330624,2.696,3.22044
1.74235,-0.0325473,2.654,3.17499
1.72392,-0.0320445,2.613,3.1306
1.7324,-0.0320445,2.613,3.13528
1.71489,-0.0315662,2.574,3.09311
1.69781,-0.0311002,2.536,3.05202
1.70604,-0.0311002,2.536,3.05661
1.70143,-0.0308672,2.517,3.03827
1.68515,-0.0304257,2.481,2.99933
-1.88487,-0.0245037,2.717,3.30688
-1.87605,-0.0245037,2.717,3.30186
-1.86723,-0.0245037,2.717,3.29686
-1.84405,-0.0243143,2.696,3.26643
-1.8353,-0.0243143,2.696,3.26149
-1.84078,-0.0245037,2.717,3.28194
-1.83196,-0.0245037,2.717,3.27701
-1.82314,-0.0245037,2.717,3.27208
-1.82901,-0.0247021,2.739,3.29363
-1.82012,-0.0247021,2.739,3.2887
-1.81123,-0.0247021,2.739,3.28379
-1.81682,-0.0249005,2.761,3.30523
-1.82226,-0.0250989,2.783,3.32661
-1.81323,-0.0250989,2.783,3.32167
-1.81911,-0.0253064,2.806,3.34416
-1.82484,-0.0255138,2.829,3.36659
-1.81565,-0.0255138,2.829,3.36162
-1.8218,-0.0257302,2.853,3.38515
-1.82778,-0.0259467,2.877,3.40861
-1.81845,-0.0259467,2.877,3.40361
-1.80911,-0.0259467,2.877,3.39863
-1.81478,-0.0261631,2.901,3.42198
-1.82093,-0.0263886,2.926,3.44644
-1.81143,-0.0263886,2.926,3.44143
