-0.432229,0.0436036,2.574,2.6104
-0.423874,0.0436036,2.574,2.60903
-0.415519,0.0436036,2.574,2.60769
-0.404159,0.0432818,2.555,2.58713
-0.395866,0.0432818,2.555,2.58585
-0.387574,0.0432818,2.555,2.58459
-0.379281,0.0432818,2.555,2.58336
-0.370988,0.0432818,2.555,2.58216
-0.362695,0.0432818,2.555,2.58098
-0.354402,0.0432818,2.555,2.57983
-0.346109,0.0432818,2.555,2.5787
-0.337816,0.0432818,2.555,2.5776
-0.327073,0.0429599,2.536,2.55737
-0.318842,0.0429599,2.536,2.55633
-0.31061,0.0429599,2.536,2.55531
-0.302379,0.0429599,2.536,2.55432
-0.296352,0.0432818,2.555,2.57249
-0.288059,0.0432818,2.555,2.57155
-0.279766,0.0432818,2.555,2.57064
-0.269454,0.0429599,2.536,2.55064
-0.261223,0.0429599,2.536,2.54978
-0.252992,0.0429599,2.536,2.54895
-0.244761,0.0429599,2.536,2.54815
-0.236529,0.0429599,2.536,2.54737
-0.228298,0.0429599,2.536,2.54662
-0.220067,0.0429599,2.536,2.54589
-0.211836,0.0429599,2.536,2.54519
-0.203604,0.0429599,2.536,2.54452
-0.195373,0.0429599,2.536,2.54388
-0.187142,0.0429599,2.536,2.54326
-0.178911,0.0429599,2.536,2.54267
-0.170679,0.0429599,2.536,2.5421
-0.162448,0.0429599,2.536,2.54156
-0.154217,0.0429599,2.536,2.54105
-0.145986,0.0429599,2.536,2.54056
-0.137755,0.0429599,2.536,2.5401
-0.129523,0.0429599,2.536,2.53967
-0.122201,0.0432818,2.555,2.55829
-0.113908,0.0432818,2.555,2.5579
-0.105615,0.0432818,2.555,2.55755
-0.0980459,0.0436036,2.574,2.57624
-0.0896914,0.0436036,2.574,2.57593
-0.0813368,0.0436036,2.574,2.57565
-0.0729822,0.0436036,2.574,2.5754
-0.0646277,0.0436036,2.574,2.57518
-0.0562731,0.0436036,2.574,2.57498
-0.0479185,0.0436036,2.574,2.57482
-0.039564,0.0436036,2.574,2.57467
-0.0312094,0.0436036,2.574,2.57456
-0.0228548,0.0436036,2.574,2.57447
-0.0145003,0.0436036,2.574,2.57441
-0.00614571,0.0436036,2.574,2.57438
0.00220886,0.0436036,2.574,2.57437
0.0105634,0.0436036,2.574,2.57439
0.018918,0.0436036,2.574,2.57444
0.0270712,0.0432818,2.555,2.55551
0.0353641,0.0432818,2.555,2.55561
0.043657,0.0432818,2.555,2.55574
0.0519499,0.0432818,2.555,2.55589
0.0602428,0.0432818,2.555,2.55608
0.0685357,0.0432818,2.555,2.55629
0.0768286,0.0432818,2.555,2.55652
0.0844885,0.0429599,2.536,2.53777
0.0927197,0.0429599,2.536,2.53806
0.100951,0.0429599,2.536,2.53837
0.109182,0.0429599,2.536,2.53871
0.118293,0.0432818,2.555,2.5581
0.126586,0.0432818,2.555,2.5585
0.133876,0.0429599,2.536,2.53989
0.142107,0.0429599,2.536,2.54034
0.150338,0.0429599,2.536,2.54082
0.15857,0.0429599,2.536,2.54132
0.166801,0.0429599,2.536,2.54184
0.175032,0.0429599,2.536,2.5424
0.183263,0.0429599,2.536,2.54298
0.191494,0.0429599,2.536,2.54358
0.199726,0.0429599,2.536,2.54422
0.207957,0.0429599,2.536,2.54487
0.216188,0.0429599,2.536,2.54556
0.224419,0.0429599,2.536,2.54627
0.232651,0.0429599,2.536,2.54701
0.240882,0.0429599,2.536,2.54778
0.249113,0.0429599,2.536,2.54857
nan,nan,nan,NaN
0.265575,0.0429599,2.536,2.55023
0.273807,0.0429599,2.536,2.5511
nan,nan,nan,NaN
nan,nan,nan,NaN
nan,nan,nan,NaN
nan,nan,nan,NaN
nan,nan,nan,NaN
nan,nan,nan,NaN
nan,nan,nan,NaN
nan,nan,nan,NaN
nan,nan,nan,NaN
nan,nan,nan,NaN
nan,nan,nan,NaN
nan,nan,nan,NaN
nan,nan,nan,NaN
nan,nan,nan,NaN
nan,nan,nan,NaN
nan,nan,nan,NaN
nan,nan,nan,NaN
nan,nan,nan,NaN
nan,nan,nan,NaN
nan,nan,nan,NaN
nan,nan,nan,NaN
nan,nan,nan,NaN
nan,nan,nan,NaN
nan,nan,nan,NaN
nan,nan,nan,NaN
nan,nan,nan,NaN
nan,nan,nan,NaN
nan,nan,nan,NaN
nan,nan,nan,NaN
0.513146,0.0423331,2.499,2.55149
0.521257,0.0423331,2.499,2.55314
0.529368,0.0423331,2.499,2.5548
0.537479,0.0423331,2.499,2.5565
0.54559,0.0423331,2.499,2.55821
0.553702,0.0423331,2.499,2.55996
0.557766,0.0420282,2.481,2.54327
0.565819,0.0420282,2.481,2.54505
0.565544,0.0414184,2.445,2.5099
0.57348,0.0414184,2.445,2.5117
nan,nan,nan,NaN
nan,nan,nan,NaN
nan,nan,nan,NaN
nan,nan,nan,NaN
nan,nan,nan,NaN
nan,nan,nan,NaN
nan,nan,nan,NaN
nan,nan,nan,NaN
0.644903,0.0414184,2.445,2.52896
0.652839,0.0414184,2.445,2.531
nan,nan,nan,NaN
0.688403,0.0426381,2.517,2.60979
0.696572,0.0426381,2.517,2.61196
0.710062,0.0429599,2.536,2.63388
0.718293,0.0429599,2.536,2.63611
0.726524,0.0429599,2.536,2.63837
0.734755,0.0429599,2.536,2.64065
0.742987,0.0429599,2.536,2.64295
0.751218,0.0429599,2.536,2.64527
0.765139,0.0432818,2.555,2.66746
0.773432,0.0432818,2.555,2.66985
0.781725,0.0432818,2.555,2.67226
0.790018,0.0432818,2.555,2.6747
0.792374,0.0429599,2.536,2.65725
0.800605,0.0429599,2.536,2.65972
0.808836,0.0429599,2.536,2.66221
0.817068,0.0429599,2.536,2.66472
0.825299,0.0429599,2.536,2.66726
0.827285,0.0426381,2.517,2.64981
0.835455,0.0426381,2.517,2.65237
0.843624,0.0426381,2.517,2.65496
0.851794,0.0426381,2.517,2.65757
0.853814,0.0423331,2.499,2.64117
0.861925,0.0423331,2.499,2.64381
0.863769,0.0420282,2.481,2.6274
0.871822,0.0420282,2.481,2.63006
0.879874,0.0420282,2.481,2.63274
0.881485,0.0417233,2.463,2.61632
0.889479,0.0417233,2.463,2.61902
0.897474,0.0417233,2.463,2.62175
0.905468,0.0417233,2.463,2.6245
0.906787,0.0414184,2.445,2.60807
0.914722,0.0414184,2.445,2.61083
0.922658,0.0414184,2.445,2.61363
0.924124,0.0411304,2.428,2.59825
0.932004,0.0411304,2.428,2.60106
0.939885,0.0411304,2.428,2.60389
0.947766,0.0411304,2.428,2.60675
0.955646,0.0411304,2.428,2.60962
0.963527,0.0411304,2.428,2.61252
0.971408,0.0411304,2.428,2.61544
0.979289,0.0411304,2.428,2.61837
0.994081,0.0414184,2.445,2.63969
1.00202,0.0414184,2.445,2.64268
1.00995,0.0414184,2.445,2.6457
1.02538,0.0417233,2.463,2.66824
1.03338,0.0417233,2.463,2.67132
1.04137,0.0417233,2.463,2.67443
1.05703,0.0420282,2.481,2.69712
1.07281,0.0423331,2.499,2.71988
1.08093,0.0423331,2.499,2.72309
1.09688,0.0426381,2.517,2.74595
1.11339,0.0429599,2.536,2.76998
1.13003,0.0432818,2.555,2.79408
1.13832,0.0432818,2.555,2.79744
1.15514,0.0436036,2.574,2.82165
1.16349,0.0436036,2.574,2.82508
1.17185,0.0436036,2.574,2.82853
1.18891,0.0439255,2.593,2.85291
1.20657,0.0442643,2.613,2.87846
1.21505,0.0442643,2.613,2.88203
1.22353,0.0442643,2.613,2.88561
1.24144,0.0446031,2.633,2.91133
1.24998,0.0446031,2.633,2.91499
1.25853,0.0446031,2.633,2.91866
1.27718,0.0449588,2.654,2.94566
1.29597,0.0453146,2.675,2.97275
1.30465,0.0453146,2.675,2.97654
1.31334,0.0453146,2.675,2.98036
1.3324,0.0456703,2.696,3.00762
1.34115,0.0456703,2.696,3.01151
1.36041,0.0460261,2.717,3.0389
1.38032,0.0463987,2.739,3.0675
1.38921,0.0463987,2.739,3.07151
1.42056,0.0471441,2.783,3.12495
1.45322,0.0479233,2.829,3.18078
1.48722,0.0487365,2.877,3.23903
1.49655,0.0487365,2.877,3.24333
1.51845,0.049143,2.901,3.27474
1.5542,0.04999,2.951,3.33563
1.56378,0.04999,2.951,3.34011
1.60108,0.0508709,3.003,3.40354
1.62531,0.0513283,3.03,3.43878
1.66429,0.0522431,3.084,3.5048
1.6743,0.0522431,3.084,3.50957
1.6996,0.0527174,3.112,3.54626
1.72563,0.0532086,3.141,3.58421
1.73583,0.0532086,3.141,3.58912
1.74602,0.0532086,3.141,3.59407
1.75622,0.0532086,3.141,3.59903
1.76641,0.0532086,3.141,3.60402
1.77661,0.0532086,3.141,3.60902
1.7868,0.0532086,3.141,3.61405
1.797,0.0532086,3.141,3.6191
1.80719,0.0532086,3.141,3.62418
1.81739,0.0532086,3.141,3.62927
1.82758,0.0532086,3.141,3.63439
1.83778,0.0532086,3.141,3.63952
1.83091,0.0527174,3.112,3.61103
1.84101,0.0527174,3.112,3.61617
1.83446,0.0522431,3.084,3.58874
1.84447,0.0522431,3.084,3.59386
1.85448,0.0522431,3.084,3.59901
1.83184,0.0513283,3.03,3.54107
1.84168,0.0513283,3.03,3.54617
1.85151,0.0513283,3.03,3.55129
1.84476,0.0508709,3.003,3.52473
1.83845,0.0504305,2.977,3.49928
1.84811,0.0504305,2.977,3.50437
1.82595,0.0495665,2.926,3.44935
1.80471,0.0487365,2.877,3.39654
1.79891,0.0483299,2.853,3.37313
1.79296,0.0479233,2.829,3.34966
1.78749,0.0475337,2.806,3.32732
1.76779,0.0467714,2.761,3.27878
1.77675,0.0467714,2.761,3.28362
1.75725,0.0460261,2.717,3.23607
1.73877,0.0453146,2.675,3.19077
1.74746,0.0453146,2.675,3.19551
1.72856,0.0446031,2.633,3.15002
1.69819,0.0436036,2.574,3.08403
1.70654,0.0436036,2.574,3.08863
1.70224,0.0432818,2.555,3.07042
1.68509,0.0426381,2.517,3.0293
1.69326,0.0426381,2.517,3.03385
1.68926,0.0423331,2.499,3.01669
1.68515,0.0420282,2.481,2.99947
-1.96257,0.057103,2.829,3.44357
-1.93751,0.0566387,2.806,3.41039
-1.9284,0.0566387,2.806,3.40523
-1.90356,0.0561745,2.783,3.37221
-1.87955,0.0557304,2.761,3.3405
-1.87059,0.0557304,2.761,3.33547
-1.86163,0.0557304,2.761,3.33045
-1.8379,0.0552864,2.739,3.29895
-1.82901,0.0552864,2.739,3.294
-1.8055,0.0548423,2.717,3.26266
-1.7828,0.0544184,2.696,3.23261
-1.77405,0.0544184,2.696,3.22779
-1.7653,0.0544184,2.696,3.22299
-1.74286,0.0539945,2.675,3.19314
-1.72057,0.0535706,2.654,3.16337
-1.71195,0.0535706,2.654,3.1587
-1.70334,0.0535706,2.654,3.15404
-1.69472,0.0535706,2.654,3.14939
-1.68611,0.0535706,2.654,3.14477
-1.6775,0.0535706,2.654,3.14016
-1.66888,0.0535706,2.654,3.13556
-1.66027,0.0535706,2.654,3.13099
-1.66472,0.0539945,2.675,3.15117
-1.65604,0.0539945,2.675,3.14659
-1.66029,0.0544184,2.696,3.16669
-1.65154,0.0544184,2.696,3.16211
-1.64279,0.0544184,2.696,3.15755
-1.64677,0.0548423,2.717,3.17757
-1.65121,0.0552864,2.739,3.1987
-1.64232,0.0552864,2.739,3.19412
-1.63343,0.0552864,2.739,3.18956
-1.61149,0.0548423,2.717,3.15943
-1.60267,0.0548423,2.717,3.15494
-1.56922,0.0539945,2.675,3.10177
-1.54828,0.0535706,2.654,3.07307
-1.53967,0.0535706,2.654,3.06874
-1.5074,0.0527431,2.613,3.01709
-1.48745,0.0523394,2.593,2.9898
-1.47903,0.0523394,2.593,2.98562
-1.45984,0.0519558,2.574,2.95961
-1.43006,0.0511888,2.536,2.91187
-1.42183,0.0511888,2.536,2.90784
-1.403,0.0508053,2.517,2.88206
-1.39483,0.0508053,2.517,2.8781
-1.38666,0.0508053,2.517,2.87415
-1.3785,0.0508053,2.517,2.87021
-1.36053,0.050442,2.499,2.8458
-1.35241,0.050442,2.499,2.84193
-1.35399,0.0508053,2.517,2.85852
-1.33619,0.050442,2.499,2.83425
-1.32808,0.050442,2.499,2.83043
-1.31997,0.050442,2.499,2.82664
-1.30241,0.0500787,2.481,2.80252
-1.29436,0.0500787,2.481,2.79879
-1.29564,0.050442,2.499,2.81535
-1.28753,0.050442,2.499,2.81163
-1.2702,0.0500787,2.481,2.7877
-1.25299,0.0497153,2.463,2.76384
-1.245,0.0497153,2.463,2.76023
-1.237,0.0497153,2.463,2.75663
-1.21154,0.0490089,2.428,2.71393
-1.20366,0.0490089,2.428,2.71042
-1.19578,0.0490089,2.428,2.70693
-1.19622,0.049352,2.445,2.72239
-1.18828,0.049352,2.445,2.71891
-1.18035,0.049352,2.445,2.71545
-1.17241,0.049352,2.445,2.71201
-1.15638,0.0490089,2.428,2.68976
-1.1485,0.0490089,2.428,2.68638
-1.14062,0.0490089,2.428,2.68302
-1.14067,0.049352,2.445,2.69844
-1.13273,0.049352,2.445,2.6951
-1.11697,0.0490089,2.428,2.67305
-1.10909,0.0490089,2.428,2.66977
-1.10121,0.0490089,2.428,2.66651
-1.09333,0.0490089,2.428,2.66326
-1.07785,0.0486657,2.411,2.64141
-1.07003,0.0486657,2.411,2.63823
-1.0622,0.0486657,2.411,2.63506
-1.05437,0.0486657,2.411,2.63192
-1.03917,0.0483226,2.394,2.61026
-1.0314,0.0483226,2.394,2.60717
-1.02363,0.0483226,2.394,2.60411
-1.01586,0.0483226,2.394,2.60107
-1.00809,0.0483226,2.394,2.59804
-0.993215,0.0479794,2.377,2.57661
-0.9855,0.0479794,2.377,2.57364
-0.977785,0.0479794,2.377,2.5707
-0.970069,0.0479794,2.377,2.56777
-0.962354,0.0479794,2.377,2.56487
-0.954639,0.0479794,2.377,2.56199
-0.946924,0.0479794,2.377,2.55912
-0.939209,0.0479794,2.377,2.55628
-0.938156,0.0483226,2.394,2.57171
-0.930385,0.0483226,2.394,2.56889
-0.922615,0.0483226,2.394,2.56608
-0.914845,0.0483226,2.394,2.5633
-0.907074,0.0483226,2.394,2.56054
-0.899304,0.0483226,2.394,2.5578
-0.891534,0.0483226,2.394,2.55507
-0.883763,0.0483226,2.394,2.55237
-0.882213,0.0486657,2.411,2.5678
-0.874388,0.0486657,2.411,2.56512
-0.866562,0.0486657,2.411,2.56246
-0.864792,0.0490089,2.428,2.57788
-0.856911,0.0490089,2.428,2.57524
-0.84903,0.0490089,2.428,2.57263
-0.84115,0.0490089,2.428,2.57004
-0.833269,0.0490089,2.428,2.56747
-0.825388,0.0490089,2.428,2.56493
-0.817508,0.0490089,2.428,2.5624
-0.809627,0.0490089,2.428,2.5599
-0.801746,0.0490089,2.428,2.55742
-0.799424,0.049352,2.445,2.57285
-0.791488,0.049352,2.445,2.57039
-0.783552,0.049352,2.445,2.56796
-0.775616,0.049352,2.445,2.56555
-0.767681,0.049352,2.445,2.56316
-0.759745,0.049352,2.445,2.5608
-0.751809,0.049352,2.445,2.55845
-0.749349,0.0497153,2.463,2.57495
-0.741355,0.0497153,2.463,2.57263
-0.728001,0.049352,2.445,2.55156
-0.720065,0.049352,2.445,2.5493
-0.712129,0.049352,2.445,2.54707
-0.704194,0.049352,2.445,2.54487
-0.696258,0.049352,2.445,2.54268
-0.688322,0.049352,2.445,2.54052
-0.680386,0.049352,2.445,2.53838
-0.67245,0.049352,2.445,2.53627
-0.664514,0.049352,2.445,2.53417
-0.656578,0.049352,2.445,2.53211
-0.648643,0.049352,2.445,2.53006
-0.640707,0.049352,2.445,2.52804
-0.632771,0.049352,2.445,2.52604
-0.624835,0.049352,2.445,2.52406
-0.621441,0.0497153,2.463,2.54067
-0.613446,0.0497153,2.463,2.53873
-0.605452,0.0497153,2.463,2.53681
-0.597458,0.0497153,2.463,2.53492
-0.593771,0.0500787,2.481,2.55156
-0.585719,0.0500787,2.481,2.54969
-0.577666,0.0500787,2.481,2.54786
-0.569613,0.0500787,2.481,2.54604
-0.561561,0.0500787,2.481,2.54425
-0.557524,0.050442,2.499,2.56093
-0.549413,0.050442,2.499,2.55918
-0.541301,0.050442,2.499,2.55745
-0.53319,0.050442,2.499,2.55575
-0.528861,0.0508053,2.517,2.57246
-0.520692,0.0508053,2.517,2.5708
-0.512522,0.0508053,2.517,2.56915
-0.50816,0.0511888,2.536,2.58692
-0.499929,0.0511888,2.536,2.58531
-0.491697,0.0511888,2.536,2.58373
-0.487088,0.0515723,2.555,2.60153
-0.478795,0.0515723,2.555,2.59999
-0.470502,0.0515723,2.555,2.59847
-0.46221,0.0515723,2.555,2.59698
-0.453917,0.0515723,2.555,2.59552
-0.448938,0.0519558,2.574,2.61337
-0.440583,0.0519558,2.574,2.61195
-0.432229,0.0519558,2.574,2.61055
-0.423874,0.0519558,2.574,2.60918
-0.415519,0.0519558,2.574,2.60784
-0.404159,0.0515723,2.555,2.58728
-0.395866,0.0515723,2.555,2.586
-0.387574,0.0515723,2.555,2.58474
-0.379281,0.0515723,2.555,2.58351
-0.370988,0.0515723,2.555,2.58231
-0.362695,0.0515723,2.555,2.58113
-0.354402,0.0515723,2.555,2.57998
-0.346109,0.0515723,2.555,2.57885
-0.337816,0.0515723,2.555,2.57775
-0.329523,0.0515723,2.555,2.57668
-0.32123,0.0515723,2.555,2.57563
-0.312937,0.0515723,2.555,2.57461
-0.304645,0.0515723,2.555,2.57361
-0.296352,0.0515723,2.555,2.57265
-0.288059,0.0515723,2.555,2.5717
-0.279766,0.0515723,2.555,2.57079
-0.271473,0.0515723,2.555,2.5699
-0.26318,0.0515723,2.555,2.56904
-0.254887,0.0515723,2.555,2.5682
-0.246594,0.0515723,2.555,2.56739
-0.236529,0.0511888,2.536,2.54752
-0.228298,0.0511888,2.536,2.54677
-0.220067,0.0511888,2.536,2.54605
-0.211836,0.0511888,2.536,2.54535
-0.203604,0.0511888,2.536,2.54468
-0.195373,0.0511888,2.536,2.54403
-0.187142,0.0511888,2.536,2.54341
-0.178911,0.0511888,2.536,2.54282
-0.170679,0.0511888,2.536,2.54225
-0.162448,0.0511888,2.536,2.54171
-0.154217,0.0511888,2.536,2.5412
-0.145986,0.0511888,2.536,2.54071
-0.137755,0.0511888,2.536,2.54025
-0.129523,0.0511888,2.536,2.53982
-0.121292,0.0511888,2.536,2.53941
-0.113061,0.0511888,2.536,2.53904
-0.105615,0.0515723,2.555,2.5577
-0.0973222,0.0515723,2.555,2.55737
-0.0896914,0.0519558,2.574,2.57609
-0.0807364,0.0515723,2.555,2.5568
-0.0724435,0.0515723,2.555,2.55655
-0.0646277,0.0519558,2.574,2.57534
-0.0562731,0.0519558,2.574,2.57514
-0.0479185,0.0519558,2.574,2.57497
-0.039564,0.0519558,2.574,2.57483
-0.0312094,0.0519558,2.574,2.57471
-0.0228548,0.0519558,2.574,2.57463
-0.0145003,0.0519558,2.574,2.57457
-0.00614571,0.0519558,2.574,2.57453
0.00219255,0.0515723,2.555,2.55552
0.0104854,0.0515723,2.555,2.55554
0.0187783,0.0515723,2.555,2.55559
0.0270712,0.0515723,2.555,2.55566
0.0351011,0.0511888,2.536,2.53676
0.0433324,0.0511888,2.536,2.53689
0.0515636,0.0511888,2.536,2.53704
0.0597948,0.0511888,2.536,2.53722
0.0680261,0.0511888,2.536,2.53743
0.0762573,0.0511888,2.536,2.53766
0.0844885,0.0511888,2.536,2.53792
0.0927197,0.0511888,2.536,2.53821
0.100951,0.0511888,2.536,2.53852
0.109182,0.0511888,2.536,2.53887
0.117413,0.0511888,2.536,2.53923
0.126586,0.0515723,2.555,2.55865
0.133876,0.0511888,2.536,2.54005
0.142107,0.0511888,2.536,2.54049
0.150338,0.0511888,2.536,2.54097
0.15857,0.0511888,2.536,2.54147
0.166801,0.0511888,2.536,2.542
0.176343,0.0515723,2.555,2.5616
0.184636,0.0515723,2.555,2.56218
0.191494,0.0511888,2.536,2.54373
0.199726,0.0511888,2.536,2.54437
0.207957,0.0511888,2.536,2.54503
0.216188,0.0511888,2.536,2.54571
0.224419,0.0511888,2.536,2.54642
0.232651,0.0511888,2.536,2.54716
0.240882,0.0511888,2.536,2.54793
0.249113,0.0511888,2.536,2.54872
nan,nan,nan,NaN
0.265575,0.0511888,2.536,2.55038
0.273807,0.0511888,2.536,2.55125
nan,nan,nan,NaN
nan,nan,nan,NaN
nan,nan,nan,NaN
nan,nan,nan,NaN
nan,nan,nan,NaN
nan,nan,nan,NaN
nan,nan,nan,NaN
nan,nan,nan,NaN
nan,nan,nan,NaN
nan,nan,nan,NaN
nan,nan,nan,NaN
nan,nan,nan,NaN
nan,nan,nan,NaN
nan,nan,nan,NaN
nan,nan,nan,NaN
nan,nan,nan,NaN
nan,nan,nan,NaN
nan,nan,nan,NaN
nan,nan,nan,NaN
nan,nan,nan,NaN
nan,nan,nan,NaN
nan,nan,nan,NaN
nan,nan,nan,NaN
nan,nan,nan,NaN
nan,nan,nan,NaN
nan,nan,nan,NaN
nan,nan,nan,NaN
nan,nan,nan,NaN
nan,nan,nan,NaN
0.513146,0.050442,2.499,2.55164
0.521257,0.050442,2.499,2.55328
0.529368,0.050442,2.499,2.55495
0.537479,0.050442,2.499,2.55664
0.54559,0.050442,2.499,2.55836
0.553702,0.050442,2.499,2.5601
0.557766,0.0500787,2.481,2.54342
0.565819,0.0500787,2.481,2.5452
0.565544,0.049352,2.445,2.51004
0.57348,0.049352,2.445,2.51184
nan,nan,nan,NaN
nan,nan,nan,NaN
nan,nan,nan,NaN
nan,nan,nan,NaN
nan,nan,nan,NaN
nan,nan,nan,NaN
nan,nan,nan,NaN
nan,nan,nan,NaN
0.644903,0.049352,2.445,2.5291
0.652839,0.049352,2.445,2.53114
nan,nan,nan,NaN
0.68348,0.050442,2.499,2.59127
0.691591,0.050442,2.499,2.59342
0.704742,0.0508053,2.517,2.61429
0.712911,0.0508053,2.517,2.61651
0.721081,0.0508053,2.517,2.61875
0.734755,0.0511888,2.536,2.64079
0.742987,0.0511888,2.536,2.64309
0.751218,0.0511888,2.536,2.64542
0.759449,0.0511888,2.536,2.64777
0.76768,0.0511888,2.536,2.65014
0.775912,0.0511888,2.536,2.65254
0.790018,0.0515723,2.555,2.67485
0.792374,0.0511888,2.536,2.6574
0.800605,0.0511888,2.536,2.65987
0.808836,0.0511888,2.536,2.66235
0.810946,0.0508053,2.517,2.6449
0.819116,0.0508053,2.517,2.64742
0.827285,0.0508053,2.517,2.64996
0.835455,0.0508053,2.517,2.65252
0.843624,0.0508053,2.517,2.6551
0.845702,0.050442,2.499,2.6387
0.853814,0.050442,2.499,2.64131
0.861925,0.050442,2.499,2.64395
0.863769,0.0500787,2.481,2.62754
0.865497,0.0497153,2.463,2.61112
0.873491,0.0497153,2.463,2.61378
0.881485,0.0497153,2.463,2.61646
0.889479,0.0497153,2.463,2.61916
0.897474,0.0497153,2.463,2.62189
0.905468,0.0497153,2.463,2.62464
0.906787,0.049352,2.445,2.6082
0.914722,0.049352,2.445,2.61097
0.922658,0.049352,2.445,2.61376
0.924124,0.0490089,2.428,2.59838
0.932004,0.0490089,2.428,2.6012
0.939885,0.0490089,2.428,2.60403
0.947766,0.0490089,2.428,2.60688
0.955646,0.0490089,2.428,2.60976
0.963527,0.0490089,2.428,2.61266
0.971408,0.0490089,2.428,2.61557
0.979289,0.0490089,2.428,2.61851
0.987169,0.0490089,2.428,2.62147
1.00202,0.049352,2.445,2.64282
1.00995,0.049352,2.445,2.64584
1.02538,0.0497153,2.463,2.66838
1.03338,0.0497153,2.463,2.67146
1.04137,0.0497153,2.463,2.67456
1.05703,0.0500787,2.481,2.69726
1.07281,0.050442,2.499,2.72001
1.08093,0.050442,2.499,2.72322
1.09688,0.0508053,2.517,2.74609
1.11339,0.0511888,2.536,2.77012
1.13003,0.0515723,2.555,2.79422
1.13832,0.0515723,2.555,2.79758
1.15514,0.0519558,2.574,2.82179
1.16349,0.0519558,2.574,2.82522
1.17185,0.0519558,2.574,2.82868
1.18891,0.0523394,2.593,2.85305
1.20657,0.0527431,2.613,2.8786
1.21505,0.0527431,2.613,2.88217
1.23289,0.0531468,2.633,2.90784
1.24144,0.0531468,2.633,2.91147
1.25995,0.0535706,2.654,2.93838
1.26857,0.0535706,2.654,2.94208
1.27718,0.0535706,2.654,2.94581
1.2858,0.0535706,2.654,2.94955
1.29441,0.0535706,2.654,2.95332
1.31334,0.0539945,2.675,2.9805
1.32202,0.0539945,2.675,2.98434
1.3307,0.0539945,2.675,2.98819
1.3499,0.0544184,2.696,3.01556
1.36923,0.0548423,2.717,3.04301
1.37805,0.0548423,2.717,3.04699
1.40933,0.0557304,2.761,3.10039
1.44141,0.0566387,2.806,3.15507
1.47481,0.0575874,2.853,3.21216
1.48407,0.0575874,2.853,3.21642
1.51845,0.0585563,2.901,3.27489
1.5542,0.0595655,2.951,3.33579
1.56378,0.0595655,2.951,3.34026
1.60108,0.0606152,3.003,3.4037
1.6398,0.0617051,3.057,3.46958
1.66429,0.0622501,3.084,3.50497
1.6743,0.0622501,3.084,3.50973
1.6996,0.0628153,3.112,3.54643
1.72563,0.0634007,3.141,3.58437
1.73583,0.0634007,3.141,3.58929
1.74602,0.0634007,3.141,3.59423
1.75622,0.0634007,3.141,3.5992
1.76641,0.0634007,3.141,3.60418
1.77661,0.0634007,3.141,3.60919
1.7868,0.0634007,3.141,3.61422
1.797,0.0634007,3.141,3.61927
1.80719,0.0634007,3.141,3.62434
1.81739,0.0634007,3.141,3.62944
1.82758,0.0634007,3.141,3.63455
1.83778,0.0634007,3.141,3.63969
1.83091,0.0628153,3.112,3.61119
1.84101,0.0628153,3.112,3.61633
1.83446,0.0622501,3.084,3.5889
1.82832,0.0617051,3.057,3.56256
1.83824,0.0617051,3.057,3.56766
1.83184,0.0611602,3.03,3.54123
1.84168,0.0611602,3.03,3.54632
1.85151,0.0611602,3.03,3.55144
1.84476,0.0606152,3.003,3.52489
1.82239,0.0595655,2.951,3.46887
1.83197,0.0595655,2.951,3.47391
1.82595,0.0590609,2.926,3.4495
1.80471,0.0580719,2.877,3.39669
1.78378,0.057103,2.829,3.3449
1.79296,0.057103,2.829,3.34981
1.77284,0.0561745,2.783,3.30018
1.7537,0.0552864,2.739,3.25279
1.76259,0.0552864,2.739,3.25759
1.74367,0.0544184,2.696,3.21119
1.72512,0.0535706,2.654,3.16585
1.73374,0.0535706,2.654,3.17056
1.71543,0.0527431,2.613,3.12622
1.69819,0.0519558,2.574,3.08415
1.70654,0.0519558,2.574,3.08876
1.68958,0.0511888,2.536,3.04772
1.68509,0.0508053,2.517,3.02942
1.69326,0.0508053,2.517,3.03397
1.68926,0.050442,2.499,3.01681
1.67292,0.0497153,2.463,2.97783
-1.96257,0.0662826,2.829,3.44374
-1.93751,0.0657437,2.806,3.41056
-1.9284,0.0657437,2.806,3.40539
-1.90356,0.0652049,2.783,3.37237
-1.89453,0.0652049,2.783,3.36728
-1.88549,0.0652049,2.783,3.36221
-1.86163,0.0646894,2.761,3.33061
-1.8379,0.064174,2.739,3.29911
-1.82901,0.064174,2.739,3.29417
-1.82012,0.064174,2.739,3.28924
-1.7828,0.0631665,2.696,3.23277
-1.77405,0.0631665,2.696,3.22795
-1.7653,0.0631665,2.696,3.22315
-1.74286,0.0626745,2.675,3.19329
-1.73418,0.0626745,2.675,3.18856
-1.7255,0.0626745,2.675,3.18385
-1.70334,0.0621824,2.654,3.1542
-1.69472,0.0621824,2.654,3.14955
-1.68611,0.0621824,2.654,3.14492
-1.6775,0.0621824,2.654,3.14031
-1.66888,0.0621824,2.654,3.13572
-1.66027,0.0621824,2.654,3.13115
-1.66472,0.0626745,2.675,3.15133
-1.65604,0.0626745,2.675,3.14675
-1.66029,0.0631665,2.696,3.16686
-1.65154,0.0631665,2.696,3.16228
-1.64279,0.0631665,2.696,3.15771
-1.64677,0.0636585,2.717,3.17773
-1.65121,0.064174,2.739,3.19886
-1.64232,0.064174,2.739,3.19428
-1.63343,0.064174,2.739,3.18972
-1.61149,0.0636585,2.717,3.1596
-1.60267,0.0636585,2.717,3.15511
-1.56922,0.0626745,2.675,3.10193
-1.54828,0.0621824,2.654,3.07323
-1.53967,0.0621824,2.654,3.0689
-1.5074,0.0612218,2.613,3.01725
-1.48745,0.0607532,2.593,2.98996
-1.47903,0.0607532,2.593,2.98578
-1.45984,0.0603081,2.574,2.95977
-1.43006,0.0594177,2.536,2.91202
-1.42183,0.0594177,2.536,2.90799
-1.403,0.0589726,2.517,2.88222
-1.39483,0.0589726,2.517,2.87825
-1.38666,0.0589726,2.517,2.8743
-1.3785,0.0589726,2.517,2.87037
-1.36053,0.0585508,2.499,2.84596
-1.35241,0.0585508,2.499,2.84209
-1.35399,0.0589726,2.517,2.85868
-1.33619,0.0585508,2.499,2.8344
-1.32808,0.0585508,2.499,2.83059
-1.31997,0.0585508,2.499,2.82679
-1.30241,0.0581291,2.481,2.80268
-1.29436,0.0581291,2.481,2.79895
-1.2863,0.0581291,2.481,2.79523
-1.27825,0.0581291,2.481,2.79154
-1.26098,0.0577074,2.463,2.76763
-1.25299,0.0577074,2.463,2.764
-1.245,0.0577074,2.463,2.76038
-1.22796,0.0572856,2.445,2.73664
-1.21154,0.0568873,2.428,2.71408
-1.20366,0.0568873,2.428,2.71058
-1.19578,0.0568873,2.428,2.70709
-1.1879,0.0568873,2.428,2.70361
-1.18002,0.0568873,2.428,2.70016
-1.17214,0.0568873,2.428,2.69673
-1.16426,0.0568873,2.428,2.69331
-1.15638,0.0568873,2.428,2.68991
-1.1485,0.0568873,2.428,2.68653
-1.14062,0.0568873,2.428,2.68317
-1.13274,0.0568873,2.428,2.67983
-1.12485,0.0568873,2.428,2.67651
-1.11697,0.0568873,2.428,2.67321
-1.10909,0.0568873,2.428,2.66993
-1.10121,0.0568873,2.428,2.66666
-1.08568,0.056489,2.411,2.64477
-1.07785,0.056489,2.411,2.64157
-1.07003,0.056489,2.411,2.63838
-1.0622,0.056489,2.411,2.63522
-1.04694,0.0560907,2.394,2.61352
-1.03917,0.0560907,2.394,2.61041
-1.0314,0.0560907,2.394,2.60733
-1.01636,0.0556924,2.377,2.58577
-1.00865,0.0556924,2.377,2.58275
-1.00809,0.0560907,2.394,2.5982
-0.993215,0.0556924,2.377,2.57676
-0.9855,0.0556924,2.377,2.5738
-0.977785,0.0556924,2.377,2.57085
-0.970069,0.0556924,2.377,2.56793
-0.962354,0.0556924,2.377,2.56503
-0.954639,0.0556924,2.377,2.56214
-0.946924,0.0556924,2.377,2.55928
-0.939209,0.0556924,2.377,2.55643
-0.938156,0.0560907,2.394,2.57187
-0.930385,0.0560907,2.394,2.56905
-0.922615,0.0560907,2.394,2.56624
-0.914845,0.0560907,2.394,2.56346
-0.907074,0.0560907,2.394,2.5607
-0.899304,0.0560907,2.394,2.55795
-0.891534,0.0560907,2.394,2.55523
-0.883763,0.0560907,2.394,2.55253
-0.882213,0.056489,2.411,2.56796
-0.874388,0.056489,2.411,2.56528
-0.866562,0.056489,2.411,2.56262
-0.864792,0.0568873,2.428,2.57804
-0.856911,0.0568873,2.428,2.57541
-0.84903,0.0568873,2.428,2.57279
-0.84115,0.0568873,2.428,2.5702
-0.833269,0.0568873,2.428,2.56764
-0.825388,0.0568873,2.428,2.56509
-0.817508,0.0568873,2.428,2.56257
-0.809627,0.0568873,2.428,2.56006
-0.80736,0.0572856,2.445,2.57549
-0.799424,0.0572856,2.445,2.57301
-0.791488,0.0572856,2.445,2.57056
-0.783552,0.0572856,2.445,2.56812
-0.775616,0.0572856,2.445,2.56571
-0.773332,0.0577074,2.463,2.5822
-0.765338,0.0577074,2.463,2.57981
-0.757344,0.0577074,2.463,2.57745
-0.749349,0.0577074,2.463,2.57512
-0.741355,0.0577074,2.463,2.5728
-0.733361,0.0577074,2.463,2.57051
-0.725366,0.0577074,2.463,2.56824
-0.717372,0.0577074,2.463,2.56599
-0.704194,0.0572856,2.445,2.54503
-0.696258,0.0572856,2.445,2.54285
-0.688322,0.0572856,2.445,2.54069
-0.680386,0.0572856,2.445,2.53855
-0.67245,0.0572856,2.445,2.53643
-0.664514,0.0572856,2.445,2.53434
-0.656578,0.0572856,2.445,2.53227
-0.648643,0.0572856,2.445,2.53023
-0.640707,0.0572856,2.445,2.5282
-0.632771,0.0572856,2.445,2.5262
-0.624835,0.0572856,2.445,2.52423
-0.621441,0.0577074,2.463,2.54084
-0.613446,0.0577074,2.463,2.5389
-0.605452,0.0577074,2.463,2.53698
-0.597458,0.0577074,2.463,2.53508
-0.589464,0.0577074,2.463,2.53321
-0.581469,0.0577074,2.463,2.53136
-0.577666,0.0581291,2.481,2.54803
-0.569613,0.0581291,2.481,2.54621
-0.561561,0.0581291,2.481,2.54442
-0.557524,0.0585508,2.499,2.56111
-0.549413,0.0585508,2.499,2.55935
-0.541301,0.0585508,2.499,2.55762
-0.53319,0.0585508,2.499,2.55592
-0.528861,0.0589726,2.517,2.57264
-0.520692,0.0589726,2.517,2.57097
-0.512522,0.0589726,2.517,2.56933
-0.504353,0.0589726,2.517,2.56771
-0.499929,0.0594177,2.536,2.58549
-0.491697,0.0594177,2.536,2.58391
-0.483466,0.0594177,2.536,2.58236
-0.478795,0.0598629,2.555,2.60016
-0.470502,0.0598629,2.555,2.59865
-0.46221,0.0598629,2.555,2.59716
-0.457292,0.0603081,2.574,2.615
-0.448938,0.0603081,2.574,2.61355
-0.440583,0.0603081,2.574,2.61213
-0.432229,0.0603081,2.574,2.61073
-0.423874,0.0603081,2.574,2.60936
-0.415519,0.0603081,2.574,2.60802
-0.407165,0.0603081,2.574,2.6067
-0.39881,0.0603081,2.574,2.60541
-0.390456,0.0603081,2.574,2.60414
-0.379281,0.0598629,2.555,2.58369
-0.370988,0.0598629,2.555,2.58249
-0.362695,0.0598629,2.555,2.58131
-0.354402,0.0598629,2.555,2.58016
-0.346109,0.0598629,2.555,2.57903
-0.337816,0.0598629,2.555,2.57793
-0.329523,0.0598629,2.555,2.57686
-0.32123,0.0598629,2.555,2.57581
-0.312937,0.0598629,2.555,2.57479
-0.304645,0.0598629,2.555,2.57379
-0.296352,0.0598629,2.555,2.57283
-0.288059,0.0598629,2.555,2.57188
-0.279766,0.0598629,2.555,2.57097
-0.271473,0.0598629,2.555,2.57008
-0.26318,0.0598629,2.555,2.56922
-0.254887,0.0598629,2.555,2.56838
-0.246594,0.0598629,2.555,2.56757
-0.238301,0.0598629,2.555,2.56679
-0.230009,0.0598629,2.555,2.56603
-0.220067,0.0594177,2.536,2.54622
-0.211836,0.0594177,2.536,2.54553
-0.203604,0.0594177,2.536,2.54485
-0.195373,0.0594177,2.536,2.54421
-0.187142,0.0594177,2.536,2.54359
-0.178911,0.0594177,2.536,2.543
-0.170679,0.0594177,2.536,2.54243
-0.162448,0.0594177,2.536,2.54189
-0.154217,0.0594177,2.536,2.54138
-0.145986,0.0594177,2.536,2.54089
-0.137755,0.0594177,2.536,2.54043
-0.129523,0.0594177,2.536,2.54
-0.121292,0.0594177,2.536,2.53959
-0.113061,0.0594177,2.536,2.53921
-0.105615,0.0598629,2.555,2.55788
-0.0973222,0.0598629,2.555,2.55755
-0.0896914,0.0603081,2.574,2.57627
-0.0807364,0.0598629,2.555,2.55698
-0.0724435,0.0598629,2.555,2.55673
-0.0646277,0.0603081,2.574,2.57552
-0.0562731,0.0603081,2.574,2.57532
-0.0479185,0.0603081,2.574,2.57515
-0.039564,0.0603081,2.574,2.57501
-0.0312094,0.0603081,2.574,2.5749
-0.0228548,0.0603081,2.574,2.57481
-0.0145003,0.0603081,2.574,2.57475
-0.00614571,0.0603081,2.574,2.57471
0.00219255,0.0598629,2.555,2.5557
0.0104854,0.0598629,2.555,2.55572
0.0187783,0.0598629,2.555,2.55577
0.0270712,0.0598629,2.555,2.55584
0.0351011,0.0594177,2.536,2.53694
0.0433324,0.0594177,2.536,2.53707
0.0515636,0.0594177,2.536,2.53722
0.0597948,0.0594177,2.536,2.5374
0.0680261,0.0594177,2.536,2.53761
0.0762573,0.0594177,2.536,2.53784
0.0844885,0.0594177,2.536,2.5381
0.0927197,0.0594177,2.536,2.53839
0.100951,0.0594177,2.536,2.5387
0.109182,0.0594177,2.536,2.53904
0.117413,0.0594177,2.536,2.53941
0.126586,0.0598629,2.555,2.55883
0.133876,0.0594177,2.536,2.54023
0.142107,0.0594177,2.536,2.54067
0.150338,0.0594177,2.536,2.54115
0.15857,0.0594177,2.536,2.54165
0.166801,0.0594177,2.536,2.54217
0.176343,0.0598629,2.555,2.56178
0.184636,0.0598629,2.555,2.56236
0.191494,0.0594177,2.536,2.54391
0.199726,0.0594177,2.536,2.54455
0.207957,0.0594177,2.536,2.54521
0.216188,0.0594177,2.536,2.54589
0.224419,0.0594177,2.536,2.5466
0.232651,0.0594177,2.536,2.54734
0.240882,0.0594177,2.536,2.54811
0.249113,0.0594177,2.536,2.5489
nan,nan,nan,NaN
0.265575,0.0594177,2.536,2.55056
0.273807,0.0594177,2.536,2.55143
nan,nan,nan,NaN
nan,nan,nan,NaN
nan,nan,nan,NaN
nan,nan,nan,NaN
nan,nan,nan,NaN
nan,nan,nan,NaN
nan,nan,nan,NaN
nan,nan,nan,NaN
nan,nan,nan,NaN
nan,nan,nan,NaN
nan,nan,nan,NaN
nan,nan,nan,NaN
nan,nan,nan,NaN
nan,nan,nan,NaN
nan,nan,nan,NaN
nan,nan,nan,NaN
nan,nan,nan,NaN
nan,nan,nan,NaN
nan,nan,nan,NaN
nan,nan,nan,NaN
nan,nan,nan,NaN
nan,nan,nan,NaN
nan,nan,nan,NaN
nan,nan,nan,NaN
nan,nan,nan,NaN
nan,nan,nan,NaN
0.488812,0.0585508,2.499,2.54703
0.496924,0.0585508,2.499,2.5486
0.505035,0.0585508,2.499,2.55019
0.505754,0.0577074,2.463,2.51505
0.513748,0.0577074,2.463,2.51667
0.521742,0.0577074,2.463,2.51832
0.529737,0.0577074,2.463,2.51998
0.537731,0.0577074,2.463,2.52168
0.545725,0.0577074,2.463,2.52339
0.549673,0.0572856,2.445,2.50668
0.557609,0.0572856,2.445,2.50843
0.561612,0.0568873,2.428,2.49276
0.565506,0.056489,2.411,2.47708
0.573331,0.056489,2.411,2.47887
nan,nan,nan,NaN
nan,nan,nan,NaN
nan,nan,nan,NaN
nan,nan,nan,NaN
nan,nan,nan,NaN
nan,nan,nan,NaN
nan,nan,nan,NaN
0.644903,0.0572856,2.445,2.52927
0.652839,0.0572856,2.445,2.53131
nan,nan,nan,NaN
0.668711,0.0572856,2.445,2.53544
0.676647,0.0572856,2.445,2.53755
0.694662,0.0581291,2.481,2.57707
0.707813,0.0585508,2.499,2.59797
0.715924,0.0585508,2.499,2.60019
0.729251,0.0589726,2.517,2.62118
0.73742,0.0589726,2.517,2.62346
0.74559,0.0589726,2.517,2.62577
0.759449,0.0594177,2.536,2.64794
0.76768,0.0594177,2.536,2.65031
0.775912,0.0594177,2.536,2.65271
0.784143,0.0594177,2.536,2.65513
0.792374,0.0594177,2.536,2.65757
0.800605,0.0594177,2.536,2.66004
0.808836,0.0594177,2.536,2.66253
0.810946,0.0589726,2.517,2.64507
0.819116,0.0589726,2.517,2.64759
0.821369,0.0585508,2.499,2.63117
0.82948,0.0585508,2.499,2.63372
0.837591,0.0585508,2.499,2.63628
0.845702,0.0585508,2.499,2.63887
0.847664,0.0581291,2.481,2.62246
0.855716,0.0581291,2.481,2.62507
0.857502,0.0577074,2.463,2.60864
0.865497,0.0577074,2.463,2.61128
0.873491,0.0577074,2.463,2.61394
0.881485,0.0577074,2.463,2.61662
0.882979,0.0572856,2.445,2.60018
0.890915,0.0572856,2.445,2.60289
0.898851,0.0572856,2.445,2.60562
0.906787,0.0572856,2.445,2.60837
0.914722,0.0572856,2.445,2.61113
0.922658,0.0572856,2.445,2.61393
0.924124,0.0568873,2.428,2.59854
0.932004,0.0568873,2.428,2.60136
0.939885,0.0568873,2.428,2.60419
0.947766,0.0568873,2.428,2.60704
0.948955,0.056489,2.411,2.59165
0.956781,0.056489,2.411,2.59452
0.964606,0.056489,2.411,2.59742
0.979289,0.0568873,2.428,2.61867
0.987169,0.0568873,2.428,2.62163
1.00202,0.0572856,2.445,2.64298
1.00995,0.0572856,2.445,2.646
1.02538,0.0577074,2.463,2.66854
1.03338,0.0577074,2.463,2.67162
1.04137,0.0577074,2.463,2.67472
1.05703,0.0581291,2.481,2.69742
1.07281,0.0585508,2.499,2.72018
1.08093,0.0585508,2.499,2.72339
1.09688,0.0589726,2.517,2.74625
1.12173,0.0598629,2.555,2.79104
1.13843,0.0603081,2.574,2.81516
1.14678,0.0603081,2.574,2.81855
1.15514,0.0603081,2.574,2.82196
1.17208,0.0607532,2.593,2.84625
1.1805,0.0607532,2.593,2.84972
1.19808,0.0612218,2.613,2.87523
1.2158,0.0616904,2.633,2.9008
1.22435,0.0616904,2.633,2.9044
1.23289,0.0616904,2.633,2.90801
1.24144,0.0616904,2.633,2.91164
1.24998,0.0616904,2.633,2.9153
1.25853,0.0616904,2.633,2.91897
1.27718,0.0621824,2.654,2.94598
1.2858,0.0621824,2.654,2.94972
1.29441,0.0621824,2.654,2.95349
1.30303,0.0621824,2.654,2.95727
1.31164,0.0621824,2.654,2.96108
1.32025,0.0621824,2.654,2.9649
1.33938,0.0626745,2.675,2.99224
1.34807,0.0626745,2.675,2.99614
1.35675,0.0626745,2.675,3.00005
1.40933,0.0646894,2.761,3.10057
1.44141,0.0657437,2.806,3.15525
1.47481,0.0668449,2.853,3.21234
1.48407,0.0668449,2.853,3.2166
1.51845,0.0679696,2.901,3.27508
1.5542,0.0691411,2.951,3.33598
1.56378,0.0691411,2.951,3.34045
1.60108,0.0703594,3.003,3.40388
1.6398,0.0716246,3.057,3.46977
1.6794,0.0729132,3.112,3.53698
1.6895,0.0729132,3.112,3.54179
1.6996,0.0729132,3.112,3.54662
1.72563,0.0735927,3.141,3.58457
1.73583,0.0735927,3.141,3.58948
1.74602,0.0735927,3.141,3.59443
1.77243,0.0742722,3.17,3.63262
1.78272,0.0742722,3.17,3.63765
1.79301,0.0742722,3.17,3.64271
1.8033,0.0742722,3.17,3.64778
1.797,0.0735927,3.141,3.61946
1.80719,0.0735927,3.141,3.62453
1.81739,0.0735927,3.141,3.62963
1.82758,0.0735927,3.141,3.63474
1.83778,0.0735927,3.141,3.63988
1.83091,0.0729132,3.112,3.61138
1.84101,0.0729132,3.112,3.61652
1.83446,0.0722572,3.084,3.58908
1.82832,0.0716246,3.057,3.56274
1.83824,0.0716246,3.057,3.56784
1.83184,0.070992,3.03,3.54141
1.84168,0.070992,3.03,3.54651
1.85151,0.070992,3.03,3.55162
1.84476,0.0703594,3.003,3.52507
1.82239,0.0691411,2.951,3.46905
1.83197,0.0691411,2.951,3.47409
1.82595,0.0685553,2.926,3.44968
1.80471,0.0674073,2.877,3.39686
1.78378,0.0662826,2.829,3.34507
1.79296,0.0662826,2.829,3.34998
1.77284,0.0652049,2.783,3.30035
1.7537,0.064174,2.739,3.25295
1.76259,0.064174,2.739,3.25776
1.74367,0.0631665,2.696,3.21135
1.72512,0.0621824,2.654,3.16601
1.73374,0.0621824,2.654,3.17071
1.71543,0.0612218,2.613,3.12638
1.69819,0.0603081,2.574,3.08431
1.70654,0.0603081,2.574,3.08891
1.68958,0.0594177,2.536,3.04787
1.68509,0.0589726,2.517,3.02957
1.69326,0.0589726,2.517,3.03412
1.68926,0.0585508,2.499,3.01696
1.67292,0.0577074,2.463,2.97798
-1.96257,0.0754623,2.829,3.44392
-1.93751,0.0748488,2.806,3.41074
-1.9284,0.0748488,2.806,3.40558
-1.90356,0.0742353,2.783,3.37256
-1.89453,0.0742353,2.783,3.36747
-1.88549,0.0742353,2.783,3.36239
-1.86163,0.0736484,2.761,3.3308
-1.8379,0.0730616,2.739,3.29929
-1.82901,0.0730616,2.739,3.29435
-1.82012,0.0730616,2.739,3.28942
-1.7828,0.0719146,2.696,3.23295
-1.77405,0.0719146,2.696,3.22813
-1.7653,0.0719146,2.696,3.22333
-1.74286,0.0713544,2.675,3.19348
-1.73418,0.0713544,2.675,3.18875
-1.7255,0.0713544,2.675,3.18403
-1.70334,0.0707942,2.654,3.15438
-1.69472,0.0707942,2.654,3.14973
-1.68611,0.0707942,2.654,3.14511
-1.6775,0.0707942,2.654,3.1405
-1.66888,0.0707942,2.654,3.1359
-1.66027,0.0707942,2.654,3.13133
-1.66472,0.0713544,2.675,3.15151
-1.65604,0.0713544,2.675,3.14693
-1.66029,0.0719146,2.696,3.16704
-1.65154,0.0719146,2.696,3.16246
-1.64279,0.0719146,2.696,3.1579
-1.63404,0.0719146,2.696,3.15336
-1.65121,0.0730616,2.739,3.19906
-1.64232,0.0730616,2.739,3.19448
-1.62031,0.0724747,2.717,3.16429
-1.59904,0.0719146,2.696,3.13536
-1.59029,0.0719146,2.696,3.13091
-1.56922,0.0713544,2.675,3.10212
-1.52436,0.0697006,2.613,3.02594
-1.51588,0.0697006,2.613,3.02168
-1.49586,0.0691671,2.593,2.99434
-1.48745,0.0691671,2.593,2.99014
-1.47903,0.0691671,2.593,2.98596
-1.44906,0.0681534,2.555,2.9381
-1.41934,0.0671398,2.517,2.89039
-1.41117,0.0671398,2.517,2.88638
-1.39297,0.0666597,2.499,2.86178
-1.38486,0.0666597,2.499,2.85785
-1.37675,0.0666597,2.499,2.85392
-1.36864,0.0666597,2.499,2.85002
-1.36053,0.0666597,2.499,2.84613
-1.35241,0.0666597,2.499,2.84226
-1.3443,0.0666597,2.499,2.83841
-1.32657,0.0661795,2.481,2.81417
-1.31852,0.0661795,2.481,2.81038
-1.31046,0.0661795,2.481,2.80661
-1.30241,0.0661795,2.481,2.80286
-1.28497,0.0656994,2.463,2.77882
-1.27697,0.0656994,2.463,2.77513
-1.26898,0.0656994,2.463,2.77146
-1.26098,0.0656994,2.463,2.76781
-1.24383,0.0652193,2.445,2.74397
-1.2359,0.0652193,2.445,2.74039
-1.22796,0.0652193,2.445,2.73682
-1.21154,0.0647658,2.428,2.71426
-1.20366,0.0647658,2.428,2.71075
-1.19578,0.0647658,2.428,2.70726
-1.1879,0.0647658,2.428,2.70379
-1.18002,0.0647658,2.428,2.70034
-1.17214,0.0647658,2.428,2.6969
-1.16426,0.0647658,2.428,2.69349
-1.15638,0.0647658,2.428,2.69009
-1.1485,0.0647658,2.428,2.68671
-1.14062,0.0647658,2.428,2.68335
-1.13274,0.0647658,2.428,2.68001
-1.12485,0.0647658,2.428,2.67669
-1.11697,0.0647658,2.428,2.67339
-1.10909,0.0647658,2.428,2.67011
-1.10121,0.0647658,2.428,2.66684
-1.08568,0.0643123,2.411,2.64495
-1.07785,0.0643123,2.411,2.64175
-1.07003,0.0643123,2.411,2.63856
-1.05471,0.0638589,2.394,2.61682
-1.04694,0.0638589,2.394,2.61369
-1.03917,0.0638589,2.394,2.61059
-1.0314,0.0638589,2.394,2.60751
-1.01636,0.0634054,2.377,2.58595
-1.00865,0.0634054,2.377,2.58293
-1.00809,0.0638589,2.394,2.59838
-0.993215,0.0634054,2.377,2.57694
-0.9855,0.0634054,2.377,2.57398
-0.977785,0.0634054,2.377,2.57103
-0.970069,0.0634054,2.377,2.56811
-0.962354,0.0634054,2.377,2.5652
-0.954639,0.0634054,2.377,2.56232
-0.946924,0.0634054,2.377,2.55946
-0.939209,0.0634054,2.377,2.55661
-0.938156,0.0638589,2.394,2.57205
-0.930385,0.0638589,2.394,2.56923
-0.922615,0.0638589,2.394,2.56642
-0.914845,0.0638589,2.394,2.56364
-0.907074,0.0638589,2.394,2.56088
-0.899304,0.0638589,2.394,2.55814
-0.891534,0.0638589,2.394,2.55542
-0.890039,0.0643123,2.411,2.57084
-0.882213,0.0643123,2.411,2.56814
-0.874388,0.0643123,2.411,2.56547
-0.872672,0.0647658,2.428,2.58088
-0.864792,0.0647658,2.428,2.57823
-0.856911,0.0647658,2.428,2.57559
-0.84903,0.0647658,2.428,2.57298
-0.84115,0.0647658,2.428,2.57039
-0.833269,0.0647658,2.428,2.56782
-0.825388,0.0647658,2.428,2.56528
-0.817508,0.0647658,2.428,2.56275
-0.815296,0.0652193,2.445,2.57818
-0.80736,0.0652193,2.445,2.57568
-0.799424,0.0652193,2.445,2.5732
-0.797315,0.0656994,2.463,2.58967
-0.789321,0.0656994,2.463,2.58722
-0.781326,0.0656994,2.463,2.58479
-0.773332,0.0656994,2.463,2.58239
-0.765338,0.0656994,2.463,2.58001
-0.757344,0.0656994,2.463,2.57765
-0.749349,0.0656994,2.463,2.57531
-0.741355,0.0656994,2.463,2.57299
-0.733361,0.0656994,2.463,2.5707
-0.725366,0.0656994,2.463,2.56843
-0.717372,0.0656994,2.463,2.56619
-0.709378,0.0656994,2.463,2.56396
-0.701384,0.0656994,2.463,2.56176
-0.693389,0.0656994,2.463,2.55958
-0.680386,0.0652193,2.445,2.53874
-0.67245,0.0652193,2.445,2.53663
-0.664514,0.0652193,2.445,2.53453
-0.656578,0.0652193,2.445,2.53246
-0.653418,0.0656994,2.463,2.54905
-0.645424,0.0656994,2.463,2.54701
-0.637429,0.0656994,2.463,2.545
-0.629435,0.0656994,2.463,2.543
-0.621441,0.0656994,2.463,2.54104
-0.613446,0.0656994,2.463,2.53909
-0.605452,0.0656994,2.463,2.53718
-0.597458,0.0656994,2.463,2.53528
-0.589464,0.0656994,2.463,2.53341
-0.581469,0.0656994,2.463,2.53156
-0.577666,0.0661795,2.481,2.54822
-0.569613,0.0661795,2.481,2.54641
-0.565635,0.0666597,2.499,2.56308
-0.557524,0.0666597,2.499,2.5613
-0.549413,0.0666597,2.499,2.55955
-0.541301,0.0666597,2.499,2.55782
-0.53319,0.0666597,2.499,2.55612
-0.528861,0.0671398,2.517,2.57284
-0.520692,0.0671398,2.517,2.57117
-0.512522,0.0671398,2.517,2.56953
-0.504353,0.0671398,2.517,2.56791
-0.499929,0.0676466,2.536,2.58569
-0.491697,0.0676466,2.536,2.58411
-0.483466,0.0676466,2.536,2.58256
-0.478795,0.0681534,2.555,2.60037
-0.470502,0.0681534,2.555,2.59885
-0.46221,0.0681534,2.555,2.59737
-0.457292,0.0686603,2.574,2.61521
-0.448938,0.0686603,2.574,2.61376
-0.440583,0.0686603,2.574,2.61234
-0.432229,0.0686603,2.574,2.61094
-0.423874,0.0686603,2.574,2.60957
-0.415519,0.0686603,2.574,2.60823
-0.407165,0.0686603,2.574,2.60691
-0.39881,0.0686603,2.574,2.60562
-0.390456,0.0686603,2.574,2.60435
-0.382101,0.0686603,2.574,2.60311
-0.370988,0.0681534,2.555,2.58269
-0.362695,0.0681534,2.555,2.58151
-0.354402,0.0681534,2.555,2.58036
-0.346109,0.0681534,2.555,2.57924
-0.337816,0.0681534,2.555,2.57814
-0.329523,0.0681534,2.555,2.57706
-0.32123,0.0681534,2.555,2.57602
-0.312937,0.0681534,2.555,2.575
-0.304645,0.0681534,2.555,2.574
-0.296352,0.0681534,2.555,2.57303
-0.288059,0.0681534,2.555,2.57209
-0.279766,0.0681534,2.555,2.57117
-0.271473,0.0681534,2.555,2.57029
-0.261223,0.0676466,2.536,2.55032
-0.252992,0.0676466,2.536,2.54949
-0.244761,0.0676466,2.536,2.54868
-0.236529,0.0676466,2.536,2.5479
-0.230009,0.0681534,2.555,2.56624
-0.220067,0.0676466,2.536,2.54643
-0.211836,0.0676466,2.536,2.54573
-0.203604,0.0676466,2.536,2.54506
-0.195373,0.0676466,2.536,2.54441
-0.187142,0.0676466,2.536,2.5438
-0.178911,0.0676466,2.536,2.5432
-0.170679,0.0676466,2.536,2.54264
-0.162448,0.0676466,2.536,2.5421
-0.154217,0.0676466,2.536,2.54159
-0.145986,0.0676466,2.536,2.5411
-0.137755,0.0676466,2.536,2.54064
-0.129523,0.0676466,2.536,2.54021
-0.121292,0.0676466,2.536,2.5398
-0.113061,0.0676466,2.536,2.53942
-0.10483,0.0676466,2.536,2.53907
-0.0973222,0.0681534,2.555,2.55776
-0.0890293,0.0681534,2.555,2.55746
-0.0807364,0.0681534,2.555,2.55718
-0.0724435,0.0681534,2.555,2.55694
-0.0641506,0.0681534,2.555,2.55671
-0.0558577,0.0681534,2.555,2.55652
-0.0475648,0.0681534,2.555,2.55635
-0.0392719,0.0681534,2.555,2.55621
-0.030979,0.0681534,2.555,2.5561
-0.0228548,0.0686603,2.574,2.57502
-0.0145003,0.0686603,2.574,2.57496
-0.00614571,0.0686603,2.574,2.57492
0.00219255,0.0681534,2.555,2.55591
0.0104854,0.0681534,2.555,2.55593
0.0187783,0.0681534,2.555,2.55598
0.0270712,0.0681534,2.555,2.55605
0.0351011,0.0676466,2.536,2.53714
0.0433324,0.0676466,2.536,2.53727
0.0515636,0.0676466,2.536,2.53743
0.0597948,0.0676466,2.536,2.53761
0.0680261,0.0676466,2.536,2.53781
0.0762573,0.0676466,2.536,2.53805
0.0844885,0.0676466,2.536,2.53831
0.0927197,0.0676466,2.536,2.5386
0.100951,0.0676466,2.536,2.53891
0.109182,0.0676466,2.536,2.53925
0.117413,0.0676466,2.536,2.53962
0.125645,0.0676466,2.536,2.54001
0.133876,0.0676466,2.536,2.54043
0.142107,0.0676466,2.536,2.54088
0.150338,0.0676466,2.536,2.54135
0.15857,0.0676466,2.536,2.54185
0.166801,0.0676466,2.536,2.54238
0.176343,0.0681534,2.555,2.56199
0.184636,0.0681534,2.555,2.56257
0.192929,0.0681534,2.555,2.56318
0.201222,0.0681534,2.555,2.56382
0.209515,0.0681534,2.555,2.56448
0.216188,0.0676466,2.536,2.5461
0.224419,0.0676466,2.536,2.54681
0.232651,0.0676466,2.536,2.54755
0.240882,0.0676466,2.536,2.54831
0.249113,0.0676466,2.536,2.5491
0.257344,0.0676466,2.536,2.54992
0.263586,0.0671398,2.517,2.53165
0.271755,0.0671398,2.517,2.53252
nan,nan,nan,NaN
nan,nan,nan,NaN
nan,nan,nan,NaN
nan,nan,nan,NaN
nan,nan,nan,NaN
nan,nan,nan,NaN
nan,nan,nan,NaN
nan,nan,nan,NaN
nan,nan,nan,NaN
nan,nan,nan,NaN
nan,nan,nan,NaN
nan,nan,nan,NaN
nan,nan,nan,NaN
nan,nan,nan,NaN
nan,nan,nan,NaN
nan,nan,nan,NaN
nan,nan,nan,NaN
nan,nan,nan,NaN
nan,nan,nan,NaN
nan,nan,nan,NaN
nan,nan,nan,NaN
nan,nan,nan,NaN
nan,nan,nan,NaN
nan,nan,nan,NaN
nan,nan,nan,NaN
0.473776,0.0656994,2.463,2.50901
0.481771,0.0656994,2.463,2.51054
0.489765,0.0656994,2.463,2.51208
0.497759,0.0656994,2.463,2.51365
0.505754,0.0656994,2.463,2.51525
0.513748,0.0656994,2.463,2.51687
0.521742,0.0656994,2.463,2.51851
0.529737,0.0656994,2.463,2.52018
0.537731,0.0656994,2.463,2.52187
0.53797,0.0647658,2.428,2.48773
0.545851,0.0647658,2.428,2.48944
0.553732,0.0647658,2.428,2.49118
0.561612,0.0647658,2.428,2.49295
0.557531,0.0634054,2.377,2.44233
0.565246,0.0634054,2.377,2.44411
nan,nan,nan,NaN
nan,nan,nan,NaN
0.57651,0.062125,2.329,2.4001
0.584069,0.062125,2.329,2.40192
0.591628,0.062125,2.329,2.40377
0.599188,0.062125,2.329,2.40564
0.610915,0.0625518,2.345,2.42408
0.618527,0.0625518,2.345,2.42601
0.63041,0.0629786,2.361,2.44453
nan,nan,nan,NaN
0.659412,0.0643123,2.411,2.50038
0.667237,0.0643123,2.411,2.50245
0.684582,0.0652193,2.445,2.53987
0.702715,0.0661795,2.481,2.57945
0.710768,0.0661795,2.481,2.58165
0.724035,0.0666597,2.499,2.60263
0.73742,0.0671398,2.517,2.62366
0.74559,0.0671398,2.517,2.62597
0.759449,0.0676466,2.536,2.64814
0.76768,0.0676466,2.536,2.65051
0.775912,0.0676466,2.536,2.65291
0.784143,0.0676466,2.536,2.65533
0.792374,0.0676466,2.536,2.65777
0.800605,0.0676466,2.536,2.66023
0.808836,0.0676466,2.536,2.66272
0.810946,0.0671398,2.517,2.64527
0.819116,0.0671398,2.517,2.64778
0.821369,0.0666597,2.499,2.63137
0.82948,0.0666597,2.499,2.63391
0.837591,0.0666597,2.499,2.63648
0.845702,0.0666597,2.499,2.63906
0.847664,0.0661795,2.481,2.62265
0.855716,0.0661795,2.481,2.62526
0.857502,0.0656994,2.463,2.60883
0.865497,0.0656994,2.463,2.61147
0.873491,0.0656994,2.463,2.61413
0.881485,0.0656994,2.463,2.61681
0.882979,0.0652193,2.445,2.60037
0.890915,0.0652193,2.445,2.60308
0.898851,0.0652193,2.445,2.6058
0.906787,0.0652193,2.445,2.60855
0.914722,0.0652193,2.445,2.61132
0.922658,0.0652193,2.445,2.61411
0.924124,0.0647658,2.428,2.59873
0.932004,0.0647658,2.428,2.60154
0.939885,0.0647658,2.428,2.60437
0.947766,0.0647658,2.428,2.60723
0.948955,0.0643123,2.411,2.59183
0.956781,0.0643123,2.411,2.5947
0.964606,0.0643123,2.411,2.5976
0.979289,0.0647658,2.428,2.61885
0.987169,0.0647658,2.428,2.62181
1.00202,0.0652193,2.445,2.64316
1.00995,0.0652193,2.445,2.64618
1.02538,0.0656994,2.463,2.66873
1.03338,0.0656994,2.463,2.67181
1.04137,0.0656994,2.463,2.67491
1.0647,0.0666597,2.499,2.71717
1.08054,0.0671398,2.517,2.73996
1.08871,0.0671398,2.517,2.74319
1.10516,0.0676466,2.536,2.76717
1.12173,0.0681534,2.555,2.79123
1.13843,0.0686603,2.574,2.81535
1.14678,0.0686603,2.574,2.81874
1.16367,0.0691671,2.593,2.84298
1.17208,0.0691671,2.593,2.84644
1.1805,0.0691671,2.593,2.84991
1.19808,0.0697006,2.613,2.87542
1.2158,0.0702341,2.633,2.901
1.22435,0.0702341,2.633,2.90459
1.23289,0.0702341,2.633,2.9082
1.24144,0.0702341,2.633,2.91184
1.24998,0.0702341,2.633,2.91549
1.25853,0.0702341,2.633,2.91916
1.27718,0.0707942,2.654,2.94617
1.2858,0.0707942,2.654,2.94992
1.29441,0.0707942,2.654,2.95368
1.30303,0.0707942,2.654,2.95747
1.31164,0.0707942,2.654,2.96127
1.32025,0.0707942,2.654,2.9651
1.33938,0.0713544,2.675,2.99243
1.34807,0.0713544,2.675,2.99633
1.35675,0.0713544,2.675,3.00025
1.38687,0.0724747,2.717,3.05135
1.42959,0.0742353,2.783,3.12959
1.4624,0.0754623,2.829,3.18552
1.47158,0.0754623,2.829,3.18975
1.50589,0.0767427,2.877,3.24819
1.54104,0.0780497,2.926,3.30792
1.55053,0.0780497,2.926,3.31236
1.60108,0.0801036,3.003,3.4041
1.62531,0.0808239,3.03,3.43934
1.66429,0.0822643,3.084,3.50538
1.6743,0.0822643,3.084,3.51014
1.6996,0.0830112,3.112,3.54684
1.72563,0.0837847,3.141,3.58479
1.73583,0.0837847,3.141,3.58971
1.74602,0.0837847,3.141,3.59465
1.75622,0.0837847,3.141,3.59961
1.76641,0.0837847,3.141,3.6046
1.79301,0.0845583,3.17,3.64293
1.8033,0.0845583,3.17,3.64801
1.797,0.0837847,3.141,3.61968
1.80719,0.0837847,3.141,3.62476
1.81739,0.0837847,3.141,3.62985
1.82758,0.0837847,3.141,3.63496
1.83778,0.0837847,3.141,3.6401
1.83091,0.0830112,3.112,3.6116
1.84101,0.0830112,3.112,3.61673
1.83446,0.0822643,3.084,3.5893
1.82832,0.0815441,3.057,3.56296
1.83824,0.0815441,3.057,3.56806
1.83184,0.0808239,3.03,3.54162
1.82526,0.0801036,3.003,3.51511
1.83501,0.0801036,3.003,3.52018
1.82879,0.0794101,2.977,3.49475
1.82239,0.0787166,2.951,3.46925
1.83197,0.0787166,2.951,3.47429
1.81035,0.0773828,2.901,3.4204
1.78965,0.0761025,2.853,3.36872
1.78378,0.0754623,2.829,3.34527
1.77839,0.0748488,2.806,3.32293
1.75883,0.0736484,2.761,3.27445
1.73962,0.0724747,2.717,3.22701
1.74844,0.0724747,2.717,3.23178
1.73009,0.0713544,2.675,3.18652
1.71147,0.0702341,2.633,3.14114
1.72002,0.0702341,2.633,3.1458
1.7023,0.0691671,2.593,3.10262
1.68565,0.0681534,2.555,3.06171
1.69394,0.0681534,2.555,3.06629
1.68958,0.0676466,2.536,3.04804
1.68509,0.0671398,2.517,3.02974
1.69326,0.0671398,2.517,3.03429
1.67709,0.0661795,2.481,2.99539
