0.797036,-0.21715,2.499,2.632
0.805147,-0.21715,2.499,2.63447
0.813258,-0.21715,2.499,2.63696
0.821369,-0.21715,2.499,2.63947
0.82948,-0.21715,2.499,2.64201
0.831558,-0.215586,2.481,2.62551
0.839611,-0.215586,2.481,2.62808
0.847664,-0.215586,2.481,2.63066
0.855716,-0.215586,2.481,2.63327
0.857502,-0.214022,2.463,2.61677
0.865497,-0.214022,2.463,2.6194
0.873491,-0.214022,2.463,2.62205
0.881485,-0.214022,2.463,2.62473
0.889479,-0.214022,2.463,2.62742
0.897474,-0.214022,2.463,2.63014
0.905468,-0.214022,2.463,2.63288
0.906787,-0.212458,2.445,2.61638
0.914722,-0.212458,2.445,2.61914
0.922658,-0.212458,2.445,2.62192
0.930594,-0.212458,2.445,2.62472
0.93853,-0.212458,2.445,2.62755
0.946466,-0.212458,2.445,2.63039
0.947766,-0.21098,2.428,2.61495
0.955646,-0.21098,2.428,2.61782
0.970273,-0.212458,2.445,2.63905
0.971408,-0.21098,2.428,2.62361
0.979289,-0.21098,2.428,2.62654
0.987169,-0.21098,2.428,2.62949
0.99505,-0.21098,2.428,2.63246
nan,nan,nan,NaN
nan,nan,nan,NaN
nan,nan,nan,NaN
nan,nan,nan,NaN
nan,nan,nan,NaN
nan,nan,nan,NaN
nan,nan,nan,NaN
nan,nan,nan,NaN
nan,nan,nan,NaN
nan,nan,nan,NaN
nan,nan,nan,NaN
nan,nan,nan,NaN
nan,nan,nan,NaN
nan,nan,nan,NaN
nan,nan,nan,NaN
1.73712,-0.326898,3.762,4.15657
1.74933,-0.326898,3.762,4.16169
1.76154,-0.326898,3.762,4.16684
1.77375,-0.326898,3.762,4.17201
1.78596,-0.326898,3.762,4.17722
1.79817,-0.326898,3.762,4.18246
1.79065,-0.323335,3.721,4.14208
1.80273,-0.323335,3.721,4.14732
1.81481,-0.323335,3.721,4.15258
1.82689,-0.323335,3.721,4.15787
1.8192,-0.31986,3.681,4.11844
1.83114,-0.31986,3.681,4.12373
1.84309,-0.31986,3.681,4.12905
1.85504,-0.31986,3.681,4.1344
1.86699,-0.31986,3.681,4.13977
1.87893,-0.31986,3.681,4.14517
nan,nan,nan,NaN
nan,nan,nan,NaN
nan,nan,nan,NaN
nan,nan,nan,NaN
nan,nan,nan,NaN
nan,nan,nan,NaN
1.96257,-0.31986,3.681,4.18375
1.97451,-0.31986,3.681,4.18937
2.00805,-0.323335,3.721,4.2406
1.99841,-0.31986,3.681,4.20068
2.01036,-0.31986,3.681,4.20638
2.02231,-0.31986,3.681,4.2121
2.03425,-0.31986,3.681,4.21785
2.0462,-0.31986,3.681,4.22363
2.05815,-0.31986,3.681,4.22943
2.04816,-0.316471,3.642,4.19038
2.03849,-0.313169,3.604,4.15239
2.05019,-0.313169,3.604,4.15814
2.06189,-0.313169,3.604,4.16392
2.05172,-0.309867,3.566,4.12576
2.04189,-0.306652,3.529,4.08866
2.05334,-0.306652,3.529,4.0944
2.04373,-0.303523,3.493,4.05833
2.03448,-0.300482,3.458,4.02333
2.0457,-0.300482,3.458,4.02901
2.01588,-0.294486,3.389,3.95422
2.00714,-0.291619,3.356,3.92128
2.01804,-0.291619,3.356,3.92686
1.97089,-0.283277,3.26,3.81998
1.9444,-0.277976,3.199,3.75387
1.95478,-0.277976,3.199,3.75926
1.94735,-0.275456,3.17,3.73054
1.92182,-0.270416,3.112,3.66757
1.93192,-0.270416,3.112,3.67287
1.92455,-0.267983,3.084,3.6451
1.90068,-0.263291,3.03,3.58648
1.91052,-0.263291,3.03,3.5917
1.88676,-0.258686,2.977,3.53402
1.87986,-0.256426,2.951,3.50828
1.88944,-0.256426,2.951,3.51342
1.86684,-0.252082,2.901,3.45897
1.84521,-0.247911,2.853,3.40674
1.83887,-0.245825,2.829,3.38307
1.84806,-0.245825,2.829,3.38807
1.84214,-0.243827,2.806,3.3655
1.82156,-0.239916,2.761,3.31644
1.83052,-0.239916,2.761,3.32137
1.82482,-0.238005,2.739,3.29981
1.81899,-0.236093,2.717,3.27819
1.8278,-0.236093,2.717,3.28309
1.82243,-0.234268,2.696,3.2626
1.81691,-0.232443,2.675,3.24204
-2.02986,-0.24476,2.926,3.56956
-2.02036,-0.24476,2.926,3.56416
-2.01087,-0.24476,2.926,3.55879
-1.98427,-0.242668,2.901,3.52307
-1.97485,-0.242668,2.901,3.51778
-1.96544,-0.242668,2.901,3.5125
-1.95602,-0.242668,2.901,3.50724
-1.94661,-0.242668,2.901,3.50199
-1.93719,-0.242668,2.901,3.49677
-1.92778,-0.242668,2.901,3.49156
-1.93489,-0.24476,2.926,3.51642
-1.92539,-0.24476,2.926,3.5112
-1.9159,-0.24476,2.926,3.506
-1.92269,-0.246851,2.951,3.53073
-1.92997,-0.249026,2.977,3.55659
-1.93707,-0.251201,3.003,3.58237
-1.92733,-0.251201,3.003,3.57711
-1.93482,-0.253459,3.03,3.60398
-1.94214,-0.255718,3.057,3.63078
-1.93222,-0.255718,3.057,3.62548
-1.95688,-0.260318,3.112,3.68533
-1.94678,-0.260318,3.112,3.67998
-1.93668,-0.260318,3.112,3.67465
-1.92658,-0.260318,3.112,3.66933
-1.93434,-0.262744,3.141,3.69819
-1.94191,-0.26517,3.17,3.72696
-1.93162,-0.26517,3.17,3.72161
-1.92133,-0.26517,3.17,3.71628
-1.91104,-0.26517,3.17,3.71097
-1.90075,-0.26517,3.17,3.70568
-1.89046,-0.26517,3.17,3.70041
nan,nan,nan,NaN
nan,nan,nan,NaN
nan,nan,nan,NaN
nan,nan,nan,NaN
nan,nan,nan,NaN
nan,nan,nan,NaN
nan,nan,nan,NaN
nan,nan,nan,NaN
nan,nan,nan,NaN
nan,nan,nan,NaN
nan,nan,nan,NaN
nan,nan,nan,NaN
nan,nan,nan,NaN
nan,nan,nan,NaN
nan,nan,nan,NaN
nan,nan,nan,NaN
nan,nan,nan,NaN
nan,nan,nan,NaN
nan,nan,nan,NaN
nan,nan,nan,NaN
nan,nan,nan,NaN
nan,nan,nan,NaN
nan,nan,nan,NaN
nan,nan,nan,NaN
nan,nan,nan,NaN
nan,nan,nan,NaN
nan,nan,nan,NaN
nan,nan,nan,NaN
nan,nan,nan,NaN
nan,nan,nan,NaN
nan,nan,nan,NaN
nan,nan,nan,NaN
-1.20502,-0.20603,2.463,2.74971
-1.19703,-0.20603,2.463,2.74621
-1.18035,-0.204524,2.445,2.7227
-1.17241,-0.204524,2.445,2.71926
-1.16447,-0.204524,2.445,2.71585
-1.15654,-0.204524,2.445,2.71246
-1.1486,-0.204524,2.445,2.70909
-1.14067,-0.204524,2.445,2.70573
-1.12485,-0.203102,2.428,2.6836
-1.11697,-0.203102,2.428,2.68031
-1.10909,-0.203102,2.428,2.67704
-1.0935,-0.20168,2.411,2.65506
-1.08568,-0.20168,2.411,2.65185
-1.07025,-0.200258,2.394,2.62998
-1.06248,-0.200258,2.394,2.62682
-1.05471,-0.200258,2.394,2.62369
-1.03951,-0.198836,2.377,2.60197
-1.03179,-0.198836,2.377,2.5989
-1.02408,-0.198836,2.377,2.59584
-1.01636,-0.198836,2.377,2.59281
-1.00865,-0.198836,2.377,2.58979
-0.994193,-0.197497,2.361,2.56939
-0.986529,-0.197497,2.361,2.56643
-0.978866,-0.197497,2.361,2.56349
-0.971203,-0.197497,2.361,2.56058
-0.96354,-0.197497,2.361,2.55768
-0.955876,-0.197497,2.361,2.5548
-0.948213,-0.197497,2.361,2.55195
-0.934176,-0.196159,2.345,2.53184
-0.926565,-0.196159,2.345,2.52904
-0.918953,-0.196159,2.345,2.52626
-0.911342,-0.196159,2.345,2.5235
-0.909897,-0.197497,2.361,2.53796
-0.902234,-0.197497,2.361,2.53522
-0.894571,-0.197497,2.361,2.53251
-0.886907,-0.197497,2.361,2.52981
-0.879244,-0.197497,2.361,2.52713
-0.871581,-0.197497,2.361,2.52448
-0.863918,-0.197497,2.361,2.52184
-0.856255,-0.197497,2.361,2.51923
-0.854342,-0.198836,2.377,2.53369
-0.846627,-0.198836,2.377,2.5311
-0.838912,-0.198836,2.377,2.52852
-0.831197,-0.198836,2.377,2.52598
-0.823481,-0.198836,2.377,2.52345
-0.815766,-0.198836,2.377,2.52094
-0.81383,-0.200258,2.394,2.53647
-0.80606,-0.200258,2.394,2.53398
-0.79829,-0.200258,2.394,2.53152
-0.790519,-0.200258,2.394,2.52908
-0.782749,-0.200258,2.394,2.52666
-0.774979,-0.200258,2.394,2.52427
-0.772656,-0.20168,2.411,2.5398
-0.764831,-0.20168,2.411,2.53743
-0.757005,-0.20168,2.411,2.53508
-0.74918,-0.20168,2.411,2.53276
-0.741354,-0.20168,2.411,2.53045
-0.733529,-0.20168,2.411,2.52817
-0.725703,-0.20168,2.411,2.52591
-0.717878,-0.20168,2.411,2.52368
-0.710052,-0.20168,2.411,2.52146
-0.702227,-0.20168,2.411,2.51927
-0.694401,-0.20168,2.411,2.5171
-0.691417,-0.203102,2.428,2.53268
-0.683536,-0.203102,2.428,2.53054
-0.670925,-0.20168,2.411,2.51072
-0.663099,-0.20168,2.411,2.50864
-0.655274,-0.20168,2.411,2.50659
-0.647448,-0.20168,2.411,2.50455
-0.639623,-0.20168,2.411,2.50254
-0.631797,-0.20168,2.411,2.50055
-0.623972,-0.20168,2.411,2.49859
-0.620491,-0.203102,2.428,2.51425
-0.61261,-0.203102,2.428,2.51231
-0.604729,-0.203102,2.428,2.5104
-0.596848,-0.203102,2.428,2.50852
-0.593092,-0.204524,2.445,2.52421
-0.585156,-0.204524,2.445,2.52235
-0.57722,-0.204524,2.445,2.52052
-0.573475,-0.20603,2.463,2.53726
-0.569613,-0.207535,2.481,2.554
-0.561561,-0.207535,2.481,2.55221
-0.553508,-0.207535,2.481,2.55045
-0.549413,-0.209041,2.499,2.56721
-0.541301,-0.209041,2.499,2.56548
-0.537031,-0.210547,2.517,2.58225
-0.528861,-0.210547,2.517,2.58056
-0.524622,-0.212136,2.536,2.59837
-0.516391,-0.212136,2.536,2.59672
-0.511967,-0.213725,2.555,2.61454
-0.503674,-0.213725,2.555,2.61293
-0.495381,-0.213725,2.555,2.61134
-0.487088,-0.213725,2.555,2.60978
-0.478795,-0.213725,2.555,2.60825
-0.470502,-0.213725,2.555,2.60674
-0.465647,-0.215315,2.574,2.62463
-0.457292,-0.215315,2.574,2.62316
-0.448938,-0.215315,2.574,2.62171
-0.443835,-0.216904,2.593,2.63964
-0.432229,-0.215315,2.574,2.6189
-0.423874,-0.215315,2.574,2.61754
-0.415519,-0.215315,2.574,2.6162
-0.407165,-0.215315,2.574,2.61488
-0.39881,-0.215315,2.574,2.6136
-0.390456,-0.215315,2.574,2.61233
-0.379281,-0.213725,2.555,2.59183
-0.370988,-0.213725,2.555,2.59062
-0.362695,-0.213725,2.555,2.58945
-0.354402,-0.213725,2.555,2.5883
-0.348683,-0.215315,2.574,2.60642
-0.340328,-0.215315,2.574,2.60531
-0.331974,-0.215315,2.574,2.60424
-0.323619,-0.215315,2.574,2.60318
-0.315265,-0.215315,2.574,2.60216
-0.30691,-0.215315,2.574,2.60116
-0.298555,-0.215315,2.574,2.60019
-0.290201,-0.215315,2.574,2.59924
-0.281846,-0.215315,2.574,2.59832
-0.273492,-0.215315,2.574,2.59743
-0.265137,-0.215315,2.574,2.59656
-0.256783,-0.215315,2.574,2.59572
-0.248428,-0.215315,2.574,2.59491
-0.240074,-0.215315,2.574,2.59412
-0.231719,-0.215315,2.574,2.59336
-0.223364,-0.215315,2.574,2.59263
-0.21501,-0.215315,2.574,2.59192
-0.206655,-0.215315,2.574,2.59124
-0.198301,-0.215315,2.574,2.59059
-0.189946,-0.215315,2.574,2.58996
-0.181592,-0.215315,2.574,2.58937
-0.173237,-0.215315,2.574,2.58879
-0.164882,-0.215315,2.574,2.58825
-0.156528,-0.215315,2.574,2.58773
-0.149267,-0.216904,2.593,2.60633
-0.140851,-0.216904,2.593,2.60587
-0.132435,-0.216904,2.593,2.60542
-0.124018,-0.216904,2.593,2.60501
-0.115602,-0.216904,2.593,2.60462
-0.107186,-0.216904,2.593,2.60426
-0.0995315,-0.218577,2.613,2.62401
-0.0910503,-0.218577,2.613,2.62371
-0.0825692,-0.218577,2.613,2.62343
-0.074088,-0.218577,2.613,2.62317
-0.0656069,-0.218577,2.613,2.62295
-0.0571257,-0.218577,2.613,2.62275
-0.0486446,-0.218577,2.613,2.62258
-0.0401634,-0.218577,2.613,2.62243
-0.0316823,-0.218577,2.613,2.62232
-0.0230235,-0.216904,2.593,2.60216
-0.0146073,-0.216904,2.593,2.6021
-0.00619107,-0.216904,2.593,2.60206
0.00222516,-0.216904,2.593,2.60206
0.0106414,-0.216904,2.593,2.60208
0.018918,-0.215315,2.574,2.58306
0.0272725,-0.215315,2.574,2.58313
0.0356271,-0.215315,2.574,2.58324
0.0439817,-0.215315,2.574,2.58336
0.0523362,-0.215315,2.574,2.58352
0.0606908,-0.215315,2.574,2.5837
0.0690454,-0.215315,2.574,2.58391
0.0773999,-0.215315,2.574,2.58415
0.0857545,-0.215315,2.574,2.58441
0.0941091,-0.215315,2.574,2.5847
0.102464,-0.215315,2.574,2.58502
0.110818,-0.215315,2.574,2.58537
0.119173,-0.215315,2.574,2.58574
0.127527,-0.215315,2.574,2.58614
0.135882,-0.215315,2.574,2.58656
0.144236,-0.215315,2.574,2.58701
0.153717,-0.216904,2.593,2.60659
0.162134,-0.216904,2.593,2.6071
0.17055,-0.216904,2.593,2.60764
0.178966,-0.216904,2.593,2.6082
0.187382,-0.216904,2.593,2.60879
0.195799,-0.216904,2.593,2.60941
0.20579,-0.218577,2.613,2.63019
0.214271,-0.218577,2.613,2.63087
0.222752,-0.218577,2.613,2.63157
0.231233,-0.218577,2.613,2.6323
0.239715,-0.218577,2.613,2.63306
0.248196,-0.218577,2.613,2.63385
0.258641,-0.22025,2.633,2.65482
0.267187,-0.22025,2.633,2.65567
0.275734,-0.22025,2.633,2.65654
0.28428,-0.22025,2.633,2.65745
0.292826,-0.22025,2.633,2.65837
0.301372,-0.22025,2.633,2.65933
0.307564,-0.218577,2.613,2.6401
0.316045,-0.218577,2.613,2.6411
0.324526,-0.218577,2.613,2.64213
0.333007,-0.218577,2.613,2.64319
0.341488,-0.218577,2.613,2.64427
0.349969,-0.218577,2.613,2.64538
0.358451,-0.218577,2.613,2.64651
0.364123,-0.216904,2.593,2.62741
0.372539,-0.216904,2.593,2.62859
0.380956,-0.216904,2.593,2.6298
0.389372,-0.216904,2.593,2.63103
0.397788,-0.216904,2.593,2.63229
0.406204,-0.216904,2.593,2.63357
0.414621,-0.216904,2.593,2.63488
0.423037,-0.216904,2.593,2.63622
0.431453,-0.216904,2.593,2.63758
0.439869,-0.216904,2.593,2.63897
0.448286,-0.216904,2.593,2.64039
0.456702,-0.216904,2.593,2.64183
0.465118,-0.216904,2.593,2.6433
0.473534,-0.216904,2.593,2.64479
0.481951,-0.216904,2.593,2.64631
0.490367,-0.216904,2.593,2.64786
0.498783,-0.216904,2.593,2.64943
0.507199,-0.216904,2.593,2.65103
0.511837,-0.215315,2.574,2.63321
0.520192,-0.215315,2.574,2.63485
0.528546,-0.215315,2.574,2.63651
0.536901,-0.215315,2.574,2.6382
0.545256,-0.215315,2.574,2.63991
0.55361,-0.215315,2.574,2.64165
0.561965,-0.215315,2.574,2.64341
0.570319,-0.215315,2.574,2.6452
0.578674,-0.215315,2.574,2.64702
0.587028,-0.215315,2.574,2.64886
0.595383,-0.215315,2.574,2.65072
0.603738,-0.215315,2.574,2.65261
0.612092,-0.215315,2.574,2.65452
0.615867,-0.213725,2.555,2.63685
0.62416,-0.213725,2.555,2.6388
0.632453,-0.213725,2.555,2.64078
0.640746,-0.213725,2.555,2.64277
0.644212,-0.212136,2.536,2.62513
0.652443,-0.212136,2.536,2.62716
0.660674,-0.212136,2.536,2.62922
0.663894,-0.210547,2.517,2.61158
0.667257,-0.209041,2.499,2.59498
0.675369,-0.209041,2.499,2.59708
0.68348,-0.209041,2.499,2.5992
0.691591,-0.209041,2.499,2.60135
0.699702,-0.209041,2.499,2.60351
0.702715,-0.207535,2.481,2.58694
0.710768,-0.207535,2.481,2.58914
0.71882,-0.207535,2.481,2.59136
0.726873,-0.207535,2.481,2.5936
0.740258,-0.209041,2.499,2.6147
0.748369,-0.209041,2.499,2.61701
0.75648,-0.209041,2.499,2.61934
0.764591,-0.209041,2.499,2.6217
0.772702,-0.209041,2.499,2.62407
0.780813,-0.209041,2.499,2.62647
0.788924,-0.209041,2.499,2.6289
0.797036,-0.209041,2.499,2.63134
0.805147,-0.209041,2.499,2.63381
0.813258,-0.209041,2.499,2.6363
0.815453,-0.207535,2.481,2.61981
0.823505,-0.207535,2.481,2.62233
0.831558,-0.207535,2.481,2.62487
0.839611,-0.207535,2.481,2.62743
0.841514,-0.20603,2.463,2.61093
0.849508,-0.20603,2.463,2.61352
0.857502,-0.20603,2.463,2.61613
0.865497,-0.20603,2.463,2.61876
0.873491,-0.20603,2.463,2.62141
0.881485,-0.20603,2.463,2.62409
0.889479,-0.20603,2.463,2.62678
0.897474,-0.20603,2.463,2.6295
0.905468,-0.20603,2.463,2.63224
0.906787,-0.204524,2.445,2.61574
0.914722,-0.204524,2.445,2.61851
0.922658,-0.204524,2.445,2.62129
0.930594,-0.204524,2.445,2.62409
0.932004,-0.203102,2.428,2.60865
0.939885,-0.203102,2.428,2.61148
0.947766,-0.203102,2.428,2.61433
0.955646,-0.203102,2.428,2.61719
0.963527,-0.203102,2.428,2.62008
0.971408,-0.203102,2.428,2.62299
0.979289,-0.203102,2.428,2.62592
nan,nan,nan,NaN
nan,nan,nan,NaN
nan,nan,nan,NaN
nan,nan,nan,NaN
nan,nan,nan,NaN
nan,nan,nan,NaN
nan,nan,nan,NaN
nan,nan,nan,NaN
nan,nan,nan,NaN
nan,nan,nan,NaN
nan,nan,nan,NaN
nan,nan,nan,NaN
nan,nan,nan,NaN
nan,nan,nan,NaN
nan,nan,nan,NaN
nan,nan,nan,NaN
nan,nan,nan,NaN
1.73712,-0.314691,3.762,4.15563
1.74933,-0.314691,3.762,4.16075
1.76154,-0.314691,3.762,4.1659
1.77375,-0.314691,3.762,4.17108
1.78596,-0.314691,3.762,4.17628
1.79817,-0.314691,3.762,4.18152
1.79065,-0.311261,3.721,4.14116
1.80273,-0.311261,3.721,4.14639
1.81481,-0.311261,3.721,4.15166
1.82689,-0.311261,3.721,4.15695
1.83896,-0.311261,3.721,4.16227
1.85104,-0.311261,3.721,4.16762
1.84309,-0.307915,3.681,4.12814
1.85504,-0.307915,3.681,4.13349
1.86699,-0.307915,3.681,4.13887
1.87893,-0.307915,3.681,4.14427
nan,nan,nan,NaN
nan,nan,nan,NaN
nan,nan,nan,NaN
nan,nan,nan,NaN
nan,nan,nan,NaN
nan,nan,nan,NaN
1.98389,-0.311261,3.721,4.2283
1.99597,-0.311261,3.721,4.23398
2.00805,-0.311261,3.721,4.23969
2.02013,-0.311261,3.721,4.24543
2.01036,-0.307915,3.681,4.20549
2.02231,-0.307915,3.681,4.21121
2.03425,-0.307915,3.681,4.21696
2.0462,-0.307915,3.681,4.22274
2.05815,-0.307915,3.681,4.22854
2.04816,-0.304653,3.642,4.1895
2.03849,-0.301474,3.604,4.15152
2.05019,-0.301474,3.604,4.15728
2.04015,-0.298296,3.566,4.11917
2.03043,-0.2952,3.529,4.08211
2.04189,-0.2952,3.529,4.08782
2.05334,-0.2952,3.529,4.09356
2.04373,-0.292189,3.493,4.05749
2.03448,-0.289261,3.458,4.0225
2.0457,-0.289261,3.458,4.02819
2.01588,-0.283489,3.389,3.95341
2.00714,-0.280729,3.356,3.92048
2.01804,-0.280729,3.356,3.92607
1.97089,-0.272699,3.26,3.81921
1.9444,-0.267596,3.199,3.75312
1.95478,-0.267596,3.199,3.75851
1.94735,-0.26517,3.17,3.7298
1.92182,-0.260318,3.112,3.66684
1.93192,-0.260318,3.112,3.67214
1.92455,-0.257976,3.084,3.64438
1.90068,-0.253459,3.03,3.58577
1.91052,-0.253459,3.03,3.59099
1.88676,-0.249026,2.977,3.53333
1.87986,-0.246851,2.951,3.50759
1.88944,-0.246851,2.951,3.51274
1.86684,-0.242668,2.901,3.45829
1.84521,-0.238653,2.853,3.40608
1.83887,-0.236646,2.829,3.38241
1.84806,-0.236646,2.829,3.38741
1.84214,-0.234722,2.806,3.36485
1.82156,-0.230957,2.761,3.3158
1.83052,-0.230957,2.761,3.32073
1.82482,-0.229117,2.739,3.29918
1.81899,-0.227277,2.717,3.27757
1.8278,-0.227277,2.717,3.28247
1.82243,-0.22552,2.696,3.26198
1.81691,-0.223763,2.675,3.24143
-2.02986,-0.235265,2.926,3.56892
-2.02036,-0.235265,2.926,3.56352
-1.97719,-0.231325,2.877,3.49856
-1.96786,-0.231325,2.877,3.49329
-1.94218,-0.229396,2.853,3.45894
-1.93292,-0.229396,2.853,3.45375
-1.92366,-0.229396,2.853,3.44858
-1.9144,-0.229396,2.853,3.44342
-1.90514,-0.229396,2.853,3.43828
-1.89588,-0.229396,2.853,3.43316
-1.88662,-0.229396,2.853,3.42805
-1.89315,-0.231325,2.877,3.45176
-1.88381,-0.231325,2.877,3.44665
-1.87447,-0.231325,2.877,3.44155
-1.8807,-0.233255,2.901,3.46514
-1.88741,-0.235265,2.926,3.48986
-1.87791,-0.235265,2.926,3.48473
-1.90098,-0.239366,2.977,3.54027
-1.90783,-0.241456,3.003,3.56597
-1.89809,-0.241456,3.003,3.56076
-1.90532,-0.243627,3.03,3.58755
-1.91237,-0.245798,3.057,3.61425
-1.91925,-0.247969,3.084,3.64089
-1.90924,-0.247969,3.084,3.63562
-1.89923,-0.247969,3.084,3.63038
-1.90638,-0.250221,3.112,3.65806
-1.89628,-0.250221,3.112,3.65281
-1.88618,-0.250221,3.112,3.64758
-1.91104,-0.254884,3.17,3.71025
-1.90075,-0.254884,3.17,3.70496
-1.89046,-0.254884,3.17,3.69969
nan,nan,nan,NaN
nan,nan,nan,NaN
nan,nan,nan,NaN
nan,nan,nan,NaN
nan,nan,nan,NaN
nan,nan,nan,NaN
nan,nan,nan,NaN
nan,nan,nan,NaN
nan,nan,nan,NaN
nan,nan,nan,NaN
nan,nan,nan,NaN
nan,nan,nan,NaN
nan,nan,nan,NaN
nan,nan,nan,NaN
nan,nan,nan,NaN
nan,nan,nan,NaN
nan,nan,nan,NaN
nan,nan,nan,NaN
nan,nan,nan,NaN
nan,nan,nan,NaN
nan,nan,nan,NaN
nan,nan,nan,NaN
nan,nan,nan,NaN
nan,nan,nan,NaN
nan,nan,nan,NaN
nan,nan,nan,NaN
nan,nan,nan,NaN
nan,nan,nan,NaN
nan,nan,nan,NaN
nan,nan,nan,NaN
nan,nan,nan,NaN
nan,nan,nan,NaN
-1.20502,-0.198038,2.463,2.74912
-1.19703,-0.198038,2.463,2.74563
-1.18035,-0.19659,2.445,2.72211
-1.17241,-0.19659,2.445,2.71868
-1.16447,-0.19659,2.445,2.71527
-1.15654,-0.19659,2.445,2.71187
-1.1486,-0.19659,2.445,2.7085
-1.14067,-0.19659,2.445,2.70514
-1.12485,-0.195223,2.428,2.68302
-1.11697,-0.195223,2.428,2.67973
-1.10909,-0.195223,2.428,2.67645
-1.10121,-0.195223,2.428,2.67319
-1.08568,-0.193857,2.411,2.65126
-1.07785,-0.193857,2.411,2.64807
-1.07003,-0.193857,2.411,2.64489
-1.0622,-0.193857,2.411,2.64174
-1.04694,-0.19249,2.394,2.61999
-1.03917,-0.19249,2.394,2.6169
-1.0314,-0.19249,2.394,2.61382
-1.01636,-0.191123,2.377,2.59223
-1.00865,-0.191123,2.377,2.58921
-1.00093,-0.191123,2.377,2.58622
-0.993215,-0.191123,2.377,2.58324
-0.978866,-0.189836,2.361,2.56292
-0.971203,-0.189836,2.361,2.56
-0.96354,-0.189836,2.361,2.5571
-0.955876,-0.189836,2.361,2.55422
-0.948213,-0.189836,2.361,2.55137
-0.94055,-0.189836,2.361,2.54853
-0.932887,-0.189836,2.361,2.54571
-0.925224,-0.189836,2.361,2.54291
-0.91756,-0.189836,2.361,2.54013
-0.909897,-0.189836,2.361,2.53737
-0.902234,-0.189836,2.361,2.53464
-0.894571,-0.189836,2.361,2.53192
-0.886907,-0.189836,2.361,2.52922
-0.879244,-0.189836,2.361,2.52655
-0.871581,-0.189836,2.361,2.52389
-0.863918,-0.189836,2.361,2.52125
-0.862057,-0.191123,2.377,2.53571
-0.854342,-0.191123,2.377,2.53309
-0.846627,-0.191123,2.377,2.5305
-0.838912,-0.191123,2.377,2.52793
-0.837141,-0.19249,2.394,2.54344
-0.829371,-0.19249,2.394,2.54089
-0.821601,-0.19249,2.394,2.53837
-0.81383,-0.19249,2.394,2.53586
-0.811784,-0.193857,2.411,2.55137
-0.803958,-0.193857,2.411,2.54889
-0.796133,-0.193857,2.411,2.54643
-0.788307,-0.193857,2.411,2.544
-0.780482,-0.193857,2.411,2.54158
-0.772656,-0.193857,2.411,2.53919
-0.764831,-0.193857,2.411,2.53682
-0.757005,-0.193857,2.411,2.53447
-0.74918,-0.193857,2.411,2.53215
-0.741354,-0.193857,2.411,2.52984
-0.738701,-0.195223,2.428,2.54538
-0.725703,-0.193857,2.411,2.5253
-0.717878,-0.193857,2.411,2.52306
-0.710052,-0.193857,2.411,2.52085
-0.702227,-0.193857,2.411,2.51866
-0.694401,-0.193857,2.411,2.51648
-0.691417,-0.195223,2.428,2.53207
-0.683536,-0.195223,2.428,2.52992
-0.670925,-0.193857,2.411,2.51011
-0.663099,-0.193857,2.411,2.50803
-0.659894,-0.195223,2.428,2.52364
-0.647448,-0.193857,2.411,2.50394
-0.639623,-0.193857,2.411,2.50192
-0.631797,-0.193857,2.411,2.49993
-0.623972,-0.193857,2.411,2.49797
-0.620491,-0.195223,2.428,2.51362
-0.61261,-0.195223,2.428,2.51169
-0.604729,-0.195223,2.428,2.50978
-0.596848,-0.195223,2.428,2.50789
-0.593092,-0.19659,2.445,2.52358
-0.585156,-0.19659,2.445,2.52172
-0.57722,-0.19659,2.445,2.51989
-0.573475,-0.198038,2.463,2.53662
-0.569613,-0.199485,2.481,2.55335
-0.561561,-0.199485,2.481,2.55157
-0.557524,-0.200932,2.499,2.56831
-0.549413,-0.200932,2.499,2.56656
-0.541301,-0.200932,2.499,2.56484
-0.537031,-0.20238,2.517,2.5816
-0.532853,-0.203907,2.536,2.59939
-0.528553,-0.205435,2.555,2.61717
-0.52026,-0.205435,2.555,2.61551
-0.511967,-0.205435,2.555,2.61387
-0.503674,-0.205435,2.555,2.61226
-0.495381,-0.205435,2.555,2.61068
-0.487088,-0.205435,2.555,2.60912
-0.482356,-0.206963,2.574,2.62697
-0.474001,-0.206963,2.574,2.62545
-0.465647,-0.206963,2.574,2.62395
-0.457292,-0.206963,2.574,2.62248
-0.448938,-0.206963,2.574,2.62104
-0.443835,-0.20849,2.593,2.63896
-0.432229,-0.206963,2.574,2.61823
-0.423874,-0.206963,2.574,2.61686
-0.415519,-0.206963,2.574,2.61552
-0.407165,-0.206963,2.574,2.61421
-0.401754,-0.20849,2.593,2.63221
-0.390456,-0.206963,2.574,2.61166
-0.382101,-0.206963,2.574,2.61042
-0.373747,-0.206963,2.574,2.60921
-0.365392,-0.206963,2.574,2.60803
-0.357037,-0.206963,2.574,2.60687
-0.348683,-0.206963,2.574,2.60574
-0.340328,-0.206963,2.574,2.60464
-0.331974,-0.206963,2.574,2.60356
-0.323619,-0.206963,2.574,2.60251
-0.315265,-0.206963,2.574,2.60148
-0.30691,-0.206963,2.574,2.60048
-0.298555,-0.206963,2.574,2.59951
-0.290201,-0.206963,2.574,2.59856
-0.281846,-0.206963,2.574,2.59764
-0.275511,-0.20849,2.593,2.61592
-0.267094,-0.20849,2.593,2.61504
-0.258678,-0.20849,2.593,2.6142
-0.250262,-0.20849,2.593,2.61338
-0.240074,-0.206963,2.574,2.59344
-0.231719,-0.206963,2.574,2.59268
-0.223364,-0.206963,2.574,2.59195
-0.21501,-0.206963,2.574,2.59124
-0.206655,-0.206963,2.574,2.59056
-0.198301,-0.206963,2.574,2.58991
-0.191348,-0.20849,2.593,2.6084
-0.182932,-0.20849,2.593,2.60779
-0.173237,-0.206963,2.574,2.58811
-0.164882,-0.206963,2.574,2.58757
-0.156528,-0.206963,2.574,2.58705
-0.149267,-0.20849,2.593,2.60565
-0.140851,-0.20849,2.593,2.60518
-0.132435,-0.20849,2.593,2.60474
-0.124018,-0.20849,2.593,2.60432
-0.115602,-0.20849,2.593,2.60394
-0.107186,-0.20849,2.593,2.60358
-0.0995315,-0.210098,2.613,2.62332
-0.0910503,-0.210098,2.613,2.62301
-0.0825692,-0.210098,2.613,2.62273
-0.074088,-0.210098,2.613,2.62248
-0.0656069,-0.210098,2.613,2.62225
-0.0571257,-0.210098,2.613,2.62206
-0.0486446,-0.210098,2.613,2.62188
-0.0401634,-0.210098,2.613,2.62174
-0.0316823,-0.210098,2.613,2.62162
-0.0230235,-0.20849,2.593,2.60147
-0.0146073,-0.20849,2.593,2.60141
-0.00619107,-0.20849,2.593,2.60138
0.00222516,-0.20849,2.593,2.60137
0.0106414,-0.20849,2.593,2.60139
0.018918,-0.206963,2.574,2.58238
0.0272725,-0.206963,2.574,2.58245
0.0356271,-0.206963,2.574,2.58255
0.0439817,-0.206963,2.574,2.58268
0.0523362,-0.206963,2.574,2.58284
0.0606908,-0.206963,2.574,2.58302
0.0690454,-0.206963,2.574,2.58323
0.0773999,-0.206963,2.574,2.58347
0.0857545,-0.206963,2.574,2.58373
0.0941091,-0.206963,2.574,2.58402
0.102464,-0.206963,2.574,2.58434
0.110818,-0.206963,2.574,2.58468
0.119173,-0.206963,2.574,2.58506
0.127527,-0.206963,2.574,2.58545
0.135882,-0.206963,2.574,2.58588
0.144236,-0.206963,2.574,2.58633
0.153717,-0.20849,2.593,2.60591
0.162134,-0.20849,2.593,2.60642
0.17055,-0.20849,2.593,2.60695
0.178966,-0.20849,2.593,2.60752
0.187382,-0.20849,2.593,2.60811
0.195799,-0.20849,2.593,2.60873
0.20579,-0.210098,2.613,2.6295
0.214271,-0.210098,2.613,2.63018
0.222752,-0.210098,2.613,2.63088
0.231233,-0.210098,2.613,2.63161
0.239715,-0.210098,2.613,2.63237
0.248196,-0.210098,2.613,2.63316
0.258641,-0.211707,2.633,2.65413
0.267187,-0.211707,2.633,2.65498
0.275734,-0.211707,2.633,2.65585
0.28428,-0.211707,2.633,2.65675
0.292826,-0.211707,2.633,2.65768
0.301372,-0.211707,2.633,2.65863
0.307564,-0.210098,2.613,2.63941
0.316045,-0.210098,2.613,2.64042
0.324526,-0.210098,2.613,2.64144
0.333007,-0.210098,2.613,2.6425
0.338875,-0.20849,2.593,2.62335
0.347291,-0.20849,2.593,2.62445
0.355707,-0.20849,2.593,2.62558
0.361455,-0.206963,2.574,2.60748
0.36981,-0.206963,2.574,2.60865
0.378164,-0.206963,2.574,2.60985
0.386519,-0.206963,2.574,2.61107
0.394873,-0.206963,2.574,2.61232
0.403228,-0.206963,2.574,2.6136
0.411583,-0.206963,2.574,2.6149
0.419937,-0.206963,2.574,2.61623
0.428292,-0.206963,2.574,2.61758
0.436646,-0.206963,2.574,2.61896
0.445001,-0.206963,2.574,2.62037
0.453355,-0.206963,2.574,2.6218
0.46171,-0.206963,2.574,2.62326
0.470064,-0.206963,2.574,2.62474
0.478419,-0.206963,2.574,2.62625
0.486774,-0.206963,2.574,2.62779
0.495128,-0.206963,2.574,2.62935
0.503483,-0.206963,2.574,2.63093
0.508059,-0.205435,2.555,2.61311
0.516352,-0.205435,2.555,2.61474
0.524645,-0.205435,2.555,2.61639
0.532938,-0.205435,2.555,2.61806
0.541231,-0.205435,2.555,2.61976
0.549524,-0.205435,2.555,2.62149
0.557817,-0.205435,2.555,2.62324
0.566109,-0.205435,2.555,2.62502
0.574402,-0.205435,2.555,2.62682
0.582695,-0.205435,2.555,2.62864
0.590988,-0.205435,2.555,2.63049
0.599281,-0.205435,2.555,2.63237
0.607574,-0.205435,2.555,2.63427
0.615867,-0.205435,2.555,2.63619
0.62416,-0.205435,2.555,2.63814
0.627749,-0.203907,2.536,2.62049
0.635981,-0.203907,2.536,2.62247
0.644212,-0.203907,2.536,2.62448
0.652443,-0.203907,2.536,2.62651
0.660674,-0.203907,2.536,2.62857
0.663894,-0.20238,2.517,2.61094
0.667257,-0.200932,2.499,2.59434
0.675369,-0.200932,2.499,2.59644
0.68348,-0.200932,2.499,2.59856
0.691591,-0.200932,2.499,2.60071
0.699702,-0.200932,2.499,2.60287
0.707813,-0.200932,2.499,2.60507
0.715924,-0.200932,2.499,2.60728
0.724035,-0.200932,2.499,2.60952
0.732147,-0.200932,2.499,2.61178
0.740258,-0.200932,2.499,2.61407
0.748369,-0.200932,2.499,2.61638
0.75648,-0.200932,2.499,2.61871
0.764591,-0.200932,2.499,2.62106
0.772702,-0.200932,2.499,2.62344
0.780813,-0.200932,2.499,2.62584
0.788924,-0.200932,2.499,2.62826
0.797036,-0.200932,2.499,2.63071
0.805147,-0.200932,2.499,2.63318
0.813258,-0.200932,2.499,2.63567
0.815453,-0.199485,2.481,2.61918
0.823505,-0.199485,2.481,2.6217
0.831558,-0.199485,2.481,2.62424
0.839611,-0.199485,2.481,2.6268
0.841514,-0.198038,2.463,2.61031
0.849508,-0.198038,2.463,2.6129
0.857502,-0.198038,2.463,2.61551
0.865497,-0.198038,2.463,2.61814
0.873491,-0.198038,2.463,2.6208
0.881485,-0.198038,2.463,2.62347
0.889479,-0.198038,2.463,2.62617
0.897474,-0.198038,2.463,2.62889
0.898851,-0.19659,2.445,2.61239
0.906787,-0.19659,2.445,2.61514
0.914722,-0.19659,2.445,2.6179
0.922658,-0.19659,2.445,2.62068
0.930594,-0.19659,2.445,2.62349
0.932004,-0.195223,2.428,2.60805
0.939885,-0.195223,2.428,2.61088
0.947766,-0.195223,2.428,2.61372
0.955646,-0.195223,2.428,2.61659
0.963527,-0.195223,2.428,2.61948
0.971408,-0.195223,2.428,2.62239
0.979289,-0.195223,2.428,2.62532
nan,nan,nan,NaN
nan,nan,nan,NaN
nan,nan,nan,NaN
nan,nan,nan,NaN
nan,nan,nan,NaN
nan,nan,nan,NaN
nan,nan,nan,NaN
nan,nan,nan,NaN
nan,nan,nan,NaN
nan,nan,nan,NaN
nan,nan,nan,NaN
nan,nan,nan,NaN
nan,nan,nan,NaN
nan,nan,nan,NaN
nan,nan,nan,NaN
nan,nan,nan,NaN
nan,nan,nan,NaN
nan,nan,nan,NaN
nan,nan,nan,NaN
1.76154,-0.302484,3.762,4.16499
1.77375,-0.302484,3.762,4.17017
1.78596,-0.302484,3.762,4.17538
1.79817,-0.302484,3.762,4.18062
1.79065,-0.299187,3.721,4.14027
1.80273,-0.299187,3.721,4.1455
1.81481,-0.299187,3.721,4.15077
1.82689,-0.299187,3.721,4.15606
1.83896,-0.299187,3.721,4.16139
nan,nan,nan,NaN
nan,nan,nan,NaN
nan,nan,nan,NaN
nan,nan,nan,NaN
nan,nan,nan,NaN
nan,nan,nan,NaN
nan,nan,nan,NaN
nan,nan,nan,NaN
nan,nan,nan,NaN
nan,nan,nan,NaN
nan,nan,nan,NaN
1.98389,-0.299187,3.721,4.22743
1.99597,-0.299187,3.721,4.23311
2.00805,-0.299187,3.721,4.23882
2.02013,-0.299187,3.721,4.24456
2.01036,-0.295971,3.681,4.20463
2.02231,-0.295971,3.681,4.21035
2.03425,-0.295971,3.681,4.21611
2.0462,-0.295971,3.681,4.22188
2.05815,-0.295971,3.681,4.22769
2.04816,-0.292835,3.642,4.18866
2.03849,-0.28978,3.604,4.15069
2.05019,-0.28978,3.604,4.15645
2.04015,-0.286724,3.566,4.11834
2.03043,-0.283749,3.529,4.0813
2.04189,-0.283749,3.529,4.08701
2.05334,-0.283749,3.529,4.09275
2.04373,-0.280855,3.493,4.05669
2.03448,-0.278041,3.458,4.02171
2.0457,-0.278041,3.458,4.0274
2.01588,-0.272493,3.389,3.95264
2.00714,-0.269839,3.356,3.91972
2.01804,-0.269839,3.356,3.92531
1.97089,-0.262121,3.26,3.81847
1.9444,-0.257216,3.199,3.75239
1.95478,-0.257216,3.199,3.75778
1.94735,-0.254884,3.17,3.72908
1.92182,-0.250221,3.112,3.66613
1.93192,-0.250221,3.112,3.67144
1.9077,-0.245798,3.057,3.61178
1.90068,-0.243627,3.03,3.58509
1.91052,-0.243627,3.03,3.59031
1.88676,-0.239366,2.977,3.53266
1.86394,-0.235265,2.926,3.47722
1.87343,-0.235265,2.926,3.48232
1.8514,-0.231325,2.877,3.42904
1.84521,-0.229396,2.853,3.40544
1.82392,-0.225617,2.806,3.35429
1.83303,-0.225617,2.806,3.35925
1.82704,-0.223767,2.783,3.33665
1.82156,-0.221998,2.761,3.31519
1.83052,-0.221998,2.761,3.32012
1.81017,-0.218461,2.717,3.27208
1.80493,-0.216772,2.696,3.25164
1.81368,-0.216772,2.696,3.25651
1.80823,-0.215084,2.675,3.23598
1.80265,-0.213395,2.654,3.2154
-1.99587,-0.22199,2.877,3.50855
-1.98653,-0.22199,2.877,3.50324
-1.9607,-0.220138,2.853,3.46878
-1.95144,-0.220138,2.853,3.46355
-1.92584,-0.218286,2.829,3.42925
-1.91666,-0.218286,2.829,3.4241
-1.89197,-0.216512,2.806,3.39117
-1.88286,-0.216512,2.806,3.3861
-1.88911,-0.218286,2.829,3.40876
-1.86465,-0.216512,2.806,3.37601
-1.85554,-0.216512,2.806,3.37098
-1.86157,-0.218286,2.829,3.39357
-1.85238,-0.218286,2.829,3.38854
-1.85884,-0.220138,2.853,3.41224
-1.84958,-0.220138,2.853,3.4072
-1.8558,-0.22199,2.877,3.4308
-1.84646,-0.22199,2.877,3.42576
-1.85245,-0.223842,2.901,3.44927
-1.8748,-0.2277,2.951,3.50359
-1.86522,-0.2277,2.951,3.49847
-1.88834,-0.231712,3.003,3.55493
-1.87859,-0.231712,3.003,3.54976
-1.86885,-0.231712,3.003,3.54461
-1.87581,-0.233795,3.03,3.57131
-1.88261,-0.235879,3.057,3.59793
-1.87268,-0.235879,3.057,3.59275
-1.86276,-0.235879,3.057,3.58759
-1.8692,-0.237962,3.084,3.61408
-1.85919,-0.237962,3.084,3.60892
-1.84918,-0.237962,3.084,3.60377
nan,nan,nan,NaN
nan,nan,nan,NaN
nan,nan,nan,NaN
nan,nan,nan,NaN
nan,nan,nan,NaN
nan,nan,nan,NaN
nan,nan,nan,NaN
nan,nan,nan,NaN
nan,nan,nan,NaN
nan,nan,nan,NaN
nan,nan,nan,NaN
nan,nan,nan,NaN
nan,nan,nan,NaN
nan,nan,nan,NaN
nan,nan,nan,NaN
nan,nan,nan,NaN
nan,nan,nan,NaN
nan,nan,nan,NaN
nan,nan,nan,NaN
nan,nan,nan,NaN
nan,nan,nan,NaN
nan,nan,nan,NaN
nan,nan,nan,NaN
nan,nan,nan,NaN
nan,nan,nan,NaN
nan,nan,nan,NaN
nan,nan,nan,NaN
nan,nan,nan,NaN
nan,nan,nan,NaN
nan,nan,nan,NaN
nan,nan,nan,NaN
nan,nan,nan,NaN
nan,nan,nan,NaN
-1.20502,-0.190046,2.463,2.74856
-1.19703,-0.190046,2.463,2.74506
-1.18904,-0.190046,2.463,2.74159
-1.18104,-0.190046,2.463,2.73813
-1.17305,-0.190046,2.463,2.73469
-1.16505,-0.190046,2.463,2.73127
-1.1486,-0.188657,2.445,2.70793
-1.14067,-0.188657,2.445,2.70458
-1.13273,-0.188657,2.445,2.70124
-1.11697,-0.187345,2.428,2.67916
-1.10909,-0.187345,2.428,2.67589
-1.10121,-0.187345,2.428,2.67263
-1.09333,-0.187345,2.428,2.66939
-1.07785,-0.186033,2.411,2.64751
-1.07003,-0.186033,2.411,2.64433
-1.0622,-0.186033,2.411,2.64117
-1.05437,-0.186033,2.411,2.63804
-1.04655,-0.186033,2.411,2.63492
-1.03872,-0.186033,2.411,2.63182
-1.02363,-0.184722,2.394,2.61021
-1.01586,-0.184722,2.394,2.60717
-1.00809,-0.184722,2.394,2.60415
-0.993215,-0.18341,2.377,2.58268
-0.9855,-0.18341,2.377,2.57972
-0.977785,-0.18341,2.377,2.57679
-0.970069,-0.18341,2.377,2.57387
-0.955876,-0.182175,2.361,2.55367
-0.948213,-0.182175,2.361,2.55081
-0.94055,-0.182175,2.361,2.54797
-0.932887,-0.182175,2.361,2.54515
-0.925224,-0.182175,2.361,2.54235
-0.91756,-0.182175,2.361,2.53957
-0.909897,-0.182175,2.361,2.53681
-0.902234,-0.182175,2.361,2.53407
-0.894571,-0.182175,2.361,2.53136
-0.886907,-0.182175,2.361,2.52866
-0.885203,-0.18341,2.377,2.5431
-0.877488,-0.18341,2.377,2.54042
-0.869772,-0.18341,2.377,2.53777
-0.862057,-0.18341,2.377,2.53514
-0.860452,-0.184722,2.394,2.55063
-0.852682,-0.184722,2.394,2.54802
-0.844912,-0.184722,2.394,2.54543
-0.837141,-0.184722,2.394,2.54287
-0.83526,-0.186033,2.411,2.55836
-0.827435,-0.186033,2.411,2.55581
-0.819609,-0.186033,2.411,2.55329
-0.811784,-0.186033,2.411,2.55079
-0.803958,-0.186033,2.411,2.54831
-0.796133,-0.186033,2.411,2.54585
-0.788307,-0.186033,2.411,2.54341
-0.780482,-0.186033,2.411,2.541
-0.772656,-0.186033,2.411,2.53861
-0.764831,-0.186033,2.411,2.53624
-0.757005,-0.186033,2.411,2.53389
-0.754462,-0.187345,2.428,2.54941
-0.746581,-0.187345,2.428,2.54709
-0.738701,-0.187345,2.428,2.54479
-0.73082,-0.187345,2.428,2.54251
-0.717878,-0.186033,2.411,2.52247
-0.710052,-0.186033,2.411,2.52026
-0.702227,-0.186033,2.411,2.51806
-0.699297,-0.187345,2.428,2.53363
-0.691417,-0.187345,2.428,2.53147
-0.683536,-0.187345,2.428,2.52933
-0.675655,-0.187345,2.428,2.52721
-0.667775,-0.187345,2.428,2.52512
-0.659894,-0.187345,2.428,2.52304
-0.652013,-0.187345,2.428,2.52099
-0.644133,-0.187345,2.428,2.51897
-0.636252,-0.187345,2.428,2.51696
-0.628371,-0.187345,2.428,2.51498
-0.620491,-0.187345,2.428,2.51302
-0.61261,-0.187345,2.428,2.51109
-0.604729,-0.187345,2.428,2.50918
-0.596848,-0.187345,2.428,2.50729
-0.593092,-0.188657,2.445,2.52297
-0.585156,-0.188657,2.445,2.52112
-0.57722,-0.188657,2.445,2.51929
-0.573475,-0.190046,2.463,2.53601
-0.569613,-0.191435,2.481,2.55274
-0.561561,-0.191435,2.481,2.55095
-0.557524,-0.192823,2.499,2.56769
-0.549413,-0.192823,2.499,2.56594
-0.541301,-0.192823,2.499,2.56421
-0.537031,-0.194212,2.517,2.58097
-0.532853,-0.195678,2.536,2.59875
-0.524622,-0.195678,2.536,2.59708
-0.516391,-0.195678,2.536,2.59543
-0.511967,-0.197144,2.555,2.61324
-0.503674,-0.197144,2.555,2.61162
-0.495381,-0.197144,2.555,2.61004
-0.487088,-0.197144,2.555,2.60848
-0.482356,-0.19861,2.574,2.62633
-0.474001,-0.19861,2.574,2.6248
-0.465647,-0.19861,2.574,2.62331
-0.457292,-0.19861,2.574,2.62184
-0.448938,-0.19861,2.574,2.62039
-0.443835,-0.200076,2.593,2.63831
-0.432229,-0.19861,2.574,2.61758
-0.423874,-0.19861,2.574,2.61622
-0.415519,-0.19861,2.574,2.61488
-0.407165,-0.19861,2.574,2.61356
-0.401754,-0.200076,2.593,2.63156
-0.390456,-0.19861,2.574,2.61101
-0.382101,-0.19861,2.574,2.60977
-0.373747,-0.19861,2.574,2.60856
-0.365392,-0.19861,2.574,2.60738
-0.357037,-0.19861,2.574,2.60622
-0.348683,-0.19861,2.574,2.60509
-0.340328,-0.19861,2.574,2.60399
-0.331974,-0.19861,2.574,2.60291
-0.323619,-0.19861,2.574,2.60186
-0.315265,-0.19861,2.574,2.60083
-0.30691,-0.19861,2.574,2.59983
-0.298555,-0.19861,2.574,2.59886
-0.290201,-0.19861,2.574,2.59791
-0.281846,-0.19861,2.574,2.59699
-0.275511,-0.200076,2.593,2.61526
-0.267094,-0.200076,2.593,2.61439
-0.258678,-0.200076,2.593,2.61354
-0.250262,-0.200076,2.593,2.61272
-0.240074,-0.19861,2.574,2.59279
-0.231719,-0.19861,2.574,2.59203
-0.223364,-0.19861,2.574,2.5913
-0.21501,-0.19861,2.574,2.59059
-0.206655,-0.19861,2.574,2.58991
-0.198301,-0.19861,2.574,2.58926
-0.191348,-0.200076,2.593,2.60774
-0.182932,-0.200076,2.593,2.60713
-0.174516,-0.200076,2.593,2.60656
-0.1661,-0.200076,2.593,2.60601
-0.157683,-0.200076,2.593,2.60548
-0.149267,-0.200076,2.593,2.60499
-0.140851,-0.200076,2.593,2.60452
-0.132435,-0.200076,2.593,2.60408
-0.124975,-0.20162,2.613,2.62375
-0.116494,-0.20162,2.613,2.62335
-0.108013,-0.20162,2.613,2.62299
-0.0995315,-0.20162,2.613,2.62266
-0.0910503,-0.20162,2.613,2.62235
-0.0825692,-0.20162,2.613,2.62207
-0.074088,-0.20162,2.613,2.62181
-0.0656069,-0.20162,2.613,2.62159
-0.0571257,-0.20162,2.613,2.62139
-0.0486446,-0.20162,2.613,2.62122
-0.0401634,-0.20162,2.613,2.62107
-0.0316823,-0.20162,2.613,2.62096
-0.0232011,-0.20162,2.613,2.62087
-0.01472,-0.20162,2.613,2.62081
-0.00623883,-0.20162,2.613,2.62077
0.00222516,-0.200076,2.593,2.60071
0.0106414,-0.200076,2.593,2.60073
0.0190576,-0.200076,2.593,2.60078
0.0274739,-0.200076,2.593,2.60085
0.0356271,-0.19861,2.574,2.5819
0.0439817,-0.19861,2.574,2.58203
0.0523362,-0.19861,2.574,2.58218
0.0606908,-0.19861,2.574,2.58236
0.0690454,-0.19861,2.574,2.58257
0.0773999,-0.19861,2.574,2.58281
0.0857545,-0.19861,2.574,2.58308
0.0941091,-0.19861,2.574,2.58337
0.102464,-0.19861,2.574,2.58368
0.110818,-0.19861,2.574,2.58403
0.119173,-0.19861,2.574,2.5844
0.127527,-0.19861,2.574,2.5848
0.136885,-0.200076,2.593,2.60431
0.145301,-0.200076,2.593,2.60476
0.153717,-0.200076,2.593,2.60525
0.162134,-0.200076,2.593,2.60576
0.17055,-0.200076,2.593,2.60629
0.178966,-0.200076,2.593,2.60686
0.187382,-0.200076,2.593,2.60745
0.197309,-0.20162,2.613,2.62818
0.20579,-0.20162,2.613,2.62883
0.214271,-0.20162,2.613,2.62951
0.222752,-0.20162,2.613,2.63022
0.231233,-0.20162,2.613,2.63095
0.241549,-0.203163,2.633,2.65185
0.250095,-0.203163,2.633,2.65264
0.258641,-0.203163,2.633,2.65346
0.267187,-0.203163,2.633,2.65431
0.275734,-0.203163,2.633,2.65518
0.28428,-0.203163,2.633,2.65608
0.292826,-0.203163,2.633,2.65701
0.301372,-0.203163,2.633,2.65797
0.309918,-0.203163,2.633,2.65895
0.318464,-0.203163,2.633,2.65996
0.324526,-0.20162,2.613,2.64078
0.333007,-0.20162,2.613,2.64184
0.338875,-0.200076,2.593,2.62269
0.347291,-0.200076,2.593,2.62379
0.353101,-0.19861,2.574,2.60569
0.361455,-0.19861,2.574,2.60683
0.36981,-0.19861,2.574,2.608
0.375373,-0.197144,2.555,2.58994
0.383666,-0.197144,2.555,2.59116
0.394873,-0.19861,2.574,2.61168
0.400252,-0.197144,2.555,2.59366
0.408544,-0.197144,2.555,2.59496
0.416837,-0.197144,2.555,2.59628
0.42513,-0.197144,2.555,2.59762
0.433423,-0.197144,2.555,2.59899
0.441716,-0.197144,2.555,2.60039
0.450009,-0.197144,2.555,2.60181
0.458302,-0.197144,2.555,2.60325
0.466595,-0.197144,2.555,2.60473
0.478419,-0.19861,2.574,2.62561
0.486774,-0.19861,2.574,2.62714
0.495128,-0.19861,2.574,2.6287
0.503483,-0.19861,2.574,2.63029
0.508059,-0.197144,2.555,2.61247
0.516352,-0.197144,2.555,2.6141
0.524645,-0.197144,2.555,2.61575
0.532938,-0.197144,2.555,2.61742
0.541231,-0.197144,2.555,2.61913
0.549524,-0.197144,2.555,2.62085
0.557817,-0.197144,2.555,2.6226
0.566109,-0.197144,2.555,2.62438
0.574402,-0.197144,2.555,2.62618
0.582695,-0.197144,2.555,2.62801
0.590988,-0.197144,2.555,2.62986
0.599281,-0.197144,2.555,2.63173
0.607574,-0.197144,2.555,2.63364
0.615867,-0.197144,2.555,2.63556
0.62416,-0.197144,2.555,2.63751
0.627749,-0.195678,2.536,2.61986
0.635981,-0.195678,2.536,2.62184
0.644212,-0.195678,2.536,2.62385
0.652443,-0.195678,2.536,2.62588
0.660674,-0.195678,2.536,2.62794
0.663894,-0.194212,2.517,2.61032
0.667257,-0.192823,2.499,2.59373
0.675369,-0.192823,2.499,2.59582
0.68348,-0.192823,2.499,2.59795
0.691591,-0.192823,2.499,2.60009
0.699702,-0.192823,2.499,2.60226
0.707813,-0.192823,2.499,2.60445
0.715924,-0.192823,2.499,2.60667
0.724035,-0.192823,2.499,2.60891
0.732147,-0.192823,2.499,2.61117
0.740258,-0.192823,2.499,2.61346
0.748369,-0.192823,2.499,2.61577
0.75648,-0.192823,2.499,2.6181
0.764591,-0.192823,2.499,2.62045
0.772702,-0.192823,2.499,2.62283
0.786437,-0.194212,2.517,2.64414
0.788924,-0.192823,2.499,2.62766
0.797036,-0.192823,2.499,2.6301
0.805147,-0.192823,2.499,2.63257
0.813258,-0.192823,2.499,2.63507
0.815453,-0.191435,2.481,2.61858
0.823505,-0.191435,2.481,2.6211
0.831558,-0.191435,2.481,2.62364
0.839611,-0.191435,2.481,2.62621
0.841514,-0.190046,2.463,2.60972
0.849508,-0.190046,2.463,2.61231
0.857502,-0.190046,2.463,2.61492
0.865497,-0.190046,2.463,2.61755
0.873491,-0.190046,2.463,2.6202
0.881485,-0.190046,2.463,2.62288
0.889479,-0.190046,2.463,2.62558
0.897474,-0.190046,2.463,2.6283
0.898851,-0.188657,2.445,2.61181
0.906787,-0.188657,2.445,2.61455
0.914722,-0.188657,2.445,2.61731
0.922658,-0.188657,2.445,2.6201
0.924124,-0.187345,2.428,2.60467
0.932004,-0.187345,2.428,2.60747
0.939885,-0.187345,2.428,2.6103
0.947766,-0.187345,2.428,2.61315
0.955646,-0.187345,2.428,2.61602
0.963527,-0.187345,2.428,2.61891
0.971408,-0.187345,2.428,2.62182
0.972432,-0.186033,2.411,2.60637
0.980257,-0.186033,2.411,2.6093
0.988083,-0.186033,2.411,2.61225
1.00293,-0.187345,2.428,2.63366
nan,nan,nan,NaN
nan,nan,nan,NaN
nan,nan,nan,NaN
nan,nan,nan,NaN
nan,nan,nan,NaN
nan,nan,nan,NaN
nan,nan,nan,NaN
nan,nan,nan,NaN
nan,nan,nan,NaN
nan,nan,nan,NaN
nan,nan,nan,NaN
nan,nan,nan,NaN
nan,nan,nan,NaN
nan,nan,nan,NaN
nan,nan,nan,NaN
nan,nan,nan,NaN
1.76154,-0.290277,3.762,4.16413
1.77375,-0.290277,3.762,4.16931
1.78596,-0.290277,3.762,4.17451
1.79817,-0.290277,3.762,4.17975
1.79065,-0.287113,3.721,4.13941
1.80273,-0.287113,3.721,4.14465
1.81481,-0.287113,3.721,4.14992
1.82689,-0.287113,3.721,4.15521
1.83896,-0.287113,3.721,4.16054
nan,nan,nan,NaN
nan,nan,nan,NaN
nan,nan,nan,NaN
nan,nan,nan,NaN
nan,nan,nan,NaN
nan,nan,nan,NaN
nan,nan,nan,NaN
nan,nan,nan,NaN
nan,nan,nan,NaN
nan,nan,nan,NaN
nan,nan,nan,NaN
1.98389,-0.287113,3.721,4.2266
1.99597,-0.287113,3.721,4.23228
2.00805,-0.287113,3.721,4.23799
1.99841,-0.284027,3.681,4.1981
2.01036,-0.284027,3.681,4.2038
2.02231,-0.284027,3.681,4.20953
2.0127,-0.281018,3.642,4.17062
2.02452,-0.281018,3.642,4.17634
2.03634,-0.281018,3.642,4.18208
2.02679,-0.278085,3.604,4.14416
2.03849,-0.278085,3.604,4.14989
2.05019,-0.278085,3.604,4.15565
2.04015,-0.275153,3.566,4.11756
2.03043,-0.272298,3.529,4.08052
2.02106,-0.269521,3.493,4.04455
2.03239,-0.269521,3.493,4.05022
2.04373,-0.269521,3.493,4.05593
2.01389,-0.264119,3.423,3.98025
2.025,-0.264119,3.423,3.98589
1.99625,-0.25895,3.356,3.91341
1.98801,-0.256481,3.324,3.88161
1.99879,-0.256481,3.324,3.88715
1.97089,-0.251542,3.26,3.81776
1.9444,-0.246836,3.199,3.75169
1.95478,-0.246836,3.199,3.75709
1.94735,-0.244598,3.17,3.72839
1.92182,-0.240123,3.112,3.66546
1.93192,-0.240123,3.112,3.67077
1.9077,-0.235879,3.057,3.61112
1.88375,-0.231712,3.003,3.55249
1.89349,-0.231712,3.003,3.55767
1.87028,-0.2277,2.951,3.50117
1.84801,-0.223842,2.901,3.44689
1.85743,-0.223842,2.901,3.45195
1.8514,-0.22199,2.877,3.42842
1.82969,-0.218286,2.829,3.37619
1.82392,-0.216512,2.806,3.35369
1.83303,-0.216512,2.806,3.35865
1.82704,-0.214737,2.783,3.33606
1.80704,-0.211342,2.739,3.28819
1.81593,-0.211342,2.739,3.29308
1.81017,-0.209644,2.717,3.27151
1.80493,-0.208024,2.696,3.25107
1.81368,-0.208024,2.696,3.25594
1.80823,-0.206404,2.675,3.23542
1.80265,-0.204783,2.654,3.21484
-1.99587,-0.212655,2.877,3.50797
-1.98653,-0.212655,2.877,3.50266
-1.9607,-0.210881,2.853,3.4682
-1.93502,-0.209107,2.829,3.43384
-1.92584,-0.209107,2.829,3.42868
-1.91666,-0.209107,2.829,3.42353
-1.89197,-0.207407,2.806,3.3906
-1.88286,-0.207407,2.806,3.38553
-1.87375,-0.207407,2.806,3.38047
-1.86465,-0.207407,2.806,3.37543
-1.85554,-0.207407,2.806,3.37041
-1.84643,-0.207407,2.806,3.36541
-1.83732,-0.207407,2.806,3.36042
-1.8432,-0.209107,2.829,3.38295
-1.83402,-0.209107,2.829,3.37796
-1.84032,-0.210881,2.853,3.4016
-1.83106,-0.210881,2.853,3.39659
-1.85245,-0.214429,2.901,3.44867
-1.8748,-0.218124,2.951,3.50298
-1.86522,-0.218124,2.951,3.49786
-1.88834,-0.221968,3.003,3.55431
-1.87859,-0.221968,3.003,3.54914
-1.86885,-0.221968,3.003,3.54399
-1.87581,-0.223964,3.03,3.57068
-1.88261,-0.225959,3.057,3.59729
-1.87268,-0.225959,3.057,3.59211
-1.86276,-0.225959,3.057,3.58695
-1.8692,-0.227955,3.084,3.61344
-1.85919,-0.227955,3.084,3.60827
-1.84918,-0.227955,3.084,3.60312
nan,nan,nan,NaN
nan,nan,nan,NaN
nan,nan,nan,NaN
nan,nan,nan,NaN
nan,nan,nan,NaN
nan,nan,nan,NaN
nan,nan,nan,NaN
nan,nan,nan,NaN
nan,nan,nan,NaN
nan,nan,nan,NaN
nan,nan,nan,NaN
nan,nan,nan,NaN
nan,nan,nan,NaN
nan,nan,nan,NaN
nan,nan,nan,NaN
nan,nan,nan,NaN
nan,nan,nan,NaN
nan,nan,nan,NaN
nan,nan,nan,NaN
nan,nan,nan,NaN
nan,nan,nan,NaN
nan,nan,nan,NaN
nan,nan,nan,NaN
nan,nan,nan,NaN
nan,nan,nan,NaN
nan,nan,nan,NaN
nan,nan,nan,NaN
nan,nan,nan,NaN
nan,nan,nan,NaN
nan,nan,nan,NaN
nan,nan,nan,NaN
nan,nan,nan,NaN
nan,nan,nan,NaN
-1.21383,-0.183384,2.481,2.7681
-1.20578,-0.183384,2.481,2.76458
-1.19772,-0.183384,2.481,2.76108
-1.18104,-0.182054,2.463,2.73758
-1.17305,-0.182054,2.463,2.73415
-1.16505,-0.182054,2.463,2.73073
-1.15706,-0.182054,2.463,2.72732
-1.14906,-0.182054,2.463,2.72394
-1.13273,-0.180723,2.445,2.7007
-1.12479,-0.180723,2.445,2.69738
-1.10909,-0.179467,2.428,2.67535
-1.10121,-0.179467,2.428,2.67209
-1.09333,-0.179467,2.428,2.66885
-1.07785,-0.17821,2.411,2.64697
-1.07003,-0.17821,2.411,2.64379
-1.0622,-0.17821,2.411,2.64063
-1.05437,-0.17821,2.411,2.6375
-1.04655,-0.17821,2.411,2.63438
-1.03872,-0.17821,2.411,2.63128
-1.02363,-0.176953,2.394,2.60967
-1.01586,-0.176953,2.394,2.60663
-1.00809,-0.176953,2.394,2.60361
-0.993215,-0.175697,2.377,2.58215
-0.9855,-0.175697,2.377,2.57919
-0.977785,-0.175697,2.377,2.57625
-0.970069,-0.175697,2.377,2.57333
-0.955876,-0.174514,2.361,2.55313
-0.948213,-0.174514,2.361,2.55027
-0.94055,-0.174514,2.361,2.54743
-0.932887,-0.174514,2.361,2.54461
-0.925224,-0.174514,2.361,2.54181
-0.91756,-0.174514,2.361,2.53903
-0.909897,-0.174514,2.361,2.53627
-0.902234,-0.174514,2.361,2.53354
-0.894571,-0.174514,2.361,2.53082
-0.886907,-0.174514,2.361,2.52812
-0.885203,-0.175697,2.377,2.54255
-0.877488,-0.175697,2.377,2.53988
-0.869772,-0.175697,2.377,2.53722
-0.862057,-0.175697,2.377,2.53459
-0.860452,-0.176953,2.394,2.55008
-0.852682,-0.176953,2.394,2.54747
-0.844912,-0.176953,2.394,2.54488
-0.837141,-0.176953,2.394,2.54231
-0.83526,-0.17821,2.411,2.5578
-0.827435,-0.17821,2.411,2.55525
-0.819609,-0.17821,2.411,2.55273
-0.811784,-0.17821,2.411,2.55023
-0.803958,-0.17821,2.411,2.54775
-0.796133,-0.17821,2.411,2.54529
-0.788307,-0.17821,2.411,2.54285
-0.780482,-0.17821,2.411,2.54044
-0.772656,-0.17821,2.411,2.53805
-0.764831,-0.17821,2.411,2.53567
-0.757005,-0.17821,2.411,2.53333
-0.754462,-0.179467,2.428,2.54884
-0.746581,-0.179467,2.428,2.54652
-0.738701,-0.179467,2.428,2.54422
-0.73082,-0.179467,2.428,2.54195
-0.717878,-0.17821,2.411,2.52191
-0.710052,-0.17821,2.411,2.51969
-0.702227,-0.17821,2.411,2.5175
-0.699297,-0.179467,2.428,2.53306
-0.691417,-0.179467,2.428,2.5309
-0.683536,-0.179467,2.428,2.52876
-0.675655,-0.179467,2.428,2.52664
-0.667775,-0.179467,2.428,2.52454
-0.659894,-0.179467,2.428,2.52247
-0.652013,-0.179467,2.428,2.52042
-0.644133,-0.179467,2.428,2.51839
-0.636252,-0.179467,2.428,2.51639
-0.628371,-0.179467,2.428,2.51441
-0.624835,-0.180723,2.445,2.53004
-0.616899,-0.180723,2.445,2.52809
-0.604729,-0.179467,2.428,2.5086
-0.596848,-0.179467,2.428,2.50672
-0.593092,-0.180723,2.445,2.52239
-0.589464,-0.182054,2.463,2.53909
-0.581469,-0.182054,2.463,2.53725
-0.573475,-0.182054,2.463,2.53543
-0.569613,-0.183384,2.481,2.55215
-0.561561,-0.183384,2.481,2.55036
-0.557524,-0.184715,2.499,2.56709
-0.55337,-0.186045,2.517,2.58382
-0.5452,-0.186045,2.517,2.58208
-0.537031,-0.186045,2.517,2.58037
-0.532853,-0.187449,2.536,2.59815
-0.524622,-0.187449,2.536,2.59647
-0.516391,-0.187449,2.536,2.59482
-0.511967,-0.188854,2.555,2.61262
-0.503674,-0.188854,2.555,2.61101
-0.495381,-0.188854,2.555,2.60942
-0.487088,-0.188854,2.555,2.60786
-0.482356,-0.190258,2.574,2.62571
-0.474001,-0.190258,2.574,2.62419
-0.465647,-0.190258,2.574,2.62269
-0.460668,-0.191663,2.593,2.64057
-0.452251,-0.191663,2.593,2.63911
-0.443835,-0.191663,2.593,2.63768
-0.435419,-0.191663,2.593,2.63628
-0.427003,-0.191663,2.593,2.6349
-0.418587,-0.191663,2.593,2.63355
-0.41017,-0.191663,2.593,2.63223
-0.401754,-0.191663,2.593,2.63093
-0.390456,-0.190258,2.574,2.61039
-0.382101,-0.190258,2.574,2.60915
-0.373747,-0.190258,2.574,2.60794
-0.365392,-0.190258,2.574,2.60676
-0.357037,-0.190258,2.574,2.6056
-0.348683,-0.190258,2.574,2.60447
-0.340328,-0.190258,2.574,2.60336
-0.331974,-0.190258,2.574,2.60228
-0.323619,-0.190258,2.574,2.60123
-0.317592,-0.191663,2.593,2.6194
-0.309175,-0.191663,2.593,2.61839
-0.298555,-0.190258,2.574,2.59823
-0.290201,-0.190258,2.574,2.59729
-0.281846,-0.190258,2.574,2.59637
-0.275511,-0.191663,2.593,2.61463
-0.267094,-0.191663,2.593,2.61376
-0.258678,-0.191663,2.593,2.61291
-0.250262,-0.191663,2.593,2.61209
-0.241846,-0.191663,2.593,2.6113
-0.233429,-0.191663,2.593,2.61053
-0.225013,-0.191663,2.593,2.60979
-0.216597,-0.191663,2.593,2.60908
-0.208181,-0.191663,2.593,2.60839
-0.199764,-0.191663,2.593,2.60774
-0.191348,-0.191663,2.593,2.60711
-0.182932,-0.191663,2.593,2.6065
-0.174516,-0.191663,2.593,2.60592
