nan,nan,nan,NaN
nan,nan,nan,NaN
nan,nan,nan,NaN
nan,nan,nan,NaN
nan,nan,nan,NaN
nan,nan,nan,NaN
nan,nan,nan,NaN
nan,nan,nan,NaN
nan,nan,nan,NaN
nan,nan,nan,NaN
nan,nan,nan,NaN
nan,nan,nan,NaN
nan,nan,nan,NaN
nan,nan,nan,NaN
nan,nan,nan,NaN
nan,nan,nan,NaN
nan,nan,nan,NaN
nan,nan,nan,NaN
nan,nan,nan,NaN
nan,nan,nan,NaN
nan,nan,nan,NaN
nan,nan,nan,NaN
nan,nan,nan,NaN
nan,nan,nan,NaN
nan,nan,nan,NaN
nan,nan,nan,NaN
nan,nan,nan,NaN
nan,nan,nan,NaN
nan,nan,nan,NaN
nan,nan,nan,NaN
nan,nan,nan,NaN
nan,nan,nan,NaN
nan,nan,nan,NaN
nan,nan,nan,NaN
nan,nan,nan,NaN
nan,nan,nan,NaN
nan,nan,nan,NaN
0.665639,0.345421,2.463,2.57464
0.673634,0.345421,2.463,2.57672
0.681628,0.345421,2.463,2.57882
0.675063,0.338128,2.411,2.52645
0.682888,0.338128,2.411,2.52855
0.690714,0.338128,2.411,2.53068
0.698539,0.338128,2.411,2.53283
0.706365,0.338128,2.411,2.535
0.71419,0.338128,2.411,2.53719
0.722016,0.338128,2.411,2.5394
0.724695,0.335744,2.394,2.52372
0.732465,0.335744,2.394,2.52596
0.740236,0.335744,2.394,2.52822
0.748006,0.335744,2.394,2.53051
0.755776,0.335744,2.394,2.53282
0.758125,0.33336,2.377,2.51714
0.76584,0.33336,2.377,2.51948
0.773555,0.33336,2.377,2.52183
0.776011,0.331116,2.361,2.50722
0.783674,0.331116,2.361,2.5096
0.791338,0.331116,2.361,2.51201
0.799001,0.331116,2.361,2.51443
0.806664,0.331116,2.361,2.51688
0.808809,0.328872,2.345,2.50227
0.81642,0.328872,2.345,2.50474
0.824031,0.328872,2.345,2.50723
0.831643,0.328872,2.345,2.50974
0.839254,0.328872,2.345,2.51228
0.841087,0.326628,2.329,2.49767
0.848646,0.326628,2.329,2.50023
0.862088,0.328872,2.345,2.52
0.869699,0.328872,2.345,2.52261
0.871324,0.326628,2.329,2.50801
0.878884,0.326628,2.329,2.51065
0.886443,0.326628,2.329,2.51331
0.900144,0.328872,2.345,2.53327
0.907756,0.328872,2.345,2.53598
0.915367,0.328872,2.345,2.53872
0.922978,0.328872,2.345,2.54147
0.930589,0.328872,2.345,2.54424
0.944602,0.331116,2.361,2.56442
0.945812,0.328872,2.345,2.54985
0.953423,0.328872,2.345,2.55268
0.967592,0.331116,2.361,2.57297
0.975255,0.331116,2.361,2.57587
0.982918,0.331116,2.361,2.57878
0.990581,0.331116,2.361,2.58171
0.998245,0.331116,2.361,2.58466
1.01272,0.33336,2.377,2.60516
1.02044,0.33336,2.377,2.60817
1.02815,0.33336,2.377,2.6112
1.03587,0.33336,2.377,2.61425
1.05105,0.335744,2.394,2.63603
1.05882,0.335744,2.394,2.63914
1.06659,0.335744,2.394,2.64227
1.07436,0.335744,2.394,2.64541
1.08213,0.335744,2.394,2.64858
1.0899,0.335744,2.394,2.65176
1.10547,0.338128,2.411,2.67382
1.11329,0.338128,2.411,2.67706
1.12112,0.338128,2.411,2.68033
1.12894,0.338128,2.411,2.68361
1.13677,0.338128,2.411,2.68691
1.15266,0.340512,2.428,2.7092
1.16054,0.340512,2.428,2.71256
1.16842,0.340512,2.428,2.71594
1.18454,0.342896,2.445,2.73838
1.19248,0.342896,2.445,2.74183
1.20041,0.342896,2.445,2.74529
1.20835,0.342896,2.445,2.74877
1.21629,0.342896,2.445,2.75226
1.23323,0.345421,2.463,2.77607
1.24123,0.345421,2.463,2.77963
1.25835,0.347945,2.481,2.80355
1.2664,0.347945,2.481,2.80717
1.27446,0.347945,2.481,2.81081
1.28251,0.347945,2.481,2.81447
1.29056,0.347945,2.481,2.81815
1.29862,0.347945,2.481,2.82185
1.31615,0.350469,2.499,2.84606
1.32426,0.350469,2.499,2.84982
1.34197,0.352994,2.517,2.87416
1.36033,0.355658,2.536,2.8997
1.36856,0.355658,2.536,2.90357
1.39742,0.360988,2.574,2.95103
1.41615,0.363652,2.593,2.97681
1.44654,0.369262,2.633,3.0268
1.45509,0.369262,2.633,3.0309
1.47531,0.372207,2.654,3.05921
1.51915,0.381042,2.717,3.1361
1.52797,0.381042,2.717,3.14038
1.56167,0.387213,2.761,3.1956
1.59623,0.393524,2.806,3.25215
1.60534,0.393524,2.806,3.25663
1.64149,0.400116,2.853,3.31575
1.66464,0.403481,2.877,3.34827
1.68794,0.406847,2.901,3.3809
1.69736,0.406847,2.901,3.38561
1.72148,0.410353,2.926,3.41956
1.73098,0.410353,2.926,3.42435
1.7256,0.406847,2.901,3.39986
1.72067,0.403481,2.877,3.37648
1.73,0.403481,2.877,3.38125
1.72483,0.400116,2.853,3.35779
1.7195,0.39675,2.829,3.33427
1.72869,0.39675,2.829,3.33901
1.72374,0.393524,2.806,3.31659
1.70506,0.387213,2.761,3.26807
1.6867,0.381042,2.717,3.2206
1.69552,0.381042,2.717,3.22523
1.69117,0.378097,2.696,3.20491
1.67344,0.372207,2.654,3.15953
1.68205,0.372207,2.654,3.1641
1.67729,0.369262,2.633,3.14362
1.66022,0.363652,2.593,3.10036
1.66864,0.363652,2.593,3.10488
1.65248,0.358323,2.555,3.06384
1.63607,0.352994,2.517,3.02268
1.64424,0.352994,2.517,3.02711
1.64059,0.350469,2.499,3.00988
1.62495,0.345421,2.463,2.97089
1.63295,0.345421,2.463,2.97527
1.62895,0.342896,2.445,2.95788
1.6255,0.340512,2.428,2.94167
1.63339,0.340512,2.428,2.94603
1.62977,0.338128,2.411,2.92975
1.62605,0.335744,2.394,2.91342
-1.81272,0.374936,2.613,3.20224
-1.80424,0.374936,2.613,3.19744
-1.80951,0.377806,2.633,3.2171
-1.81532,0.380819,2.654,3.23792
-1.80671,0.380819,2.654,3.2331
-1.81232,0.383832,2.675,3.25384
-1.8178,0.386845,2.696,3.27452
-1.80905,0.386845,2.696,3.26967
-1.8003,0.386845,2.696,3.26483
-1.8055,0.389859,2.717,3.28541
-1.79668,0.389859,2.717,3.28057
-1.78787,0.389859,2.717,3.27575
-1.77905,0.389859,2.717,3.27095
-1.77023,0.389859,2.717,3.26616
-1.7478,0.386845,2.696,3.23618
-1.73905,0.386845,2.696,3.23146
-1.73029,0.386845,2.696,3.22676
-1.69472,0.380819,2.654,3.17188
-1.67277,0.377806,2.633,3.14223
-1.66422,0.377806,2.633,3.13768
-1.65568,0.377806,2.633,3.13316
-1.63462,0.374936,2.613,3.10489
-1.62614,0.374936,2.613,3.10043
-1.60528,0.372066,2.593,3.07229
-1.58516,0.36934,2.574,3.04543
-1.56516,0.366614,2.555,3.01864
-1.55687,0.366614,2.555,3.01435
-1.53706,0.363887,2.536,2.98769
-1.51738,0.361161,2.517,2.96111
-1.50921,0.361161,2.517,2.95693
-1.50104,0.361161,2.517,2.95277
-1.47152,0.355995,2.481,2.90645
-1.46346,0.355995,2.481,2.90238
-1.45541,0.355995,2.481,2.89833
-1.42636,0.35083,2.445,2.8523
-1.41842,0.35083,2.445,2.84834
-1.41049,0.35083,2.445,2.84439
-1.40255,0.35083,2.445,2.84047
-1.38492,0.34839,2.428,2.81683
-1.37704,0.34839,2.428,2.81297
-1.36916,0.34839,2.428,2.80912
-1.36127,0.34839,2.428,2.80529
-1.35339,0.34839,2.428,2.80147
-1.34551,0.34839,2.428,2.79767
-1.33763,0.34839,2.428,2.79389
-1.33906,0.35083,2.445,2.80966
-1.33113,0.35083,2.445,2.80589
-1.33293,0.353413,2.463,2.82276
-1.33462,0.355995,2.481,2.8396
-1.34582,0.361161,2.517,2.87697
-1.33765,0.361161,2.517,2.87316
-1.33951,0.363887,2.536,2.89102
-1.34126,0.366614,2.555,2.90885
-1.33296,0.366614,2.555,2.90503
-1.34437,0.372066,2.593,2.94439
-1.35656,0.377806,2.633,2.98592
-1.35877,0.380819,2.654,3.00583
-1.35016,0.380819,2.654,3.00194
-1.35216,0.383832,2.675,3.0218
-1.35402,0.386845,2.696,3.04162
-1.34527,0.386845,2.696,3.03773
-1.34693,0.389859,2.717,3.0575
-1.33811,0.389859,2.717,3.05362
-1.31902,0.386845,2.696,3.0262
-1.28986,0.380819,2.654,2.97531
-1.28124,0.380819,2.654,2.97159
-1.26256,0.377806,2.633,2.9444
-1.24449,0.374936,2.613,2.91841
-1.21756,0.36934,2.574,2.87129
-1.2092,0.36934,2.574,2.86776
-1.18312,0.363887,2.536,2.82196
-1.16609,0.361161,2.517,2.79741
-1.15792,0.361161,2.517,2.79401
-1.1333,0.355995,2.481,2.75072
-1.10892,0.35083,2.445,2.70755
-1.10099,0.35083,2.445,2.70431
-1.09305,0.35083,2.445,2.70109
-1.08512,0.35083,2.445,2.69788
-1.07718,0.35083,2.445,2.6947
-1.06181,0.34839,2.428,2.67283
-1.05393,0.34839,2.428,2.66971
-1.04605,0.34839,2.428,2.6666
-1.03817,0.34839,2.428,2.66352
-1.03029,0.34839,2.428,2.66046
-1.02241,0.34839,2.428,2.65742
-1.01452,0.34839,2.428,2.6544
-1.00664,0.34839,2.428,2.65139
-1.00576,0.35083,2.445,2.66696
-0.997821,0.35083,2.445,2.66397
-0.989885,0.35083,2.445,2.66101
-0.981949,0.35083,2.445,2.65807
-0.974013,0.35083,2.445,2.65515
-0.966077,0.35083,2.445,2.65225
-0.958141,0.35083,2.445,2.64937
-0.950205,0.35083,2.445,2.64651
-0.94227,0.35083,2.445,2.64367
-0.934334,0.35083,2.445,2.64085
-0.926398,0.35083,2.445,2.63805
-0.918462,0.35083,2.445,2.63528
-0.910526,0.35083,2.445,2.63252
-0.90259,0.35083,2.445,2.62979
-0.894654,0.35083,2.445,2.62707
-0.886718,0.35083,2.445,2.62438
-0.878783,0.35083,2.445,2.62171
-0.870847,0.35083,2.445,2.61906
-0.862911,0.35083,2.445,2.61643
-0.854975,0.35083,2.445,2.61383
-0.847039,0.35083,2.445,2.61124
-0.839103,0.35083,2.445,2.60868
-0.831167,0.35083,2.445,2.60614
-0.823232,0.35083,2.445,2.60362
-0.815296,0.35083,2.445,2.60112
-0.80736,0.35083,2.445,2.59864
-0.799424,0.35083,2.445,2.59619
-0.791488,0.35083,2.445,2.59375
-0.783552,0.35083,2.445,2.59134
-0.775616,0.35083,2.445,2.58895
-0.773332,0.353413,2.463,2.60563
-0.770931,0.355995,2.481,2.62229
-0.762878,0.355995,2.481,2.61994
-0.754826,0.355995,2.481,2.61761
-0.746773,0.355995,2.481,2.61529
-0.73872,0.355995,2.481,2.61301
-0.735969,0.358578,2.499,2.62968
-0.727858,0.358578,2.499,2.62742
-0.719746,0.358578,2.499,2.62519
-0.711635,0.358578,2.499,2.62298
-0.703524,0.358578,2.499,2.62079
-0.695413,0.358578,2.499,2.61862
-0.687302,0.358578,2.499,2.61648
-0.679191,0.358578,2.499,2.61436
-0.67108,0.358578,2.499,2.61226
-0.662968,0.358578,2.499,2.61019
-0.654857,0.358578,2.499,2.60814
-0.646746,0.358578,2.499,2.60612
-0.638635,0.358578,2.499,2.60412
-0.630524,0.358578,2.499,2.60214
-0.61793,0.355995,2.481,2.58146
-0.609877,0.355995,2.481,2.57954
-0.601824,0.355995,2.481,2.57765
-0.593771,0.355995,2.481,2.57578
-0.585719,0.355995,2.481,2.57394
-0.577666,0.355995,2.481,2.57212
-0.569613,0.355995,2.481,2.57032
-0.561561,0.355995,2.481,2.56855
-0.553508,0.355995,2.481,2.5668
-0.545455,0.355995,2.481,2.56508
-0.537403,0.355995,2.481,2.56338
-0.53319,0.358578,2.499,2.58029
-0.521297,0.355995,2.481,2.56005
-0.513244,0.355995,2.481,2.55842
-0.505192,0.355995,2.481,2.55682
-0.497139,0.355995,2.481,2.55524
-0.492635,0.358578,2.499,2.57221
-0.484524,0.358578,2.499,2.57067
-0.476412,0.358578,2.499,2.56915
-0.471674,0.361161,2.517,2.58616
-0.463505,0.361161,2.517,2.58468
-0.455335,0.361161,2.517,2.58323
-0.443968,0.358578,2.499,2.56334
-0.435857,0.358578,2.499,2.56194
-0.430827,0.361161,2.517,2.57902
-0.422657,0.361161,2.517,2.57767
-0.414487,0.361161,2.517,2.57634
-0.406318,0.361161,2.517,2.57504
-0.398148,0.361161,2.517,2.57376
-0.389979,0.361161,2.517,2.57251
-0.381809,0.361161,2.517,2.57128
-0.37364,0.361161,2.517,2.57008
-0.368229,0.363887,2.536,2.5883
-0.359998,0.363887,2.536,2.58714
-0.351766,0.363887,2.536,2.58601
-0.343535,0.363887,2.536,2.5849
-0.337816,0.366614,2.555,2.60318
-0.329523,0.366614,2.555,2.60212
-0.318842,0.363887,2.536,2.58174
-0.31061,0.363887,2.536,2.58073
-0.304645,0.366614,2.555,2.59908
-0.296352,0.366614,2.555,2.59813
-0.285917,0.363887,2.536,2.57788
-0.277685,0.363887,2.536,2.57698
-0.269454,0.363887,2.536,2.5761
-0.259266,0.361161,2.517,2.55596
-0.251096,0.361161,2.517,2.55515
-0.242927,0.361161,2.517,2.55436
-0.233078,0.358578,2.499,2.53533
-0.224967,0.358578,2.499,2.5346
-0.216856,0.358578,2.499,2.53389
-0.208745,0.358578,2.499,2.53321
-0.200634,0.358578,2.499,2.53255
-0.192523,0.358578,2.499,2.53192
-0.184412,0.358578,2.499,2.53132
-0.1763,0.358578,2.499,2.53074
-0.168189,0.358578,2.499,2.53019
-0.160078,0.358578,2.499,2.52966
-0.151967,0.358578,2.499,2.52916
-0.143856,0.358578,2.499,2.52869
-0.135745,0.358578,2.499,2.52824
-0.127634,0.358578,2.499,2.52782
-0.120383,0.361161,2.517,2.54563
-0.112214,0.361161,2.517,2.54525
-0.104044,0.361161,2.517,2.54491
-0.0958747,0.361161,2.517,2.54459
-0.0883672,0.363887,2.536,2.5635
-0.080136,0.363887,2.536,2.56323
-0.0719048,0.363887,2.536,2.56298
-0.0636736,0.363887,2.536,2.56276
-0.0554423,0.363887,2.536,2.56257
-0.0472111,0.363887,2.536,2.56241
-0.0389799,0.363887,2.536,2.56227
-0.0307487,0.363887,2.536,2.56216
-0.0225174,0.363887,2.536,2.56207
-0.0142862,0.363887,2.536,2.56201
-0.00605498,0.363887,2.536,2.56198
0.00217625,0.363887,2.536,2.56197
0.0104075,0.363887,2.536,2.562
0.0186387,0.363887,2.536,2.56204
0.0268699,0.363887,2.536,2.56211
0.0351011,0.363887,2.536,2.56221
0.0430077,0.361161,2.517,2.54314
0.0511773,0.361161,2.517,2.54329
0.0593468,0.361161,2.517,2.54347
0.0680261,0.363887,2.536,2.56288
0.0768286,0.366614,2.555,2.58231
0.0851215,0.366614,2.555,2.58257
0.0934144,0.366614,2.555,2.58286
0.101707,0.366614,2.555,2.58317
0.11,0.366614,2.555,2.58351
0.117413,0.363887,2.536,2.56466
0.125645,0.363887,2.536,2.56505
0.133876,0.363887,2.536,2.56547
0.142107,0.363887,2.536,2.56591
0.150338,0.363887,2.536,2.56638
0.15857,0.363887,2.536,2.56688
0.166801,0.363887,2.536,2.5674
0.173721,0.361161,2.517,2.54871
0.18189,0.361161,2.517,2.54928
0.19006,0.361161,2.517,2.54987
0.198229,0.361161,2.517,2.55049
0.206399,0.361161,2.517,2.55114
0.214568,0.361161,2.517,2.55182
0.222738,0.361161,2.517,2.55252
0.230908,0.361161,2.517,2.55324
0.239077,0.361161,2.517,2.55399
0.247247,0.361161,2.517,2.55477
0.255416,0.361161,2.517,2.55558
0.263586,0.361161,2.517,2.5564
0.271755,0.361161,2.517,2.55726
0.279925,0.361161,2.517,2.55814
nan,nan,nan,NaN
nan,nan,nan,NaN
nan,nan,nan,NaN
nan,nan,nan,NaN
nan,nan,nan,NaN
nan,nan,nan,NaN
nan,nan,nan,NaN
nan,nan,nan,NaN
nan,nan,nan,NaN
nan,nan,nan,NaN
nan,nan,nan,NaN
nan,nan,nan,NaN
nan,nan,nan,NaN
nan,nan,nan,NaN
nan,nan,nan,NaN
nan,nan,nan,NaN
nan,nan,nan,NaN
nan,nan,nan,NaN
nan,nan,nan,NaN
nan,nan,nan,NaN
nan,nan,nan,NaN
nan,nan,nan,NaN
nan,nan,nan,NaN
nan,nan,nan,NaN
nan,nan,nan,NaN
nan,nan,nan,NaN
nan,nan,nan,NaN
nan,nan,nan,NaN
nan,nan,nan,NaN
nan,nan,nan,NaN
nan,nan,nan,NaN
nan,nan,nan,NaN
nan,nan,nan,NaN
nan,nan,nan,NaN
nan,nan,nan,NaN
nan,nan,nan,NaN
nan,nan,nan,NaN
nan,nan,nan,NaN
nan,nan,nan,NaN
nan,nan,nan,NaN
nan,nan,nan,NaN
nan,nan,nan,NaN
nan,nan,nan,NaN
nan,nan,nan,NaN
nan,nan,nan,NaN
nan,nan,nan,NaN
nan,nan,nan,NaN
nan,nan,nan,NaN
0.665639,0.353413,2.463,2.57572
0.673634,0.353413,2.463,2.5778
0.681628,0.353413,2.463,2.5799
0.689622,0.353413,2.463,2.58202
0.697617,0.353413,2.463,2.58417
0.700454,0.35083,2.445,2.56744
0.70839,0.35083,2.445,2.56962
0.716326,0.35083,2.445,2.57181
0.719226,0.34839,2.428,2.55614
0.727107,0.34839,2.428,2.55837
0.734987,0.34839,2.428,2.56062
0.742868,0.34839,2.428,2.56289
0.745492,0.345951,2.411,2.54723
0.753318,0.345951,2.411,2.54953
0.761143,0.345951,2.411,2.55185
0.768969,0.345951,2.411,2.5542
0.771317,0.343512,2.394,2.53854
0.779087,0.343512,2.394,2.54091
0.786858,0.343512,2.394,2.5433
0.788985,0.341073,2.377,2.52764
0.7967,0.341073,2.377,2.53006
0.799001,0.338777,2.361,2.51545
0.806664,0.338777,2.361,2.5179
0.808809,0.336481,2.345,2.50328
0.81642,0.336481,2.345,2.50575
0.824031,0.336481,2.345,2.50824
0.831643,0.336481,2.345,2.51075
0.84498,0.338777,2.361,2.53043
0.841087,0.334185,2.329,2.49867
0.848646,0.334185,2.329,2.50122
0.862088,0.336481,2.345,2.521
0.869699,0.336481,2.345,2.52361
0.871324,0.334185,2.329,2.50901
0.878884,0.334185,2.329,2.51164
0.886443,0.334185,2.329,2.5143
0.900144,0.336481,2.345,2.53427
0.907756,0.336481,2.345,2.53698
0.915367,0.336481,2.345,2.53971
0.922978,0.336481,2.345,2.54247
0.930589,0.336481,2.345,2.54524
0.944602,0.338777,2.361,2.56542
0.945812,0.336481,2.345,2.55084
0.953423,0.336481,2.345,2.55368
0.967592,0.338777,2.361,2.57397
0.975255,0.338777,2.361,2.57686
0.982918,0.338777,2.361,2.57977
0.990581,0.338777,2.361,2.5827
0.998245,0.338777,2.361,2.58565
1.01272,0.341073,2.377,2.60616
1.02044,0.341073,2.377,2.60917
1.02815,0.341073,2.377,2.6122
1.03587,0.341073,2.377,2.61524
1.05105,0.343512,2.394,2.63703
1.05882,0.343512,2.394,2.64014
1.06659,0.343512,2.394,2.64327
1.07436,0.343512,2.394,2.64641
1.08213,0.343512,2.394,2.64957
1.0899,0.343512,2.394,2.65276
1.10547,0.345951,2.411,2.67482
1.11329,0.345951,2.411,2.67806
1.12112,0.345951,2.411,2.68133
1.12894,0.345951,2.411,2.68461
1.13677,0.345951,2.411,2.68791
1.15266,0.34839,2.428,2.7102
1.16054,0.34839,2.428,2.71356
1.16842,0.34839,2.428,2.71694
1.17631,0.34839,2.428,2.72034
1.18419,0.34839,2.428,2.72376
1.20041,0.35083,2.445,2.74629
1.20835,0.35083,2.445,2.74977
1.21629,0.35083,2.445,2.75326
1.22422,0.35083,2.445,2.75678
1.24123,0.353413,2.463,2.78063
1.25835,0.355995,2.481,2.80456
1.2664,0.355995,2.481,2.80818
1.27446,0.355995,2.481,2.81182
1.28251,0.355995,2.481,2.81548
1.29056,0.355995,2.481,2.81916
1.29862,0.355995,2.481,2.82285
1.31615,0.358578,2.499,2.84707
1.32426,0.358578,2.499,2.85083
1.34197,0.361161,2.517,2.87517
1.36033,0.363887,2.536,2.90072
1.36856,0.363887,2.536,2.90459
1.38711,0.366614,2.555,2.93027
1.40578,0.36934,2.574,2.95603
1.42457,0.372066,2.593,2.98186
1.43298,0.372066,2.593,2.98589
1.46364,0.377806,2.633,3.03606
1.49567,0.383832,2.675,3.08868
1.50435,0.383832,2.675,3.0929
1.53679,0.389859,2.717,3.14576
1.57064,0.396172,2.761,3.20109
1.5796,0.396172,2.761,3.2055
1.61445,0.402629,2.806,3.26224
1.63686,0.405929,2.829,3.29353
1.66001,0.409373,2.853,3.32608
1.66927,0.409373,2.853,3.33072
1.69265,0.412817,2.877,3.36342
1.70199,0.412817,2.877,3.36813
1.71133,0.412817,2.877,3.37286
1.70631,0.409373,2.853,3.34943
1.71557,0.409373,2.853,3.35416
1.72483,0.409373,2.853,3.35891
1.7195,0.405929,2.829,3.33537
1.72869,0.405929,2.829,3.34012
1.70961,0.399329,2.783,3.29049
1.70506,0.396172,2.761,3.26914
1.6867,0.389859,2.717,3.22165
1.69552,0.389859,2.717,3.22628
1.69117,0.386845,2.696,3.20595
1.67344,0.380819,2.654,3.16056
1.68205,0.380819,2.654,3.16513
1.67729,0.377806,2.633,3.14463
1.66022,0.372066,2.593,3.10136
1.66864,0.372066,2.593,3.10587
1.65248,0.366614,2.555,3.06482
1.64842,0.363887,2.536,3.04647
1.65665,0.363887,2.536,3.05094
1.64059,0.358578,2.499,3.01083
1.63683,0.355995,2.481,2.99354
1.64488,0.355995,2.481,2.99795
1.64094,0.353413,2.463,2.9806
1.63689,0.35083,2.445,2.96319
1.64482,0.35083,2.445,2.96758
1.62977,0.345951,2.411,2.93066
1.6376,0.345951,2.411,2.93502
-1.81272,0.383415,2.613,3.20324
-1.80424,0.383415,2.613,3.19845
-1.80951,0.386349,2.633,3.21812
-1.81532,0.389431,2.654,3.23895
-1.80671,0.389431,2.654,3.23413
-1.7981,0.389431,2.654,3.22932
-1.80364,0.392512,2.675,3.25005
-1.79496,0.392512,2.675,3.24524
-1.78628,0.392512,2.675,3.24044
-1.79155,0.395593,2.696,3.26107
-1.7828,0.395593,2.696,3.25627
-1.76023,0.392512,2.675,3.22616
-1.75155,0.392512,2.675,3.22143
-1.74286,0.392512,2.675,3.21672
-1.72057,0.389431,2.654,3.18681
-1.71195,0.389431,2.654,3.18216
-1.70334,0.389431,2.654,3.17754
-1.66854,0.383415,2.613,3.12391
-1.66006,0.383415,2.613,3.11939
-1.65158,0.383415,2.613,3.11488
-1.63052,0.38048,2.593,3.08659
-1.61022,0.377692,2.574,3.05957
-1.60187,0.377692,2.574,3.05518
-1.58175,0.374904,2.555,3.02829
-1.56176,0.372116,2.536,3.00147
-1.54189,0.369328,2.517,2.97474
-1.53372,0.369328,2.517,2.97052
-1.51464,0.366687,2.499,2.9451
-1.50653,0.366687,2.499,2.94093
-1.49842,0.366687,2.499,2.93679
-1.46884,0.361405,2.463,2.89041
-1.46084,0.361405,2.463,2.88635
-1.45285,0.361405,2.463,2.88232
-1.43429,0.358763,2.445,2.85726
-1.42636,0.358763,2.445,2.85328
-1.41842,0.358763,2.445,2.84933
-1.41049,0.358763,2.445,2.84538
-1.3928,0.356269,2.428,2.8217
-1.38492,0.356269,2.428,2.81782
-1.37704,0.356269,2.428,2.81395
-1.36916,0.356269,2.428,2.81011
-1.36127,0.356269,2.428,2.80628
-1.36287,0.358763,2.445,2.82208
-1.35493,0.358763,2.445,2.81826
-1.347,0.358763,2.445,2.81445
-1.34892,0.361405,2.463,2.83135
-1.34093,0.361405,2.463,2.82755
-1.34267,0.364046,2.481,2.84441
-1.3443,0.366687,2.499,2.86123
-1.34582,0.369328,2.517,2.87801
-1.33765,0.369328,2.517,2.87419
-1.34955,0.374904,2.555,2.91374
-1.35123,0.377692,2.574,2.93154
-1.34288,0.377692,2.574,2.9277
-1.35474,0.383415,2.613,2.96818
-1.35656,0.386349,2.633,2.98701
-1.35877,0.389431,2.654,3.00693
-1.35016,0.389431,2.654,3.00305
-1.35216,0.392512,2.675,3.02292
-1.35402,0.395593,2.696,3.04274
-1.34527,0.395593,2.696,3.03886
-1.33652,0.395593,2.696,3.035
-1.33811,0.398675,2.717,3.05476
-1.30874,0.392512,2.675,3.00375
-1.28986,0.389431,2.654,2.97642
-1.28124,0.389431,2.654,2.9727
-1.26256,0.386349,2.633,2.94551
-1.23496,0.38048,2.593,2.89716
-1.20857,0.374904,2.555,2.85118
-1.20028,0.374904,2.555,2.84767
-1.18312,0.372116,2.536,2.82304
-1.15775,0.366687,2.499,2.77846
-1.14964,0.366687,2.499,2.77509
-1.1333,0.364046,2.481,2.75178
-1.10892,0.358763,2.445,2.70859
-1.10099,0.358763,2.445,2.70535
-1.09305,0.358763,2.445,2.70213
-1.08512,0.358763,2.445,2.69893
-1.07718,0.358763,2.445,2.69575
-1.06181,0.356269,2.428,2.67386
-1.05393,0.356269,2.428,2.67074
-1.04605,0.356269,2.428,2.66764
-1.03817,0.356269,2.428,2.66456
-1.03029,0.356269,2.428,2.6615
-1.02241,0.356269,2.428,2.65846
-1.01452,0.356269,2.428,2.65544
-1.00664,0.356269,2.428,2.65244
-1.00576,0.358763,2.445,2.66801
-0.997821,0.358763,2.445,2.66503
-0.989885,0.358763,2.445,2.66207
-0.981949,0.358763,2.445,2.65913
-0.974013,0.358763,2.445,2.65621
-0.966077,0.358763,2.445,2.65331
-0.958141,0.358763,2.445,2.65043
-0.950205,0.358763,2.445,2.64757
-0.94227,0.358763,2.445,2.64473
-0.934334,0.358763,2.445,2.64192
-0.926398,0.358763,2.445,2.63912
-0.918462,0.358763,2.445,2.63634
-0.910526,0.358763,2.445,2.63359
-0.90259,0.358763,2.445,2.63086
-0.894654,0.358763,2.445,2.62814
-0.886718,0.358763,2.445,2.62545
-0.878783,0.358763,2.445,2.62278
-0.870847,0.358763,2.445,2.62014
-0.862911,0.358763,2.445,2.61751
-0.854975,0.358763,2.445,2.6149
-0.847039,0.358763,2.445,2.61232
-0.839103,0.358763,2.445,2.60976
-0.831167,0.358763,2.445,2.60722
-0.823232,0.358763,2.445,2.6047
-0.815296,0.358763,2.445,2.6022
-0.80736,0.358763,2.445,2.59972
-0.799424,0.358763,2.445,2.59727
-0.791488,0.358763,2.445,2.59484
-0.783552,0.358763,2.445,2.59243
-0.775616,0.358763,2.445,2.59004
-0.773332,0.361405,2.463,2.60673
-0.770931,0.364046,2.481,2.6234
-0.762878,0.364046,2.481,2.62104
-0.754826,0.364046,2.481,2.61871
-0.746773,0.364046,2.481,2.6164
-0.73872,0.364046,2.481,2.61412
-0.735969,0.366687,2.499,2.6308
-0.727858,0.366687,2.499,2.62854
-0.719746,0.366687,2.499,2.62631
-0.711635,0.366687,2.499,2.6241
-0.703524,0.366687,2.499,2.62191
-0.695413,0.366687,2.499,2.61974
-0.687302,0.366687,2.499,2.6176
-0.679191,0.366687,2.499,2.61548
-0.67108,0.366687,2.499,2.61339
-0.662968,0.366687,2.499,2.61132
-0.654857,0.366687,2.499,2.60927
-0.646746,0.366687,2.499,2.60725
-0.638635,0.366687,2.499,2.60525
-0.625982,0.364046,2.481,2.58452
-0.61793,0.364046,2.481,2.58258
-0.609877,0.364046,2.481,2.58067
-0.601824,0.364046,2.481,2.57878
-0.593771,0.364046,2.481,2.57691
-0.585719,0.364046,2.481,2.57506
-0.577666,0.364046,2.481,2.57325
-0.569613,0.364046,2.481,2.57145
-0.561561,0.364046,2.481,2.56968
-0.553508,0.364046,2.481,2.56793
-0.545455,0.364046,2.481,2.56621
-0.537403,0.364046,2.481,2.56451
-0.53319,0.366687,2.499,2.58142
-0.521297,0.364046,2.481,2.56118
-0.513244,0.364046,2.481,2.55955
-0.505192,0.364046,2.481,2.55795
-0.497139,0.364046,2.481,2.55637
-0.492635,0.366687,2.499,2.57335
-0.484524,0.366687,2.499,2.57181
-0.476412,0.366687,2.499,2.5703
-0.468301,0.366687,2.499,2.56881
-0.46019,0.366687,2.499,2.56734
-0.452079,0.366687,2.499,2.5659
-0.443968,0.366687,2.499,2.56448
-0.435857,0.366687,2.499,2.56309
-0.427746,0.366687,2.499,2.56172
-0.419634,0.366687,2.499,2.56038
-0.414487,0.369328,2.517,2.5775
-0.406318,0.369328,2.517,2.5762
-0.398148,0.369328,2.517,2.57492
-0.389979,0.369328,2.517,2.57367
-0.381809,0.369328,2.517,2.57244
-0.37364,0.369328,2.517,2.57124
-0.36547,0.369328,2.517,2.57007
-0.357301,0.369328,2.517,2.56892
-0.351766,0.372116,2.536,2.58718
-0.343535,0.372116,2.536,2.58607
-0.337816,0.374904,2.555,2.60436
-0.329523,0.374904,2.555,2.6033
-0.318842,0.372116,2.536,2.58291
-0.31061,0.372116,2.536,2.58191
-0.302379,0.372116,2.536,2.58093
-0.294148,0.372116,2.536,2.57998
-0.285917,0.372116,2.536,2.57905
-0.277685,0.372116,2.536,2.57815
-0.269454,0.372116,2.536,2.57728
-0.259266,0.369328,2.517,2.55713
-0.251096,0.369328,2.517,2.55631
-0.242927,0.369328,2.517,2.55552
-0.233078,0.366687,2.499,2.53649
-0.224967,0.366687,2.499,2.53576
-0.216856,0.366687,2.499,2.53505
-0.208745,0.366687,2.499,2.53437
-0.200634,0.366687,2.499,2.53372
-0.192523,0.366687,2.499,2.53309
-0.184412,0.366687,2.499,2.53248
-0.175031,0.364046,2.481,2.51367
-0.166978,0.364046,2.481,2.51312
-0.158925,0.364046,2.481,2.5126
-0.150872,0.364046,2.481,2.5121
-0.143856,0.366687,2.499,2.52985
-0.135745,0.366687,2.499,2.5294
-0.127634,0.366687,2.499,2.52898
-0.119523,0.366687,2.499,2.52859
-0.111411,0.366687,2.499,2.52822
-0.1033,0.366687,2.499,2.52787
-0.0958747,0.369328,2.517,2.54576
-0.0877052,0.369328,2.517,2.54546
-0.0795356,0.369328,2.517,2.5452
-0.0719048,0.372116,2.536,2.56416
-0.0636736,0.372116,2.536,2.56395
-0.0558577,0.374904,2.555,2.58296
-0.0472111,0.372116,2.536,2.56359
-0.0389799,0.372116,2.536,2.56345
-0.0307487,0.372116,2.536,2.56334
-0.0225174,0.372116,2.536,2.56325
-0.0143932,0.374904,2.555,2.5824
-0.00610034,0.374904,2.555,2.58237
0.00217625,0.372116,2.536,2.56316
0.0104075,0.372116,2.536,2.56318
0.0186387,0.372116,2.536,2.56322
0.0268699,0.372116,2.536,2.5633
0.0351011,0.372116,2.536,2.5634
0.043657,0.374904,2.555,2.58273
0.0519499,0.374904,2.555,2.58288
0.0602428,0.374904,2.555,2.58306
0.0685357,0.374904,2.555,2.58327
0.0768286,0.374904,2.555,2.5835
0.0851215,0.374904,2.555,2.58376
0.0934144,0.374904,2.555,2.58405
0.101707,0.374904,2.555,2.58436
0.11,0.374904,2.555,2.5847
0.118293,0.374904,2.555,2.58507
0.125645,0.372116,2.536,2.56623
0.133876,0.372116,2.536,2.56665
0.142107,0.372116,2.536,2.56709
0.150338,0.372116,2.536,2.56756
0.15857,0.372116,2.536,2.56806
0.165551,0.369328,2.517,2.54933
0.173721,0.369328,2.517,2.54988
0.18189,0.369328,2.517,2.55045
0.19006,0.369328,2.517,2.55104
0.198229,0.369328,2.517,2.55166
0.206399,0.369328,2.517,2.55231
0.214568,0.369328,2.517,2.55299
0.222738,0.369328,2.517,2.55368
0.230908,0.369328,2.517,2.55441
0.239077,0.369328,2.517,2.55516
0.247247,0.369328,2.517,2.55594
0.255416,0.369328,2.517,2.55674
0.263586,0.369328,2.517,2.55757
0.271755,0.369328,2.517,2.55843
0.279925,0.369328,2.517,2.55931
nan,nan,nan,NaN
nan,nan,nan,NaN
nan,nan,nan,NaN
nan,nan,nan,NaN
nan,nan,nan,NaN
nan,nan,nan,NaN
nan,nan,nan,NaN
nan,nan,nan,NaN
nan,nan,nan,NaN
nan,nan,nan,NaN
nan,nan,nan,NaN
nan,nan,nan,NaN
nan,nan,nan,NaN
nan,nan,nan,NaN
nan,nan,nan,NaN
nan,nan,nan,NaN
nan,nan,nan,NaN
nan,nan,nan,NaN
nan,nan,nan,NaN
nan,nan,nan,NaN
nan,nan,nan,NaN
nan,nan,nan,NaN
nan,nan,nan,NaN
nan,nan,nan,NaN
nan,nan,nan,NaN
nan,nan,nan,NaN
nan,nan,nan,NaN
nan,nan,nan,NaN
nan,nan,nan,NaN
nan,nan,nan,NaN
nan,nan,nan,NaN
nan,nan,nan,NaN
nan,nan,nan,NaN
nan,nan,nan,NaN
nan,nan,nan,NaN
nan,nan,nan,NaN
nan,nan,nan,NaN
nan,nan,nan,NaN
nan,nan,nan,NaN
nan,nan,nan,NaN
nan,nan,nan,NaN
nan,nan,nan,NaN
nan,nan,nan,NaN
nan,nan,nan,NaN
nan,nan,nan,NaN
nan,nan,nan,NaN
nan,nan,nan,NaN
nan,nan,nan,NaN
nan,nan,nan,NaN
nan,nan,nan,NaN
0.691591,0.366687,2.499,2.61873
0.699702,0.366687,2.499,2.62089
0.707813,0.366687,2.499,2.62306
0.710768,0.364046,2.481,2.60635
0.70839,0.358763,2.445,2.57071
0.716326,0.358763,2.445,2.57291
0.719226,0.356269,2.428,2.55722
0.727107,0.356269,2.428,2.55945
0.734987,0.356269,2.428,2.5617
0.742868,0.356269,2.428,2.56397
0.745492,0.353774,2.411,2.5483
0.753318,0.353774,2.411,2.5506
0.761143,0.353774,2.411,2.55292
0.768969,0.353774,2.411,2.55527
0.771317,0.35128,2.394,2.5396
0.779087,0.35128,2.394,2.54197
0.786858,0.35128,2.394,2.54436
0.788985,0.348785,2.377,2.52869
0.7967,0.348785,2.377,2.53111
0.799001,0.346438,2.361,2.51649
0.806664,0.346438,2.361,2.51894
0.808809,0.34409,2.345,2.50432
0.81642,0.34409,2.345,2.50678
0.824031,0.34409,2.345,2.50927
0.831643,0.34409,2.345,2.51178
0.839254,0.34409,2.345,2.51431
0.841087,0.341742,2.329,2.49969
0.848646,0.341742,2.329,2.50224
0.862088,0.34409,2.345,2.52203
0.869699,0.34409,2.345,2.52464
0.871324,0.341742,2.329,2.51003
0.878884,0.341742,2.329,2.51266
0.886443,0.341742,2.329,2.51532
0.900144,0.34409,2.345,2.53529
0.907756,0.34409,2.345,2.538
0.915367,0.34409,2.345,2.54073
0.922978,0.34409,2.345,2.54348
0.930589,0.34409,2.345,2.54626
0.938201,0.34409,2.345,2.54905
0.945812,0.34409,2.345,2.55186
0.953423,0.34409,2.345,2.55469
0.967592,0.346438,2.361,2.57499
0.975255,0.346438,2.361,2.57788
0.982918,0.346438,2.361,2.58079
0.990581,0.346438,2.361,2.58372
0.998245,0.346438,2.361,2.58666
1.01272,0.348785,2.377,2.60718
1.02044,0.348785,2.377,2.61019
1.02815,0.348785,2.377,2.61321
1.03587,0.348785,2.377,2.61626
1.04359,0.348785,2.377,2.61932
1.05882,0.35128,2.394,2.64116
1.06659,0.35128,2.394,2.64429
1.07436,0.35128,2.394,2.64743
1.08213,0.35128,2.394,2.65059
1.0899,0.35128,2.394,2.65377
1.10547,0.353774,2.411,2.67584
1.11329,0.353774,2.411,2.67908
1.12112,0.353774,2.411,2.68235
1.12894,0.353774,2.411,2.68563
1.13677,0.353774,2.411,2.68893
1.15266,0.356269,2.428,2.71123
1.16054,0.356269,2.428,2.71459
1.16842,0.356269,2.428,2.71796
1.17631,0.356269,2.428,2.72136
1.18419,0.356269,2.428,2.72478
1.20041,0.358763,2.445,2.74731
1.20835,0.358763,2.445,2.75079
1.21629,0.358763,2.445,2.75429
1.22422,0.358763,2.445,2.7578
1.24123,0.361405,2.463,2.78166
1.25835,0.364046,2.481,2.80559
1.2664,0.364046,2.481,2.80921
1.27446,0.364046,2.481,2.81285
1.28251,0.364046,2.481,2.81651
1.29056,0.364046,2.481,2.82018
1.29862,0.364046,2.481,2.82388
1.31615,0.366687,2.499,2.84811
1.32426,0.366687,2.499,2.85186
1.33237,0.366687,2.499,2.85564
1.36033,0.372116,2.536,2.90177
1.36856,0.372116,2.536,2.90564
1.38711,0.374904,2.555,2.93132
1.3954,0.374904,2.555,2.93525
1.41413,0.377692,2.574,2.96106
1.42248,0.377692,2.574,2.96506
1.4414,0.38048,2.593,2.991
1.47218,0.386349,2.633,3.04126
1.48073,0.386349,2.633,3.04541
1.51303,0.392512,2.675,3.09822
1.54561,0.398675,2.717,3.15118
1.55442,0.398675,2.717,3.15551
1.58856,0.405131,2.761,3.21104
1.61025,0.408359,2.783,3.2411
1.64605,0.415109,2.829,3.29925
1.65523,0.415109,2.829,3.30384
1.67853,0.418631,2.853,3.33651
1.70199,0.422152,2.877,3.36929
1.69705,0.418631,2.853,3.34587
1.70631,0.418631,2.853,3.35058
1.71557,0.418631,2.853,3.3553
1.71032,0.415109,2.829,3.33178
1.70553,0.411734,2.806,3.30938
1.71463,0.411734,2.806,3.31408
1.70961,0.408359,2.783,3.2916
1.70506,0.405131,2.761,3.27024
1.6867,0.398675,2.717,3.22273
1.69552,0.398675,2.717,3.22736
1.69117,0.395593,2.696,3.20702
1.67344,0.389431,2.654,3.16161
1.68205,0.389431,2.654,3.16618
1.67729,0.386349,2.633,3.14567
1.66022,0.38048,2.593,3.10238
1.66864,0.38048,2.593,3.10689
1.66477,0.377692,2.574,3.08862
1.64842,0.372116,2.536,3.04747
1.65665,0.372116,2.536,3.05193
1.64059,0.366687,2.499,3.01181
1.63683,0.364046,2.481,2.99451
1.64488,0.364046,2.481,2.99892
1.64094,0.361405,2.463,2.98156
1.63689,0.358763,2.445,2.96414
1.64482,0.358763,2.445,2.96853
1.64127,0.356269,2.428,2.95226
1.6376,0.353774,2.411,2.93595
-1.79885,0.388894,2.593,3.17974
-1.79043,0.388894,2.593,3.17499
-1.79576,0.391893,2.613,3.1947
-1.80096,0.394893,2.633,3.21436
-1.79241,0.394893,2.633,3.20958
-1.78387,0.394893,2.633,3.20481
-1.77532,0.394893,2.633,3.20006
-1.76678,0.394893,2.633,3.19533
-1.75823,0.394893,2.633,3.19061
-1.76364,0.398042,2.654,3.21132
-1.75502,0.398042,2.654,3.2066
-1.73259,0.394893,2.633,3.17656
-1.72405,0.394893,2.633,3.1719
-1.7155,0.394893,2.633,3.16727
-1.69399,0.391893,2.613,3.13862
-1.67261,0.388894,2.593,3.11006
-1.66419,0.388894,2.593,3.10555
-1.64364,0.386044,2.574,3.07832
-1.63529,0.386044,2.574,3.07387
-1.62693,0.386044,2.574,3.06943
-1.60663,0.383195,2.555,3.04239
-1.59834,0.383195,2.555,3.03802
-1.60187,0.386044,2.574,3.05622
-1.58175,0.383195,2.555,3.02932
-1.56176,0.380345,2.536,3.00251
-1.54189,0.377495,2.517,2.97577
-1.53372,0.377495,2.517,2.97154
-1.51464,0.374796,2.499,2.94612
-1.50653,0.374796,2.499,2.94195
-1.49842,0.374796,2.499,2.93781
-1.46884,0.369397,2.463,2.89142
-1.46084,0.369397,2.463,2.88737
-1.45285,0.369397,2.463,2.88333
-1.43429,0.366697,2.445,2.85827
-1.42636,0.366697,2.445,2.85429
-1.41842,0.366697,2.445,2.85034
-1.41049,0.366697,2.445,2.84639
-1.3928,0.364147,2.428,2.82271
-1.38492,0.364147,2.428,2.81883
-1.37704,0.364147,2.428,2.81496
-1.36916,0.364147,2.428,2.81112
-1.36127,0.364147,2.428,2.80729
-1.36287,0.366697,2.445,2.8231
-1.35493,0.366697,2.445,2.81928
-1.347,0.366697,2.445,2.81547
-1.34892,0.369397,2.463,2.83239
-1.34093,0.369397,2.463,2.82859
-1.34267,0.372096,2.481,2.84545
-1.3443,0.374796,2.499,2.86228
-1.34582,0.377495,2.517,2.87907
-1.33765,0.377495,2.517,2.87526
-1.34955,0.383195,2.555,2.91482
-1.35123,0.386044,2.574,2.93263
-1.34288,0.386044,2.574,2.92879
-1.35474,0.391893,2.613,2.96929
-1.35656,0.394893,2.633,2.98813
-1.35877,0.398042,2.654,3.00806
-1.35016,0.398042,2.654,3.00418
-1.36277,0.404342,2.696,3.0478
-1.35402,0.404342,2.696,3.04389
-1.34527,0.404342,2.696,3.04001
-1.33652,0.404342,2.696,3.03615
-1.33811,0.407491,2.717,3.05593
-1.30874,0.401192,2.675,3.00489
-1.28986,0.398042,2.654,2.97756
-1.28124,0.398042,2.654,2.97384
-1.26256,0.394893,2.633,2.94664
-1.23496,0.388894,2.593,2.89828
-1.20857,0.383195,2.555,2.85228
-1.20028,0.383195,2.555,2.84878
-1.18312,0.380345,2.536,2.82413
-1.15775,0.374796,2.499,2.77954
-1.14964,0.374796,2.499,2.77617
-1.1333,0.372096,2.481,2.75285
-1.10892,0.366697,2.445,2.70965
-1.10099,0.366697,2.445,2.70641
-1.09305,0.366697,2.445,2.70319
-1.07757,0.364147,2.428,2.68122
-1.06969,0.364147,2.428,2.67806
-1.06181,0.364147,2.428,2.67493
-1.05393,0.364147,2.428,2.67181
-1.04605,0.364147,2.428,2.66871
-1.03817,0.364147,2.428,2.66563
-1.03029,0.364147,2.428,2.66257
-1.02241,0.364147,2.428,2.65953
-1.01452,0.364147,2.428,2.65651
-1.00664,0.364147,2.428,2.65351
-0.998763,0.364147,2.428,2.65053
-0.990883,0.364147,2.428,2.64757
-0.983002,0.364147,2.428,2.64463
-0.975121,0.364147,2.428,2.64171
-0.967241,0.364147,2.428,2.63881
-0.95936,0.364147,2.428,2.63594
-0.951479,0.364147,2.428,2.63308
-0.943599,0.364147,2.428,2.63024
-0.935718,0.364147,2.428,2.62742
-0.927837,0.364147,2.428,2.62463
-0.919957,0.364147,2.428,2.62185
-0.912076,0.364147,2.428,2.6191
-0.904195,0.364147,2.428,2.61636
-0.896315,0.364147,2.428,2.61365
-0.888434,0.364147,2.428,2.61096
-0.880553,0.364147,2.428,2.60829
-0.872672,0.364147,2.428,2.60564
-0.864792,0.364147,2.428,2.60301
-0.856911,0.364147,2.428,2.6004
-0.84903,0.364147,2.428,2.59781
-0.84115,0.364147,2.428,2.59525
-0.833269,0.364147,2.428,2.59271
-0.825388,0.364147,2.428,2.59018
-0.817508,0.364147,2.428,2.58768
-0.809627,0.364147,2.428,2.5852
-0.801746,0.364147,2.428,2.58275
-0.799424,0.366697,2.445,2.59838
-0.791488,0.366697,2.445,2.59595
-0.783552,0.366697,2.445,2.59354
-0.775616,0.366697,2.445,2.59115
-0.767681,0.366697,2.445,2.58879
-0.765338,0.369397,2.463,2.60549
-0.757344,0.369397,2.463,2.60315
-0.749349,0.369397,2.463,2.60084
-0.741355,0.369397,2.463,2.59854
-0.733361,0.369397,2.463,2.59627
-0.730668,0.372096,2.481,2.61299
-0.722615,0.372096,2.481,2.61075
-0.714562,0.372096,2.481,2.60853
-0.706509,0.372096,2.481,2.60633
-0.698457,0.372096,2.481,2.60416
-0.695413,0.374796,2.499,2.62089
-0.687302,0.374796,2.499,2.61875
-0.679191,0.374796,2.499,2.61663
-0.67108,0.374796,2.499,2.61454
-0.658193,0.372096,2.481,2.59365
-0.65014,0.372096,2.481,2.59162
-0.642088,0.372096,2.481,2.58961
-0.634035,0.372096,2.481,2.58763
-0.625982,0.372096,2.481,2.58567
-0.61793,0.372096,2.481,2.58373
-0.609877,0.372096,2.481,2.58181
-0.601824,0.372096,2.481,2.57992
-0.593771,0.372096,2.481,2.57806
-0.585719,0.372096,2.481,2.57622
-0.577666,0.372096,2.481,2.5744
-0.569613,0.372096,2.481,2.5726
-0.561561,0.372096,2.481,2.57083
-0.553508,0.372096,2.481,2.56908
-0.545455,0.372096,2.481,2.56736
-0.537403,0.372096,2.481,2.56566
-0.52935,0.372096,2.481,2.56399
-0.521297,0.372096,2.481,2.56234
-0.513244,0.372096,2.481,2.56071
-0.505192,0.372096,2.481,2.55911
-0.497139,0.372096,2.481,2.55753
-0.492635,0.374796,2.499,2.57452
-0.484524,0.374796,2.499,2.57298
-0.476412,0.374796,2.499,2.57147
-0.468301,0.374796,2.499,2.56998
-0.46019,0.374796,2.499,2.56851
-0.452079,0.374796,2.499,2.56707
-0.443968,0.374796,2.499,2.56565
-0.435857,0.374796,2.499,2.56426
-0.427746,0.374796,2.499,2.5629
-0.419634,0.374796,2.499,2.56156
-0.411523,0.374796,2.499,2.56024
-0.403412,0.374796,2.499,2.55895
-0.395301,0.374796,2.499,2.55768
-0.38719,0.374796,2.499,2.55644
-0.381809,0.377495,2.517,2.57363
-0.37364,0.377495,2.517,2.57243
-0.36547,0.377495,2.517,2.57126
-0.357301,0.377495,2.517,2.57011
-0.349131,0.377495,2.517,2.56899
-0.340961,0.377495,2.517,2.56789
-0.335304,0.380345,2.536,2.58619
-0.329523,0.383195,2.555,2.60451
-0.318842,0.380345,2.536,2.58411
-0.31061,0.380345,2.536,2.58311
-0.302379,0.380345,2.536,2.58213
-0.294148,0.380345,2.536,2.58118
-0.285917,0.380345,2.536,2.58025
-0.277685,0.380345,2.536,2.57935
-0.269454,0.380345,2.536,2.57848
-0.261223,0.380345,2.536,2.57763
-0.251096,0.377495,2.517,2.55751
-0.242927,0.377495,2.517,2.55672
-0.234757,0.377495,2.517,2.55595
-0.224967,0.374796,2.499,2.53694
-0.216856,0.374796,2.499,2.53624
-0.208745,0.374796,2.499,2.53556
-0.200634,0.374796,2.499,2.5349
-0.192523,0.374796,2.499,2.53427
-0.183083,0.372096,2.481,2.51542
-0.175031,0.372096,2.481,2.51485
-0.166978,0.372096,2.481,2.5143
-0.158925,0.372096,2.481,2.51378
-0.150872,0.372096,2.481,2.51328
-0.143856,0.374796,2.499,2.53104
-0.135745,0.374796,2.499,2.53059
-0.127634,0.374796,2.499,2.53017
-0.119523,0.374796,2.499,2.52977
-0.111411,0.374796,2.499,2.5294
-0.1033,0.374796,2.499,2.52906
-0.0958747,0.377495,2.517,2.54696
-0.0877052,0.377495,2.517,2.54666
-0.0795356,0.377495,2.517,2.54639
-0.0719048,0.380345,2.536,2.56537
-0.0636736,0.380345,2.536,2.56515
-0.0558577,0.383195,2.555,2.58418
-0.0472111,0.380345,2.536,2.5648
-0.0389799,0.380345,2.536,2.56466
-0.0307487,0.380345,2.536,2.56455
-0.0225174,0.380345,2.536,2.56446
-0.0143932,0.383195,2.555,2.58362
-0.00610034,0.383195,2.555,2.58358
0.00219255,0.383195,2.555,2.58358
0.0104854,0.383195,2.555,2.5836
0.018918,0.386044,2.574,2.60286
0.0272725,0.386044,2.574,2.60293
0.0353641,0.383195,2.555,2.58382
0.043657,0.383195,2.555,2.58394
0.0523362,0.386044,2.574,2.60331
0.0606908,0.386044,2.574,2.6035
0.0690454,0.386044,2.574,2.6037
0.0773999,0.386044,2.574,2.60394
0.0851215,0.383195,2.555,2.58498
0.0934144,0.383195,2.555,2.58526
0.101707,0.383195,2.555,2.58558
0.11,0.383195,2.555,2.58592
0.118293,0.383195,2.555,2.58628
0.125645,0.380345,2.536,2.56744
0.133876,0.380345,2.536,2.56786
0.142107,0.380345,2.536,2.5683
0.150338,0.380345,2.536,2.56877
0.15857,0.380345,2.536,2.56926
0.165551,0.377495,2.517,2.55053
0.173721,0.377495,2.517,2.55107
0.18189,0.377495,2.517,2.55164
0.19006,0.377495,2.517,2.55224
0.198229,0.377495,2.517,2.55286
0.206399,0.377495,2.517,2.55351
0.214568,0.377495,2.517,2.55418
0.222738,0.377495,2.517,2.55488
0.230908,0.377495,2.517,2.5556
0.239077,0.377495,2.517,2.55635
0.247247,0.377495,2.517,2.55713
0.255416,0.377495,2.517,2.55793
0.263586,0.377495,2.517,2.55876
0.271755,0.377495,2.517,2.55962
0.279925,0.377495,2.517,2.5605
nan,nan,nan,NaN
nan,nan,nan,NaN
nan,nan,nan,NaN
nan,nan,nan,NaN
nan,nan,nan,NaN
nan,nan,nan,NaN
nan,nan,nan,NaN
nan,nan,nan,NaN
nan,nan,nan,NaN
nan,nan,nan,NaN
nan,nan,nan,NaN
nan,nan,nan,NaN
nan,nan,nan,NaN
nan,nan,nan,NaN
nan,nan,nan,NaN
nan,nan,nan,NaN
nan,nan,nan,NaN
nan,nan,nan,NaN
nan,nan,nan,NaN
nan,nan,nan,NaN
nan,nan,nan,NaN
nan,nan,nan,NaN
nan,nan,nan,NaN
nan,nan,nan,NaN
nan,nan,nan,NaN
nan,nan,nan,NaN
nan,nan,nan,NaN
nan,nan,nan,NaN
nan,nan,nan,NaN
nan,nan,nan,NaN
nan,nan,nan,NaN
nan,nan,nan,NaN
nan,nan,nan,NaN
nan,nan,nan,NaN
nan,nan,nan,NaN
nan,nan,nan,NaN
nan,nan,nan,NaN
nan,nan,nan,NaN
nan,nan,nan,NaN
nan,nan,nan,NaN
nan,nan,nan,NaN
nan,nan,nan,NaN
nan,nan,nan,NaN
nan,nan,nan,NaN
nan,nan,nan,NaN
nan,nan,nan,NaN
nan,nan,nan,NaN
0.672064,0.377495,2.517,2.63239
0.675369,0.374796,2.499,2.61564
0.68348,0.374796,2.499,2.61775
0.691591,0.374796,2.499,2.61988
0.699702,0.374796,2.499,2.62203
0.707813,0.374796,2.499,2.62421
0.710768,0.372096,2.481,2.60749
0.713605,0.369397,2.463,2.59076
0.721599,0.369397,2.463,2.59298
0.729594,0.369397,2.463,2.59521
0.737588,0.369397,2.463,2.59747
0.740133,0.366697,2.445,2.58075
0.748069,0.366697,2.445,2.58304
0.750749,0.364147,2.428,2.56737
0.758629,0.364147,2.428,2.56969
0.76651,0.364147,2.428,2.57203
0.768969,0.361598,2.411,2.55636
0.776794,0.361598,2.411,2.55873
0.78462,0.361598,2.411,2.56111
0.786858,0.359048,2.394,2.54545
0.794628,0.359048,2.394,2.54786
0.802398,0.359048,2.394,2.55029
0.804416,0.356498,2.377,2.53462
0.812131,0.356498,2.377,2.53708
0.814327,0.354099,2.361,2.52247
0.821991,0.354099,2.361,2.52495
0.829654,0.354099,2.361,2.52746
0.831643,0.351699,2.345,2.51284
0.839254,0.351699,2.345,2.51537
0.846865,0.351699,2.345,2.51792
0.854477,0.351699,2.345,2.52049
0.862088,0.351699,2.345,2.52308
0.869699,0.351699,2.345,2.52569
0.87731,0.351699,2.345,2.52832
0.884922,0.351699,2.345,2.53097
0.892533,0.351699,2.345,2.53364
0.894003,0.3493,2.329,2.51903
0.901562,0.3493,2.329,2.52172
0.915367,0.351699,2.345,2.54177
0.922978,0.351699,2.345,2.54452
0.930589,0.351699,2.345,2.5473
0.938201,0.351699,2.345,2.55009
0.945812,0.351699,2.345,2.5529
0.953423,0.351699,2.345,2.55573
0.961035,0.351699,2.345,2.55857
0.968646,0.351699,2.345,2.56144
0.982918,0.354099,2.361,2.58183
0.990581,0.354099,2.361,2.58476
0.998245,0.354099,2.361,2.5877
1.00591,0.354099,2.361,2.59067
1.02044,0.356498,2.377,2.61123
1.02815,0.356498,2.377,2.61425
1.03587,0.356498,2.377,2.6173
1.04359,0.356498,2.377,2.62036
1.05882,0.359048,2.394,2.64221
1.06659,0.359048,2.394,2.64533
1.07436,0.359048,2.394,2.64847
1.08213,0.359048,2.394,2.65163
1.0899,0.359048,2.394,2.65481
1.10547,0.361598,2.411,2.67689
1.11329,0.361598,2.411,2.68013
1.12112,0.361598,2.411,2.68339
1.12894,0.361598,2.411,2.68667
1.13677,0.361598,2.411,2.68997
1.14459,0.361598,2.411,2.69328
1.15242,0.361598,2.411,2.69662
1.16842,0.364147,2.428,2.71901
1.17631,0.364147,2.428,2.7224
1.18419,0.364147,2.428,2.72582
1.19207,0.364147,2.428,2.72925
1.20835,0.366697,2.445,2.75184
1.21629,0.366697,2.445,2.75533
1.22422,0.366697,2.445,2.75884
1.24123,0.369397,2.463,2.78271
1.25835,0.372096,2.481,2.80665
1.2664,0.372096,2.481,2.81027
1.27446,0.372096,2.481,2.8139
1.28251,0.372096,2.481,2.81756
1.29056,0.372096,2.481,2.82124
1.29862,0.372096,2.481,2.82493
1.31615,0.374796,2.499,2.84916
1.32426,0.374796,2.499,2.85292
1.33237,0.374796,2.499,2.85669
1.36033,0.380345,2.536,2.90284
1.36856,0.380345,2.536,2.9067
1.38711,0.383195,2.555,2.93239
1.3954,0.383195,2.555,2.93632
1.41413,0.386044,2.574,2.96214
1.42248,0.386044,2.574,2.96614
1.4414,0.388894,2.593,2.99208
1.47218,0.394893,2.633,3.04236
1.48073,0.394893,2.633,3.0465
1.51303,0.401192,2.675,3.09933
1.54561,0.407491,2.717,3.15231
1.55442,0.407491,2.717,3.15664
1.58856,0.41409,2.761,3.21218
1.61025,0.41739,2.783,3.24225
1.64605,0.424289,2.829,3.30041
1.65523,0.424289,2.829,3.305
1.67853,0.427888,2.853,3.33769
1.70199,0.431488,2.877,3.37047
1.69705,0.427888,2.853,3.34704
1.70631,0.427888,2.853,3.35175
1.71557,0.427888,2.853,3.35647
1.71032,0.424289,2.829,3.33294
1.70553,0.420839,2.806,3.31052
1.71463,0.420839,2.806,3.31522
1.70961,0.41739,2.783,3.29273
1.70506,0.41409,2.761,3.27136
1.6867,0.407491,2.717,3.22383
1.69552,0.407491,2.717,3.22846
1.69117,0.404342,2.696,3.20811
1.67344,0.398042,2.654,3.16268
1.68205,0.398042,2.654,3.16725
1.67729,0.394893,2.633,3.14673
1.67303,0.391893,2.613,3.12736
1.68151,0.391893,2.613,3.1319
1.66477,0.386044,2.574,3.08965
1.64842,0.380345,2.536,3.04848
1.65665,0.380345,2.536,3.05294
1.65241,0.377495,2.517,3.03451
1.6487,0.374796,2.499,3.01723
1.65682,0.374796,2.499,3.02167
1.64094,0.369397,2.463,2.98253
1.63689,0.366697,2.445,2.96511
1.64482,0.366697,2.445,2.9695
1.64127,0.364147,2.428,2.95323
1.6376,0.361598,2.411,2.9369
-1.79885,0.397308,2.593,3.18078
-1.79043,0.397308,2.593,3.17603
-1.79576,0.400372,2.613,3.19575
-1.80096,0.403437,2.633,3.21542
-1.79241,0.403437,2.633,3.21064
-1.78387,0.403437,2.633,3.20588
-1.77532,0.403437,2.633,3.20113
-1.76678,0.403437,2.633,3.1964
-1.75823,0.403437,2.633,3.19168
-1.76364,0.406654,2.654,3.2124
-1.75502,0.406654,2.654,3.20768
-1.73259,0.403437,2.633,3.17763
-1.72405,0.403437,2.633,3.17298
-1.7155,0.403437,2.633,3.16834
-1.69399,0.400372,2.613,3.13969
-1.67261,0.397308,2.593,3.11113
-1.66419,0.397308,2.593,3.10661
-1.64364,0.394396,2.574,3.07938
-1.63529,0.394396,2.574,3.07493
-1.62693,0.394396,2.574,3.07049
-1.60663,0.391485,2.555,3.04344
-1.58645,0.388574,2.536,3.01647
-1.57822,0.388574,2.536,3.01215
-1.54708,0.382905,2.499,2.96396
-1.53897,0.382905,2.499,2.95974
-1.50881,0.377389,2.463,2.91295
-1.50081,0.377389,2.463,2.90882
-1.49282,0.377389,2.463,2.9047
-1.47397,0.374631,2.445,2.8794
-1.46604,0.374631,2.445,2.87535
-1.4581,0.374631,2.445,2.87131
-1.44008,0.372026,2.428,2.84735
-1.4322,0.372026,2.428,2.84338
-1.42432,0.372026,2.428,2.83941
-1.41644,0.372026,2.428,2.83547
-1.40856,0.372026,2.428,2.83154
-1.40068,0.372026,2.428,2.82763
-1.3928,0.372026,2.428,2.82373
-1.38492,0.372026,2.428,2.81986
-1.37704,0.372026,2.428,2.81599
-1.36916,0.372026,2.428,2.81215
-1.36127,0.372026,2.428,2.80832
-1.36287,0.374631,2.445,2.82414
-1.35493,0.374631,2.445,2.82032
-1.347,0.374631,2.445,2.81652
-1.34892,0.377389,2.463,2.83344
-1.34093,0.377389,2.463,2.82964
-1.34267,0.380147,2.481,2.84651
-1.3443,0.382905,2.499,2.86335
-1.34582,0.385663,2.517,2.88015
-1.33765,0.385663,2.517,2.87634
-1.34955,0.391485,2.555,2.91592
-1.35123,0.394396,2.574,2.93374
-1.34288,0.394396,2.574,2.9299
-1.35474,0.400372,2.613,2.97042
-1.35656,0.403437,2.633,2.98927
-1.35877,0.406654,2.654,3.00921
-1.35016,0.406654,2.654,3.00533
-1.36277,0.41309,2.696,3.04897
-1.35402,0.41309,2.696,3.04507
-1.34527,0.41309,2.696,3.04119
-1.33652,0.41309,2.696,3.03733
-1.32777,0.41309,2.696,3.03348
-1.30874,0.409872,2.675,3.00607
-1.28986,0.406654,2.654,2.97873
-1.28124,0.406654,2.654,2.97501
-1.25297,0.400372,2.613,2.92541
-1.23496,0.397308,2.593,2.89942
-1.20857,0.391485,2.555,2.85341
-1.20028,0.391485,2.555,2.8499
-1.18312,0.388574,2.536,2.82525
-1.15775,0.382905,2.499,2.78065
-1.14964,0.382905,2.499,2.77728
-1.1333,0.380147,2.481,2.75395
-1.10892,0.374631,2.445,2.71073
-1.10099,0.374631,2.445,2.7075
-1.08545,0.372026,2.428,2.68548
-1.07757,0.372026,2.428,2.6823
-1.06969,0.372026,2.428,2.67915
-1.06181,0.372026,2.428,2.67601
-1.04655,0.369421,2.411,2.65418
-1.03872,0.369421,2.411,2.6511
-1.0309,0.369421,2.411,2.64805
-1.02307,0.369421,2.411,2.64501
-1.01525,0.369421,2.411,2.64199
-1.00742,0.369421,2.411,2.63899
-0.999596,0.369421,2.411,2.63602
-0.998763,0.372026,2.428,2.65163
-0.990883,0.372026,2.428,2.64867
-0.983002,0.372026,2.428,2.64573
-0.975121,0.372026,2.428,2.64281
-0.967241,0.372026,2.428,2.63991
-0.95936,0.372026,2.428,2.63704
-0.951479,0.372026,2.428,2.63418
-0.943599,0.372026,2.428,2.63134
-0.935718,0.372026,2.428,2.62853
-0.927837,0.372026,2.428,2.62573
-0.919957,0.372026,2.428,2.62296
-0.912076,0.372026,2.428,2.6202
-0.897864,0.369421,2.411,2.59914
-0.890039,0.369421,2.411,2.59645
-0.882213,0.369421,2.411,2.59378
-0.874388,0.369421,2.411,2.59113
-0.866562,0.369421,2.411,2.5885
-0.858737,0.369421,2.411,2.58589
-0.850911,0.369421,2.411,2.5833
-0.843086,0.369421,2.411,2.58073
-0.83526,0.369421,2.411,2.57819
-0.827435,0.369421,2.411,2.57566
-0.819609,0.369421,2.411,2.57316
-0.811784,0.369421,2.411,2.57068
-0.809627,0.372026,2.428,2.58633
-0.801746,0.372026,2.428,2.58387
-0.793866,0.372026,2.428,2.58144
-0.785985,0.372026,2.428,2.57902
-0.778104,0.372026,2.428,2.57663
-0.770224,0.372026,2.428,2.57426
-0.762343,0.372026,2.428,2.57192
-0.759745,0.374631,2.445,2.58758
-0.751809,0.374631,2.445,2.58526
-0.743873,0.374631,2.445,2.58297
-0.735937,0.374631,2.445,2.58069
-0.728001,0.374631,2.445,2.57844
-0.725366,0.377389,2.463,2.59518
-0.717372,0.377389,2.463,2.59295
-0.714562,0.380147,2.481,2.60969
-0.706509,0.380147,2.481,2.60749
-0.698457,0.380147,2.481,2.60532
-0.690404,0.380147,2.481,2.60318
-0.682351,0.380147,2.481,2.60105
-0.674299,0.380147,2.481,2.59895
-0.666246,0.380147,2.481,2.59687
-0.658193,0.380147,2.481,2.59482
-0.65014,0.380147,2.481,2.59279
-0.642088,0.380147,2.481,2.59078
-0.634035,0.380147,2.481,2.5888
-0.625982,0.380147,2.481,2.58684
-0.613446,0.377389,2.463,2.56615
-0.605452,0.377389,2.463,2.56425
-0.597458,0.377389,2.463,2.56237
-0.589464,0.377389,2.463,2.56052
-0.581469,0.377389,2.463,2.55869
-0.573475,0.377389,2.463,2.55689
-0.565481,0.377389,2.463,2.5551
-0.561561,0.380147,2.481,2.57201
-0.553508,0.380147,2.481,2.57026
-0.545455,0.380147,2.481,2.56854
-0.537403,0.380147,2.481,2.56684
-0.52935,0.380147,2.481,2.56517
-0.521297,0.380147,2.481,2.56352
-0.516968,0.382905,2.499,2.58048
-0.508857,0.382905,2.499,2.57887
-0.500746,0.382905,2.499,2.57728
-0.492635,0.382905,2.499,2.57571
-0.484524,0.382905,2.499,2.57418
-0.476412,0.382905,2.499,2.57266
-0.468301,0.382905,2.499,2.57117
-0.46019,0.382905,2.499,2.56971
-0.452079,0.382905,2.499,2.56827
-0.443968,0.382905,2.499,2.56685
-0.435857,0.382905,2.499,2.56546
