0.734755,-0.154534,2.536,2.64481
0.742987,-0.154534,2.536,2.64711
0.751218,-0.154534,2.536,2.64943
0.759449,-0.154534,2.536,2.65178
0.76768,-0.154534,2.536,2.65415
0.775912,-0.154534,2.536,2.65654
0.784143,-0.154534,2.536,2.65896
0.792374,-0.154534,2.536,2.6614
0.800605,-0.154534,2.536,2.66386
0.808836,-0.154534,2.536,2.66634
0.823189,-0.155692,2.555,2.68885
0.825299,-0.154534,2.536,2.67138
0.83353,-0.154534,2.536,2.67394
0.841761,-0.154534,2.536,2.67652
0.849993,-0.154534,2.536,2.67912
0.858224,-0.154534,2.536,2.68174
0.859963,-0.153376,2.517,2.66427
0.868133,-0.153376,2.517,2.66692
0.876303,-0.153376,2.517,2.66959
0.878147,-0.152279,2.499,2.65317
0.886258,-0.152279,2.499,2.65587
0.887927,-0.151182,2.481,2.63944
0.89598,-0.151182,2.481,2.64216
0.904033,-0.151182,2.481,2.6449
0.905468,-0.150085,2.463,2.62845
0.906787,-0.148989,2.445,2.61199
0.908362,-0.147953,2.428,2.59657
0.916243,-0.147953,2.428,2.59934
0.924124,-0.147953,2.428,2.60213
0.918953,-0.145881,2.394,2.56846
0.926724,-0.145881,2.394,2.57125
0.934494,-0.145881,2.394,2.57406
0.935573,-0.144845,2.377,2.55859
0.943288,-0.144845,2.377,2.56143
0.951003,-0.144845,2.377,2.56428
nan,nan,nan,NaN
nan,nan,nan,NaN
0.967592,-0.14387,2.361,2.55563
0.968646,-0.142895,2.345,2.5412
0.976257,-0.142895,2.345,2.54412
0.983868,-0.142895,2.345,2.54705
nan,nan,nan,NaN
nan,nan,nan,NaN
nan,nan,nan,NaN
nan,nan,nan,NaN
nan,nan,nan,NaN
nan,nan,nan,NaN
nan,nan,nan,NaN
nan,nan,nan,NaN
nan,nan,nan,NaN
nan,nan,nan,NaN
nan,nan,nan,NaN
nan,nan,nan,NaN
nan,nan,nan,NaN
nan,nan,nan,NaN
nan,nan,nan,NaN
nan,nan,nan,NaN
nan,nan,nan,NaN
nan,nan,nan,NaN
nan,nan,nan,NaN
nan,nan,nan,NaN
nan,nan,nan,NaN
nan,nan,nan,NaN
nan,nan,nan,NaN
nan,nan,nan,NaN
nan,nan,nan,NaN
nan,nan,nan,NaN
nan,nan,nan,NaN
nan,nan,nan,NaN
nan,nan,nan,NaN
nan,nan,nan,NaN
nan,nan,nan,NaN
nan,nan,nan,NaN
nan,nan,nan,NaN
1.8139,-0.208584,3.423,3.87952
1.82501,-0.208584,3.423,3.88473
1.8549,-0.210717,3.458,3.92973
1.86612,-0.210717,3.458,3.93504
1.85834,-0.208584,3.423,3.9005
1.86945,-0.208584,3.423,3.9058
1.88056,-0.208584,3.423,3.91113
1.89167,-0.208584,3.423,3.91649
1.90278,-0.208584,3.423,3.92186
1.91389,-0.208584,3.423,3.92727
1.925,-0.208584,3.423,3.93269
1.93611,-0.208584,3.423,3.93814
1.94722,-0.208584,3.423,3.94362
1.93888,-0.206512,3.389,3.90989
1.9309,-0.204501,3.356,3.87723
1.94179,-0.204501,3.356,3.88267
1.95268,-0.204501,3.356,3.88813
1.94485,-0.202551,3.324,3.85648
1.95564,-0.202551,3.324,3.86193
1.96643,-0.202551,3.324,3.86741
1.95818,-0.200601,3.292,3.83562
1.93179,-0.196823,3.23,3.76875
1.94227,-0.196823,3.23,3.77413
1.91648,-0.193167,3.17,3.70933
1.89152,-0.189633,3.112,3.64669
1.90162,-0.189633,3.112,3.65194
1.87793,-0.186281,3.057,3.59257
1.87118,-0.184636,3.03,3.56599
1.88101,-0.184636,3.03,3.57116
1.85777,-0.181407,2.977,3.5138
1.83545,-0.178299,2.926,3.45863
1.84494,-0.178299,2.926,3.46368
1.82338,-0.175313,2.877,3.41066
1.81743,-0.173851,2.853,3.38717
1.82669,-0.173851,2.853,3.39214
1.82051,-0.172388,2.829,3.36856
1.79994,-0.169585,2.783,3.31868
1.78037,-0.166904,2.739,3.27104
1.78926,-0.166904,2.739,3.27589
1.78371,-0.165563,2.717,3.2544
1.76482,-0.163004,2.675,3.20886
1.7735,-0.163004,2.675,3.21364
1.76819,-0.161724,2.654,3.19318
1.76275,-0.160445,2.633,3.17265
1.77129,-0.160445,2.633,3.17741
1.76632,-0.159226,2.613,3.15801
1.74831,-0.156849,2.574,3.11555
-1.94661,-0.161882,2.806,3.41894
-1.93751,-0.161882,2.806,3.41376
-1.91259,-0.160555,2.783,3.38066
-1.90356,-0.160555,2.783,3.37556
-1.86457,-0.158016,2.739,3.31719
-1.85568,-0.158016,2.739,3.3122
-1.84679,-0.158016,2.739,3.30722
-1.8379,-0.158016,2.739,3.30227
-1.82901,-0.158016,2.739,3.29733
-1.82012,-0.158016,2.739,3.29241
-1.81123,-0.158016,2.739,3.2875
-1.80234,-0.158016,2.739,3.28261
-1.79345,-0.158016,2.739,3.27774
-1.78456,-0.158016,2.739,3.27288
-1.78993,-0.159285,2.761,3.29429
-1.79516,-0.160555,2.783,3.31564
-1.78613,-0.160555,2.783,3.31076
-1.80647,-0.163208,2.829,3.36054
-1.82778,-0.165978,2.877,3.41255
-1.81845,-0.165978,2.877,3.40755
-1.8242,-0.167362,2.901,3.43096
-1.84606,-0.170247,2.951,3.48502
-1.85267,-0.171747,2.977,3.51061
-1.843,-0.171747,2.977,3.50552
-1.83334,-0.171747,2.977,3.50045
-1.8396,-0.173247,3.003,3.52593
-1.82986,-0.173247,3.003,3.52085
-1.83648,-0.174804,3.03,3.54741
-1.82664,-0.174804,3.03,3.54233
-1.80062,-0.173247,3.003,3.50574
-1.79087,-0.173247,3.003,3.50075
-1.78112,-0.173247,3.003,3.49577
-1.77138,-0.173247,3.003,3.49082
-1.76163,-0.173247,3.003,3.48588
nan,nan,nan,NaN
nan,nan,nan,NaN
nan,nan,nan,NaN
nan,nan,nan,NaN
nan,nan,nan,NaN
nan,nan,nan,NaN
nan,nan,nan,NaN
nan,nan,nan,NaN
nan,nan,nan,NaN
nan,nan,nan,NaN
nan,nan,nan,NaN
nan,nan,nan,NaN
nan,nan,nan,NaN
nan,nan,nan,NaN
nan,nan,nan,NaN
nan,nan,nan,NaN
nan,nan,nan,NaN
nan,nan,nan,NaN
nan,nan,nan,NaN
nan,nan,nan,NaN
nan,nan,nan,NaN
nan,nan,nan,NaN
nan,nan,nan,NaN
nan,nan,nan,NaN
nan,nan,nan,NaN
nan,nan,nan,NaN
nan,nan,nan,NaN
nan,nan,nan,NaN
nan,nan,nan,NaN
-1.1879,-0.140074,2.428,2.70664
-1.18002,-0.140074,2.428,2.70319
-1.16393,-0.139094,2.411,2.68086
-1.15611,-0.139094,2.411,2.67747
-1.14828,-0.139094,2.411,2.6741
-1.14046,-0.139094,2.411,2.67075
-1.12464,-0.138113,2.394,2.64861
-1.11687,-0.138113,2.394,2.64532
-1.1091,-0.138113,2.394,2.64205
-1.09351,-0.137132,2.377,2.62006
-1.0858,-0.137132,2.377,2.61685
-1.07808,-0.137132,2.377,2.61366
-1.06316,-0.136209,2.361,2.59291
-1.0555,-0.136209,2.361,2.58978
-1.04784,-0.136209,2.361,2.58666
-1.04017,-0.136209,2.361,2.58357
-1.03251,-0.136209,2.361,2.58049
-1.02485,-0.136209,2.361,2.57744
-1.01718,-0.136209,2.361,2.5744
-1.00952,-0.136209,2.361,2.57138
-1.00186,-0.136209,2.361,2.56838
-0.994193,-0.136209,2.361,2.5654
-0.986529,-0.136209,2.361,2.56244
-0.978866,-0.136209,2.361,2.5595
-0.971203,-0.136209,2.361,2.55658
-0.96354,-0.136209,2.361,2.55368
-0.955876,-0.136209,2.361,2.5508
-0.954639,-0.137132,2.377,2.5652
-0.946924,-0.137132,2.377,2.56234
-0.939209,-0.137132,2.377,2.5595
-0.931494,-0.137132,2.377,2.55668
-0.923778,-0.137132,2.377,2.55388
-0.916063,-0.137132,2.377,2.5511
-0.902234,-0.136209,2.361,2.53119
-0.894571,-0.136209,2.361,2.52846
-0.886907,-0.136209,2.361,2.52576
-0.879244,-0.136209,2.361,2.52308
-0.877488,-0.137132,2.377,2.5375
-0.869772,-0.137132,2.377,2.53484
-0.862057,-0.137132,2.377,2.53221
-0.854342,-0.137132,2.377,2.52959
-0.846627,-0.137132,2.377,2.527
-0.838912,-0.137132,2.377,2.52442
-0.837141,-0.138113,2.394,2.5399
-0.829371,-0.138113,2.394,2.53735
-0.821601,-0.138113,2.394,2.53483
-0.81383,-0.138113,2.394,2.53232
-0.80606,-0.138113,2.394,2.52983
-0.79829,-0.138113,2.394,2.52737
-0.796133,-0.139094,2.411,2.54285
-0.788307,-0.139094,2.411,2.54041
-0.780482,-0.139094,2.411,2.538
-0.772656,-0.139094,2.411,2.5356
-0.770224,-0.140074,2.428,2.55109
-0.762343,-0.140074,2.428,2.54872
-0.754462,-0.140074,2.428,2.54637
-0.746581,-0.140074,2.428,2.54405
-0.738701,-0.140074,2.428,2.54175
-0.73082,-0.140074,2.428,2.53947
-0.722939,-0.140074,2.428,2.53721
-0.715059,-0.140074,2.428,2.53498
-0.707178,-0.140074,2.428,2.53277
-0.704194,-0.141055,2.445,2.5483
-0.696258,-0.141055,2.445,2.54611
-0.688322,-0.141055,2.445,2.54396
-0.680386,-0.141055,2.445,2.54182
-0.67245,-0.141055,2.445,2.53971
-0.669406,-0.142093,2.463,2.5563
-0.656578,-0.141055,2.445,2.53555
-0.648643,-0.141055,2.445,2.53351
-0.640707,-0.141055,2.445,2.53149
-0.632771,-0.141055,2.445,2.52949
-0.624835,-0.141055,2.445,2.52752
-0.616899,-0.141055,2.445,2.52557
-0.608963,-0.141055,2.445,2.52364
-0.601027,-0.141055,2.445,2.52174
-0.597458,-0.142093,2.463,2.53841
-0.589464,-0.142093,2.463,2.53654
-0.581469,-0.142093,2.463,2.53469
-0.577666,-0.143132,2.481,2.55138
-0.569613,-0.143132,2.481,2.54957
-0.561561,-0.143132,2.481,2.54778
-0.553508,-0.143132,2.481,2.54602
-0.545455,-0.143132,2.481,2.54428
-0.537403,-0.143132,2.481,2.54257
-0.53319,-0.14417,2.499,2.55931
-0.525079,-0.14417,2.499,2.55763
-0.516968,-0.14417,2.499,2.55598
-0.508857,-0.14417,2.499,2.55435
-0.504353,-0.145209,2.517,2.57114
-0.496183,-0.145209,2.517,2.56955
-0.488013,-0.145209,2.517,2.56798
-0.479844,-0.145209,2.517,2.56644
-0.471674,-0.145209,2.517,2.56493
-0.463505,-0.145209,2.517,2.56344
-0.458772,-0.146305,2.536,2.58131
-0.450541,-0.146305,2.536,2.57986
-0.44231,-0.146305,2.536,2.57844
-0.434079,-0.146305,2.536,2.57704
-0.425848,-0.146305,2.536,2.57566
-0.417616,-0.146305,2.536,2.57432
-0.409385,-0.146305,2.536,2.57299
-0.401154,-0.146305,2.536,2.5717
-0.392923,-0.146305,2.536,2.57043
-0.384691,-0.146305,2.536,2.56918
-0.379281,-0.147401,2.555,2.5872
-0.370988,-0.147401,2.555,2.586
-0.362695,-0.147401,2.555,2.58482
-0.354402,-0.147401,2.555,2.58367
-0.346109,-0.147401,2.555,2.58255
-0.337816,-0.147401,2.555,2.58145
-0.329523,-0.147401,2.555,2.58038
-0.323619,-0.148497,2.574,2.59851
-0.315265,-0.148497,2.574,2.59748
-0.30691,-0.148497,2.574,2.59648
-0.298555,-0.148497,2.574,2.59551
-0.292343,-0.149593,2.593,2.61371
-0.283927,-0.149593,2.593,2.61278
-0.275511,-0.149593,2.593,2.61188
-0.267094,-0.149593,2.593,2.61101
-0.260673,-0.150747,2.613,2.63029
-0.252192,-0.150747,2.613,2.62947
-0.243711,-0.150747,2.613,2.62867
-0.23523,-0.150747,2.613,2.62789
-0.226749,-0.150747,2.613,2.62715
-0.218268,-0.150747,2.613,2.62643
-0.209786,-0.150747,2.613,2.62574
-0.201305,-0.150747,2.613,2.62507
-0.192824,-0.150747,2.613,2.62444
-0.184343,-0.150747,2.613,2.62383
-0.175862,-0.150747,2.613,2.62325
-0.167381,-0.150747,2.613,2.62269
-0.160116,-0.151901,2.633,2.64223
-0.15157,-0.151901,2.633,2.64173
-0.143024,-0.151901,2.633,2.64125
-0.133456,-0.150747,2.613,2.62075
-0.124975,-0.150747,2.613,2.62033
-0.116494,-0.150747,2.613,2.61994
-0.108013,-0.150747,2.613,2.61957
-0.100293,-0.151901,2.633,2.63928
-0.0917472,-0.151901,2.633,2.63897
-0.0832012,-0.151901,2.633,2.63869
-0.0746551,-0.151901,2.633,2.63843
-0.066109,-0.151901,2.633,2.63821
-0.057563,-0.151901,2.633,2.63801
-0.0490169,-0.151901,2.633,2.63783
-0.0404708,-0.151901,2.633,2.63769
-0.0319248,-0.151901,2.633,2.63757
-0.0233787,-0.151901,2.633,2.63748
-0.0148326,-0.151901,2.633,2.63742
-0.00628658,-0.151901,2.633,2.63739
0.00225949,-0.151901,2.633,2.63738
0.0108056,-0.151901,2.633,2.6374
0.0193516,-0.151901,2.633,2.63745
0.0278977,-0.151901,2.633,2.63753
0.0361669,-0.150747,2.613,2.61759
0.0446481,-0.150747,2.613,2.61773
0.0531292,-0.150747,2.613,2.61788
0.0616104,-0.150747,2.613,2.61807
0.0700915,-0.150747,2.613,2.61828
0.0779713,-0.149593,2.593,2.59848
0.0863875,-0.149593,2.593,2.59875
0.0948037,-0.149593,2.593,2.59904
0.10322,-0.149593,2.593,2.59936
0.111636,-0.149593,2.593,2.59971
0.120052,-0.149593,2.593,2.60008
0.128469,-0.149593,2.593,2.60049
0.136885,-0.149593,2.593,2.60092
0.146422,-0.150747,2.613,2.62144
0.154903,-0.150747,2.613,2.62192
0.162134,-0.149593,2.593,2.60237
0.17055,-0.149593,2.593,2.60291
0.178966,-0.149593,2.593,2.60347
0.187382,-0.149593,2.593,2.60406
0.197309,-0.150747,2.613,2.62477
0.20579,-0.150747,2.613,2.62542
0.214271,-0.150747,2.613,2.6261
0.224457,-0.151901,2.633,2.64691
0.233003,-0.151901,2.633,2.64765
0.241549,-0.151901,2.633,2.64842
0.250095,-0.151901,2.633,2.64921
0.258641,-0.151901,2.633,2.65003
0.267187,-0.151901,2.633,2.65088
0.273639,-0.150747,2.613,2.63161
0.28212,-0.150747,2.613,2.63251
0.290601,-0.150747,2.613,2.63343
0.299083,-0.150747,2.613,2.63438
0.307564,-0.150747,2.613,2.63535
0.316045,-0.150747,2.613,2.63636
0.322042,-0.149593,2.593,2.6172
0.328037,-0.148497,2.574,2.59906
0.333908,-0.147401,2.555,2.58094
0.342201,-0.147401,2.555,2.58203
0.347888,-0.146305,2.536,2.56393
0.356119,-0.146305,2.536,2.56506
0.36435,-0.146305,2.536,2.56621
0.36979,-0.145209,2.517,2.54816
0.37796,-0.145209,2.517,2.54936
0.389044,-0.146305,2.536,2.56984
0.394299,-0.145209,2.517,2.55183
0.402468,-0.145209,2.517,2.55311
0.410638,-0.145209,2.517,2.55441
0.415812,-0.14417,2.499,2.53746
0.423923,-0.14417,2.499,2.5388
0.428923,-0.143132,2.481,2.52187
0.436975,-0.143132,2.481,2.52325
0.445028,-0.143132,2.481,2.52466
0.453081,-0.143132,2.481,2.52609
0.464479,-0.14417,2.499,2.54588
0.469186,-0.143132,2.481,2.52903
0.477239,-0.143132,2.481,2.53053
0.488812,-0.14417,2.499,2.55044
0.496924,-0.14417,2.499,2.552
0.505035,-0.14417,2.499,2.55359
0.513146,-0.14417,2.499,2.55521
0.521257,-0.14417,2.499,2.55685
0.529368,-0.14417,2.499,2.55852
0.537479,-0.14417,2.499,2.56021
0.54952,-0.145209,2.517,2.58038
0.55769,-0.145209,2.517,2.58213
0.570131,-0.146305,2.536,2.60341
0.578362,-0.146305,2.536,2.60523
0.586593,-0.146305,2.536,2.60707
0.599281,-0.147401,2.555,2.62848
0.612092,-0.148497,2.574,2.64994
0.620447,-0.148497,2.574,2.65188
0.628801,-0.148497,2.574,2.65385
0.637156,-0.148497,2.574,2.65584
0.650275,-0.149593,2.593,2.67748
0.658691,-0.149593,2.593,2.67953
0.667108,-0.149593,2.593,2.68162
0.675524,-0.149593,2.593,2.68372
0.678929,-0.148497,2.574,2.66617
0.687283,-0.148497,2.574,2.66831
0.695638,-0.148497,2.574,2.67048
0.698796,-0.147401,2.555,2.65294
0.707089,-0.147401,2.555,2.65513
0.715382,-0.147401,2.555,2.65735
0.723674,-0.147401,2.555,2.6596
0.726524,-0.146305,2.536,2.64207
0.734755,-0.146305,2.536,2.64435
0.742987,-0.146305,2.536,2.64665
0.751218,-0.146305,2.536,2.64897
0.759449,-0.146305,2.536,2.65131
0.76768,-0.146305,2.536,2.65368
0.775912,-0.146305,2.536,2.65608
0.790018,-0.147401,2.555,2.67841
0.798311,-0.147401,2.555,2.68087
0.806603,-0.147401,2.555,2.68335
0.814896,-0.147401,2.555,2.68585
0.823189,-0.147401,2.555,2.68838
0.831482,-0.147401,2.555,2.69093
0.839775,-0.147401,2.555,2.69351
0.841761,-0.146305,2.536,2.67605
0.849993,-0.146305,2.536,2.67865
0.858224,-0.146305,2.536,2.68128
0.866455,-0.146305,2.536,2.68392
0.874686,-0.146305,2.536,2.68659
0.876303,-0.145209,2.517,2.66914
0.878147,-0.14417,2.499,2.65272
0.886258,-0.14417,2.499,2.65542
0.894369,-0.14417,2.499,2.65814
0.89598,-0.143132,2.481,2.64171
0.904033,-0.143132,2.481,2.64445
0.905468,-0.142093,2.463,2.62801
0.906787,-0.141055,2.445,2.61155
0.908362,-0.140074,2.428,2.59614
0.916243,-0.140074,2.428,2.59891
0.924124,-0.140074,2.428,2.60169
0.918953,-0.138113,2.394,2.56803
0.926724,-0.138113,2.394,2.57082
0.934494,-0.138113,2.394,2.57363
0.935573,-0.137132,2.377,2.55817
0.943288,-0.137132,2.377,2.561
0.951003,-0.137132,2.377,2.56385
nan,nan,nan,NaN
nan,nan,nan,NaN
nan,nan,nan,NaN
nan,nan,nan,NaN
nan,nan,nan,NaN
nan,nan,nan,NaN
nan,nan,nan,NaN
nan,nan,nan,NaN
nan,nan,nan,NaN
nan,nan,nan,NaN
nan,nan,nan,NaN
nan,nan,nan,NaN
nan,nan,nan,NaN
nan,nan,nan,NaN
nan,nan,nan,NaN
nan,nan,nan,NaN
nan,nan,nan,NaN
nan,nan,nan,NaN
nan,nan,nan,NaN
nan,nan,nan,NaN
nan,nan,nan,NaN
nan,nan,nan,NaN
nan,nan,nan,NaN
nan,nan,nan,NaN
nan,nan,nan,NaN
nan,nan,nan,NaN
nan,nan,nan,NaN
nan,nan,nan,NaN
nan,nan,nan,NaN
nan,nan,nan,NaN
nan,nan,nan,NaN
nan,nan,nan,NaN
nan,nan,nan,NaN
nan,nan,nan,NaN
nan,nan,nan,NaN
nan,nan,nan,NaN
nan,nan,nan,NaN
nan,nan,nan,NaN
nan,nan,nan,NaN
1.7784,-0.193612,3.356,3.80301
1.78929,-0.193612,3.356,3.80812
1.81788,-0.195516,3.389,3.85075
1.82888,-0.195516,3.389,3.85595
1.83988,-0.195516,3.389,3.86118
1.85088,-0.195516,3.389,3.86643
1.86188,-0.195516,3.389,3.87171
1.85465,-0.193612,3.356,3.83926
1.86554,-0.193612,3.356,3.84454
1.89488,-0.195516,3.389,3.88769
1.88732,-0.193612,3.356,3.85515
1.89822,-0.193612,3.356,3.8605
1.90911,-0.193612,3.356,3.86587
1.9017,-0.191766,3.324,3.83434
1.91248,-0.191766,3.324,3.83971
1.92327,-0.191766,3.324,3.84509
1.93406,-0.191766,3.324,3.8505
1.92613,-0.189919,3.292,3.81881
1.93681,-0.189919,3.292,3.82421
1.9475,-0.189919,3.292,3.82963
1.9213,-0.186343,3.23,3.76285
1.91325,-0.184554,3.199,3.73205
1.92363,-0.184554,3.199,3.73738
1.91648,-0.182881,3.17,3.70881
1.8745,-0.17792,3.084,3.61337
1.88451,-0.17792,3.084,3.61857
1.87793,-0.176362,3.057,3.59207
1.85451,-0.173247,3.003,3.53373
1.86425,-0.173247,3.003,3.53885
1.84155,-0.170247,2.951,3.48263
1.81976,-0.167362,2.901,3.42861
1.82918,-0.167362,2.901,3.43361
1.80817,-0.164593,2.853,3.38174
1.80215,-0.163208,2.829,3.35821
1.81133,-0.163208,2.829,3.36315
1.79091,-0.160555,2.783,3.31334
1.78571,-0.159285,2.761,3.292
1.76607,-0.156747,2.717,3.24433
1.77489,-0.156747,2.717,3.24914
1.76992,-0.155536,2.696,3.22881
1.76482,-0.154324,2.675,3.20843
1.7735,-0.154324,2.675,3.21322
1.7542,-0.151901,2.633,3.16749
1.74936,-0.150747,2.613,3.14813
1.75784,-0.150747,2.613,3.15286
1.73996,-0.148497,2.574,3.11046
1.74831,-0.148497,2.574,3.11514
-1.96257,-0.154029,2.829,3.44654
-1.95339,-0.154029,2.829,3.44132
-1.91259,-0.151524,2.783,3.38025
-1.90356,-0.151524,2.783,3.37514
-1.86457,-0.149129,2.739,3.31677
-1.85568,-0.149129,2.739,3.31179
-1.84679,-0.149129,2.739,3.30681
-1.8379,-0.149129,2.739,3.30186
-1.82901,-0.149129,2.739,3.29692
-1.82012,-0.149129,2.739,3.29199
-1.81123,-0.149129,2.739,3.28708
-1.80234,-0.149129,2.739,3.28219
-1.79345,-0.149129,2.739,3.27732
-1.78456,-0.149129,2.739,3.27246
-1.78993,-0.150326,2.761,3.29387
-1.79516,-0.151524,2.783,3.31522
-1.78613,-0.151524,2.783,3.31033
-1.80647,-0.154029,2.829,3.36011
-1.82778,-0.156642,2.877,3.41211
-1.81845,-0.156642,2.877,3.40711
-1.8242,-0.157949,2.901,3.43052
-1.84606,-0.160671,2.951,3.48456
-1.83648,-0.160671,2.951,3.4795
-1.82691,-0.160671,2.951,3.47445
-1.83334,-0.162087,2.977,3.49999
-1.8396,-0.163502,3.003,3.52546
-1.82986,-0.163502,3.003,3.52039
-1.83648,-0.164973,3.03,3.54694
-1.82664,-0.164973,3.03,3.54185
-1.80062,-0.163502,3.003,3.50528
-1.79087,-0.163502,3.003,3.50028
-1.78112,-0.163502,3.003,3.4953
-1.77138,-0.163502,3.003,3.49035
-1.76163,-0.163502,3.003,3.48541
-1.75188,-0.163502,3.003,3.48049
nan,nan,nan,NaN
nan,nan,nan,NaN
nan,nan,nan,NaN
nan,nan,nan,NaN
nan,nan,nan,NaN
nan,nan,nan,NaN
nan,nan,nan,NaN
nan,nan,nan,NaN
nan,nan,nan,NaN
nan,nan,nan,NaN
nan,nan,nan,NaN
nan,nan,nan,NaN
nan,nan,nan,NaN
nan,nan,nan,NaN
nan,nan,nan,NaN
nan,nan,nan,NaN
nan,nan,nan,NaN
nan,nan,nan,NaN
nan,nan,nan,NaN
nan,nan,nan,NaN
nan,nan,nan,NaN
nan,nan,nan,NaN
nan,nan,nan,NaN
nan,nan,nan,NaN
nan,nan,nan,NaN
nan,nan,nan,NaN
nan,nan,nan,NaN
nan,nan,nan,NaN
-1.1879,-0.132196,2.428,2.70625
-1.18002,-0.132196,2.428,2.7028
-1.16393,-0.13127,2.411,2.68046
-1.15611,-0.13127,2.411,2.67708
-1.14828,-0.13127,2.411,2.67371
-1.14046,-0.13127,2.411,2.67035
-1.12464,-0.130345,2.394,2.64822
-1.11687,-0.130345,2.394,2.64493
-1.1091,-0.130345,2.394,2.64165
-1.09351,-0.129419,2.377,2.61967
-1.0858,-0.129419,2.377,2.61645
-1.07808,-0.129419,2.377,2.61326
-1.06316,-0.128548,2.361,2.59252
-1.0555,-0.128548,2.361,2.58939
-1.04784,-0.128548,2.361,2.58627
-1.04017,-0.128548,2.361,2.58318
-1.03251,-0.128548,2.361,2.5801
-1.02485,-0.128548,2.361,2.57704
-1.01718,-0.128548,2.361,2.57401
-1.00952,-0.128548,2.361,2.57099
-1.00186,-0.128548,2.361,2.56799
-0.994193,-0.128548,2.361,2.56501
-0.986529,-0.128548,2.361,2.56205
-0.978866,-0.128548,2.361,2.55911
-0.977785,-0.129419,2.377,2.57351
-0.970069,-0.129419,2.377,2.57059
-0.962354,-0.129419,2.377,2.56768
-0.954639,-0.129419,2.377,2.5648
-0.946924,-0.129419,2.377,2.56194
-0.939209,-0.129419,2.377,2.5591
-0.931494,-0.129419,2.377,2.55628
-0.923778,-0.129419,2.377,2.55348
-0.916063,-0.129419,2.377,2.5507
-0.908348,-0.129419,2.377,2.54794
-0.900633,-0.129419,2.377,2.5452
-0.892918,-0.129419,2.377,2.54248
-0.885203,-0.129419,2.377,2.53978
-0.877488,-0.129419,2.377,2.5371
-0.869772,-0.129419,2.377,2.53444
-0.862057,-0.129419,2.377,2.5318
-0.854342,-0.129419,2.377,2.52919
-0.846627,-0.129419,2.377,2.52659
-0.838912,-0.129419,2.377,2.52401
-0.837141,-0.130345,2.394,2.53949
-0.829371,-0.130345,2.394,2.53694
-0.821601,-0.130345,2.394,2.53441
-0.81383,-0.130345,2.394,2.53191
-0.80606,-0.130345,2.394,2.52942
-0.79829,-0.130345,2.394,2.52695
-0.790519,-0.130345,2.394,2.52451
-0.788307,-0.13127,2.411,2.54
-0.780482,-0.13127,2.411,2.53758
-0.772656,-0.13127,2.411,2.53518
-0.770224,-0.132196,2.428,2.55067
-0.762343,-0.132196,2.428,2.5483
-0.754462,-0.132196,2.428,2.54595
-0.746581,-0.132196,2.428,2.54363
-0.738701,-0.132196,2.428,2.54133
-0.73082,-0.132196,2.428,2.53905
-0.722939,-0.132196,2.428,2.53679
-0.715059,-0.132196,2.428,2.53456
-0.707178,-0.132196,2.428,2.53234
-0.699297,-0.132196,2.428,2.53015
-0.691417,-0.132196,2.428,2.52799
-0.683536,-0.132196,2.428,2.52584
-0.675655,-0.132196,2.428,2.52372
-0.67245,-0.133121,2.445,2.53928
-0.664514,-0.133121,2.445,2.53719
-0.656578,-0.133121,2.445,2.53512
-0.648643,-0.133121,2.445,2.53308
-0.640707,-0.133121,2.445,2.53106
-0.632771,-0.133121,2.445,2.52906
-0.624835,-0.133121,2.445,2.52709
-0.616899,-0.133121,2.445,2.52514
-0.608963,-0.133121,2.445,2.52321
-0.601027,-0.133121,2.445,2.52131
-0.593092,-0.133121,2.445,2.51943
-0.589464,-0.134101,2.463,2.5361
-0.581469,-0.134101,2.463,2.53426
-0.573475,-0.134101,2.463,2.53243
-0.569613,-0.135081,2.481,2.54913
-0.561561,-0.135081,2.481,2.54734
-0.553508,-0.135081,2.481,2.54558
-0.545455,-0.135081,2.481,2.54384
-0.537403,-0.135081,2.481,2.54213
-0.53319,-0.136061,2.499,2.55887
-0.525079,-0.136061,2.499,2.55719
-0.516968,-0.136061,2.499,2.55554
-0.508857,-0.136061,2.499,2.55391
-0.504353,-0.137042,2.517,2.57069
-0.496183,-0.137042,2.517,2.5691
-0.488013,-0.137042,2.517,2.56753
-0.479844,-0.137042,2.517,2.56599
-0.471674,-0.137042,2.517,2.56448
-0.463505,-0.137042,2.517,2.56299
-0.458772,-0.138076,2.536,2.58086
-0.450541,-0.138076,2.536,2.57941
-0.44231,-0.138076,2.536,2.57798
-0.434079,-0.138076,2.536,2.57658
-0.425848,-0.138076,2.536,2.57521
-0.417616,-0.138076,2.536,2.57386
-0.409385,-0.138076,2.536,2.57254
-0.401154,-0.138076,2.536,2.57124
-0.392923,-0.138076,2.536,2.56997
-0.384691,-0.138076,2.536,2.56873
-0.379281,-0.13911,2.555,2.58674
-0.370988,-0.13911,2.555,2.58554
-0.362695,-0.13911,2.555,2.58436
-0.354402,-0.13911,2.555,2.58321
-0.346109,-0.13911,2.555,2.58209
-0.337816,-0.13911,2.555,2.58099
-0.329523,-0.13911,2.555,2.57992
-0.323619,-0.140145,2.574,2.59805
-0.317592,-0.141179,2.593,2.61619
-0.309175,-0.141179,2.593,2.61518
-0.300759,-0.141179,2.593,2.6142
-0.292343,-0.141179,2.593,2.61324
-0.283927,-0.141179,2.593,2.61232
-0.275511,-0.141179,2.593,2.61141
-0.267094,-0.141179,2.593,2.61054
-0.260673,-0.142268,2.613,2.62982
-0.250262,-0.141179,2.593,2.60887
-0.241846,-0.141179,2.593,2.60808
-0.233429,-0.141179,2.593,2.60731
-0.225013,-0.141179,2.593,2.60657
-0.216597,-0.141179,2.593,2.60586
-0.208181,-0.141179,2.593,2.60517
-0.199764,-0.141179,2.593,2.60451
-0.191348,-0.141179,2.593,2.60388
-0.184343,-0.142268,2.613,2.62336
-0.175862,-0.142268,2.613,2.62277
-0.167381,-0.142268,2.613,2.62222
-0.160116,-0.143357,2.633,2.64176
-0.15157,-0.143357,2.633,2.64125
-0.141937,-0.142268,2.613,2.62072
-0.133456,-0.142268,2.613,2.62027
-0.124975,-0.142268,2.613,2.61985
-0.116494,-0.142268,2.613,2.61946
-0.108013,-0.142268,2.613,2.6191
-0.0995315,-0.142268,2.613,2.61876
-0.0910503,-0.142268,2.613,2.61845
-0.0825692,-0.142268,2.613,2.61817
-0.074088,-0.142268,2.613,2.61792
-0.066109,-0.143357,2.633,2.63773
-0.057563,-0.143357,2.633,2.63753
-0.0490169,-0.143357,2.633,2.63736
-0.0404708,-0.143357,2.633,2.63721
-0.0319248,-0.143357,2.633,2.63709
-0.0233787,-0.143357,2.633,2.637
-0.0148326,-0.143357,2.633,2.63694
-0.00628658,-0.143357,2.633,2.63691
0.00225949,-0.143357,2.633,2.6369
0.0108056,-0.143357,2.633,2.63692
0.0193516,-0.143357,2.633,2.63697
0.0278977,-0.143357,2.633,2.63705
0.0361669,-0.142268,2.613,2.61712
0.0446481,-0.142268,2.613,2.61725
0.0531292,-0.142268,2.613,2.61741
0.0611388,-0.141179,2.593,2.59756
0.069555,-0.141179,2.593,2.59777
0.0779713,-0.141179,2.593,2.59801
0.0863875,-0.141179,2.593,2.59828
0.0948037,-0.141179,2.593,2.59857
0.10322,-0.141179,2.593,2.59889
0.111636,-0.141179,2.593,2.59924
0.119173,-0.140145,2.574,2.58057
0.127527,-0.140145,2.574,2.58097
0.135882,-0.140145,2.574,2.58139
0.145301,-0.141179,2.593,2.6009
0.153717,-0.141179,2.593,2.60139
0.162134,-0.141179,2.593,2.6019
0.17055,-0.141179,2.593,2.60244
0.178966,-0.141179,2.593,2.603
0.187382,-0.141179,2.593,2.60359
0.195799,-0.141179,2.593,2.60421
0.204215,-0.141179,2.593,2.60486
0.212631,-0.141179,2.593,2.60553
0.221047,-0.141179,2.593,2.60623
0.231233,-0.142268,2.613,2.62707
0.239715,-0.142268,2.613,2.62783
0.248196,-0.142268,2.613,2.62861
0.256677,-0.142268,2.613,2.62943
0.267187,-0.143357,2.633,2.6504
0.273639,-0.142268,2.613,2.63114
0.28212,-0.142268,2.613,2.63203
0.290601,-0.142268,2.613,2.63296
0.299083,-0.142268,2.613,2.63391
0.307564,-0.142268,2.613,2.63488
0.316045,-0.142268,2.613,2.63589
0.322042,-0.141179,2.593,2.61673
0.328037,-0.140145,2.574,2.5986
0.333908,-0.13911,2.555,2.58048
0.342201,-0.13911,2.555,2.58157
0.350494,-0.13911,2.555,2.58268
0.356119,-0.138076,2.536,2.5646
0.36435,-0.138076,2.536,2.56576
0.36979,-0.137042,2.517,2.54771
0.37796,-0.137042,2.517,2.54891
0.389044,-0.138076,2.536,2.56938
0.394299,-0.137042,2.517,2.55138
0.402468,-0.137042,2.517,2.55266
0.410638,-0.137042,2.517,2.55396
0.415812,-0.136061,2.499,2.53701
0.423923,-0.136061,2.499,2.53835
0.428923,-0.135081,2.481,2.52143
0.436975,-0.135081,2.481,2.52281
0.445028,-0.135081,2.481,2.52421
0.453081,-0.135081,2.481,2.52565
0.464479,-0.136061,2.499,2.54544
0.469186,-0.135081,2.481,2.52859
0.477239,-0.135081,2.481,2.53009
0.488812,-0.136061,2.499,2.54999
0.496924,-0.136061,2.499,2.55156
0.505035,-0.136061,2.499,2.55315
0.513146,-0.136061,2.499,2.55477
0.521257,-0.136061,2.499,2.55641
0.529368,-0.136061,2.499,2.55807
0.537479,-0.136061,2.499,2.55977
0.54952,-0.137042,2.517,2.57993
0.55769,-0.137042,2.517,2.58168
0.570131,-0.138076,2.536,2.60296
0.578362,-0.138076,2.536,2.60478
0.586593,-0.138076,2.536,2.60662
0.599281,-0.13911,2.555,2.62802
0.612092,-0.140145,2.574,2.64949
0.620447,-0.140145,2.574,2.65143
0.628801,-0.140145,2.574,2.6534
0.641859,-0.141179,2.593,2.67499
0.650275,-0.141179,2.593,2.67702
0.658691,-0.141179,2.593,2.67908
0.667108,-0.141179,2.593,2.68116
0.675524,-0.141179,2.593,2.68327
0.68394,-0.141179,2.593,2.6854
0.687283,-0.140145,2.574,2.66786
0.695638,-0.140145,2.574,2.67002
0.703992,-0.140145,2.574,2.67221
0.707089,-0.13911,2.555,2.65468
0.715382,-0.13911,2.555,2.65691
0.723674,-0.13911,2.555,2.65915
0.726524,-0.138076,2.536,2.64163
0.734755,-0.138076,2.536,2.6439
0.742987,-0.138076,2.536,2.6462
0.751218,-0.138076,2.536,2.64853
0.759449,-0.138076,2.536,2.65087
0.76768,-0.138076,2.536,2.65324
0.775912,-0.138076,2.536,2.65564
0.790018,-0.13911,2.555,2.67797
0.798311,-0.13911,2.555,2.68042
0.806603,-0.13911,2.555,2.68291
0.814896,-0.13911,2.555,2.68541
0.823189,-0.13911,2.555,2.68794
0.831482,-0.13911,2.555,2.69049
0.839775,-0.13911,2.555,2.69306
0.841761,-0.138076,2.536,2.67562
0.849993,-0.138076,2.536,2.67822
0.858224,-0.138076,2.536,2.68084
0.866455,-0.138076,2.536,2.68349
0.874686,-0.138076,2.536,2.68616
0.876303,-0.137042,2.517,2.6687
0.878147,-0.136061,2.499,2.65229
0.886258,-0.136061,2.499,2.65499
0.894369,-0.136061,2.499,2.65771
0.89598,-0.135081,2.481,2.64129
0.904033,-0.135081,2.481,2.64403
0.905468,-0.134101,2.463,2.62759
0.906787,-0.133121,2.445,2.61113
0.908362,-0.132196,2.428,2.59572
0.916243,-0.132196,2.428,2.59849
0.924124,-0.132196,2.428,2.60128
0.918953,-0.130345,2.394,2.56763
0.926724,-0.130345,2.394,2.57042
0.934494,-0.130345,2.394,2.57323
0.929276,-0.128548,2.361,2.54055
0.936939,-0.128548,2.361,2.54336
0.944602,-0.128548,2.361,2.5462
0.952265,-0.128548,2.361,2.54905
0.959929,-0.128548,2.361,2.55192
0.967592,-0.128548,2.361,2.55482
0.975255,-0.128548,2.361,2.55773
nan,nan,nan,NaN
nan,nan,nan,NaN
nan,nan,nan,NaN
nan,nan,nan,NaN
nan,nan,nan,NaN
nan,nan,nan,NaN
nan,nan,nan,NaN
nan,nan,nan,NaN
nan,nan,nan,NaN
nan,nan,nan,NaN
nan,nan,nan,NaN
nan,nan,nan,NaN
nan,nan,nan,NaN
nan,nan,nan,NaN
nan,nan,nan,NaN
nan,nan,nan,NaN
nan,nan,nan,NaN
nan,nan,nan,NaN
nan,nan,nan,NaN
nan,nan,nan,NaN
nan,nan,nan,NaN
nan,nan,nan,NaN
nan,nan,nan,NaN
nan,nan,nan,NaN
nan,nan,nan,NaN
nan,nan,nan,NaN
nan,nan,nan,NaN
nan,nan,nan,NaN
nan,nan,nan,NaN
nan,nan,nan,NaN
nan,nan,nan,NaN
nan,nan,nan,NaN
nan,nan,nan,NaN
nan,nan,nan,NaN
nan,nan,nan,NaN
1.7784,-0.182722,3.356,3.80248
1.78929,-0.182722,3.356,3.80758
1.78302,-0.18098,3.324,3.77636
1.79381,-0.18098,3.324,3.78146
1.8046,-0.18098,3.324,3.78659
1.81538,-0.18098,3.324,3.79175
1.82617,-0.18098,3.324,3.79692
1.83696,-0.18098,3.324,3.80213
1.84775,-0.18098,3.324,3.80735
1.85854,-0.18098,3.324,3.8126
1.86933,-0.18098,3.324,3.81787
1.88012,-0.18098,3.324,3.82316
1.89091,-0.18098,3.324,3.82848
1.88339,-0.179237,3.292,3.79691
1.87566,-0.177495,3.26,3.76526
1.88624,-0.177495,3.26,3.77055
1.89682,-0.177495,3.26,3.77585
1.9074,-0.177495,3.26,3.78118
1.90034,-0.175862,3.23,3.75168
1.91082,-0.175862,3.23,3.757
1.90286,-0.174174,3.199,3.72623
1.8959,-0.172595,3.17,3.69772
1.90619,-0.172595,3.17,3.70301
1.91648,-0.172595,3.17,3.70831
1.8745,-0.167913,3.084,3.61289
1.88451,-0.167913,3.084,3.6181
1.86134,-0.164973,3.03,3.55988
1.83845,-0.162087,2.977,3.50267
1.84811,-0.162087,2.977,3.50775
1.82595,-0.15931,2.926,3.45267
1.80471,-0.156642,2.877,3.3998
1.81405,-0.156642,2.877,3.40477
1.79296,-0.154029,2.829,3.35286
1.78749,-0.152777,2.806,3.33048
1.7966,-0.152777,2.806,3.33538
1.77675,-0.150326,2.761,3.28673
1.77148,-0.149129,2.739,3.26535
1.75242,-0.146787,2.696,3.21884
1.76117,-0.146787,2.696,3.22362
1.75614,-0.145644,2.675,3.20326
1.75097,-0.144501,2.654,3.18284
1.75958,-0.144501,2.654,3.18759
1.74088,-0.142268,2.613,3.14303
1.73597,-0.141179,2.593,3.12365
1.74439,-0.141179,2.593,3.12833
1.73996,-0.140145,2.574,3.11008
1.73541,-0.13911,2.555,3.09177
-1.96257,-0.144849,2.829,3.44614
-1.95339,-0.144849,2.829,3.44092
-1.9284,-0.143672,2.806,3.40779
-1.90356,-0.142494,2.783,3.37475
-1.87955,-0.141367,2.761,3.34302
-1.87059,-0.141367,2.761,3.33799
-1.86163,-0.141367,2.761,3.33298
-1.85267,-0.141367,2.761,3.32798
-1.8437,-0.141367,2.761,3.323
-1.83474,-0.141367,2.761,3.31804
-1.82578,-0.141367,2.761,3.31309
-1.81682,-0.141367,2.761,3.30816
-1.79345,-0.140241,2.739,3.27693
-1.78456,-0.140241,2.739,3.27207
-1.78993,-0.141367,2.761,3.29347
-1.79516,-0.142494,2.783,3.31482
-1.78613,-0.142494,2.783,3.30993
-1.80647,-0.144849,2.829,3.3597
-1.82778,-0.147307,2.877,3.41169
-1.81845,-0.147307,2.877,3.4067
-1.85564,-0.151096,2.951,3.48922
-1.84606,-0.151096,2.951,3.48413
-1.83648,-0.151096,2.951,3.47907
-1.82691,-0.151096,2.951,3.47402
-1.83334,-0.152427,2.977,3.49956
-1.8396,-0.153758,3.003,3.52502
-1.82986,-0.153758,3.003,3.51995
-1.83648,-0.155141,3.03,3.54649
-1.82664,-0.155141,3.03,3.54141
-1.80062,-0.153758,3.003,3.50484
-1.79087,-0.153758,3.003,3.49984
-1.78112,-0.153758,3.003,3.49486
-1.77138,-0.153758,3.003,3.4899
-1.76163,-0.153758,3.003,3.48497
-1.75188,-0.153758,3.003,3.48005
nan,nan,nan,NaN
nan,nan,nan,NaN
nan,nan,nan,NaN
nan,nan,nan,NaN
nan,nan,nan,NaN
nan,nan,nan,NaN
nan,nan,nan,NaN
nan,nan,nan,NaN
nan,nan,nan,NaN
nan,nan,nan,NaN
nan,nan,nan,NaN
nan,nan,nan,NaN
nan,nan,nan,NaN
nan,nan,nan,NaN
nan,nan,nan,NaN
nan,nan,nan,NaN
nan,nan,nan,NaN
nan,nan,nan,NaN
nan,nan,nan,NaN
nan,nan,nan,NaN
nan,nan,nan,NaN
nan,nan,nan,NaN
nan,nan,nan,NaN
nan,nan,nan,NaN
nan,nan,nan,NaN
nan,nan,nan,NaN
nan,nan,nan,NaN
-1.20415,-0.125188,2.445,2.72831
-1.1879,-0.124317,2.428,2.70587
-1.18002,-0.124317,2.428,2.70242
-1.16393,-0.123447,2.411,2.68009
-1.15611,-0.123447,2.411,2.6767
-1.14828,-0.123447,2.411,2.67333
-1.13241,-0.122576,2.394,2.65115
-1.12464,-0.122576,2.394,2.64785
-1.11687,-0.122576,2.394,2.64455
-1.1091,-0.122576,2.394,2.64128
-1.09351,-0.121706,2.377,2.6193
-1.0858,-0.121706,2.377,2.61608
-1.07808,-0.121706,2.377,2.61289
-1.06316,-0.120887,2.361,2.59215
-1.0555,-0.120887,2.361,2.58902
-1.04784,-0.120887,2.361,2.5859
-1.04017,-0.120887,2.361,2.58281
-1.03251,-0.120887,2.361,2.57973
-1.02485,-0.120887,2.361,2.57667
-1.01718,-0.120887,2.361,2.57363
-1.00952,-0.120887,2.361,2.57062
-1.00186,-0.120887,2.361,2.56762
-0.994193,-0.120887,2.361,2.56464
-0.986529,-0.120887,2.361,2.56167
-0.978866,-0.120887,2.361,2.55873
-0.977785,-0.121706,2.377,2.57313
-0.970069,-0.121706,2.377,2.57021
-0.962354,-0.121706,2.377,2.56731
-0.954639,-0.121706,2.377,2.56443
-0.946924,-0.121706,2.377,2.56156
-0.939209,-0.121706,2.377,2.55872
-0.931494,-0.121706,2.377,2.5559
-0.923778,-0.121706,2.377,2.5531
-0.916063,-0.121706,2.377,2.55032
-0.908348,-0.121706,2.377,2.54756
-0.900633,-0.121706,2.377,2.54481
-0.892918,-0.121706,2.377,2.54209
-0.885203,-0.121706,2.377,2.53939
-0.877488,-0.121706,2.377,2.53672
-0.869772,-0.121706,2.377,2.53406
-0.862057,-0.121706,2.377,2.53142
-0.854342,-0.121706,2.377,2.5288
-0.846627,-0.121706,2.377,2.52621
-0.838912,-0.121706,2.377,2.52363
-0.837141,-0.122576,2.394,2.53911
-0.829371,-0.122576,2.394,2.53656
-0.821601,-0.122576,2.394,2.53403
-0.81383,-0.122576,2.394,2.53152
-0.80606,-0.122576,2.394,2.52903
-0.79829,-0.122576,2.394,2.52656
-0.790519,-0.122576,2.394,2.52412
-0.788307,-0.123447,2.411,2.5396
-0.780482,-0.123447,2.411,2.53719
-0.772656,-0.123447,2.411,2.53479
-0.764831,-0.123447,2.411,2.53242
-0.757005,-0.123447,2.411,2.53006
-0.74918,-0.123447,2.411,2.52773
-0.741354,-0.123447,2.411,2.52542
-0.733529,-0.123447,2.411,2.52314
-0.725703,-0.123447,2.411,2.52087
-0.722939,-0.124317,2.428,2.53639
-0.715059,-0.124317,2.428,2.53416
-0.707178,-0.124317,2.428,2.53194
-0.699297,-0.124317,2.428,2.52975
-0.691417,-0.124317,2.428,2.52759
-0.683536,-0.124317,2.428,2.52544
-0.675655,-0.124317,2.428,2.52332
-0.667775,-0.124317,2.428,2.52122
-0.664514,-0.125188,2.445,2.53678
-0.656578,-0.125188,2.445,2.53472
-0.648643,-0.125188,2.445,2.53267
-0.640707,-0.125188,2.445,2.53065
-0.632771,-0.125188,2.445,2.52866
-0.624835,-0.125188,2.445,2.52668
-0.616899,-0.125188,2.445,2.52473
-0.608963,-0.125188,2.445,2.5228
-0.601027,-0.125188,2.445,2.5209
-0.593092,-0.125188,2.445,2.51902
-0.589464,-0.126109,2.463,2.53569
-0.581469,-0.126109,2.463,2.53385
-0.573475,-0.126109,2.463,2.53202
-0.569613,-0.127031,2.481,2.54872
-0.561561,-0.127031,2.481,2.54693
-0.553508,-0.127031,2.481,2.54517
-0.549413,-0.127953,2.499,2.56188
-0.541301,-0.127953,2.499,2.56015
-0.53319,-0.127953,2.499,2.55845
-0.528861,-0.128874,2.517,2.57519
-0.520692,-0.128874,2.517,2.57352
-0.512522,-0.128874,2.517,2.57188
-0.504353,-0.128874,2.517,2.57027
-0.496183,-0.128874,2.517,2.56868
-0.488013,-0.128874,2.517,2.56711
-0.483466,-0.129847,2.536,2.58494
-0.475235,-0.129847,2.536,2.58341
-0.467004,-0.129847,2.536,2.58191
-0.458772,-0.129847,2.536,2.58043
-0.450541,-0.129847,2.536,2.57898
-0.44231,-0.129847,2.536,2.57756
-0.434079,-0.129847,2.536,2.57616
-0.425848,-0.129847,2.536,2.57478
-0.417616,-0.129847,2.536,2.57343
-0.409385,-0.129847,2.536,2.57211
-0.401154,-0.129847,2.536,2.57081
-0.395866,-0.13082,2.555,2.58879
-0.387574,-0.13082,2.555,2.58754
-0.379281,-0.13082,2.555,2.58631
-0.370988,-0.13082,2.555,2.58511
-0.362695,-0.13082,2.555,2.58393
-0.354402,-0.13082,2.555,2.58278
-0.346109,-0.13082,2.555,2.58165
-0.337816,-0.13082,2.555,2.58055
-0.329523,-0.13082,2.555,2.57948
-0.323619,-0.131793,2.574,2.59761
-0.315265,-0.131793,2.574,2.59658
-0.30691,-0.131793,2.574,2.59558
-0.298555,-0.131793,2.574,2.59461
-0.292343,-0.132766,2.593,2.6128
-0.283927,-0.132766,2.593,2.61188
-0.275511,-0.132766,2.593,2.61097
-0.267094,-0.132766,2.593,2.6101
-0.258678,-0.132766,2.593,2.60925
-0.250262,-0.132766,2.593,2.60843
-0.241846,-0.132766,2.593,2.60764
-0.233429,-0.132766,2.593,2.60687
-0.225013,-0.132766,2.593,2.60613
-0.216597,-0.132766,2.593,2.60542
-0.208181,-0.132766,2.593,2.60473
-0.199764,-0.132766,2.593,2.60407
-0.191348,-0.132766,2.593,2.60344
-0.184343,-0.13379,2.613,2.62291
-0.175862,-0.13379,2.613,2.62233
-0.167381,-0.13379,2.613,2.62177
-0.160116,-0.134814,2.633,2.64131
-0.15157,-0.134814,2.633,2.6408
-0.141937,-0.13379,2.613,2.62027
-0.133456,-0.13379,2.613,2.61982
-0.124975,-0.13379,2.613,2.61941
-0.116494,-0.13379,2.613,2.61901
-0.108013,-0.13379,2.613,2.61865
-0.0995315,-0.13379,2.613,2.61832
-0.0910503,-0.13379,2.613,2.61801
-0.0825692,-0.13379,2.613,2.61773
-0.074088,-0.13379,2.613,2.61747
-0.066109,-0.134814,2.633,2.63728
-0.057563,-0.134814,2.633,2.63708
-0.0490169,-0.134814,2.633,2.6369
-0.0404708,-0.134814,2.633,2.63676
-0.0319248,-0.134814,2.633,2.63664
-0.0233787,-0.134814,2.633,2.63655
-0.0148326,-0.134814,2.633,2.63649
-0.00628658,-0.134814,2.633,2.63646
0.00225949,-0.134814,2.633,2.63645
0.0108056,-0.134814,2.633,2.63647
0.0193516,-0.134814,2.633,2.63652
0.0278977,-0.134814,2.633,2.6366
0.0361669,-0.13379,2.613,2.61667
0.0446481,-0.13379,2.613,2.6168
0.0531292,-0.13379,2.613,2.61696
0.0611388,-0.132766,2.593,2.59712
0.069555,-0.132766,2.593,2.59733
0.0779713,-0.132766,2.593,2.59757
0.0863875,-0.132766,2.593,2.59783
0.0948037,-0.132766,2.593,2.59813
0.10322,-0.132766,2.593,2.59845
0.111636,-0.132766,2.593,2.5988
0.119173,-0.131793,2.574,2.58013
0.127527,-0.131793,2.574,2.58053
0.135882,-0.131793,2.574,2.58095
0.145301,-0.132766,2.593,2.60046
0.153717,-0.132766,2.593,2.60094
0.162134,-0.132766,2.593,2.60145
0.17055,-0.132766,2.593,2.60199
0.178966,-0.132766,2.593,2.60256
0.187382,-0.132766,2.593,2.60315
0.195799,-0.132766,2.593,2.60377
0.204215,-0.132766,2.593,2.60442
0.212631,-0.132766,2.593,2.60509
0.221047,-0.132766,2.593,2.60579
0.231233,-0.13379,2.613,2.62662
0.239715,-0.13379,2.613,2.62738
0.248196,-0.13379,2.613,2.62817
0.256677,-0.13379,2.613,2.62898
0.265158,-0.13379,2.613,2.62982
0.273639,-0.13379,2.613,2.63069
0.28212,-0.13379,2.613,2.63159
0.290601,-0.13379,2.613,2.63251
0.299083,-0.13379,2.613,2.63346
0.30521,-0.132766,2.593,2.61427
0.313626,-0.132766,2.593,2.61527
0.319682,-0.131793,2.574,2.59712
0.328037,-0.131793,2.574,2.59816
0.333908,-0.13082,2.555,2.58005
0.342201,-0.13082,2.555,2.58113
0.350494,-0.13082,2.555,2.58224
0.356119,-0.129847,2.536,2.56417
0.36435,-0.129847,2.536,2.56533
0.36979,-0.128874,2.517,2.54728
0.37796,-0.128874,2.517,2.54848
0.386129,-0.128874,2.517,2.5497
0.394299,-0.128874,2.517,2.55095
0.39959,-0.127953,2.499,2.53398
0.407701,-0.127953,2.499,2.53527
0.415812,-0.127953,2.499,2.53659
0.423923,-0.127953,2.499,2.53793
0.428923,-0.127031,2.481,2.52101
0.436975,-0.127031,2.481,2.52239
0.445028,-0.127031,2.481,2.5238
0.453081,-0.127031,2.481,2.52523
0.464479,-0.127953,2.499,2.54502
0.469186,-0.127031,2.481,2.52817
0.477239,-0.127031,2.481,2.52968
0.488812,-0.127953,2.499,2.54957
0.493344,-0.127031,2.481,2.53276
0.501397,-0.127031,2.481,2.53434
0.50945,-0.127031,2.481,2.53595
0.521257,-0.127953,2.499,2.55599
0.529368,-0.127953,2.499,2.55766
0.537479,-0.127953,2.499,2.55935
0.54952,-0.128874,2.517,2.57951
0.55769,-0.128874,2.517,2.58126
0.570131,-0.129847,2.536,2.60254
0.578362,-0.129847,2.536,2.60435
0.586593,-0.129847,2.536,2.60619
0.599281,-0.13082,2.555,2.6276
0.612092,-0.131793,2.574,2.64906
0.620447,-0.131793,2.574,2.651
0.628801,-0.131793,2.574,2.65297
0.641859,-0.132766,2.593,2.67456
0.650275,-0.132766,2.593,2.67659
0.658691,-0.132766,2.593,2.67865
0.667108,-0.132766,2.593,2.68073
0.675524,-0.132766,2.593,2.68284
0.68394,-0.132766,2.593,2.68497
0.687283,-0.131793,2.574,2.66743
0.695638,-0.131793,2.574,2.6696
0.703992,-0.131793,2.574,2.67179
0.707089,-0.13082,2.555,2.65426
0.715382,-0.13082,2.555,2.65648
0.723674,-0.13082,2.555,2.65873
0.731967,-0.13082,2.555,2.661
0.74026,-0.13082,2.555,2.66329
0.748553,-0.13082,2.555,2.66561
0.756846,-0.13082,2.555,2.66795
0.765139,-0.13082,2.555,2.67031
0.773432,-0.13082,2.555,2.6727
0.781725,-0.13082,2.555,2.67511
0.790018,-0.13082,2.555,2.67755
0.798311,-0.13082,2.555,2.68001
0.806603,-0.13082,2.555,2.68249
0.814896,-0.13082,2.555,2.68499
0.829311,-0.131793,2.574,2.70751
0.837665,-0.131793,2.574,2.71008
0.839775,-0.13082,2.555,2.69265
0.848068,-0.13082,2.555,2.69525
0.856361,-0.13082,2.555,2.69787
0.864654,-0.13082,2.555,2.70051
0.866455,-0.129847,2.536,2.68308
0.874686,-0.129847,2.536,2.68575
0.882918,-0.129847,2.536,2.68844
0.884472,-0.128874,2.517,2.67099
0.892642,-0.128874,2.517,2.67371
0.894369,-0.127953,2.499,2.65731
0.89598,-0.127031,2.481,2.64089
0.904033,-0.127031,2.481,2.64363
0.905468,-0.126109,2.463,2.62719
0.906787,-0.125188,2.445,2.61074
0.908362,-0.124317,2.428,2.59533
0.916243,-0.124317,2.428,2.5981
0.917653,-0.123447,2.411,2.58268
0.918953,-0.122576,2.394,2.56724
0.926724,-0.122576,2.394,2.57003
0.927858,-0.121706,2.377,2.55458
0.929276,-0.120887,2.361,2.54017
0.936939,-0.120887,2.361,2.54299
0.944602,-0.120887,2.361,2.54582
0.952265,-0.120887,2.361,2.54868
0.959929,-0.120887,2.361,2.55155
0.967592,-0.120887,2.361,2.55444
0.975255,-0.120887,2.361,2.55735
0.989579,-0.121706,2.377,2.57764
1.00443,-0.122576,2.394,2.59906
1.0122,-0.122576,2.394,2.60208
1.02721,-0.123447,2.411,2.62361
1.04963,-0.125188,2.445,2.66372
1.05757,-0.125188,2.445,2.66686
1.08119,-0.127031,2.481,2.70933
1.12173,-0.13082,2.555,2.79346
1.13003,-0.13082,2.555,2.7968
1.16416,-0.13379,2.613,2.86373
1.20989,-0.138039,2.696,2.95826
1.23808,-0.140241,2.739,3.00909
1.24697,-0.140241,2.739,3.01276
1.27603,-0.142494,2.783,3.06491
1.3063,-0.144849,2.829,3.1194
1.31549,-0.144849,2.829,3.12326
1.34714,-0.147307,2.877,3.18019
1.3678,-0.148536,2.901,3.21072
1.37721,-0.148536,2.901,3.21474
1.38663,-0.148536,2.901,3.21879
1.42011,-0.151096,2.951,3.2784
1.42969,-0.151096,2.951,3.28257
1.43926,-0.151096,2.951,3.28675
1.46161,-0.152427,2.977,3.31995
1.47127,-0.152427,2.977,3.32421
1.48093,-0.152427,2.977,3.3285
1.50361,-0.153758,3.003,3.36192
1.51336,-0.153758,3.003,3.36629
1.52311,-0.153758,3.003,3.37068
1.54664,-0.155141,3.03,3.40544
1.58421,-0.157906,3.084,3.47069
1.62369,-0.160824,3.141,3.53951
1.63388,-0.160824,3.141,3.54419
1.67443,-0.163794,3.199,3.61444
1.70114,-0.165381,3.23,3.65433
1.71163,-0.165381,3.23,3.65922
1.72211,-0.165381,3.23,3.66414
1.74869,-0.166917,3.26,3.70316
1.79381,-0.170194,3.324,3.78096
1.8046,-0.170194,3.324,3.78609
1.81538,-0.170194,3.324,3.79125
1.82617,-0.170194,3.324,3.79643
1.83696,-0.170194,3.324,3.80163
1.84775,-0.170194,3.324,3.80685
1.85854,-0.170194,3.324,3.8121
1.86933,-0.170194,3.324,3.81737
1.88012,-0.170194,3.324,3.82267
1.89091,-0.170194,3.324,3.82799
1.88339,-0.168555,3.292,3.79642
1.87566,-0.166917,3.26,3.76478
1.88624,-0.166917,3.26,3.77006
1.89682,-0.166917,3.26,3.77537
1.9074,-0.166917,3.26,3.7807
1.90034,-0.165381,3.23,3.7512
1.91082,-0.165381,3.23,3.75653
1.90286,-0.163794,3.199,3.72576
1.8959,-0.162309,3.17,3.69725
1.90619,-0.162309,3.17,3.70254
1.91648,-0.162309,3.17,3.70785
nan,nan,nan,NaN
nan,nan,nan,NaN
1.86134,-0.155141,3.03,3.55943
1.83845,-0.152427,2.977,3.50224
1.84811,-0.152427,2.977,3.50732
1.82595,-0.149816,2.926,3.45225
1.80471,-0.147307,2.877,3.39938
1.81405,-0.147307,2.877,3.40435
1.79296,-0.144849,2.829,3.35245
1.78749,-0.143672,2.806,3.33008
1.7966,-0.143672,2.806,3.33497
1.77675,-0.141367,2.761,3.28633
1.77148,-0.140241,2.739,3.26496
1.75242,-0.138039,2.696,3.21846
1.76117,-0.138039,2.696,3.22323
1.75614,-0.136964,2.675,3.20287
1.75097,-0.135889,2.654,3.18246
1.75958,-0.135889,2.654,3.18721
1.74088,-0.13379,2.613,3.14266
1.73597,-0.132766,2.593,3.12328
1.74439,-0.132766,2.593,3.12796
1.73996,-0.131793,2.574,3.10971
1.73541,-0.13082,2.555,3.0914
-1.96257,-0.135669,2.829,3.44577
-1.93751,-0.134567,2.806,3.41258
-1.9284,-0.134567,2.806,3.40741
-1.90356,-0.133464,2.783,3.37438
-1.87955,-0.132408,2.761,3.34266
-1.87059,-0.132408,2.761,3.33763
-1.86163,-0.132408,2.761,3.33261
-1.85267,-0.132408,2.761,3.32762
-1.8437,-0.132408,2.761,3.32263
-1.83474,-0.132408,2.761,3.31767
-1.81123,-0.131353,2.739,3.28633
-1.80234,-0.131353,2.739,3.28143
-1.79345,-0.131353,2.739,3.27656
-1.78456,-0.131353,2.739,3.2717
-1.77567,-0.131353,2.739,3.26686
-1.78097,-0.132408,2.761,3.28824
-1.77201,-0.132408,2.761,3.28339
-1.80647,-0.135669,2.829,3.35931
-1.81254,-0.13682,2.853,3.38284
-1.80328,-0.13682,2.853,3.37789
-1.80911,-0.137971,2.877,3.40133
-1.83042,-0.140321,2.926,3.45422
-1.83648,-0.14152,2.951,3.47866
-1.82691,-0.14152,2.951,3.47362
-1.83334,-0.142767,2.977,3.49915
-1.82368,-0.142767,2.977,3.4941
-1.81401,-0.142767,2.977,3.48906
-1.82011,-0.144014,3.003,3.51448
-1.81036,-0.144014,3.003,3.50944
-1.80062,-0.144014,3.003,3.50442
-1.79087,-0.144014,3.003,3.49942
-1.7657,-0.142767,2.977,3.46419
-1.75604,-0.142767,2.977,3.45928
-1.74638,-0.142767,2.977,3.45438
-1.73671,-0.142767,2.977,3.44951
-1.72705,-0.142767,2.977,3.44465
-1.71739,-0.142767,2.977,3.43982
nan,nan,nan,NaN
nan,nan,nan,NaN
nan,nan,nan,NaN
nan,nan,nan,NaN
nan,nan,nan,NaN
nan,nan,nan,NaN
nan,nan,nan,NaN
nan,nan,nan,NaN
nan,nan,nan,NaN
nan,nan,nan,NaN
nan,nan,nan,NaN
nan,nan,nan,NaN
nan,nan,nan,NaN
nan,nan,nan,NaN
nan,nan,nan,NaN
nan,nan,nan,NaN
nan,nan,nan,NaN
nan,nan,nan,NaN
nan,nan,nan,NaN
nan,nan,nan,NaN
nan,nan,nan,NaN
nan,nan,nan,NaN
nan,nan,nan,NaN
-1.22901,-0.118117,2.463,2.75514
-1.22101,-0.118117,2.463,2.75158
-1.20415,-0.117254,2.445,2.72796
-1.1879,-0.116439,2.428,2.70552
-1.18002,-0.116439,2.428,2.70207
-1.16393,-0.115624,2.411,2.67974
-1.15611,-0.115624,2.411,2.67635
-1.14828,-0.115624,2.411,2.67298
-1.13241,-0.114808,2.394,2.65081
-1.12464,-0.114808,2.394,2.6475
-1.11687,-0.114808,2.394,2.64421
-1.1091,-0.114808,2.394,2.64093
-1.09351,-0.113993,2.377,2.61895
-1.0858,-0.113993,2.377,2.61574
-1.07808,-0.113993,2.377,2.61254
-1.06316,-0.113226,2.361,2.59181
-1.0555,-0.113226,2.361,2.58867
-1.04784,-0.113226,2.361,2.58556
-1.04017,-0.113226,2.361,2.58246
-1.03251,-0.113226,2.361,2.57938
-1.02485,-0.113226,2.361,2.57632
-1.01718,-0.113226,2.361,2.57329
-1.00952,-0.113226,2.361,2.57027
-1.00186,-0.113226,2.361,2.56727
-0.994193,-0.113226,2.361,2.56429
-0.986529,-0.113226,2.361,2.56132
-0.978866,-0.113226,2.361,2.55838
-0.977785,-0.113993,2.377,2.57278
-0.970069,-0.113993,2.377,2.56986
-0.962354,-0.113993,2.377,2.56695
-0.954639,-0.113993,2.377,2.56407
-0.946924,-0.113993,2.377,2.56121
-0.939209,-0.113993,2.377,2.55837
-0.931494,-0.113993,2.377,2.55554
-0.923778,-0.113993,2.377,2.55274
-0.916063,-0.113993,2.377,2.54996
-0.908348,-0.113993,2.377,2.5472
-0.900633,-0.113993,2.377,2.54446
-0.892918,-0.113993,2.377,2.54174
-0.885203,-0.113993,2.377,2.53904
-0.877488,-0.113993,2.377,2.53636
-0.869772,-0.113993,2.377,2.5337
-0.862057,-0.113993,2.377,2.53106
-0.854342,-0.113993,2.377,2.52844
-0.846627,-0.113993,2.377,2.52585
-0.844912,-0.114808,2.394,2.54132
-0.837141,-0.114808,2.394,2.53874
-0.829371,-0.114808,2.394,2.53619
-0.821601,-0.114808,2.394,2.53366
-0.81383,-0.114808,2.394,2.53115
-0.80606,-0.114808,2.394,2.52867
-0.79829,-0.114808,2.394,2.5262
-0.790519,-0.114808,2.394,2.52375
-0.788307,-0.115624,2.411,2.53924
-0.780482,-0.115624,2.411,2.53682
-0.772656,-0.115624,2.411,2.53442
-0.764831,-0.115624,2.411,2.53205
-0.757005,-0.115624,2.411,2.52969
-0.74918,-0.115624,2.411,2.52736
-0.741354,-0.115624,2.411,2.52505
-0.733529,-0.115624,2.411,2.52277
-0.725703,-0.115624,2.411,2.5205
-0.717878,-0.115624,2.411,2.51826
-0.710052,-0.115624,2.411,2.51604
-0.702227,-0.115624,2.411,2.51384
-0.694401,-0.115624,2.411,2.51167
-0.691417,-0.116439,2.428,2.52721
-0.683536,-0.116439,2.428,2.52507
-0.675655,-0.116439,2.428,2.52295
-0.667775,-0.116439,2.428,2.52085
-0.664514,-0.117254,2.445,2.53641
-0.656578,-0.117254,2.445,2.53434
-0.648643,-0.117254,2.445,2.53229
-0.640707,-0.117254,2.445,2.53027
-0.632771,-0.117254,2.445,2.52827
-0.624835,-0.117254,2.445,2.5263
-0.616899,-0.117254,2.445,2.52435
-0.608963,-0.117254,2.445,2.52242
-0.601027,-0.117254,2.445,2.52052
-0.597458,-0.118117,2.463,2.53718
-0.589464,-0.118117,2.463,2.53531
-0.581469,-0.118117,2.463,2.53346
-0.577666,-0.118981,2.481,2.55014
-0.569613,-0.118981,2.481,2.54833
-0.561561,-0.118981,2.481,2.54654
-0.553508,-0.118981,2.481,2.54478
-0.549413,-0.119844,2.499,2.56149
-0.541301,-0.119844,2.499,2.55976
-0.537031,-0.120707,2.517,2.57648
-0.528861,-0.120707,2.517,2.57479
-0.524622,-0.121618,2.536,2.59255
-0.516391,-0.121618,2.536,2.5909
-0.50816,-0.121618,2.536,2.58927
-0.499929,-0.121618,2.536,2.58767
-0.491697,-0.121618,2.536,2.58609
-0.483466,-0.121618,2.536,2.58454
-0.475235,-0.121618,2.536,2.58301
-0.467004,-0.121618,2.536,2.58151
-0.458772,-0.121618,2.536,2.58003
-0.450541,-0.121618,2.536,2.57858
-0.44231,-0.121618,2.536,2.57715
-0.434079,-0.121618,2.536,2.57575
-0.425848,-0.121618,2.536,2.57438
-0.417616,-0.121618,2.536,2.57303
-0.409385,-0.121618,2.536,2.57171
-0.404159,-0.122529,2.555,2.58967
-0.395866,-0.122529,2.555,2.58839
-0.387574,-0.122529,2.555,2.58713
-0.379281,-0.122529,2.555,2.5859
-0.370988,-0.122529,2.555,2.5847
-0.362695,-0.122529,2.555,2.58352
-0.354402,-0.122529,2.555,2.58237
-0.346109,-0.122529,2.555,2.58125
-0.337816,-0.122529,2.555,2.58015
-0.329523,-0.122529,2.555,2.57907
-0.323619,-0.123441,2.574,2.5972
