-1.49167,-0.0744916,2.951,3.30742
-1.44493,-0.0726237,2.877,3.22028
-1.40016,-0.0708314,2.806,3.13673
-1.39105,-0.0708314,2.806,3.13268
-1.32777,-0.0680547,2.696,3.006
-1.29847,-0.0669945,2.654,2.95537
-1.28986,-0.0669945,2.654,2.9516
-1.26145,-0.0659596,2.613,2.9023
-1.23427,-0.0649751,2.574,2.85537
-1.22591,-0.0649751,2.574,2.85176
-1.1906,-0.0635362,2.517,2.78511
-1.17397,-0.0630819,2.499,2.76174
-1.15746,-0.0626275,2.481,2.73843
-1.14941,-0.0626275,2.481,2.73504
-1.13308,-0.0621731,2.463,2.71184
-1.12508,-0.0621731,2.463,2.70851
-1.11709,-0.0621731,2.463,2.7052
-1.10099,-0.0617188,2.445,2.68216
-1.09305,-0.0617188,2.445,2.67892
-1.08512,-0.0617188,2.445,2.67569
-1.07718,-0.0617188,2.445,2.67248
-1.06924,-0.0617188,2.445,2.66929
-1.06131,-0.0617188,2.445,2.66612
-1.05337,-0.0617188,2.445,2.66297
-1.04544,-0.0617188,2.445,2.65984
-1.0375,-0.0617188,2.445,2.65673
-1.02956,-0.0617188,2.445,2.65365
-1.02163,-0.0617188,2.445,2.65058
-1.01369,-0.0617188,2.445,2.64753
-1.00576,-0.0617188,2.445,2.6445
-0.997821,-0.0617188,2.445,2.64149
-0.983002,-0.0612896,2.428,2.62016
-0.975121,-0.0612896,2.428,2.61721
-0.967241,-0.0612896,2.428,2.61429
-0.95936,-0.0612896,2.428,2.61138
-0.951479,-0.0612896,2.428,2.6085
-0.943599,-0.0612896,2.428,2.60563
-0.935718,-0.0612896,2.428,2.60279
-0.921341,-0.0608605,2.411,2.58176
-0.913515,-0.0608605,2.411,2.57898
-0.90569,-0.0608605,2.411,2.57622
-0.897864,-0.0608605,2.411,2.57348
-0.890039,-0.0608605,2.411,2.57076
-0.882213,-0.0608605,2.411,2.56806
-0.874388,-0.0608605,2.411,2.56538
-0.866562,-0.0608605,2.411,2.56272
-0.858737,-0.0608605,2.411,2.56009
-0.844912,-0.0604314,2.394,2.53944
-0.837141,-0.0604314,2.394,2.53687
-0.829371,-0.0604314,2.394,2.53431
-0.821601,-0.0604314,2.394,2.53178
-0.81383,-0.0604314,2.394,2.52927
-0.811784,-0.0608605,2.411,2.54472
-0.803958,-0.0608605,2.411,2.54224
-0.796133,-0.0608605,2.411,2.53977
-0.788307,-0.0608605,2.411,2.53733
-0.780482,-0.0608605,2.411,2.53491
-0.772656,-0.0608605,2.411,2.53251
-0.764831,-0.0608605,2.411,2.53014
-0.757005,-0.0608605,2.411,2.52778
-0.74918,-0.0608605,2.411,2.52545
-0.746581,-0.0612896,2.428,2.54093
-0.738701,-0.0612896,2.428,2.53863
-0.73082,-0.0612896,2.428,2.53634
-0.722939,-0.0612896,2.428,2.53408
-0.720065,-0.0617188,2.445,2.54957
-0.712129,-0.0617188,2.445,2.54734
-0.704194,-0.0617188,2.445,2.54514
-0.696258,-0.0617188,2.445,2.54295
-0.693389,-0.0621731,2.463,2.5595
-0.685395,-0.0621731,2.463,2.55734
-0.677401,-0.0621731,2.463,2.55521
-0.669406,-0.0621731,2.463,2.5531
-0.661412,-0.0621731,2.463,2.55102
-0.658193,-0.0626275,2.481,2.56759
-0.65014,-0.0626275,2.481,2.56553
-0.642088,-0.0626275,2.481,2.56351
-0.634035,-0.0626275,2.481,2.5615
-0.630524,-0.0630819,2.499,2.57809
-0.622413,-0.0630819,2.499,2.57612
-0.614302,-0.0630819,2.499,2.57417
-0.606191,-0.0630819,2.499,2.57225
-0.598079,-0.0630819,2.499,2.57035
-0.589968,-0.0630819,2.499,2.56847
-0.581857,-0.0630819,2.499,2.56662
-0.577879,-0.0635362,2.517,2.58327
-0.569709,-0.0635362,2.517,2.58145
-0.561539,-0.0635362,2.517,2.57966
-0.55337,-0.0635362,2.517,2.5779
-0.5452,-0.0635362,2.517,2.57615
-0.537031,-0.0635362,2.517,2.57444
-0.528861,-0.0635362,2.517,2.57275
-0.520692,-0.0635362,2.517,2.57108
-0.512522,-0.0635362,2.517,2.56944
-0.504353,-0.0635362,2.517,2.56782
-0.496183,-0.0635362,2.517,2.56623
-0.488013,-0.0635362,2.517,2.56466
-0.479844,-0.0635362,2.517,2.56312
-0.471674,-0.0635362,2.517,2.5616
-0.46019,-0.0630819,2.499,2.5418
-0.452079,-0.0630819,2.499,2.54035
-0.443968,-0.0630819,2.499,2.53891
-0.435857,-0.0630819,2.499,2.53751
-0.427746,-0.0630819,2.499,2.53613
-0.419634,-0.0630819,2.499,2.53477
-0.411523,-0.0630819,2.499,2.53344
-0.403412,-0.0630819,2.499,2.53214
-0.395301,-0.0630819,2.499,2.53086
-0.38719,-0.0630819,2.499,2.5296
-0.379079,-0.0630819,2.499,2.52838
-0.37364,-0.0635362,2.517,2.54537
-0.36547,-0.0635362,2.517,2.54419
-0.359998,-0.0640159,2.536,2.56222
-0.351766,-0.0640159,2.536,2.56108
-0.346109,-0.0644955,2.555,2.57914
-0.337816,-0.0644955,2.555,2.57804
-0.329523,-0.0644955,2.555,2.57697
-0.32123,-0.0644955,2.555,2.57592
-0.312937,-0.0644955,2.555,2.5749
-0.304645,-0.0644955,2.555,2.57391
-0.296352,-0.0644955,2.555,2.57294
-0.288059,-0.0644955,2.555,2.572
-0.279766,-0.0644955,2.555,2.57108
-0.271473,-0.0644955,2.555,2.57019
-0.26318,-0.0644955,2.555,2.56933
-0.254887,-0.0644955,2.555,2.56849
-0.246594,-0.0644955,2.555,2.56768
-0.238301,-0.0644955,2.555,2.5669
-0.230009,-0.0644955,2.555,2.56614
-0.221716,-0.0644955,2.555,2.56541
-0.213423,-0.0644955,2.555,2.56471
-0.20513,-0.0644955,2.555,2.56403
-0.196837,-0.0644955,2.555,2.56338
-0.188544,-0.0644955,2.555,2.56276
-0.180251,-0.0644955,2.555,2.56216
-0.171958,-0.0644955,2.555,2.56159
-0.162448,-0.0640159,2.536,2.542
-0.154217,-0.0640159,2.536,2.54149
-0.145986,-0.0640159,2.536,2.541
-0.137755,-0.0640159,2.536,2.54055
-0.128553,-0.0635362,2.517,2.52108
-0.120383,-0.0635362,2.517,2.52068
-0.112214,-0.0635362,2.517,2.5203
-0.10483,-0.0640159,2.536,2.53897
-0.0965985,-0.0640159,2.536,2.53865
-0.0883672,-0.0640159,2.536,2.53835
-0.080136,-0.0640159,2.536,2.53807
-0.0724435,-0.0644955,2.555,2.55684
-0.0646277,-0.0649751,2.574,2.57563
-0.0562731,-0.0649751,2.574,2.57543
-0.0479185,-0.0649751,2.574,2.57527
-0.039856,-0.0654547,2.593,2.59413
-0.0314398,-0.0654547,2.593,2.59402
-0.0230235,-0.0654547,2.593,2.59393
-0.01472,-0.0659596,2.613,2.61387
-0.00623883,-0.0659596,2.613,2.61384
0.00224232,-0.0659596,2.613,2.61383
0.0107235,-0.0659596,2.613,2.61385
0.0192046,-0.0659596,2.613,2.6139
0.0276858,-0.0659596,2.613,2.61398
0.0358901,-0.0654547,2.593,2.59407
0.0443063,-0.0654547,2.593,2.5942
0.0527226,-0.0654547,2.593,2.59436
0.0606908,-0.0649751,2.574,2.57554
0.0690454,-0.0649751,2.574,2.57575
0.0773999,-0.0649751,2.574,2.57598
0.0857545,-0.0649751,2.574,2.57625
0.0941091,-0.0649751,2.574,2.57654
0.102464,-0.0649751,2.574,2.57686
0.110818,-0.0649751,2.574,2.5772
0.119173,-0.0649751,2.574,2.57758
0.127527,-0.0649751,2.574,2.57798
0.135882,-0.0649751,2.574,2.5784
0.144236,-0.0649751,2.574,2.57886
0.152591,-0.0649751,2.574,2.57934
0.160946,-0.0649751,2.574,2.57985
0.1693,-0.0649751,2.574,2.58038
0.178966,-0.0654547,2.593,2.59999
0.187382,-0.0654547,2.593,2.60059
0.195799,-0.0654547,2.593,2.60121
0.204215,-0.0654547,2.593,2.60185
0.212631,-0.0654547,2.593,2.60253
0.221047,-0.0654547,2.593,2.60323
0.229463,-0.0654547,2.593,2.60396
0.23788,-0.0654547,2.593,2.60471
0.246296,-0.0654547,2.593,2.60549
0.252846,-0.0649751,2.574,2.5872
0.2612,-0.0649751,2.574,2.58803
0.269555,-0.0649751,2.574,2.58889
0.27791,-0.0649751,2.574,2.58977
0.286264,-0.0649751,2.574,2.59068
0.292444,-0.0644955,2.555,2.57249
0.300737,-0.0644955,2.555,2.57345
0.30903,-0.0644955,2.555,2.57443
0.317323,-0.0644955,2.555,2.57544
0.325615,-0.0644955,2.555,2.57647
0.331425,-0.0640159,2.536,2.55837
0.339657,-0.0640159,2.536,2.55945
0.347888,-0.0640159,2.536,2.56055
0.356119,-0.0640159,2.536,2.56168
nan,nan,nan,NaN
nan,nan,nan,NaN
0.37796,-0.0635362,2.517,2.54601
0.386129,-0.0635362,2.517,2.54724
0.394299,-0.0635362,2.517,2.54849
nan,nan,nan,NaN
nan,nan,nan,NaN
nan,nan,nan,NaN
nan,nan,nan,NaN
nan,nan,nan,NaN
nan,nan,nan,NaN
nan,nan,nan,NaN
nan,nan,nan,NaN
nan,nan,nan,NaN
nan,nan,nan,NaN
nan,nan,nan,NaN
nan,nan,nan,NaN
nan,nan,nan,NaN
nan,nan,nan,NaN
0.505754,-0.0621731,2.463,2.51516
0.513748,-0.0621731,2.463,2.51678
0.521742,-0.0621731,2.463,2.51842
0.533608,-0.0626275,2.481,2.53851
0.54559,-0.0630819,2.499,2.55864
0.553702,-0.0630819,2.499,2.56038
0.565859,-0.0635362,2.517,2.58061
0.578362,-0.0640159,2.536,2.6019
0.586593,-0.0640159,2.536,2.60374
0.599281,-0.0644955,2.555,2.62513
0.612092,-0.0649751,2.574,2.64657
0.625027,-0.0654547,2.593,2.66807
0.633443,-0.0654547,2.593,2.67005
0.64681,-0.0659596,2.613,2.69267
0.660306,-0.0664644,2.633,2.71535
0.668853,-0.0664644,2.633,2.71744
0.677399,-0.0664644,2.633,2.71955
0.691415,-0.0669945,2.654,2.7434
0.70003,-0.0669945,2.654,2.74559
0.708644,-0.0669945,2.654,2.7478
0.717258,-0.0669945,2.654,2.75003
0.725872,-0.0669945,2.654,2.75229
0.734487,-0.0669945,2.654,2.75457
0.737221,-0.0664644,2.633,2.73507
0.745767,-0.0664644,2.633,2.73738
0.748583,-0.0659596,2.613,2.71891
0.75127,-0.0654547,2.593,2.70043
0.759686,-0.0654547,2.593,2.70279
0.756846,-0.0644955,2.555,2.66552
0.765139,-0.0644955,2.555,2.66789
0.773432,-0.0644955,2.555,2.67028
0.775912,-0.0640159,2.536,2.65282
0.784143,-0.0640159,2.536,2.65524
0.792374,-0.0640159,2.536,2.65768
0.794607,-0.0635362,2.517,2.64021
0.802777,-0.0635362,2.517,2.64268
0.810946,-0.0635362,2.517,2.64518
0.819116,-0.0635362,2.517,2.64769
0.827285,-0.0635362,2.517,2.65023
0.841761,-0.0640159,2.536,2.67282
0.849993,-0.0640159,2.536,2.67542
0.851794,-0.0635362,2.517,2.65798
0.859963,-0.0635362,2.517,2.66061
0.868133,-0.0635362,2.517,2.66327
0.876303,-0.0635362,2.517,2.66594
0.878147,-0.0630819,2.499,2.64955
0.886258,-0.0630819,2.499,2.65225
0.894369,-0.0630819,2.499,2.65497
0.90248,-0.0630819,2.499,2.65772
0.904033,-0.0626275,2.481,2.64132
0.912085,-0.0626275,2.481,2.64408
0.920138,-0.0626275,2.481,2.64687
0.928191,-0.0626275,2.481,2.64968
0.936243,-0.0626275,2.481,2.65252
0.944296,-0.0626275,2.481,2.65537
0.952349,-0.0626275,2.481,2.65824
0.960401,-0.0626275,2.481,2.66114
0.968454,-0.0626275,2.481,2.66405
0.969422,-0.0621731,2.463,2.64764
0.977417,-0.0621731,2.463,2.65058
0.985411,-0.0621731,2.463,2.65354
0.993405,-0.0621731,2.463,2.65652
1.00872,-0.0626275,2.481,2.67895
1.02415,-0.0630819,2.499,2.70145
1.03226,-0.0630819,2.499,2.70454
1.04786,-0.0635362,2.517,2.72715
1.07198,-0.0644955,2.555,2.77152
1.08027,-0.0644955,2.555,2.77474
1.09666,-0.0649751,2.574,2.79863
1.13034,-0.0664644,2.633,2.86614
1.13889,-0.0664644,2.633,2.86952
1.17489,-0.0680547,2.696,2.94167
1.21217,-0.0696955,2.761,3.01618
1.24104,-0.0708314,2.806,3.06901
1.25015,-0.0708314,2.806,3.07271
1.26958,-0.071412,2.829,3.10164
1.30045,-0.0726237,2.877,3.1581
1.30979,-0.0726237,2.877,3.16196
1.3416,-0.0738606,2.926,3.21975
1.38665,-0.0758043,3.003,3.30856
1.3964,-0.0758043,3.003,3.31265
1.40614,-0.0758043,3.003,3.31678
1.41589,-0.0758043,3.003,3.32092
1.42564,-0.0758043,3.003,3.32509
1.43538,-0.0758043,3.003,3.32928
1.44513,-0.0758043,3.003,3.33349
1.46796,-0.0764858,3.03,3.36774
1.47779,-0.0764858,3.03,3.37204
1.48763,-0.0764858,3.03,3.37636
1.49746,-0.0764858,3.03,3.3807
1.5073,-0.0764858,3.03,3.38507
1.51713,-0.0764858,3.03,3.38946
1.51336,-0.0758043,3.003,3.36363
1.52311,-0.0758043,3.003,3.36803
1.53285,-0.0758043,3.003,3.37245
1.55647,-0.0764858,3.03,3.40725
1.58026,-0.0771674,3.057,3.44216
1.59019,-0.0771674,3.057,3.44672
1.61424,-0.0778489,3.084,3.48179
1.62425,-0.0778489,3.084,3.48645
1.63426,-0.0778489,3.084,3.49112
1.64427,-0.0778489,3.084,3.49582
1.6693,-0.0785557,3.112,3.53232
1.6794,-0.0785557,3.112,3.5371
1.70524,-0.0792878,3.141,3.57492
1.71544,-0.0792878,3.141,3.57979
1.72563,-0.0792878,3.141,3.58469
1.7198,-0.0785557,3.112,3.55646
1.7299,-0.0785557,3.112,3.56136
1.75622,-0.0792878,3.141,3.59951
1.75011,-0.0785557,3.112,3.57122
1.76021,-0.0785557,3.112,3.57618
1.77031,-0.0785557,3.112,3.58116
1.76439,-0.0778489,3.084,3.5539
1.7744,-0.0778489,3.084,3.55888
1.78441,-0.0778489,3.084,3.56388
1.77871,-0.0771674,3.057,3.53766
1.78863,-0.0771674,3.057,3.54265
1.79855,-0.0771674,3.057,3.54767
1.80848,-0.0771674,3.057,3.55272
1.8184,-0.0771674,3.057,3.55778
1.81217,-0.0764858,3.03,3.53139
1.82201,-0.0764858,3.03,3.53645
1.83184,-0.0764858,3.03,3.54152
1.82526,-0.0758043,3.003,3.51502
1.83501,-0.0758043,3.003,3.52009
1.84476,-0.0758043,3.003,3.52518
1.83845,-0.0751479,2.977,3.49972
1.84811,-0.0751479,2.977,3.50481
1.84155,-0.0744916,2.951,3.47926
1.83545,-0.0738606,2.926,3.45482
1.84494,-0.0738606,2.926,3.45988
1.8386,-0.0732295,2.901,3.43535
1.81743,-0.0720178,2.853,3.38347
1.7966,-0.0708314,2.806,3.33263
1.80571,-0.0708314,2.806,3.33755
1.78571,-0.0696955,2.761,3.28888
1.76607,-0.0685848,2.717,3.24127
1.77489,-0.0685848,2.717,3.24608
1.74235,-0.0669945,2.654,3.17553
1.72392,-0.0659596,2.613,3.13113
1.7324,-0.0659596,2.613,3.13581
1.72755,-0.0654547,2.593,3.11647
1.69781,-0.0640159,2.536,3.05253
1.70604,-0.0640159,2.536,3.05712
1.68926,-0.0630819,2.499,3.01705
1.68515,-0.0626275,2.481,2.99983
-1.96257,-0.0622324,2.829,3.44366
-1.93751,-0.0617264,2.806,3.41048
-1.9284,-0.0617264,2.806,3.40531
-1.90356,-0.0612205,2.783,3.3723
-1.87955,-0.0607365,2.761,3.34059
-1.87059,-0.0607365,2.761,3.33555
-1.86163,-0.0607365,2.761,3.33054
-1.8379,-0.0602525,2.739,3.29904
-1.82901,-0.0602525,2.739,3.29409
-1.82012,-0.0602525,2.739,3.28916
-1.82578,-0.0607365,2.761,3.31063
-1.81682,-0.0607365,2.761,3.3057
-1.82226,-0.0612205,2.783,3.32708
-1.81323,-0.0612205,2.783,3.32214
-1.8042,-0.0612205,2.783,3.31722
-1.79516,-0.0612205,2.783,3.31232
-1.78613,-0.0612205,2.783,3.30743
-1.79179,-0.0617264,2.806,3.32986
-1.79729,-0.0622324,2.829,3.35222
-1.78811,-0.0622324,2.829,3.3473
-1.77893,-0.0622324,2.829,3.34241
-1.76974,-0.0622324,2.829,3.33753
-1.76056,-0.0622324,2.829,3.33267
-1.75138,-0.0622324,2.829,3.32783
-1.7422,-0.0622324,2.829,3.32301
-1.74772,-0.0627603,2.853,3.34635
-1.72383,-0.0622324,2.829,3.31341
-1.71465,-0.0622324,2.829,3.30865
-1.70547,-0.0622324,2.829,3.3039
-1.68249,-0.0617264,2.806,3.27234
-1.67339,-0.0617264,2.806,3.26767
-1.66428,-0.0617264,2.806,3.26302
-1.62863,-0.0607365,2.761,3.20613
-1.61967,-0.0607365,2.761,3.20158
-1.59787,-0.0602525,2.739,3.17158
-1.58898,-0.0602525,2.739,3.16711
-1.5674,-0.0597686,2.717,3.13726
-1.55858,-0.0597686,2.717,3.13286
-1.54976,-0.0597686,2.717,3.12849
-1.52903,-0.0593066,2.696,3.09998
-1.52028,-0.0593066,2.696,3.09567
-1.51153,-0.0593066,2.696,3.09138
-1.50278,-0.0593066,2.696,3.08712
-1.49403,-0.0593066,2.696,3.08287
-1.48528,-0.0593066,2.696,3.07863
-1.48803,-0.0597686,2.717,3.09837
-1.47921,-0.0597686,2.717,3.09414
-1.4942,-0.0607365,2.761,3.13998
-1.50945,-0.0617264,2.806,3.18683
-1.50034,-0.0617264,2.806,3.18253
-1.51621,-0.0627603,2.853,3.23148
-1.53231,-0.0638162,2.901,3.28144
-1.54914,-0.0649161,2.951,3.33353
-1.53956,-0.0649161,2.951,3.32909
-1.54346,-0.0654881,2.977,3.35397
-1.54719,-0.06606,3.003,3.37878
-1.53745,-0.06606,3.003,3.37433
-1.50125,-0.0649161,2.951,3.31155
-1.49167,-0.0649161,2.951,3.30722
-1.44493,-0.0632883,2.877,3.22008
-1.40016,-0.0617264,2.806,3.13654
-1.39105,-0.0617264,2.806,3.13249
-1.34895,-0.0602525,2.739,3.05375
-1.30874,-0.0588447,2.675,2.97857
-1.30006,-0.0588447,2.675,2.97477
-1.2711,-0.0579208,2.633,2.92434
-1.24338,-0.0570408,2.593,2.87626
-1.23496,-0.0570408,2.593,2.87264
-1.19958,-0.0557869,2.536,2.80596
-1.17397,-0.054973,2.499,2.76156
-1.15746,-0.0545771,2.481,2.73826
-1.14941,-0.0545771,2.481,2.73486
-1.13308,-0.0541811,2.463,2.71167
-1.12508,-0.0541811,2.463,2.70834
-1.11709,-0.0541811,2.463,2.70503
-1.10099,-0.0537851,2.445,2.68199
-1.09305,-0.0537851,2.445,2.67875
-1.08512,-0.0537851,2.445,2.67552
-1.07718,-0.0537851,2.445,2.67231
-1.06924,-0.0537851,2.445,2.66912
-1.06131,-0.0537851,2.445,2.66595
-1.05337,-0.0537851,2.445,2.6628
-1.04544,-0.0537851,2.445,2.65967
-1.0375,-0.0537851,2.445,2.65656
-1.02956,-0.0537851,2.445,2.65347
-1.02163,-0.0537851,2.445,2.6504
-1.01369,-0.0537851,2.445,2.64736
-1.00576,-0.0537851,2.445,2.64433
-0.997821,-0.0537851,2.445,2.64132
-0.989885,-0.0537851,2.445,2.63833
-0.981949,-0.0537851,2.445,2.63536
-0.967241,-0.0534112,2.428,2.61411
-0.95936,-0.0534112,2.428,2.61121
-0.951479,-0.0534112,2.428,2.60832
-0.943599,-0.0534112,2.428,2.60546
-0.935718,-0.0534112,2.428,2.60262
-0.921341,-0.0530372,2.411,2.58159
-0.913515,-0.0530372,2.411,2.57881
-0.90569,-0.0530372,2.411,2.57605
-0.897864,-0.0530372,2.411,2.5733
-0.890039,-0.0530372,2.411,2.57058
-0.882213,-0.0530372,2.411,2.56789
-0.874388,-0.0530372,2.411,2.56521
-0.866562,-0.0530372,2.411,2.56255
-0.858737,-0.0530372,2.411,2.55991
-0.844912,-0.0526632,2.394,2.53927
-0.837141,-0.0526632,2.394,2.53669
-0.829371,-0.0526632,2.394,2.53414
-0.821601,-0.0526632,2.394,2.53161
-0.81383,-0.0526632,2.394,2.5291
-0.811784,-0.0530372,2.411,2.54455
-0.803958,-0.0530372,2.411,2.54206
-0.796133,-0.0530372,2.411,2.5396
-0.788307,-0.0530372,2.411,2.53716
-0.780482,-0.0530372,2.411,2.53474
-0.772656,-0.0530372,2.411,2.53234
-0.764831,-0.0530372,2.411,2.52996
-0.757005,-0.0530372,2.411,2.52761
-0.74918,-0.0530372,2.411,2.52527
-0.746581,-0.0534112,2.428,2.54075
-0.738701,-0.0534112,2.428,2.53845
-0.73082,-0.0534112,2.428,2.53617
-0.722939,-0.0534112,2.428,2.53391
-0.720065,-0.0537851,2.445,2.54939
-0.712129,-0.0537851,2.445,2.54716
-0.704194,-0.0537851,2.445,2.54496
-0.696258,-0.0537851,2.445,2.54277
-0.693389,-0.0541811,2.463,2.55931
-0.685395,-0.0541811,2.463,2.55716
-0.677401,-0.0541811,2.463,2.55503
-0.669406,-0.0541811,2.463,2.55292
-0.661412,-0.0541811,2.463,2.55084
-0.658193,-0.0545771,2.481,2.5674
-0.65014,-0.0545771,2.481,2.56535
-0.642088,-0.0545771,2.481,2.56332
-0.634035,-0.0545771,2.481,2.56132
-0.630524,-0.054973,2.499,2.5779
-0.622413,-0.054973,2.499,2.57593
-0.614302,-0.054973,2.499,2.57398
-0.606191,-0.054973,2.499,2.57206
-0.598079,-0.054973,2.499,2.57016
-0.589968,-0.054973,2.499,2.56828
-0.581857,-0.054973,2.499,2.56643
-0.577879,-0.055369,2.517,2.58308
-0.569709,-0.055369,2.517,2.58126
-0.561539,-0.055369,2.517,2.57947
-0.55337,-0.055369,2.517,2.57771
-0.5452,-0.055369,2.517,2.57597
-0.537031,-0.055369,2.517,2.57425
-0.528861,-0.055369,2.517,2.57256
-0.520692,-0.055369,2.517,2.57089
-0.512522,-0.055369,2.517,2.56925
-0.504353,-0.055369,2.517,2.56763
-0.496183,-0.055369,2.517,2.56604
-0.488013,-0.055369,2.517,2.56447
-0.479844,-0.055369,2.517,2.56293
-0.471674,-0.055369,2.517,2.56141
-0.46019,-0.054973,2.499,2.54161
-0.452079,-0.054973,2.499,2.54016
-0.443968,-0.054973,2.499,2.53873
-0.435857,-0.054973,2.499,2.53732
-0.427746,-0.054973,2.499,2.53594
-0.422657,-0.055369,2.517,2.55284
-0.414487,-0.055369,2.517,2.5515
-0.406318,-0.055369,2.517,2.55019
-0.398148,-0.055369,2.517,2.5489
-0.389979,-0.055369,2.517,2.54763
-0.381809,-0.055369,2.517,2.5464
-0.37364,-0.055369,2.517,2.54518
-0.36547,-0.055369,2.517,2.544
-0.359998,-0.0557869,2.536,2.56203
-0.351766,-0.0557869,2.536,2.56089
-0.346109,-0.0562049,2.555,2.57895
-0.337816,-0.0562049,2.555,2.57785
-0.329523,-0.0562049,2.555,2.57678
-0.32123,-0.0562049,2.555,2.57573
-0.312937,-0.0562049,2.555,2.57471
-0.304645,-0.0562049,2.555,2.57371
-0.296352,-0.0562049,2.555,2.57274
-0.288059,-0.0562049,2.555,2.5718
-0.279766,-0.0562049,2.555,2.57089
-0.271473,-0.0562049,2.555,2.57
-0.26318,-0.0562049,2.555,2.56913
-0.254887,-0.0562049,2.555,2.5683
-0.246594,-0.0562049,2.555,2.56749
-0.240074,-0.0566229,2.574,2.58579
-0.231719,-0.0566229,2.574,2.58503
-0.221716,-0.0562049,2.555,2.56522
-0.213423,-0.0562049,2.555,2.56451
-0.20513,-0.0562049,2.555,2.56384
-0.196837,-0.0562049,2.555,2.56319
-0.188544,-0.0562049,2.555,2.56256
-0.180251,-0.0562049,2.555,2.56197
-0.171958,-0.0562049,2.555,2.5614
-0.162448,-0.0557869,2.536,2.54181
-0.154217,-0.0557869,2.536,2.5413
-0.145986,-0.0557869,2.536,2.54081
-0.137755,-0.0557869,2.536,2.54035
-0.128553,-0.055369,2.517,2.52089
-0.120383,-0.055369,2.517,2.52049
-0.112214,-0.055369,2.517,2.52011
-0.104044,-0.055369,2.517,2.51976
-0.0965985,-0.0557869,2.536,2.53845
-0.0883672,-0.0557869,2.536,2.53815
-0.0807364,-0.0562049,2.555,2.55689
-0.0724435,-0.0562049,2.555,2.55664
-0.0646277,-0.0566229,2.574,2.57543
-0.0562731,-0.0566229,2.574,2.57524
-0.0479185,-0.0566229,2.574,2.57507
-0.039564,-0.0566229,2.574,2.57493
-0.0312094,-0.0566229,2.574,2.57481
-0.0230235,-0.0570408,2.593,2.59373
-0.01472,-0.0574808,2.613,2.61367
-0.00623883,-0.0574808,2.613,2.61364
0.00225949,-0.0579208,2.633,2.63364
0.0107235,-0.0574808,2.613,2.61365
0.0192046,-0.0574808,2.613,2.6137
0.0276858,-0.0574808,2.613,2.61378
0.0358901,-0.0570408,2.593,2.59388
0.0443063,-0.0570408,2.593,2.59401
0.0527226,-0.0570408,2.593,2.59416
0.0611388,-0.0570408,2.593,2.59435
0.069555,-0.0570408,2.593,2.59456
0.0779713,-0.0570408,2.593,2.5948
0.0857545,-0.0566229,2.574,2.57605
0.0941091,-0.0566229,2.574,2.57634
0.102464,-0.0566229,2.574,2.57666
0.110818,-0.0566229,2.574,2.57701
0.119173,-0.0566229,2.574,2.57738
0.127527,-0.0566229,2.574,2.57778
0.135882,-0.0566229,2.574,2.57821
0.144236,-0.0566229,2.574,2.57866
0.152591,-0.0566229,2.574,2.57914
0.160946,-0.0566229,2.574,2.57965
0.1693,-0.0566229,2.574,2.58018
0.178966,-0.0570408,2.593,2.59979
0.187382,-0.0570408,2.593,2.60039
0.195799,-0.0570408,2.593,2.60101
0.204215,-0.0570408,2.593,2.60165
0.212631,-0.0570408,2.593,2.60233
0.221047,-0.0570408,2.593,2.60303
0.229463,-0.0570408,2.593,2.60376
0.23788,-0.0570408,2.593,2.60451
0.246296,-0.0570408,2.593,2.6053
0.252846,-0.0566229,2.574,2.58701
0.2612,-0.0566229,2.574,2.58784
0.269555,-0.0566229,2.574,2.5887
0.27791,-0.0566229,2.574,2.58958
0.286264,-0.0566229,2.574,2.59049
0.292444,-0.0562049,2.555,2.5723
0.300737,-0.0562049,2.555,2.57325
0.30903,-0.0562049,2.555,2.57423
0.317323,-0.0562049,2.555,2.57524
0.325615,-0.0562049,2.555,2.57628
0.331425,-0.0557869,2.536,2.55817
0.339657,-0.0557869,2.536,2.55925
0.347888,-0.0557869,2.536,2.56036
0.356119,-0.0557869,2.536,2.56149
nan,nan,nan,NaN
nan,nan,nan,NaN
nan,nan,nan,NaN
nan,nan,nan,NaN
nan,nan,nan,NaN
nan,nan,nan,NaN
nan,nan,nan,NaN
nan,nan,nan,NaN
nan,nan,nan,NaN
nan,nan,nan,NaN
nan,nan,nan,NaN
nan,nan,nan,NaN
nan,nan,nan,NaN
nan,nan,nan,NaN
nan,nan,nan,NaN
nan,nan,nan,NaN
nan,nan,nan,NaN
nan,nan,nan,NaN
nan,nan,nan,NaN
nan,nan,nan,NaN
nan,nan,nan,NaN
nan,nan,nan,NaN
nan,nan,nan,NaN
nan,nan,nan,NaN
0.5619,-0.0557869,2.536,2.5981
0.570131,-0.0557869,2.536,2.5999
0.578362,-0.0557869,2.536,2.60171
0.586593,-0.0557869,2.536,2.60356
0.599281,-0.0562049,2.555,2.62494
0.612092,-0.0566229,2.574,2.64638
0.625027,-0.0570408,2.593,2.66788
0.633443,-0.0570408,2.593,2.66986
0.64681,-0.0574808,2.613,2.69248
0.660306,-0.0579208,2.633,2.71515
0.668853,-0.0579208,2.633,2.71724
0.677399,-0.0579208,2.633,2.71936
0.685945,-0.0579208,2.633,2.7215
0.694491,-0.0579208,2.633,2.72367
0.703037,-0.0579208,2.633,2.72586
0.711583,-0.0579208,2.633,2.72808
0.720129,-0.0579208,2.633,2.73032
0.728675,-0.0579208,2.633,2.73258
0.737221,-0.0579208,2.633,2.73487
0.745767,-0.0579208,2.633,2.73719
0.748583,-0.0574808,2.613,2.71872
0.745765,-0.0566229,2.574,2.68046
0.75412,-0.0566229,2.574,2.68279
0.756846,-0.0562049,2.555,2.66533
0.765139,-0.0562049,2.555,2.6677
0.773432,-0.0562049,2.555,2.67009
0.770098,-0.055369,2.517,2.63276
0.778268,-0.055369,2.517,2.63516
0.786437,-0.055369,2.517,2.63758
0.788924,-0.054973,2.499,2.62115
0.797036,-0.054973,2.499,2.6236
0.810946,-0.055369,2.517,2.64499
0.819116,-0.055369,2.517,2.64751
0.827285,-0.055369,2.517,2.65005
0.841761,-0.0557869,2.536,2.67263
0.849993,-0.0557869,2.536,2.67524
0.851794,-0.055369,2.517,2.6578
0.859963,-0.055369,2.517,2.66043
0.868133,-0.055369,2.517,2.66308
0.876303,-0.055369,2.517,2.66576
0.878147,-0.054973,2.499,2.64937
0.886258,-0.054973,2.499,2.65207
0.894369,-0.054973,2.499,2.65479
0.90248,-0.054973,2.499,2.65754
0.904033,-0.0545771,2.481,2.64114
0.912085,-0.0545771,2.481,2.64391
0.920138,-0.0545771,2.481,2.64669
0.928191,-0.0545771,2.481,2.64951
0.936243,-0.0545771,2.481,2.65234
0.944296,-0.0545771,2.481,2.65519
0.945439,-0.0541811,2.463,2.63878
0.953434,-0.0541811,2.463,2.64165
0.961428,-0.0541811,2.463,2.64455
0.969422,-0.0541811,2.463,2.64747
0.977417,-0.0541811,2.463,2.65041
0.985411,-0.0541811,2.463,2.65336
0.993405,-0.0541811,2.463,2.65634
1.0014,-0.0541811,2.463,2.65934
1.02415,-0.054973,2.499,2.70128
1.03226,-0.054973,2.499,2.70436
1.04786,-0.055369,2.517,2.72697
1.05603,-0.055369,2.517,2.73012
1.0642,-0.055369,2.517,2.73329
1.09666,-0.0566229,2.574,2.79845
1.13034,-0.0579208,2.633,2.86596
1.13889,-0.0579208,2.633,2.86934
1.16574,-0.0588447,2.675,2.91857
1.20252,-0.0602525,2.739,2.99196
1.23087,-0.0612205,2.783,3.04366
1.2399,-0.0612205,2.783,3.04732
1.25925,-0.0617264,2.806,3.07623
1.28961,-0.0627603,2.853,3.13155
1.29887,-0.0627603,2.853,3.13538
1.33013,-0.0638162,2.901,3.19204
1.36264,-0.0649161,2.951,3.25106
1.38431,-0.0654881,2.977,3.28377
1.39397,-0.0654881,2.977,3.28785
1.40363,-0.0654881,2.977,3.29196
1.41329,-0.0654881,2.977,3.29609
1.42296,-0.0654881,2.977,3.30025
1.43262,-0.0654881,2.977,3.30442
1.45488,-0.06606,3.003,3.33752
1.46463,-0.06606,3.003,3.34178
1.47437,-0.06606,3.003,3.34606
1.48412,-0.06606,3.003,3.35037
1.49387,-0.06606,3.003,3.3547
1.4906,-0.0654881,2.977,3.32997
1.50026,-0.0654881,2.977,3.33431
1.52311,-0.06606,3.003,3.36782
1.53285,-0.06606,3.003,3.37224
1.5426,-0.06606,3.003,3.37668
1.56631,-0.066654,3.03,3.41155
1.57614,-0.066654,3.03,3.41607
1.60011,-0.0672479,3.057,3.4511
1.61003,-0.0672479,3.057,3.45572
1.61995,-0.0672479,3.057,3.46035
1.64427,-0.0678419,3.084,3.49561
1.65428,-0.0678419,3.084,3.50033
1.66429,-0.0678419,3.084,3.50507
1.6895,-0.0684578,3.112,3.5417
1.6996,-0.0684578,3.112,3.54653
1.7097,-0.0684578,3.112,3.55138
1.7198,-0.0684578,3.112,3.55626
1.71434,-0.0678419,3.084,3.52911
1.72435,-0.0678419,3.084,3.53398
1.73436,-0.0678419,3.084,3.53888
1.7291,-0.0672479,3.057,3.51277
1.73902,-0.0672479,3.057,3.51766
1.74894,-0.0672479,3.057,3.52258
1.74333,-0.066654,3.03,3.49636
1.75316,-0.066654,3.03,3.50128
1.763,-0.066654,3.03,3.50621
1.77283,-0.066654,3.03,3.51117
1.78267,-0.066654,3.03,3.51614
1.7925,-0.066654,3.03,3.52114
1.80234,-0.066654,3.03,3.52615
1.79602,-0.06606,3.003,3.49972
1.80577,-0.06606,3.003,3.50474
1.81552,-0.06606,3.003,3.50977
1.82526,-0.06606,3.003,3.51482
1.83501,-0.06606,3.003,3.51989
1.84476,-0.06606,3.003,3.52498
1.83845,-0.0654881,2.977,3.49953
1.84811,-0.0654881,2.977,3.50462
1.85777,-0.0654881,2.977,3.50972
1.83545,-0.0643662,2.926,3.45463
1.84494,-0.0643662,2.926,3.45969
1.8386,-0.0638162,2.901,3.43516
1.81743,-0.0627603,2.853,3.38328
1.81133,-0.0622324,2.829,3.35977
1.82051,-0.0622324,2.829,3.36472
1.78571,-0.0607365,2.761,3.2887
1.76607,-0.0597686,2.717,3.24109
1.77489,-0.0597686,2.717,3.24591
1.75614,-0.0588447,2.675,3.20049
1.73711,-0.0579208,2.633,3.15493
1.74566,-0.0579208,2.633,3.15965
1.72755,-0.0570408,2.593,3.1163
1.69781,-0.0557869,2.536,3.05237
1.70604,-0.0557869,2.536,3.05696
1.68926,-0.054973,2.499,3.01689
1.68515,-0.0545771,2.481,2.99968
-1.96257,-0.0530527,2.829,3.44351
-1.93751,-0.0526214,2.806,3.41033
-1.9284,-0.0526214,2.806,3.40516
-1.90356,-0.0521901,2.783,3.37214
-1.87955,-0.0517775,2.761,3.34044
-1.87059,-0.0517775,2.761,3.3354
-1.86163,-0.0517775,2.761,3.33038
-1.8379,-0.0513649,2.739,3.29889
-1.82901,-0.0513649,2.739,3.29394
-1.82012,-0.0513649,2.739,3.28901
-1.82578,-0.0517775,2.761,3.31048
-1.81682,-0.0517775,2.761,3.30555
-1.82226,-0.0521901,2.783,3.32693
-1.81323,-0.0521901,2.783,3.32199
-1.8042,-0.0521901,2.783,3.31707
-1.79516,-0.0521901,2.783,3.31216
-1.78613,-0.0521901,2.783,3.30728
-1.79179,-0.0526214,2.806,3.3297
-1.79729,-0.0530527,2.829,3.35206
-1.78811,-0.0530527,2.829,3.34715
-1.77893,-0.0530527,2.829,3.34225
-1.76974,-0.0530527,2.829,3.33737
-1.76056,-0.0530527,2.829,3.33251
-1.75138,-0.0530527,2.829,3.32767
-1.7422,-0.0530527,2.829,3.32285
-1.74772,-0.0535028,2.853,3.34619
-1.72383,-0.0530527,2.829,3.31325
-1.71465,-0.0530527,2.829,3.30849
-1.70547,-0.0530527,2.829,3.30374
-1.68249,-0.0526214,2.806,3.27218
-1.67339,-0.0526214,2.806,3.26751
-1.66428,-0.0526214,2.806,3.26286
-1.62863,-0.0517775,2.761,3.20597
-1.61967,-0.0517775,2.761,3.20142
-1.59787,-0.0513649,2.739,3.17143
-1.58898,-0.0513649,2.739,3.16696
-1.5674,-0.0509524,2.717,3.1371
-1.55858,-0.0509524,2.717,3.13271
-1.54976,-0.0509524,2.717,3.12833
-1.52903,-0.0505585,2.696,3.09982
-1.52028,-0.0505585,2.696,3.09552
-1.51153,-0.0505585,2.696,3.09123
-1.50278,-0.0505585,2.696,3.08696
-1.49403,-0.0505585,2.696,3.08271
-1.48528,-0.0505585,2.696,3.07848
-1.48803,-0.0509524,2.717,3.09821
-1.47921,-0.0509524,2.717,3.09399
-1.4942,-0.0517775,2.761,3.13982
-1.50945,-0.0526214,2.806,3.18667
-1.50034,-0.0526214,2.806,3.18236
-1.50346,-0.0530527,2.829,3.20413
-1.50695,-0.0535028,2.853,3.22698
-1.49769,-0.0535028,2.853,3.22266
-1.52652,-0.0548718,2.926,3.30072
-1.52998,-0.0553406,2.951,3.3245
-1.5338,-0.0558282,2.977,3.34936
-1.52414,-0.0558282,2.977,3.34494
-1.50125,-0.0553406,2.951,3.31138
-1.49167,-0.0553406,2.951,3.30704
-1.44493,-0.0539529,2.877,3.21991
-1.40016,-0.0526214,2.806,3.13638
-1.39105,-0.0526214,2.806,3.13232
-1.34895,-0.0513649,2.739,3.05359
-1.30874,-0.0501647,2.675,2.97841
-1.30006,-0.0501647,2.675,2.97461
-1.2711,-0.0493771,2.633,2.92418
-1.24338,-0.048627,2.593,2.87611
-1.21686,-0.0479144,2.555,2.83038
-1.19958,-0.047558,2.536,2.80581
-1.17397,-0.0468642,2.499,2.76141
-1.15746,-0.0465266,2.481,2.73811
-1.14941,-0.0465266,2.481,2.73472
-1.13308,-0.0461891,2.463,2.71152
-1.12508,-0.0461891,2.463,2.70819
-1.11709,-0.0461891,2.463,2.70488
-1.10099,-0.0458515,2.445,2.68185
-1.09305,-0.0458515,2.445,2.6786
-1.08512,-0.0458515,2.445,2.67537
-1.07718,-0.0458515,2.445,2.67216
-1.06924,-0.0458515,2.445,2.66897
-1.06131,-0.0458515,2.445,2.6658
-1.05337,-0.0458515,2.445,2.66265
-1.04544,-0.0458515,2.445,2.65952
-1.0375,-0.0458515,2.445,2.65641
-1.02956,-0.0458515,2.445,2.65332
-1.02163,-0.0458515,2.445,2.65026
-1.01369,-0.0458515,2.445,2.64721
-1.00576,-0.0458515,2.445,2.64418
-0.997821,-0.0458515,2.445,2.64117
-0.989885,-0.0458515,2.445,2.63818
-0.981949,-0.0458515,2.445,2.63521
-0.967241,-0.0455327,2.428,2.61397
-0.95936,-0.0455327,2.428,2.61106
-0.951479,-0.0455327,2.428,2.60817
-0.943599,-0.0455327,2.428,2.60531
-0.935718,-0.0455327,2.428,2.60247
-0.921341,-0.0452139,2.411,2.58144
-0.913515,-0.0452139,2.411,2.57866
-0.90569,-0.0452139,2.411,2.5759
-0.897864,-0.0452139,2.411,2.57315
-0.890039,-0.0452139,2.411,2.57043
-0.882213,-0.0452139,2.411,2.56774
-0.874388,-0.0452139,2.411,2.56506
-0.866562,-0.0452139,2.411,2.5624
-0.858737,-0.0452139,2.411,2.55976
-0.850911,-0.0452139,2.411,2.55715
-0.843086,-0.0452139,2.411,2.55456
-0.83526,-0.0452139,2.411,2.55198
-0.827435,-0.0452139,2.411,2.54943
-0.819609,-0.0452139,2.411,2.54691
-0.811784,-0.0452139,2.411,2.5444
-0.803958,-0.0452139,2.411,2.54191
-0.796133,-0.0452139,2.411,2.53945
-0.793866,-0.0455327,2.428,2.55489
-0.785985,-0.0455327,2.428,2.55246
-0.778104,-0.0455327,2.428,2.55004
-0.770224,-0.0455327,2.428,2.54765
-0.762343,-0.0455327,2.428,2.54527
-0.754462,-0.0455327,2.428,2.54293
-0.746581,-0.0455327,2.428,2.5406
-0.738701,-0.0455327,2.428,2.53829
-0.73082,-0.0455327,2.428,2.53601
-0.728001,-0.0458515,2.445,2.55149
-0.720065,-0.0458515,2.445,2.54924
-0.712129,-0.0458515,2.445,2.54701
-0.704194,-0.0458515,2.445,2.5448
-0.701384,-0.0461891,2.463,2.56134
-0.693389,-0.0461891,2.463,2.55916
-0.685395,-0.0461891,2.463,2.557
-0.677401,-0.0461891,2.463,2.55487
-0.674299,-0.0465266,2.481,2.57142
-0.666246,-0.0465266,2.481,2.56932
-0.658193,-0.0465266,2.481,2.56724
-0.65014,-0.0465266,2.481,2.56519
-0.642088,-0.0465266,2.481,2.56316
-0.634035,-0.0465266,2.481,2.56116
-0.630524,-0.0468642,2.499,2.57774
-0.622413,-0.0468642,2.499,2.57577
-0.614302,-0.0468642,2.499,2.57382
-0.606191,-0.0468642,2.499,2.5719
-0.598079,-0.0468642,2.499,2.57
-0.589968,-0.0468642,2.499,2.56812
-0.581857,-0.0468642,2.499,2.56627
-0.577879,-0.0472017,2.517,2.58292
-0.569709,-0.0472017,2.517,2.5811
-0.561539,-0.0472017,2.517,2.57931
-0.55337,-0.0472017,2.517,2.57754
-0.549316,-0.047558,2.536,2.59525
-0.541085,-0.047558,2.536,2.59352
-0.528861,-0.0472017,2.517,2.57239
-0.520692,-0.0472017,2.517,2.57073
-0.512522,-0.0472017,2.517,2.56908
-0.504353,-0.0472017,2.517,2.56747
-0.496183,-0.0472017,2.517,2.56588
-0.488013,-0.0472017,2.517,2.56431
-0.479844,-0.0472017,2.517,2.56277
-0.471674,-0.0472017,2.517,2.56125
-0.463505,-0.0472017,2.517,2.55976
-0.455335,-0.0472017,2.517,2.55829
-0.447166,-0.0472017,2.517,2.55685
-0.438996,-0.0472017,2.517,2.55543
-0.430827,-0.0472017,2.517,2.55404
-0.422657,-0.0472017,2.517,2.55268
-0.414487,-0.0472017,2.517,2.55134
-0.406318,-0.0472017,2.517,2.55002
-0.398148,-0.0472017,2.517,2.54873
-0.392923,-0.047558,2.536,2.5667
-0.384691,-0.047558,2.536,2.56545
-0.37646,-0.047558,2.536,2.56423
-0.368229,-0.047558,2.536,2.56304
-0.359998,-0.047558,2.536,2.56187
-0.351766,-0.047558,2.536,2.56072
-0.346109,-0.0479144,2.555,2.57878
-0.337816,-0.0479144,2.555,2.57768
-0.329523,-0.0479144,2.555,2.57661
-0.32123,-0.0479144,2.555,2.57556
-0.312937,-0.0479144,2.555,2.57454
-0.304645,-0.0479144,2.555,2.57354
-0.296352,-0.0479144,2.555,2.57258
-0.288059,-0.0479144,2.555,2.57163
-0.279766,-0.0479144,2.555,2.57072
-0.271473,-0.0479144,2.555,2.56983
-0.26318,-0.0479144,2.555,2.56897
-0.256783,-0.0482707,2.574,2.58723
-0.248428,-0.0482707,2.574,2.58641
-0.240074,-0.0482707,2.574,2.58562
-0.231719,-0.0482707,2.574,2.58486
-0.223364,-0.0482707,2.574,2.58412
-0.21501,-0.0482707,2.574,2.58342
-0.206655,-0.0482707,2.574,2.58273
-0.198301,-0.0482707,2.574,2.58208
-0.188544,-0.0479144,2.555,2.5624
-0.180251,-0.0479144,2.555,2.5618
-0.171958,-0.0479144,2.555,2.56123
-0.163665,-0.0479144,2.555,2.56068
-0.154217,-0.047558,2.536,2.54113
-0.145986,-0.047558,2.536,2.54064
-0.137755,-0.047558,2.536,2.54018
-0.128553,-0.0472017,2.517,2.52072
-0.120383,-0.0472017,2.517,2.52032
-0.112214,-0.0472017,2.517,2.51994
-0.104044,-0.0472017,2.517,2.51959
-0.0965985,-0.047558,2.536,2.53828
-0.0883672,-0.047558,2.536,2.53798
-0.0807364,-0.0479144,2.555,2.55672
-0.0724435,-0.0479144,2.555,2.55648
-0.0646277,-0.0482707,2.574,2.57526
-0.0562731,-0.0482707,2.574,2.57507
-0.0479185,-0.0482707,2.574,2.5749
-0.039564,-0.0482707,2.574,2.57476
-0.0312094,-0.0482707,2.574,2.57464
-0.0230235,-0.048627,2.593,2.59356
-0.01472,-0.049002,2.613,2.6135
-0.00623883,-0.049002,2.613,2.61347
0.00225949,-0.0493771,2.633,2.63346
0.0107235,-0.049002,2.613,2.61348
0.0192046,-0.049002,2.613,2.61353
0.0276858,-0.049002,2.613,2.61361
0.0361669,-0.049002,2.613,2.61371
0.0446481,-0.049002,2.613,2.61384
0.0527226,-0.048627,2.593,2.59399
0.0611388,-0.048627,2.593,2.59418
0.069555,-0.048627,2.593,2.59439
0.0779713,-0.048627,2.593,2.59463
0.0857545,-0.0482707,2.574,2.57588
0.0941091,-0.0482707,2.574,2.57617
0.102464,-0.0482707,2.574,2.57649
0.110818,-0.0482707,2.574,2.57684
0.119173,-0.0482707,2.574,2.57721
0.127527,-0.0482707,2.574,2.57761
0.135882,-0.0482707,2.574,2.57804
0.144236,-0.0482707,2.574,2.57849
0.152591,-0.0482707,2.574,2.57897
0.160946,-0.0482707,2.574,2.57948
0.1693,-0.0482707,2.574,2.58001
0.178966,-0.048627,2.593,2.59962
0.187382,-0.048627,2.593,2.60022
0.195799,-0.048627,2.593,2.60084
0.204215,-0.048627,2.593,2.60148
0.212631,-0.048627,2.593,2.60216
0.221047,-0.048627,2.593,2.60286
0.229463,-0.048627,2.593,2.60359
0.23788,-0.048627,2.593,2.60434
0.246296,-0.048627,2.593,2.60512
0.252846,-0.0482707,2.574,2.58684
0.2612,-0.0482707,2.574,2.58767
0.269555,-0.0482707,2.574,2.58853
0.275858,-0.0479144,2.555,2.5703
0.284151,-0.0479144,2.555,2.5712
0.292444,-0.0479144,2.555,2.57213
0.300737,-0.0479144,2.555,2.57308
0.30903,-0.0479144,2.555,2.57407
0.317323,-0.0479144,2.555,2.57508
0.325615,-0.0479144,2.555,2.57611
0.331425,-0.047558,2.536,2.55801
0.339657,-0.047558,2.536,2.55909
0.347888,-0.047558,2.536,2.56019
0.356119,-0.047558,2.536,2.56132
nan,nan,nan,NaN
nan,nan,nan,NaN
nan,nan,nan,NaN
nan,nan,nan,NaN
nan,nan,nan,NaN
nan,nan,nan,NaN
nan,nan,nan,NaN
nan,nan,nan,NaN
nan,nan,nan,NaN
nan,nan,nan,NaN
nan,nan,nan,NaN
nan,nan,nan,NaN
nan,nan,nan,NaN
nan,nan,nan,NaN
nan,nan,nan,NaN
nan,nan,nan,NaN
nan,nan,nan,NaN
nan,nan,nan,NaN
nan,nan,nan,NaN
nan,nan,nan,NaN
nan,nan,nan,NaN
nan,nan,nan,NaN
nan,nan,nan,NaN
nan,nan,nan,NaN
0.5619,-0.047558,2.536,2.59794
0.570131,-0.047558,2.536,2.59973
0.578362,-0.047558,2.536,2.60155
0.586593,-0.047558,2.536,2.60339
0.599281,-0.0479144,2.555,2.62478
0.612092,-0.0482707,2.574,2.64622
0.625027,-0.048627,2.593,2.66771
0.633443,-0.048627,2.593,2.66969
0.641859,-0.048627,2.593,2.6717
0.660306,-0.0493771,2.633,2.71498
0.668853,-0.0493771,2.633,2.71707
0.677399,-0.0493771,2.633,2.71919
0.685945,-0.0493771,2.633,2.72133
0.694491,-0.0493771,2.633,2.7235
0.703037,-0.0493771,2.633,2.72569
0.711583,-0.0493771,2.633,2.72791
0.720129,-0.0493771,2.633,2.73015
0.728675,-0.0493771,2.633,2.73242
0.737221,-0.0493771,2.633,2.73471
0.745767,-0.0493771,2.633,2.73702
0.742854,-0.048627,2.593,2.69775
0.745765,-0.0482707,2.574,2.68029
0.75412,-0.0482707,2.574,2.68263
0.756846,-0.0479144,2.555,2.66517
0.759449,-0.047558,2.536,2.6477
0.76768,-0.047558,2.536,2.65007
0.770098,-0.0472017,2.517,2.6326
0.778268,-0.0472017,2.517,2.635
0.786437,-0.0472017,2.517,2.63742
0.788924,-0.0468642,2.499,2.62099
0.797036,-0.0468642,2.499,2.62345
0.810946,-0.0472017,2.517,2.64483
0.819116,-0.0472017,2.517,2.64735
0.827285,-0.0472017,2.517,2.64989
0.835455,-0.0472017,2.517,2.65245
0.843624,-0.0472017,2.517,2.65504
0.851794,-0.0472017,2.517,2.65764
0.859963,-0.0472017,2.517,2.66027
0.868133,-0.0472017,2.517,2.66293
0.876303,-0.0472017,2.517,2.6656
0.884472,-0.0472017,2.517,2.6683
0.892642,-0.0472017,2.517,2.67102
0.894369,-0.0468642,2.499,2.65464
0.90248,-0.0468642,2.499,2.65738
0.910591,-0.0468642,2.499,2.66015
0.918703,-0.0468642,2.499,2.66293
0.920138,-0.0465266,2.481,2.64654
0.928191,-0.0465266,2.481,2.64935
0.936243,-0.0465266,2.481,2.65218
0.937445,-0.0461891,2.463,2.63577
0.945439,-0.0461891,2.463,2.63863
0.953434,-0.0461891,2.463,2.6415
0.961428,-0.0461891,2.463,2.6444
0.969422,-0.0461891,2.463,2.64732
0.977417,-0.0461891,2.463,2.65025
0.985411,-0.0461891,2.463,2.65321
0.993405,-0.0461891,2.463,2.65619
1.0014,-0.0461891,2.463,2.65919
1.01677,-0.0465266,2.481,2.68167
1.02482,-0.0465266,2.481,2.68473
1.04037,-0.0468642,2.499,2.70732
1.04848,-0.0468642,2.499,2.71044
1.05659,-0.0468642,2.499,2.71359
1.08856,-0.0479144,2.555,2.77764
1.11317,-0.048627,2.593,2.82226
1.12158,-0.048627,2.593,2.82559
1.14743,-0.0493771,2.633,2.87258
1.18364,-0.0505585,2.696,2.94482
1.21141,-0.0513649,2.739,2.99537
1.2203,-0.0513649,2.739,2.99898
1.24893,-0.0521901,2.783,3.05084
1.26836,-0.0526214,2.806,3.0798
1.27747,-0.0526214,2.806,3.08356
1.30813,-0.0535028,2.853,3.13906
1.33955,-0.0544029,2.901,3.1958
1.34897,-0.0544029,2.901,3.19976
1.37009,-0.0548718,2.926,3.23135
1.37959,-0.0548718,2.926,3.23539
1.38908,-0.0548718,2.926,3.23945
1.39858,-0.0548718,2.926,3.24353
1.40808,-0.0548718,2.926,3.24764
1.42969,-0.0553406,2.951,3.27955
1.43926,-0.0553406,2.951,3.28374
1.44884,-0.0553406,2.951,3.28795
1.45842,-0.0553406,2.951,3.29218
1.468,-0.0553406,2.951,3.29644
1.4906,-0.0558282,2.977,3.32979
1.50026,-0.0558282,2.977,3.33413
1.52311,-0.0563158,3.003,3.36765
1.53285,-0.0563158,3.003,3.37207
1.5426,-0.0563158,3.003,3.37651
1.56631,-0.0568221,3.03,3.41137
1.57614,-0.0568221,3.03,3.4159
1.60011,-0.0573284,3.057,3.45092
1.61003,-0.0573284,3.057,3.45554
1.61995,-0.0573284,3.057,3.46017
1.64427,-0.0578348,3.084,3.49543
1.65428,-0.0578348,3.084,3.50015
1.66429,-0.0578348,3.084,3.50489
1.6895,-0.0583599,3.112,3.54152
1.6996,-0.0583599,3.112,3.54635
1.7097,-0.0583599,3.112,3.5512
1.7198,-0.0583599,3.112,3.55608
1.71434,-0.0578348,3.084,3.52893
1.72435,-0.0578348,3.084,3.53381
1.73436,-0.0578348,3.084,3.5387
1.7291,-0.0573284,3.057,3.51259
1.73902,-0.0573284,3.057,3.51749
1.74894,-0.0573284,3.057,3.5224
1.74333,-0.0568221,3.03,3.49619
1.75316,-0.0568221,3.03,3.5011
1.763,-0.0568221,3.03,3.50604
1.77283,-0.0568221,3.03,3.51099
1.78267,-0.0568221,3.03,3.51597
1.7925,-0.0568221,3.03,3.52097
1.80234,-0.0568221,3.03,3.52598
1.79602,-0.0563158,3.003,3.49955
1.80577,-0.0563158,3.003,3.50457
1.81552,-0.0563158,3.003,3.5096
1.82526,-0.0563158,3.003,3.51465
1.83501,-0.0563158,3.003,3.51972
1.84476,-0.0563158,3.003,3.52481
1.83845,-0.0558282,2.977,3.49936
1.84811,-0.0558282,2.977,3.50445
1.85777,-0.0558282,2.977,3.50955
1.85113,-0.0553406,2.951,3.48398
1.86071,-0.0553406,2.951,3.48908
1.8386,-0.0544029,2.901,3.435
1.83272,-0.0539529,2.877,3.41158
1.81133,-0.0530527,2.829,3.35961
1.82051,-0.0530527,2.829,3.36457
1.79994,-0.0521901,2.783,3.31475
1.78037,-0.0513649,2.739,3.26718
1.78926,-0.0513649,2.739,3.27204
1.75614,-0.0501647,2.675,3.20034
1.73711,-0.0493771,2.633,3.15479
1.74566,-0.0493771,2.633,3.1595
1.72755,-0.048627,2.593,3.11616
1.71053,-0.0479144,2.555,3.0751
1.71882,-0.0479144,2.555,3.07972
1.68926,-0.0468642,2.499,3.01675
1.68515,-0.0465266,2.481,2.99954
-1.94661,-0.0435164,2.806,3.41538
-1.92163,-0.0431597,2.783,3.38225
-1.91259,-0.0431597,2.783,3.37712
-1.88851,-0.0428185,2.761,3.34536
-1.86457,-0.0424773,2.739,3.31369
-1.85568,-0.0424773,2.739,3.3087
-1.84679,-0.0424773,2.739,3.30372
-1.8379,-0.0424773,2.739,3.29876
-1.82901,-0.0424773,2.739,3.29381
-1.82012,-0.0424773,2.739,3.28889
-1.81123,-0.0424773,2.739,3.28397
-1.80234,-0.0424773,2.739,3.27908
-1.80786,-0.0428185,2.761,3.3005
-1.7989,-0.0428185,2.761,3.2956
-1.78993,-0.0428185,2.761,3.29072
-1.79516,-0.0431597,2.783,3.31203
-1.78613,-0.0431597,2.783,3.30715
-1.7771,-0.0431597,2.783,3.30228
-1.76807,-0.0431597,2.783,3.29742
-1.75903,-0.0431597,2.783,3.29259
-1.77893,-0.0438731,2.829,3.34212
-1.76974,-0.0438731,2.829,3.33724
-1.76056,-0.0438731,2.829,3.33238
-1.75138,-0.0438731,2.829,3.32754
-1.72803,-0.0435164,2.806,3.2957
-1.71892,-0.0435164,2.806,3.29093
-1.70982,-0.0435164,2.806,3.28618
-1.71465,-0.0438731,2.829,3.30835
-1.70547,-0.0438731,2.829,3.3036
-1.68249,-0.0435164,2.806,3.27205
-1.67339,-0.0435164,2.806,3.26738
-1.66428,-0.0435164,2.806,3.26272
-1.62863,-0.0428185,2.761,3.20584
-1.61967,-0.0428185,2.761,3.20129
-1.59787,-0.0424773,2.739,3.1713
-1.58898,-0.0424773,2.739,3.16683
-1.5674,-0.0421361,2.717,3.13697
-1.55858,-0.0421361,2.717,3.13258
-1.54976,-0.0421361,2.717,3.1282
-1.52903,-0.0418105,2.696,3.09969
-1.52028,-0.0418105,2.696,3.09539
-1.51153,-0.0418105,2.696,3.0911
-1.50278,-0.0418105,2.696,3.08683
nan,nan,nan,NaN
-1.49685,-0.0421361,2.717,3.10233
-1.48803,-0.0421361,2.717,3.09808
-1.47921,-0.0421361,2.717,3.09385
-1.4942,-0.0428185,2.761,3.13968
-1.49708,-0.0431597,2.783,3.16041
-1.48804,-0.0431597,2.783,3.15614
-1.49124,-0.0435164,2.806,3.17794
-1.49428,-0.0438731,2.829,3.19969
-1.48509,-0.0438731,2.829,3.19541
-1.51347,-0.0449897,2.901,3.27237
-1.51702,-0.0453774,2.926,3.29619
-1.5204,-0.0457651,2.951,3.31996
-1.51083,-0.0457651,2.951,3.31558
-1.50125,-0.0457651,2.951,3.31123
-1.49167,-0.0457651,2.951,3.3069
-1.45698,-0.0449897,2.901,3.24663
-1.41164,-0.0438731,2.829,3.16194
-1.40245,-0.0438731,2.829,3.15785
-1.35978,-0.0428185,2.761,3.07798
-1.31902,-0.0418105,2.696,3.00166
-1.31027,-0.0418105,2.696,2.99783
-1.28124,-0.0411591,2.654,2.94737
-1.24338,-0.0402131,2.593,2.87598
-1.21686,-0.0396238,2.555,2.83026
-1.20857,-0.0396238,2.555,2.8267
-1.17397,-0.0387553,2.499,2.76129
-1.15746,-0.0384762,2.481,2.73798
-1.14941,-0.0384762,2.481,2.73459
-1.14136,-0.0384762,2.481,2.73122
-1.12508,-0.038197,2.463,2.70807
-1.11709,-0.038197,2.463,2.70476
-1.10099,-0.0379179,2.445,2.68172
-1.09305,-0.0379179,2.445,2.67847
-1.08512,-0.0379179,2.445,2.67525
-1.07718,-0.0379179,2.445,2.67204
-1.06924,-0.0379179,2.445,2.66885
-1.06131,-0.0379179,2.445,2.66568
-1.05337,-0.0379179,2.445,2.66253
-1.04544,-0.0379179,2.445,2.6594
-1.0375,-0.0379179,2.445,2.65629
-1.02956,-0.0379179,2.445,2.6532
-1.02163,-0.0379179,2.445,2.65013
-1.01369,-0.0379179,2.445,2.64708
-1.00576,-0.0379179,2.445,2.64405
-0.997821,-0.0379179,2.445,2.64104
-0.989885,-0.0379179,2.445,2.63806
-0.981949,-0.0379179,2.445,2.63509
-0.967241,-0.0376542,2.428,2.61384
-0.95936,-0.0376542,2.428,2.61093
-0.951479,-0.0376542,2.428,2.60805
-0.943599,-0.0376542,2.428,2.60518
-0.935718,-0.0376542,2.428,2.60234
-0.921341,-0.0373906,2.411,2.58132
-0.913515,-0.0373906,2.411,2.57853
-0.90569,-0.0373906,2.411,2.57577
-0.897864,-0.0373906,2.411,2.57303
-0.890039,-0.0373906,2.411,2.57031
-0.882213,-0.0373906,2.411,2.56761
-0.874388,-0.0373906,2.411,2.56493
-0.866562,-0.0373906,2.411,2.56227
-0.858737,-0.0373906,2.411,2.55964
-0.850911,-0.0373906,2.411,2.55702
-0.843086,-0.0373906,2.411,2.55443
-0.83526,-0.0373906,2.411,2.55186
-0.827435,-0.0373906,2.411,2.54931
-0.819609,-0.0373906,2.411,2.54678
-0.817508,-0.0376542,2.428,2.56221
-0.809627,-0.0376542,2.428,2.55971
-0.801746,-0.0376542,2.428,2.55722
-0.793866,-0.0376542,2.428,2.55477
-0.785985,-0.0376542,2.428,2.55233
-0.778104,-0.0376542,2.428,2.54991
-0.770224,-0.0376542,2.428,2.54752
-0.762343,-0.0376542,2.428,2.54515
-0.754462,-0.0376542,2.428,2.5428
-0.746581,-0.0376542,2.428,2.54047
-0.743873,-0.0379179,2.445,2.55594
-0.735937,-0.0379179,2.445,2.55364
-0.728001,-0.0379179,2.445,2.55136
-0.720065,-0.0379179,2.445,2.54911
-0.712129,-0.0379179,2.445,2.54688
-0.704194,-0.0379179,2.445,2.54467
-0.701384,-0.038197,2.463,2.5612
-0.693389,-0.038197,2.463,2.55903
-0.685395,-0.038197,2.463,2.55687
-0.677401,-0.038197,2.463,2.55474
-0.674299,-0.0384762,2.481,2.57129
-0.666246,-0.0384762,2.481,2.56919
-0.658193,-0.0384762,2.481,2.56711
-0.65014,-0.0384762,2.481,2.56506
-0.642088,-0.0384762,2.481,2.56303
-0.638635,-0.0387553,2.499,2.5796
-0.630524,-0.0387553,2.499,2.57761
-0.622413,-0.0387553,2.499,2.57564
-0.614302,-0.0387553,2.499,2.57369
-0.606191,-0.0387553,2.499,2.57176
-0.602387,-0.0390345,2.517,2.58837
-0.594218,-0.0390345,2.517,2.58649
-0.586048,-0.0390345,2.517,2.58462
-0.577879,-0.0390345,2.517,2.58278
-0.569709,-0.0390345,2.517,2.58097
-0.561539,-0.0390345,2.517,2.57917
-0.557547,-0.0393291,2.536,2.59686
-0.549316,-0.0393291,2.536,2.59511
-0.541085,-0.0393291,2.536,2.59338
-0.532853,-0.0393291,2.536,2.59167
-0.524622,-0.0393291,2.536,2.58999
-0.516391,-0.0393291,2.536,2.58834
-0.50816,-0.0393291,2.536,2.58671
-0.499929,-0.0393291,2.536,2.58511
-0.491697,-0.0393291,2.536,2.58353
-0.483466,-0.0393291,2.536,2.58197
-0.475235,-0.0393291,2.536,2.58044
-0.467004,-0.0393291,2.536,2.57894
-0.458772,-0.0393291,2.536,2.57746
-0.450541,-0.0393291,2.536,2.57601
-0.44231,-0.0393291,2.536,2.57458
-0.434079,-0.0393291,2.536,2.57318
-0.425848,-0.0393291,2.536,2.57181
-0.417616,-0.0393291,2.536,2.57046
-0.409385,-0.0393291,2.536,2.56913
-0.401154,-0.0393291,2.536,2.56783
-0.392923,-0.0393291,2.536,2.56656
-0.384691,-0.0393291,2.536,2.56531
-0.37646,-0.0393291,2.536,2.56409
-0.368229,-0.0393291,2.536,2.5629
-0.362695,-0.0396238,2.555,2.58092
-0.354402,-0.0396238,2.555,2.57977
-0.346109,-0.0396238,2.555,2.57864
-0.337816,-0.0396238,2.555,2.57754
-0.329523,-0.0396238,2.555,2.57647
-0.32123,-0.0396238,2.555,2.57542
-0.312937,-0.0396238,2.555,2.5744
-0.304645,-0.0396238,2.555,2.5734
-0.296352,-0.0396238,2.555,2.57243
-0.288059,-0.0396238,2.555,2.57149
-0.279766,-0.0396238,2.555,2.57058
-0.271473,-0.0396238,2.555,2.56969
-0.26318,-0.0396238,2.555,2.56882
-0.256783,-0.0399185,2.574,2.58708
-0.248428,-0.0399185,2.574,2.58627
-0.240074,-0.0399185,2.574,2.58548
-0.231719,-0.0399185,2.574,2.58472
-0.223364,-0.0399185,2.574,2.58398
-0.21501,-0.0399185,2.574,2.58327
-0.206655,-0.0399185,2.574,2.58259
-0.198301,-0.0399185,2.574,2.58194
-0.188544,-0.0396238,2.555,2.56225
-0.180251,-0.0396238,2.555,2.56166
-0.171958,-0.0396238,2.555,2.56109
-0.163665,-0.0396238,2.555,2.56054
-0.154217,-0.0393291,2.536,2.54099
-0.145986,-0.0393291,2.536,2.5405
-0.137755,-0.0393291,2.536,2.54004
-0.128553,-0.0390345,2.517,2.52058
-0.120383,-0.0390345,2.517,2.52018
-0.112214,-0.0390345,2.517,2.5198
-0.104044,-0.0390345,2.517,2.51945
-0.0965985,-0.0393291,2.536,2.53814
-0.0883672,-0.0393291,2.536,2.53784
-0.0807364,-0.0396238,2.555,2.55658
-0.0724435,-0.0396238,2.555,2.55633
-0.0646277,-0.0399185,2.574,2.57512
-0.0562731,-0.0399185,2.574,2.57492
-0.0479185,-0.0399185,2.574,2.57476
-0.039564,-0.0399185,2.574,2.57461
-0.0312094,-0.0399185,2.574,2.5745
-0.0230235,-0.0402131,2.593,2.59341
-0.01472,-0.0405233,2.613,2.61336
-0.00623883,-0.0405233,2.613,2.61332
0.00225949,-0.0408334,2.633,2.63332
0.0107235,-0.0405233,2.613,2.61334
0.0192046,-0.0405233,2.613,2.61338
0.0274739,-0.0402131,2.593,2.59346
0.0358901,-0.0402131,2.593,2.59356
0.0443063,-0.0402131,2.593,2.59369
0.0527226,-0.0402131,2.593,2.59385
0.0611388,-0.0402131,2.593,2.59403
0.069555,-0.0402131,2.593,2.59424
0.0779713,-0.0402131,2.593,2.59448
0.0857545,-0.0399185,2.574,2.57574
0.0941091,-0.0399185,2.574,2.57603
0.102464,-0.0399185,2.574,2.57635
0.110818,-0.0399185,2.574,2.57669
0.119173,-0.0399185,2.574,2.57707
0.127527,-0.0399185,2.574,2.57747
0.135882,-0.0399185,2.574,2.57789
0.144236,-0.0399185,2.574,2.57835
0.152591,-0.0399185,2.574,2.57883
0.160946,-0.0399185,2.574,2.57934
0.1693,-0.0399185,2.574,2.57987
0.178966,-0.0402131,2.593,2.59948
