0.635981,0.0182732,2.536,2.61459
0.639385,0.0181363,2.517,2.597
0.647555,0.0181363,2.517,2.59903
0.655725,0.0181363,2.517,2.60108
0.663894,0.0181363,2.517,2.60315
0.672064,0.0181363,2.517,2.60524
0.680233,0.0181363,2.517,2.60736
0.688403,0.0181363,2.517,2.60951
0.70183,0.0182732,2.536,2.63139
0.710062,0.0182732,2.536,2.63359
0.718293,0.0182732,2.536,2.63583
0.726524,0.0182732,2.536,2.63808
0.734755,0.0182732,2.536,2.64036
0.742987,0.0182732,2.536,2.64266
0.751218,0.0182732,2.536,2.64499
0.759449,0.0182732,2.536,2.64734
0.773432,0.0184101,2.555,2.66956
0.781725,0.0184101,2.555,2.67198
0.790018,0.0184101,2.555,2.67441
0.798311,0.0184101,2.555,2.67688
0.806603,0.0184101,2.555,2.67936
0.814896,0.0184101,2.555,2.68187
0.829311,0.018547,2.574,2.70436
0.837665,0.018547,2.574,2.70694
0.84602,0.018547,2.574,2.70953
0.854374,0.018547,2.574,2.71215
0.869097,0.0186839,2.593,2.73484
0.877514,0.0186839,2.593,2.73752
0.879438,0.018547,2.574,2.72015
0.887793,0.018547,2.574,2.72287
0.896147,0.018547,2.574,2.7256
0.897825,0.0184101,2.555,2.70822
0.906118,0.0184101,2.555,2.71098
0.914411,0.0184101,2.555,2.71376
0.915842,0.0182732,2.536,2.69637
0.924074,0.0182732,2.536,2.69917
0.932305,0.0182732,2.536,2.702
0.940536,0.0182732,2.536,2.70485
0.941659,0.0181363,2.517,2.68744
0.949829,0.0181363,2.517,2.69031
0.957998,0.0181363,2.517,2.69321
0.959258,0.0180066,2.499,2.67685
0.967369,0.0180066,2.499,2.67976
0.975481,0.0180066,2.499,2.6827
0.983592,0.0180066,2.499,2.68566
0.991703,0.0180066,2.499,2.68864
0.992612,0.0178769,2.481,2.67226
1.00067,0.0178769,2.481,2.67526
1.00872,0.0178769,2.481,2.67828
1.02415,0.0180066,2.499,2.70078
1.03226,0.0180066,2.499,2.70386
1.04037,0.0180066,2.499,2.70697
1.04848,0.0180066,2.499,2.7101
1.05659,0.0180066,2.499,2.71325
1.07237,0.0181363,2.517,2.73598
1.08054,0.0181363,2.517,2.73919
1.08871,0.0181363,2.517,2.74243
1.10516,0.0182732,2.536,2.76641
1.12173,0.0184101,2.555,2.79046
1.13843,0.018547,2.574,2.81458
1.14678,0.018547,2.574,2.81797
1.16367,0.0186839,2.593,2.8422
1.18112,0.018828,2.613,2.86761
1.1896,0.018828,2.613,2.87111
1.19808,0.018828,2.613,2.87464
1.2158,0.0189721,2.633,2.90021
1.22435,0.0189721,2.633,2.9038
1.24273,0.0191235,2.654,2.93061
1.25134,0.0191235,2.654,2.93427
1.26992,0.0192748,2.675,2.9612
1.27861,0.0192748,2.675,2.96493
1.29739,0.0194261,2.696,2.99199
1.31632,0.0195774,2.717,3.01913
1.32514,0.0195774,2.717,3.02299
1.34476,0.0197359,2.739,3.05137
1.36452,0.0198944,2.761,3.07984
1.37348,0.0198944,2.761,3.08382
1.39346,0.020053,2.783,3.11243
1.41408,0.0202187,2.806,3.14224
1.42319,0.0202187,2.806,3.14635
1.45629,0.0205574,2.853,3.20325
1.47788,0.0207303,2.877,3.23445
1.51254,0.0210834,2.926,3.29389
1.52204,0.0210834,2.926,3.29826
1.54462,0.0212635,2.951,3.33087
1.5679,0.0214508,2.977,3.36471
1.57756,0.0214508,2.977,3.36923
1.60108,0.0216382,3.003,3.40323
1.62531,0.0218327,3.03,3.43846
1.63515,0.0218327,3.03,3.44312
1.64498,0.0218327,3.03,3.4478
1.64007,0.0216382,3.003,3.42174
1.64982,0.0216382,3.003,3.42642
1.65957,0.0216382,3.003,3.43113
1.65486,0.0214508,2.977,3.40611
1.66452,0.0214508,2.977,3.41081
1.67419,0.0214508,2.977,3.41554
1.66914,0.0212635,2.951,3.39041
1.67872,0.0212635,2.951,3.39514
1.674,0.0210834,2.926,3.37108
1.68349,0.0210834,2.926,3.37581
1.69299,0.0210834,2.926,3.38055
1.68794,0.0209032,2.901,3.35639
1.69736,0.0209032,2.901,3.36114
1.72148,0.0210834,2.926,3.39491
1.73098,0.0210834,2.926,3.39974
1.74047,0.0210834,2.926,3.40458
1.74997,0.0210834,2.926,3.40945
1.75947,0.0210834,2.926,3.41433
1.76897,0.0210834,2.926,3.41923
1.77846,0.0210834,2.926,3.42416
1.78796,0.0210834,2.926,3.4291
1.7821,0.0209032,2.901,3.40472
1.79152,0.0209032,2.901,3.40966
1.80093,0.0209032,2.901,3.41461
1.79537,0.0207303,2.877,3.3913
1.7746,0.0203844,2.829,3.33959
1.78378,0.0203844,2.829,3.34448
1.77839,0.0202187,2.806,3.32215
1.75883,0.0198944,2.761,3.27368
1.73962,0.0195774,2.717,3.22626
1.74844,0.0195774,2.717,3.23102
1.73009,0.0192748,2.675,3.18578
1.72512,0.0191235,2.654,3.16546
1.73374,0.0191235,2.654,3.17016
1.71543,0.018828,2.613,3.12583
1.69819,0.018547,2.574,3.08377
1.70654,0.018547,2.574,3.08838
1.70224,0.0184101,2.555,3.07017
1.68509,0.0181363,2.517,3.02905
1.69326,0.0181363,2.517,3.0336
1.68926,0.0180066,2.499,3.01644
1.68515,0.0178769,2.481,2.99923
-1.9154,0.0288534,2.761,3.36046
-1.89124,0.0286235,2.739,3.32862
-1.88235,0.0286235,2.739,3.32358
-1.85842,0.0283936,2.717,3.2919
-1.8496,0.0283936,2.717,3.28693
-1.84078,0.0283936,2.717,3.28198
-1.8178,0.0281742,2.696,3.25171
-1.79496,0.0279547,2.675,3.22153
-1.78628,0.0279547,2.675,3.2167
-1.77759,0.0279547,2.675,3.21189
-1.7828,0.0281742,2.696,3.23227
-1.77405,0.0281742,2.696,3.22745
-1.7653,0.0281742,2.696,3.22265
-1.75655,0.0281742,2.696,3.21787
-1.7478,0.0281742,2.696,3.2131
-1.73905,0.0281742,2.696,3.20835
-1.73029,0.0281742,2.696,3.20361
-1.70813,0.0279547,2.675,3.17398
-1.69945,0.0279547,2.675,3.16931
-1.69077,0.0279547,2.675,3.16467
-1.68209,0.0279547,2.675,3.16004
-1.6734,0.0279547,2.675,3.15542
-1.67779,0.0281742,2.696,3.17556
-1.66904,0.0281742,2.696,3.17095
-1.66029,0.0281742,2.696,3.16635
-1.65154,0.0281742,2.696,3.16177
-1.64279,0.0281742,2.696,3.15721
-1.64677,0.0283936,2.717,3.17722
-1.65121,0.0286235,2.739,3.19835
-1.64232,0.0286235,2.739,3.19377
-1.64655,0.0288534,2.761,3.21482
-1.63759,0.0288534,2.761,3.21024
-1.62863,0.0288534,2.761,3.20568
-1.61967,0.0288534,2.761,3.20114
-1.6107,0.0288534,2.761,3.19661
-1.60174,0.0288534,2.761,3.19211
-1.59278,0.0288534,2.761,3.18762
-1.5712,0.0286235,2.739,3.15779
-1.56231,0.0286235,2.739,3.15337
-1.54094,0.0283936,2.717,3.12368
-1.53212,0.0283936,2.717,3.11934
-1.5233,0.0283936,2.717,3.11502
-1.50278,0.0281742,2.696,3.08667
-1.48239,0.0279547,2.675,3.05841
-1.47371,0.0279547,2.675,3.05421
-1.47653,0.0281742,2.696,3.07398
-1.46778,0.0281742,2.696,3.06979
nan,nan,nan,NaN
nan,nan,nan,NaN
-1.4303,0.0279547,2.675,3.03351
-1.41046,0.0277353,2.654,3.00564
-1.40184,0.0277353,2.654,3.00161
-1.3822,0.0275158,2.633,2.97388
-1.37366,0.0275158,2.633,2.96991
-1.34437,0.0270978,2.593,2.92091
-1.33596,0.0270978,2.593,2.91705
-1.32754,0.0270978,2.593,2.9132
-1.29979,0.0267007,2.555,2.86674
-1.2915,0.0267007,2.555,2.86299
-1.27366,0.0265021,2.536,2.838
-1.25595,0.0263036,2.517,2.81308
-1.24778,0.0263036,2.517,2.80944
-1.23075,0.0261154,2.499,2.78575
-1.21383,0.0259273,2.481,2.76214
-1.20578,0.0259273,2.481,2.75861
-1.18904,0.0257392,2.463,2.73511
-1.17241,0.0255511,2.445,2.71168
-1.15638,0.0253735,2.428,2.68943
-1.1485,0.0253735,2.428,2.68605
-1.14062,0.0253735,2.428,2.68269
-1.1248,0.0251958,2.411,2.66059
-1.11698,0.0251958,2.411,2.65729
-1.10915,0.0251958,2.411,2.65401
-1.10133,0.0251958,2.411,2.65075
-1.0935,0.0251958,2.411,2.64751
-1.08568,0.0251958,2.411,2.64429
-1.07025,0.0250182,2.394,2.62246
-1.06248,0.0250182,2.394,2.6193
-1.05471,0.0250182,2.394,2.61616
-1.03951,0.0248405,2.377,2.59448
-1.03179,0.0248405,2.377,2.5914
-1.02408,0.0248405,2.377,2.58833
-1.01636,0.0248405,2.377,2.58529
-1.00865,0.0248405,2.377,2.58227
-1.00093,0.0248405,2.377,2.57926
-0.993215,0.0248405,2.377,2.57628
-0.9855,0.0248405,2.377,2.57332
-0.977785,0.0248405,2.377,2.57037
-0.970069,0.0248405,2.377,2.56745
-0.962354,0.0248405,2.377,2.56454
-0.954639,0.0248405,2.377,2.56166
-0.946924,0.0248405,2.377,2.55879
-0.939209,0.0248405,2.377,2.55595
-0.931494,0.0248405,2.377,2.55312
-0.923778,0.0248405,2.377,2.55032
-0.916063,0.0248405,2.377,2.54753
-0.914845,0.0250182,2.394,2.56297
-0.907074,0.0250182,2.394,2.5602
-0.899304,0.0250182,2.394,2.55746
-0.891534,0.0250182,2.394,2.55474
-0.890039,0.0251958,2.411,2.57016
-0.882213,0.0251958,2.411,2.56746
-0.874388,0.0251958,2.411,2.56478
-0.866562,0.0251958,2.411,2.56213
-0.858737,0.0251958,2.411,2.55949
-0.850911,0.0251958,2.411,2.55687
-0.84903,0.0253735,2.428,2.57229
-0.84115,0.0253735,2.428,2.5697
-0.833269,0.0253735,2.428,2.56713
-0.825388,0.0253735,2.428,2.56458
-0.823232,0.0255511,2.445,2.58
-0.815296,0.0255511,2.445,2.57748
-0.80736,0.0255511,2.445,2.57498
-0.799424,0.0255511,2.445,2.5725
-0.797315,0.0257392,2.463,2.58897
-0.789321,0.0257392,2.463,2.58651
-0.781326,0.0257392,2.463,2.58409
-0.773332,0.0257392,2.463,2.58168
-0.765338,0.0257392,2.463,2.5793
-0.757344,0.0257392,2.463,2.57694
-0.749349,0.0257392,2.463,2.5746
-0.741355,0.0257392,2.463,2.57228
-0.733361,0.0257392,2.463,2.56999
-0.725366,0.0257392,2.463,2.56772
-0.717372,0.0257392,2.463,2.56547
-0.709378,0.0257392,2.463,2.56325
-0.706509,0.0259273,2.481,2.57977
-0.698457,0.0259273,2.481,2.57757
-0.690404,0.0259273,2.481,2.5754
-0.682351,0.0259273,2.481,2.57325
-0.674299,0.0259273,2.481,2.57113
-0.666246,0.0259273,2.481,2.56903
-0.658193,0.0259273,2.481,2.56695
-0.65014,0.0259273,2.481,2.5649
-0.642088,0.0259273,2.481,2.56287
-0.634035,0.0259273,2.481,2.56087
-0.630524,0.0261154,2.499,2.57745
-0.622413,0.0261154,2.499,2.57548
-0.614302,0.0261154,2.499,2.57353
-0.606191,0.0261154,2.499,2.5716
-0.598079,0.0261154,2.499,2.5697
-0.589968,0.0261154,2.499,2.56783
-0.581857,0.0261154,2.499,2.56598
-0.577879,0.0263036,2.517,2.58262
-0.569709,0.0263036,2.517,2.5808
-0.561539,0.0263036,2.517,2.57901
-0.55337,0.0263036,2.517,2.57725
-0.5452,0.0263036,2.517,2.5755
-0.537031,0.0263036,2.517,2.57379
-0.532853,0.0265021,2.536,2.59151
-0.524622,0.0265021,2.536,2.58983
-0.516391,0.0265021,2.536,2.58818
-0.50816,0.0265021,2.536,2.58655
-0.499929,0.0265021,2.536,2.58494
-0.491697,0.0265021,2.536,2.58336
-0.483466,0.0265021,2.536,2.58181
-0.475235,0.0265021,2.536,2.58028
-0.467004,0.0265021,2.536,2.57878
-0.458772,0.0265021,2.536,2.5773
-0.450541,0.0265021,2.536,2.57585
-0.44231,0.0265021,2.536,2.57442
-0.434079,0.0265021,2.536,2.57302
-0.425848,0.0265021,2.536,2.57164
-0.417616,0.0265021,2.536,2.57029
-0.409385,0.0265021,2.536,2.56897
-0.401154,0.0265021,2.536,2.56767
-0.392923,0.0265021,2.536,2.5664
-0.384691,0.0265021,2.536,2.56515
-0.37646,0.0265021,2.536,2.56393
-0.368229,0.0265021,2.536,2.56273
-0.359998,0.0265021,2.536,2.56156
-0.351766,0.0265021,2.536,2.56042
-0.343535,0.0265021,2.536,2.5593
-0.335304,0.0265021,2.536,2.55821
-0.327073,0.0265021,2.536,2.55714
-0.318842,0.0265021,2.536,2.5561
-0.31061,0.0265021,2.536,2.55509
-0.302379,0.0265021,2.536,2.5541
-0.294148,0.0265021,2.536,2.55314
-0.285917,0.0265021,2.536,2.5522
-0.277685,0.0265021,2.536,2.5513
-0.269454,0.0265021,2.536,2.55041
-0.261223,0.0265021,2.536,2.54956
-0.254887,0.0267007,2.555,2.56782
-0.246594,0.0267007,2.555,2.56701
-0.238301,0.0267007,2.555,2.56623
-0.230009,0.0267007,2.555,2.56547
-0.221716,0.0267007,2.555,2.56474
-0.213423,0.0267007,2.555,2.56404
-0.20513,0.0267007,2.555,2.56336
-0.196837,0.0267007,2.555,2.56271
-0.188544,0.0267007,2.555,2.56209
-0.180251,0.0267007,2.555,2.56149
-0.173237,0.0268992,2.574,2.57996
-0.163665,0.0267007,2.555,2.56038
-0.155372,0.0267007,2.555,2.55986
-0.148173,0.0268992,2.574,2.5784
-0.139819,0.0268992,2.574,2.57794
-0.131464,0.0268992,2.574,2.5775
-0.12311,0.0268992,2.574,2.57708
-0.114755,0.0268992,2.574,2.5767
-0.1064,0.0268992,2.574,2.57634
-0.0980459,0.0268992,2.574,2.57601
-0.0896914,0.0268992,2.574,2.5757
-0.0813368,0.0268992,2.574,2.57543
-0.0729822,0.0268992,2.574,2.57518
-0.0646277,0.0268992,2.574,2.57495
-0.0562731,0.0268992,2.574,2.57476
-0.0479185,0.0268992,2.574,2.57459
-0.039564,0.0268992,2.574,2.57444
-0.0312094,0.0268992,2.574,2.57433
-0.0228548,0.0268992,2.574,2.57424
-0.0145003,0.0268992,2.574,2.57418
-0.00614571,0.0268992,2.574,2.57415
0.00220886,0.0268992,2.574,2.57414
0.0105634,0.0268992,2.574,2.57416
0.018918,0.0268992,2.574,2.57421
0.0272725,0.0268992,2.574,2.57429
0.0356271,0.0268992,2.574,2.57439
0.0439817,0.0268992,2.574,2.57452
0.0523362,0.0268992,2.574,2.57467
0.0606908,0.0268992,2.574,2.57486
0.0690454,0.0268992,2.574,2.57507
0.0773999,0.0268992,2.574,2.5753
0.0851215,0.0267007,2.555,2.55656
0.0934144,0.0267007,2.555,2.55685
0.101707,0.0267007,2.555,2.55716
0.11,0.0267007,2.555,2.55751
0.118293,0.0267007,2.555,2.55788
0.126586,0.0267007,2.555,2.55827
0.134879,0.0267007,2.555,2.5587
0.143172,0.0267007,2.555,2.55915
0.151465,0.0267007,2.555,2.55962
0.159758,0.0267007,2.555,2.56013
0.16805,0.0267007,2.555,2.56066
0.177655,0.0268992,2.574,2.58026
0.184636,0.0267007,2.555,2.5618
0.192929,0.0267007,2.555,2.56241
0.202718,0.0268992,2.574,2.58211
0.211073,0.0268992,2.574,2.58278
0.219428,0.0268992,2.574,2.58348
0.227782,0.0268992,2.574,2.5842
0.236137,0.0268992,2.574,2.58495
0.242687,0.0267007,2.555,2.56664
0.250979,0.0267007,2.555,2.56744
0.259272,0.0267007,2.555,2.56826
0.267565,0.0267007,2.555,2.56911
0.275858,0.0267007,2.555,2.56999
0.284151,0.0267007,2.555,2.57089
0.292444,0.0267007,2.555,2.57182
0.2985,0.0265021,2.536,2.55364
0.306732,0.0265021,2.536,2.55462
nan,nan,nan,NaN
nan,nan,nan,NaN
0.331425,0.0265021,2.536,2.5577
0.339657,0.0265021,2.536,2.55878
0.347888,0.0265021,2.536,2.55989
nan,nan,nan,NaN
nan,nan,nan,NaN
nan,nan,nan,NaN
nan,nan,nan,NaN
nan,nan,nan,NaN
nan,nan,nan,NaN
nan,nan,nan,NaN
nan,nan,nan,NaN
nan,nan,nan,NaN
nan,nan,nan,NaN
nan,nan,nan,NaN
nan,nan,nan,NaN
nan,nan,nan,NaN
nan,nan,nan,NaN
nan,nan,nan,NaN
nan,nan,nan,NaN
nan,nan,nan,NaN
nan,nan,nan,NaN
nan,nan,nan,NaN
nan,nan,nan,NaN
nan,nan,nan,NaN
nan,nan,nan,NaN
nan,nan,nan,NaN
nan,nan,nan,NaN
nan,nan,nan,NaN
nan,nan,nan,NaN
nan,nan,nan,NaN
nan,nan,nan,NaN
nan,nan,nan,NaN
nan,nan,nan,NaN
nan,nan,nan,NaN
nan,nan,nan,NaN
nan,nan,nan,NaN
0.623046,0.0263036,2.517,2.5931
0.631216,0.0263036,2.517,2.59508
0.634813,0.0261154,2.499,2.5785
0.642924,0.0261154,2.499,2.58051
0.651035,0.0261154,2.499,2.58254
0.659146,0.0261154,2.499,2.5846
0.672064,0.0263036,2.517,2.60531
0.680233,0.0263036,2.517,2.60743
0.688403,0.0263036,2.517,2.60957
0.696572,0.0263036,2.517,2.61174
0.704742,0.0263036,2.517,2.61393
0.718293,0.0265021,2.536,2.6359
0.726524,0.0265021,2.536,2.63815
0.734755,0.0265021,2.536,2.64043
0.742987,0.0265021,2.536,2.64273
0.751218,0.0265021,2.536,2.64506
0.759449,0.0265021,2.536,2.64741
0.773432,0.0267007,2.555,2.66963
0.781725,0.0267007,2.555,2.67205
0.790018,0.0267007,2.555,2.67448
0.798311,0.0267007,2.555,2.67695
0.806603,0.0267007,2.555,2.67943
0.814896,0.0267007,2.555,2.68194
0.829311,0.0268992,2.574,2.70443
0.837665,0.0268992,2.574,2.70701
0.84602,0.0268992,2.574,2.7096
0.854374,0.0268992,2.574,2.71222
0.862729,0.0268992,2.574,2.71487
0.871084,0.0268992,2.574,2.71753
0.879438,0.0268992,2.574,2.72022
0.887793,0.0268992,2.574,2.72294
0.889532,0.0267007,2.555,2.70555
0.897825,0.0267007,2.555,2.70829
0.906118,0.0267007,2.555,2.71105
0.914411,0.0267007,2.555,2.71383
0.915842,0.0265021,2.536,2.69644
0.924074,0.0265021,2.536,2.69924
0.932305,0.0265021,2.536,2.70207
0.940536,0.0265021,2.536,2.70492
0.941659,0.0263036,2.517,2.68751
0.949829,0.0263036,2.517,2.69038
0.957998,0.0263036,2.517,2.69328
0.959258,0.0261154,2.499,2.67691
0.967369,0.0261154,2.499,2.67983
0.975481,0.0261154,2.499,2.68277
0.983592,0.0261154,2.499,2.68573
0.991703,0.0261154,2.499,2.68871
0.992612,0.0259273,2.481,2.67232
1.00067,0.0259273,2.481,2.67533
1.00872,0.0259273,2.481,2.67835
1.02415,0.0261154,2.499,2.70084
1.03226,0.0261154,2.499,2.70393
1.04037,0.0261154,2.499,2.70704
1.04848,0.0261154,2.499,2.71017
1.05659,0.0261154,2.499,2.71331
1.0647,0.0261154,2.499,2.71648
1.08054,0.0263036,2.517,2.73926
1.08871,0.0263036,2.517,2.74249
1.10516,0.0265021,2.536,2.76647
1.12173,0.0267007,2.555,2.79052
1.13843,0.0268992,2.574,2.81464
1.14678,0.0268992,2.574,2.81803
1.15514,0.0268992,2.574,2.82144
1.18112,0.0273068,2.613,2.86768
1.1896,0.0273068,2.613,2.87118
1.20725,0.0275158,2.633,2.89671
1.2255,0.0277353,2.654,2.92341
1.23411,0.0277353,2.654,2.92703
1.25256,0.0279547,2.675,2.95386
1.26124,0.0279547,2.675,2.95756
1.27989,0.0281742,2.696,2.98452
1.28864,0.0281742,2.696,2.98828
1.3075,0.0283936,2.717,3.01537
1.32698,0.0286235,2.739,3.04365
1.33587,0.0286235,2.739,3.04754
1.34476,0.0286235,2.739,3.05144
1.36452,0.0288534,2.761,3.07991
1.37348,0.0288534,2.761,3.08389
1.39346,0.0290833,2.783,3.1125
1.41408,0.0293237,2.806,3.14231
1.43486,0.0295641,2.829,3.17221
1.44404,0.0295641,2.829,3.17638
1.47788,0.0300657,2.877,3.23453
1.51254,0.0305777,2.926,3.29396
1.52204,0.0305777,2.926,3.29834
1.54462,0.030839,2.951,3.33095
1.5679,0.0311107,2.977,3.36479
1.57756,0.0311107,2.977,3.3693
1.61548,0.0316646,3.03,3.4339
1.6398,0.0319467,3.057,3.46918
1.64972,0.0319467,3.057,3.47388
1.64498,0.0316646,3.03,3.44788
1.65482,0.0316646,3.03,3.45258
1.66465,0.0316646,3.03,3.45731
1.67449,0.0316646,3.03,3.46205
1.66931,0.0313824,3.003,3.43593
1.67906,0.0313824,3.003,3.44067
1.68881,0.0313824,3.003,3.44544
1.68385,0.0311107,2.977,3.42036
1.69351,0.0311107,2.977,3.42512
1.6883,0.030839,2.951,3.39996
1.69788,0.030839,2.951,3.40472
1.70745,0.030839,2.951,3.40951
1.70249,0.0305777,2.926,3.38539
1.71198,0.0305777,2.926,3.39018
1.73619,0.030839,2.951,3.42399
1.74577,0.030839,2.951,3.42886
1.74047,0.0305777,2.926,3.40465
1.74997,0.0305777,2.926,3.40952
1.75947,0.0305777,2.926,3.4144
1.76897,0.0305777,2.926,3.41931
1.77846,0.0305777,2.926,3.42423
1.78796,0.0305777,2.926,3.42917
1.7821,0.0303165,2.901,3.40479
1.79152,0.0303165,2.901,3.40973
1.80093,0.0303165,2.901,3.41469
1.79537,0.0300657,2.877,3.39137
1.7746,0.0295641,2.829,3.33966
1.78378,0.0295641,2.829,3.34455
1.77839,0.0293237,2.806,3.32222
1.75883,0.0288534,2.761,3.27375
1.73962,0.0283936,2.717,3.22632
1.74844,0.0283936,2.717,3.23109
1.73009,0.0279547,2.675,3.18585
1.72512,0.0277353,2.654,3.16552
1.73374,0.0277353,2.654,3.17023
1.71543,0.0273068,2.613,3.1259
1.69819,0.0268992,2.574,3.08383
1.70654,0.0268992,2.574,3.08844
1.70224,0.0267007,2.555,3.07024
1.68509,0.0263036,2.517,3.02911
1.69326,0.0263036,2.517,3.03366
1.68926,0.0261154,2.499,3.0165
1.68515,0.0259273,2.481,2.99929
-1.9154,0.0378124,2.761,3.36055
-1.89124,0.0375111,2.739,3.32871
-1.88235,0.0375111,2.739,3.32367
-1.85842,0.0372098,2.717,3.29199
-1.8496,0.0372098,2.717,3.28702
-1.84078,0.0372098,2.717,3.28206
-1.8178,0.0369222,2.696,3.2518
-1.80905,0.0369222,2.696,3.24691
-1.8003,0.0369222,2.696,3.24205
-1.79155,0.0369222,2.696,3.23719
-1.7828,0.0369222,2.696,3.23236
-1.77405,0.0369222,2.696,3.22754
-1.7653,0.0369222,2.696,3.22274
-1.75655,0.0369222,2.696,3.21795
-1.7478,0.0369222,2.696,3.21319
-1.73905,0.0369222,2.696,3.20844
-1.73029,0.0369222,2.696,3.2037
-1.70813,0.0366346,2.675,3.17407
-1.69945,0.0366346,2.675,3.1694
-1.69077,0.0366346,2.675,3.16475
-1.68209,0.0366346,2.675,3.16012
-1.6734,0.0366346,2.675,3.15551
-1.67779,0.0369222,2.696,3.17565
-1.66904,0.0369222,2.696,3.17104
-1.66029,0.0369222,2.696,3.16644
-1.65154,0.0369222,2.696,3.16186
-1.64279,0.0369222,2.696,3.1573
-1.64677,0.0372098,2.717,3.17731
-1.65121,0.0375111,2.739,3.19844
-1.64232,0.0375111,2.739,3.19386
-1.64655,0.0378124,2.761,3.21492
-1.63759,0.0378124,2.761,3.21033
-1.62863,0.0378124,2.761,3.20577
-1.61967,0.0378124,2.761,3.20123
-1.6107,0.0378124,2.761,3.1967
-1.60174,0.0378124,2.761,3.1922
-1.58009,0.0375111,2.739,3.16231
-1.5712,0.0375111,2.739,3.15788
-1.56231,0.0375111,2.739,3.15346
-1.54094,0.0372098,2.717,3.12378
-1.53212,0.0372098,2.717,3.11944
-1.51153,0.0369222,2.696,3.09104
-1.50278,0.0369222,2.696,3.08677
-1.48239,0.0366346,2.675,3.05851
-1.47371,0.0366346,2.675,3.05431
-1.46503,0.0366346,2.675,3.05013
-1.44491,0.036347,2.654,3.02205
-1.4363,0.036347,2.654,3.01794
-1.42768,0.036347,2.654,3.01385
-1.41907,0.036347,2.654,3.00978
-1.3993,0.0360594,2.633,2.98195
-1.39075,0.0360594,2.633,2.97795
-1.3717,0.0357855,2.613,2.95138
-1.35279,0.0355116,2.593,2.92488
-1.34437,0.0355116,2.593,2.921
-1.33596,0.0355116,2.593,2.91714
-1.31781,0.0352514,2.574,2.89195
-1.29979,0.0349912,2.555,2.86683
-1.2915,0.0349912,2.555,2.86308
-1.27366,0.034731,2.536,2.83808
-1.24697,0.0342243,2.499,2.79305
-1.23886,0.0342243,2.499,2.78943
-1.22188,0.0339778,2.481,2.76578
-1.20502,0.0337313,2.463,2.74219
-1.19703,0.0337313,2.463,2.73868
-1.18904,0.0337313,2.463,2.7352
-1.17241,0.0334848,2.445,2.71177
-1.15638,0.0332519,2.428,2.68952
-1.1485,0.0332519,2.428,2.68614
-1.14062,0.0332519,2.428,2.68278
-1.1248,0.0330191,2.411,2.66068
-1.11698,0.0330191,2.411,2.65738
-1.10915,0.0330191,2.411,2.6541
-1.10133,0.0330191,2.411,2.65084
-1.0935,0.0330191,2.411,2.64759
-1.08568,0.0330191,2.411,2.64437
-1.07025,0.0327863,2.394,2.62255
-1.06248,0.0327863,2.394,2.61938
-1.05471,0.0327863,2.394,2.61624
-1.03951,0.0325535,2.377,2.59456
-1.03179,0.0325535,2.377,2.59148
-1.02408,0.0325535,2.377,2.58842
-1.01636,0.0325535,2.377,2.58538
-1.00865,0.0325535,2.377,2.58235
-1.00093,0.0325535,2.377,2.57935
-0.993215,0.0325535,2.377,2.57637
-0.9855,0.0325535,2.377,2.5734
-0.977785,0.0325535,2.377,2.57046
-0.970069,0.0325535,2.377,2.56753
-0.962354,0.0325535,2.377,2.56463
-0.954639,0.0325535,2.377,2.56174
-0.946924,0.0325535,2.377,2.55888
-0.939209,0.0325535,2.377,2.55603
-0.931494,0.0325535,2.377,2.55321
-0.923778,0.0325535,2.377,2.5504
-0.916063,0.0325535,2.377,2.54762
-0.914845,0.0327863,2.394,2.56306
-0.907074,0.0327863,2.394,2.56029
-0.899304,0.0327863,2.394,2.55755
-0.891534,0.0327863,2.394,2.55483
-0.890039,0.0330191,2.411,2.57025
-0.882213,0.0330191,2.411,2.56755
-0.874388,0.0330191,2.411,2.56487
-0.866562,0.0330191,2.411,2.56221
-0.858737,0.0330191,2.411,2.55958
-0.850911,0.0330191,2.411,2.55696
-0.84903,0.0332519,2.428,2.57238
-0.84115,0.0332519,2.428,2.56979
-0.833269,0.0332519,2.428,2.56722
-0.825388,0.0332519,2.428,2.56467
-0.823232,0.0334848,2.445,2.58009
-0.815296,0.0334848,2.445,2.57757
-0.80736,0.0334848,2.445,2.57507
-0.799424,0.0334848,2.445,2.57259
-0.797315,0.0337313,2.463,2.58906
-0.789321,0.0337313,2.463,2.58661
-0.781326,0.0337313,2.463,2.58418
-0.773332,0.0337313,2.463,2.58177
-0.765338,0.0337313,2.463,2.57939
-0.757344,0.0337313,2.463,2.57703
-0.749349,0.0337313,2.463,2.57469
-0.741355,0.0337313,2.463,2.57238
-0.73872,0.0339778,2.481,2.58887
-0.730668,0.0339778,2.481,2.58658
-0.722615,0.0339778,2.481,2.58432
-0.714562,0.0339778,2.481,2.58208
-0.706509,0.0339778,2.481,2.57986
-0.698457,0.0339778,2.481,2.57767
-0.690404,0.0339778,2.481,2.5755
-0.682351,0.0339778,2.481,2.57335
-0.674299,0.0339778,2.481,2.57122
-0.666246,0.0339778,2.481,2.56912
-0.658193,0.0339778,2.481,2.56705
-0.65014,0.0339778,2.481,2.565
-0.642088,0.0339778,2.481,2.56297
-0.634035,0.0339778,2.481,2.56096
-0.630524,0.0342243,2.499,2.57754
-0.622413,0.0342243,2.499,2.57557
-0.614302,0.0342243,2.499,2.57362
-0.606191,0.0342243,2.499,2.5717
-0.598079,0.0342243,2.499,2.5698
-0.589968,0.0342243,2.499,2.56792
-0.581857,0.0342243,2.499,2.56607
-0.577879,0.0344708,2.517,2.58272
-0.569709,0.0344708,2.517,2.5809
-0.561539,0.0344708,2.517,2.57911
-0.55337,0.0344708,2.517,2.57734
-0.5452,0.0344708,2.517,2.5756
-0.537031,0.0344708,2.517,2.57388
-0.532853,0.034731,2.536,2.59161
-0.524622,0.034731,2.536,2.58993
-0.516391,0.034731,2.536,2.58827
-0.50816,0.034731,2.536,2.58664
-0.499929,0.034731,2.536,2.58504
-0.491697,0.034731,2.536,2.58346
-0.483466,0.034731,2.536,2.58191
-0.475235,0.034731,2.536,2.58038
-0.467004,0.034731,2.536,2.57887
-0.458772,0.034731,2.536,2.5774
-0.450541,0.034731,2.536,2.57594
-0.44231,0.034731,2.536,2.57452
-0.434079,0.034731,2.536,2.57312
-0.425848,0.034731,2.536,2.57174
-0.417616,0.034731,2.536,2.57039
-0.409385,0.034731,2.536,2.56907
-0.401154,0.034731,2.536,2.56777
-0.392923,0.034731,2.536,2.56649
-0.384691,0.034731,2.536,2.56525
-0.37646,0.034731,2.536,2.56403
-0.368229,0.034731,2.536,2.56283
-0.359998,0.034731,2.536,2.56166
-0.351766,0.034731,2.536,2.56052
-0.343535,0.034731,2.536,2.5594
-0.335304,0.034731,2.536,2.55831
-0.327073,0.034731,2.536,2.55724
-0.318842,0.034731,2.536,2.5562
-0.31061,0.034731,2.536,2.55519
-0.302379,0.034731,2.536,2.5542
-0.294148,0.034731,2.536,2.55324
-0.285917,0.034731,2.536,2.5523
-0.277685,0.034731,2.536,2.55139
-0.269454,0.034731,2.536,2.55051
-0.261223,0.034731,2.536,2.54965
-0.254887,0.0349912,2.555,2.56792
-0.246594,0.0349912,2.555,2.56711
-0.238301,0.0349912,2.555,2.56633
-0.230009,0.0349912,2.555,2.56557
-0.221716,0.0349912,2.555,2.56484
-0.213423,0.0349912,2.555,2.56414
-0.20513,0.0349912,2.555,2.56346
-0.196837,0.0349912,2.555,2.56281
-0.188544,0.0349912,2.555,2.56219
-0.180251,0.0349912,2.555,2.56159
-0.173237,0.0352514,2.574,2.58006
-0.163665,0.0349912,2.555,2.56048
-0.155372,0.0349912,2.555,2.55996
-0.148173,0.0352514,2.574,2.5785
-0.139819,0.0352514,2.574,2.57804
-0.131464,0.0352514,2.574,2.5776
-0.12311,0.0352514,2.574,2.57718
-0.114755,0.0352514,2.574,2.5768
-0.1064,0.0352514,2.574,2.57644
-0.0980459,0.0352514,2.574,2.57611
-0.0896914,0.0352514,2.574,2.5758
-0.0813368,0.0352514,2.574,2.57553
-0.0729822,0.0352514,2.574,2.57528
-0.0646277,0.0352514,2.574,2.57505
-0.0562731,0.0352514,2.574,2.57486
-0.0479185,0.0352514,2.574,2.57469
-0.039564,0.0352514,2.574,2.57455
-0.0312094,0.0352514,2.574,2.57443
-0.0228548,0.0352514,2.574,2.57434
-0.0145003,0.0352514,2.574,2.57428
-0.00614571,0.0352514,2.574,2.57425
0.00220886,0.0352514,2.574,2.57424
0.0105634,0.0352514,2.574,2.57426
0.018918,0.0352514,2.574,2.57431
0.0272725,0.0352514,2.574,2.57439
0.0356271,0.0352514,2.574,2.57449
0.0439817,0.0352514,2.574,2.57462
0.0523362,0.0352514,2.574,2.57477
0.0606908,0.0352514,2.574,2.57496
0.0690454,0.0352514,2.574,2.57517
0.0773999,0.0352514,2.574,2.5754
0.0851215,0.0349912,2.555,2.55666
0.0934144,0.0349912,2.555,2.55695
0.101707,0.0349912,2.555,2.55726
0.11,0.0349912,2.555,2.55761
0.118293,0.0349912,2.555,2.55798
0.126586,0.0349912,2.555,2.55837
0.134879,0.0349912,2.555,2.5588
0.143172,0.0349912,2.555,2.55925
0.151465,0.0349912,2.555,2.55972
0.159758,0.0349912,2.555,2.56023
0.16805,0.0349912,2.555,2.56076
0.177655,0.0352514,2.574,2.58036
0.184636,0.0349912,2.555,2.5619
0.192929,0.0349912,2.555,2.56251
0.201222,0.0349912,2.555,2.56315
0.209515,0.0349912,2.555,2.56381
0.217808,0.0349912,2.555,2.56451
0.226101,0.0349912,2.555,2.56522
0.234394,0.0349912,2.555,2.56597
0.242687,0.0349912,2.555,2.56674
0.250979,0.0349912,2.555,2.56754
0.259272,0.0349912,2.555,2.56836
0.267565,0.0349912,2.555,2.56921
0.275858,0.0349912,2.555,2.57009
0.284151,0.0349912,2.555,2.57099
0.290269,0.034731,2.536,2.55279
0.2985,0.034731,2.536,2.55374
0.306732,0.034731,2.536,2.55472
nan,nan,nan,NaN
nan,nan,nan,NaN
0.331425,0.034731,2.536,2.5578
0.339657,0.034731,2.536,2.55888
0.347888,0.034731,2.536,2.55999
nan,nan,nan,NaN
nan,nan,nan,NaN
nan,nan,nan,NaN
nan,nan,nan,NaN
nan,nan,nan,NaN
nan,nan,nan,NaN
nan,nan,nan,NaN
nan,nan,nan,NaN
nan,nan,nan,NaN
nan,nan,nan,NaN
nan,nan,nan,NaN
nan,nan,nan,NaN
nan,nan,nan,NaN
nan,nan,nan,NaN
nan,nan,nan,NaN
nan,nan,nan,NaN
nan,nan,nan,NaN
nan,nan,nan,NaN
nan,nan,nan,NaN
nan,nan,nan,NaN
nan,nan,nan,NaN
nan,nan,nan,NaN
nan,nan,nan,NaN
nan,nan,nan,NaN
nan,nan,nan,NaN
nan,nan,nan,NaN
nan,nan,nan,NaN
nan,nan,nan,NaN
nan,nan,nan,NaN
nan,nan,nan,NaN
nan,nan,nan,NaN
nan,nan,nan,NaN
nan,nan,nan,NaN
0.623046,0.0344708,2.517,2.5932
0.631216,0.0344708,2.517,2.59517
0.634813,0.0342243,2.499,2.5786
0.638293,0.0339778,2.481,2.56202
0.646346,0.0339778,2.481,2.56404
0.654399,0.0339778,2.481,2.56608
0.667257,0.0342243,2.499,2.58678
nan,nan,nan,NaN
0.688403,0.0344708,2.517,2.60967
0.696572,0.0344708,2.517,2.61184
0.704742,0.0344708,2.517,2.61403
0.718293,0.034731,2.536,2.63599
0.726524,0.034731,2.536,2.63825
0.734755,0.034731,2.536,2.64052
0.742987,0.034731,2.536,2.64283
0.751218,0.034731,2.536,2.64515
0.765139,0.0349912,2.555,2.66734
0.773432,0.0349912,2.555,2.66973
0.781725,0.0349912,2.555,2.67214
0.790018,0.0349912,2.555,2.67458
0.798311,0.0349912,2.555,2.67704
0.806603,0.0349912,2.555,2.67953
0.814896,0.0349912,2.555,2.68203
0.829311,0.0352514,2.574,2.70453
0.837665,0.0352514,2.574,2.7071
0.84602,0.0352514,2.574,2.7097
0.854374,0.0352514,2.574,2.71232
0.862729,0.0352514,2.574,2.71496
0.871084,0.0352514,2.574,2.71763
0.879438,0.0352514,2.574,2.72032
0.887793,0.0352514,2.574,2.72303
0.889532,0.0349912,2.555,2.70565
0.897825,0.0349912,2.555,2.70838
0.906118,0.0349912,2.555,2.71114
0.914411,0.0349912,2.555,2.71393
0.915842,0.034731,2.536,2.69653
0.924074,0.034731,2.536,2.69934
0.932305,0.034731,2.536,2.70216
0.940536,0.034731,2.536,2.70502
0.941659,0.0344708,2.517,2.6876
0.949829,0.0344708,2.517,2.69047
0.957998,0.0344708,2.517,2.69337
0.959258,0.0342243,2.499,2.677
0.967369,0.0342243,2.499,2.67992
0.975481,0.0342243,2.499,2.68286
0.976507,0.0339778,2.481,2.66647
0.98456,0.0339778,2.481,2.66943
0.992612,0.0339778,2.481,2.67241
1.00067,0.0339778,2.481,2.67542
1.00872,0.0339778,2.481,2.67844
1.02415,0.0342243,2.499,2.70094
1.03226,0.0342243,2.499,2.70402
1.04037,0.0342243,2.499,2.70713
1.04848,0.0342243,2.499,2.71026
1.05659,0.0342243,2.499,2.7134
1.0647,0.0342243,2.499,2.71657
1.08054,0.0344708,2.517,2.73935
1.08871,0.0344708,2.517,2.74258
1.10516,0.034731,2.536,2.76657
1.12173,0.0349912,2.555,2.79062
1.13843,0.0352514,2.574,2.81474
1.14678,0.0352514,2.574,2.81813
1.15514,0.0352514,2.574,2.82154
1.18112,0.0357855,2.613,2.86777
1.1896,0.0357855,2.613,2.87127
1.20725,0.0360594,2.633,2.8968
1.2255,0.036347,2.654,2.92351
1.23411,0.036347,2.654,2.92713
1.25256,0.0366346,2.675,2.95396
1.26124,0.0366346,2.675,2.95765
1.27989,0.0369222,2.696,2.98461
1.28864,0.0369222,2.696,2.98837
1.3075,0.0372098,2.717,3.01547
1.32698,0.0375111,2.739,3.04375
1.33587,0.0375111,2.739,3.04763
1.34476,0.0375111,2.739,3.05154
1.36452,0.0378124,2.761,3.08001
1.37348,0.0378124,2.761,3.08399
1.39346,0.0381137,2.783,3.1126
1.41408,0.0384287,2.806,3.14241
1.43486,0.0387437,2.829,3.17231
1.44404,0.0387437,2.829,3.17647
1.47788,0.0394011,2.877,3.23463
1.51254,0.0400721,2.926,3.29407
1.52204,0.0400721,2.926,3.29844
1.54462,0.0404145,2.951,3.33105
1.5679,0.0407706,2.977,3.36489
1.57756,0.0407706,2.977,3.3694
1.61548,0.0414964,3.03,3.43401
1.6398,0.0418662,3.057,3.46928
1.64972,0.0418662,3.057,3.47399
1.65964,0.0418662,3.057,3.47871
1.66956,0.0418662,3.057,3.48345
1.67949,0.0418662,3.057,3.48822
1.67449,0.0414964,3.03,3.46216
1.68432,0.0414964,3.03,3.46692
1.69416,0.0414964,3.03,3.47171
1.68881,0.0411267,3.003,3.44554
1.69855,0.0411267,3.003,3.45033
1.7083,0.0411267,3.003,3.45514
1.70317,0.0407706,2.977,3.43001
1.69788,0.0404145,2.951,3.40482
1.70745,0.0404145,2.951,3.40961
1.71703,0.0404145,2.951,3.41442
1.72661,0.0404145,2.951,3.41924
1.73619,0.0404145,2.951,3.42409
1.74577,0.0404145,2.951,3.42896
1.75535,0.0404145,2.951,3.43384
1.76492,0.0404145,2.951,3.43875
1.7745,0.0404145,2.951,3.44367
1.76897,0.0400721,2.926,3.4194
1.77846,0.0400721,2.926,3.42433
1.78796,0.0400721,2.926,3.42927
1.79746,0.0400721,2.926,3.43423
1.79152,0.0397298,2.901,3.40983
1.80093,0.0397298,2.901,3.41478
1.79537,0.0394011,2.877,3.39146
1.7746,0.0387437,2.829,3.33975
1.78378,0.0387437,2.829,3.34464
1.77839,0.0384287,2.806,3.32231
1.75883,0.0378124,2.761,3.27384
1.73962,0.0372098,2.717,3.22641
1.74844,0.0372098,2.717,3.23118
1.73009,0.0366346,2.675,3.18593
1.72512,0.036347,2.654,3.16561
1.73374,0.036347,2.654,3.17031
1.71543,0.0357855,2.613,3.12598
1.69819,0.0352514,2.574,3.08392
1.70654,0.0352514,2.574,3.08853
1.68958,0.034731,2.536,3.04749
1.68509,0.0344708,2.517,3.02919
1.69326,0.0344708,2.517,3.03374
1.68926,0.0342243,2.499,3.01658
1.68515,0.0339778,2.481,2.99937
-1.9154,0.0467714,2.761,3.36066
-1.89124,0.0463987,2.739,3.32883
-1.88235,0.0463987,2.739,3.32378
-1.85842,0.0460261,2.717,3.2921
-1.8496,0.0460261,2.717,3.28713
-1.84078,0.0460261,2.717,3.28218
-1.8178,0.0456703,2.696,3.25191
-1.80905,0.0456703,2.696,3.24702
-1.8003,0.0456703,2.696,3.24216
-1.79155,0.0456703,2.696,3.23731
-1.7828,0.0456703,2.696,3.23247
-1.77405,0.0456703,2.696,3.22765
-1.7653,0.0456703,2.696,3.22285
-1.75655,0.0456703,2.696,3.21807
-1.7478,0.0456703,2.696,3.2133
-1.73905,0.0456703,2.696,3.20855
-1.71682,0.0453146,2.675,3.17886
-1.70813,0.0453146,2.675,3.17418
-1.69945,0.0453146,2.675,3.16951
-1.6775,0.0449588,2.654,3.14002
-1.66888,0.0449588,2.654,3.13543
-1.66027,0.0449588,2.654,3.13085
-1.65165,0.0449588,2.654,3.12629
-1.64304,0.0449588,2.654,3.12175
-1.63443,0.0449588,2.654,3.11722
-1.63868,0.0453146,2.675,3.13735
-1.62999,0.0453146,2.675,3.13282
-1.62131,0.0453146,2.675,3.12831
-1.62529,0.0456703,2.696,3.14834
-1.61654,0.0456703,2.696,3.14383
-1.62031,0.0460261,2.717,3.1638
-1.62454,0.0463987,2.739,3.18487
-1.61565,0.0463987,2.739,3.18035
-1.60676,0.0463987,2.739,3.17584
-1.59787,0.0463987,2.739,3.17135
-1.58898,0.0463987,2.739,3.16688
-1.58009,0.0463987,2.739,3.16243
-1.5712,0.0463987,2.739,3.158
-1.56231,0.0463987,2.739,3.15358
-1.52903,0.0456703,2.696,3.09975
-1.52028,0.0456703,2.696,3.09544
-1.51153,0.0456703,2.696,3.09115
-1.50278,0.0456703,2.696,3.08688
-1.48239,0.0453146,2.675,3.05862
-1.47371,0.0453146,2.675,3.05442
-1.46503,0.0453146,2.675,3.05024
-1.44491,0.0449588,2.654,3.02217
-1.4363,0.0449588,2.654,3.01806
-1.42768,0.0449588,2.654,3.01397
-1.40784,0.0446031,2.633,2.98608
-1.38867,0.0442643,2.613,2.95941
-1.38019,0.0442643,2.613,2.95544
-1.3612,0.0439255,2.593,2.9289
-1.35279,0.0439255,2.593,2.925
-1.33452,0.0436036,2.574,2.89971
-1.32617,0.0436036,2.574,2.89588
-1.30808,0.0432818,2.555,2.87071
-1.29013,0.0429599,2.536,2.84562
-1.2819,0.0429599,2.536,2.8419
-1.26412,0.0426381,2.517,2.81693
-1.24697,0.0423331,2.499,2.79316
-1.23886,0.0423331,2.499,2.78955
-1.22188,0.0420282,2.481,2.76589
-1.20502,0.0417233,2.463,2.7423
-1.19703,0.0417233,2.463,2.73879
-1.18904,0.0417233,2.463,2.73531
-1.17241,0.0414184,2.445,2.71188
-1.16447,0.0414184,2.445,2.70846
-1.15654,0.0414184,2.445,2.70505
-1.14062,0.0411304,2.428,2.68289
-1.13274,0.0411304,2.428,2.67955
-1.12485,0.0411304,2.428,2.67622
-1.10915,0.0408424,2.411,2.65421
-1.10133,0.0408424,2.411,2.65095
-1.0935,0.0408424,2.411,2.6477
-1.08568,0.0408424,2.411,2.64448
-1.07025,0.0405544,2.394,2.62265
-1.06248,0.0405544,2.394,2.61949
-1.05471,0.0405544,2.394,2.61635
-1.04694,0.0405544,2.394,2.61323
-1.03179,0.0402665,2.377,2.59159
-1.02408,0.0402665,2.377,2.58853
-1.01636,0.0402665,2.377,2.58549
-1.00865,0.0402665,2.377,2.58246
-1.00093,0.0402665,2.377,2.57946
-0.993215,0.0402665,2.377,2.57648
-0.9855,0.0402665,2.377,2.57351
-0.977785,0.0402665,2.377,2.57057
-0.970069,0.0402665,2.377,2.56764
-0.962354,0.0402665,2.377,2.56474
-0.954639,0.0402665,2.377,2.56185
-0.946924,0.0402665,2.377,2.55899
-0.939209,0.0402665,2.377,2.55614
-0.931494,0.0402665,2.377,2.55332
-0.930385,0.0405544,2.394,2.56875
-0.922615,0.0405544,2.394,2.56595
-0.914845,0.0405544,2.394,2.56317
-0.907074,0.0405544,2.394,2.5604
-0.899304,0.0405544,2.394,2.55766
-0.891534,0.0405544,2.394,2.55494
-0.890039,0.0408424,2.411,2.57036
-0.882213,0.0408424,2.411,2.56766
-0.874388,0.0408424,2.411,2.56498
-0.866562,0.0408424,2.411,2.56233
-0.858737,0.0408424,2.411,2.55969
-0.850911,0.0408424,2.411,2.55708
-0.84903,0.0411304,2.428,2.57249
-0.84115,0.0411304,2.428,2.5699
-0.833269,0.0411304,2.428,2.56734
-0.825388,0.0411304,2.428,2.56479
-0.823232,0.0414184,2.445,2.5802
-0.815296,0.0414184,2.445,2.57768
-0.80736,0.0414184,2.445,2.57518
-0.799424,0.0414184,2.445,2.57271
-0.797315,0.0417233,2.463,2.58917
-0.789321,0.0417233,2.463,2.58672
-0.781326,0.0417233,2.463,2.5843
-0.773332,0.0417233,2.463,2.58189
-0.765338,0.0417233,2.463,2.57951
-0.757344,0.0417233,2.463,2.57715
-0.754826,0.0420282,2.481,2.59362
-0.746773,0.0420282,2.481,2.59129
-0.73872,0.0420282,2.481,2.58898
-0.730668,0.0420282,2.481,2.5867
-0.722615,0.0420282,2.481,2.58443
-0.714562,0.0420282,2.481,2.58219
-0.706509,0.0420282,2.481,2.57998
-0.698457,0.0420282,2.481,2.57778
-0.690404,0.0420282,2.481,2.57561
-0.682351,0.0420282,2.481,2.57347
-0.674299,0.0420282,2.481,2.57134
-0.666246,0.0420282,2.481,2.56924
-0.658193,0.0420282,2.481,2.56717
-0.65014,0.0420282,2.481,2.56511
-0.642088,0.0420282,2.481,2.56309
-0.634035,0.0420282,2.481,2.56108
-0.630524,0.0423331,2.499,2.57766
-0.622413,0.0423331,2.499,2.57569
-0.614302,0.0423331,2.499,2.57374
-0.606191,0.0423331,2.499,2.57182
-0.598079,0.0423331,2.499,2.56992
-0.589968,0.0423331,2.499,2.56805
-0.581857,0.0423331,2.499,2.56619
-0.577879,0.0426381,2.517,2.58284
-0.569709,0.0426381,2.517,2.58102
-0.561539,0.0426381,2.517,2.57923
-0.55337,0.0426381,2.517,2.57747
-0.5452,0.0426381,2.517,2.57572
-0.537031,0.0426381,2.517,2.57401
-0.532853,0.0429599,2.536,2.59173
-0.524622,0.0429599,2.536,2.59005
-0.516391,0.0429599,2.536,2.5884
-0.50816,0.0429599,2.536,2.58677
-0.499929,0.0429599,2.536,2.58516
-0.491697,0.0429599,2.536,2.58358
-0.483466,0.0429599,2.536,2.58203
-0.475235,0.0429599,2.536,2.5805
-0.467004,0.0429599,2.536,2.579
-0.458772,0.0429599,2.536,2.57752
-0.450541,0.0429599,2.536,2.57607
-0.44231,0.0429599,2.536,2.57464
-0.434079,0.0429599,2.536,2.57324
-0.425848,0.0429599,2.536,2.57186
-0.417616,0.0429599,2.536,2.57051
-0.409385,0.0429599,2.536,2.56919
-0.401154,0.0429599,2.536,2.56789
-0.392923,0.0429599,2.536,2.56662
-0.384691,0.0429599,2.536,2.56537
-0.37646,0.0429599,2.536,2.56415
-0.368229,0.0429599,2.536,2.56295
-0.359998,0.0429599,2.536,2.56178
-0.351766,0.0429599,2.536,2.56064
-0.343535,0.0429599,2.536,2.55952
-0.335304,0.0429599,2.536,2.55843
-0.327073,0.0429599,2.536,2.55737
-0.318842,0.0429599,2.536,2.55633
-0.31061,0.0429599,2.536,2.55531
-0.302379,0.0429599,2.536,2.55432
-0.294148,0.0429599,2.536,2.55336
-0.285917,0.0429599,2.536,2.55243
-0.277685,0.0429599,2.536,2.55152
-0.269454,0.0429599,2.536,2.55064
-0.261223,0.0429599,2.536,2.54978
-0.254887,0.0432818,2.555,2.56805
-0.246594,0.0432818,2.555,2.56724
-0.238301,0.0432818,2.555,2.56645
-0.230009,0.0432818,2.555,2.5657
-0.221716,0.0432818,2.555,2.56497
-0.213423,0.0432818,2.555,2.56426
-0.20513,0.0432818,2.555,2.56359
-0.196837,0.0432818,2.555,2.56294
-0.188544,0.0432818,2.555,2.56231
-0.180251,0.0432818,2.555,2.56172
-0.171958,0.0432818,2.555,2.56115
-0.163665,0.0432818,2.555,2.5606
-0.155372,0.0432818,2.555,2.56009
-0.14708,0.0432818,2.555,2.5596
-0.138787,0.0432818,2.555,2.55913
-0.130494,0.0432818,2.555,2.5587
-0.12311,0.0436036,2.574,2.57731
-0.113908,0.0432818,2.555,2.5579
-0.105615,0.0432818,2.555,2.55755
-0.0973222,0.0432818,2.555,2.55722
-0.0896914,0.0436036,2.574,2.57593
-0.0813368,0.0436036,2.574,2.57565
-0.0729822,0.0436036,2.574,2.5754
-0.0646277,0.0436036,2.574,2.57518
-0.0562731,0.0436036,2.574,2.57498
-0.0475648,0.0432818,2.555,2.55581
-0.0392719,0.0432818,2.555,2.55567
-0.030979,0.0432818,2.555,2.55555
-0.0228548,0.0436036,2.574,2.57447
-0.0145003,0.0436036,2.574,2.57441
-0.00614571,0.0436036,2.574,2.57438
0.00220886,0.0436036,2.574,2.57437
0.0105634,0.0436036,2.574,2.57439
0.018918,0.0436036,2.574,2.57444
0.0272725,0.0436036,2.574,2.57451
0.0356271,0.0436036,2.574,2.57462
0.0439817,0.0436036,2.574,2.57475
0.0523362,0.0436036,2.574,2.5749
0.0606908,0.0436036,2.574,2.57508
0.0690454,0.0436036,2.574,2.5753
0.0773999,0.0436036,2.574,2.57553
0.0851215,0.0432818,2.555,2.55678
0.0934144,0.0432818,2.555,2.55707
0.101707,0.0432818,2.555,2.55739
0.11,0.0432818,2.555,2.55773
0.118293,0.0432818,2.555,2.5581
0.126586,0.0432818,2.555,2.5585
0.134879,0.0432818,2.555,2.55892
0.143172,0.0432818,2.555,2.55937
0.151465,0.0432818,2.555,2.55985
0.159758,0.0432818,2.555,2.56036
0.16805,0.0432818,2.555,2.56089
0.176343,0.0432818,2.555,2.56144
0.184636,0.0432818,2.555,2.56203
0.192929,0.0432818,2.555,2.56264
0.201222,0.0432818,2.555,2.56328
0.209515,0.0432818,2.555,2.56394
0.217808,0.0432818,2.555,2.56463
0.226101,0.0432818,2.555,2.56535
0.234394,0.0432818,2.555,2.56609
0.242687,0.0432818,2.555,2.56686
0.250979,0.0432818,2.555,2.56766
0.259272,0.0432818,2.555,2.56849
0.267565,0.0432818,2.555,2.56934
0.275858,0.0432818,2.555,2.57021
nan,nan,nan,NaN
0.290269,0.0429599,2.536,2.55292
0.296264,0.0426381,2.517,2.53473
0.304434,0.0426381,2.517,2.5357
nan,nan,nan,NaN
nan,nan,nan,NaN
nan,nan,nan,NaN
nan,nan,nan,NaN
nan,nan,nan,NaN
nan,nan,nan,NaN
nan,nan,nan,NaN
nan,nan,nan,NaN
nan,nan,nan,NaN
nan,nan,nan,NaN
nan,nan,nan,NaN
nan,nan,nan,NaN
nan,nan,nan,NaN
nan,nan,nan,NaN
nan,nan,nan,NaN
nan,nan,nan,NaN
nan,nan,nan,NaN
nan,nan,nan,NaN
nan,nan,nan,NaN
nan,nan,nan,NaN
nan,nan,nan,NaN
nan,nan,nan,NaN
nan,nan,nan,NaN
nan,nan,nan,NaN
nan,nan,nan,NaN
nan,nan,nan,NaN
nan,nan,nan,NaN
nan,nan,nan,NaN
nan,nan,nan,NaN
nan,nan,nan,NaN
nan,nan,nan,NaN
nan,nan,nan,NaN
nan,nan,nan,NaN
nan,nan,nan,NaN
nan,nan,nan,NaN
nan,nan,nan,NaN
nan,nan,nan,NaN
nan,nan,nan,NaN
nan,nan,nan,NaN
nan,nan,nan,NaN
nan,nan,nan,NaN
0.638293,0.0420282,2.481,2.56214
0.646346,0.0420282,2.481,2.56416
0.654399,0.0420282,2.481,2.5662
0.667257,0.0423331,2.499,2.58689
nan,nan,nan,NaN
0.688403,0.0426381,2.517,2.60979
0.696572,0.0426381,2.517,2.61196
0.704742,0.0426381,2.517,2.61415
0.718293,0.0429599,2.536,2.63611
0.726524,0.0429599,2.536,2.63837
0.734755,0.0429599,2.536,2.64065
0.742987,0.0429599,2.536,2.64295
0.751218,0.0429599,2.536,2.64527
0.765139,0.0432818,2.555,2.66746
0.773432,0.0432818,2.555,2.66985
0.781725,0.0432818,2.555,2.67226
0.790018,0.0432818,2.555,2.6747
0.798311,0.0432818,2.555,2.67716
0.806603,0.0432818,2.555,2.67965
0.814896,0.0432818,2.555,2.68215
0.829311,0.0436036,2.574,2.70465
0.837665,0.0436036,2.574,2.70722
0.84602,0.0436036,2.574,2.70982
0.854374,0.0436036,2.574,2.71244
0.862729,0.0436036,2.574,2.71508
0.871084,0.0436036,2.574,2.71775
0.879438,0.0436036,2.574,2.72044
0.887793,0.0436036,2.574,2.72315
0.896147,0.0436036,2.574,2.72589
0.897825,0.0432818,2.555,2.7085
0.906118,0.0432818,2.555,2.71126
0.914411,0.0432818,2.555,2.71405
0.915842,0.0429599,2.536,2.69665
0.924074,0.0429599,2.536,2.69945
0.932305,0.0429599,2.536,2.70228
0.940536,0.0429599,2.536,2.70513
0.941659,0.0426381,2.517,2.68772
0.949829,0.0426381,2.517,2.69059
0.957998,0.0426381,2.517,2.69349
0.959258,0.0423331,2.499,2.67712
0.967369,0.0423331,2.499,2.68004
0.975481,0.0423331,2.499,2.68298
0.976507,0.0420282,2.481,2.66659
0.98456,0.0420282,2.481,2.66955
0.992612,0.0420282,2.481,2.67253
1.00067,0.0420282,2.481,2.67553
1.00872,0.0420282,2.481,2.67855
1.02415,0.0423331,2.499,2.70105
1.03226,0.0423331,2.499,2.70414
1.04037,0.0423331,2.499,2.70724
1.04848,0.0423331,2.499,2.71037
1.05659,0.0423331,2.499,2.71352
1.0647,0.0423331,2.499,2.71669
1.08054,0.0426381,2.517,2.73947
1.08871,0.0426381,2.517,2.7427
1.10516,0.0429599,2.536,2.76668
1.12173,0.0432818,2.555,2.79073
1.13843,0.0436036,2.574,2.81485
1.14678,0.0436036,2.574,2.81824
1.15514,0.0436036,2.574,2.82165
1.18112,0.0442643,2.613,2.86789
1.1896,0.0442643,2.613,2.87139
1.20725,0.0446031,2.633,2.89692
1.2255,0.0449588,2.654,2.92362
1.23411,0.0449588,2.654,2.92725
1.25256,0.0453146,2.675,2.95408
1.26124,0.0453146,2.675,2.95777
1.27989,0.0456703,2.696,2.98473
1.28864,0.0456703,2.696,2.9885
1.29739,0.0456703,2.696,2.99228
1.31632,0.0460261,2.717,3.01942
1.32514,0.0460261,2.717,3.02328
1.33396,0.0460261,2.717,3.02715
1.35365,0.0463987,2.739,3.05559
1.36254,0.0463987,2.739,3.05954
1.37143,0.0463987,2.739,3.06351
1.40249,0.0471441,2.783,3.11678
1.41152,0.0471441,2.783,3.12085
1.44404,0.0479233,2.829,3.1766
1.46555,0.0483299,2.853,3.20777
1.49962,0.049143,2.901,3.26605
1.50904,0.049143,2.901,3.27038
1.54462,0.04999,2.951,3.33118
1.5679,0.0504305,2.977,3.36502
1.57756,0.0504305,2.977,3.36953
1.61548,0.0513283,3.03,3.43414
1.6398,0.0517857,3.057,3.46942
1.64972,0.0517857,3.057,3.47412
1.65964,0.0517857,3.057,3.47884
1.66956,0.0517857,3.057,3.48359
1.67949,0.0517857,3.057,3.48835
1.67449,0.0513283,3.03,3.46229
1.68432,0.0513283,3.03,3.46706
1.69416,0.0513283,3.03,3.47184
1.68881,0.0508709,3.003,3.44567
1.69855,0.0508709,3.003,3.45046
1.7083,0.0508709,3.003,3.45527
1.70317,0.0504305,2.977,3.43014
1.69788,0.04999,2.951,3.40495
1.70745,0.04999,2.951,3.40974
1.71703,0.04999,2.951,3.41454
1.72661,0.04999,2.951,3.41937
1.73619,0.04999,2.951,3.42422
1.74577,0.04999,2.951,3.42908
1.75535,0.04999,2.951,3.43397
1.76492,0.04999,2.951,3.43887
1.7745,0.04999,2.951,3.4438
1.76897,0.0495665,2.926,3.41953
1.77846,0.0495665,2.926,3.42445
1.78796,0.0495665,2.926,3.42939
1.79746,0.0495665,2.926,3.43435
1.77669,0.0487365,2.877,3.38174
1.78603,0.0487365,2.877,3.38665
1.78039,0.0483299,2.853,3.36329
1.7746,0.0479233,2.829,3.33987
1.78378,0.0479233,2.829,3.34476
1.77839,0.0475337,2.806,3.32243
1.75883,0.0467714,2.761,3.27396
1.73962,0.0460261,2.717,3.22653
1.74844,0.0460261,2.717,3.23129
1.73009,0.0453146,2.675,3.18605
1.71147,0.0446031,2.633,3.14067
1.72002,0.0446031,2.633,3.14534
1.7023,0.0439255,2.593,3.10216
1.68565,0.0432818,2.555,3.06126
1.69394,0.0432818,2.555,3.06583
1.68958,0.0429599,2.536,3.04759
1.68509,0.0426381,2.517,3.0293
1.69326,0.0426381,2.517,3.03385
1.68926,0.0423331,2.499,3.01669
1.68515,0.0420282,2.481,2.99947
-1.9154,0.0557304,2.761,3.3608
-1.89124,0.0552864,2.739,3.32896
-1.88235,0.0552864,2.739,3.32392
-1.87346,0.0552864,2.739,3.31889
-1.86457,0.0552864,2.739,3.31388
-1.85568,0.0552864,2.739,3.30889
-1.83196,0.0548423,2.717,3.27737
-1.82314,0.0548423,2.717,3.27245
-1.81432,0.0548423,2.717,3.26755
-1.79155,0.0544184,2.696,3.23744
-1.7828,0.0544184,2.696,3.23261
-1.77405,0.0544184,2.696,3.22779
-1.7653,0.0544184,2.696,3.22299
-1.75655,0.0544184,2.696,3.2182
-1.73418,0.0539945,2.675,3.18841
-1.7255,0.0539945,2.675,3.18369
-1.71682,0.0539945,2.675,3.17899
-1.69472,0.0535706,2.654,3.14939
-1.68611,0.0535706,2.654,3.14477
-1.6775,0.0535706,2.654,3.14016
-1.66888,0.0535706,2.654,3.13556
-1.66027,0.0535706,2.654,3.13099
-1.65165,0.0535706,2.654,3.12643
-1.64304,0.0535706,2.654,3.12188
-1.63443,0.0535706,2.654,3.11736
-1.62581,0.0535706,2.654,3.11285
-1.6172,0.0535706,2.654,3.10836
-1.62131,0.0539945,2.675,3.12845
-1.61263,0.0539945,2.675,3.12396
-1.60395,0.0539945,2.675,3.11948
-1.60779,0.0544184,2.696,3.13948
-1.61149,0.0548423,2.717,3.15943
-1.60267,0.0548423,2.717,3.15494
-1.59385,0.0548423,2.717,3.15047
-1.58504,0.0548423,2.717,3.14602
-1.57622,0.0548423,2.717,3.14159
-1.5674,0.0548423,2.717,3.13717
-1.54653,0.0544184,2.696,3.10856
-1.53778,0.0544184,2.696,3.10422
-1.52903,0.0544184,2.696,3.09989
-1.52028,0.0544184,2.696,3.09558
-1.49976,0.0539945,2.675,3.06722
-1.49107,0.0539945,2.675,3.06298
-1.48239,0.0539945,2.675,3.05876
-1.46214,0.0535706,2.654,3.03058
-1.45353,0.0535706,2.654,3.02644
-1.44491,0.0535706,2.654,3.02231
-1.42493,0.0531468,2.633,2.99432
-1.41639,0.0531468,2.633,2.99026
-1.39715,0.0527431,2.613,2.96354
-1.37804,0.0523394,2.593,2.9369
-1.36962,0.0523394,2.593,2.93296
-1.35123,0.0519558,2.574,2.90758
-1.34288,0.0519558,2.574,2.9037
-1.33452,0.0519558,2.574,2.89985
-1.32617,0.0519558,2.574,2.89601
-1.30808,0.0515723,2.555,2.87085
-1.29013,0.0511888,2.536,2.84576
-1.2819,0.0511888,2.536,2.84204
-1.26412,0.0508053,2.517,2.81707
-1.24697,0.050442,2.499,2.79329
-1.23886,0.050442,2.499,2.78968
-1.22188,0.0500787,2.481,2.76602
-1.21383,0.0500787,2.481,2.76247
-1.20578,0.0500787,2.481,2.75894
-1.18904,0.0497153,2.463,2.73544
-1.18104,0.0497153,2.463,2.73198
-1.16447,0.049352,2.445,2.70859
-1.15654,0.049352,2.445,2.70519
-1.1486,0.049352,2.445,2.7018
-1.13274,0.0490089,2.428,2.67968
-1.12485,0.0490089,2.428,2.67636
-1.11697,0.0490089,2.428,2.67305
-1.10909,0.0490089,2.428,2.66977
-1.10121,0.0490089,2.428,2.66651
-1.08568,0.0486657,2.411,2.64461
-1.07785,0.0486657,2.411,2.64141
-1.07003,0.0486657,2.411,2.63823
-1.05471,0.0483226,2.394,2.61648
-1.04694,0.0483226,2.394,2.61336
-1.03179,0.0479794,2.377,2.59172
-1.02408,0.0479794,2.377,2.58866
-1.01636,0.0479794,2.377,2.58562
-1.00865,0.0479794,2.377,2.58259
-1.00093,0.0479794,2.377,2.57959
-0.993215,0.0479794,2.377,2.57661
-0.9855,0.0479794,2.377,2.57364
-0.977785,0.0479794,2.377,2.5707
-0.970069,0.0479794,2.377,2.56777
-0.962354,0.0479794,2.377,2.56487
-0.954639,0.0479794,2.377,2.56199
-0.953696,0.0483226,2.394,2.57742
-0.945926,0.0483226,2.394,2.57456
-0.938156,0.0483226,2.394,2.57171
-0.930385,0.0483226,2.394,2.56889
-0.922615,0.0483226,2.394,2.56608
-0.914845,0.0483226,2.394,2.5633
-0.907074,0.0483226,2.394,2.56054
-0.899304,0.0483226,2.394,2.5578
-0.897864,0.0486657,2.411,2.57322
-0.890039,0.0486657,2.411,2.5705
-0.882213,0.0486657,2.411,2.5678
-0.874388,0.0486657,2.411,2.56512
-0.866562,0.0486657,2.411,2.56246
-0.858737,0.0486657,2.411,2.55983
-0.850911,0.0486657,2.411,2.55721
-0.84903,0.0490089,2.428,2.57263
-0.84115,0.0490089,2.428,2.57004
-0.833269,0.0490089,2.428,2.56747
-0.825388,0.0490089,2.428,2.56493
-0.823232,0.049352,2.445,2.58034
-0.815296,0.049352,2.445,2.57782
-0.80736,0.049352,2.445,2.57532
-0.799424,0.049352,2.445,2.57285
-0.797315,0.0497153,2.463,2.58931
-0.789321,0.0497153,2.463,2.58686
-0.781326,0.0497153,2.463,2.58444
-0.773332,0.0497153,2.463,2.58203
