-1.74213,-0.0855485,3.003,3.4728
-1.71739,-0.0848078,2.977,3.4379
-1.69281,-0.0840671,2.951,3.4031
-1.68323,-0.0840671,2.951,3.39834
-1.67365,-0.0840671,2.951,3.39361
nan,nan,nan,NaN
nan,nan,nan,NaN
nan,nan,nan,NaN
nan,nan,nan,NaN
nan,nan,nan,NaN
nan,nan,nan,NaN
nan,nan,nan,NaN
nan,nan,nan,NaN
nan,nan,nan,NaN
nan,nan,nan,NaN
nan,nan,nan,NaN
nan,nan,nan,NaN
nan,nan,nan,NaN
nan,nan,nan,NaN
nan,nan,nan,NaN
nan,nan,nan,NaN
nan,nan,nan,NaN
nan,nan,nan,NaN
nan,nan,nan,NaN
nan,nan,nan,NaN
nan,nan,nan,NaN
nan,nan,nan,NaN
-1.26769,-0.0733273,2.574,2.87017
-1.23144,-0.0717035,2.517,2.80301
-1.22327,-0.0717035,2.517,2.79943
-1.20641,-0.0711907,2.499,2.77588
-1.18104,-0.0701652,2.463,2.73243
-1.17305,-0.0701652,2.463,2.72898
-1.15654,-0.0696524,2.445,2.70563
-1.14062,-0.0691681,2.428,2.68346
-1.1248,-0.0686838,2.411,2.66136
-1.11698,-0.0686838,2.411,2.65806
-1.10133,-0.0681995,2.394,2.63606
-1.09356,-0.0681995,2.394,2.63282
-1.08579,-0.0681995,2.394,2.62961
-1.07037,-0.0677152,2.377,2.60776
-1.06265,-0.0677152,2.377,2.6046
-1.05494,-0.0677152,2.377,2.60146
-1.04722,-0.0677152,2.377,2.59834
-1.03951,-0.0677152,2.377,2.59524
-1.03179,-0.0677152,2.377,2.59216
-1.01718,-0.0672594,2.361,2.57167
-1.00952,-0.0672594,2.361,2.56865
-1.00186,-0.0672594,2.361,2.56565
-0.994193,-0.0672594,2.361,2.56267
-0.986529,-0.0672594,2.361,2.5597
-0.978866,-0.0672594,2.361,2.55676
-0.971203,-0.0672594,2.361,2.55384
-0.96354,-0.0672594,2.361,2.55093
-0.955876,-0.0672594,2.361,2.54805
-0.954639,-0.0677152,2.377,2.56243
-0.946924,-0.0677152,2.377,2.55957
-0.939209,-0.0677152,2.377,2.55672
-0.931494,-0.0677152,2.377,2.5539
-0.923778,-0.0677152,2.377,2.55109
-0.916063,-0.0677152,2.377,2.54831
-0.908348,-0.0677152,2.377,2.54555
-0.900633,-0.0677152,2.377,2.5428
-0.892918,-0.0677152,2.377,2.54008
-0.885203,-0.0677152,2.377,2.53738
-0.877488,-0.0677152,2.377,2.5347
-0.869772,-0.0677152,2.377,2.53204
-0.862057,-0.0677152,2.377,2.5294
-0.854342,-0.0677152,2.377,2.52678
-0.846627,-0.0677152,2.377,2.52418
-0.838912,-0.0677152,2.377,2.5216
-0.831197,-0.0677152,2.377,2.51905
-0.823481,-0.0677152,2.377,2.51651
-0.815766,-0.0677152,2.377,2.514
-0.808051,-0.0677152,2.377,2.51151
-0.800336,-0.0677152,2.377,2.50903
-0.792621,-0.0677152,2.377,2.50658
-0.790519,-0.0681995,2.394,2.52206
-0.782749,-0.0681995,2.394,2.51964
-0.774979,-0.0681995,2.394,2.51724
-0.767208,-0.0681995,2.394,2.51486
-0.764831,-0.0686838,2.411,2.53034
-0.757005,-0.0686838,2.411,2.52798
-0.74918,-0.0686838,2.411,2.52565
-0.741354,-0.0686838,2.411,2.52334
-0.733529,-0.0686838,2.411,2.52105
-0.725703,-0.0686838,2.411,2.51879
-0.722939,-0.0691681,2.428,2.53429
-0.715059,-0.0691681,2.428,2.53205
-0.707178,-0.0691681,2.428,2.52984
-0.699297,-0.0691681,2.428,2.52764
-0.691417,-0.0691681,2.428,2.52548
-0.683536,-0.0691681,2.428,2.52333
-0.675655,-0.0691681,2.428,2.52121
-0.667775,-0.0691681,2.428,2.51911
-0.659894,-0.0691681,2.428,2.51703
-0.652013,-0.0691681,2.428,2.51497
-0.648643,-0.0696524,2.445,2.53054
-0.640707,-0.0696524,2.445,2.52851
-0.632771,-0.0696524,2.445,2.52651
-0.624835,-0.0696524,2.445,2.52454
-0.621441,-0.0701652,2.463,2.54116
-0.613446,-0.0701652,2.463,2.53921
-0.605452,-0.0701652,2.463,2.53729
-0.597458,-0.0701652,2.463,2.5354
-0.593771,-0.0706779,2.481,2.55204
-0.585719,-0.0706779,2.481,2.55018
-0.577666,-0.0706779,2.481,2.54834
-0.569613,-0.0706779,2.481,2.54653
-0.561561,-0.0706779,2.481,2.54474
-0.557524,-0.0711907,2.499,2.56143
-0.549413,-0.0711907,2.499,2.55967
-0.541301,-0.0711907,2.499,2.55794
-0.53319,-0.0711907,2.499,2.55624
-0.528861,-0.0717035,2.517,2.57296
-0.520692,-0.0717035,2.517,2.57129
-0.512522,-0.0717035,2.517,2.56965
-0.504353,-0.0717035,2.517,2.56803
-0.496183,-0.0717035,2.517,2.56644
-0.488013,-0.0717035,2.517,2.56488
-0.483466,-0.0722448,2.536,2.58268
-0.475235,-0.0722448,2.536,2.58116
-0.463505,-0.0717035,2.517,2.56033
-0.455335,-0.0717035,2.517,2.55886
-0.447166,-0.0717035,2.517,2.55742
-0.44231,-0.0722448,2.536,2.5753
-0.434079,-0.0722448,2.536,2.5739
-0.425848,-0.0722448,2.536,2.57252
-0.417616,-0.0722448,2.536,2.57117
-0.409385,-0.0722448,2.536,2.56985
-0.401154,-0.0722448,2.536,2.56855
-0.395866,-0.072786,2.555,2.58651
-0.387574,-0.072786,2.555,2.58525
-0.379281,-0.072786,2.555,2.58402
-0.370988,-0.072786,2.555,2.58282
-0.362695,-0.072786,2.555,2.58164
-0.354402,-0.072786,2.555,2.58049
-0.348683,-0.0733273,2.574,2.59854
-0.340328,-0.0733273,2.574,2.59744
-0.329523,-0.072786,2.555,2.57719
-0.32123,-0.072786,2.555,2.57614
-0.312937,-0.072786,2.555,2.57512
-0.304645,-0.072786,2.555,2.57413
-0.296352,-0.072786,2.555,2.57316
-0.288059,-0.072786,2.555,2.57222
-0.279766,-0.072786,2.555,2.5713
-0.271473,-0.072786,2.555,2.57041
-0.261223,-0.0722448,2.536,2.55044
-0.252992,-0.0722448,2.536,2.54961
-0.244761,-0.0722448,2.536,2.54881
-0.236529,-0.0722448,2.536,2.54803
-0.228298,-0.0722448,2.536,2.54728
-0.218418,-0.0717035,2.517,2.52748
-0.210249,-0.0717035,2.517,2.52678
-0.203604,-0.0722448,2.536,2.54519
-0.195373,-0.0722448,2.536,2.54454
-0.187142,-0.0722448,2.536,2.54392
-0.178911,-0.0722448,2.536,2.54333
-0.170679,-0.0722448,2.536,2.54276
-0.162448,-0.0722448,2.536,2.54222
-0.155372,-0.072786,2.555,2.56075
-0.14708,-0.072786,2.555,2.56026
-0.138787,-0.072786,2.555,2.5598
-0.130494,-0.072786,2.555,2.55937
-0.122201,-0.072786,2.555,2.55896
-0.113908,-0.072786,2.555,2.55857
-0.105615,-0.072786,2.555,2.55822
-0.0980459,-0.0733273,2.574,2.57691
-0.0896914,-0.0733273,2.574,2.57661
-0.0813368,-0.0733273,2.574,2.57633
-0.073521,-0.0738686,2.593,2.59509
-0.0651047,-0.0738686,2.593,2.59487
-0.0566885,-0.0738686,2.593,2.59467
-0.0482722,-0.0738686,2.593,2.5945
-0.0401634,-0.0744383,2.613,2.61437
-0.0316823,-0.0744383,2.613,2.61425
-0.0233787,-0.0750081,2.633,2.63417
-0.0149509,-0.0756063,2.654,2.65512
-0.00633672,-0.0756063,2.654,2.65508
0.00224232,-0.0744383,2.613,2.61406
0.0107235,-0.0744383,2.613,2.61408
0.0192046,-0.0744383,2.613,2.61413
0.0274739,-0.0738686,2.593,2.5942
0.0358901,-0.0738686,2.593,2.5943
0.0443063,-0.0738686,2.593,2.59443
0.0523362,-0.0733273,2.574,2.57558
0.0602428,-0.072786,2.555,2.55675
0.0685357,-0.072786,2.555,2.55696
0.0768286,-0.072786,2.555,2.55719
0.0851215,-0.072786,2.555,2.55745
0.0934144,-0.072786,2.555,2.55774
0.100951,-0.0722448,2.536,2.53904
0.109182,-0.0722448,2.536,2.53938
0.117413,-0.0722448,2.536,2.53974
0.125645,-0.0722448,2.536,2.54014
0.133876,-0.0722448,2.536,2.54056
0.143172,-0.072786,2.555,2.56004
0.151465,-0.072786,2.555,2.56052
0.159758,-0.072786,2.555,2.56102
0.1693,-0.0733273,2.574,2.5806
0.178966,-0.0738686,2.593,2.60022
0.187382,-0.0738686,2.593,2.60081
0.195799,-0.0738686,2.593,2.60143
0.20579,-0.0744383,2.613,2.62215
0.214271,-0.0744383,2.613,2.62283
0.222752,-0.0744383,2.613,2.62353
0.229463,-0.0738686,2.593,2.60418
0.23788,-0.0738686,2.593,2.60494
0.246296,-0.0738686,2.593,2.60572
0.254712,-0.0738686,2.593,2.60653
0.263128,-0.0738686,2.593,2.60736
0.271545,-0.0738686,2.593,2.60823
0.279961,-0.0738686,2.593,2.60912
0.288377,-0.0738686,2.593,2.61003
0.294619,-0.0733273,2.574,2.59184
0.302973,-0.0733273,2.574,2.59281
0.30903,-0.072786,2.555,2.57465
0.317323,-0.072786,2.555,2.57566
0.325615,-0.072786,2.555,2.57669
0.333908,-0.072786,2.555,2.57775
0.342201,-0.072786,2.555,2.57884
0.350494,-0.072786,2.555,2.57996
0.356119,-0.0722448,2.536,2.5619
0.36435,-0.0722448,2.536,2.56306
0.36979,-0.0717035,2.517,2.54503
0.37796,-0.0717035,2.517,2.54623
0.386129,-0.0717035,2.517,2.54746
0.391479,-0.0711907,2.499,2.53048
0.39959,-0.0711907,2.499,2.53175
0.404765,-0.0706779,2.481,2.51479
0.412817,-0.0706779,2.481,2.5161
0.417816,-0.0701652,2.463,2.49917
0.425811,-0.0701652,2.463,2.50052
0.433805,-0.0701652,2.463,2.5019
0.441799,-0.0701652,2.463,2.50329
0.449794,-0.0701652,2.463,2.50472
0.457788,-0.0701652,2.463,2.50616
0.465782,-0.0701652,2.463,2.50764
0.473776,-0.0701652,2.463,2.50913
0.481771,-0.0701652,2.463,2.51066
0.489765,-0.0701652,2.463,2.5122
0.501397,-0.0706779,2.481,2.53214
0.513146,-0.0711907,2.499,2.55213
0.525012,-0.0717035,2.517,2.57217
0.533181,-0.0717035,2.517,2.57385
0.545437,-0.0722448,2.536,2.595
0.557817,-0.072786,2.555,2.6162
0.566109,-0.072786,2.555,2.61798
0.574402,-0.072786,2.555,2.61978
0.587028,-0.0733273,2.574,2.64111
0.595383,-0.0733273,2.574,2.64298
0.603738,-0.0733273,2.574,2.64487
0.61661,-0.0738686,2.593,2.66633
0.625027,-0.0738686,2.593,2.66829
0.633443,-0.0738686,2.593,2.67027
0.64681,-0.0744383,2.613,2.69289
0.655291,-0.0744383,2.613,2.69494
0.663772,-0.0744383,2.613,2.69702
0.672253,-0.0744383,2.613,2.69912
0.680734,-0.0744383,2.613,2.70124
0.689215,-0.0744383,2.613,2.70339
0.692356,-0.0738686,2.593,2.68486
0.700773,-0.0738686,2.593,2.68704
0.709189,-0.0738686,2.593,2.68925
0.712347,-0.0733273,2.574,2.67176
0.715382,-0.072786,2.555,2.65426
0.723674,-0.072786,2.555,2.65651
0.731967,-0.072786,2.555,2.65878
0.734755,-0.0722448,2.536,2.64128
0.742987,-0.0722448,2.536,2.64359
0.74559,-0.0717035,2.517,2.62609
0.753759,-0.0717035,2.517,2.62842
0.76768,-0.0722448,2.536,2.65063
0.775912,-0.0722448,2.536,2.65303
0.784143,-0.0722448,2.536,2.65545
0.792374,-0.0722448,2.536,2.65789
0.800605,-0.0722448,2.536,2.66035
0.808836,-0.0722448,2.536,2.66284
0.823189,-0.072786,2.555,2.68532
0.831482,-0.072786,2.555,2.68788
0.839775,-0.072786,2.555,2.69045
0.848068,-0.072786,2.555,2.69305
0.856361,-0.072786,2.555,2.69568
0.864654,-0.072786,2.555,2.69832
0.866455,-0.0722448,2.536,2.68091
0.874686,-0.0722448,2.536,2.68358
0.882918,-0.0722448,2.536,2.68627
0.884472,-0.0717035,2.517,2.66884
0.892642,-0.0717035,2.517,2.67156
0.887927,-0.0706779,2.481,2.63605
0.889479,-0.0701652,2.463,2.61963
0.897474,-0.0701652,2.463,2.62236
0.898851,-0.0696524,2.445,2.60592
0.906787,-0.0696524,2.445,2.60867
0.902002,-0.0686838,2.411,2.57512
0.909828,-0.0686838,2.411,2.57787
0.911183,-0.0681995,2.394,2.56245
0.918953,-0.0681995,2.394,2.56522
0.926724,-0.0681995,2.394,2.56802
0.934494,-0.0681995,2.394,2.57083
0.935573,-0.0677152,2.377,2.55539
0.943288,-0.0677152,2.377,2.55822
0.951003,-0.0677152,2.377,2.56108
0.958719,-0.0677152,2.377,2.56395
0.966434,-0.0677152,2.377,2.56685
0.974149,-0.0677152,2.377,2.56976
0.995908,-0.0686838,2.411,2.6095
1.01789,-0.0696524,2.445,2.64933
1.04093,-0.0706779,2.481,2.69145
1.04898,-0.0706779,2.481,2.69457
1.08047,-0.0722448,2.536,2.75752
1.12175,-0.0744383,2.613,2.84458
1.13024,-0.0744383,2.613,2.84794
1.16574,-0.0762045,2.675,2.91897
1.21217,-0.0786545,2.761,3.0164
1.25121,-0.0805916,2.829,3.09439
1.26039,-0.0805916,2.829,3.09812
1.30189,-0.0826428,2.901,3.18081
1.3226,-0.0833549,2.926,3.21212
1.3321,-0.0833549,2.926,3.21604
1.35306,-0.0840671,2.951,3.2475
1.37464,-0.0848078,2.977,3.28015
1.3964,-0.0855485,3.003,3.31289
1.39397,-0.0848078,2.977,3.28829
1.40363,-0.0848078,2.977,3.2924
1.41329,-0.0848078,2.977,3.29653
1.42296,-0.0848078,2.977,3.30069
1.43262,-0.0848078,2.977,3.30486
1.44228,-0.0848078,2.977,3.30906
1.45195,-0.0848078,2.977,3.31329
1.47437,-0.0855485,3.003,3.34651
1.48412,-0.0855485,3.003,3.35081
1.49387,-0.0855485,3.003,3.35514
1.50361,-0.0855485,3.003,3.35949
1.51336,-0.0855485,3.003,3.36387
1.52311,-0.0855485,3.003,3.36826
1.53285,-0.0855485,3.003,3.37268
1.55647,-0.0863177,3.03,3.40749
1.59422,-0.087856,3.084,3.4728
1.60423,-0.087856,3.084,3.4774
1.6289,-0.0886537,3.112,3.51365
1.65427,-0.0894798,3.141,3.55113
1.66447,-0.0894798,3.141,3.55589
1.67466,-0.0894798,3.141,3.56067
1.70041,-0.0903059,3.17,3.5984
1.7107,-0.0903059,3.17,3.60327
1.73673,-0.0911321,3.199,3.64117
1.76405,-0.0920152,3.23,3.68147
1.77453,-0.0920152,3.23,3.68651
1.78501,-0.0920152,3.23,3.69156
1.77827,-0.0911321,3.199,3.66117
1.78865,-0.0911321,3.199,3.66622
1.79903,-0.0911321,3.199,3.6713
1.79301,-0.0903059,3.17,3.64307
1.8033,-0.0903059,3.17,3.64814
1.81359,-0.0903059,3.17,3.65324
1.80719,-0.0894798,3.141,3.62489
1.81739,-0.0894798,3.141,3.62998
1.82758,-0.0894798,3.141,3.6351
1.83778,-0.0894798,3.141,3.64024
1.83091,-0.0886537,3.112,3.61174
1.84101,-0.0886537,3.112,3.61687
1.85111,-0.0886537,3.112,3.62202
1.84447,-0.087856,3.084,3.59456
1.85448,-0.087856,3.084,3.5997
1.84816,-0.0870868,3.057,3.57331
1.84168,-0.0863177,3.03,3.54685
1.85151,-0.0863177,3.03,3.55196
1.86134,-0.0863177,3.03,3.5571
1.83845,-0.0848078,2.977,3.49995
1.84811,-0.0848078,2.977,3.50503
1.84155,-0.0840671,2.951,3.47948
1.83545,-0.0833549,2.926,3.45504
1.84494,-0.0833549,2.926,3.46009
1.8386,-0.0826428,2.901,3.43556
1.81743,-0.0812754,2.853,3.38368
1.81133,-0.0805916,2.829,3.36016
1.82051,-0.0805916,2.829,3.36511
1.79994,-0.0792812,2.783,3.31529
1.78037,-0.0780278,2.739,3.26771
1.78926,-0.0780278,2.739,3.27256
1.76992,-0.0768028,2.696,3.22598
1.75097,-0.0756063,2.654,3.18046
1.75958,-0.0756063,2.654,3.18521
1.72755,-0.0738686,2.593,3.11666
1.72325,-0.0733273,2.574,3.09846
1.7316,-0.0733273,2.574,3.10311
1.71427,-0.0722448,2.536,3.0619
1.69737,-0.0711907,2.499,3.02178
-2.02986,-0.0738606,2.926,3.56192
-2.0031,-0.0732295,2.901,3.52613
-1.99369,-0.0732295,2.901,3.52079
-1.96786,-0.0726237,2.877,3.48638
-1.94218,-0.0720178,2.853,3.45208
-1.93292,-0.0720178,2.853,3.44688
-1.92366,-0.0720178,2.853,3.44169
-1.88286,-0.0708314,2.806,3.37991
-1.87375,-0.0708314,2.806,3.37485
-1.86465,-0.0708314,2.806,3.3698
-1.84033,-0.0702508,2.783,3.33719
-1.8313,-0.0702508,2.783,3.33222
-1.83732,-0.0708314,2.806,3.35476
-1.81323,-0.0702508,2.783,3.32232
-1.8042,-0.0702508,2.783,3.3174
-1.79516,-0.0702508,2.783,3.3125
-1.78613,-0.0702508,2.783,3.30761
-1.7771,-0.0702508,2.783,3.30274
-1.78268,-0.0708314,2.806,3.32515
-1.77357,-0.0708314,2.806,3.32027
-1.79402,-0.0720178,2.853,3.37095
-1.78476,-0.0720178,2.853,3.36603
-1.79043,-0.0726237,2.877,3.3894
-1.78109,-0.0726237,2.877,3.38448
-1.80193,-0.0738606,2.926,3.43713
-1.80775,-0.0744916,2.951,3.46149
-1.79817,-0.0744916,2.951,3.4565
-1.80435,-0.0751479,2.977,3.48193
-1.79469,-0.0751479,2.977,3.47694
-1.78503,-0.0751479,2.977,3.47196
-1.79087,-0.0758043,3.003,3.49728
-1.78112,-0.0758043,3.003,3.4923
-1.77138,-0.0758043,3.003,3.48734
-1.74638,-0.0751479,2.977,3.45225
-1.72155,-0.0744916,2.951,3.41726
-1.71197,-0.0744916,2.951,3.41245
-1.68797,-0.0738606,2.926,3.37878
-1.65036,-0.0726237,2.877,3.31754
-1.64102,-0.0726237,2.877,3.31291
-1.61807,-0.0720178,2.853,3.2807
-1.60881,-0.0720178,2.853,3.27614
nan,nan,nan,NaN
nan,nan,nan,NaN
nan,nan,nan,NaN
nan,nan,nan,NaN
nan,nan,nan,NaN
nan,nan,nan,NaN
nan,nan,nan,NaN
nan,nan,nan,NaN
nan,nan,nan,NaN
nan,nan,nan,NaN
nan,nan,nan,NaN
nan,nan,nan,NaN
-1.52652,-0.0738606,2.926,3.30109
-1.51702,-0.0738606,2.926,3.29671
-1.50752,-0.0738606,2.926,3.29235
-1.49803,-0.0738606,2.926,3.28801
nan,nan,nan,NaN
nan,nan,nan,NaN
nan,nan,nan,NaN
nan,nan,nan,NaN
nan,nan,nan,NaN
-1.26769,-0.0649751,2.574,2.86997
-1.24074,-0.0640159,2.536,2.82397
-1.23251,-0.0640159,2.536,2.82037
-1.20641,-0.0630819,2.499,2.77568
-1.18967,-0.0626275,2.481,2.7522
-1.18162,-0.0626275,2.481,2.74873
-1.16505,-0.0621731,2.463,2.72536
-1.14062,-0.0612896,2.428,2.68327
-1.1248,-0.0608605,2.411,2.66117
-1.11698,-0.0608605,2.411,2.65787
-1.10133,-0.0604314,2.394,2.63587
-1.09356,-0.0604314,2.394,2.63263
-1.08579,-0.0604314,2.394,2.62942
-1.07037,-0.0600022,2.377,2.60757
-1.06265,-0.0600022,2.377,2.60441
-1.05494,-0.0600022,2.377,2.60127
-1.04722,-0.0600022,2.377,2.59815
-1.03951,-0.0600022,2.377,2.59505
-1.03179,-0.0600022,2.377,2.59197
-1.01718,-0.0595984,2.361,2.57148
-1.00952,-0.0595984,2.361,2.56846
-1.00186,-0.0595984,2.361,2.56546
-0.994193,-0.0595984,2.361,2.56248
-0.986529,-0.0595984,2.361,2.55951
-0.978866,-0.0595984,2.361,2.55657
-0.977785,-0.0600022,2.377,2.57095
-0.970069,-0.0600022,2.377,2.56803
-0.962354,-0.0600022,2.377,2.56512
-0.954639,-0.0600022,2.377,2.56224
-0.946924,-0.0600022,2.377,2.55937
-0.939209,-0.0600022,2.377,2.55653
-0.931494,-0.0600022,2.377,2.55371
-0.923778,-0.0600022,2.377,2.5509
-0.916063,-0.0600022,2.377,2.54812
-0.908348,-0.0600022,2.377,2.54535
-0.900633,-0.0600022,2.377,2.54261
-0.892918,-0.0600022,2.377,2.53989
-0.885203,-0.0600022,2.377,2.53719
-0.877488,-0.0600022,2.377,2.5345
-0.869772,-0.0600022,2.377,2.53184
-0.862057,-0.0600022,2.377,2.5292
-0.854342,-0.0600022,2.377,2.52658
-0.846627,-0.0600022,2.377,2.52399
-0.838912,-0.0600022,2.377,2.52141
-0.831197,-0.0600022,2.377,2.51885
-0.823481,-0.0600022,2.377,2.51632
-0.815766,-0.0600022,2.377,2.5138
-0.808051,-0.0600022,2.377,2.51131
-0.80606,-0.0604314,2.394,2.52678
-0.79829,-0.0604314,2.394,2.52431
-0.790519,-0.0604314,2.394,2.52187
-0.782749,-0.0604314,2.394,2.51944
-0.774979,-0.0604314,2.394,2.51704
-0.772656,-0.0608605,2.411,2.53251
-0.764831,-0.0608605,2.411,2.53014
-0.757005,-0.0608605,2.411,2.52778
-0.74918,-0.0608605,2.411,2.52545
-0.746581,-0.0612896,2.428,2.54093
-0.738701,-0.0612896,2.428,2.53863
-0.73082,-0.0612896,2.428,2.53634
-0.722939,-0.0612896,2.428,2.53408
-0.715059,-0.0612896,2.428,2.53185
-0.707178,-0.0612896,2.428,2.52963
-0.699297,-0.0612896,2.428,2.52744
-0.691417,-0.0612896,2.428,2.52527
-0.683536,-0.0612896,2.428,2.52313
-0.675655,-0.0612896,2.428,2.521
-0.667775,-0.0612896,2.428,2.5189
-0.659894,-0.0612896,2.428,2.51682
-0.652013,-0.0612896,2.428,2.51477
-0.648643,-0.0617188,2.445,2.53033
-0.640707,-0.0617188,2.445,2.52831
-0.632771,-0.0617188,2.445,2.52631
-0.624835,-0.0617188,2.445,2.52433
-0.621441,-0.0621731,2.463,2.54095
-0.613446,-0.0621731,2.463,2.53901
-0.605452,-0.0621731,2.463,2.53709
-0.597458,-0.0621731,2.463,2.53519
-0.593771,-0.0626275,2.481,2.55183
-0.585719,-0.0626275,2.481,2.54997
-0.577666,-0.0626275,2.481,2.54813
-0.569613,-0.0626275,2.481,2.54632
-0.561561,-0.0626275,2.481,2.54453
-0.557524,-0.0630819,2.499,2.56121
-0.549413,-0.0630819,2.499,2.55946
-0.541301,-0.0630819,2.499,2.55773
-0.53319,-0.0630819,2.499,2.55603
-0.528861,-0.0635362,2.517,2.57275
-0.520692,-0.0635362,2.517,2.57108
-0.512522,-0.0635362,2.517,2.56944
-0.504353,-0.0635362,2.517,2.56782
-0.499929,-0.0640159,2.536,2.5856
-0.491697,-0.0640159,2.536,2.58402
-0.483466,-0.0640159,2.536,2.58247
-0.475235,-0.0640159,2.536,2.58094
-0.463505,-0.0635362,2.517,2.56011
-0.455335,-0.0635362,2.517,2.55864
-0.447166,-0.0635362,2.517,2.5572
-0.44231,-0.0640159,2.536,2.57508
-0.434079,-0.0640159,2.536,2.57368
-0.425848,-0.0640159,2.536,2.5723
-0.417616,-0.0640159,2.536,2.57095
-0.409385,-0.0640159,2.536,2.56963
-0.401154,-0.0640159,2.536,2.56833
-0.395866,-0.0644955,2.555,2.58629
-0.387574,-0.0644955,2.555,2.58503
-0.379281,-0.0644955,2.555,2.5838
-0.370988,-0.0644955,2.555,2.5826
-0.362695,-0.0644955,2.555,2.58142
-0.354402,-0.0644955,2.555,2.58027
-0.348683,-0.0649751,2.574,2.59832
-0.340328,-0.0649751,2.574,2.59721
-0.329523,-0.0644955,2.555,2.57697
-0.32123,-0.0644955,2.555,2.57592
-0.312937,-0.0644955,2.555,2.5749
-0.304645,-0.0644955,2.555,2.57391
-0.296352,-0.0644955,2.555,2.57294
-0.288059,-0.0644955,2.555,2.572
-0.277685,-0.0640159,2.536,2.55196
-0.269454,-0.0640159,2.536,2.55108
-0.261223,-0.0640159,2.536,2.55022
-0.252992,-0.0640159,2.536,2.54939
-0.244761,-0.0640159,2.536,2.54859
-0.236529,-0.0640159,2.536,2.54781
-0.228298,-0.0640159,2.536,2.54706
-0.218418,-0.0635362,2.517,2.52726
-0.210249,-0.0635362,2.517,2.52657
-0.203604,-0.0640159,2.536,2.54497
-0.195373,-0.0640159,2.536,2.54432
-0.187142,-0.0640159,2.536,2.5437
-0.178911,-0.0640159,2.536,2.54311
-0.170679,-0.0640159,2.536,2.54254
-0.162448,-0.0640159,2.536,2.542
-0.155372,-0.0644955,2.555,2.56053
-0.14708,-0.0644955,2.555,2.56004
-0.138787,-0.0644955,2.555,2.55958
-0.130494,-0.0644955,2.555,2.55914
-0.122201,-0.0644955,2.555,2.55873
-0.113908,-0.0644955,2.555,2.55835
-0.105615,-0.0644955,2.555,2.558
-0.0980459,-0.0649751,2.574,2.57669
-0.0896914,-0.0649751,2.574,2.57638
-0.0813368,-0.0649751,2.574,2.5761
-0.073521,-0.0654547,2.593,2.59487
-0.0651047,-0.0654547,2.593,2.59464
-0.0566885,-0.0654547,2.593,2.59445
-0.0482722,-0.0654547,2.593,2.59428
-0.039856,-0.0654547,2.593,2.59413
-0.0314398,-0.0654547,2.593,2.59402
-0.0233787,-0.0664644,2.633,2.63394
-0.0148326,-0.0664644,2.633,2.63388
-0.00628658,-0.0664644,2.633,2.63385
0.00224232,-0.0659596,2.613,2.61383
0.0107235,-0.0659596,2.613,2.61385
0.0192046,-0.0659596,2.613,2.6139
0.0274739,-0.0654547,2.593,2.59397
0.0356271,-0.0649751,2.574,2.57507
0.0439817,-0.0649751,2.574,2.5752
0.0523362,-0.0649751,2.574,2.57535
0.0602428,-0.0644955,2.555,2.55652
0.0685357,-0.0644955,2.555,2.55673
0.0768286,-0.0644955,2.555,2.55697
0.0851215,-0.0644955,2.555,2.55723
0.0934144,-0.0644955,2.555,2.55752
0.100951,-0.0640159,2.536,2.53882
0.109182,-0.0640159,2.536,2.53916
0.117413,-0.0640159,2.536,2.53952
0.125645,-0.0640159,2.536,2.53992
0.133876,-0.0640159,2.536,2.54034
0.143172,-0.0644955,2.555,2.55982
0.151465,-0.0644955,2.555,2.5603
0.159758,-0.0644955,2.555,2.5608
0.1693,-0.0649751,2.574,2.58038
0.177655,-0.0649751,2.574,2.58094
0.186009,-0.0649751,2.574,2.58153
0.195799,-0.0654547,2.593,2.60121
0.204215,-0.0654547,2.593,2.60185
0.212631,-0.0654547,2.593,2.60253
0.221047,-0.0654547,2.593,2.60323
0.229463,-0.0654547,2.593,2.60396
0.23788,-0.0654547,2.593,2.60471
0.246296,-0.0654547,2.593,2.60549
0.254712,-0.0654547,2.593,2.6063
0.263128,-0.0654547,2.593,2.60714
0.271545,-0.0654547,2.593,2.608
0.27791,-0.0649751,2.574,2.58977
0.286264,-0.0649751,2.574,2.59068
0.294619,-0.0649751,2.574,2.59162
0.300737,-0.0644955,2.555,2.57345
0.30903,-0.0644955,2.555,2.57443
0.317323,-0.0644955,2.555,2.57544
0.325615,-0.0644955,2.555,2.57647
0.333908,-0.0644955,2.555,2.57753
0.342201,-0.0644955,2.555,2.57862
0.347888,-0.0640159,2.536,2.56055
0.356119,-0.0640159,2.536,2.56168
0.36435,-0.0640159,2.536,2.56284
0.36979,-0.0635362,2.517,2.54481
0.375257,-0.0630819,2.499,2.52781
0.383368,-0.0630819,2.499,2.52902
0.391479,-0.0630819,2.499,2.53026
0.39959,-0.0630819,2.499,2.53153
0.404765,-0.0626275,2.481,2.51458
0.412817,-0.0626275,2.481,2.51589
0.417816,-0.0621731,2.463,2.49896
0.425811,-0.0621731,2.463,2.50031
0.433805,-0.0621731,2.463,2.50168
0.441799,-0.0621731,2.463,2.50308
0.449794,-0.0621731,2.463,2.50451
0.457788,-0.0621731,2.463,2.50595
0.465782,-0.0621731,2.463,2.50743
0.473776,-0.0621731,2.463,2.50892
0.481771,-0.0621731,2.463,2.51045
0.489765,-0.0621731,2.463,2.51199
0.505035,-0.0630819,2.499,2.5503
0.513146,-0.0630819,2.499,2.55192
nan,nan,nan,NaN
0.537206,-0.0640159,2.536,2.59306
0.545437,-0.0640159,2.536,2.59478
0.557817,-0.0644955,2.555,2.61598
0.566109,-0.0644955,2.555,2.61776
0.574402,-0.0644955,2.555,2.61957
0.582695,-0.0644955,2.555,2.6214
0.590988,-0.0644955,2.555,2.62325
0.603738,-0.0649751,2.574,2.64465
0.612092,-0.0649751,2.574,2.64657
0.620447,-0.0649751,2.574,2.64852
0.628801,-0.0649751,2.574,2.65049
0.641859,-0.0654547,2.593,2.67206
0.650275,-0.0654547,2.593,2.6741
0.658691,-0.0654547,2.593,2.67616
0.672253,-0.0659596,2.613,2.6989
0.680734,-0.0659596,2.613,2.70102
0.689215,-0.0659596,2.613,2.70317
0.692356,-0.0654547,2.593,2.68464
0.700773,-0.0654547,2.593,2.68682
0.709189,-0.0654547,2.593,2.68903
0.712347,-0.0649751,2.574,2.67154
0.720701,-0.0649751,2.574,2.67378
0.729056,-0.0649751,2.574,2.67605
0.731967,-0.0644955,2.555,2.65856
0.734755,-0.0640159,2.536,2.64107
0.742987,-0.0640159,2.536,2.64337
0.74559,-0.0635362,2.517,2.62588
0.753759,-0.0635362,2.517,2.62821
0.76768,-0.0640159,2.536,2.65042
0.775912,-0.0640159,2.536,2.65282
0.784143,-0.0640159,2.536,2.65524
0.792374,-0.0640159,2.536,2.65768
0.800605,-0.0640159,2.536,2.66014
0.808836,-0.0640159,2.536,2.66263
0.823189,-0.0644955,2.555,2.68511
0.837665,-0.0649751,2.574,2.70765
0.839775,-0.0644955,2.555,2.69024
0.848068,-0.0644955,2.555,2.69284
0.862729,-0.0649751,2.574,2.71551
0.864654,-0.0644955,2.555,2.69811
0.872947,-0.0644955,2.555,2.70078
0.881239,-0.0644955,2.555,2.70347
0.882918,-0.0640159,2.536,2.68606
0.884472,-0.0635362,2.517,2.66864
0.892642,-0.0635362,2.517,2.67135
0.894369,-0.0630819,2.499,2.65497
0.889479,-0.0621731,2.463,2.61943
0.897474,-0.0621731,2.463,2.62215
0.905468,-0.0621731,2.463,2.6249
0.906787,-0.0617188,2.445,2.60847
0.908362,-0.0612896,2.428,2.59308
0.916243,-0.0612896,2.428,2.59585
0.917653,-0.0608605,2.411,2.58045
0.918953,-0.0604314,2.394,2.56503
0.926724,-0.0604314,2.394,2.56782
0.934494,-0.0604314,2.394,2.57064
0.942264,-0.0604314,2.394,2.57347
0.950035,-0.0604314,2.394,2.57633
0.951003,-0.0600022,2.377,2.56089
0.958719,-0.0600022,2.377,2.56376
0.973346,-0.0604314,2.394,2.58501
0.981116,-0.0604314,2.394,2.58795
0.995908,-0.0608605,2.411,2.6093
1.01789,-0.0617188,2.445,2.64914
1.04848,-0.0630819,2.499,2.71077
1.05659,-0.0630819,2.499,2.71392
1.08047,-0.0640159,2.536,2.75732
1.12175,-0.0659596,2.613,2.84437
1.13024,-0.0659596,2.613,2.84773
1.17489,-0.0680547,2.696,2.94167
1.21217,-0.0696955,2.761,3.01618
1.25121,-0.071412,2.829,3.09417
1.26039,-0.071412,2.829,3.09789
1.29112,-0.0726237,2.877,3.15426
1.3226,-0.0738606,2.926,3.21189
1.3321,-0.0738606,2.926,3.21581
1.35306,-0.0744916,2.951,3.24726
1.36264,-0.0744916,2.951,3.25127
1.38431,-0.0751479,2.977,3.28397
1.39397,-0.0751479,2.977,3.28806
1.39137,-0.0744916,2.951,3.26341
1.40095,-0.0744916,2.951,3.26751
1.41053,-0.0744916,2.951,3.27163
1.42011,-0.0744916,2.951,3.27577
1.42969,-0.0744916,2.951,3.27993
1.43926,-0.0744916,2.951,3.28412
1.46161,-0.0751479,2.977,3.3173
1.47127,-0.0751479,2.977,3.32157
1.48093,-0.0751479,2.977,3.32586
1.4906,-0.0751479,2.977,3.33017
1.50026,-0.0751479,2.977,3.33451
1.52311,-0.0758043,3.003,3.36803
1.53285,-0.0758043,3.003,3.37245
1.5426,-0.0758043,3.003,3.37689
1.58026,-0.0771674,3.057,3.44216
1.59019,-0.0771674,3.057,3.44672
1.61424,-0.0778489,3.084,3.48179
1.639,-0.0785557,3.112,3.5181
1.6491,-0.0785557,3.112,3.52282
1.6592,-0.0785557,3.112,3.52756
1.68485,-0.0792878,3.141,3.56524
1.69505,-0.0792878,3.141,3.57006
1.72099,-0.0800198,3.17,3.60792
1.73128,-0.0800198,3.17,3.61284
1.7575,-0.0807519,3.199,3.65088
1.76788,-0.0807519,3.199,3.65589
1.76214,-0.0800198,3.17,3.62773
1.77243,-0.0800198,3.17,3.63274
1.78272,-0.0800198,3.17,3.63777
1.77661,-0.0792878,3.141,3.6095
1.7868,-0.0792878,3.141,3.61453
1.78041,-0.0785557,3.112,3.58616
1.79051,-0.0785557,3.112,3.59119
1.80061,-0.0785557,3.112,3.59624
1.81071,-0.0785557,3.112,3.6013
1.82081,-0.0785557,3.112,3.60639
1.83091,-0.0785557,3.112,3.6115
1.84101,-0.0785557,3.112,3.61663
1.83446,-0.0778489,3.084,3.5892
1.82832,-0.0771674,3.057,3.56286
1.83824,-0.0771674,3.057,3.56796
1.83184,-0.0764858,3.03,3.54152
1.84168,-0.0764858,3.03,3.54662
1.85151,-0.0764858,3.03,3.55174
1.84476,-0.0758043,3.003,3.52518
1.82239,-0.0744916,2.951,3.46916
1.83197,-0.0744916,2.951,3.4742
1.84155,-0.0744916,2.951,3.47926
1.81976,-0.0732295,2.901,3.4253
1.82918,-0.0732295,2.901,3.43031
1.82338,-0.0726237,2.877,3.40692
1.81743,-0.0720178,2.853,3.38347
1.7966,-0.0708314,2.806,3.33263
1.80571,-0.0708314,2.806,3.33755
1.78571,-0.0696955,2.761,3.28888
1.76607,-0.0685848,2.717,3.24127
1.77489,-0.0685848,2.717,3.24608
1.75614,-0.0675246,2.675,3.20066
1.73711,-0.0664644,2.633,3.1551
1.74566,-0.0664644,2.633,3.15981
1.72755,-0.0654547,2.593,3.11647
1.72325,-0.0649751,2.574,3.09827
1.7316,-0.0649751,2.574,3.10293
1.71427,-0.0640159,2.536,3.06172
1.69737,-0.0630819,2.499,3.0216
-2.02986,-0.0643662,2.926,3.56174
-2.0031,-0.0638162,2.901,3.52595
-1.99369,-0.0638162,2.901,3.52061
-1.95144,-0.0627603,2.853,3.45712
-1.92584,-0.0622324,2.829,3.42286
-1.91666,-0.0622324,2.829,3.4177
-1.90748,-0.0622324,2.829,3.41256
-1.86743,-0.0612205,2.783,3.35203
-1.85839,-0.0612205,2.783,3.34701
-1.84936,-0.0612205,2.783,3.342
-1.84033,-0.0612205,2.783,3.33701
-1.81682,-0.0607365,2.761,3.3057
-1.80786,-0.0607365,2.761,3.30078
-1.7989,-0.0607365,2.761,3.29588
-1.78993,-0.0607365,2.761,3.291
-1.78097,-0.0607365,2.761,3.28613
-1.77201,-0.0607365,2.761,3.28129
-1.76305,-0.0607365,2.761,3.27645
-1.76807,-0.0612205,2.783,3.29771
-1.75903,-0.0612205,2.783,3.29288
-1.75,-0.0612205,2.783,3.28806
-1.76974,-0.0622324,2.829,3.33753
-1.79043,-0.0632883,2.877,3.38922
-1.78109,-0.0632883,2.877,3.38429
-1.77176,-0.0632883,2.877,3.37939
-1.79244,-0.0643662,2.926,3.43197
-1.78294,-0.0643662,2.926,3.42702
-1.77344,-0.0643662,2.926,3.42209
-1.77902,-0.0649161,2.951,3.44638
-1.76944,-0.0649161,2.951,3.44144
-1.75986,-0.0649161,2.951,3.43653
-1.75028,-0.0649161,2.951,3.43163
-1.75604,-0.0654881,2.977,3.45695
-1.73112,-0.0649161,2.951,3.4219
-1.69238,-0.0638162,2.901,3.35917
-1.68296,-0.0638162,2.901,3.35443
-1.6597,-0.0632883,2.877,3.32201
-1.63659,-0.0627603,2.853,3.28968
-1.62733,-0.0627603,2.853,3.28508
-1.60446,-0.0622324,2.829,3.25291
-1.58231,-0.0617264,2.806,3.22198
-1.5732,-0.0617264,2.806,3.21752
-1.5641,-0.0617264,2.806,3.21307
nan,nan,nan,NaN
nan,nan,nan,NaN
nan,nan,nan,NaN
nan,nan,nan,NaN
nan,nan,nan,NaN
nan,nan,nan,NaN
nan,nan,nan,NaN
nan,nan,nan,NaN
nan,nan,nan,NaN
nan,nan,nan,NaN
-1.52652,-0.0643662,2.926,3.30089
-1.51702,-0.0643662,2.926,3.29651
-1.50752,-0.0643662,2.926,3.29215
-1.49803,-0.0643662,2.926,3.28781
nan,nan,nan,NaN
nan,nan,nan,NaN
nan,nan,nan,NaN
nan,nan,nan,NaN
nan,nan,nan,NaN
-1.28689,-0.0574808,2.613,2.91327
-1.25933,-0.0566229,2.574,2.86611
-1.25098,-0.0566229,2.574,2.86245
-1.22428,-0.0557869,2.536,2.8166
-1.1983,-0.054973,2.499,2.77199
-1.19019,-0.054973,2.499,2.7685
-1.17357,-0.0545771,2.481,2.7451
-1.1486,-0.0537851,2.445,2.70189
-1.13274,-0.0534112,2.428,2.67976
-1.12485,-0.0534112,2.428,2.67644
-1.10915,-0.0530372,2.411,2.65442
-1.09356,-0.0526632,2.394,2.63247
-1.08579,-0.0526632,2.394,2.62925
-1.07802,-0.0526632,2.394,2.62605
-1.06265,-0.0522893,2.377,2.60424
-1.05494,-0.0522893,2.377,2.60111
-1.04722,-0.0522893,2.377,2.59799
-1.03951,-0.0522893,2.377,2.59489
-1.03179,-0.0522893,2.377,2.59181
-1.01718,-0.0519373,2.361,2.57132
-1.00952,-0.0519373,2.361,2.5683
-1.00186,-0.0519373,2.361,2.56529
-0.994193,-0.0519373,2.361,2.56231
-0.986529,-0.0519373,2.361,2.55935
-0.9855,-0.0522893,2.377,2.57373
-0.977785,-0.0522893,2.377,2.57078
-0.970069,-0.0522893,2.377,2.56786
-0.962354,-0.0522893,2.377,2.56495
-0.954639,-0.0522893,2.377,2.56207
-0.946924,-0.0522893,2.377,2.5592
-0.939209,-0.0522893,2.377,2.55636
-0.931494,-0.0522893,2.377,2.55354
-0.923778,-0.0522893,2.377,2.55073
-0.916063,-0.0522893,2.377,2.54795
-0.908348,-0.0522893,2.377,2.54518
-0.900633,-0.0522893,2.377,2.54244
-0.892918,-0.0522893,2.377,2.53972
-0.885203,-0.0522893,2.377,2.53702
-0.877488,-0.0522893,2.377,2.53433
-0.869772,-0.0522893,2.377,2.53167
-0.862057,-0.0522893,2.377,2.52903
-0.854342,-0.0522893,2.377,2.52641
-0.846627,-0.0522893,2.377,2.52381
-0.838912,-0.0522893,2.377,2.52124
-0.831197,-0.0522893,2.377,2.51868
-0.823481,-0.0522893,2.377,2.51614
-0.815766,-0.0522893,2.377,2.51363
-0.808051,-0.0522893,2.377,2.51114
-0.80606,-0.0526632,2.394,2.52661
-0.79829,-0.0526632,2.394,2.52414
-0.790519,-0.0526632,2.394,2.52169
-0.782749,-0.0526632,2.394,2.51927
-0.774979,-0.0526632,2.394,2.51686
-0.772656,-0.0530372,2.411,2.53234
-0.764831,-0.0530372,2.411,2.52996
-0.757005,-0.0530372,2.411,2.52761
-0.74918,-0.0530372,2.411,2.52527
-0.746581,-0.0534112,2.428,2.54075
-0.738701,-0.0534112,2.428,2.53845
-0.73082,-0.0534112,2.428,2.53617
-0.722939,-0.0534112,2.428,2.53391
-0.715059,-0.0534112,2.428,2.53167
-0.707178,-0.0534112,2.428,2.52945
-0.699297,-0.0534112,2.428,2.52726
-0.691417,-0.0534112,2.428,2.52509
-0.683536,-0.0534112,2.428,2.52295
-0.675655,-0.0534112,2.428,2.52082
-0.667775,-0.0534112,2.428,2.51872
-0.659894,-0.0534112,2.428,2.51664
-0.652013,-0.0534112,2.428,2.51459
-0.648643,-0.0537851,2.445,2.53015
-0.640707,-0.0537851,2.445,2.52813
-0.632771,-0.0537851,2.445,2.52613
-0.624835,-0.0537851,2.445,2.52415
-0.621441,-0.0541811,2.463,2.54077
-0.613446,-0.0541811,2.463,2.53882
-0.605452,-0.0541811,2.463,2.5369
-0.597458,-0.0541811,2.463,2.53501
-0.593771,-0.0545771,2.481,2.55165
-0.585719,-0.0545771,2.481,2.54979
-0.577666,-0.0545771,2.481,2.54795
-0.569613,-0.0545771,2.481,2.54613
-0.561561,-0.0545771,2.481,2.54434
-0.557524,-0.054973,2.499,2.56103
-0.549413,-0.054973,2.499,2.55927
-0.541301,-0.054973,2.499,2.55754
-0.53319,-0.054973,2.499,2.55584
-0.528861,-0.055369,2.517,2.57256
-0.520692,-0.055369,2.517,2.57089
-0.512522,-0.055369,2.517,2.56925
-0.504353,-0.055369,2.517,2.56763
-0.499929,-0.0557869,2.536,2.58541
-0.491697,-0.0557869,2.536,2.58383
-0.483466,-0.0557869,2.536,2.58228
-0.475235,-0.0557869,2.536,2.58075
-0.463505,-0.055369,2.517,2.55992
-0.455335,-0.055369,2.517,2.55845
-0.447166,-0.055369,2.517,2.55701
-0.44231,-0.0557869,2.536,2.57489
-0.434079,-0.0557869,2.536,2.57349
-0.425848,-0.0557869,2.536,2.57211
-0.417616,-0.0557869,2.536,2.57076
-0.409385,-0.0557869,2.536,2.56944
-0.404159,-0.0562049,2.555,2.58738
-0.395866,-0.0562049,2.555,2.5861
-0.387574,-0.0562049,2.555,2.58484
-0.379281,-0.0562049,2.555,2.58361
-0.370988,-0.0562049,2.555,2.58241
-0.362695,-0.0562049,2.555,2.58123
-0.354402,-0.0562049,2.555,2.58007
-0.348683,-0.0566229,2.574,2.59813
-0.340328,-0.0566229,2.574,2.59702
-0.329523,-0.0562049,2.555,2.57678
-0.32123,-0.0562049,2.555,2.57573
-0.312937,-0.0562049,2.555,2.57471
-0.304645,-0.0562049,2.555,2.57371
-0.296352,-0.0562049,2.555,2.57274
-0.288059,-0.0562049,2.555,2.5718
-0.277685,-0.0557869,2.536,2.55177
-0.269454,-0.0557869,2.536,2.55088
-0.261223,-0.0557869,2.536,2.55003
-0.252992,-0.0557869,2.536,2.5492
-0.244761,-0.0557869,2.536,2.54839
-0.236529,-0.0557869,2.536,2.54762
-0.228298,-0.0557869,2.536,2.54687
-0.220067,-0.0557869,2.536,2.54614
-0.211836,-0.0557869,2.536,2.54544
-0.203604,-0.0557869,2.536,2.54477
-0.195373,-0.0557869,2.536,2.54413
-0.187142,-0.0557869,2.536,2.54351
-0.180251,-0.0562049,2.555,2.56197
-0.171958,-0.0562049,2.555,2.5614
-0.163665,-0.0562049,2.555,2.56085
-0.155372,-0.0562049,2.555,2.56034
-0.148173,-0.0566229,2.574,2.57888
-0.138787,-0.0562049,2.555,2.55938
-0.130494,-0.0562049,2.555,2.55895
-0.12311,-0.0566229,2.574,2.57756
-0.114755,-0.0566229,2.574,2.57718
-0.1064,-0.0566229,2.574,2.57682
-0.0980459,-0.0566229,2.574,2.57649
-0.0896914,-0.0566229,2.574,2.57618
-0.0813368,-0.0566229,2.574,2.57591
-0.073521,-0.0570408,2.593,2.59467
-0.0651047,-0.0570408,2.593,2.59444
-0.0566885,-0.0570408,2.593,2.59425
-0.0482722,-0.0570408,2.593,2.59408
-0.039856,-0.0570408,2.593,2.59393
-0.0314398,-0.0570408,2.593,2.59382
-0.0232011,-0.0574808,2.613,2.61374
-0.0148326,-0.0579208,2.633,2.63368
-0.00623883,-0.0574808,2.613,2.61364
0.00224232,-0.0574808,2.613,2.61363
0.0106414,-0.0570408,2.593,2.59365
0.0190576,-0.0570408,2.593,2.5937
0.0274739,-0.0570408,2.593,2.59377
0.0356271,-0.0566229,2.574,2.57487
0.0439817,-0.0566229,2.574,2.575
0.0523362,-0.0566229,2.574,2.57515
0.0602428,-0.0562049,2.555,2.55633
0.0685357,-0.0562049,2.555,2.55654
0.0768286,-0.0562049,2.555,2.55677
0.0844885,-0.0557869,2.536,2.53802
0.0927197,-0.0557869,2.536,2.53831
0.100951,-0.0557869,2.536,2.53862
0.109182,-0.0557869,2.536,2.53896
0.117413,-0.0557869,2.536,2.53933
0.125645,-0.0557869,2.536,2.53972
0.133876,-0.0557869,2.536,2.54014
0.143172,-0.0562049,2.555,2.55963
0.151465,-0.0562049,2.555,2.5601
0.159758,-0.0562049,2.555,2.56061
0.1693,-0.0566229,2.574,2.58018
0.177655,-0.0566229,2.574,2.58074
0.186009,-0.0566229,2.574,2.58133
0.195799,-0.0570408,2.593,2.60101
0.204215,-0.0570408,2.593,2.60165
0.212631,-0.0570408,2.593,2.60233
0.221047,-0.0570408,2.593,2.60303
0.229463,-0.0570408,2.593,2.60376
0.23788,-0.0570408,2.593,2.60451
0.246296,-0.0570408,2.593,2.6053
0.254712,-0.0570408,2.593,2.6061
0.263128,-0.0570408,2.593,2.60694
0.271545,-0.0570408,2.593,2.6078
0.27791,-0.0566229,2.574,2.58958
0.286264,-0.0566229,2.574,2.59049
0.294619,-0.0566229,2.574,2.59142
0.300737,-0.0562049,2.555,2.57325
0.30903,-0.0562049,2.555,2.57423
0.317323,-0.0562049,2.555,2.57524
0.325615,-0.0562049,2.555,2.57628
0.333908,-0.0562049,2.555,2.57734
0.342201,-0.0562049,2.555,2.57843
0.347888,-0.0557869,2.536,2.56036
0.356119,-0.0557869,2.536,2.56149
0.36435,-0.0557869,2.536,2.56265
0.372581,-0.0557869,2.536,2.56383
0.375257,-0.054973,2.499,2.52762
0.383368,-0.054973,2.499,2.52883
0.391479,-0.054973,2.499,2.53007
0.39959,-0.054973,2.499,2.53134
nan,nan,nan,NaN
nan,nan,nan,NaN
0.417816,-0.0541811,2.463,2.49877
0.425811,-0.0541811,2.463,2.50012
nan,nan,nan,NaN
0.441799,-0.0541811,2.463,2.5029
0.449794,-0.0541811,2.463,2.50432
0.457788,-0.0541811,2.463,2.50577
0.465782,-0.0541811,2.463,2.50724
0.477239,-0.0545771,2.481,2.52707
0.488812,-0.054973,2.499,2.54695
0.496924,-0.054973,2.499,2.54852
nan,nan,nan,NaN
nan,nan,nan,NaN
nan,nan,nan,NaN
nan,nan,nan,NaN
0.549524,-0.0562049,2.555,2.61403
0.557817,-0.0562049,2.555,2.61579
0.566109,-0.0562049,2.555,2.61757
0.574402,-0.0562049,2.555,2.61937
0.582695,-0.0562049,2.555,2.62121
0.590988,-0.0562049,2.555,2.62306
0.603738,-0.0566229,2.574,2.64446
0.612092,-0.0566229,2.574,2.64638
0.620447,-0.0566229,2.574,2.64833
0.628801,-0.0566229,2.574,2.6503
0.641859,-0.0570408,2.593,2.67187
0.650275,-0.0570408,2.593,2.6739
0.658691,-0.0570408,2.593,2.67596
0.667108,-0.0570408,2.593,2.67805
0.675524,-0.0570408,2.593,2.68016
0.68394,-0.0570408,2.593,2.68229
0.692356,-0.0570408,2.593,2.68445
0.700773,-0.0570408,2.593,2.68663
0.709189,-0.0570408,2.593,2.68884
0.712347,-0.0566229,2.574,2.67135
0.720701,-0.0566229,2.574,2.67359
0.729056,-0.0566229,2.574,2.67586
0.731967,-0.0562049,2.555,2.65838
0.734755,-0.0557869,2.536,2.64089
0.742987,-0.0557869,2.536,2.64319
0.74559,-0.055369,2.517,2.62569
0.753759,-0.055369,2.517,2.62802
0.76768,-0.0557869,2.536,2.65023
0.775912,-0.0557869,2.536,2.65263
0.784143,-0.0557869,2.536,2.65505
0.792374,-0.0557869,2.536,2.65749
0.800605,-0.0557869,2.536,2.65996
0.808836,-0.0557869,2.536,2.66245
0.823189,-0.0562049,2.555,2.68493
0.837665,-0.0566229,2.574,2.70746
0.839775,-0.0562049,2.555,2.69006
0.848068,-0.0562049,2.555,2.69266
0.862729,-0.0566229,2.574,2.71532
0.864654,-0.0562049,2.555,2.69793
0.872947,-0.0562049,2.555,2.7006
0.881239,-0.0562049,2.555,2.70329
0.882918,-0.0557869,2.536,2.68588
0.884472,-0.055369,2.517,2.66845
0.892642,-0.055369,2.517,2.67117
0.894369,-0.054973,2.499,2.65479
0.889479,-0.0541811,2.463,2.61925
0.897474,-0.0541811,2.463,2.62198
0.905468,-0.0541811,2.463,2.62472
0.906787,-0.0537851,2.445,2.60829
0.908362,-0.0534112,2.428,2.59291
0.916243,-0.0534112,2.428,2.59568
0.917653,-0.0530372,2.411,2.58028
0.918953,-0.0526632,2.394,2.56486
0.926724,-0.0526632,2.394,2.56765
0.934494,-0.0526632,2.394,2.57046
0.942264,-0.0526632,2.394,2.5733
0.950035,-0.0526632,2.394,2.57616
0.951003,-0.0522893,2.377,2.56072
0.958719,-0.0522893,2.377,2.56359
0.973346,-0.0526632,2.394,2.58484
0.981116,-0.0526632,2.394,2.58778
0.995908,-0.0530372,2.411,2.60913
1.01789,-0.0537851,2.445,2.64897
1.04848,-0.054973,2.499,2.7106
1.05659,-0.054973,2.499,2.71374
1.08047,-0.0557869,2.536,2.75714
1.12175,-0.0574808,2.613,2.84419
1.13024,-0.0574808,2.613,2.84754
1.16574,-0.0588447,2.675,2.91857
1.21217,-0.0607365,2.761,3.01599
1.25121,-0.0622324,2.829,3.09397
1.26039,-0.0622324,2.829,3.09769
1.29112,-0.0632883,2.877,3.15406
1.3113,-0.0638162,2.901,3.18424
1.32072,-0.0638162,2.901,3.18813
1.3416,-0.0643662,2.926,3.21955
1.36264,-0.0649161,2.951,3.25106
1.37222,-0.0649161,2.951,3.25509
1.3818,-0.0649161,2.951,3.25914
1.39137,-0.0649161,2.951,3.26321
1.40095,-0.0649161,2.951,3.2673
1.41053,-0.0649161,2.951,3.27142
1.42011,-0.0649161,2.951,3.27556
1.42969,-0.0649161,2.951,3.27973
1.43926,-0.0649161,2.951,3.28392
1.44884,-0.0649161,2.951,3.28812
1.47127,-0.0654881,2.977,3.32136
1.468,-0.0649161,2.951,3.29661
1.47758,-0.0649161,2.951,3.30089
1.50026,-0.0654881,2.977,3.33431
1.50992,-0.0654881,2.977,3.33866
1.51958,-0.0654881,2.977,3.34305
1.5426,-0.06606,3.003,3.37668
1.55235,-0.06606,3.003,3.38115
1.5621,-0.06606,3.003,3.38563
1.58598,-0.066654,3.03,3.42062
1.61003,-0.0672479,3.057,3.45572
1.61995,-0.0672479,3.057,3.46035
1.64427,-0.0678419,3.084,3.49561
1.6693,-0.0684578,3.112,3.53211
1.6794,-0.0684578,3.112,3.53689
1.6895,-0.0684578,3.112,3.5417
1.71544,-0.0690957,3.141,3.57958
1.74157,-0.0697337,3.17,3.61757
1.73583,-0.0690957,3.141,3.5894
1.74602,-0.0690957,3.141,3.59434
1.75622,-0.0690957,3.141,3.5993
1.76641,-0.0690957,3.141,3.60429
1.76021,-0.0684578,3.112,3.57597
1.77031,-0.0684578,3.112,3.58095
1.78041,-0.0684578,3.112,3.58596
1.79051,-0.0684578,3.112,3.59098
1.80061,-0.0684578,3.112,3.59603
1.79442,-0.0678419,3.084,3.5687
1.80443,-0.0678419,3.084,3.57374
1.79855,-0.0672479,3.057,3.54747
1.80848,-0.0672479,3.057,3.55251
1.8184,-0.0672479,3.057,3.55758
1.81217,-0.066654,3.03,3.53119
1.82201,-0.066654,3.03,3.53625
1.83184,-0.066654,3.03,3.54133
1.82526,-0.06606,3.003,3.51482
1.83501,-0.06606,3.003,3.51989
1.84476,-0.06606,3.003,3.52498
1.82239,-0.0649161,2.951,3.46897
1.83197,-0.0649161,2.951,3.47401
1.82595,-0.0643662,2.926,3.4496
1.81976,-0.0638162,2.901,3.42511
1.82918,-0.0638162,2.901,3.43013
1.82338,-0.0632883,2.877,3.40674
1.80215,-0.0622324,2.829,3.35482
1.7966,-0.0617264,2.806,3.33245
1.80571,-0.0617264,2.806,3.33737
1.78571,-0.0607365,2.761,3.2887
1.76607,-0.0597686,2.717,3.24109
1.77489,-0.0597686,2.717,3.24591
1.75614,-0.0588447,2.675,3.20049
1.72392,-0.0574808,2.613,3.13097
1.7324,-0.0574808,2.613,3.13565
1.72755,-0.0570408,2.593,3.1163
1.71053,-0.0562049,2.555,3.07524
1.71882,-0.0562049,2.555,3.07986
1.70143,-0.055369,2.517,3.03862
1.69737,-0.054973,2.499,3.02144
-2.02986,-0.0548718,2.926,3.56158
-2.0031,-0.0544029,2.901,3.52579
-1.99369,-0.0544029,2.901,3.52045
-1.95144,-0.0535028,2.853,3.45696
-1.92584,-0.0530527,2.829,3.42271
-1.91666,-0.0530527,2.829,3.41755
-1.90748,-0.0530527,2.829,3.41241
-1.86743,-0.0521901,2.783,3.35188
-1.85839,-0.0521901,2.783,3.34686
-1.84936,-0.0521901,2.783,3.34185
-1.84033,-0.0521901,2.783,3.33686
-1.81682,-0.0517775,2.761,3.30555
-1.80786,-0.0517775,2.761,3.30063
-1.7989,-0.0517775,2.761,3.29573
-1.78993,-0.0517775,2.761,3.29085
-1.78097,-0.0517775,2.761,3.28598
-1.77201,-0.0517775,2.761,3.28113
-1.76305,-0.0517775,2.761,3.2763
-1.76807,-0.0521901,2.783,3.29756
-1.75903,-0.0521901,2.783,3.29272
-1.75,-0.0521901,2.783,3.2879
-1.76974,-0.0530527,2.829,3.33737
-1.79043,-0.0539529,2.877,3.38905
-1.78109,-0.0539529,2.877,3.38413
-1.77176,-0.0539529,2.877,3.37922
-1.79244,-0.0548718,2.926,3.43181
-1.78294,-0.0548718,2.926,3.42686
-1.77344,-0.0548718,2.926,3.42193
-1.77902,-0.0553406,2.951,3.44621
-1.76944,-0.0553406,2.951,3.44127
-1.75986,-0.0553406,2.951,3.43636
-1.75028,-0.0553406,2.951,3.43146
-1.75604,-0.0558282,2.977,3.45678
-1.73112,-0.0553406,2.951,3.42173
-1.69238,-0.0544029,2.901,3.359
-1.68296,-0.0544029,2.901,3.35427
-1.6597,-0.0539529,2.877,3.32184
-1.63659,-0.0535028,2.853,3.28952
-1.62733,-0.0535028,2.853,3.28492
-1.60446,-0.0530527,2.829,3.25275
-1.58231,-0.0526214,2.806,3.22182
-1.5732,-0.0526214,2.806,3.21736
-1.5641,-0.0526214,2.806,3.21291
nan,nan,nan,NaN
-1.53321,-0.0521901,2.783,3.17782
-1.52418,-0.0521901,2.783,3.17347
-1.51514,-0.0521901,2.783,3.16914
-1.50611,-0.0521901,2.783,3.16484
nan,nan,nan,NaN
-1.52547,-0.0535028,2.853,3.23567
-1.51621,-0.0535028,2.853,3.23131
-1.51963,-0.0539529,2.877,3.25412
-1.52289,-0.0544029,2.901,3.27688
-1.51347,-0.0544029,2.901,3.27252
-1.50406,-0.0544029,2.901,3.26817
-1.49464,-0.0544029,2.901,3.26385
-1.48523,-0.0544029,2.901,3.25955
-1.43918,-0.0530527,2.829,3.17448
-1.43,-0.0530527,2.829,3.17032
-1.39772,-0.0521901,2.783,3.11471
-1.35575,-0.0509524,2.717,3.0369
-1.34693,-0.0509524,2.717,3.03297
-1.28689,-0.049002,2.613,2.91312
-1.25933,-0.0482707,2.574,2.86596
-1.25098,-0.0482707,2.574,2.8623
-1.22428,-0.047558,2.536,2.81645
-1.1983,-0.0468642,2.499,2.77185
-1.19019,-0.0468642,2.499,2.76835
-1.17357,-0.0465266,2.481,2.74496
-1.1486,-0.0458515,2.445,2.70174
-1.13274,-0.0455327,2.428,2.67962
-1.12485,-0.0455327,2.428,2.6763
-1.10915,-0.0452139,2.411,2.65428
-1.09356,-0.0448951,2.394,2.63232
-1.08579,-0.0448951,2.394,2.62911
-1.07802,-0.0448951,2.394,2.62591
-1.06265,-0.0445763,2.377,2.6041
-1.05494,-0.0445763,2.377,2.60096
-1.04722,-0.0445763,2.377,2.59784
-1.03951,-0.0445763,2.377,2.59474
-1.03179,-0.0445763,2.377,2.59166
-1.01718,-0.0442762,2.361,2.57118
-1.00952,-0.0442762,2.361,2.56815
-1.00186,-0.0442762,2.361,2.56515
-0.994193,-0.0442762,2.361,2.56217
-0.986529,-0.0442762,2.361,2.5592
-0.9855,-0.0445763,2.377,2.57358
-0.977785,-0.0445763,2.377,2.57064
-0.970069,-0.0445763,2.377,2.56771
-0.962354,-0.0445763,2.377,2.56481
-0.954639,-0.0445763,2.377,2.56192
-0.946924,-0.0445763,2.377,2.55906
-0.939209,-0.0445763,2.377,2.55621
-0.931494,-0.0445763,2.377,2.55339
-0.923778,-0.0445763,2.377,2.55058
-0.916063,-0.0445763,2.377,2.5478
-0.908348,-0.0445763,2.377,2.54504
-0.900633,-0.0445763,2.377,2.54229
-0.892918,-0.0445763,2.377,2.53957
-0.885203,-0.0445763,2.377,2.53687
-0.877488,-0.0445763,2.377,2.53419
-0.869772,-0.0445763,2.377,2.53153
-0.862057,-0.0445763,2.377,2.52888
-0.854342,-0.0445763,2.377,2.52627
-0.846627,-0.0445763,2.377,2.52367
-0.838912,-0.0445763,2.377,2.52109
-0.831197,-0.0445763,2.377,2.51853
-0.823481,-0.0445763,2.377,2.516
-0.815766,-0.0445763,2.377,2.51348
-0.81383,-0.0448951,2.394,2.52895
-0.80606,-0.0448951,2.394,2.52646
-0.79829,-0.0448951,2.394,2.52399
-0.790519,-0.0448951,2.394,2.52154
-0.788307,-0.0452139,2.411,2.537
-0.780482,-0.0452139,2.411,2.53458
-0.772656,-0.0452139,2.411,2.53219
-0.764831,-0.0452139,2.411,2.52981
-0.762343,-0.0455327,2.428,2.54527
-0.754462,-0.0455327,2.428,2.54293
-0.741354,-0.0452139,2.411,2.52281
-0.733529,-0.0452139,2.411,2.52052
-0.725703,-0.0452139,2.411,2.51826
-0.722939,-0.0455327,2.428,2.53375
-0.715059,-0.0455327,2.428,2.53151
-0.707178,-0.0455327,2.428,2.5293
-0.699297,-0.0455327,2.428,2.52711
-0.691417,-0.0455327,2.428,2.52494
-0.683536,-0.0455327,2.428,2.52279
-0.675655,-0.0455327,2.428,2.52067
-0.667775,-0.0455327,2.428,2.51857
-0.659894,-0.0455327,2.428,2.51649
-0.652013,-0.0455327,2.428,2.51443
-0.644133,-0.0455327,2.428,2.5124
-0.640707,-0.0458515,2.445,2.52797
-0.632771,-0.0458515,2.445,2.52597
-0.624835,-0.0458515,2.445,2.52399
-0.621441,-0.0461891,2.463,2.54061
-0.613446,-0.0461891,2.463,2.53866
-0.605452,-0.0461891,2.463,2.53674
-0.597458,-0.0461891,2.463,2.53485
-0.593771,-0.0465266,2.481,2.55149
-0.585719,-0.0465266,2.481,2.54963
-0.577666,-0.0465266,2.481,2.54779
-0.569613,-0.0465266,2.481,2.54597
-0.561561,-0.0465266,2.481,2.54418
-0.557524,-0.0468642,2.499,2.56087
-0.549413,-0.0468642,2.499,2.55911
-0.5452,-0.0472017,2.517,2.5758
-0.537031,-0.0472017,2.517,2.57409
-0.528861,-0.0472017,2.517,2.57239
-0.520692,-0.0472017,2.517,2.57073
-0.512522,-0.0472017,2.517,2.56908
-0.50816,-0.047558,2.536,2.58685
-0.499929,-0.047558,2.536,2.58524
-0.491697,-0.047558,2.536,2.58366
-0.483466,-0.047558,2.536,2.58211
-0.475235,-0.047558,2.536,2.58058
-0.463505,-0.0472017,2.517,2.55976
-0.455335,-0.0472017,2.517,2.55829
-0.450541,-0.047558,2.536,2.57615
-0.44231,-0.047558,2.536,2.57472
-0.434079,-0.047558,2.536,2.57332
-0.425848,-0.047558,2.536,2.57195
-0.417616,-0.047558,2.536,2.5706
-0.409385,-0.047558,2.536,2.56927
-0.404159,-0.0479144,2.555,2.58721
-0.395866,-0.0479144,2.555,2.58593
-0.387574,-0.0479144,2.555,2.58467
-0.379281,-0.0479144,2.555,2.58344
-0.370988,-0.0479144,2.555,2.58224
-0.362695,-0.0479144,2.555,2.58106
-0.354402,-0.0479144,2.555,2.57991
-0.346109,-0.0479144,2.555,2.57878
-0.337816,-0.0479144,2.555,2.57768
-0.329523,-0.0479144,2.555,2.57661
-0.32123,-0.0479144,2.555,2.57556
-0.312937,-0.0479144,2.555,2.57454
-0.304645,-0.0479144,2.555,2.57354
-0.296352,-0.0479144,2.555,2.57258
-0.288059,-0.0479144,2.555,2.57163
-0.279766,-0.0479144,2.555,2.57072
-0.269454,-0.047558,2.536,2.55072
-0.261223,-0.047558,2.536,2.54986
-0.252992,-0.047558,2.536,2.54903
-0.244761,-0.047558,2.536,2.54823
-0.236529,-0.047558,2.536,2.54745
-0.228298,-0.047558,2.536,2.5467
-0.220067,-0.047558,2.536,2.54597
-0.213423,-0.0479144,2.555,2.56435
-0.20513,-0.0479144,2.555,2.56367
-0.196837,-0.0479144,2.555,2.56302
-0.188544,-0.0479144,2.555,2.5624
-0.180251,-0.0479144,2.555,2.5618
-0.171958,-0.0479144,2.555,2.56123
-0.163665,-0.0479144,2.555,2.56068
-0.156528,-0.0482707,2.574,2.57921
-0.148173,-0.0482707,2.574,2.57871
-0.139819,-0.0482707,2.574,2.57825
-0.131464,-0.0482707,2.574,2.57781
-0.12311,-0.0482707,2.574,2.57739
-0.114755,-0.0482707,2.574,2.57701
-0.1064,-0.0482707,2.574,2.57665
-0.0980459,-0.0482707,2.574,2.57632
-0.0903534,-0.048627,2.593,2.59503
-0.0819372,-0.048627,2.593,2.59475
-0.073521,-0.048627,2.593,2.5945
-0.0651047,-0.048627,2.593,2.59427
-0.0566885,-0.048627,2.593,2.59408
-0.0482722,-0.048627,2.593,2.59391
-0.039856,-0.048627,2.593,2.59376
-0.0314398,-0.048627,2.593,2.59365
