0.0907089,0.0259273,2.481,2.48279
0.0987616,0.0259273,2.481,2.4831
0.106814,0.0259273,2.481,2.48343
0.114867,0.0259273,2.481,2.48379
0.12292,0.0259273,2.481,2.48418
0.130972,0.0259273,2.481,2.48459
0.139025,0.0259273,2.481,2.48503
0.148145,0.0261154,2.499,2.50352
0.156256,0.0261154,2.499,2.50402
0.165551,0.0263036,2.517,2.52258
0.173721,0.0263036,2.517,2.52313
0.18189,0.0263036,2.517,2.5237
0.19006,0.0263036,2.517,2.5243
0.199726,0.0265021,2.536,2.54399
0.207957,0.0265021,2.536,2.54465
0.216188,0.0265021,2.536,2.54534
0.224419,0.0265021,2.536,2.54605
0.232651,0.0265021,2.536,2.54679
0.240882,0.0265021,2.536,2.54755
0.249113,0.0265021,2.536,2.54834
nan,nan,nan,NaN
nan,nan,nan,NaN
nan,nan,nan,NaN
nan,nan,nan,NaN
nan,nan,nan,NaN
nan,nan,nan,NaN
nan,nan,nan,NaN
nan,nan,nan,NaN
nan,nan,nan,NaN
nan,nan,nan,NaN
nan,nan,nan,NaN
nan,nan,nan,NaN
nan,nan,nan,NaN
nan,nan,nan,NaN
nan,nan,nan,NaN
nan,nan,nan,NaN
nan,nan,nan,NaN
nan,nan,nan,NaN
nan,nan,nan,NaN
nan,nan,nan,NaN
nan,nan,nan,NaN
nan,nan,nan,NaN
nan,nan,nan,NaN
nan,nan,nan,NaN
nan,nan,nan,NaN
nan,nan,nan,NaN
nan,nan,nan,NaN
nan,nan,nan,NaN
nan,nan,nan,NaN
nan,nan,nan,NaN
nan,nan,nan,NaN
nan,nan,nan,NaN
nan,nan,nan,NaN
nan,nan,nan,NaN
nan,nan,nan,NaN
nan,nan,nan,NaN
nan,nan,nan,NaN
nan,nan,nan,NaN
nan,nan,nan,NaN
nan,nan,nan,NaN
nan,nan,nan,NaN
nan,nan,nan,NaN
nan,nan,nan,NaN
nan,nan,nan,NaN
nan,nan,nan,NaN
nan,nan,nan,NaN
nan,nan,nan,NaN
0.658691,0.0270978,2.593,2.67549
0.667108,0.0270978,2.593,2.67758
nan,nan,nan,NaN
0.68394,0.0270978,2.593,2.68182
0.692356,0.0270978,2.593,2.68398
0.706178,0.0273068,2.613,2.70688
0.698796,0.0267007,2.555,2.64897
0.707089,0.0267007,2.555,2.65117
0.715382,0.0267007,2.555,2.6534
0.729056,0.0268992,2.574,2.67539
0.737411,0.0268992,2.574,2.67768
0.745765,0.0268992,2.574,2.67999
0.75412,0.0268992,2.574,2.68233
0.762474,0.0268992,2.574,2.68469
0.770829,0.0268992,2.574,2.68708
0.779183,0.0268992,2.574,2.68948
0.787538,0.0268992,2.574,2.69192
0.795892,0.0268992,2.574,2.69437
0.804247,0.0268992,2.574,2.69685
0.812602,0.0268992,2.574,2.69936
0.820956,0.0268992,2.574,2.70188
0.829311,0.0268992,2.574,2.70443
0.837665,0.0268992,2.574,2.70701
0.839775,0.0267007,2.555,2.6896
0.848068,0.0267007,2.555,2.6922
0.856361,0.0267007,2.555,2.69483
0.858224,0.0265021,2.536,2.67741
0.859963,0.0263036,2.517,2.65998
0.868133,0.0263036,2.517,2.66264
0.870036,0.0261154,2.499,2.64625
0.871822,0.0259273,2.481,2.62985
0.879874,0.0259273,2.481,2.63253
0.881485,0.0257392,2.463,2.61611
0.889479,0.0257392,2.463,2.61882
0.890915,0.0255511,2.445,2.60239
0.898851,0.0255511,2.445,2.60511
0.906787,0.0255511,2.445,2.60786
0.908362,0.0253735,2.428,2.59248
0.916243,0.0253735,2.428,2.59525
0.924124,0.0253735,2.428,2.59804
0.932004,0.0253735,2.428,2.60086
0.939885,0.0253735,2.428,2.60369
0.94113,0.0251958,2.411,2.5883
0.948955,0.0251958,2.411,2.59115
0.956781,0.0251958,2.411,2.59403
0.964606,0.0251958,2.411,2.59693
0.972432,0.0251958,2.411,2.59984
0.987169,0.0253735,2.428,2.62113
1.00202,0.0255511,2.445,2.64248
1.00995,0.0255511,2.445,2.6455
1.02538,0.0257392,2.463,2.66804
1.03338,0.0257392,2.463,2.67112
1.04137,0.0257392,2.463,2.67423
1.05703,0.0259273,2.481,2.69692
1.07281,0.0261154,2.499,2.71967
1.08093,0.0261154,2.499,2.72288
1.10516,0.0265021,2.536,2.76647
1.12173,0.0267007,2.555,2.79052
1.14683,0.0270978,2.593,2.83542
1.15525,0.0270978,2.593,2.83884
1.17264,0.0273068,2.613,2.86419
1.18112,0.0273068,2.613,2.86768
1.1896,0.0273068,2.613,2.87118
1.21688,0.0277353,2.654,2.91981
1.24489,0.0281742,2.696,2.96967
1.25364,0.0281742,2.696,2.97335
1.27223,0.0283936,2.717,3.00024
1.29142,0.0286235,2.739,3.02832
1.30031,0.0286235,2.739,3.03212
1.3092,0.0286235,2.739,3.03594
1.32867,0.0288534,2.761,3.0642
1.33764,0.0288534,2.761,3.0681
1.3466,0.0288534,2.761,3.07202
1.35556,0.0288534,2.761,3.07595
1.36452,0.0288534,2.761,3.07991
1.37348,0.0288534,2.761,3.08389
1.39346,0.0290833,2.783,3.1125
1.41408,0.0293237,2.806,3.14231
1.42319,0.0293237,2.806,3.14642
1.44404,0.0295641,2.829,3.17638
1.47788,0.0300657,2.877,3.23453
1.51254,0.0305777,2.926,3.29396
1.52204,0.0305777,2.926,3.29834
1.54462,0.030839,2.951,3.33095
1.58159,0.0313824,3.003,3.39417
1.59134,0.0313824,3.003,3.39873
1.61548,0.0316646,3.03,3.4339
1.65428,0.0322289,3.084,3.49982
1.6794,0.0325215,3.112,3.53638
1.6895,0.0325215,3.112,3.54119
1.71544,0.0328246,3.141,3.57906
1.72563,0.0328246,3.141,3.58396
1.73583,0.0328246,3.141,3.58888
1.76214,0.0331276,3.17,3.627
1.77243,0.0331276,3.17,3.63201
1.78272,0.0331276,3.17,3.63705
1.79301,0.0331276,3.17,3.6421
1.8033,0.0331276,3.17,3.64718
1.797,0.0328246,3.141,3.61886
1.80719,0.0328246,3.141,3.62394
1.81739,0.0328246,3.141,3.62903
1.82758,0.0328246,3.141,3.63415
1.83778,0.0328246,3.141,3.63928
1.83091,0.0325215,3.112,3.6108
1.84101,0.0325215,3.112,3.61593
1.85111,0.0325215,3.112,3.62108
1.84447,0.0322289,3.084,3.59363
1.85448,0.0322289,3.084,3.59878
1.84816,0.0319467,3.057,3.57239
1.85809,0.0319467,3.057,3.57753
1.86801,0.0319467,3.057,3.5827
1.86134,0.0316646,3.03,3.55619
1.85451,0.0313824,3.003,3.52962
1.86425,0.0313824,3.003,3.53475
1.85777,0.0311107,2.977,3.50925
1.85113,0.030839,2.951,3.48368
1.82918,0.0303165,2.901,3.42967
1.8386,0.0303165,2.901,3.4347
1.83272,0.0300657,2.877,3.41129
1.82669,0.0298149,2.853,3.38782
1.83595,0.0298149,2.853,3.39282
1.81482,0.0293237,2.806,3.34186
1.78037,0.0286235,2.739,3.26691
1.78926,0.0286235,2.739,3.27176
1.76992,0.0281742,2.696,3.22519
1.75097,0.0277353,2.654,3.17968
1.75958,0.0277353,2.654,3.18443
1.74088,0.0273068,2.613,3.13993
1.72325,0.0268992,2.574,3.09771
1.7316,0.0268992,2.574,3.10236
1.72711,0.0267007,2.555,3.0841
1.7096,0.0263036,2.517,3.04281
-1.90013,0.0375111,2.739,3.33377
-1.87605,0.0372098,2.717,3.30198
-1.86723,0.0372098,2.717,3.29697
-1.85842,0.0372098,2.717,3.29199
-1.8496,0.0372098,2.717,3.28702
-1.84078,0.0372098,2.717,3.28206
-1.83196,0.0372098,2.717,3.27713
-1.82314,0.0372098,2.717,3.2722
-1.81432,0.0372098,2.717,3.2673
-1.8055,0.0372098,2.717,3.26241
-1.79668,0.0372098,2.717,3.25754
-1.77405,0.0369222,2.696,3.22754
-1.7653,0.0369222,2.696,3.22274
-1.75655,0.0369222,2.696,3.21795
-1.7478,0.0369222,2.696,3.21319
-1.73905,0.0369222,2.696,3.20844
-1.71682,0.0366346,2.675,3.17875
-1.70813,0.0366346,2.675,3.17407
-1.69945,0.0366346,2.675,3.1694
-1.69077,0.0366346,2.675,3.16475
-1.66888,0.036347,2.654,3.13532
-1.66027,0.036347,2.654,3.13074
-1.66472,0.0366346,2.675,3.15092
-1.65604,0.0366346,2.675,3.14634
-1.64736,0.0366346,2.675,3.14178
-1.63868,0.0366346,2.675,3.13723
-1.62999,0.0366346,2.675,3.13271
-1.62131,0.0366346,2.675,3.1282
-1.62529,0.0369222,2.696,3.14823
-1.61654,0.0369222,2.696,3.14372
-1.60779,0.0369222,2.696,3.13923
-1.58658,0.0366346,2.675,3.11034
-1.5779,0.0366346,2.675,3.10592
-1.56922,0.0366346,2.675,3.10152
-1.56053,0.0366346,2.675,3.09713
-1.55185,0.0366346,2.675,3.09277
-1.54317,0.0366346,2.675,3.08842
-1.53449,0.0366346,2.675,3.08409
-1.53778,0.0369222,2.696,3.10396
-1.51712,0.0366346,2.675,3.07549
-1.50844,0.0366346,2.675,3.07121
-1.49976,0.0366346,2.675,3.06696
-1.49107,0.0366346,2.675,3.06272
-1.48239,0.0366346,2.675,3.05851
-1.47371,0.0366346,2.675,3.05431
-1.46503,0.0366346,2.675,3.05013
-1.45635,0.0366346,2.675,3.04597
-1.45903,0.0369222,2.696,3.0657
-1.45028,0.0369222,2.696,3.06155
-1.44153,0.0369222,2.696,3.05741
-1.42162,0.0366346,2.675,3.02951
-1.41293,0.0366346,2.675,3.02545
-1.40425,0.0366346,2.675,3.02141
-1.39557,0.0366346,2.675,3.01738
-1.38689,0.0366346,2.675,3.01337
-1.3782,0.0366346,2.675,3.00939
-1.35877,0.036347,2.654,2.98183
-1.35016,0.036347,2.654,2.97791
-1.34154,0.036347,2.654,2.97402
-1.32238,0.0360594,2.633,2.94664
-1.29387,0.0355116,2.593,2.89811
-1.28546,0.0355116,2.593,2.89436
-1.26769,0.0352514,2.574,2.86945
-1.25003,0.0349912,2.555,2.84462
-1.24174,0.0349912,2.555,2.84098
-1.2151,0.0344708,2.517,2.79517
-1.1983,0.0342243,2.499,2.77166
-1.18162,0.0339778,2.481,2.74822
-1.17357,0.0339778,2.481,2.74477
-1.15706,0.0337313,2.463,2.72145
-1.14067,0.0334848,2.445,2.6982
-1.13273,0.0334848,2.445,2.69485
-1.11697,0.0332519,2.428,2.67281
-1.10133,0.0330191,2.411,2.65084
-1.0935,0.0330191,2.411,2.64759
-1.08568,0.0330191,2.411,2.64437
-1.07025,0.0327863,2.394,2.62255
-1.06248,0.0327863,2.394,2.61938
-1.05471,0.0327863,2.394,2.61624
-1.04694,0.0327863,2.394,2.61312
-1.03917,0.0327863,2.394,2.61002
-1.0314,0.0327863,2.394,2.60693
-1.02363,0.0327863,2.394,2.60387
-1.00865,0.0325535,2.377,2.58235
-1.00093,0.0325535,2.377,2.57935
-0.993215,0.0325535,2.377,2.57637
-0.9855,0.0325535,2.377,2.5734
-0.977785,0.0325535,2.377,2.57046
-0.970069,0.0325535,2.377,2.56753
-0.962354,0.0325535,2.377,2.56463
-0.954639,0.0325535,2.377,2.56174
-0.946924,0.0325535,2.377,2.55888
-0.939209,0.0325535,2.377,2.55603
-0.931494,0.0325535,2.377,2.55321
-0.923778,0.0325535,2.377,2.5504
-0.916063,0.0325535,2.377,2.54762
-0.908348,0.0325535,2.377,2.54485
-0.900633,0.0325535,2.377,2.54211
-0.892918,0.0325535,2.377,2.53939
-0.885203,0.0325535,2.377,2.53669
-0.883763,0.0327863,2.394,2.55213
-0.875993,0.0327863,2.394,2.54945
-0.868223,0.0327863,2.394,2.54679
-0.860452,0.0327863,2.394,2.54415
-0.852682,0.0327863,2.394,2.54153
-0.844912,0.0327863,2.394,2.53893
-0.843086,0.0330191,2.411,2.55437
-0.83526,0.0330191,2.411,2.5518
-0.827435,0.0330191,2.411,2.54925
-0.825388,0.0332519,2.428,2.56467
-0.817508,0.0332519,2.428,2.56215
-0.809627,0.0332519,2.428,2.55965
-0.801746,0.0332519,2.428,2.55716
-0.799424,0.0334848,2.445,2.57259
-0.791488,0.0334848,2.445,2.57014
-0.783552,0.0334848,2.445,2.5677
-0.775616,0.0334848,2.445,2.56529
-0.773332,0.0337313,2.463,2.58177
-0.765338,0.0337313,2.463,2.57939
-0.757344,0.0337313,2.463,2.57703
-0.749349,0.0337313,2.463,2.57469
-0.741355,0.0337313,2.463,2.57238
-0.733361,0.0337313,2.463,2.57008
-0.725366,0.0337313,2.463,2.56781
-0.717372,0.0337313,2.463,2.56557
-0.709378,0.0337313,2.463,2.56334
-0.706509,0.0339778,2.481,2.57986
-0.698457,0.0339778,2.481,2.57767
-0.690404,0.0339778,2.481,2.5755
-0.677401,0.0337313,2.463,2.55468
-0.669406,0.0337313,2.463,2.55257
-0.661412,0.0337313,2.463,2.55048
-0.658193,0.0339778,2.481,2.56705
-0.65014,0.0339778,2.481,2.565
-0.642088,0.0339778,2.481,2.56297
-0.634035,0.0339778,2.481,2.56096
-0.625982,0.0339778,2.481,2.55898
-0.622413,0.0342243,2.499,2.57557
-0.614302,0.0342243,2.499,2.57362
-0.606191,0.0342243,2.499,2.5717
-0.598079,0.0342243,2.499,2.5698
-0.589968,0.0342243,2.499,2.56792
-0.581857,0.0342243,2.499,2.56607
-0.573746,0.0342243,2.499,2.56425
-0.565635,0.0342243,2.499,2.56244
-0.561539,0.0344708,2.517,2.57911
-0.55337,0.0344708,2.517,2.57734
-0.5452,0.0344708,2.517,2.5756
-0.537031,0.0344708,2.517,2.57388
-0.532853,0.034731,2.536,2.59161
-0.524622,0.034731,2.536,2.58993
-0.512522,0.0344708,2.517,2.56888
-0.504353,0.0344708,2.517,2.56727
-0.496183,0.0344708,2.517,2.56567
-0.488013,0.0344708,2.517,2.56411
-0.479844,0.0344708,2.517,2.56256
-0.471674,0.0344708,2.517,2.56105
-0.463505,0.0344708,2.517,2.55955
-0.455335,0.0344708,2.517,2.55809
-0.447166,0.0344708,2.517,2.55665
-0.438996,0.0344708,2.517,2.55523
-0.430827,0.0344708,2.517,2.55384
-0.422657,0.0344708,2.517,2.55247
-0.417616,0.034731,2.536,2.57039
-0.409385,0.034731,2.536,2.56907
-0.401154,0.034731,2.536,2.56777
-0.392923,0.034731,2.536,2.56649
-0.384691,0.034731,2.536,2.56525
-0.37646,0.034731,2.536,2.56403
-0.368229,0.034731,2.536,2.56283
-0.359998,0.034731,2.536,2.56166
-0.351766,0.034731,2.536,2.56052
-0.343535,0.034731,2.536,2.5594
-0.337816,0.0349912,2.555,2.57747
-0.329523,0.0349912,2.555,2.5764
-0.318842,0.034731,2.536,2.5562
-0.31061,0.034731,2.536,2.55519
-0.302379,0.034731,2.536,2.5542
-0.294148,0.034731,2.536,2.55324
-0.285917,0.034731,2.536,2.5523
-0.277685,0.034731,2.536,2.55139
-0.269454,0.034731,2.536,2.55051
-0.26318,0.0349912,2.555,2.56876
-0.254887,0.0349912,2.555,2.56792
-0.246594,0.0349912,2.555,2.56711
-0.238301,0.0349912,2.555,2.56633
-0.230009,0.0349912,2.555,2.56557
-0.221716,0.0349912,2.555,2.56484
-0.213423,0.0349912,2.555,2.56414
-0.20513,0.0349912,2.555,2.56346
-0.196837,0.0349912,2.555,2.56281
-0.187142,0.034731,2.536,2.54313
-0.178911,0.034731,2.536,2.54254
-0.170679,0.034731,2.536,2.54197
-0.162448,0.034731,2.536,2.54144
-0.154217,0.034731,2.536,2.54092
-0.145986,0.034731,2.536,2.54044
-0.137755,0.034731,2.536,2.53998
-0.129523,0.034731,2.536,2.53954
-0.121292,0.034731,2.536,2.53914
-0.113061,0.034731,2.536,2.53876
-0.10483,0.034731,2.536,2.5384
-0.0965985,0.034731,2.536,2.53808
-0.0883672,0.034731,2.536,2.53778
-0.080136,0.034731,2.536,2.5375
-0.0719048,0.034731,2.536,2.53726
-0.0641506,0.0349912,2.555,2.55604
-0.0554423,0.034731,2.536,2.53684
-0.0472111,0.034731,2.536,2.53668
-0.0389799,0.034731,2.536,2.53654
-0.0307487,0.034731,2.536,2.53642
-0.0225174,0.034731,2.536,2.53634
-0.0143932,0.0349912,2.555,2.55528
-0.00610034,0.0349912,2.555,2.55525
0.00217625,0.034731,2.536,2.53624
0.0104075,0.034731,2.536,2.53626
0.0186387,0.034731,2.536,2.53631
0.0266686,0.0344708,2.517,2.51738
0.0348382,0.0344708,2.517,2.51748
0.0430077,0.0344708,2.517,2.5176
0.0508113,0.0342243,2.499,2.49975
0.058498,0.0339778,2.481,2.48192
0.0665507,0.0339778,2.481,2.48213
0.0746034,0.0339778,2.481,2.48235
0.0826561,0.0339778,2.481,2.48261
0.0907089,0.0339778,2.481,2.48289
0.098045,0.0337313,2.463,2.46518
0.106039,0.0337313,2.463,2.46551
0.114867,0.0339778,2.481,2.48389
0.12292,0.0339778,2.481,2.48428
0.130972,0.0339778,2.481,2.48469
0.139025,0.0339778,2.481,2.48512
0.148145,0.0342243,2.499,2.50362
0.156256,0.0342243,2.499,2.50411
0.165551,0.0344708,2.517,2.52267
0.173721,0.0344708,2.517,2.52322
0.18189,0.0344708,2.517,2.5238
0.19006,0.0344708,2.517,2.5244
0.199726,0.034731,2.536,2.54409
0.207957,0.034731,2.536,2.54475
0.216188,0.034731,2.536,2.54543
0.224419,0.034731,2.536,2.54615
0.232651,0.034731,2.536,2.54689
0.239077,0.0344708,2.517,2.52856
0.247247,0.0344708,2.517,2.52935
nan,nan,nan,NaN
nan,nan,nan,NaN
nan,nan,nan,NaN
nan,nan,nan,NaN
nan,nan,nan,NaN
nan,nan,nan,NaN
nan,nan,nan,NaN
nan,nan,nan,NaN
nan,nan,nan,NaN
nan,nan,nan,NaN
nan,nan,nan,NaN
nan,nan,nan,NaN
nan,nan,nan,NaN
nan,nan,nan,NaN
nan,nan,nan,NaN
nan,nan,nan,NaN
nan,nan,nan,NaN
nan,nan,nan,NaN
nan,nan,nan,NaN
nan,nan,nan,NaN
nan,nan,nan,NaN
nan,nan,nan,NaN
nan,nan,nan,NaN
nan,nan,nan,NaN
nan,nan,nan,NaN
nan,nan,nan,NaN
nan,nan,nan,NaN
nan,nan,nan,NaN
nan,nan,nan,NaN
nan,nan,nan,NaN
nan,nan,nan,NaN
nan,nan,nan,NaN
nan,nan,nan,NaN
nan,nan,nan,NaN
nan,nan,nan,NaN
nan,nan,nan,NaN
nan,nan,nan,NaN
nan,nan,nan,NaN
nan,nan,nan,NaN
nan,nan,nan,NaN
nan,nan,nan,NaN
nan,nan,nan,NaN
nan,nan,nan,NaN
nan,nan,nan,NaN
nan,nan,nan,NaN
nan,nan,nan,NaN
nan,nan,nan,NaN
nan,nan,nan,NaN
nan,nan,nan,NaN
nan,nan,nan,NaN
nan,nan,nan,NaN
nan,nan,nan,NaN
nan,nan,nan,NaN
0.688403,0.0344708,2.517,2.60967
0.696572,0.0344708,2.517,2.61184
0.710062,0.034731,2.536,2.63376
0.718293,0.034731,2.536,2.63599
0.726524,0.034731,2.536,2.63825
0.734755,0.034731,2.536,2.64052
0.748553,0.0349912,2.555,2.66263
0.756846,0.0349912,2.555,2.66497
0.765139,0.0349912,2.555,2.66734
0.779183,0.0352514,2.574,2.68958
0.787538,0.0352514,2.574,2.69201
0.795892,0.0352514,2.574,2.69447
0.804247,0.0352514,2.574,2.69695
0.812602,0.0352514,2.574,2.69945
0.814896,0.0349912,2.555,2.68203
0.823189,0.0349912,2.555,2.68457
0.831482,0.0349912,2.555,2.68712
0.83353,0.034731,2.536,2.6697
0.841761,0.034731,2.536,2.67228
0.849993,0.034731,2.536,2.67488
0.851794,0.0344708,2.517,2.65745
0.853814,0.0342243,2.499,2.64105
0.861925,0.0342243,2.499,2.64369
0.863769,0.0339778,2.481,2.62728
0.871822,0.0339778,2.481,2.62994
0.879874,0.0339778,2.481,2.63262
0.881485,0.0337313,2.463,2.6162
0.889479,0.0337313,2.463,2.61891
0.890915,0.0334848,2.445,2.60247
0.898851,0.0334848,2.445,2.6052
0.906787,0.0334848,2.445,2.60795
0.908362,0.0332519,2.428,2.59257
0.916243,0.0332519,2.428,2.59534
0.924124,0.0332519,2.428,2.59813
0.932004,0.0332519,2.428,2.60095
0.939885,0.0332519,2.428,2.60378
0.947766,0.0332519,2.428,2.60664
0.948955,0.0330191,2.411,2.59124
0.956781,0.0330191,2.411,2.59412
0.964606,0.0330191,2.411,2.59701
0.972432,0.0330191,2.411,2.59993
0.987169,0.0332519,2.428,2.62122
1.00202,0.0334848,2.445,2.64257
1.00995,0.0334848,2.445,2.64559
1.02538,0.0337313,2.463,2.66813
1.03338,0.0337313,2.463,2.67121
1.04137,0.0337313,2.463,2.67431
1.05703,0.0339778,2.481,2.69701
1.07281,0.0342243,2.499,2.71976
1.08093,0.0342243,2.499,2.72297
1.10516,0.034731,2.536,2.76657
1.12173,0.0349912,2.555,2.79062
1.14683,0.0355116,2.593,2.83551
1.15525,0.0355116,2.593,2.83893
1.17264,0.0357855,2.613,2.86429
1.19016,0.0360594,2.633,2.88972
1.19871,0.0360594,2.633,2.89325
1.21688,0.036347,2.654,2.9199
1.24489,0.0369222,2.696,2.96977
1.25364,0.0369222,2.696,2.97345
1.27223,0.0372098,2.717,3.00034
1.29142,0.0375111,2.739,3.02841
1.30031,0.0375111,2.739,3.03221
1.3092,0.0375111,2.739,3.03604
1.32867,0.0378124,2.761,3.0643
1.33764,0.0378124,2.761,3.0682
1.3466,0.0378124,2.761,3.07211
1.35556,0.0378124,2.761,3.07605
1.36452,0.0378124,2.761,3.08001
1.37348,0.0378124,2.761,3.08399
1.39346,0.0381137,2.783,3.1126
1.41408,0.0384287,2.806,3.14241
1.43486,0.0387437,2.829,3.17231
1.44404,0.0387437,2.829,3.17647
1.47788,0.0394011,2.877,3.23463
1.51254,0.0400721,2.926,3.29407
1.52204,0.0400721,2.926,3.29844
1.54462,0.0404145,2.951,3.33105
1.58159,0.0411267,3.003,3.39428
1.59134,0.0411267,3.003,3.39883
1.61548,0.0414964,3.03,3.43401
1.65428,0.042236,3.084,3.49993
1.6794,0.0426194,3.112,3.53649
1.6895,0.0426194,3.112,3.5413
1.71544,0.0430166,3.141,3.57917
1.74157,0.0434138,3.17,3.61716
1.75186,0.0434138,3.17,3.62212
1.76214,0.0434138,3.17,3.62711
1.77243,0.0434138,3.17,3.63212
1.78272,0.0434138,3.17,3.63715
1.79301,0.0434138,3.17,3.64221
1.8033,0.0434138,3.17,3.64728
1.797,0.0430166,3.141,3.61897
1.80719,0.0430166,3.141,3.62404
1.81739,0.0430166,3.141,3.62914
1.82758,0.0430166,3.141,3.63425
1.83778,0.0430166,3.141,3.63939
1.83091,0.0426194,3.112,3.6109
1.84101,0.0426194,3.112,3.61603
1.85111,0.0426194,3.112,3.62119
1.84447,0.042236,3.084,3.59373
1.85448,0.042236,3.084,3.59888
1.84816,0.0418662,3.057,3.57249
1.85809,0.0418662,3.057,3.57764
1.86801,0.0418662,3.057,3.5828
1.86134,0.0414964,3.03,3.55629
1.85451,0.0411267,3.003,3.52972
1.86425,0.0411267,3.003,3.53485
1.85777,0.0407706,2.977,3.50935
1.85113,0.0404145,2.951,3.48378
1.82918,0.0397298,2.901,3.42976
1.8386,0.0397298,2.901,3.43479
1.83272,0.0394011,2.877,3.41139
1.81133,0.0387437,2.829,3.35941
1.82051,0.0387437,2.829,3.36437
1.79994,0.0381137,2.783,3.31456
1.78037,0.0375111,2.739,3.267
1.78926,0.0375111,2.739,3.27185
1.75614,0.0366346,2.675,3.20015
1.73711,0.0360594,2.633,3.15461
1.74566,0.0360594,2.633,3.15932
1.74088,0.0357855,2.613,3.14002
1.72325,0.0352514,2.574,3.09779
1.7316,0.0352514,2.574,3.10245
1.71427,0.034731,2.536,3.06125
1.7096,0.0344708,2.517,3.04289
-1.90013,0.0463987,2.739,3.33388
-1.87605,0.0460261,2.717,3.30209
-1.86723,0.0460261,2.717,3.29709
-1.85842,0.0460261,2.717,3.2921
-1.8496,0.0460261,2.717,3.28713
-1.84078,0.0460261,2.717,3.28218
-1.83196,0.0460261,2.717,3.27724
-1.82314,0.0460261,2.717,3.27232
-1.81432,0.0460261,2.717,3.26741
-1.8055,0.0460261,2.717,3.26252
-1.79668,0.0460261,2.717,3.25765
-1.77405,0.0456703,2.696,3.22765
-1.7653,0.0456703,2.696,3.22285
-1.75655,0.0456703,2.696,3.21807
-1.7478,0.0456703,2.696,3.2133
-1.73905,0.0456703,2.696,3.20855
-1.71682,0.0453146,2.675,3.17886
-1.69472,0.0449588,2.654,3.14926
-1.68611,0.0449588,2.654,3.14463
-1.66422,0.0446031,2.633,3.11518
-1.65568,0.0446031,2.633,3.11062
-1.64713,0.0446031,2.633,3.10608
-1.65165,0.0449588,2.654,3.12629
-1.64304,0.0449588,2.654,3.12175
-1.62149,0.0446031,2.633,3.09256
-1.61295,0.0446031,2.633,3.08809
-1.6044,0.0446031,2.633,3.08363
-1.60858,0.0449588,2.654,3.10375
-1.59997,0.0449588,2.654,3.0993
-1.59135,0.0449588,2.654,3.09486
-1.58274,0.0449588,2.654,3.09044
-1.56167,0.0446031,2.633,3.06162
-1.55312,0.0446031,2.633,3.05727
-1.54458,0.0446031,2.633,3.05293
-1.53603,0.0446031,2.633,3.04862
-1.53967,0.0449588,2.654,3.0686
-1.53105,0.0449588,2.654,3.06429
-1.52244,0.0449588,2.654,3.05999
-1.51383,0.0449588,2.654,3.05572
-1.50521,0.0449588,2.654,3.05146
-1.4966,0.0449588,2.654,3.04722
-1.48798,0.0449588,2.654,3.043
-1.47937,0.0449588,2.654,3.03879
-1.47075,0.0449588,2.654,3.03461
-1.46214,0.0449588,2.654,3.03044
-1.46503,0.0453146,2.675,3.05024
-1.45635,0.0453146,2.675,3.04608
-1.44766,0.0453146,2.675,3.04194
-1.43898,0.0453146,2.675,3.03782
-1.41907,0.0449588,2.654,3.0099
-1.41046,0.0449588,2.654,3.00585
-1.40184,0.0449588,2.654,3.00182
-1.39323,0.0449588,2.654,2.9978
-1.38461,0.0449588,2.654,2.99381
-1.36511,0.0446031,2.633,2.96618
-1.35656,0.0446031,2.633,2.96225
-1.34802,0.0446031,2.633,2.95835
-1.33947,0.0446031,2.633,2.95447
-1.33093,0.0446031,2.633,2.9506
-1.31234,0.0442643,2.613,2.92437
-1.28439,0.0436036,2.574,2.87699
-1.27604,0.0436036,2.574,2.87327
-1.25833,0.0432818,2.555,2.84838
-1.24074,0.0429599,2.536,2.82357
-1.23251,0.0429599,2.536,2.81997
-1.2151,0.0426381,2.517,2.79528
-1.1983,0.0423331,2.499,2.77177
-1.18162,0.0420282,2.481,2.74834
-1.17357,0.0420282,2.481,2.74488
-1.1486,0.0414184,2.445,2.70167
-1.14067,0.0414184,2.445,2.69831
-1.13273,0.0414184,2.445,2.69496
-1.11697,0.0411304,2.428,2.67292
-1.10133,0.0408424,2.411,2.65095
-1.0935,0.0408424,2.411,2.6477
-1.08568,0.0408424,2.411,2.64448
-1.07025,0.0405544,2.394,2.62265
-1.06248,0.0405544,2.394,2.61949
-1.05471,0.0405544,2.394,2.61635
-1.04694,0.0405544,2.394,2.61323
-1.03917,0.0405544,2.394,2.61013
-1.0314,0.0405544,2.394,2.60704
-1.01636,0.0402665,2.377,2.58549
-1.00865,0.0402665,2.377,2.58246
-1.00093,0.0402665,2.377,2.57946
-0.993215,0.0402665,2.377,2.57648
-0.9855,0.0402665,2.377,2.57351
-0.977785,0.0402665,2.377,2.57057
-0.970069,0.0402665,2.377,2.56764
-0.962354,0.0402665,2.377,2.56474
-0.954639,0.0402665,2.377,2.56185
-0.946924,0.0402665,2.377,2.55899
-0.939209,0.0402665,2.377,2.55614
-0.931494,0.0402665,2.377,2.55332
-0.923778,0.0402665,2.377,2.55051
-0.916063,0.0402665,2.377,2.54773
-0.908348,0.0402665,2.377,2.54497
-0.900633,0.0402665,2.377,2.54222
-0.892918,0.0402665,2.377,2.5395
-0.885203,0.0402665,2.377,2.5368
-0.877488,0.0402665,2.377,2.53411
-0.875993,0.0405544,2.394,2.54956
-0.868223,0.0405544,2.394,2.5469
-0.860452,0.0405544,2.394,2.54426
-0.852682,0.0405544,2.394,2.54164
-0.844912,0.0405544,2.394,2.53905
-0.843086,0.0408424,2.411,2.55448
-0.83526,0.0408424,2.411,2.55191
-0.827435,0.0408424,2.411,2.54936
-0.819609,0.0408424,2.411,2.54683
-0.817508,0.0411304,2.428,2.56226
-0.809627,0.0411304,2.428,2.55976
-0.801746,0.0411304,2.428,2.55728
-0.799424,0.0414184,2.445,2.57271
-0.791488,0.0414184,2.445,2.57025
-0.783552,0.0414184,2.445,2.56782
-0.775616,0.0414184,2.445,2.56541
-0.773332,0.0417233,2.463,2.58189
-0.765338,0.0417233,2.463,2.57951
-0.757344,0.0417233,2.463,2.57715
-0.749349,0.0417233,2.463,2.57481
-0.741355,0.0417233,2.463,2.57249
-0.733361,0.0417233,2.463,2.5702
-0.730668,0.0420282,2.481,2.5867
-0.722615,0.0420282,2.481,2.58443
-0.714562,0.0420282,2.481,2.58219
-0.706509,0.0420282,2.481,2.57998
-0.698457,0.0420282,2.481,2.57778
-0.690404,0.0420282,2.481,2.57561
-0.682351,0.0420282,2.481,2.57347
-0.674299,0.0420282,2.481,2.57134
-0.666246,0.0420282,2.481,2.56924
-0.658193,0.0420282,2.481,2.56717
-0.65014,0.0420282,2.481,2.56511
-0.646746,0.0423331,2.499,2.58168
-0.634035,0.0420282,2.481,2.56108
-0.625982,0.0420282,2.481,2.5591
-0.622413,0.0423331,2.499,2.57569
-0.614302,0.0423331,2.499,2.57374
-0.606191,0.0423331,2.499,2.57182
-0.598079,0.0423331,2.499,2.56992
-0.589968,0.0423331,2.499,2.56805
-0.581857,0.0423331,2.499,2.56619
-0.573746,0.0423331,2.499,2.56437
-0.565635,0.0423331,2.499,2.56256
-0.561539,0.0426381,2.517,2.57923
-0.55337,0.0426381,2.517,2.57747
-0.5452,0.0426381,2.517,2.57572
-0.537031,0.0426381,2.517,2.57401
-0.532853,0.0429599,2.536,2.59173
-0.524622,0.0429599,2.536,2.59005
-0.512522,0.0426381,2.517,2.56901
-0.504353,0.0426381,2.517,2.56739
-0.496183,0.0426381,2.517,2.5658
-0.488013,0.0426381,2.517,2.56423
-0.479844,0.0426381,2.517,2.56269
-0.471674,0.0426381,2.517,2.56117
-0.463505,0.0426381,2.517,2.55968
-0.455335,0.0426381,2.517,2.55821
-0.447166,0.0426381,2.517,2.55677
-0.438996,0.0426381,2.517,2.55535
-0.430827,0.0426381,2.517,2.55396
-0.422657,0.0426381,2.517,2.5526
-0.417616,0.0429599,2.536,2.57051
-0.409385,0.0429599,2.536,2.56919
-0.401154,0.0429599,2.536,2.56789
-0.392923,0.0429599,2.536,2.56662
-0.384691,0.0429599,2.536,2.56537
-0.37646,0.0429599,2.536,2.56415
-0.368229,0.0429599,2.536,2.56295
-0.359998,0.0429599,2.536,2.56178
-0.351766,0.0429599,2.536,2.56064
-0.343535,0.0429599,2.536,2.55952
-0.335304,0.0429599,2.536,2.55843
-0.327073,0.0429599,2.536,2.55737
-0.318842,0.0429599,2.536,2.55633
-0.31061,0.0429599,2.536,2.55531
-0.302379,0.0429599,2.536,2.55432
-0.294148,0.0429599,2.536,2.55336
-0.285917,0.0429599,2.536,2.55243
-0.277685,0.0429599,2.536,2.55152
-0.269454,0.0429599,2.536,2.55064
-0.26318,0.0432818,2.555,2.56888
-0.254887,0.0432818,2.555,2.56805
-0.246594,0.0432818,2.555,2.56724
-0.238301,0.0432818,2.555,2.56645
-0.230009,0.0432818,2.555,2.5657
-0.220067,0.0429599,2.536,2.54589
-0.211836,0.0429599,2.536,2.54519
-0.203604,0.0429599,2.536,2.54452
-0.195373,0.0429599,2.536,2.54388
-0.187142,0.0429599,2.536,2.54326
-0.17757,0.0426381,2.517,2.52362
-0.169401,0.0426381,2.517,2.52305
-0.161231,0.0426381,2.517,2.52252
-0.153062,0.0426381,2.517,2.52201
-0.144892,0.0426381,2.517,2.52153
-0.136723,0.0426381,2.517,2.52107
-0.128553,0.0426381,2.517,2.52064
-0.120383,0.0426381,2.517,2.52024
-0.112214,0.0426381,2.517,2.51986
-0.104044,0.0426381,2.517,2.51951
-0.0958747,0.0426381,2.517,2.51919
-0.0883672,0.0429599,2.536,2.5379
-0.0795356,0.0426381,2.517,2.51862
-0.0713661,0.0426381,2.517,2.51837
-0.0636736,0.0429599,2.536,2.53716
-0.0554423,0.0429599,2.536,2.53697
-0.0472111,0.0429599,2.536,2.5368
-0.0389799,0.0429599,2.536,2.53666
-0.0307487,0.0429599,2.536,2.53655
-0.0225174,0.0429599,2.536,2.53646
-0.0142862,0.0429599,2.536,2.5364
-0.00605498,0.0429599,2.536,2.53637
0.00215994,0.0426381,2.517,2.51736
0.0103295,0.0426381,2.517,2.51738
0.0184991,0.0426381,2.517,2.51743
0.0266686,0.0426381,2.517,2.5175
0.0343399,0.0420282,2.481,2.48159
0.0423926,0.0420282,2.481,2.48172
0.0504453,0.0420282,2.481,2.48187
0.058498,0.0420282,2.481,2.48205
0.0665507,0.0420282,2.481,2.48225
0.0746034,0.0420282,2.481,2.48248
0.0826561,0.0420282,2.481,2.48273
0.0907089,0.0420282,2.481,2.48301
0.098045,0.0417233,2.463,2.4653
0.106039,0.0417233,2.463,2.46563
0.114867,0.0420282,2.481,2.48401
0.12292,0.0420282,2.481,2.4844
0.130972,0.0420282,2.481,2.48481
0.140034,0.0423331,2.499,2.50328
0.148145,0.0423331,2.499,2.50375
0.156256,0.0423331,2.499,2.50424
0.165551,0.0426381,2.517,2.5228
0.173721,0.0426381,2.517,2.52335
0.18189,0.0426381,2.517,2.52392
0.19006,0.0426381,2.517,2.52453
0.199726,0.0429599,2.536,2.54422
0.207957,0.0429599,2.536,2.54487
0.216188,0.0429599,2.536,2.54556
0.224419,0.0429599,2.536,2.54627
0.232651,0.0429599,2.536,2.54701
0.239077,0.0426381,2.517,2.52869
0.247247,0.0426381,2.517,2.52947
nan,nan,nan,NaN
nan,nan,nan,NaN
nan,nan,nan,NaN
nan,nan,nan,NaN
nan,nan,nan,NaN
nan,nan,nan,NaN
nan,nan,nan,NaN
nan,nan,nan,NaN
nan,nan,nan,NaN
nan,nan,nan,NaN
nan,nan,nan,NaN
nan,nan,nan,NaN
nan,nan,nan,NaN
nan,nan,nan,NaN
nan,nan,nan,NaN
nan,nan,nan,NaN
nan,nan,nan,NaN
nan,nan,nan,NaN
nan,nan,nan,NaN
nan,nan,nan,NaN
nan,nan,nan,NaN
nan,nan,nan,NaN
nan,nan,nan,NaN
nan,nan,nan,NaN
nan,nan,nan,NaN
nan,nan,nan,NaN
nan,nan,nan,NaN
nan,nan,nan,NaN
nan,nan,nan,NaN
nan,nan,nan,NaN
nan,nan,nan,NaN
nan,nan,nan,NaN
nan,nan,nan,NaN
nan,nan,nan,NaN
nan,nan,nan,NaN
nan,nan,nan,NaN
nan,nan,nan,NaN
nan,nan,nan,NaN
0.545851,0.0411304,2.428,2.48894
0.553732,0.0411304,2.428,2.49068
0.561612,0.0411304,2.428,2.49245
nan,nan,nan,NaN
nan,nan,nan,NaN
nan,nan,nan,NaN
nan,nan,nan,NaN
nan,nan,nan,NaN
nan,nan,nan,NaN
nan,nan,nan,NaN
nan,nan,nan,NaN
nan,nan,nan,NaN
nan,nan,nan,NaN
nan,nan,nan,NaN
nan,nan,nan,NaN
0.688403,0.0426381,2.517,2.60979
0.696572,0.0426381,2.517,2.61196
0.710062,0.0429599,2.536,2.63388
0.718293,0.0429599,2.536,2.63611
0.726524,0.0429599,2.536,2.63837
0.734755,0.0429599,2.536,2.64065
0.748553,0.0432818,2.555,2.66275
0.756846,0.0432818,2.555,2.66509
0.765139,0.0432818,2.555,2.66746
0.779183,0.0436036,2.574,2.6897
0.787538,0.0436036,2.574,2.69214
0.795892,0.0436036,2.574,2.69459
0.804247,0.0436036,2.574,2.69707
0.812602,0.0436036,2.574,2.69957
0.814896,0.0432818,2.555,2.68215
0.823189,0.0432818,2.555,2.68469
0.831482,0.0432818,2.555,2.68724
0.83353,0.0429599,2.536,2.66982
0.841761,0.0429599,2.536,2.6724
0.849993,0.0429599,2.536,2.675
0.851794,0.0426381,2.517,2.65757
0.853814,0.0423331,2.499,2.64117
0.861925,0.0423331,2.499,2.64381
0.863769,0.0420282,2.481,2.6274
0.871822,0.0420282,2.481,2.63006
0.879874,0.0420282,2.481,2.63274
0.881485,0.0417233,2.463,2.61632
0.889479,0.0417233,2.463,2.61902
0.890915,0.0414184,2.445,2.60259
0.898851,0.0414184,2.445,2.60532
0.906787,0.0414184,2.445,2.60807
0.908362,0.0411304,2.428,2.59268
0.916243,0.0411304,2.428,2.59545
0.924124,0.0411304,2.428,2.59825
0.932004,0.0411304,2.428,2.60106
0.939885,0.0411304,2.428,2.60389
0.947766,0.0411304,2.428,2.60675
0.955646,0.0411304,2.428,2.60962
0.963527,0.0411304,2.428,2.61252
0.964606,0.0408424,2.411,2.59712
0.972432,0.0408424,2.411,2.60004
0.987169,0.0411304,2.428,2.62133
1.00202,0.0414184,2.445,2.64268
1.00995,0.0414184,2.445,2.6457
1.02538,0.0417233,2.463,2.66824
1.03338,0.0417233,2.463,2.67132
1.04137,0.0417233,2.463,2.67443
1.05703,0.0420282,2.481,2.69712
1.08054,0.0426381,2.517,2.73947
1.08871,0.0426381,2.517,2.7427
1.10516,0.0429599,2.536,2.76668
1.13008,0.0436036,2.574,2.81149
1.15568,0.0442643,2.613,2.8575
1.16416,0.0442643,2.613,2.86094
1.18162,0.0446031,2.633,2.88633
1.19016,0.0446031,2.633,2.88984
1.19871,0.0446031,2.633,2.89337
1.21688,0.0449588,2.654,2.92002
1.24489,0.0456703,2.696,2.96989
1.25364,0.0456703,2.696,2.97357
1.27223,0.0460261,2.717,3.00046
1.29142,0.0463987,2.739,3.02854
1.30031,0.0463987,2.739,3.03234
1.3092,0.0463987,2.739,3.03616
1.31809,0.0463987,2.739,3.04
1.32698,0.0463987,2.739,3.04387
1.33587,0.0463987,2.739,3.04776
1.34476,0.0463987,2.739,3.05166
1.35365,0.0463987,2.739,3.05559
1.36254,0.0463987,2.739,3.05954
1.38244,0.0467714,2.761,3.08812
1.40249,0.0471441,2.783,3.11678
1.41152,0.0471441,2.783,3.12085
1.4323,0.0475337,2.806,3.15077
1.46555,0.0483299,2.853,3.20777
1.49962,0.049143,2.901,3.26605
1.50904,0.049143,2.901,3.27038
1.53154,0.0495665,2.926,3.30296
1.5679,0.0504305,2.977,3.36502
1.57756,0.0504305,2.977,3.36953
1.61548,0.0513283,3.03,3.43414
1.65428,0.0522431,3.084,3.50006
1.6794,0.0527174,3.112,3.53662
1.6895,0.0527174,3.112,3.54143
1.71544,0.0532086,3.141,3.57931
1.72563,0.0532086,3.141,3.58421
1.73583,0.0532086,3.141,3.58912
1.76214,0.0536999,3.17,3.62725
1.77243,0.0536999,3.17,3.63226
1.78272,0.0536999,3.17,3.63729
1.77661,0.0532086,3.141,3.60902
1.7868,0.0532086,3.141,3.61405
1.797,0.0532086,3.141,3.6191
1.80719,0.0532086,3.141,3.62418
1.81739,0.0532086,3.141,3.62927
1.82758,0.0532086,3.141,3.63439
1.82081,0.0527174,3.112,3.60592
1.83091,0.0527174,3.112,3.61103
1.84101,0.0527174,3.112,3.61617
1.83446,0.0522431,3.084,3.58874
1.82832,0.0517857,3.057,3.5624
1.83824,0.0517857,3.057,3.5675
1.84816,0.0517857,3.057,3.57262
1.84168,0.0513283,3.03,3.54617
1.85151,0.0513283,3.03,3.55129
1.84476,0.0508709,3.003,3.52473
1.83845,0.0504305,2.977,3.49928
1.84811,0.0504305,2.977,3.50437
1.84155,0.04999,2.951,3.47882
1.81976,0.049143,2.901,3.42487
1.81405,0.0487365,2.877,3.40151
1.82338,0.0487365,2.877,3.4065
1.80215,0.0479233,2.829,3.35459
1.78187,0.0471441,2.783,3.3049
1.79091,0.0471441,2.783,3.30978
1.77148,0.0463987,2.739,3.26227
1.75242,0.0456703,2.696,3.21582
1.76117,0.0456703,2.696,3.2206
1.74235,0.0449588,2.654,3.17514
1.72392,0.0442643,2.613,3.13075
1.7324,0.0442643,2.613,3.13543
1.71489,0.0436036,2.574,3.09326
1.71053,0.0432818,2.555,3.07503
1.71882,0.0432818,2.555,3.07965
1.70143,0.0426381,2.517,3.03841
1.69737,0.0423331,2.499,3.02124
-1.90013,0.0552864,2.739,3.33402
-1.89124,0.0552864,2.739,3.32896
-1.88235,0.0552864,2.739,3.32392
-1.87346,0.0552864,2.739,3.31889
-1.86457,0.0552864,2.739,3.31388
-1.85568,0.0552864,2.739,3.30889
-1.84679,0.0552864,2.739,3.30391
-1.8379,0.0552864,2.739,3.29895
-1.82901,0.0552864,2.739,3.294
-1.8055,0.0548423,2.717,3.26266
-1.79668,0.0548423,2.717,3.25779
-1.78787,0.0548423,2.717,3.25293
-1.77905,0.0548423,2.717,3.24809
-1.75655,0.0544184,2.696,3.2182
-1.7478,0.0544184,2.696,3.21344
-1.73905,0.0544184,2.696,3.20868
-1.71682,0.0539945,2.675,3.17899
-1.69472,0.0535706,2.654,3.14939
-1.68611,0.0535706,2.654,3.14477
-1.66422,0.0531468,2.633,3.11531
-1.65568,0.0531468,2.633,3.11075
-1.64713,0.0531468,2.633,3.10621
-1.63858,0.0531468,2.633,3.10169
-1.63004,0.0531468,2.633,3.09718
-1.62149,0.0531468,2.633,3.09269
-1.61295,0.0531468,2.633,3.08822
-1.6044,0.0531468,2.633,3.08377
-1.59585,0.0531468,2.633,3.07933
-1.59997,0.0535706,2.654,3.09943
-1.57876,0.0531468,2.633,3.07051
-1.57022,0.0531468,2.633,3.06612
-1.56167,0.0531468,2.633,3.06175
-1.55312,0.0531468,2.633,3.0574
-1.54458,0.0531468,2.633,3.05307
-1.53603,0.0531468,2.633,3.04876
-1.52749,0.0531468,2.633,3.04446
-1.51894,0.0531468,2.633,3.04018
-1.51039,0.0531468,2.633,3.03592
-1.50185,0.0531468,2.633,3.03168
-1.4933,0.0531468,2.633,3.02745
-1.48476,0.0531468,2.633,3.02325
-1.47621,0.0531468,2.633,3.01906
-1.46766,0.0531468,2.633,3.01489
-1.45912,0.0531468,2.633,3.01074
-1.45057,0.0531468,2.633,3.0066
-1.44203,0.0531468,2.633,3.00249
-1.43348,0.0531468,2.633,2.9984
-1.42493,0.0531468,2.633,2.99432
-1.42768,0.0535706,2.654,3.01411
-1.40784,0.0531468,2.633,2.98622
-1.3993,0.0531468,2.633,2.9822
-1.39075,0.0531468,2.633,2.9782
-1.3822,0.0531468,2.633,2.97422
-1.37366,0.0531468,2.633,2.97026
-1.36511,0.0531468,2.633,2.96632
-1.35656,0.0531468,2.633,2.96239
-1.34802,0.0531468,2.633,2.95849
-1.33947,0.0531468,2.633,2.95461
-1.33093,0.0531468,2.633,2.95074
-1.31234,0.0527431,2.613,2.92451
-1.28439,0.0519558,2.574,2.87712
-1.27604,0.0519558,2.574,2.8734
-1.25833,0.0515723,2.555,2.84852
-1.24074,0.0511888,2.536,2.82371
-1.23251,0.0511888,2.536,2.8201
-1.2151,0.0508053,2.517,2.79542
-1.1983,0.050442,2.499,2.77191
-1.18162,0.0500787,2.481,2.74847
-1.17357,0.0500787,2.481,2.74502
-1.1486,0.049352,2.445,2.7018
-1.14067,0.049352,2.445,2.69844
-1.13273,0.049352,2.445,2.6951
-1.11697,0.0490089,2.428,2.67305
-1.10133,0.0486657,2.411,2.65108
-1.0935,0.0486657,2.411,2.64784
-1.08568,0.0486657,2.411,2.64461
-1.07025,0.0483226,2.394,2.62279
-1.06248,0.0483226,2.394,2.61963
-1.05471,0.0483226,2.394,2.61648
-1.04694,0.0483226,2.394,2.61336
-1.03917,0.0483226,2.394,2.61026
-1.0314,0.0483226,2.394,2.60717
-1.01636,0.0479794,2.377,2.58562
-1.00865,0.0479794,2.377,2.58259
-1.00093,0.0479794,2.377,2.57959
-0.993215,0.0479794,2.377,2.57661
-0.9855,0.0479794,2.377,2.57364
-0.977785,0.0479794,2.377,2.5707
-0.970069,0.0479794,2.377,2.56777
-0.962354,0.0479794,2.377,2.56487
-0.954639,0.0479794,2.377,2.56199
-0.946924,0.0479794,2.377,2.55912
-0.939209,0.0479794,2.377,2.55628
-0.931494,0.0479794,2.377,2.55345
-0.923778,0.0479794,2.377,2.55065
-0.916063,0.0479794,2.377,2.54786
-0.908348,0.0479794,2.377,2.5451
-0.900633,0.0479794,2.377,2.54236
-0.892918,0.0479794,2.377,2.53963
-0.885203,0.0479794,2.377,2.53693
-0.877488,0.0479794,2.377,2.53425
-0.875993,0.0483226,2.394,2.54969
-0.868223,0.0483226,2.394,2.54703
-0.860452,0.0483226,2.394,2.5444
-0.852682,0.0483226,2.394,2.54178
-0.844912,0.0483226,2.394,2.53918
-0.843086,0.0486657,2.411,2.55462
-0.83526,0.0486657,2.411,2.55205
-0.827435,0.0486657,2.411,2.5495
-0.819609,0.0486657,2.411,2.54697
-0.817508,0.0490089,2.428,2.5624
-0.809627,0.0490089,2.428,2.5599
-0.801746,0.0490089,2.428,2.55742
-0.799424,0.049352,2.445,2.57285
-0.791488,0.049352,2.445,2.57039
-0.783552,0.049352,2.445,2.56796
-0.775616,0.049352,2.445,2.56555
-0.773332,0.0497153,2.463,2.58203
-0.765338,0.0497153,2.463,2.57965
-0.757344,0.0497153,2.463,2.57729
-0.749349,0.0497153,2.463,2.57495
-0.741355,0.0497153,2.463,2.57263
-0.733361,0.0497153,2.463,2.57034
-0.730668,0.0500787,2.481,2.58684
-0.722615,0.0500787,2.481,2.58458
-0.714562,0.0500787,2.481,2.58234
-0.706509,0.0500787,2.481,2.58012
-0.698457,0.0500787,2.481,2.57793
-0.690404,0.0500787,2.481,2.57576
-0.682351,0.0500787,2.481,2.57361
-0.674299,0.0500787,2.481,2.57149
-0.666246,0.0500787,2.481,2.56939
-0.658193,0.0500787,2.481,2.56731
-0.65014,0.0500787,2.481,2.56526
-0.646746,0.050442,2.499,2.58183
-0.634035,0.0500787,2.481,2.56122
-0.625982,0.0500787,2.481,2.55924
-0.622413,0.050442,2.499,2.57584
-0.609877,0.0500787,2.481,2.55535
-0.601824,0.0500787,2.481,2.55344
-0.598079,0.050442,2.499,2.57007
-0.589968,0.050442,2.499,2.56819
-0.581857,0.050442,2.499,2.56634
-0.573746,0.050442,2.499,2.56451
-0.565635,0.050442,2.499,2.56271
-0.557524,0.050442,2.499,2.56093
-0.55337,0.0508053,2.517,2.57761
-0.5452,0.0508053,2.517,2.57587
-0.537031,0.0508053,2.517,2.57415
-0.528861,0.0508053,2.517,2.57246
-0.524622,0.0511888,2.536,2.5902
-0.512522,0.0508053,2.517,2.56915
-0.504353,0.0508053,2.517,2.56754
-0.496183,0.0508053,2.517,2.56594
-0.488013,0.0508053,2.517,2.56438
-0.479844,0.0508053,2.517,2.56283
-0.471674,0.0508053,2.517,2.56132
-0.463505,0.0508053,2.517,2.55983
-0.455335,0.0508053,2.517,2.55836
-0.447166,0.0508053,2.517,2.55692
-0.438996,0.0508053,2.517,2.5555
-0.430827,0.0508053,2.517,2.55411
-0.422657,0.0508053,2.517,2.55275
-0.414487,0.0508053,2.517,2.55141
-0.406318,0.0508053,2.517,2.55009
-0.398148,0.0508053,2.517,2.5488
-0.392923,0.0511888,2.536,2.56677
-0.384691,0.0511888,2.536,2.56552
-0.37646,0.0511888,2.536,2.5643
-0.368229,0.0511888,2.536,2.56311
-0.359998,0.0511888,2.536,2.56194
-0.351766,0.0511888,2.536,2.56079
-0.343535,0.0511888,2.536,2.55967
-0.335304,0.0511888,2.536,2.55858
-0.327073,0.0511888,2.536,2.55752
-0.318842,0.0511888,2.536,2.55648
-0.31061,0.0511888,2.536,2.55546
-0.300114,0.0508053,2.517,2.53534
-0.291944,0.0508053,2.517,2.53438
-0.283775,0.0508053,2.517,2.53346
-0.275605,0.0508053,2.517,2.53255
-0.267435,0.0508053,2.517,2.53168
-0.259266,0.0508053,2.517,2.53083
-0.252992,0.0511888,2.536,2.5491
-0.244761,0.0511888,2.536,2.5483
-0.236529,0.0511888,2.536,2.54752
-0.228298,0.0511888,2.536,2.54677
-0.220067,0.0511888,2.536,2.54605
-0.211836,0.0511888,2.536,2.54535
-0.203604,0.0511888,2.536,2.54468
-0.195373,0.0511888,2.536,2.54403
-0.187142,0.0511888,2.536,2.54341
-0.17757,0.0508053,2.517,2.52377
-0.169401,0.0508053,2.517,2.52321
-0.161231,0.0508053,2.517,2.52267
-0.153062,0.0508053,2.517,2.52216
-0.144892,0.0508053,2.517,2.52168
-0.136723,0.0508053,2.517,2.52122
-0.128553,0.0508053,2.517,2.52079
-0.120383,0.0508053,2.517,2.52039
-0.112214,0.0508053,2.517,2.52001
-0.104044,0.0508053,2.517,2.51966
-0.0958747,0.0508053,2.517,2.51934
-0.0877052,0.0508053,2.517,2.51904
-0.0795356,0.0508053,2.517,2.51877
-0.0713661,0.0508053,2.517,2.51852
-0.0636736,0.0511888,2.536,2.53732
-0.0554423,0.0511888,2.536,2.53712
-0.0472111,0.0511888,2.536,2.53696
-0.0389799,0.0511888,2.536,2.53682
-0.0305183,0.0508053,2.517,2.5177
-0.0223487,0.0508053,2.517,2.51761
-0.0141792,0.0508053,2.517,2.51755
-0.00600962,0.0508053,2.517,2.51752
0.00215994,0.0508053,2.517,2.51751
0.0103295,0.0508053,2.517,2.51753
0.0184991,0.0508053,2.517,2.51758
0.0264779,0.050442,2.499,2.49965
0.0343399,0.0500787,2.481,2.48174
0.0423926,0.0500787,2.481,2.48187
0.0504453,0.0500787,2.481,2.48202
0.058498,0.0500787,2.481,2.48219
0.0665507,0.0500787,2.481,2.4824
0.0746034,0.0500787,2.481,2.48263
0.0826561,0.0500787,2.481,2.48288
0.0907089,0.0500787,2.481,2.48316
0.0987616,0.0500787,2.481,2.48347
0.106814,0.0500787,2.481,2.4838
0.114867,0.0500787,2.481,2.48416
0.12292,0.0500787,2.481,2.48455
0.130972,0.0500787,2.481,2.48496
0.140034,0.050442,2.499,2.50343
0.149212,0.0508053,2.517,2.52193
0.157382,0.0508053,2.517,2.52243
0.165551,0.0508053,2.517,2.52295
0.175032,0.0511888,2.536,2.54255
0.183263,0.0511888,2.536,2.54313
0.191494,0.0511888,2.536,2.54373
0.199726,0.0511888,2.536,2.54437
0.207957,0.0511888,2.536,2.54503
0.216188,0.0511888,2.536,2.54571
0.224419,0.0511888,2.536,2.54642
0.232651,0.0511888,2.536,2.54716
0.240882,0.0511888,2.536,2.54793
0.249113,0.0511888,2.536,2.54872
nan,nan,nan,NaN
nan,nan,nan,NaN
nan,nan,nan,NaN
nan,nan,nan,NaN
nan,nan,nan,NaN
nan,nan,nan,NaN
nan,nan,nan,NaN
nan,nan,nan,NaN
nan,nan,nan,NaN
nan,nan,nan,NaN
nan,nan,nan,NaN
nan,nan,nan,NaN
nan,nan,nan,NaN
nan,nan,nan,NaN
nan,nan,nan,NaN
nan,nan,nan,NaN
nan,nan,nan,NaN
nan,nan,nan,NaN
nan,nan,nan,NaN
nan,nan,nan,NaN
nan,nan,nan,NaN
nan,nan,nan,NaN
nan,nan,nan,NaN
nan,nan,nan,NaN
nan,nan,nan,NaN
nan,nan,nan,NaN
nan,nan,nan,NaN
nan,nan,nan,NaN
nan,nan,nan,NaN
nan,nan,nan,NaN
nan,nan,nan,NaN
nan,nan,nan,NaN
nan,nan,nan,NaN
nan,nan,nan,NaN
nan,nan,nan,NaN
nan,nan,nan,NaN
nan,nan,nan,NaN
nan,nan,nan,NaN
0.545851,0.0490089,2.428,2.48908
0.553732,0.0490089,2.428,2.49082
0.561612,0.0490089,2.428,2.49259
nan,nan,nan,NaN
nan,nan,nan,NaN
nan,nan,nan,NaN
nan,nan,nan,NaN
nan,nan,nan,NaN
nan,nan,nan,NaN
nan,nan,nan,NaN
nan,nan,nan,NaN
nan,nan,nan,NaN
nan,nan,nan,NaN
0.657645,0.0497153,2.463,2.54977
0.665639,0.0497153,2.463,2.55185
0.673634,0.0497153,2.463,2.55394
0.686609,0.0500787,2.481,2.57474
0.704742,0.0508053,2.517,2.61429
0.712911,0.0508053,2.517,2.61651
0.721081,0.0508053,2.517,2.61875
0.734755,0.0511888,2.536,2.64079
0.742987,0.0511888,2.536,2.64309
0.751218,0.0511888,2.536,2.64542
0.759449,0.0511888,2.536,2.64777
0.773432,0.0515723,2.555,2.67
0.781725,0.0515723,2.555,2.67241
0.790018,0.0515723,2.555,2.67485
0.798311,0.0515723,2.555,2.67731
0.806603,0.0515723,2.555,2.67979
0.808836,0.0511888,2.536,2.66235
0.817068,0.0511888,2.536,2.66487
0.825299,0.0511888,2.536,2.6674
0.827285,0.0508053,2.517,2.64996
0.835455,0.0508053,2.517,2.65252
0.843624,0.0508053,2.517,2.6551
0.851794,0.0508053,2.517,2.65771
0.847664,0.0500787,2.481,2.62229
0.855716,0.0500787,2.481,2.6249
0.863769,0.0500787,2.481,2.62754
0.865497,0.0497153,2.463,2.61112
0.873491,0.0497153,2.463,2.61378
0.881485,0.0497153,2.463,2.61646
0.882979,0.049352,2.445,2.60002
0.890915,0.049352,2.445,2.60273
0.898851,0.049352,2.445,2.60545
0.906787,0.049352,2.445,2.6082
0.908362,0.0490089,2.428,2.59282
0.916243,0.0490089,2.428,2.59559
0.924124,0.0490089,2.428,2.59838
0.932004,0.0490089,2.428,2.6012
0.939885,0.0490089,2.428,2.60403
0.947766,0.0490089,2.428,2.60688
0.955646,0.0490089,2.428,2.60976
0.963527,0.0490089,2.428,2.61266
0.964606,0.0486657,2.411,2.59726
0.972432,0.0486657,2.411,2.60018
0.987169,0.0490089,2.428,2.62147
1.00202,0.049352,2.445,2.64282
1.00995,0.049352,2.445,2.64584
1.02538,0.0497153,2.463,2.66838
1.03338,0.0497153,2.463,2.67146
1.04137,0.0497153,2.463,2.67456
1.05703,0.0500787,2.481,2.69726
1.08054,0.0508053,2.517,2.73961
1.08871,0.0508053,2.517,2.74284
1.10516,0.0511888,2.536,2.76682
1.13008,0.0519558,2.574,2.81163
1.15568,0.0527431,2.613,2.85765
1.16416,0.0527431,2.613,2.86109
1.18162,0.0531468,2.633,2.88647
1.19965,0.0535706,2.654,2.91303
1.20827,0.0535706,2.654,2.91659
1.22651,0.0539945,2.675,2.94328
1.24489,0.0544184,2.696,2.97004
1.25364,0.0544184,2.696,2.97372
1.28253,0.0552864,2.739,3.02491
1.29142,0.0552864,2.739,3.02869
1.30031,0.0552864,2.739,3.03249
1.3092,0.0552864,2.739,3.03631
1.31809,0.0552864,2.739,3.04015
1.32698,0.0552864,2.739,3.04402
1.32514,0.0548423,2.717,3.02342
1.33396,0.0548423,2.717,3.0273
1.35365,0.0552864,2.739,3.05574
1.35159,0.0548423,2.717,3.03511
1.36041,0.0548423,2.717,3.03905
1.38032,0.0552864,2.739,3.06765
1.38921,0.0552864,2.739,3.07166
1.40933,0.0557304,2.761,3.10039
1.44141,0.0566387,2.806,3.15507
1.48722,0.0580719,2.877,3.23918
1.49655,0.0580719,2.877,3.24348
1.51845,0.0585563,2.901,3.27489
1.5679,0.0600903,2.977,3.36518
1.57756,0.0600903,2.977,3.36969
1.61548,0.0611602,3.03,3.4343
1.65428,0.0622501,3.084,3.50022
1.6794,0.0628153,3.112,3.53679
1.6895,0.0628153,3.112,3.5416
1.71544,0.0634007,3.141,3.57947
1.72563,0.0634007,3.141,3.58437
1.73583,0.0634007,3.141,3.58929
1.74602,0.0634007,3.141,3.59423
1.77243,0.063986,3.17,3.63243
1.78272,0.063986,3.17,3.63746
1.77661,0.0634007,3.141,3.60919
1.7868,0.0634007,3.141,3.61422
1.797,0.0634007,3.141,3.61927
1.80719,0.0634007,3.141,3.62434
1.80061,0.0628153,3.112,3.59593
1.81071,0.0628153,3.112,3.60099
1.82081,0.0628153,3.112,3.60608
1.81444,0.0622501,3.084,3.5787
1.82445,0.0622501,3.084,3.58379
1.8184,0.0617051,3.057,3.55747
1.82832,0.0617051,3.057,3.56256
1.83824,0.0617051,3.057,3.56766
1.83184,0.0611602,3.03,3.54123
1.82526,0.0606152,3.003,3.51472
1.83501,0.0606152,3.003,3.51979
1.82879,0.0600903,2.977,3.49437
1.82239,0.0595655,2.951,3.46887
1.83197,0.0595655,2.951,3.47391
1.82595,0.0590609,2.926,3.4495
1.80471,0.0580719,2.877,3.39669
1.78378,0.057103,2.829,3.3449
1.79296,0.057103,2.829,3.34981
1.78749,0.0566387,2.806,3.32746
1.76779,0.0557304,2.761,3.27892
1.77675,0.0557304,2.761,3.28376
1.74367,0.0544184,2.696,3.21119
1.72512,0.0535706,2.654,3.16585
1.73374,0.0535706,2.654,3.17056
1.71543,0.0527431,2.613,3.12622
1.69819,0.0519558,2.574,3.08415
1.70654,0.0519558,2.574,3.08876
1.70224,0.0515723,2.555,3.07055
1.68509,0.0508053,2.517,3.02942
1.69326,0.0508053,2.517,3.03397
1.68926,0.050442,2.499,3.01681
1.68515,0.0500787,2.481,2.9996
-1.90013,0.064174,2.739,3.33418
-1.89124,0.064174,2.739,3.32912
-1.88235,0.064174,2.739,3.32408
-1.87346,0.064174,2.739,3.31905
-1.86457,0.064174,2.739,3.31404
-1.85568,0.064174,2.739,3.30905
-1.84679,0.064174,2.739,3.30407
-1.8379,0.064174,2.739,3.29911
-1.82901,0.064174,2.739,3.29417
-1.82012,0.064174,2.739,3.28924
-1.81123,0.064174,2.739,3.28433
-1.80234,0.064174,2.739,3.27943
-1.79345,0.064174,2.739,3.27456
-1.77023,0.0636585,2.717,3.24343
-1.7478,0.0631665,2.696,3.2136
-1.73905,0.0631665,2.696,3.20884
-1.71682,0.0626745,2.675,3.17915
-1.69472,0.0621824,2.654,3.14955
-1.68611,0.0621824,2.654,3.14492
-1.66422,0.0616904,2.633,3.11547
-1.65568,0.0616904,2.633,3.11091
-1.64713,0.0616904,2.633,3.10637
-1.63858,0.0616904,2.633,3.10185
-1.63004,0.0616904,2.633,3.09734
-1.62149,0.0616904,2.633,3.09285
-1.61295,0.0616904,2.633,3.08838
-1.6044,0.0616904,2.633,3.08393
-1.59585,0.0616904,2.633,3.07949
-1.59997,0.0621824,2.654,3.09959
-1.57876,0.0616904,2.633,3.07067
-1.57022,0.0616904,2.633,3.06628
-1.56167,0.0616904,2.633,3.06191
-1.55312,0.0616904,2.633,3.05756
-1.54458,0.0616904,2.633,3.05323
-1.53603,0.0616904,2.633,3.04892
-1.52749,0.0616904,2.633,3.04462
-1.51894,0.0616904,2.633,3.04034
-1.51039,0.0616904,2.633,3.03608
-1.50185,0.0616904,2.633,3.03184
-1.4933,0.0616904,2.633,3.02761
-1.48476,0.0616904,2.633,3.02341
-1.47621,0.0616904,2.633,3.01922
-1.46766,0.0616904,2.633,3.01505
-1.45912,0.0616904,2.633,3.0109
-1.45057,0.0616904,2.633,3.00677
-1.44203,0.0616904,2.633,3.00265
-1.43348,0.0616904,2.633,2.99856
-1.42493,0.0616904,2.633,2.99448
-1.42768,0.0621824,2.654,3.01428
-1.40784,0.0616904,2.633,2.98639
-1.3993,0.0616904,2.633,2.98237
-1.39075,0.0616904,2.633,2.97837
-1.3822,0.0616904,2.633,2.97439
-1.37366,0.0616904,2.633,2.97043
-1.35474,0.0612218,2.613,2.94395
-1.34626,0.0612218,2.613,2.94006
-1.33778,0.0612218,2.613,2.93618
-1.3293,0.0612218,2.613,2.93233
-1.32082,0.0612218,2.613,2.92849
-1.31234,0.0612218,2.613,2.92468
-1.28439,0.0603081,2.574,2.87729
-1.27604,0.0603081,2.574,2.87357
-1.25833,0.0598629,2.555,2.84868
-1.24074,0.0594177,2.536,2.82387
-1.23251,0.0594177,2.536,2.82027
-1.2151,0.0589726,2.517,2.79558
-1.1983,0.0585508,2.499,2.77207
-1.18162,0.0581291,2.481,2.74863
-1.17357,0.0581291,2.481,2.74518
-1.1486,0.0572856,2.445,2.70196
-1.14067,0.0572856,2.445,2.6986
-1.13273,0.0572856,2.445,2.69525
-1.11697,0.0568873,2.428,2.67321
-1.10133,0.056489,2.411,2.65123
-1.0935,0.056489,2.411,2.64799
-1.07802,0.0560907,2.394,2.62612
-1.07025,0.0560907,2.394,2.62294
-1.06248,0.0560907,2.394,2.61978
-1.05471,0.0560907,2.394,2.61664
-1.04694,0.0560907,2.394,2.61352
-1.03179,0.0556924,2.377,2.59188
-1.02408,0.0556924,2.377,2.58881
-1.01636,0.0556924,2.377,2.58577
-1.00865,0.0556924,2.377,2.58275
-1.00093,0.0556924,2.377,2.57975
-0.993215,0.0556924,2.377,2.57676
-0.9855,0.0556924,2.377,2.5738
-0.977785,0.0556924,2.377,2.57085
-0.970069,0.0556924,2.377,2.56793
-0.962354,0.0556924,2.377,2.56503
-0.954639,0.0556924,2.377,2.56214
-0.946924,0.0556924,2.377,2.55928
-0.939209,0.0556924,2.377,2.55643
-0.931494,0.0556924,2.377,2.55361
