1.74566,-0.0835517,2.633,3.16022
1.74088,-0.0829171,2.613,3.14091
1.73597,-0.0822824,2.593,3.12154
1.74439,-0.0822824,2.593,3.12623
1.72711,-0.0810766,2.555,3.08505
1.73541,-0.0810766,2.555,3.0897
-2.04721,-0.0840671,2.951,3.59256
-2.0031,-0.0826428,2.901,3.52634
-1.99369,-0.0826428,2.901,3.521
-1.96786,-0.0819591,2.877,3.48659
-1.92584,-0.0805916,2.829,3.42324
-1.91666,-0.0805916,2.829,3.41809
-1.90748,-0.0805916,2.829,3.41295
-1.86743,-0.0792812,2.783,3.35241
-1.85839,-0.0792812,2.783,3.34739
-1.84936,-0.0792812,2.783,3.34238
-1.82578,-0.0786545,2.761,3.31101
-1.81682,-0.0786545,2.761,3.30608
-1.80786,-0.0786545,2.761,3.30116
-1.7989,-0.0786545,2.761,3.29626
-1.78993,-0.0786545,2.761,3.29138
-1.78097,-0.0786545,2.761,3.28651
-1.77201,-0.0786545,2.761,3.28167
-1.7771,-0.0792812,2.783,3.30295
-1.78268,-0.0799364,2.806,3.32535
-1.77357,-0.0799364,2.806,3.32048
-1.77893,-0.0805916,2.829,3.3428
-1.78476,-0.0812754,2.853,3.36624
-1.80537,-0.0826428,2.901,3.41789
-1.79595,-0.0826428,2.901,3.41293
-1.78654,-0.0826428,2.901,3.40798
-1.79244,-0.0833549,2.926,3.43238
-1.78294,-0.0833549,2.926,3.42743
-1.78859,-0.0840671,2.951,3.45174
-1.77902,-0.0840671,2.951,3.44679
-1.76944,-0.0840671,2.951,3.44186
-1.74495,-0.0833549,2.926,3.40783
-1.73545,-0.0833549,2.926,3.40297
-1.72596,-0.0833549,2.926,3.39814
-1.71646,-0.0833549,2.926,3.39332
-1.70696,-0.0833549,2.926,3.38853
-1.69746,-0.0833549,2.926,3.38376
-1.68797,-0.0833549,2.926,3.379
-1.66413,-0.0826428,2.901,3.34544
-1.65471,-0.0826428,2.901,3.34076
-1.6453,-0.0826428,2.901,3.33611
-1.63588,-0.0826428,2.901,3.33148
-1.62647,-0.0826428,2.901,3.32686
-1.63099,-0.0833549,2.926,3.3509
-1.62149,-0.0833549,2.926,3.34629
-1.61199,-0.0833549,2.926,3.3417
-1.60249,-0.0833549,2.926,3.33713
-1.593,-0.0833549,2.926,3.33258
nan,nan,nan,NaN
nan,nan,nan,NaN
nan,nan,nan,NaN
nan,nan,nan,NaN
nan,nan,nan,NaN
nan,nan,nan,NaN
nan,nan,nan,NaN
nan,nan,nan,NaN
nan,nan,nan,NaN
nan,nan,nan,NaN
nan,nan,nan,NaN
nan,nan,nan,NaN
nan,nan,nan,NaN
nan,nan,nan,NaN
nan,nan,nan,NaN
-1.31743,-0.0762045,2.675,2.98279
-1.27841,-0.0744383,2.613,2.90992
-1.26993,-0.0744383,2.613,2.90621
-1.24262,-0.0733273,2.574,2.85919
-1.22516,-0.072786,2.555,2.83449
-1.21686,-0.072786,2.555,2.83091
-1.19958,-0.0722448,2.536,2.80633
-1.18243,-0.0717035,2.517,2.78183
-1.16586,-0.0711907,2.499,2.7585
-1.15775,-0.0711907,2.499,2.75508
-1.14964,-0.0711907,2.499,2.75168
-1.1333,-0.0706779,2.481,2.7285
-1.12525,-0.0706779,2.481,2.72517
-1.10909,-0.0701652,2.463,2.70211
-1.1011,-0.0701652,2.463,2.69883
-1.0931,-0.0701652,2.463,2.69558
-1.07718,-0.0696524,2.445,2.67268
-1.06924,-0.0696524,2.445,2.66949
-1.06131,-0.0696524,2.445,2.66632
-1.04605,-0.0691681,2.428,2.64465
-1.03817,-0.0691681,2.428,2.64155
-1.03029,-0.0691681,2.428,2.63846
-1.02241,-0.0691681,2.428,2.63539
-1.00742,-0.0686838,2.411,2.61391
-0.999596,-0.0686838,2.411,2.61091
-0.99177,-0.0686838,2.411,2.60792
-0.983945,-0.0686838,2.411,2.60495
-0.976119,-0.0686838,2.411,2.60201
-0.968294,-0.0686838,2.411,2.59908
-0.960468,-0.0686838,2.411,2.59618
-0.952643,-0.0686838,2.411,2.59329
-0.944817,-0.0686838,2.411,2.59043
-0.936992,-0.0686838,2.411,2.58758
-0.929166,-0.0686838,2.411,2.58476
-0.921341,-0.0686838,2.411,2.58196
-0.913515,-0.0686838,2.411,2.57918
-0.899304,-0.0681995,2.394,2.55825
-0.891534,-0.0681995,2.394,2.55553
-0.883763,-0.0681995,2.394,2.55283
-0.875993,-0.0681995,2.394,2.55015
-0.868223,-0.0681995,2.394,2.54749
-0.866562,-0.0686838,2.411,2.56292
-0.858737,-0.0686838,2.411,2.56029
-0.850911,-0.0686838,2.411,2.55767
-0.843086,-0.0686838,2.411,2.55508
-0.83526,-0.0686838,2.411,2.55251
-0.827435,-0.0686838,2.411,2.54996
-0.81383,-0.0681995,2.394,2.52947
-0.80606,-0.0681995,2.394,2.52698
-0.79829,-0.0681995,2.394,2.52451
-0.796133,-0.0686838,2.411,2.53997
-0.788307,-0.0686838,2.411,2.53753
-0.780482,-0.0686838,2.411,2.53511
-0.772656,-0.0686838,2.411,2.53271
-0.764831,-0.0686838,2.411,2.53034
-0.757005,-0.0686838,2.411,2.52798
-0.743897,-0.0681995,2.394,2.50784
-0.736127,-0.0681995,2.394,2.50555
-0.728357,-0.0681995,2.394,2.50328
-0.720586,-0.0681995,2.394,2.50103
-0.712816,-0.0681995,2.394,2.4988
-0.705046,-0.0681995,2.394,2.49659
-0.697275,-0.0681995,2.394,2.49441
-0.689505,-0.0681995,2.394,2.49225
-0.686576,-0.0686838,2.411,2.50779
-0.67875,-0.0686838,2.411,2.50566
-0.670925,-0.0686838,2.411,2.50355
-0.663099,-0.0686838,2.411,2.50147
-0.659894,-0.0691681,2.428,2.51703
-0.652013,-0.0691681,2.428,2.51497
-0.648643,-0.0696524,2.445,2.53054
-0.640707,-0.0696524,2.445,2.52851
-0.632771,-0.0696524,2.445,2.52651
-0.629435,-0.0701652,2.463,2.54312
-0.621441,-0.0701652,2.463,2.54116
-0.61793,-0.0706779,2.481,2.55777
-0.609877,-0.0706779,2.481,2.55584
-0.601824,-0.0706779,2.481,2.55393
-0.598079,-0.0711907,2.499,2.57056
-0.589968,-0.0711907,2.499,2.56868
-0.581857,-0.0711907,2.499,2.56683
-0.573746,-0.0711907,2.499,2.56501
-0.565635,-0.0711907,2.499,2.5632
-0.561539,-0.0717035,2.517,2.57988
-0.55337,-0.0717035,2.517,2.57811
-0.5452,-0.0717035,2.517,2.57637
-0.537031,-0.0717035,2.517,2.57465
-0.528861,-0.0717035,2.517,2.57296
-0.520692,-0.0717035,2.517,2.57129
-0.512522,-0.0717035,2.517,2.56965
-0.504353,-0.0717035,2.517,2.56803
-0.496183,-0.0717035,2.517,2.56644
-0.488013,-0.0717035,2.517,2.56488
-0.479844,-0.0717035,2.517,2.56333
-0.471674,-0.0717035,2.517,2.56182
-0.463505,-0.0717035,2.517,2.56033
-0.455335,-0.0717035,2.517,2.55886
-0.450541,-0.0722448,2.536,2.57672
-0.44231,-0.0722448,2.536,2.5753
-0.434079,-0.0722448,2.536,2.5739
-0.425848,-0.0722448,2.536,2.57252
-0.417616,-0.0722448,2.536,2.57117
-0.409385,-0.0722448,2.536,2.56985
-0.401154,-0.0722448,2.536,2.56855
-0.392923,-0.0722448,2.536,2.56728
-0.384691,-0.0722448,2.536,2.56603
-0.37646,-0.0722448,2.536,2.56481
-0.368229,-0.0722448,2.536,2.56361
-0.359998,-0.0722448,2.536,2.56244
-0.351766,-0.0722448,2.536,2.5613
-0.346109,-0.072786,2.555,2.57936
-0.337816,-0.072786,2.555,2.57826
-0.329523,-0.072786,2.555,2.57719
-0.318842,-0.0722448,2.536,2.55699
-0.31061,-0.0722448,2.536,2.55597
-0.302379,-0.0722448,2.536,2.55499
-0.296352,-0.072786,2.555,2.57316
-0.288059,-0.072786,2.555,2.57222
-0.279766,-0.072786,2.555,2.5713
-0.271473,-0.072786,2.555,2.57041
-0.26318,-0.072786,2.555,2.56955
-0.254887,-0.072786,2.555,2.56871
-0.246594,-0.072786,2.555,2.5679
-0.238301,-0.072786,2.555,2.56712
-0.230009,-0.072786,2.555,2.56636
-0.221716,-0.072786,2.555,2.56563
-0.213423,-0.072786,2.555,2.56493
-0.20513,-0.072786,2.555,2.56425
-0.196837,-0.072786,2.555,2.5636
-0.188544,-0.072786,2.555,2.56298
-0.180251,-0.072786,2.555,2.56238
-0.171958,-0.072786,2.555,2.56181
-0.163665,-0.072786,2.555,2.56127
-0.156528,-0.0733273,2.574,2.5798
-0.148173,-0.0733273,2.574,2.5793
-0.138787,-0.072786,2.555,2.5598
-0.130494,-0.072786,2.555,2.55937
-0.122201,-0.072786,2.555,2.55896
-0.113908,-0.072786,2.555,2.55857
-0.105615,-0.072786,2.555,2.55822
-0.0973222,-0.072786,2.555,2.55789
-0.0890293,-0.072786,2.555,2.55759
-0.0807364,-0.072786,2.555,2.55731
-0.0729822,-0.0733273,2.574,2.57608
-0.0646277,-0.0733273,2.574,2.57586
-0.0562731,-0.0733273,2.574,2.57566
-0.0479185,-0.0733273,2.574,2.57549
-0.039564,-0.0733273,2.574,2.57535
-0.0312094,-0.0733273,2.574,2.57523
-0.0228548,-0.0733273,2.574,2.57515
-0.0146073,-0.0738686,2.593,2.59409
-0.00619107,-0.0738686,2.593,2.59406
0.00222516,-0.0738686,2.593,2.59405
0.0106414,-0.0738686,2.593,2.59407
0.0190576,-0.0738686,2.593,2.59412
0.0274739,-0.0738686,2.593,2.5942
0.0356271,-0.0733273,2.574,2.57529
0.0439817,-0.0733273,2.574,2.57542
0.0523362,-0.0733273,2.574,2.57558
0.0606908,-0.0733273,2.574,2.57576
0.0690454,-0.0733273,2.574,2.57597
0.0773999,-0.0733273,2.574,2.57621
0.0857545,-0.0733273,2.574,2.57647
0.0941091,-0.0733273,2.574,2.57676
0.101707,-0.072786,2.555,2.55806
0.11,-0.072786,2.555,2.5584
0.118293,-0.072786,2.555,2.55877
0.126586,-0.072786,2.555,2.55917
0.134879,-0.072786,2.555,2.55959
0.143172,-0.072786,2.555,2.56004
0.152591,-0.0733273,2.574,2.57956
0.159758,-0.072786,2.555,2.56102
0.16805,-0.072786,2.555,2.56155
0.176343,-0.072786,2.555,2.56211
0.184636,-0.072786,2.555,2.5627
0.194364,-0.0733273,2.574,2.58237
0.202718,-0.0733273,2.574,2.58301
0.211073,-0.0733273,2.574,2.58368
0.219428,-0.0733273,2.574,2.58438
0.226101,-0.072786,2.555,2.56602
0.234394,-0.072786,2.555,2.56676
0.242687,-0.072786,2.555,2.56753
0.250979,-0.072786,2.555,2.56833
0.259272,-0.072786,2.555,2.56915
0.265575,-0.0722448,2.536,2.55089
0.273807,-0.0722448,2.536,2.55176
0.282038,-0.0722448,2.536,2.55266
0.288094,-0.0717035,2.517,2.53445
0.296264,-0.0717035,2.517,2.53539
0.304434,-0.0717035,2.517,2.53636
0.312603,-0.0717035,2.517,2.53735
0.318479,-0.0711907,2.499,2.52022
0.32659,-0.0711907,2.499,2.52126
0.334701,-0.0711907,2.499,2.52232
0.342812,-0.0711907,2.499,2.52341
0.350923,-0.0711907,2.499,2.52452
0.359034,-0.0711907,2.499,2.52566
0.367146,-0.0711907,2.499,2.52683
0.375257,-0.0711907,2.499,2.52802
0.383368,-0.0711907,2.499,2.52924
0.391479,-0.0711907,2.499,2.53048
0.402468,-0.0717035,2.517,2.54998
0.410638,-0.0717035,2.517,2.55128
0.421969,-0.0722448,2.536,2.57188
0.426977,-0.0717035,2.517,2.55397
0.435146,-0.0717035,2.517,2.55534
0.443316,-0.0717035,2.517,2.55675
0.451486,-0.0717035,2.517,2.55818
0.459655,-0.0717035,2.517,2.55963
0.471356,-0.0722448,2.536,2.58044
0.479587,-0.0722448,2.536,2.58196
0.487819,-0.0722448,2.536,2.5835
0.49605,-0.0722448,2.536,2.58507
0.504281,-0.0722448,2.536,2.58666
0.512512,-0.0722448,2.536,2.58828
0.520743,-0.0722448,2.536,2.58992
0.528975,-0.0722448,2.536,2.59159
0.537206,-0.0722448,2.536,2.59328
0.545437,-0.0722448,2.536,2.595
0.557817,-0.072786,2.555,2.6162
0.5619,-0.0722448,2.536,2.59851
0.570131,-0.0722448,2.536,2.6003
0.578362,-0.0722448,2.536,2.60212
0.586593,-0.0722448,2.536,2.60396
0.594824,-0.0722448,2.536,2.60583
0.603056,-0.0722448,2.536,2.60772
0.615867,-0.072786,2.555,2.62919
0.62416,-0.072786,2.555,2.63114
0.632453,-0.072786,2.555,2.63312
0.640746,-0.072786,2.555,2.63512
0.649038,-0.072786,2.555,2.63715
0.662219,-0.0733273,2.574,2.65883
0.670574,-0.0733273,2.574,2.66093
0.678929,-0.0733273,2.574,2.66304
0.687283,-0.0733273,2.574,2.66519
0.695638,-0.0733273,2.574,2.66735
0.703992,-0.0733273,2.574,2.66954
0.712347,-0.0733273,2.574,2.67176
0.720701,-0.0733273,2.574,2.674
0.729056,-0.0733273,2.574,2.67626
0.731967,-0.072786,2.555,2.65878
0.74026,-0.072786,2.555,2.66107
0.748553,-0.072786,2.555,2.66339
0.751218,-0.0722448,2.536,2.64591
0.759449,-0.0722448,2.536,2.64826
0.76768,-0.0722448,2.536,2.65063
0.770098,-0.0717035,2.517,2.63315
0.778268,-0.0717035,2.517,2.63555
0.792374,-0.0722448,2.536,2.65789
0.800605,-0.0722448,2.536,2.66035
0.808836,-0.0722448,2.536,2.66284
0.817068,-0.0722448,2.536,2.66535
0.825299,-0.0722448,2.536,2.66789
0.83353,-0.0722448,2.536,2.67045
0.841761,-0.0722448,2.536,2.67303
0.849993,-0.0722448,2.536,2.67563
0.851794,-0.0717035,2.517,2.65819
0.859963,-0.0717035,2.517,2.66082
0.868133,-0.0717035,2.517,2.66347
0.870036,-0.0711907,2.499,2.64708
0.871822,-0.0706779,2.481,2.63067
0.879874,-0.0706779,2.481,2.63335
0.881485,-0.0701652,2.463,2.61693
0.882979,-0.0696524,2.445,2.60049
0.890915,-0.0696524,2.445,2.60319
0.898851,-0.0696524,2.445,2.60592
0.900482,-0.0691681,2.428,2.59053
0.902002,-0.0686838,2.411,2.57512
0.909828,-0.0686838,2.411,2.57787
0.917653,-0.0686838,2.411,2.58064
0.918953,-0.0681995,2.394,2.56522
0.926724,-0.0681995,2.394,2.56802
0.934494,-0.0681995,2.394,2.57083
0.942264,-0.0681995,2.394,2.57366
0.950035,-0.0681995,2.394,2.57652
0.951003,-0.0677152,2.377,2.56108
0.958719,-0.0677152,2.377,2.56395
0.973346,-0.0681995,2.394,2.58521
0.981116,-0.0681995,2.394,2.58814
0.995908,-0.0686838,2.411,2.6095
1.00373,-0.0686838,2.411,2.61249
1.01869,-0.0691681,2.428,2.63395
1.02657,-0.0691681,2.428,2.63701
1.04937,-0.0701652,2.463,2.67814
1.07281,-0.0711907,2.499,2.72048
1.08093,-0.0711907,2.499,2.72369
1.11344,-0.072786,2.555,2.78802
1.13842,-0.0738686,2.593,2.83286
1.17381,-0.0756063,2.654,2.90298
1.18243,-0.0756063,2.654,2.90647
1.24893,-0.0792812,2.783,3.05143
1.27876,-0.0805916,2.829,3.10563
1.28794,-0.0805916,2.829,3.10943
1.31913,-0.0819591,2.877,3.16606
1.35109,-0.0833549,2.926,3.22395
1.34897,-0.0826428,2.901,3.20037
1.35838,-0.0826428,2.901,3.20435
1.35648,-0.0819591,2.877,3.18181
1.36582,-0.0819591,2.877,3.1858
1.37516,-0.0819591,2.877,3.18981
1.39605,-0.0826428,2.901,3.22049
1.41757,-0.0833549,2.926,3.25237
1.42707,-0.0833549,2.926,3.25653
1.43657,-0.0833549,2.926,3.2607
1.44607,-0.0833549,2.926,3.26489
1.45556,-0.0833549,2.926,3.26911
1.46506,-0.0833549,2.926,3.27335
1.48716,-0.0840671,2.951,3.30562
1.50992,-0.0848078,2.977,3.3391
1.51958,-0.0848078,2.977,3.34348
1.55647,-0.0863177,3.03,3.40749
1.58026,-0.0870868,3.057,3.44239
1.59019,-0.0870868,3.057,3.44696
1.61424,-0.087856,3.084,3.48203
1.639,-0.0886537,3.112,3.51834
1.6491,-0.0886537,3.112,3.52306
1.67466,-0.0894798,3.141,3.56067
1.71597,-0.0911321,3.199,3.63131
1.74308,-0.0920152,3.23,3.67147
1.75356,-0.0920152,3.23,3.67646
1.78043,-0.0928698,3.26,3.71566
1.79101,-0.0928698,3.26,3.72075
1.78501,-0.0920152,3.23,3.69156
1.7955,-0.0920152,3.23,3.69664
1.80598,-0.0920152,3.23,3.70175
1.79903,-0.0911321,3.199,3.6713
1.79301,-0.0903059,3.17,3.64307
1.8033,-0.0903059,3.17,3.64814
1.797,-0.0894798,3.141,3.61982
1.79051,-0.0886537,3.112,3.59142
1.80061,-0.0886537,3.112,3.59647
1.79442,-0.087856,3.084,3.56913
1.80443,-0.087856,3.084,3.57418
1.81444,-0.087856,3.084,3.57924
1.82445,-0.087856,3.084,3.58433
1.8184,-0.0870868,3.057,3.55801
1.81217,-0.0863177,3.03,3.53162
1.82201,-0.0863177,3.03,3.53667
1.81552,-0.0855485,3.003,3.51019
1.80946,-0.0848078,2.977,3.48481
1.81912,-0.0848078,2.977,3.48983
1.82879,-0.0848078,2.977,3.49488
1.82239,-0.0840671,2.951,3.46938
1.83197,-0.0840671,2.951,3.47442
1.82595,-0.0833549,2.926,3.45
1.80471,-0.0819591,2.877,3.39718
1.81405,-0.0819591,2.877,3.40215
1.80817,-0.0812754,2.853,3.37871
1.78749,-0.0799364,2.806,3.32794
1.78187,-0.0792812,2.783,3.30552
1.79091,-0.0792812,2.783,3.3104
1.77148,-0.0780278,2.739,3.26288
1.75242,-0.0768028,2.696,3.21641
1.76117,-0.0768028,2.696,3.22119
1.74235,-0.0756063,2.654,3.17572
1.73711,-0.0750081,2.633,3.15529
1.74566,-0.0750081,2.633,3.16001
1.72755,-0.0738686,2.593,3.11666
1.72325,-0.0733273,2.574,3.09846
1.7316,-0.0733273,2.574,3.10311
1.72711,-0.072786,2.555,3.08484
1.7225,-0.0722448,2.536,3.06652
-2.04721,-0.0744916,2.951,3.59235
-2.0031,-0.0732295,2.901,3.52613
-1.99369,-0.0732295,2.901,3.52079
-1.95144,-0.0720178,2.853,3.4573
-1.92584,-0.071412,2.829,3.42304
-1.91666,-0.071412,2.829,3.41788
-1.89197,-0.0708314,2.806,3.385
-1.86743,-0.0702508,2.783,3.35221
-1.85839,-0.0702508,2.783,3.34719
-1.83474,-0.0696955,2.761,3.31576
-1.82578,-0.0696955,2.761,3.31081
-1.80234,-0.0691401,2.739,3.27953
-1.79345,-0.0691401,2.739,3.27466
-1.78456,-0.0691401,2.739,3.2698
-1.77567,-0.0691401,2.739,3.26495
-1.76678,-0.0691401,2.739,3.26013
-1.75789,-0.0691401,2.739,3.25532
-1.76305,-0.0696955,2.761,3.27663
-1.76807,-0.0702508,2.783,3.29789
-1.75903,-0.0702508,2.783,3.29306
-1.76446,-0.0708314,2.806,3.31542
-1.76974,-0.071412,2.829,3.33771
-1.79043,-0.0726237,2.877,3.3894
-1.78109,-0.0726237,2.877,3.38448
-1.77176,-0.0726237,2.877,3.37957
-1.79244,-0.0738606,2.926,3.43216
-1.78294,-0.0738606,2.926,3.42721
-1.77344,-0.0738606,2.926,3.42228
-1.76394,-0.0738606,2.926,3.41737
-1.75445,-0.0738606,2.926,3.41248
-1.74495,-0.0738606,2.926,3.40761
-1.73545,-0.0738606,2.926,3.40275
-1.72596,-0.0738606,2.926,3.39792
-1.71646,-0.0738606,2.926,3.39311
-1.70696,-0.0738606,2.926,3.38831
-1.69746,-0.0738606,2.926,3.38354
-1.67355,-0.0732295,2.901,3.34991
-1.66413,-0.0732295,2.901,3.34522
-1.65471,-0.0732295,2.901,3.34054
-1.63169,-0.0726237,2.877,3.30829
-1.62235,-0.0726237,2.877,3.3037
-1.61301,-0.0726237,2.877,3.29912
-1.60367,-0.0726237,2.877,3.29457
-1.59433,-0.0726237,2.877,3.29003
-1.59822,-0.0732295,2.901,3.31292
-1.5888,-0.0732295,2.901,3.30839
-1.57939,-0.0732295,2.901,3.30388
-1.56997,-0.0732295,2.901,3.29939
-1.56055,-0.0732295,2.901,3.29492
-1.55114,-0.0732295,2.901,3.29047
-1.56829,-0.0744916,2.951,3.34268
-1.55872,-0.0744916,2.951,3.3382
-1.56279,-0.0751479,2.977,3.36311
-1.55312,-0.0751479,2.977,3.35863
-1.54346,-0.0751479,2.977,3.35417
-1.5338,-0.0751479,2.977,3.34973
-1.49803,-0.0738606,2.926,3.28801
-1.4636,-0.0726237,2.877,3.2287
-1.45426,-0.0726237,2.877,3.22448
-1.40927,-0.0708314,2.806,3.14081
-1.40016,-0.0708314,2.806,3.13673
nan,nan,nan,NaN
-1.31743,-0.0675246,2.675,2.98258
-1.2882,-0.0664644,2.633,2.93199
-1.27965,-0.0664644,2.633,2.92824
-1.25179,-0.0654547,2.593,2.88009
-1.23427,-0.0649751,2.574,2.85537
-1.21686,-0.0644955,2.555,2.83071
-1.19958,-0.0640159,2.536,2.80613
-1.18243,-0.0635362,2.517,2.78163
-1.16586,-0.0630819,2.499,2.7583
-1.15775,-0.0630819,2.499,2.75488
-1.14964,-0.0630819,2.499,2.75148
-1.1333,-0.0626275,2.481,2.72831
-1.12525,-0.0626275,2.481,2.72497
-1.10909,-0.0621731,2.463,2.70191
-1.1011,-0.0621731,2.463,2.69864
-1.0931,-0.0621731,2.463,2.69539
-1.07718,-0.0617188,2.445,2.67248
-1.06924,-0.0617188,2.445,2.66929
-1.05393,-0.0612896,2.428,2.64758
-1.04605,-0.0612896,2.428,2.64446
-1.03817,-0.0612896,2.428,2.64135
-1.02307,-0.0608605,2.411,2.61979
-1.01525,-0.0608605,2.411,2.61674
-1.00742,-0.0608605,2.411,2.61372
-0.999596,-0.0608605,2.411,2.61071
-0.99177,-0.0608605,2.411,2.60773
-0.983945,-0.0608605,2.411,2.60476
-0.976119,-0.0608605,2.411,2.60181
-0.968294,-0.0608605,2.411,2.59889
-0.960468,-0.0608605,2.411,2.59598
-0.952643,-0.0608605,2.411,2.5931
-0.944817,-0.0608605,2.411,2.59023
-0.936992,-0.0608605,2.411,2.58739
-0.929166,-0.0608605,2.411,2.58456
-0.921341,-0.0608605,2.411,2.58176
-0.913515,-0.0608605,2.411,2.57898
-0.90569,-0.0608605,2.411,2.57622
-0.897864,-0.0608605,2.411,2.57348
-0.890039,-0.0608605,2.411,2.57076
-0.882213,-0.0608605,2.411,2.56806
-0.874388,-0.0608605,2.411,2.56538
-0.866562,-0.0608605,2.411,2.56272
-0.858737,-0.0608605,2.411,2.56009
-0.850911,-0.0608605,2.411,2.55747
-0.843086,-0.0608605,2.411,2.55488
-0.83526,-0.0608605,2.411,2.55231
-0.827435,-0.0608605,2.411,2.54976
-0.819609,-0.0608605,2.411,2.54723
-0.811784,-0.0608605,2.411,2.54472
-0.803958,-0.0608605,2.411,2.54224
-0.796133,-0.0608605,2.411,2.53977
-0.788307,-0.0608605,2.411,2.53733
-0.780482,-0.0608605,2.411,2.53491
-0.772656,-0.0608605,2.411,2.53251
-0.764831,-0.0608605,2.411,2.53014
-0.757005,-0.0608605,2.411,2.52778
-0.743897,-0.0604314,2.394,2.50764
-0.736127,-0.0604314,2.394,2.50535
-0.728357,-0.0604314,2.394,2.50308
-0.720586,-0.0604314,2.394,2.50083
-0.712816,-0.0604314,2.394,2.4986
-0.705046,-0.0604314,2.394,2.49639
-0.697275,-0.0604314,2.394,2.49421
-0.689505,-0.0604314,2.394,2.49205
-0.686576,-0.0608605,2.411,2.50759
-0.67875,-0.0608605,2.411,2.50546
-0.670925,-0.0608605,2.411,2.50335
-0.667775,-0.0612896,2.428,2.5189
-0.659894,-0.0612896,2.428,2.51682
-0.652013,-0.0612896,2.428,2.51477
-0.648643,-0.0617188,2.445,2.53033
-0.640707,-0.0617188,2.445,2.52831
-0.632771,-0.0617188,2.445,2.52631
-0.629435,-0.0621731,2.463,2.54292
-0.625982,-0.0626275,2.481,2.55952
-0.61793,-0.0626275,2.481,2.55756
-0.609877,-0.0626275,2.481,2.55563
-0.601824,-0.0626275,2.481,2.55372
-0.598079,-0.0630819,2.499,2.57035
-0.589968,-0.0630819,2.499,2.56847
-0.581857,-0.0630819,2.499,2.56662
-0.573746,-0.0630819,2.499,2.56479
-0.565635,-0.0630819,2.499,2.56299
-0.561539,-0.0635362,2.517,2.57966
-0.55337,-0.0635362,2.517,2.5779
-0.5452,-0.0635362,2.517,2.57615
-0.537031,-0.0635362,2.517,2.57444
-0.532853,-0.0640159,2.536,2.59217
-0.524622,-0.0640159,2.536,2.59049
-0.516391,-0.0640159,2.536,2.58883
-0.504353,-0.0635362,2.517,2.56782
-0.496183,-0.0635362,2.517,2.56623
-0.488013,-0.0635362,2.517,2.56466
-0.479844,-0.0635362,2.517,2.56312
-0.471674,-0.0635362,2.517,2.5616
-0.463505,-0.0635362,2.517,2.56011
-0.455335,-0.0635362,2.517,2.55864
-0.450541,-0.0640159,2.536,2.57651
-0.44231,-0.0640159,2.536,2.57508
-0.434079,-0.0640159,2.536,2.57368
-0.425848,-0.0640159,2.536,2.5723
-0.417616,-0.0640159,2.536,2.57095
-0.409385,-0.0640159,2.536,2.56963
-0.401154,-0.0640159,2.536,2.56833
-0.392923,-0.0640159,2.536,2.56706
-0.384691,-0.0640159,2.536,2.56581
-0.37646,-0.0640159,2.536,2.56459
-0.368229,-0.0640159,2.536,2.56339
-0.359998,-0.0640159,2.536,2.56222
-0.351766,-0.0640159,2.536,2.56108
-0.343535,-0.0640159,2.536,2.55996
-0.335304,-0.0640159,2.536,2.55887
-0.327073,-0.0640159,2.536,2.55781
-0.318842,-0.0640159,2.536,2.55677
-0.31061,-0.0640159,2.536,2.55575
-0.302379,-0.0640159,2.536,2.55477
-0.294148,-0.0640159,2.536,2.5538
-0.288059,-0.0644955,2.555,2.572
-0.279766,-0.0644955,2.555,2.57108
-0.271473,-0.0644955,2.555,2.57019
-0.26318,-0.0644955,2.555,2.56933
-0.254887,-0.0644955,2.555,2.56849
-0.246594,-0.0644955,2.555,2.56768
-0.238301,-0.0644955,2.555,2.5669
-0.230009,-0.0644955,2.555,2.56614
-0.221716,-0.0644955,2.555,2.56541
-0.213423,-0.0644955,2.555,2.56471
-0.20513,-0.0644955,2.555,2.56403
-0.196837,-0.0644955,2.555,2.56338
-0.188544,-0.0644955,2.555,2.56276
-0.180251,-0.0644955,2.555,2.56216
-0.171958,-0.0644955,2.555,2.56159
-0.163665,-0.0644955,2.555,2.56105
-0.156528,-0.0649751,2.574,2.57957
-0.148173,-0.0649751,2.574,2.57908
-0.138787,-0.0644955,2.555,2.55958
-0.130494,-0.0644955,2.555,2.55914
-0.122201,-0.0644955,2.555,2.55873
-0.113908,-0.0644955,2.555,2.55835
-0.105615,-0.0644955,2.555,2.558
-0.0973222,-0.0644955,2.555,2.55767
-0.0890293,-0.0644955,2.555,2.55736
-0.0807364,-0.0644955,2.555,2.55709
-0.0724435,-0.0644955,2.555,2.55684
-0.0646277,-0.0649751,2.574,2.57563
-0.0562731,-0.0649751,2.574,2.57543
-0.0479185,-0.0649751,2.574,2.57527
-0.039564,-0.0649751,2.574,2.57512
-0.0312094,-0.0649751,2.574,2.57501
-0.0228548,-0.0649751,2.574,2.57492
-0.0145003,-0.0649751,2.574,2.57486
-0.00614571,-0.0649751,2.574,2.57483
0.00220886,-0.0649751,2.574,2.57482
0.0105634,-0.0649751,2.574,2.57484
0.018918,-0.0649751,2.574,2.57489
0.0272725,-0.0649751,2.574,2.57496
0.0356271,-0.0649751,2.574,2.57507
0.0439817,-0.0649751,2.574,2.5752
0.0523362,-0.0649751,2.574,2.57535
0.0606908,-0.0649751,2.574,2.57554
0.0690454,-0.0649751,2.574,2.57575
0.0768286,-0.0644955,2.555,2.55697
0.0851215,-0.0644955,2.555,2.55723
0.0934144,-0.0644955,2.555,2.55752
0.101707,-0.0644955,2.555,2.55784
0.11,-0.0644955,2.555,2.55818
0.118293,-0.0644955,2.555,2.55855
0.126586,-0.0644955,2.555,2.55895
0.134879,-0.0644955,2.555,2.55937
0.143172,-0.0644955,2.555,2.55982
0.152591,-0.0649751,2.574,2.57934
0.159758,-0.0644955,2.555,2.5608
0.16805,-0.0644955,2.555,2.56133
0.176343,-0.0644955,2.555,2.56189
0.184636,-0.0644955,2.555,2.56247
0.194364,-0.0649751,2.574,2.58215
0.202718,-0.0649751,2.574,2.58279
0.211073,-0.0649751,2.574,2.58346
0.219428,-0.0649751,2.574,2.58415
0.226101,-0.0644955,2.555,2.5658
0.234394,-0.0644955,2.555,2.56654
0.242687,-0.0644955,2.555,2.56731
0.250979,-0.0644955,2.555,2.56811
0.259272,-0.0644955,2.555,2.56893
0.265575,-0.0640159,2.536,2.55067
0.273807,-0.0640159,2.536,2.55154
0.282038,-0.0640159,2.536,2.55244
0.288094,-0.0635362,2.517,2.53423
0.296264,-0.0635362,2.517,2.53517
0.304434,-0.0635362,2.517,2.53614
0.312603,-0.0635362,2.517,2.53713
0.318479,-0.0630819,2.499,2.52
0.32659,-0.0630819,2.499,2.52104
0.334701,-0.0630819,2.499,2.5221
0.342812,-0.0630819,2.499,2.52319
0.350923,-0.0630819,2.499,2.52431
0.359034,-0.0630819,2.499,2.52545
0.367146,-0.0630819,2.499,2.52661
0.375257,-0.0630819,2.499,2.52781
0.386129,-0.0635362,2.517,2.54724
0.394299,-0.0635362,2.517,2.54849
0.402468,-0.0635362,2.517,2.54977
0.413738,-0.0640159,2.536,2.57033
0.421969,-0.0640159,2.536,2.57166
0.4302,-0.0640159,2.536,2.57303
0.438431,-0.0640159,2.536,2.57442
0.446662,-0.0640159,2.536,2.57583
0.454894,-0.0640159,2.536,2.57727
0.463125,-0.0640159,2.536,2.57874
0.474888,-0.0644955,2.555,2.59956
0.48318,-0.0644955,2.555,2.60109
0.491473,-0.0644955,2.555,2.60264
0.499766,-0.0644955,2.555,2.60422
0.508059,-0.0644955,2.555,2.60582
0.512512,-0.0640159,2.536,2.58806
0.520743,-0.0640159,2.536,2.5897
0.528975,-0.0640159,2.536,2.59137
0.537206,-0.0640159,2.536,2.59306
0.549524,-0.0644955,2.555,2.61422
0.557817,-0.0644955,2.555,2.61598
0.566109,-0.0644955,2.555,2.61776
0.570131,-0.0640159,2.536,2.60009
0.578362,-0.0640159,2.536,2.6019
0.586593,-0.0640159,2.536,2.60374
0.594824,-0.0640159,2.536,2.60561
0.603056,-0.0640159,2.536,2.6075
0.611287,-0.0640159,2.536,2.60942
0.619518,-0.0640159,2.536,2.61136
0.632453,-0.0644955,2.555,2.6329
0.640746,-0.0644955,2.555,2.63491
0.649038,-0.0644955,2.555,2.63694
0.662219,-0.0649751,2.574,2.65861
0.670574,-0.0649751,2.574,2.66071
0.678929,-0.0649751,2.574,2.66283
0.687283,-0.0649751,2.574,2.66497
0.695638,-0.0649751,2.574,2.66714
0.703992,-0.0649751,2.574,2.66933
0.712347,-0.0649751,2.574,2.67154
0.720701,-0.0649751,2.574,2.67378
0.729056,-0.0649751,2.574,2.67605
0.731967,-0.0644955,2.555,2.65856
0.74026,-0.0644955,2.555,2.66086
0.748553,-0.0644955,2.555,2.66318
0.751218,-0.0640159,2.536,2.6457
0.759449,-0.0640159,2.536,2.64805
0.76768,-0.0640159,2.536,2.65042
0.775912,-0.0640159,2.536,2.65282
0.784143,-0.0640159,2.536,2.65524
0.792374,-0.0640159,2.536,2.65768
0.800605,-0.0640159,2.536,2.66014
0.808836,-0.0640159,2.536,2.66263
0.817068,-0.0640159,2.536,2.66514
0.825299,-0.0640159,2.536,2.66768
0.83353,-0.0640159,2.536,2.67024
0.841761,-0.0640159,2.536,2.67282
0.849993,-0.0640159,2.536,2.67542
0.851794,-0.0635362,2.517,2.65798
0.859963,-0.0635362,2.517,2.66061
0.868133,-0.0635362,2.517,2.66327
0.870036,-0.0630819,2.499,2.64687
0.871822,-0.0626275,2.481,2.63047
0.879874,-0.0626275,2.481,2.63315
0.881485,-0.0621731,2.463,2.61673
0.882979,-0.0617188,2.445,2.60029
0.890915,-0.0617188,2.445,2.60299
0.898851,-0.0617188,2.445,2.60572
0.900482,-0.0612896,2.428,2.59033
0.902002,-0.0608605,2.411,2.57492
0.909828,-0.0608605,2.411,2.57768
0.917653,-0.0608605,2.411,2.58045
0.925479,-0.0608605,2.411,2.58324
0.933304,-0.0608605,2.411,2.58606
0.934494,-0.0604314,2.394,2.57064
0.942264,-0.0604314,2.394,2.57347
0.950035,-0.0604314,2.394,2.57633
0.957805,-0.0604314,2.394,2.5792
0.965575,-0.0604314,2.394,2.5821
0.973346,-0.0604314,2.394,2.58501
0.981116,-0.0604314,2.394,2.58795
0.995908,-0.0608605,2.411,2.6093
1.01081,-0.0612896,2.428,2.63072
1.01869,-0.0612896,2.428,2.63376
1.02657,-0.0612896,2.428,2.63681
1.04937,-0.0621731,2.463,2.67795
1.07281,-0.0630819,2.499,2.72028
1.08093,-0.0630819,2.499,2.72349
1.11344,-0.0644955,2.555,2.78782
1.13842,-0.0654547,2.593,2.83265
1.17381,-0.0669945,2.654,2.90276
1.18243,-0.0669945,2.654,2.90626
1.20989,-0.0680547,2.696,2.95582
1.23808,-0.0691401,2.739,3.00662
1.24697,-0.0691401,2.739,3.01029
1.27603,-0.0702508,2.783,3.0624
1.31739,-0.0720178,2.853,3.1433
1.31549,-0.071412,2.829,3.12071
1.32467,-0.071412,2.829,3.12459
1.33385,-0.071412,2.829,3.1285
1.34303,-0.071412,2.829,3.13242
1.35222,-0.071412,2.829,3.13637
1.3614,-0.071412,2.829,3.14034
1.38221,-0.0720178,2.853,3.17101
1.39147,-0.0720178,2.853,3.17506
1.41251,-0.0726237,2.877,3.20587
1.42185,-0.0726237,2.877,3.20999
1.43119,-0.0726237,2.877,3.21414
1.44053,-0.0726237,2.877,3.21831
1.46196,-0.0732295,2.901,3.24938
1.47137,-0.0732295,2.901,3.25363
1.49355,-0.0738606,2.926,3.28597
1.52925,-0.0751479,2.977,3.34765
1.56631,-0.0764858,3.03,3.41175
1.57614,-0.0764858,3.03,3.41628
1.60011,-0.0771674,3.057,3.45131
1.62425,-0.0778489,3.084,3.48645
1.63426,-0.0778489,3.084,3.49112
1.67466,-0.0792878,3.141,3.56043
1.71597,-0.0807519,3.199,3.63107
1.72635,-0.0807519,3.199,3.63599
1.73673,-0.0807519,3.199,3.64093
1.76405,-0.0815344,3.23,3.68122
1.77453,-0.0815344,3.23,3.68626
1.78501,-0.0815344,3.23,3.69132
1.77827,-0.0807519,3.199,3.66092
1.78865,-0.0807519,3.199,3.66598
1.79903,-0.0807519,3.199,3.67105
1.79301,-0.0800198,3.17,3.64283
1.8033,-0.0800198,3.17,3.6479
1.797,-0.0792878,3.141,3.61958
1.79051,-0.0785557,3.112,3.59119
1.80061,-0.0785557,3.112,3.59624
1.79442,-0.0778489,3.084,3.5689
1.80443,-0.0778489,3.084,3.57394
1.79855,-0.0771674,3.057,3.54767
1.80848,-0.0771674,3.057,3.55272
1.8184,-0.0771674,3.057,3.55778
1.81217,-0.0764858,3.03,3.53139
1.82201,-0.0764858,3.03,3.53645
1.81552,-0.0758043,3.003,3.50997
1.80946,-0.0751479,2.977,3.48458
1.81912,-0.0751479,2.977,3.48961
1.81281,-0.0744916,2.951,3.46414
1.80695,-0.0738606,2.926,3.43977
1.81645,-0.0738606,2.926,3.44477
1.82595,-0.0738606,2.926,3.44979
1.80471,-0.0726237,2.877,3.39697
1.81405,-0.0726237,2.877,3.40194
1.80817,-0.0720178,2.853,3.3785
1.78749,-0.0708314,2.806,3.32773
1.78187,-0.0702508,2.783,3.30531
1.79091,-0.0702508,2.783,3.31019
1.77148,-0.0691401,2.739,3.26268
1.75242,-0.0680547,2.696,3.21621
1.76117,-0.0680547,2.696,3.22099
1.74235,-0.0669945,2.654,3.17553
1.73711,-0.0664644,2.633,3.1551
1.74566,-0.0664644,2.633,3.15981
1.72755,-0.0654547,2.593,3.11647
1.72325,-0.0649751,2.574,3.09827
1.7316,-0.0649751,2.574,3.10293
1.71427,-0.0640159,2.536,3.06172
1.7096,-0.0635362,2.517,3.04336
-2.02986,-0.0643662,2.926,3.56174
-1.98653,-0.0632883,2.877,3.49678
-1.97719,-0.0632883,2.877,3.49148
-1.95144,-0.0627603,2.853,3.45712
-1.91018,-0.0617264,2.806,3.39503
-1.90108,-0.0617264,2.806,3.38992
-1.87646,-0.0612205,2.783,3.35707
-1.85267,-0.0607365,2.761,3.32553
-1.8437,-0.0607365,2.761,3.32055
-1.82012,-0.0602525,2.739,3.28916
-1.81123,-0.0602525,2.739,3.28425
-1.78787,-0.0597686,2.717,3.25302
-1.77905,-0.0597686,2.717,3.24818
-1.77023,-0.0597686,2.717,3.24336
-1.76141,-0.0597686,2.717,3.23855
-1.75259,-0.0597686,2.717,3.23377
-1.74377,-0.0597686,2.717,3.22899
-1.749,-0.0602525,2.739,3.25035
-1.75409,-0.0607365,2.761,3.27164
-1.74513,-0.0607365,2.761,3.26685
-1.75,-0.0612205,2.783,3.28806
-1.75535,-0.0617264,2.806,3.3104
-1.76056,-0.0622324,2.829,3.33267
-1.75138,-0.0622324,2.829,3.32783
-1.75698,-0.0627603,2.853,3.3512
-1.76242,-0.0632883,2.877,3.3745
-1.75308,-0.0632883,2.877,3.36963
-1.75829,-0.0638162,2.901,3.39285
-1.76394,-0.0643662,2.926,3.41718
-1.75445,-0.0643662,2.926,3.41229
-1.74495,-0.0643662,2.926,3.40741
-1.73545,-0.0643662,2.926,3.40256
-1.72596,-0.0643662,2.926,3.39773
-1.71646,-0.0643662,2.926,3.39291
-1.69238,-0.0638162,2.901,3.35917
-1.68296,-0.0638162,2.901,3.35443
-1.6597,-0.0632883,2.877,3.32201
-1.63659,-0.0627603,2.853,3.28968
-1.62733,-0.0627603,2.853,3.28508
-1.61807,-0.0627603,2.853,3.28051
-1.60881,-0.0627603,2.853,3.27595
-1.59955,-0.0627603,2.853,3.27141
-1.59029,-0.0627603,2.853,3.26689
-1.58103,-0.0627603,2.853,3.26239
-1.59822,-0.0638162,2.901,3.31273
-1.5888,-0.0638162,2.901,3.3082
-1.57939,-0.0638162,2.901,3.30368
-1.56997,-0.0638162,2.901,3.29919
-1.56055,-0.0638162,2.901,3.29472
-1.55114,-0.0638162,2.901,3.29027
-1.56829,-0.0649161,2.951,3.34248
-1.55872,-0.0649161,2.951,3.338
-1.56279,-0.0654881,2.977,3.3629
-1.55312,-0.0654881,2.977,3.35842
-1.54346,-0.0654881,2.977,3.35397
-1.5338,-0.0654881,2.977,3.34953
-1.49803,-0.0643662,2.926,3.28781
-1.4636,-0.0632883,2.877,3.22851
-1.45426,-0.0632883,2.877,3.22429
-1.40927,-0.0617264,2.806,3.14062
-1.40016,-0.0617264,2.806,3.13654
nan,nan,nan,NaN
-1.32777,-0.0593066,2.696,3.00581
-1.29847,-0.0583827,2.654,2.95519
-1.28986,-0.0583827,2.654,2.95142
-1.26145,-0.0574808,2.613,2.90212
-1.24338,-0.0570408,2.593,2.87626
-1.21686,-0.0562049,2.555,2.83054
-1.20857,-0.0562049,2.555,2.82698
-1.19135,-0.0557869,2.536,2.80245
-1.17426,-0.055369,2.517,2.77799
-1.16609,-0.055369,2.517,2.77455
-1.14964,-0.054973,2.499,2.75131
-1.14153,-0.054973,2.499,2.74793
-1.13341,-0.054973,2.499,2.74457
-1.1172,-0.0545771,2.481,2.72148
-1.1011,-0.0541811,2.463,2.69847
-1.0931,-0.0541811,2.463,2.69521
-1.07718,-0.0537851,2.445,2.67231
-1.06924,-0.0537851,2.445,2.66912
-1.05393,-0.0534112,2.428,2.64741
-1.04605,-0.0534112,2.428,2.64429
-1.03817,-0.0534112,2.428,2.64118
-1.02307,-0.0530372,2.411,2.61962
-1.01525,-0.0530372,2.411,2.61657
-1.00742,-0.0530372,2.411,2.61355
-0.999596,-0.0530372,2.411,2.61054
-0.99177,-0.0530372,2.411,2.60755
-0.983945,-0.0530372,2.411,2.60459
-0.976119,-0.0530372,2.411,2.60164
-0.968294,-0.0530372,2.411,2.59872
-0.960468,-0.0530372,2.411,2.59581
-0.952643,-0.0530372,2.411,2.59293
-0.944817,-0.0530372,2.411,2.59006
-0.936992,-0.0530372,2.411,2.58722
-0.929166,-0.0530372,2.411,2.58439
-0.921341,-0.0530372,2.411,2.58159
-0.913515,-0.0530372,2.411,2.57881
-0.90569,-0.0530372,2.411,2.57605
-0.897864,-0.0530372,2.411,2.5733
-0.890039,-0.0530372,2.411,2.57058
-0.882213,-0.0530372,2.411,2.56789
-0.874388,-0.0530372,2.411,2.56521
-0.866562,-0.0530372,2.411,2.56255
-0.858737,-0.0530372,2.411,2.55991
-0.850911,-0.0530372,2.411,2.5573
-0.843086,-0.0530372,2.411,2.55471
-0.83526,-0.0530372,2.411,2.55214
-0.827435,-0.0530372,2.411,2.54958
-0.819609,-0.0530372,2.411,2.54706
-0.811784,-0.0530372,2.411,2.54455
-0.803958,-0.0530372,2.411,2.54206
-0.796133,-0.0530372,2.411,2.5396
-0.788307,-0.0530372,2.411,2.53716
-0.780482,-0.0530372,2.411,2.53474
-0.772656,-0.0530372,2.411,2.53234
-0.764831,-0.0530372,2.411,2.52996
-0.757005,-0.0530372,2.411,2.52761
-0.743897,-0.0526632,2.394,2.50747
-0.736127,-0.0526632,2.394,2.50517
-0.728357,-0.0526632,2.394,2.5029
-0.720586,-0.0526632,2.394,2.50065
-0.712816,-0.0526632,2.394,2.49842
-0.705046,-0.0526632,2.394,2.49622
-0.697275,-0.0526632,2.394,2.49403
-0.689505,-0.0526632,2.394,2.49187
-0.686576,-0.0530372,2.411,2.50741
-0.67875,-0.0530372,2.411,2.50528
-0.670925,-0.0530372,2.411,2.50317
-0.667775,-0.0534112,2.428,2.51872
-0.659894,-0.0534112,2.428,2.51664
-0.652013,-0.0534112,2.428,2.51459
-0.648643,-0.0537851,2.445,2.53015
-0.640707,-0.0537851,2.445,2.52813
-0.632771,-0.0537851,2.445,2.52613
-0.629435,-0.0541811,2.463,2.54273
-0.625982,-0.0545771,2.481,2.55933
-0.61793,-0.0545771,2.481,2.55738
-0.609877,-0.0545771,2.481,2.55544
-0.601824,-0.0545771,2.481,2.55353
-0.598079,-0.054973,2.499,2.57016
-0.589968,-0.054973,2.499,2.56828
-0.581857,-0.054973,2.499,2.56643
-0.573746,-0.054973,2.499,2.56461
-0.565635,-0.054973,2.499,2.5628
-0.561539,-0.055369,2.517,2.57947
-0.55337,-0.055369,2.517,2.57771
-0.5452,-0.055369,2.517,2.57597
-0.537031,-0.055369,2.517,2.57425
-0.528861,-0.055369,2.517,2.57256
-0.524622,-0.0557869,2.536,2.5903
-0.516391,-0.0557869,2.536,2.58864
-0.504353,-0.055369,2.517,2.56763
-0.496183,-0.055369,2.517,2.56604
-0.488013,-0.055369,2.517,2.56447
-0.479844,-0.055369,2.517,2.56293
-0.471674,-0.055369,2.517,2.56141
-0.463505,-0.055369,2.517,2.55992
-0.455335,-0.055369,2.517,2.55845
-0.447166,-0.055369,2.517,2.55701
-0.438996,-0.055369,2.517,2.5556
-0.430827,-0.055369,2.517,2.55421
-0.425848,-0.0557869,2.536,2.57211
-0.417616,-0.0557869,2.536,2.57076
-0.409385,-0.0557869,2.536,2.56944
-0.401154,-0.0557869,2.536,2.56814
-0.392923,-0.0557869,2.536,2.56686
-0.384691,-0.0557869,2.536,2.56562
-0.37646,-0.0557869,2.536,2.5644
-0.368229,-0.0557869,2.536,2.5632
-0.359998,-0.0557869,2.536,2.56203
-0.351766,-0.0557869,2.536,2.56089
-0.343535,-0.0557869,2.536,2.55977
-0.335304,-0.0557869,2.536,2.55868
-0.327073,-0.0557869,2.536,2.55761
-0.318842,-0.0557869,2.536,2.55657
-0.31061,-0.0557869,2.536,2.55556
-0.302379,-0.0557869,2.536,2.55457
-0.294148,-0.0557869,2.536,2.55361
-0.285917,-0.0557869,2.536,2.55268
-0.277685,-0.0557869,2.536,2.55177
-0.271473,-0.0562049,2.555,2.57
-0.26318,-0.0562049,2.555,2.56913
-0.254887,-0.0562049,2.555,2.5683
-0.246594,-0.0562049,2.555,2.56749
-0.238301,-0.0562049,2.555,2.5667
-0.230009,-0.0562049,2.555,2.56595
-0.221716,-0.0562049,2.555,2.56522
-0.213423,-0.0562049,2.555,2.56451
-0.20513,-0.0562049,2.555,2.56384
-0.196837,-0.0562049,2.555,2.56319
-0.189946,-0.0566229,2.574,2.58162
-0.181592,-0.0566229,2.574,2.58102
-0.173237,-0.0566229,2.574,2.58044
-0.164882,-0.0566229,2.574,2.5799
-0.156528,-0.0566229,2.574,2.57938
-0.148173,-0.0566229,2.574,2.57888
-0.138787,-0.0562049,2.555,2.55938
-0.130494,-0.0562049,2.555,2.55895
-0.122201,-0.0562049,2.555,2.55854
-0.113908,-0.0562049,2.555,2.55816
-0.105615,-0.0562049,2.555,2.5578
-0.0973222,-0.0562049,2.555,2.55747
-0.0890293,-0.0562049,2.555,2.55717
-0.0807364,-0.0562049,2.555,2.55689
-0.0724435,-0.0562049,2.555,2.55664
-0.0646277,-0.0566229,2.574,2.57543
-0.0562731,-0.0566229,2.574,2.57524
-0.0479185,-0.0566229,2.574,2.57507
-0.039564,-0.0566229,2.574,2.57493
-0.0312094,-0.0566229,2.574,2.57481
-0.0228548,-0.0566229,2.574,2.57472
-0.0145003,-0.0566229,2.574,2.57466
-0.00614571,-0.0566229,2.574,2.57463
0.00220886,-0.0566229,2.574,2.57462
0.0105634,-0.0566229,2.574,2.57464
0.018918,-0.0566229,2.574,2.57469
0.0272725,-0.0566229,2.574,2.57477
0.0356271,-0.0566229,2.574,2.57487
0.0439817,-0.0566229,2.574,2.575
0.0523362,-0.0566229,2.574,2.57515
0.0606908,-0.0566229,2.574,2.57534
0.0690454,-0.0566229,2.574,2.57555
0.0768286,-0.0562049,2.555,2.55677
0.0851215,-0.0562049,2.555,2.55704
0.0934144,-0.0562049,2.555,2.55732
0.100951,-0.0557869,2.536,2.53862
0.109182,-0.0557869,2.536,2.53896
0.118293,-0.0562049,2.555,2.55835
0.126586,-0.0562049,2.555,2.55875
0.134879,-0.0562049,2.555,2.55918
0.143172,-0.0562049,2.555,2.55963
0.151465,-0.0562049,2.555,2.5601
0.159758,-0.0562049,2.555,2.56061
0.1693,-0.0566229,2.574,2.58018
0.177655,-0.0566229,2.574,2.58074
0.186009,-0.0566229,2.574,2.58133
0.194364,-0.0566229,2.574,2.58195
0.202718,-0.0566229,2.574,2.58259
0.211073,-0.0566229,2.574,2.58326
0.219428,-0.0566229,2.574,2.58396
0.227782,-0.0566229,2.574,2.58468
0.236137,-0.0566229,2.574,2.58543
0.242687,-0.0562049,2.555,2.56712
0.250979,-0.0562049,2.555,2.56791
0.259272,-0.0562049,2.555,2.56874
0.267565,-0.0562049,2.555,2.56959
0.273807,-0.0557869,2.536,2.55135
0.282038,-0.0557869,2.536,2.55224
0.290269,-0.0557869,2.536,2.55317
0.296264,-0.055369,2.517,2.53498
0.304434,-0.055369,2.517,2.53595
0.312603,-0.055369,2.517,2.53694
0.318479,-0.054973,2.499,2.51981
0.32659,-0.054973,2.499,2.52085
0.334701,-0.054973,2.499,2.52191
0.342812,-0.054973,2.499,2.523
0.353451,-0.055369,2.517,2.5423
0.36162,-0.055369,2.517,2.54345
0.36979,-0.055369,2.517,2.54462
0.37796,-0.055369,2.517,2.54582
0.386129,-0.055369,2.517,2.54705
0.394299,-0.055369,2.517,2.5483
0.402468,-0.055369,2.517,2.54958
0.413738,-0.0557869,2.536,2.57013
nan,nan,nan,NaN
0.4302,-0.0557869,2.536,2.57283
0.438431,-0.0557869,2.536,2.57422
0.446662,-0.0557869,2.536,2.57564
0.454894,-0.0557869,2.536,2.57708
0.463125,-0.0557869,2.536,2.57854
0.474888,-0.0562049,2.555,2.59937
0.48318,-0.0562049,2.555,2.60089
0.491473,-0.0562049,2.555,2.60245
0.503483,-0.0566229,2.574,2.62339
0.508059,-0.0562049,2.555,2.60563
0.516352,-0.0562049,2.555,2.60726
0.524645,-0.0562049,2.555,2.60891
0.532938,-0.0562049,2.555,2.6106
0.541231,-0.0562049,2.555,2.6123
0.549524,-0.0562049,2.555,2.61403
0.557817,-0.0562049,2.555,2.61579
0.566109,-0.0562049,2.555,2.61757
0.574402,-0.0562049,2.555,2.61937
0.582695,-0.0562049,2.555,2.62121
0.590988,-0.0562049,2.555,2.62306
0.594824,-0.0557869,2.536,2.60542
0.603056,-0.0557869,2.536,2.60731
0.611287,-0.0557869,2.536,2.60923
0.619518,-0.0557869,2.536,2.61117
0.632453,-0.0562049,2.555,2.63271
0.640746,-0.0562049,2.555,2.63472
0.649038,-0.0562049,2.555,2.63675
0.662219,-0.0566229,2.574,2.65842
0.670574,-0.0566229,2.574,2.66052
0.678929,-0.0566229,2.574,2.66264
0.687283,-0.0566229,2.574,2.66478
0.695638,-0.0566229,2.574,2.66694
0.703992,-0.0566229,2.574,2.66914
0.712347,-0.0566229,2.574,2.67135
0.720701,-0.0566229,2.574,2.67359
0.729056,-0.0566229,2.574,2.67586
0.731967,-0.0562049,2.555,2.65838
0.74026,-0.0562049,2.555,2.66067
0.748553,-0.0562049,2.555,2.66299
0.751218,-0.0557869,2.536,2.64551
0.759449,-0.0557869,2.536,2.64786
0.76768,-0.0557869,2.536,2.65023
0.775912,-0.0557869,2.536,2.65263
0.784143,-0.0557869,2.536,2.65505
0.792374,-0.0557869,2.536,2.65749
0.800605,-0.0557869,2.536,2.65996
0.808836,-0.0557869,2.536,2.66245
0.817068,-0.0557869,2.536,2.66496
0.825299,-0.0557869,2.536,2.66749
0.83353,-0.0557869,2.536,2.67005
0.841761,-0.0557869,2.536,2.67263
0.849993,-0.0557869,2.536,2.67524
0.851794,-0.055369,2.517,2.6578
0.859963,-0.055369,2.517,2.66043
0.868133,-0.055369,2.517,2.66308
0.870036,-0.054973,2.499,2.64669
0.871822,-0.0545771,2.481,2.63029
0.879874,-0.0545771,2.481,2.63297
0.881485,-0.0541811,2.463,2.61655
0.882979,-0.0537851,2.445,2.60011
0.890915,-0.0537851,2.445,2.60282
0.898851,-0.0537851,2.445,2.60554
0.900482,-0.0534112,2.428,2.59016
0.902002,-0.0530372,2.411,2.57475
0.909828,-0.0530372,2.411,2.5775
0.917653,-0.0530372,2.411,2.58028
0.925479,-0.0530372,2.411,2.58307
0.933304,-0.0530372,2.411,2.58588
0.934494,-0.0526632,2.394,2.57046
0.942264,-0.0526632,2.394,2.5733
0.950035,-0.0526632,2.394,2.57616
0.957805,-0.0526632,2.394,2.57903
0.965575,-0.0526632,2.394,2.58193
0.973346,-0.0526632,2.394,2.58484
0.981116,-0.0526632,2.394,2.58778
0.995908,-0.0530372,2.411,2.60913
1.00373,-0.0530372,2.411,2.61213
1.01869,-0.0534112,2.428,2.63359
1.02657,-0.0534112,2.428,2.63664
1.04937,-0.0541811,2.463,2.67777
1.06509,-0.0545771,2.481,2.70051
1.07314,-0.0545771,2.481,2.7037
1.09688,-0.055369,2.517,2.74618
1.13008,-0.0566229,2.574,2.81172
1.14683,-0.0570408,2.593,2.83586
1.15525,-0.0570408,2.593,2.83928
1.19104,-0.0583827,2.654,2.90959
1.21864,-0.0593066,2.696,2.95923
1.22739,-0.0593066,2.696,2.96284
1.25586,-0.0602525,2.739,3.01379
1.28506,-0.0612205,2.783,3.06598
1.2941,-0.0612205,2.783,3.06978
1.30313,-0.0612205,2.783,3.07359
1.31216,-0.0612205,2.783,3.07744
1.3212,-0.0612205,2.783,3.0813
1.33023,-0.0612205,2.783,3.08518
1.35033,-0.0617264,2.806,3.11462
1.37058,-0.0622324,2.829,3.14414
1.37976,-0.0622324,2.829,3.14815
1.38894,-0.0622324,2.829,3.15219
1.40999,-0.0627603,2.853,3.18302
1.41925,-0.0627603,2.853,3.18713
1.42851,-0.0627603,2.853,3.19127
1.44986,-0.0632883,2.877,3.2223
1.4592,-0.0632883,2.877,3.22652
1.49355,-0.0643662,2.926,3.28577
1.52925,-0.0654881,2.977,3.34745
1.55235,-0.06606,3.003,3.38115
1.5621,-0.06606,3.003,3.38563
1.60011,-0.0672479,3.057,3.4511
1.62425,-0.0678419,3.084,3.48624
1.63426,-0.0678419,3.084,3.49091
1.6592,-0.0684578,3.112,3.52735
1.70041,-0.0697337,3.17,3.59794
1.72635,-0.0703716,3.199,3.63577
1.73673,-0.0703716,3.199,3.64071
1.74712,-0.0703716,3.199,3.64568
1.7575,-0.0703716,3.199,3.65067
1.76788,-0.0703716,3.199,3.65568
1.77827,-0.0703716,3.199,3.66071
1.78865,-0.0703716,3.199,3.66576
1.79903,-0.0703716,3.199,3.67084
1.77661,-0.0690957,3.141,3.60929
1.7868,-0.0690957,3.141,3.61432
1.797,-0.0690957,3.141,3.61937
1.79051,-0.0684578,3.112,3.59098
1.80061,-0.0684578,3.112,3.59603
1.79442,-0.0678419,3.084,3.5687
1.80443,-0.0678419,3.084,3.57374
1.79855,-0.0672479,3.057,3.54747
1.80848,-0.0672479,3.057,3.55251
1.80234,-0.066654,3.03,3.52615
1.81217,-0.066654,3.03,3.53119
1.82201,-0.066654,3.03,3.53625
1.81552,-0.06606,3.003,3.50977
1.80946,-0.0654881,2.977,3.48439
1.81912,-0.0654881,2.977,3.48942
1.81281,-0.0649161,2.951,3.46394
1.80695,-0.0643662,2.926,3.43958
1.81645,-0.0643662,2.926,3.44458
1.82595,-0.0643662,2.926,3.4496
1.81976,-0.0638162,2.901,3.42511
1.82918,-0.0638162,2.901,3.43013
1.80817,-0.0627603,2.853,3.37832
1.78749,-0.0617264,2.806,3.32755
1.78187,-0.0612205,2.783,3.30514
1.79091,-0.0612205,2.783,3.31001
1.77148,-0.0602525,2.739,3.2625
1.75242,-0.0593066,2.696,3.21604
1.76117,-0.0593066,2.696,3.22082
1.75614,-0.0588447,2.675,3.20049
1.73711,-0.0579208,2.633,3.15493
1.74566,-0.0579208,2.633,3.15965
1.72755,-0.0570408,2.593,3.1163
1.72325,-0.0566229,2.574,3.09811
1.7316,-0.0566229,2.574,3.10276
1.71427,-0.0557869,2.536,3.06156
1.7096,-0.055369,2.517,3.0432
-2.02986,-0.0548718,2.926,3.56158
-1.98653,-0.0539529,2.877,3.49662
-1.97719,-0.0539529,2.877,3.49132
-1.95144,-0.0535028,2.853,3.45696
-1.91018,-0.0526214,2.806,3.39488
-1.90108,-0.0526214,2.806,3.38976
-1.87646,-0.0521901,2.783,3.35692
-1.85267,-0.0517775,2.761,3.32538
-1.8437,-0.0517775,2.761,3.3204
-1.82012,-0.0513649,2.739,3.28901
-1.81123,-0.0513649,2.739,3.2841
-1.78787,-0.0509524,2.717,3.25287
-1.77905,-0.0509524,2.717,3.24803
-1.77023,-0.0509524,2.717,3.24321
-1.76141,-0.0509524,2.717,3.2384
-1.75259,-0.0509524,2.717,3.23361
-1.74377,-0.0509524,2.717,3.22884
-1.749,-0.0513649,2.739,3.2502
-1.75409,-0.0517775,2.761,3.27149
-1.74513,-0.0517775,2.761,3.26669
-1.75,-0.0521901,2.783,3.2879
-1.75535,-0.0526214,2.806,3.31024
-1.76056,-0.0530527,2.829,3.33251
-1.75138,-0.0530527,2.829,3.32767
-1.75698,-0.0535028,2.853,3.35104
-1.76242,-0.0539529,2.877,3.37434
-1.75308,-0.0539529,2.877,3.36947
-1.75829,-0.0544029,2.901,3.39269
-1.76394,-0.0548718,2.926,3.41701
-1.75445,-0.0548718,2.926,3.41212
-1.74495,-0.0548718,2.926,3.40725
-1.73545,-0.0548718,2.926,3.40239
-1.72596,-0.0548718,2.926,3.39756
-1.71646,-0.0548718,2.926,3.39274
-1.69238,-0.0544029,2.901,3.359
-1.68296,-0.0544029,2.901,3.35427
-1.6597,-0.0539529,2.877,3.32184
-1.63659,-0.0535028,2.853,3.28952
-1.62733,-0.0535028,2.853,3.28492
-1.61807,-0.0535028,2.853,3.28034
-1.60881,-0.0535028,2.853,3.27578
-1.59955,-0.0535028,2.853,3.27125
-1.59029,-0.0535028,2.853,3.26673
-1.58103,-0.0535028,2.853,3.26223
-1.59822,-0.0544029,2.901,3.31256
-1.5888,-0.0544029,2.901,3.30803
-1.56632,-0.0539529,2.877,3.27619
-1.55698,-0.0539529,2.877,3.27173
-1.56055,-0.0544029,2.901,3.29455
-1.55114,-0.0544029,2.901,3.29011
-1.55501,-0.0548718,2.926,3.31399
-1.54551,-0.0548718,2.926,3.30955
-1.54914,-0.0553406,2.951,3.33336
-1.53956,-0.0553406,2.951,3.32892
-1.54346,-0.0558282,2.977,3.35379
-1.5338,-0.0558282,2.977,3.34936
-1.49803,-0.0548718,2.926,3.28764
-1.4636,-0.0539529,2.877,3.22834
-1.45426,-0.0539529,2.877,3.22412
-1.40927,-0.0526214,2.806,3.14045
-1.3777,-0.0517775,2.761,3.08608
-1.36874,-0.0517775,2.761,3.08209
-1.32777,-0.0505585,2.696,3.00565
-1.29847,-0.0497709,2.654,2.95503
-1.28986,-0.0497709,2.654,2.95126
-1.26145,-0.049002,2.613,2.90197
-1.24338,-0.048627,2.593,2.87611
-1.21686,-0.0479144,2.555,2.83038
-1.20857,-0.0479144,2.555,2.82683
-1.19135,-0.047558,2.536,2.8023
-1.17426,-0.0472017,2.517,2.77784
-1.16609,-0.0472017,2.517,2.7744
-1.14964,-0.0468642,2.499,2.75116
-1.14153,-0.0468642,2.499,2.74778
-1.13341,-0.0468642,2.499,2.74442
-1.1172,-0.0465266,2.481,2.72133
-1.1011,-0.0461891,2.463,2.69832
-1.0931,-0.0461891,2.463,2.69507
-1.07718,-0.0458515,2.445,2.67216
-1.06924,-0.0458515,2.445,2.66897
-1.05393,-0.0455327,2.428,2.64727
-1.04605,-0.0455327,2.428,2.64414
-1.0309,-0.0452139,2.411,2.62254
-1.02307,-0.0452139,2.411,2.61947
-1.01525,-0.0452139,2.411,2.61643
-1.00742,-0.0452139,2.411,2.6134
-0.999596,-0.0452139,2.411,2.61039
-0.99177,-0.0452139,2.411,2.60741
-0.983945,-0.0452139,2.411,2.60444
-0.976119,-0.0452139,2.411,2.60149
-0.968294,-0.0452139,2.411,2.59857
-0.960468,-0.0452139,2.411,2.59566
-0.952643,-0.0452139,2.411,2.59278
-0.944817,-0.0452139,2.411,2.58991
-0.936992,-0.0452139,2.411,2.58707
-0.929166,-0.0452139,2.411,2.58424
-0.921341,-0.0452139,2.411,2.58144
-0.913515,-0.0452139,2.411,2.57866
-0.90569,-0.0452139,2.411,2.5759
-0.897864,-0.0452139,2.411,2.57315
-0.890039,-0.0452139,2.411,2.57043
-0.882213,-0.0452139,2.411,2.56774
-0.874388,-0.0452139,2.411,2.56506
-0.866562,-0.0452139,2.411,2.5624
-0.858737,-0.0452139,2.411,2.55976
-0.850911,-0.0452139,2.411,2.55715
-0.843086,-0.0452139,2.411,2.55456
-0.83526,-0.0452139,2.411,2.55198
-0.827435,-0.0452139,2.411,2.54943
-0.819609,-0.0452139,2.411,2.54691
-0.811784,-0.0452139,2.411,2.5444
-0.803958,-0.0452139,2.411,2.54191
-0.796133,-0.0452139,2.411,2.53945
-0.788307,-0.0452139,2.411,2.537
-0.780482,-0.0452139,2.411,2.53458
-0.772656,-0.0452139,2.411,2.53219
-0.764831,-0.0452139,2.411,2.52981
-0.757005,-0.0452139,2.411,2.52745
-0.74918,-0.0452139,2.411,2.52512
-0.736127,-0.0448951,2.394,2.50502
-0.728357,-0.0448951,2.394,2.50275
-0.720586,-0.0448951,2.394,2.5005
-0.712816,-0.0448951,2.394,2.49827
-0.705046,-0.0448951,2.394,2.49607
-0.697275,-0.0448951,2.394,2.49388
-0.689505,-0.0448951,2.394,2.49172
-0.686576,-0.0452139,2.411,2.50726
-0.67875,-0.0452139,2.411,2.50513
-0.670925,-0.0452139,2.411,2.50302
-0.667775,-0.0455327,2.428,2.51857
-0.659894,-0.0455327,2.428,2.51649
-0.652013,-0.0455327,2.428,2.51443
-0.648643,-0.0458515,2.445,2.52999
-0.640707,-0.0458515,2.445,2.52797
-0.632771,-0.0458515,2.445,2.52597
-0.629435,-0.0461891,2.463,2.54258
-0.621441,-0.0461891,2.463,2.54061
-0.613446,-0.0461891,2.463,2.53866
-0.605452,-0.0461891,2.463,2.53674
-0.601824,-0.0465266,2.481,2.55337
-0.598079,-0.0468642,2.499,2.57
-0.589968,-0.0468642,2.499,2.56812
-0.581857,-0.0468642,2.499,2.56627
-0.573746,-0.0468642,2.499,2.56445
-0.565635,-0.0468642,2.499,2.56264
-0.561539,-0.0472017,2.517,2.57931
-0.55337,-0.0472017,2.517,2.57754
-0.5452,-0.0472017,2.517,2.5758
