-0.715059,-0.376428,2.428,2.55894
-0.707178,-0.376428,2.428,2.55675
-0.699297,-0.376428,2.428,2.55458
-0.691417,-0.376428,2.428,2.55244
-0.683536,-0.376428,2.428,2.55031
-0.675655,-0.376428,2.428,2.54821
-0.667775,-0.376428,2.428,2.54614
-0.659894,-0.376428,2.428,2.54408
-0.652013,-0.376428,2.428,2.54205
-0.644133,-0.376428,2.428,2.54004
-0.636252,-0.376428,2.428,2.53805
-0.632771,-0.379064,2.445,2.55384
-0.624835,-0.379064,2.445,2.55189
-0.616899,-0.379064,2.445,2.54996
-0.608963,-0.379064,2.445,2.54805
-0.601027,-0.379064,2.445,2.54616
-0.597458,-0.381854,2.463,2.56303
-0.589464,-0.381854,2.463,2.56118
-0.581469,-0.381854,2.463,2.55935
-0.573475,-0.381854,2.463,2.55755
-0.565481,-0.381854,2.463,2.55577
-0.557486,-0.381854,2.463,2.55401
-0.553508,-0.384645,2.481,2.57093
-0.545455,-0.384645,2.481,2.56921
-0.537403,-0.384645,2.481,2.56751
-0.52935,-0.384645,2.481,2.56584
-0.521297,-0.384645,2.481,2.56419
-0.513244,-0.384645,2.481,2.56256
-0.505192,-0.384645,2.481,2.56096
-0.497139,-0.384645,2.481,2.55939
-0.489086,-0.384645,2.481,2.55783
-0.481034,-0.384645,2.481,2.55631
-0.472981,-0.384645,2.481,2.5548
-0.464928,-0.384645,2.481,2.55333
-0.456875,-0.384645,2.481,2.55187
-0.448823,-0.384645,2.481,2.55044
-0.44077,-0.384645,2.481,2.54904
-0.429578,-0.381854,2.463,2.52917
-0.421584,-0.381854,2.463,2.52783
-0.413589,-0.381854,2.463,2.52651
-0.405595,-0.381854,2.463,2.52521
-0.397601,-0.381854,2.463,2.52394
-0.389606,-0.381854,2.463,2.52269
-0.381612,-0.381854,2.463,2.52147
-0.373618,-0.381854,2.463,2.52027
-0.362952,-0.379064,2.445,2.50069
-0.355016,-0.379064,2.445,2.49955
-0.34708,-0.379064,2.445,2.49844
-0.339144,-0.379064,2.445,2.49735
-0.333646,-0.381854,2.463,2.51466
-0.325652,-0.381854,2.463,2.51361
-0.317658,-0.381854,2.463,2.51259
-0.309664,-0.381854,2.463,2.51159
-0.301669,-0.381854,2.463,2.51061
-0.293675,-0.381854,2.463,2.50967
-0.285681,-0.381854,2.463,2.50874
-0.277686,-0.381854,2.463,2.50785
-0.269692,-0.381854,2.463,2.50697
-0.26361,-0.384645,2.481,2.52444
-0.255558,-0.384645,2.481,2.52361
-0.247505,-0.384645,2.481,2.52281
-0.239452,-0.384645,2.481,2.52203
-0.2314,-0.384645,2.481,2.52128
-0.223347,-0.384645,2.481,2.52056
-0.215294,-0.384645,2.481,2.51985
-0.207241,-0.384645,2.481,2.51918
-0.199189,-0.384645,2.481,2.51853
-0.192523,-0.387436,2.499,2.53617
-0.184412,-0.387436,2.499,2.53557
-0.1763,-0.387436,2.499,2.53499
-0.166978,-0.384645,2.481,2.51619
-0.158925,-0.384645,2.481,2.51567
-0.150872,-0.384645,2.481,2.51517
-0.14282,-0.384645,2.481,2.5147
-0.134767,-0.384645,2.481,2.51425
-0.126714,-0.384645,2.481,2.51384
-0.118662,-0.384645,2.481,2.51344
-0.110609,-0.384645,2.481,2.51308
-0.102556,-0.384645,2.481,2.51273
-0.0945035,-0.384645,2.481,2.51242
-0.0864508,-0.384645,2.481,2.51213
-0.0789668,-0.387436,2.499,2.53009
-0.0708557,-0.387436,2.499,2.52985
-0.0627446,-0.387436,2.499,2.52963
-0.0546334,-0.387436,2.499,2.52945
-0.0465223,-0.387436,2.499,2.52928
-0.0384112,-0.387436,2.499,2.52915
-0.0303,-0.387436,2.499,2.52904
-0.0221889,-0.387436,2.499,2.52895
-0.0140778,-0.387436,2.499,2.52889
-0.00596664,-0.387436,2.499,2.52886
0.00214449,-0.387436,2.499,2.52886
0.0102556,-0.387436,2.499,2.52888
0.0183668,-0.387436,2.499,2.52892
0.0264779,-0.387436,2.499,2.52899
0.034589,-0.387436,2.499,2.52909
0.0427002,-0.387436,2.499,2.52922
0.0511773,-0.390226,2.517,2.54758
0.0593468,-0.390226,2.517,2.54776
0.0675164,-0.390226,2.517,2.54796
0.075686,-0.390226,2.517,2.54819
0.0838555,-0.390226,2.517,2.54845
0.0920251,-0.390226,2.517,2.54873
0.100195,-0.390226,2.517,2.54904
0.108364,-0.390226,2.517,2.54937
0.116534,-0.390226,2.517,2.54973
0.124703,-0.390226,2.517,2.55012
0.132873,-0.390226,2.517,2.55053
0.141042,-0.390226,2.517,2.55097
0.149212,-0.390226,2.517,2.55144
0.157382,-0.390226,2.517,2.55193
0.165551,-0.390226,2.517,2.55244
0.173721,-0.390226,2.517,2.55299
0.18189,-0.390226,2.517,2.55356
0.19006,-0.390226,2.517,2.55415
0.198229,-0.390226,2.517,2.55477
0.206399,-0.390226,2.517,2.55542
0.216188,-0.393172,2.536,2.57539
0.224419,-0.393172,2.536,2.57609
0.232651,-0.393172,2.536,2.57682
0.240882,-0.393172,2.536,2.57758
0.249113,-0.393172,2.536,2.57836
0.257344,-0.393172,2.536,2.57917
0.267565,-0.396118,2.555,2.59933
0.275858,-0.396118,2.555,2.6002
0.284151,-0.396118,2.555,2.60109
0.290269,-0.393172,2.536,2.58266
0.2985,-0.393172,2.536,2.5836
0.306732,-0.393172,2.536,2.58456
0.314963,-0.393172,2.536,2.58555
0.323194,-0.393172,2.536,2.58657
0.333908,-0.396118,2.555,2.607
0.342201,-0.396118,2.555,2.60807
0.350494,-0.396118,2.555,2.60917
0.358787,-0.396118,2.555,2.6103
0.36708,-0.396118,2.555,2.61145
0.375373,-0.396118,2.555,2.61263
0.383666,-0.396118,2.555,2.61384
0.391959,-0.396118,2.555,2.61507
0.400252,-0.396118,2.555,2.61632
0.408544,-0.396118,2.555,2.6176
0.416837,-0.396118,2.555,2.61891
0.42513,-0.396118,2.555,2.62024
0.433423,-0.396118,2.555,2.6216
0.441716,-0.396118,2.555,2.62298
0.450009,-0.396118,2.555,2.62439
0.458302,-0.396118,2.555,2.62583
0.466595,-0.396118,2.555,2.62729
0.474888,-0.396118,2.555,2.62877
0.48318,-0.396118,2.555,2.63028
0.495128,-0.399063,2.574,2.65139
0.503483,-0.399063,2.574,2.65297
0.511837,-0.399063,2.574,2.65456
0.520192,-0.399063,2.574,2.65619
0.528546,-0.399063,2.574,2.65784
0.536901,-0.399063,2.574,2.65951
0.545256,-0.399063,2.574,2.66121
0.55361,-0.399063,2.574,2.66293
0.561965,-0.399063,2.574,2.66468
0.570319,-0.399063,2.574,2.66646
0.578674,-0.399063,2.574,2.66826
0.587028,-0.399063,2.574,2.67008
0.595383,-0.399063,2.574,2.67193
0.603738,-0.399063,2.574,2.6738
0.612092,-0.399063,2.574,2.6757
0.620447,-0.399063,2.574,2.67763
0.628801,-0.399063,2.574,2.67957
0.637156,-0.399063,2.574,2.68155
0.640746,-0.396118,2.555,2.66374
0.649038,-0.396118,2.555,2.66574
0.657331,-0.396118,2.555,2.66777
0.665624,-0.396118,2.555,2.66983
0.668906,-0.393172,2.536,2.65204
0.677137,-0.393172,2.536,2.65413
0.685368,-0.393172,2.536,2.65624
0.693599,-0.393172,2.536,2.65838
0.696572,-0.390226,2.517,2.6406
0.704742,-0.390226,2.517,2.64277
0.712911,-0.390226,2.517,2.64496
0.721081,-0.390226,2.517,2.64717
0.729251,-0.390226,2.517,2.64941
0.73742,-0.390226,2.517,2.65167
0.74559,-0.390226,2.517,2.65395
0.753759,-0.390226,2.517,2.65626
0.761929,-0.390226,2.517,2.65859
0.770098,-0.390226,2.517,2.66094
0.772702,-0.387436,2.499,2.64427
0.780813,-0.387436,2.499,2.64665
0.788924,-0.387436,2.499,2.64906
0.797036,-0.387436,2.499,2.65149
0.805147,-0.387436,2.499,2.65393
0.813258,-0.387436,2.499,2.65641
0.821369,-0.387436,2.499,2.6589
0.82948,-0.387436,2.499,2.66142
0.837591,-0.387436,2.499,2.66396
0.845702,-0.387436,2.499,2.66652
0.853814,-0.387436,2.499,2.6691
0.855716,-0.384645,2.481,2.65246
0.863769,-0.384645,2.481,2.65507
0.871822,-0.384645,2.481,2.6577
0.879874,-0.384645,2.481,2.66036
0.887927,-0.384645,2.481,2.66303
0.889479,-0.381854,2.463,2.64639
0.897474,-0.381854,2.463,2.64908
0.905468,-0.381854,2.463,2.6518
0.906787,-0.379064,2.445,2.63514
0.914722,-0.379064,2.445,2.63788
0.922658,-0.379064,2.445,2.64065
0.930594,-0.379064,2.445,2.64343
0.93853,-0.379064,2.445,2.64623
0.946466,-0.379064,2.445,2.64906
0.947766,-0.376428,2.428,2.63347
0.955646,-0.376428,2.428,2.63631
0.963527,-0.376428,2.428,2.63918
0.971408,-0.376428,2.428,2.64207
0.979289,-0.376428,2.428,2.64497
0.987169,-0.376428,2.428,2.6479
0.988083,-0.373793,2.411,2.63229
0.995908,-0.373793,2.411,2.63524
1.01081,-0.376428,2.428,2.65681
1.01869,-0.376428,2.428,2.65982
nan,nan,nan,NaN
nan,nan,nan,NaN
nan,nan,nan,NaN
1.10515,-0.396118,2.555,2.81181
1.11344,-0.396118,2.555,2.81508
nan,nan,nan,NaN
1.13843,-0.399063,2.574,2.84267
1.14678,-0.399063,2.574,2.84602
1.15514,-0.399063,2.574,2.8494
1.1549,-0.396118,2.555,2.83174
1.1632,-0.396118,2.555,2.83513
1.1802,-0.399063,2.574,2.85965
1.18856,-0.399063,2.574,2.86311
1.20575,-0.402009,2.593,2.88775
nan,nan,nan,NaN
nan,nan,nan,NaN
nan,nan,nan,NaN
nan,nan,nan,NaN
nan,nan,nan,NaN
1.26593,-0.40511,2.613,2.93163
1.27441,-0.40511,2.613,2.93531
1.2829,-0.40511,2.613,2.939
1.29138,-0.40511,2.613,2.94271
nan,nan,nan,NaN
1.31835,-0.408211,2.633,2.97277
1.3269,-0.408211,2.633,2.97657
1.33545,-0.408211,2.633,2.98039
nan,nan,nan,NaN
nan,nan,nan,NaN
nan,nan,nan,NaN
nan,nan,nan,NaN
nan,nan,nan,NaN
nan,nan,nan,NaN
nan,nan,nan,NaN
1.84367,-0.536116,3.458,3.95529
1.8549,-0.536116,3.458,3.96053
1.86612,-0.536116,3.458,3.9658
1.89635,-0.541542,3.493,4.01129
1.90768,-0.541542,3.493,4.01666
1.91902,-0.541542,3.493,4.02206
1.93036,-0.541542,3.493,4.02748
1.94169,-0.541542,3.493,4.03293
1.95303,-0.541542,3.493,4.0384
1.94469,-0.536116,3.458,4.00337
1.93611,-0.530689,3.423,3.96826
1.94722,-0.530689,3.423,3.97369
1.95833,-0.530689,3.423,3.97915
1.96944,-0.530689,3.423,3.98463
1.98055,-0.530689,3.423,3.99013
1.99166,-0.530689,3.423,3.99566
1.98288,-0.525418,3.389,3.96147
1.99388,-0.525418,3.389,3.96698
2.00488,-0.525418,3.389,3.97252
1.99625,-0.520302,3.356,3.93935
1.96887,-0.51038,3.292,3.86965
1.97955,-0.51038,3.292,3.8751
1.99024,-0.51038,3.292,3.88057
1.98147,-0.505418,3.26,3.84828
1.99205,-0.505418,3.26,3.85374
1.96516,-0.495961,3.199,3.78701
1.92182,-0.482473,3.112,3.68927
1.93192,-0.482473,3.112,3.69454
1.94202,-0.482473,3.112,3.69983
nan,nan,nan,NaN
nan,nan,nan,NaN
1.8386,-0.44976,2.901,3.46389
1.80215,-0.438598,2.829,3.3828
1.81133,-0.438598,2.829,3.3877
1.79091,-0.431466,2.783,3.33745
1.78571,-0.428055,2.761,3.31589
1.79467,-0.428055,2.761,3.32072
1.78926,-0.424644,2.739,3.29908
1.78371,-0.421234,2.717,3.27737
1.79253,-0.421234,2.717,3.28218
1.78743,-0.417978,2.696,3.2616
1.78218,-0.414722,2.675,3.24096
1.79087,-0.414722,2.675,3.24574
1.79955,-0.414722,2.675,3.25054
1.80823,-0.414722,2.675,3.25535
1.80265,-0.411466,2.654,3.23459
-2.26157,-0.49484,3.26,3.99839
-2.25099,-0.49484,3.26,3.99242
-2.24041,-0.49484,3.26,3.98646
-2.25171,-0.499698,3.292,4.0196
-2.26281,-0.504555,3.324,4.05264
-2.2737,-0.509412,3.356,4.08558
-2.26281,-0.509412,3.356,4.07953
-2.25192,-0.509412,3.356,4.0735
-2.24102,-0.509412,3.356,4.06748
-2.23013,-0.509412,3.356,4.06149
-2.21924,-0.509412,3.356,4.05552
-2.23006,-0.514421,3.389,4.08939
-2.21906,-0.514421,3.389,4.0834
-2.23021,-0.519582,3.423,4.11834
-2.2191,-0.519582,3.423,4.11234
-2.20799,-0.519582,3.423,4.10635
-2.19688,-0.519582,3.423,4.10039
-2.18577,-0.519582,3.423,4.09445
-2.17466,-0.519582,3.423,4.08853
-2.16355,-0.519582,3.423,4.08263
-2.17445,-0.524895,3.458,4.11844
-2.16323,-0.524895,3.458,4.11252
-2.13022,-0.519582,3.423,4.06506
-2.09806,-0.514421,3.389,4.01893
-2.08706,-0.514421,3.389,4.0132
-2.07606,-0.514421,3.389,4.00749
-2.04496,-0.509412,3.356,3.96284
-2.01467,-0.504555,3.324,3.91949
-2.00388,-0.504555,3.324,3.91396
-1.9739,-0.499698,3.292,3.87082
-1.96322,-0.499698,3.292,3.86538
nan,nan,nan,NaN
nan,nan,nan,NaN
nan,nan,nan,NaN
nan,nan,nan,NaN
nan,nan,nan,NaN
nan,nan,nan,NaN
nan,nan,nan,NaN
nan,nan,nan,NaN
nan,nan,nan,NaN
nan,nan,nan,NaN
nan,nan,nan,NaN
nan,nan,nan,NaN
nan,nan,nan,NaN
nan,nan,nan,NaN
nan,nan,nan,NaN
nan,nan,nan,NaN
nan,nan,nan,NaN
nan,nan,nan,NaN
nan,nan,nan,NaN
nan,nan,nan,NaN
nan,nan,nan,NaN
nan,nan,nan,NaN
nan,nan,nan,NaN
nan,nan,nan,NaN
nan,nan,nan,NaN
nan,nan,nan,NaN
nan,nan,nan,NaN
nan,nan,nan,NaN
nan,nan,nan,NaN
nan,nan,nan,NaN
nan,nan,nan,NaN
-1.13914,-0.351094,2.313,2.60209
-1.13164,-0.351094,2.313,2.59881
-1.12413,-0.351094,2.313,2.59555
-1.11662,-0.351094,2.313,2.59231
-1.10911,-0.351094,2.313,2.58909
-1.10161,-0.351094,2.313,2.58588
-1.0941,-0.351094,2.313,2.58269
-1.08659,-0.351094,2.313,2.57952
-1.08655,-0.353522,2.329,2.59419
-1.07899,-0.353522,2.329,2.59103
-1.07143,-0.353522,2.329,2.58789
-1.06387,-0.353522,2.329,2.58477
-1.05631,-0.353522,2.329,2.58167
-1.05596,-0.355951,2.345,2.5963
-1.04835,-0.355951,2.345,2.59321
-1.04073,-0.355951,2.345,2.59015
-1.03312,-0.355951,2.345,2.5871
-1.02551,-0.355951,2.345,2.58407
-1.0179,-0.355951,2.345,2.58106
-1.01029,-0.355951,2.345,2.57806
-1.00952,-0.35838,2.361,2.59266
-1.00186,-0.35838,2.361,2.58969
-0.994193,-0.35838,2.361,2.58673
-0.986529,-0.35838,2.361,2.5838
-0.978866,-0.35838,2.361,2.58088
-0.971203,-0.35838,2.361,2.57798
-0.96354,-0.35838,2.361,2.5751
-0.955876,-0.35838,2.361,2.57225
-0.948213,-0.35838,2.361,2.56941
-0.94055,-0.35838,2.361,2.56659
-0.932887,-0.35838,2.361,2.56379
-0.925224,-0.35838,2.361,2.56101
-0.91756,-0.35838,2.361,2.55826
-0.909897,-0.35838,2.361,2.55552
-0.902234,-0.35838,2.361,2.5528
-0.894571,-0.35838,2.361,2.5501
-0.886907,-0.35838,2.361,2.54742
-0.879244,-0.35838,2.361,2.54476
-0.871581,-0.35838,2.361,2.54213
-0.869772,-0.360808,2.377,2.55672
-0.862057,-0.360808,2.377,2.55411
-0.854342,-0.360808,2.377,2.55151
-0.846627,-0.360808,2.377,2.54894
-0.838912,-0.360808,2.377,2.54639
-0.831197,-0.360808,2.377,2.54386
-0.823481,-0.360808,2.377,2.54134
-0.815766,-0.360808,2.377,2.53886
-0.81383,-0.363389,2.394,2.55453
-0.80606,-0.363389,2.394,2.55206
-0.79829,-0.363389,2.394,2.54962
-0.790519,-0.363389,2.394,2.5472
-0.782749,-0.363389,2.394,2.5448
-0.774979,-0.363389,2.394,2.54242
-0.767208,-0.363389,2.394,2.54006
-0.759438,-0.363389,2.394,2.53772
-0.751668,-0.363389,2.394,2.53541
-0.74918,-0.365969,2.411,2.5511
-0.741354,-0.365969,2.411,2.54882
-0.733529,-0.365969,2.411,2.54655
-0.73082,-0.36855,2.428,2.56225
-0.722939,-0.36855,2.428,2.56001
-0.715059,-0.36855,2.428,2.5578
-0.707178,-0.36855,2.428,2.5556
-0.699297,-0.36855,2.428,2.55344
-0.691417,-0.36855,2.428,2.55129
-0.683536,-0.36855,2.428,2.54916
-0.675655,-0.36855,2.428,2.54706
-0.667775,-0.36855,2.428,2.54498
-0.659894,-0.36855,2.428,2.54293
-0.652013,-0.36855,2.428,2.54089
-0.648643,-0.37113,2.445,2.55666
-0.640707,-0.37113,2.445,2.55466
-0.632771,-0.37113,2.445,2.55268
-0.624835,-0.37113,2.445,2.55072
-0.616899,-0.37113,2.445,2.54879
-0.608963,-0.37113,2.445,2.54688
-0.601027,-0.37113,2.445,2.54499
-0.597458,-0.373862,2.463,2.56185
-0.589464,-0.373862,2.463,2.56
-0.581469,-0.373862,2.463,2.55817
-0.573475,-0.373862,2.463,2.55637
-0.565481,-0.373862,2.463,2.55459
-0.557486,-0.373862,2.463,2.55283
-0.549492,-0.373862,2.463,2.55109
-0.541498,-0.373862,2.463,2.54938
-0.533504,-0.373862,2.463,2.5477
-0.52935,-0.376595,2.481,2.56464
-0.521297,-0.376595,2.481,2.56299
-0.513244,-0.376595,2.481,2.56137
-0.505192,-0.376595,2.481,2.55977
-0.497139,-0.376595,2.481,2.55819
-0.489086,-0.376595,2.481,2.55664
-0.481034,-0.376595,2.481,2.55511
-0.472981,-0.376595,2.481,2.5536
-0.464928,-0.376595,2.481,2.55213
-0.456875,-0.376595,2.481,2.55067
-0.448823,-0.376595,2.481,2.54924
-0.44077,-0.376595,2.481,2.54784
-0.429578,-0.373862,2.463,2.52798
-0.421584,-0.373862,2.463,2.52663
-0.413589,-0.373862,2.463,2.52531
-0.405595,-0.373862,2.463,2.52401
-0.397601,-0.373862,2.463,2.52274
-0.389606,-0.373862,2.463,2.52149
-0.381612,-0.373862,2.463,2.52027
-0.373618,-0.373862,2.463,2.51907
-0.362952,-0.37113,2.445,2.4995
-0.355016,-0.37113,2.445,2.49836
-0.34708,-0.37113,2.445,2.49724
-0.339144,-0.37113,2.445,2.49615
-0.333646,-0.373862,2.463,2.51346
-0.325652,-0.373862,2.463,2.51241
-0.317658,-0.373862,2.463,2.51138
-0.309664,-0.373862,2.463,2.51039
-0.301669,-0.373862,2.463,2.50941
-0.293675,-0.373862,2.463,2.50846
-0.285681,-0.373862,2.463,2.50754
-0.277686,-0.373862,2.463,2.50664
-0.269692,-0.373862,2.463,2.50577
-0.26361,-0.376595,2.481,2.52323
-0.255558,-0.376595,2.481,2.5224
-0.247505,-0.376595,2.481,2.5216
-0.239452,-0.376595,2.481,2.52082
-0.2314,-0.376595,2.481,2.52007
-0.223347,-0.376595,2.481,2.51934
-0.215294,-0.376595,2.481,2.51864
-0.207241,-0.376595,2.481,2.51796
-0.199189,-0.376595,2.481,2.51731
-0.192523,-0.379327,2.499,2.53495
-0.184412,-0.379327,2.499,2.53434
-0.1763,-0.379327,2.499,2.53377
-0.166978,-0.376595,2.481,2.51497
-0.158925,-0.376595,2.481,2.51445
-0.150872,-0.376595,2.481,2.51395
-0.14282,-0.376595,2.481,2.51348
-0.135745,-0.379327,2.499,2.53127
-0.127634,-0.379327,2.499,2.53085
-0.119523,-0.379327,2.499,2.53045
-0.111411,-0.379327,2.499,2.53008
-0.1033,-0.379327,2.499,2.52974
-0.0951891,-0.379327,2.499,2.52942
-0.087078,-0.379327,2.499,2.52912
-0.0789668,-0.379327,2.499,2.52886
-0.0708557,-0.379327,2.499,2.52862
-0.0627446,-0.379327,2.499,2.5284
-0.0546334,-0.379327,2.499,2.52822
-0.0465223,-0.379327,2.499,2.52805
-0.0384112,-0.379327,2.499,2.52792
-0.0305183,-0.382059,2.517,2.54601
-0.0223487,-0.382059,2.517,2.54593
-0.0141792,-0.382059,2.517,2.54587
-0.00600962,-0.382059,2.517,2.54584
0.00215994,-0.382059,2.517,2.54583
0.0103295,-0.382059,2.517,2.54585
0.0184991,-0.382059,2.517,2.5459
0.0266686,-0.382059,2.517,2.54597
0.0348382,-0.382059,2.517,2.54607
0.0430077,-0.382059,2.517,2.5462
0.0511773,-0.382059,2.517,2.54635
0.0593468,-0.382059,2.517,2.54652
0.0675164,-0.382059,2.517,2.54673
0.075686,-0.382059,2.517,2.54696
0.0838555,-0.382059,2.517,2.54721
0.0920251,-0.382059,2.517,2.54749
0.100195,-0.382059,2.517,2.5478
0.108364,-0.382059,2.517,2.54814
0.116534,-0.382059,2.517,2.5485
0.124703,-0.382059,2.517,2.54888
0.133876,-0.384943,2.536,2.56854
0.142107,-0.384943,2.536,2.56898
0.150338,-0.384943,2.536,2.56945
0.15857,-0.384943,2.536,2.56995
0.166801,-0.384943,2.536,2.57047
0.175032,-0.384943,2.536,2.57101
0.183263,-0.384943,2.536,2.57159
0.191494,-0.384943,2.536,2.57219
0.199726,-0.384943,2.536,2.57281
0.207957,-0.384943,2.536,2.57347
0.216188,-0.384943,2.536,2.57414
0.224419,-0.384943,2.536,2.57485
0.232651,-0.384943,2.536,2.57558
0.240882,-0.384943,2.536,2.57633
0.249113,-0.384943,2.536,2.57712
0.257344,-0.384943,2.536,2.57793
0.267565,-0.387827,2.555,2.59808
0.275858,-0.387827,2.555,2.59895
0.284151,-0.387827,2.555,2.59984
0.292444,-0.387827,2.555,2.60076
0.300737,-0.387827,2.555,2.60171
0.30903,-0.387827,2.555,2.60268
0.317323,-0.387827,2.555,2.60368
0.325615,-0.387827,2.555,2.6047
0.333908,-0.387827,2.555,2.60575
0.342201,-0.387827,2.555,2.60683
0.350494,-0.387827,2.555,2.60793
0.358787,-0.387827,2.555,2.60905
0.36708,-0.387827,2.555,2.61021
0.375373,-0.387827,2.555,2.61139
0.383666,-0.387827,2.555,2.61259
0.391959,-0.387827,2.555,2.61382
0.400252,-0.387827,2.555,2.61508
0.408544,-0.387827,2.555,2.61636
0.416837,-0.387827,2.555,2.61767
0.42513,-0.387827,2.555,2.619
0.433423,-0.387827,2.555,2.62036
0.441716,-0.387827,2.555,2.62175
0.450009,-0.387827,2.555,2.62316
0.458302,-0.387827,2.555,2.62459
0.466595,-0.387827,2.555,2.62605
0.478419,-0.390711,2.574,2.64708
0.486774,-0.390711,2.574,2.6486
0.495128,-0.390711,2.574,2.65015
0.503483,-0.390711,2.574,2.65172
0.511837,-0.390711,2.574,2.65332
0.520192,-0.390711,2.574,2.65494
0.528546,-0.390711,2.574,2.65659
0.536901,-0.390711,2.574,2.65827
0.545256,-0.390711,2.574,2.65997
0.55361,-0.390711,2.574,2.66169
0.561965,-0.390711,2.574,2.66344
0.570319,-0.390711,2.574,2.66522
0.578674,-0.390711,2.574,2.66702
0.587028,-0.390711,2.574,2.66885
0.595383,-0.390711,2.574,2.6707
0.603738,-0.390711,2.574,2.67257
0.612092,-0.390711,2.574,2.67447
0.620447,-0.390711,2.574,2.67639
0.628801,-0.390711,2.574,2.67834
0.637156,-0.390711,2.574,2.68032
0.640746,-0.387827,2.555,2.66252
0.649038,-0.387827,2.555,2.66452
0.657331,-0.387827,2.555,2.66656
0.665624,-0.387827,2.555,2.66861
0.668906,-0.384943,2.536,2.65083
0.677137,-0.384943,2.536,2.65292
0.685368,-0.384943,2.536,2.65503
0.693599,-0.384943,2.536,2.65717
0.70183,-0.384943,2.536,2.65933
0.710062,-0.384943,2.536,2.66152
0.712911,-0.382059,2.517,2.64377
0.721081,-0.382059,2.517,2.64598
0.729251,-0.382059,2.517,2.64822
0.73742,-0.382059,2.517,2.65048
0.74559,-0.382059,2.517,2.65277
0.753759,-0.382059,2.517,2.65507
0.761929,-0.382059,2.517,2.6574
0.770098,-0.382059,2.517,2.65976
0.778268,-0.382059,2.517,2.66213
0.786437,-0.382059,2.517,2.66453
0.794607,-0.382059,2.517,2.66696
0.802777,-0.382059,2.517,2.6694
0.810946,-0.382059,2.517,2.67187
0.819116,-0.382059,2.517,2.67436
0.827285,-0.382059,2.517,2.67688
0.835455,-0.382059,2.517,2.67941
0.843624,-0.382059,2.517,2.68197
0.845702,-0.379327,2.499,2.66535
0.853814,-0.379327,2.499,2.66794
0.861925,-0.379327,2.499,2.67054
0.863769,-0.376595,2.481,2.65392
0.871822,-0.376595,2.481,2.65655
0.879874,-0.376595,2.481,2.6592
0.887927,-0.376595,2.481,2.66188
0.89598,-0.376595,2.481,2.66458
0.904033,-0.376595,2.481,2.66729
0.905468,-0.373862,2.463,2.65066
0.906787,-0.37113,2.445,2.63401
0.914722,-0.37113,2.445,2.63676
0.922658,-0.37113,2.445,2.63952
0.930594,-0.37113,2.445,2.6423
0.93853,-0.37113,2.445,2.64511
0.946466,-0.37113,2.445,2.64794
0.947766,-0.36855,2.428,2.63235
0.955646,-0.36855,2.428,2.6352
0.963527,-0.36855,2.428,2.63807
0.971408,-0.36855,2.428,2.64096
0.979289,-0.36855,2.428,2.64386
0.987169,-0.36855,2.428,2.64679
0.988083,-0.365969,2.411,2.63119
0.995908,-0.365969,2.411,2.63414
1.01081,-0.36855,2.428,2.6557
1.01869,-0.36855,2.428,2.65871
1.03376,-0.37113,2.445,2.68038
nan,nan,nan,NaN
nan,nan,nan,NaN
1.10515,-0.387827,2.555,2.81066
1.11344,-0.387827,2.555,2.81393
1.1472,-0.396631,2.613,2.88117
1.13843,-0.390711,2.574,2.84151
1.14678,-0.390711,2.574,2.84486
1.15514,-0.390711,2.574,2.84824
1.1549,-0.387827,2.555,2.83059
1.1632,-0.387827,2.555,2.83398
1.1802,-0.390711,2.574,2.8585
1.18856,-0.390711,2.574,2.86196
1.20575,-0.393595,2.593,2.88659
1.25256,-0.406042,2.675,2.98151
nan,nan,nan,NaN
1.26992,-0.406042,2.675,2.98885
1.27861,-0.406042,2.675,2.99255
1.28729,-0.406042,2.675,2.99627
1.26593,-0.396631,2.613,2.93047
1.27441,-0.396631,2.613,2.93415
1.2829,-0.396631,2.613,2.93784
1.29138,-0.396631,2.613,2.94155
1.34115,-0.40923,2.696,3.03884
1.31835,-0.399667,2.633,2.97161
1.3269,-0.399667,2.633,2.97541
1.33545,-0.399667,2.633,2.97923
1.36543,-0.406042,2.675,3.03066
1.39569,-0.412417,2.717,3.08223
1.40451,-0.412417,2.717,3.08623
nan,nan,nan,NaN
nan,nan,nan,NaN
nan,nan,nan,NaN
nan,nan,nan,NaN
1.82501,-0.519582,3.423,3.91377
1.83612,-0.519582,3.423,3.91896
1.84723,-0.519582,3.423,3.92418
1.87734,-0.524895,3.458,3.9696
1.90768,-0.530208,3.493,4.01515
1.91902,-0.530208,3.493,4.02055
1.93036,-0.530208,3.493,4.02597
1.94169,-0.530208,3.493,4.03142
1.95303,-0.530208,3.493,4.03689
1.94469,-0.524895,3.458,4.00189
1.93611,-0.519582,3.423,3.96679
1.94722,-0.519582,3.423,3.97223
1.95833,-0.519582,3.423,3.97768
1.96944,-0.519582,3.423,3.98317
1.98055,-0.519582,3.423,3.98867
1.99166,-0.519582,3.423,3.9942
1.98288,-0.514421,3.389,3.96002
1.99388,-0.514421,3.389,3.96554
2.00488,-0.514421,3.389,3.97108
1.99625,-0.509412,3.356,3.93793
1.98801,-0.504555,3.324,3.90586
1.99879,-0.504555,3.324,3.91136
2.00958,-0.504555,3.324,3.91688
2.00092,-0.499698,3.292,3.88467
2.01161,-0.499698,3.292,3.89018
1.98421,-0.490286,3.23,3.82235
1.95764,-0.481179,3.17,3.7567
1.96793,-0.481179,3.17,3.76207
1.92455,-0.468125,3.084,3.66525
1.88375,-0.45583,3.003,3.57411
1.89349,-0.45583,3.003,3.57926
1.8386,-0.440347,2.901,3.46268
1.81743,-0.433061,2.853,3.41031
1.82669,-0.433061,2.853,3.41525
1.82051,-0.429418,2.829,3.39144
1.78571,-0.419096,2.761,3.31474
1.79467,-0.419096,2.761,3.31958
1.80364,-0.419096,2.761,3.32443
1.79815,-0.415757,2.739,3.30278
1.80704,-0.415757,2.739,3.30762
1.80135,-0.412417,2.717,3.28588
1.79618,-0.40923,2.696,3.26529
1.80493,-0.40923,2.696,3.27011
1.81368,-0.40923,2.696,3.27495
1.80823,-0.406042,2.675,3.25426
1.81691,-0.406042,2.675,3.25909
-2.24076,-0.479806,3.23,3.96032
-2.25099,-0.484262,3.26,3.99112
-2.24041,-0.484262,3.26,3.98516
-2.25171,-0.489016,3.292,4.01828
-2.26281,-0.493769,3.324,4.05131
-2.2737,-0.498522,3.356,4.08424
-2.26281,-0.498522,3.356,4.07818
-2.25192,-0.498522,3.356,4.07215
-2.26306,-0.503425,3.389,4.10612
-2.25206,-0.503425,3.389,4.10007
-2.24106,-0.503425,3.389,4.09403
-2.25243,-0.508475,3.423,4.12904
-2.24132,-0.508475,3.423,4.12299
-2.23021,-0.508475,3.423,4.11696
-2.24179,-0.513674,3.458,4.15298
-2.23057,-0.513674,3.458,4.14693
-2.21935,-0.513674,3.458,4.14091
-2.20812,-0.513674,3.458,4.1349
-2.1969,-0.513674,3.458,4.12892
-2.18568,-0.513674,3.458,4.12296
-2.17445,-0.513674,3.458,4.11702
-2.16323,-0.513674,3.458,4.1111
-2.152,-0.513674,3.458,4.10521
-2.11911,-0.508475,3.423,4.05785
-2.08706,-0.503425,3.389,4.01181
-2.07606,-0.503425,3.389,4.0061
-2.04496,-0.498522,3.356,3.96145
-2.01467,-0.493769,3.324,3.91812
-2.00388,-0.493769,3.324,3.91258
-1.9739,-0.489016,3.292,3.86946
-1.96322,-0.489016,3.292,3.86402
nan,nan,nan,NaN
nan,nan,nan,NaN
nan,nan,nan,NaN
nan,nan,nan,NaN
nan,nan,nan,NaN
nan,nan,nan,NaN
nan,nan,nan,NaN
nan,nan,nan,NaN
nan,nan,nan,NaN
nan,nan,nan,NaN
nan,nan,nan,NaN
nan,nan,nan,NaN
nan,nan,nan,NaN
nan,nan,nan,NaN
nan,nan,nan,NaN
nan,nan,nan,NaN
nan,nan,nan,NaN
nan,nan,nan,NaN
nan,nan,nan,NaN
nan,nan,nan,NaN
nan,nan,nan,NaN
nan,nan,nan,NaN
nan,nan,nan,NaN
nan,nan,nan,NaN
nan,nan,nan,NaN
nan,nan,nan,NaN
nan,nan,nan,NaN
nan,nan,nan,NaN
nan,nan,nan,NaN
nan,nan,nan,NaN
nan,nan,nan,NaN
-1.14702,-0.345965,2.329,2.61908
-1.13946,-0.345965,2.329,2.61578
-1.1319,-0.345965,2.329,2.6125
-1.12435,-0.345965,2.329,2.60923
-1.12446,-0.348342,2.345,2.62389
-1.11685,-0.348342,2.345,2.62063
-1.10924,-0.348342,2.345,2.6174
-1.10162,-0.348342,2.345,2.61418
-1.09401,-0.348342,2.345,2.61098
-1.07899,-0.345965,2.329,2.59001
-1.07143,-0.345965,2.329,2.58687
-1.06387,-0.345965,2.329,2.58375
-1.05631,-0.345965,2.329,2.58064
-1.05596,-0.348342,2.345,2.59527
-1.04835,-0.348342,2.345,2.59218
-1.04073,-0.348342,2.345,2.58911
-1.03312,-0.348342,2.345,2.58606
-1.02551,-0.348342,2.345,2.58303
-1.0179,-0.348342,2.345,2.58002
-1.01029,-0.348342,2.345,2.57702
-1.00952,-0.350719,2.361,2.59161
-1.00186,-0.350719,2.361,2.58864
-0.994193,-0.350719,2.361,2.58568
-0.986529,-0.350719,2.361,2.58274
-0.978866,-0.350719,2.361,2.57983
-0.971203,-0.350719,2.361,2.57693
-0.96354,-0.350719,2.361,2.57405
-0.955876,-0.350719,2.361,2.57119
-0.948213,-0.350719,2.361,2.56835
-0.94055,-0.350719,2.361,2.56553
-0.932887,-0.350719,2.361,2.56273
-0.925224,-0.350719,2.361,2.55995
-0.91756,-0.350719,2.361,2.55719
-0.909897,-0.350719,2.361,2.55445
-0.902234,-0.350719,2.361,2.55173
-0.894571,-0.350719,2.361,2.54904
-0.886907,-0.350719,2.361,2.54636
-0.879244,-0.350719,2.361,2.5437
-0.871581,-0.350719,2.361,2.54106
-0.863918,-0.350719,2.361,2.53844
-0.862057,-0.353095,2.377,2.55303
-0.854342,-0.353095,2.377,2.55043
-0.846627,-0.353095,2.377,2.54786
-0.838912,-0.353095,2.377,2.54531
-0.831197,-0.353095,2.377,2.54277
-0.823481,-0.353095,2.377,2.54026
-0.815766,-0.353095,2.377,2.53777
-0.81383,-0.355621,2.394,2.55343
-0.80606,-0.355621,2.394,2.55097
-0.79829,-0.355621,2.394,2.54852
-0.790519,-0.355621,2.394,2.5461
-0.782749,-0.355621,2.394,2.5437
-0.774979,-0.355621,2.394,2.54132
-0.767208,-0.355621,2.394,2.53896
-0.759438,-0.355621,2.394,2.53662
-0.751668,-0.355621,2.394,2.53431
-0.74918,-0.358146,2.411,2.54999
-0.741354,-0.358146,2.411,2.5477
-0.733529,-0.358146,2.411,2.54544
-0.725703,-0.358146,2.411,2.54319
-0.722939,-0.360671,2.428,2.55889
-0.715059,-0.360671,2.428,2.55667
-0.707178,-0.360671,2.428,2.55448
-0.699297,-0.360671,2.428,2.55231
-0.691417,-0.360671,2.428,2.55016
-0.683536,-0.360671,2.428,2.54804
-0.675655,-0.360671,2.428,2.54593
-0.667775,-0.360671,2.428,2.54385
-0.659894,-0.360671,2.428,2.5418
-0.652013,-0.360671,2.428,2.53976
-0.648643,-0.363196,2.445,2.55552
-0.640707,-0.363196,2.445,2.55352
-0.632771,-0.363196,2.445,2.55154
-0.624835,-0.363196,2.445,2.54958
-0.616899,-0.363196,2.445,2.54765
-0.608963,-0.363196,2.445,2.54574
-0.605452,-0.36587,2.463,2.56258
-0.597458,-0.36587,2.463,2.5607
-0.589464,-0.36587,2.463,2.55885
-0.581469,-0.36587,2.463,2.55702
-0.573475,-0.36587,2.463,2.55521
-0.565481,-0.36587,2.463,2.55343
-0.557486,-0.36587,2.463,2.55167
-0.549492,-0.36587,2.463,2.54994
-0.541498,-0.36587,2.463,2.54822
-0.533504,-0.36587,2.463,2.54654
-0.52935,-0.368544,2.481,2.56347
-0.521297,-0.368544,2.481,2.56182
-0.513244,-0.368544,2.481,2.5602
-0.505192,-0.368544,2.481,2.55859
-0.497139,-0.368544,2.481,2.55702
-0.489086,-0.368544,2.481,2.55546
-0.484524,-0.371218,2.499,2.57246
-0.476412,-0.371218,2.499,2.57095
-0.468301,-0.371218,2.499,2.56946
-0.46019,-0.371218,2.499,2.56799
-0.448823,-0.368544,2.481,2.54806
-0.44077,-0.368544,2.481,2.54666
-0.432717,-0.368544,2.481,2.54528
-0.424665,-0.368544,2.481,2.54392
-0.416612,-0.368544,2.481,2.54259
-0.408559,-0.368544,2.481,2.54128
-0.397601,-0.36587,2.463,2.52157
-0.389606,-0.36587,2.463,2.52032
-0.381612,-0.36587,2.463,2.5191
-0.373618,-0.36587,2.463,2.5179
-0.362952,-0.363196,2.445,2.49833
-0.355016,-0.363196,2.445,2.49719
-0.34708,-0.363196,2.445,2.49608
-0.341641,-0.36587,2.463,2.51335
-0.333646,-0.36587,2.463,2.51228
-0.325652,-0.36587,2.463,2.51123
-0.317658,-0.36587,2.463,2.51021
-0.311927,-0.368544,2.481,2.52755
-0.303874,-0.368544,2.481,2.52656
-0.295821,-0.368544,2.481,2.52561
-0.287769,-0.368544,2.481,2.52468
-0.279716,-0.368544,2.481,2.52377
-0.271663,-0.368544,2.481,2.52289
-0.26361,-0.368544,2.481,2.52204
-0.255558,-0.368544,2.481,2.52121
-0.247505,-0.368544,2.481,2.52041
-0.24119,-0.371218,2.499,2.53791
-0.233078,-0.371218,2.499,2.53715
-0.224967,-0.371218,2.499,2.53642
-0.216856,-0.371218,2.499,2.53571
-0.208745,-0.371218,2.499,2.53503
-0.200634,-0.371218,2.499,2.53438
-0.192523,-0.371218,2.499,2.53375
-0.184412,-0.371218,2.499,2.53314
-0.17757,-0.373892,2.517,2.55081
-0.168189,-0.371218,2.499,2.53201
-0.160078,-0.371218,2.499,2.53149
-0.151967,-0.371218,2.499,2.53099
-0.143856,-0.371218,2.499,2.53051
-0.135745,-0.371218,2.499,2.53007
-0.127634,-0.371218,2.499,2.52964
-0.119523,-0.371218,2.499,2.52925
-0.111411,-0.371218,2.499,2.52888
-0.104044,-0.373892,2.517,2.54675
-0.0958747,-0.373892,2.517,2.54642
-0.0877052,-0.373892,2.517,2.54613
-0.0795356,-0.373892,2.517,2.54586
-0.0713661,-0.373892,2.517,2.54562
-0.0631965,-0.373892,2.517,2.5454
-0.055027,-0.373892,2.517,2.54521
-0.0468574,-0.373892,2.517,2.54505
-0.0386878,-0.373892,2.517,2.54491
-0.0305183,-0.373892,2.517,2.5448
-0.0223487,-0.373892,2.517,2.54472
-0.0141792,-0.373892,2.517,2.54466
-0.00600962,-0.373892,2.517,2.54463
0.00215994,-0.373892,2.517,2.54462
0.0103295,-0.373892,2.517,2.54464
0.0184991,-0.373892,2.517,2.54469
0.0266686,-0.373892,2.517,2.54476
0.0348382,-0.373892,2.517,2.54486
0.0430077,-0.373892,2.517,2.54498
0.0511773,-0.373892,2.517,2.54513
0.0593468,-0.373892,2.517,2.54531
0.0675164,-0.373892,2.517,2.54551
0.075686,-0.373892,2.517,2.54574
0.0844885,-0.376714,2.536,2.56522
0.0927197,-0.376714,2.536,2.5655
0.100951,-0.376714,2.536,2.56581
0.109182,-0.376714,2.536,2.56615
0.117413,-0.376714,2.536,2.56651
0.125645,-0.376714,2.536,2.5669
0.133876,-0.376714,2.536,2.56732
0.142107,-0.376714,2.536,2.56776
0.150338,-0.376714,2.536,2.56823
0.15857,-0.376714,2.536,2.56873
0.166801,-0.376714,2.536,2.56925
0.175032,-0.376714,2.536,2.56979
0.183263,-0.376714,2.536,2.57037
0.191494,-0.376714,2.536,2.57097
0.201222,-0.379537,2.555,2.59086
0.209515,-0.379537,2.555,2.59152
0.217808,-0.379537,2.555,2.5922
0.226101,-0.379537,2.555,2.59291
0.234394,-0.379537,2.555,2.59365
0.242687,-0.379537,2.555,2.59441
0.250979,-0.379537,2.555,2.5952
0.259272,-0.379537,2.555,2.59602
0.269555,-0.382359,2.574,2.61617
0.275858,-0.379537,2.555,2.59772
0.284151,-0.379537,2.555,2.59862
0.292444,-0.379537,2.555,2.59954
0.300737,-0.379537,2.555,2.60048
0.30903,-0.379537,2.555,2.60146
0.317323,-0.379537,2.555,2.60245
0.325615,-0.379537,2.555,2.60348
0.333908,-0.379537,2.555,2.60453
0.342201,-0.379537,2.555,2.6056
0.350494,-0.379537,2.555,2.60671
0.361455,-0.382359,2.574,2.62723
0.36708,-0.379537,2.555,2.60899
0.375373,-0.379537,2.555,2.61017
0.383666,-0.379537,2.555,2.61137
0.391959,-0.379537,2.555,2.6126
0.400252,-0.379537,2.555,2.61386
0.408544,-0.379537,2.555,2.61514
0.416837,-0.379537,2.555,2.61645
0.42513,-0.379537,2.555,2.61779
0.433423,-0.379537,2.555,2.61915
0.441716,-0.379537,2.555,2.62053
0.450009,-0.379537,2.555,2.62194
0.46171,-0.382359,2.574,2.64289
0.470064,-0.382359,2.574,2.64436
0.478419,-0.382359,2.574,2.64586
0.486774,-0.382359,2.574,2.64738
0.495128,-0.382359,2.574,2.64893
0.503483,-0.382359,2.574,2.6505
0.511837,-0.382359,2.574,2.6521
0.520192,-0.382359,2.574,2.65373
0.528546,-0.382359,2.574,2.65538
0.536901,-0.382359,2.574,2.65705
0.545256,-0.382359,2.574,2.65876
0.55361,-0.382359,2.574,2.66048
0.561965,-0.382359,2.574,2.66223
0.570319,-0.382359,2.574,2.66401
0.578674,-0.382359,2.574,2.66581
0.587028,-0.382359,2.574,2.66764
0.595383,-0.382359,2.574,2.66949
0.603738,-0.382359,2.574,2.67136
0.612092,-0.382359,2.574,2.67326
0.620447,-0.382359,2.574,2.67519
0.628801,-0.382359,2.574,2.67714
0.637156,-0.382359,2.574,2.67911
0.640746,-0.379537,2.555,2.66132
0.649038,-0.379537,2.555,2.66333
0.657331,-0.379537,2.555,2.66536
0.665624,-0.379537,2.555,2.66742
0.668906,-0.376714,2.536,2.64965
0.677137,-0.376714,2.536,2.65174
0.685368,-0.376714,2.536,2.65385
0.693599,-0.376714,2.536,2.65599
0.70183,-0.376714,2.536,2.65815
0.710062,-0.376714,2.536,2.66034
0.712911,-0.373892,2.517,2.6426
0.721081,-0.373892,2.517,2.64481
0.729251,-0.373892,2.517,2.64705
0.73742,-0.373892,2.517,2.64932
0.74559,-0.373892,2.517,2.6516
0.753759,-0.373892,2.517,2.65391
0.761929,-0.373892,2.517,2.65624
0.770098,-0.373892,2.517,2.6586
0.778268,-0.373892,2.517,2.66097
0.786437,-0.373892,2.517,2.66338
0.794607,-0.373892,2.517,2.6658
0.802777,-0.373892,2.517,2.66825
0.810946,-0.373892,2.517,2.67072
0.819116,-0.373892,2.517,2.67321
0.827285,-0.373892,2.517,2.67572
0.835455,-0.373892,2.517,2.67826
0.843624,-0.373892,2.517,2.68082
0.845702,-0.371218,2.499,2.66421
0.853814,-0.371218,2.499,2.6668
0.861925,-0.371218,2.499,2.6694
0.863769,-0.368544,2.481,2.65279
0.871822,-0.368544,2.481,2.65542
0.879874,-0.368544,2.481,2.65808
0.887927,-0.368544,2.481,2.66075
0.89598,-0.368544,2.481,2.66345
0.904033,-0.368544,2.481,2.66617
0.905468,-0.36587,2.463,2.64955
0.906787,-0.363196,2.445,2.63291
0.914722,-0.363196,2.445,2.63565
0.922658,-0.363196,2.445,2.63842
0.930594,-0.363196,2.445,2.6412
0.93853,-0.363196,2.445,2.64401
0.946466,-0.363196,2.445,2.64684
0.947766,-0.360671,2.428,2.63126
0.955646,-0.360671,2.428,2.63411
0.963527,-0.360671,2.428,2.63698
0.971408,-0.360671,2.428,2.63987
0.979289,-0.360671,2.428,2.64278
0.987169,-0.360671,2.428,2.64571
0.988083,-0.358146,2.411,2.63011
0.995908,-0.358146,2.411,2.63306
1.01081,-0.360671,2.428,2.65462
1.01869,-0.360671,2.428,2.65763
1.03376,-0.363196,2.445,2.67929
nan,nan,nan,NaN
nan,nan,nan,NaN
1.10515,-0.379537,2.555,2.80952
1.11344,-0.379537,2.555,2.8128
1.1472,-0.388152,2.613,2.88002
1.14683,-0.385181,2.593,2.86134
1.15525,-0.385181,2.593,2.86472
1.16367,-0.385181,2.593,2.86812
1.17208,-0.385181,2.593,2.87155
1.1805,-0.385181,2.593,2.87499
1.20725,-0.391123,2.633,2.92286
1.2255,-0.394243,2.654,2.94974
1.23411,-0.394243,2.654,2.95333
1.25256,-0.397362,2.675,2.98034
1.30179,-0.410137,2.761,3.07993
1.26992,-0.397362,2.675,2.98768
1.27861,-0.397362,2.675,2.99138
1.28729,-0.397362,2.675,2.9951
1.29597,-0.397362,2.675,2.99884
1.3149,-0.400482,2.696,3.02618
1.32365,-0.400482,2.696,3.02999
1.3324,-0.400482,2.696,3.03382
1.34115,-0.400482,2.696,3.03768
1.33938,-0.397362,2.675,3.01786
1.34807,-0.397362,2.675,3.02172
1.35675,-0.397362,2.675,3.02561
1.36543,-0.397362,2.675,3.02951
1.39569,-0.403601,2.717,3.08106
1.40451,-0.403601,2.717,3.08506
nan,nan,nan,NaN
nan,nan,nan,NaN
nan,nan,nan,NaN
1.76144,-0.493769,3.324,3.79413
1.77223,-0.493769,3.324,3.79915
1.81788,-0.503425,3.389,3.87859
1.82888,-0.503425,3.389,3.88376
1.87734,-0.513674,3.458,3.96813
1.90768,-0.518873,3.493,4.01367
1.91902,-0.518873,3.493,4.01907
1.93036,-0.518873,3.493,4.0245
1.94169,-0.518873,3.493,4.02995
1.95303,-0.518873,3.493,4.03542
1.94469,-0.513674,3.458,4.00043
1.95591,-0.513674,3.458,4.0059
1.96713,-0.513674,3.458,4.01139
1.95833,-0.508475,3.423,3.97625
1.96944,-0.508475,3.423,3.98173
1.98055,-0.508475,3.423,3.98724
1.99166,-0.508475,3.423,3.99277
2.00277,-0.508475,3.423,3.99832
2.01389,-0.508475,3.423,4.0039
2.00488,-0.503425,3.389,3.96967
1.99625,-0.498522,3.356,3.93653
2.00714,-0.498522,3.356,3.94207
2.01804,-0.498522,3.356,3.94762
2.00958,-0.493769,3.324,3.91551
2.00092,-0.489016,3.292,3.88331
2.01161,-0.489016,3.292,3.88883
1.98421,-0.479806,3.23,3.82102
1.95764,-0.470893,3.17,3.75539
1.96793,-0.470893,3.17,3.76077
1.92455,-0.458118,3.084,3.66399
1.88375,-0.446086,3.003,3.57288
1.89349,-0.446086,3.003,3.57803
1.87028,-0.438361,2.951,3.52115
1.84801,-0.430934,2.901,3.4665
1.85743,-0.430934,2.901,3.47153
1.83595,-0.423804,2.853,3.41906
1.82969,-0.420238,2.829,3.39523
1.83887,-0.420238,2.829,3.40019
1.83303,-0.416822,2.806,3.37748
1.82704,-0.413405,2.783,3.35471
1.82156,-0.410137,2.761,3.33308
1.83052,-0.410137,2.761,3.33798
1.82482,-0.406869,2.739,3.31627
1.81899,-0.403601,2.717,3.29449
1.8278,-0.403601,2.717,3.29937
1.83662,-0.403601,2.717,3.30427
1.83118,-0.400482,2.696,3.2836
-2.24076,-0.469325,3.23,3.95906
-2.25099,-0.473684,3.26,3.98985
-2.24041,-0.473684,3.26,3.98389
-2.25171,-0.478334,3.292,4.017
-2.26281,-0.482983,3.324,4.05001
-2.2737,-0.487633,3.356,4.08292
-2.26281,-0.487633,3.356,4.07687
-2.25192,-0.487633,3.356,4.07083
-2.26306,-0.492428,3.389,4.10478
-2.25206,-0.492428,3.389,4.09873
-2.26355,-0.497368,3.423,4.13376
-2.25243,-0.497368,3.423,4.12768
-2.24132,-0.497368,3.423,4.12163
-2.23021,-0.497368,3.423,4.1156
-2.24179,-0.502454,3.458,4.15161
-2.23057,-0.502454,3.458,4.14556
-2.21935,-0.502454,3.458,4.13953
-2.20812,-0.502454,3.458,4.13353
-2.1969,-0.502454,3.458,4.12754
-2.18568,-0.502454,3.458,4.12158
-2.17445,-0.502454,3.458,4.11564
-2.16323,-0.502454,3.458,4.10972
-2.152,-0.502454,3.458,4.10382
-2.11911,-0.497368,3.423,4.05647
-2.08706,-0.492428,3.389,4.01044
-2.07606,-0.492428,3.389,4.00473
-2.04496,-0.487633,3.356,3.9601
-2.01467,-0.482983,3.324,3.91678
-2.00388,-0.482983,3.324,3.91124
-1.9739,-0.478334,3.292,3.86812
-1.96322,-0.478334,3.292,3.86268
nan,nan,nan,NaN
nan,nan,nan,NaN
nan,nan,nan,NaN
nan,nan,nan,NaN
nan,nan,nan,NaN
nan,nan,nan,NaN
nan,nan,nan,NaN
nan,nan,nan,NaN
nan,nan,nan,NaN
nan,nan,nan,NaN
nan,nan,nan,NaN
nan,nan,nan,NaN
nan,nan,nan,NaN
nan,nan,nan,NaN
nan,nan,nan,NaN
nan,nan,nan,NaN
nan,nan,nan,NaN
nan,nan,nan,NaN
nan,nan,nan,NaN
nan,nan,nan,NaN
nan,nan,nan,NaN
nan,nan,nan,NaN
nan,nan,nan,NaN
nan,nan,nan,NaN
nan,nan,nan,NaN
nan,nan,nan,NaN
nan,nan,nan,NaN
nan,nan,nan,NaN
nan,nan,nan,NaN
nan,nan,nan,NaN
nan,nan,nan,NaN
-1.14702,-0.338408,2.329,2.6181
-1.13946,-0.338408,2.329,2.61479
-1.1319,-0.338408,2.329,2.61151
-1.12435,-0.338408,2.329,2.60824
-1.12446,-0.340733,2.345,2.62289
-1.11685,-0.340733,2.345,2.61963
-1.10924,-0.340733,2.345,2.6164
-1.10162,-0.340733,2.345,2.61318
-1.09401,-0.340733,2.345,2.60998
-1.0864,-0.340733,2.345,2.6068
-1.07879,-0.340733,2.345,2.60363
-1.07118,-0.340733,2.345,2.60049
-1.06357,-0.340733,2.345,2.59736
-1.05596,-0.340733,2.345,2.59426
-1.04835,-0.340733,2.345,2.59117
-1.04073,-0.340733,2.345,2.5881
-1.03312,-0.340733,2.345,2.58505
-1.02551,-0.340733,2.345,2.58201
-1.02485,-0.343058,2.361,2.5966
-1.01718,-0.343058,2.361,2.59358
-1.00952,-0.343058,2.361,2.59059
-1.00186,-0.343058,2.361,2.58761
-0.994193,-0.343058,2.361,2.58465
-0.986529,-0.343058,2.361,2.58171
-0.978866,-0.343058,2.361,2.5788
-0.971203,-0.343058,2.361,2.5759
-0.95701,-0.340733,2.345,2.55558
-0.949399,-0.340733,2.345,2.55274
-0.941787,-0.340733,2.345,2.54992
-0.934176,-0.340733,2.345,2.54712
-0.932887,-0.343058,2.361,2.5617
-0.925224,-0.343058,2.361,2.55892
-0.91756,-0.343058,2.361,2.55615
-0.909897,-0.343058,2.361,2.55341
-0.902234,-0.343058,2.361,2.55069
-0.894571,-0.343058,2.361,2.54799
-0.886907,-0.343058,2.361,2.54531
-0.879244,-0.343058,2.361,2.54265
-0.871581,-0.343058,2.361,2.54001
-0.863918,-0.343058,2.361,2.53739
-0.856255,-0.343058,2.361,2.53479
-0.854342,-0.345382,2.377,2.54938
-0.846627,-0.345382,2.377,2.5468
-0.838912,-0.345382,2.377,2.54425
-0.831197,-0.345382,2.377,2.54171
-0.823481,-0.345382,2.377,2.5392
-0.815766,-0.345382,2.377,2.53671
-0.81383,-0.347852,2.394,2.55236
-0.80606,-0.347852,2.394,2.5499
-0.79829,-0.347852,2.394,2.54745
-0.790519,-0.347852,2.394,2.54503
-0.782749,-0.347852,2.394,2.54262
-0.774979,-0.347852,2.394,2.54024
-0.767208,-0.347852,2.394,2.53788
-0.759438,-0.347852,2.394,2.53554
-0.751668,-0.347852,2.394,2.53323
-0.743897,-0.347852,2.394,2.53093
-0.741354,-0.350323,2.411,2.54662
-0.733529,-0.350323,2.411,2.54435
-0.725703,-0.350323,2.411,2.5421
-0.717878,-0.350323,2.411,2.53988
-0.710052,-0.350323,2.411,2.53768
-0.702227,-0.350323,2.411,2.5355
-0.694401,-0.350323,2.411,2.53335
-0.686576,-0.350323,2.411,2.53121
-0.67875,-0.350323,2.411,2.5291
-0.670925,-0.350323,2.411,2.52701
-0.663099,-0.350323,2.411,2.52495
-0.655274,-0.350323,2.411,2.5229
-0.647448,-0.350323,2.411,2.52088
-0.644133,-0.352793,2.428,2.53664
-0.640707,-0.355263,2.445,2.5524
-0.632771,-0.355263,2.445,2.55042
-0.624835,-0.355263,2.445,2.54846
-0.616899,-0.355263,2.445,2.54653
-0.608963,-0.355263,2.445,2.54462
-0.605452,-0.357878,2.463,2.56145
-0.597458,-0.357878,2.463,2.55957
-0.589464,-0.357878,2.463,2.55772
-0.581469,-0.357878,2.463,2.55589
-0.577666,-0.360494,2.481,2.57274
-0.565481,-0.357878,2.463,2.5523
-0.557486,-0.357878,2.463,2.55054
-0.553508,-0.360494,2.481,2.56743
-0.545455,-0.360494,2.481,2.5657
-0.537403,-0.360494,2.481,2.564
-0.52935,-0.360494,2.481,2.56233
-0.521297,-0.360494,2.481,2.56068
-0.513244,-0.360494,2.481,2.55905
-0.505192,-0.360494,2.481,2.55745
-0.497139,-0.360494,2.481,2.55587
-0.489086,-0.360494,2.481,2.55431
-0.484524,-0.363109,2.499,2.57131
-0.476412,-0.363109,2.499,2.56979
-0.468301,-0.363109,2.499,2.5683
-0.46019,-0.363109,2.499,2.56683
-0.452079,-0.363109,2.499,2.56539
-0.443968,-0.363109,2.499,2.56397
-0.435857,-0.363109,2.499,2.56258
-0.424665,-0.360494,2.481,2.54277
-0.416612,-0.360494,2.481,2.54143
-0.408559,-0.360494,2.481,2.54013
-0.400506,-0.360494,2.481,2.53884
-0.392454,-0.360494,2.481,2.53759
-0.381612,-0.357878,2.463,2.51795
-0.373618,-0.357878,2.463,2.51675
-0.365624,-0.357878,2.463,2.51558
-0.357629,-0.357878,2.463,2.51443
-0.349635,-0.357878,2.463,2.5133
-0.344137,-0.360494,2.481,2.53056
-0.336085,-0.360494,2.481,2.52948
-0.328032,-0.360494,2.481,2.52842
-0.319979,-0.360494,2.481,2.52739
-0.311927,-0.360494,2.481,2.52638
-0.303874,-0.360494,2.481,2.5254
-0.295821,-0.360494,2.481,2.52445
-0.287769,-0.360494,2.481,2.52352
-0.279716,-0.360494,2.481,2.52261
-0.271663,-0.360494,2.481,2.52173
-0.26361,-0.360494,2.481,2.52087
-0.257412,-0.363109,2.499,2.53833
-0.249301,-0.363109,2.499,2.53752
-0.242927,-0.365725,2.517,2.55501
-0.234757,-0.365725,2.517,2.55424
-0.224967,-0.363109,2.499,2.53524
-0.216856,-0.363109,2.499,2.53454
-0.208745,-0.363109,2.499,2.53386
-0.200634,-0.363109,2.499,2.5332
-0.192523,-0.363109,2.499,2.53257
-0.184412,-0.363109,2.499,2.53197
-0.17757,-0.365725,2.517,2.54962
-0.168189,-0.363109,2.499,2.53084
-0.160078,-0.363109,2.499,2.53031
-0.151967,-0.363109,2.499,2.52981
-0.143856,-0.363109,2.499,2.52934
-0.135745,-0.363109,2.499,2.52889
-0.127634,-0.363109,2.499,2.52847
-0.119523,-0.363109,2.499,2.52807
-0.111411,-0.363109,2.499,2.5277
-0.104044,-0.365725,2.517,2.54556
-0.0958747,-0.365725,2.517,2.54524
-0.0877052,-0.365725,2.517,2.54494
-0.0795356,-0.365725,2.517,2.54467
-0.0713661,-0.365725,2.517,2.54443
-0.0631965,-0.365725,2.517,2.54422
-0.055027,-0.365725,2.517,2.54403
-0.0468574,-0.365725,2.517,2.54386
-0.0386878,-0.365725,2.517,2.54373
-0.0305183,-0.365725,2.517,2.54361
-0.0223487,-0.365725,2.517,2.54353
-0.0141792,-0.365725,2.517,2.54347
-0.00600962,-0.365725,2.517,2.54344
0.00215994,-0.365725,2.517,2.54343
0.0103295,-0.365725,2.517,2.54345
0.0184991,-0.365725,2.517,2.5435
0.0266686,-0.365725,2.517,2.54357
0.0348382,-0.365725,2.517,2.54367
0.0430077,-0.365725,2.517,2.5438
0.0511773,-0.365725,2.517,2.54395
0.0593468,-0.365725,2.517,2.54412
0.0675164,-0.365725,2.517,2.54433
0.075686,-0.365725,2.517,2.54456
0.0838555,-0.365725,2.517,2.54481
0.0927197,-0.368485,2.536,2.56431
0.100951,-0.368485,2.536,2.56462
0.109182,-0.368485,2.536,2.56496
0.117413,-0.368485,2.536,2.56532
0.125645,-0.368485,2.536,2.56571
0.133876,-0.368485,2.536,2.56613
0.142107,-0.368485,2.536,2.56657
0.150338,-0.368485,2.536,2.56704
0.15857,-0.368485,2.536,2.56753
0.166801,-0.368485,2.536,2.56805
0.175032,-0.368485,2.536,2.5686
0.183263,-0.368485,2.536,2.56918
0.191494,-0.368485,2.536,2.56978
0.199726,-0.368485,2.536,2.5704
0.207957,-0.368485,2.536,2.57105
0.217808,-0.371246,2.555,2.591
0.226101,-0.371246,2.555,2.59171
0.234394,-0.371246,2.555,2.59245
0.242687,-0.371246,2.555,2.59321
0.250979,-0.371246,2.555,2.594
0.259272,-0.371246,2.555,2.59482
0.267565,-0.371246,2.555,2.59566
0.275858,-0.371246,2.555,2.59653
0.284151,-0.371246,2.555,2.59742
0.292444,-0.371246,2.555,2.59834
0.300737,-0.371246,2.555,2.59929
0.30903,-0.371246,2.555,2.60026
0.317323,-0.371246,2.555,2.60126
0.325615,-0.371246,2.555,2.60228
0.333908,-0.371246,2.555,2.60333
0.342201,-0.371246,2.555,2.60441
0.350494,-0.371246,2.555,2.60551
0.358787,-0.371246,2.555,2.60664
0.36435,-0.368485,2.536,2.5884
0.372581,-0.368485,2.536,2.58957
0.380813,-0.368485,2.536,2.59077
0.389044,-0.368485,2.536,2.59199
0.397275,-0.368485,2.536,2.59324
0.408544,-0.371246,2.555,2.61395
0.416837,-0.371246,2.555,2.61526
0.42513,-0.371246,2.555,2.6166
0.433423,-0.371246,2.555,2.61796
0.441716,-0.371246,2.555,2.61934
0.450009,-0.371246,2.555,2.62075
0.46171,-0.374007,2.574,2.64169
0.470064,-0.374007,2.574,2.64316
0.478419,-0.374007,2.574,2.64466
0.486774,-0.374007,2.574,2.64619
0.495128,-0.374007,2.574,2.64774
0.503483,-0.374007,2.574,2.64931
0.511837,-0.374007,2.574,2.65091
0.520192,-0.374007,2.574,2.65254
0.528546,-0.374007,2.574,2.65419
0.536901,-0.374007,2.574,2.65587
0.545256,-0.374007,2.574,2.65757
0.55361,-0.374007,2.574,2.65929
0.561965,-0.374007,2.574,2.66105
0.570319,-0.374007,2.574,2.66282
0.578674,-0.374007,2.574,2.66462
0.587028,-0.374007,2.574,2.66645
0.595383,-0.374007,2.574,2.6683
0.603738,-0.374007,2.574,2.67018
0.612092,-0.374007,2.574,2.67208
0.620447,-0.374007,2.574,2.67401
0.628801,-0.374007,2.574,2.67596
0.637156,-0.374007,2.574,2.67793
0.640746,-0.371246,2.555,2.66015
0.649038,-0.371246,2.555,2.66216
0.657331,-0.371246,2.555,2.66419
0.665624,-0.371246,2.555,2.66625
0.673917,-0.371246,2.555,2.66834
0.677137,-0.368485,2.536,2.65058
0.685368,-0.368485,2.536,2.6527
0.693599,-0.368485,2.536,2.65484
0.70183,-0.368485,2.536,2.657
0.710062,-0.368485,2.536,2.65918
0.718293,-0.368485,2.536,2.66139
0.726524,-0.368485,2.536,2.66363
0.734755,-0.368485,2.536,2.66588
0.742987,-0.368485,2.536,2.66817
0.74559,-0.365725,2.517,2.65046
0.753759,-0.365725,2.517,2.65277
0.761929,-0.365725,2.517,2.6551
0.770098,-0.365725,2.517,2.65746
0.778268,-0.365725,2.517,2.65984
0.786437,-0.365725,2.517,2.66224
0.794607,-0.365725,2.517,2.66467
0.802777,-0.365725,2.517,2.66711
0.810946,-0.365725,2.517,2.66958
0.819116,-0.365725,2.517,2.67208
0.827285,-0.365725,2.517,2.67459
0.835455,-0.365725,2.517,2.67713
0.843624,-0.365725,2.517,2.67969
0.845702,-0.363109,2.499,2.66309
0.853814,-0.363109,2.499,2.66568
0.861925,-0.363109,2.499,2.66829
0.863769,-0.360494,2.481,2.65168
0.871822,-0.360494,2.481,2.65432
0.879874,-0.360494,2.481,2.65697
0.887927,-0.360494,2.481,2.65965
0.889479,-0.357878,2.463,2.64303
0.897474,-0.357878,2.463,2.64573
0.905468,-0.357878,2.463,2.64846
0.906787,-0.355263,2.445,2.63182
0.914722,-0.355263,2.445,2.63457
0.922658,-0.355263,2.445,2.63734
0.930594,-0.355263,2.445,2.64012
0.93853,-0.355263,2.445,2.64293
0.939885,-0.352793,2.428,2.62736
0.947766,-0.352793,2.428,2.63019
0.955646,-0.352793,2.428,2.63304
0.963527,-0.352793,2.428,2.63591
0.964606,-0.350323,2.411,2.62033
0.972432,-0.350323,2.411,2.62322
0.987169,-0.352793,2.428,2.64465
0.988083,-0.350323,2.411,2.62906
0.995908,-0.350323,2.411,2.63201
1.01081,-0.352793,2.428,2.65356
1.01869,-0.352793,2.428,2.65657
nan,nan,nan,NaN
nan,nan,nan,NaN
nan,nan,nan,NaN
1.10515,-0.371246,2.555,2.80842
1.11344,-0.371246,2.555,2.81169
1.15598,-0.38258,2.633,2.90092
1.15568,-0.379674,2.613,2.88228
1.16416,-0.379674,2.613,2.88569
1.17264,-0.379674,2.613,2.88912
1.18112,-0.379674,2.613,2.89257
1.19871,-0.38258,2.633,2.91821
1.23614,-0.391734,2.696,2.99164
1.25459,-0.394785,2.717,3.0186
1.26341,-0.394785,2.717,3.02227
1.28253,-0.397982,2.739,3.05047
1.30179,-0.401178,2.761,3.07875
1.31075,-0.401178,2.761,3.08255
1.31971,-0.401178,2.761,3.08637
1.32867,-0.401178,2.761,3.09022
1.33764,-0.401178,2.761,3.09408
1.3466,-0.401178,2.761,3.09797
1.35556,-0.401178,2.761,3.10187
1.37539,-0.404375,2.783,3.13055
1.36254,-0.397982,2.739,3.08497
1.37143,-0.397982,2.739,3.0889
1.38032,-0.397982,2.739,3.09286
1.38921,-0.397982,2.739,3.09684
1.3981,-0.397982,2.739,3.10084
1.41829,-0.401178,2.761,3.12979
