-1.09351,-0.299105,2.377,2.63351
-1.0858,-0.299105,2.377,2.63031
-1.07808,-0.299105,2.377,2.62714
-1.06316,-0.297091,2.361,2.60632
-1.0555,-0.297091,2.361,2.6032
-1.04784,-0.297091,2.361,2.6001
-1.04017,-0.297091,2.361,2.59703
-1.02551,-0.295078,2.345,2.57639
-1.0179,-0.295078,2.345,2.57337
-1.0034,-0.293065,2.329,2.55283
-0.995836,-0.293065,2.329,2.54987
-0.988277,-0.293065,2.329,2.54692
-0.980718,-0.293065,2.329,2.544
-0.973158,-0.293065,2.329,2.5411
-0.965599,-0.293065,2.329,2.53821
-0.951458,-0.291051,2.313,2.51793
-0.943951,-0.291051,2.313,2.5151
-0.936443,-0.291051,2.313,2.51229
-0.928936,-0.291051,2.313,2.5095
-0.921428,-0.291051,2.313,2.50673
-0.913921,-0.291051,2.313,2.50398
-0.906413,-0.291051,2.313,2.50125
-0.893076,-0.289164,2.298,2.48234
-0.885618,-0.289164,2.298,2.47967
-0.878159,-0.289164,2.298,2.47701
-0.8707,-0.289164,2.298,2.47438
-0.863242,-0.289164,2.298,2.47176
-0.855783,-0.289164,2.298,2.46917
-0.848324,-0.289164,2.298,2.46659
-0.846354,-0.291051,2.313,2.48012
-0.838847,-0.291051,2.313,2.47757
-0.831339,-0.291051,2.313,2.47504
-0.823832,-0.291051,2.313,2.47252
-0.816324,-0.291051,2.313,2.47003
-0.814412,-0.293065,2.329,2.48463
-0.806852,-0.293065,2.329,2.48216
-0.799293,-0.293065,2.329,2.47972
-0.791734,-0.293065,2.329,2.47729
-0.784174,-0.293065,2.329,2.47489
-0.776615,-0.293065,2.329,2.4725
-0.774339,-0.295078,2.345,2.48711
-0.766728,-0.295078,2.345,2.48475
-0.759116,-0.295078,2.345,2.48241
-0.756633,-0.297091,2.361,2.49701
-0.748969,-0.297091,2.361,2.4947
-0.741306,-0.297091,2.361,2.49241
-0.738615,-0.299105,2.377,2.50702
-0.7309,-0.299105,2.377,2.50476
-0.723184,-0.299105,2.377,2.50252
-0.715469,-0.299105,2.377,2.5003
-0.712816,-0.301244,2.394,2.51597
-0.705046,-0.301244,2.394,2.51378
-0.697275,-0.301244,2.394,2.51161
-0.689505,-0.301244,2.394,2.50946
-0.681735,-0.301244,2.394,2.50734
-0.673964,-0.301244,2.394,2.50524
-0.666194,-0.301244,2.394,2.50316
-0.658424,-0.301244,2.394,2.5011
-0.650653,-0.301244,2.394,2.49907
-0.642883,-0.301244,2.394,2.49705
-0.639623,-0.303383,2.411,2.51278
-0.631797,-0.303383,2.411,2.5108
-0.623972,-0.303383,2.411,2.50884
-0.616146,-0.303383,2.411,2.50691
-0.608321,-0.303383,2.411,2.505
-0.600495,-0.303383,2.411,2.50311
-0.59267,-0.303383,2.411,2.50124
-0.584844,-0.303383,2.411,2.4994
-0.577019,-0.303383,2.411,2.49758
-0.573206,-0.305522,2.428,2.51338
-0.565326,-0.305522,2.428,2.5116
-0.561348,-0.307661,2.445,2.52741
-0.553412,-0.307661,2.445,2.52566
-0.545476,-0.307661,2.445,2.52393
-0.541498,-0.309926,2.463,2.5408
-0.533504,-0.309926,2.463,2.5391
-0.525509,-0.309926,2.463,2.53744
-0.521297,-0.312191,2.481,2.55433
-0.513244,-0.312191,2.481,2.55269
-0.505192,-0.312191,2.481,2.55109
-0.497139,-0.312191,2.481,2.5495
-0.492635,-0.314456,2.499,2.56643
-0.484524,-0.314456,2.499,2.56489
-0.476412,-0.314456,2.499,2.56337
-0.468301,-0.314456,2.499,2.56187
-0.46019,-0.314456,2.499,2.5604
-0.455335,-0.316721,2.517,2.57739
-0.447166,-0.316721,2.517,2.57596
-0.438996,-0.316721,2.517,2.57455
-0.434079,-0.319112,2.536,2.5926
-0.425848,-0.319112,2.536,2.59123
-0.417616,-0.319112,2.536,2.58989
-0.409385,-0.319112,2.536,2.58858
-0.401154,-0.319112,2.536,2.58729
-0.392923,-0.319112,2.536,2.58602
-0.384691,-0.319112,2.536,2.58479
-0.37646,-0.319112,2.536,2.58357
-0.368229,-0.319112,2.536,2.58239
-0.359998,-0.319112,2.536,2.58123
-0.351766,-0.319112,2.536,2.58009
-0.343535,-0.319112,2.536,2.57898
-0.335304,-0.319112,2.536,2.5779
-0.327073,-0.319112,2.536,2.57684
-0.318842,-0.319112,2.536,2.57581
-0.31061,-0.319112,2.536,2.5748
-0.302379,-0.319112,2.536,2.57382
-0.294148,-0.319112,2.536,2.57287
-0.285917,-0.319112,2.536,2.57194
-0.275605,-0.316721,2.517,2.55178
-0.267435,-0.316721,2.517,2.55091
-0.259266,-0.316721,2.517,2.55006
-0.249301,-0.314456,2.499,2.53101
-0.24119,-0.314456,2.499,2.53023
-0.233078,-0.314456,2.499,2.52947
-0.224967,-0.314456,2.499,2.52873
-0.216856,-0.314456,2.499,2.52803
-0.208745,-0.314456,2.499,2.52734
-0.200634,-0.314456,2.499,2.52669
-0.192523,-0.314456,2.499,2.52605
-0.184412,-0.314456,2.499,2.52545
-0.1763,-0.314456,2.499,2.52487
-0.168189,-0.314456,2.499,2.52432
-0.160078,-0.314456,2.499,2.52379
-0.151967,-0.314456,2.499,2.52329
-0.143856,-0.314456,2.499,2.52281
-0.135745,-0.314456,2.499,2.52236
-0.127634,-0.314456,2.499,2.52194
-0.120383,-0.316721,2.517,2.5397
-0.112214,-0.316721,2.517,2.53933
-0.104044,-0.316721,2.517,2.53898
-0.0958747,-0.316721,2.517,2.53866
-0.0877052,-0.316721,2.517,2.53836
-0.080136,-0.319112,2.536,2.55725
-0.0719048,-0.319112,2.536,2.55701
-0.0636736,-0.319112,2.536,2.55679
-0.0558577,-0.321503,2.555,2.57575
-0.0475648,-0.321503,2.555,2.57559
-0.0392719,-0.321503,2.555,2.57545
-0.030979,-0.321503,2.555,2.57533
-0.0226861,-0.321503,2.555,2.57525
-0.0143932,-0.321503,2.555,2.57519
-0.00610034,-0.321503,2.555,2.57516
0.00220886,-0.323894,2.574,2.5943
0.0105634,-0.323894,2.574,2.59432
0.018918,-0.323894,2.574,2.59437
0.0272725,-0.323894,2.574,2.59444
0.0356271,-0.323894,2.574,2.59454
0.043657,-0.321503,2.555,2.57552
0.0519499,-0.321503,2.555,2.57567
0.0602428,-0.321503,2.555,2.57585
0.0685357,-0.321503,2.555,2.57606
0.0768286,-0.321503,2.555,2.57629
0.0851215,-0.321503,2.555,2.57655
0.0934144,-0.321503,2.555,2.57684
0.101707,-0.321503,2.555,2.57716
0.11,-0.321503,2.555,2.5775
0.118293,-0.321503,2.555,2.57786
0.126586,-0.321503,2.555,2.57826
0.135882,-0.323894,2.574,2.59785
0.144236,-0.323894,2.574,2.5983
0.152591,-0.323894,2.574,2.59878
0.160946,-0.323894,2.574,2.59929
0.1693,-0.323894,2.574,2.59982
0.178966,-0.326284,2.593,2.61957
0.187382,-0.326284,2.593,2.62016
0.195799,-0.326284,2.593,2.62077
0.204215,-0.326284,2.593,2.62141
0.212631,-0.326284,2.593,2.62208
0.222752,-0.328801,2.613,2.64301
0.231233,-0.328801,2.613,2.64374
0.239715,-0.328801,2.613,2.64449
0.248196,-0.328801,2.613,2.64528
0.256677,-0.328801,2.613,2.64608
0.265158,-0.328801,2.613,2.64692
0.271545,-0.326284,2.593,2.62752
0.279961,-0.326284,2.593,2.6284
0.288377,-0.326284,2.593,2.62931
0.296793,-0.326284,2.593,2.63025
0.302973,-0.323894,2.574,2.61193
0.311328,-0.323894,2.574,2.61291
0.317323,-0.321503,2.555,2.59463
0.325615,-0.321503,2.555,2.59565
0.333908,-0.321503,2.555,2.59671
0.342201,-0.321503,2.555,2.59779
0.350494,-0.321503,2.555,2.59889
0.358787,-0.321503,2.555,2.60002
0.36708,-0.321503,2.555,2.60118
0.372581,-0.319112,2.536,2.58301
0.380813,-0.319112,2.536,2.58421
0.389044,-0.319112,2.536,2.58544
0.397275,-0.319112,2.536,2.58669
0.405506,-0.319112,2.536,2.58797
0.413738,-0.319112,2.536,2.58927
0.421969,-0.319112,2.536,2.5906
0.4302,-0.319112,2.536,2.59195
0.441716,-0.321503,2.555,2.61276
0.446662,-0.319112,2.536,2.59473
0.454894,-0.319112,2.536,2.59616
0.466595,-0.321503,2.555,2.61708
0.474888,-0.321503,2.555,2.61857
0.48318,-0.321503,2.555,2.62009
0.491473,-0.321503,2.555,2.62163
0.499766,-0.321503,2.555,2.6232
0.508059,-0.321503,2.555,2.62479
0.516352,-0.321503,2.555,2.62641
0.524645,-0.321503,2.555,2.62805
0.532938,-0.321503,2.555,2.62972
0.537206,-0.319112,2.536,2.61184
0.545437,-0.319112,2.536,2.61355
0.553668,-0.319112,2.536,2.61528
0.566109,-0.321503,2.555,2.63664
0.570131,-0.319112,2.536,2.61881
0.578362,-0.319112,2.536,2.62062
0.586593,-0.319112,2.536,2.62245
0.594824,-0.319112,2.536,2.6243
0.603056,-0.319112,2.536,2.62618
0.611287,-0.319112,2.536,2.62808
0.619518,-0.319112,2.536,2.63001
0.627749,-0.319112,2.536,2.63196
0.635981,-0.319112,2.536,2.63393
0.644212,-0.319112,2.536,2.63593
0.647555,-0.316721,2.517,2.61819
0.655725,-0.316721,2.517,2.62022
0.663894,-0.316721,2.517,2.62228
0.672064,-0.316721,2.517,2.62436
0.680233,-0.316721,2.517,2.62647
0.68348,-0.314456,2.499,2.60979
0.691591,-0.314456,2.499,2.61193
0.699702,-0.314456,2.499,2.61409
0.702715,-0.312191,2.481,2.59743
0.710768,-0.312191,2.481,2.59962
0.71882,-0.312191,2.481,2.60183
0.726873,-0.312191,2.481,2.60407
0.740258,-0.314456,2.499,2.62524
0.742978,-0.312191,2.481,2.60861
0.751031,-0.312191,2.481,2.61091
0.759084,-0.312191,2.481,2.61324
0.772702,-0.314456,2.499,2.63457
0.780813,-0.314456,2.499,2.63696
0.788924,-0.314456,2.499,2.63937
0.797036,-0.314456,2.499,2.64181
0.805147,-0.314456,2.499,2.64427
0.813258,-0.314456,2.499,2.64675
0.821369,-0.314456,2.499,2.64925
0.82948,-0.314456,2.499,2.65178
0.837591,-0.314456,2.499,2.65433
0.839611,-0.312191,2.481,2.63776
0.847664,-0.312191,2.481,2.64033
0.855716,-0.312191,2.481,2.64293
0.863769,-0.312191,2.481,2.64555
0.871822,-0.312191,2.481,2.64819
0.879874,-0.312191,2.481,2.65085
0.887927,-0.312191,2.481,2.65353
0.889479,-0.309926,2.463,2.63697
0.897474,-0.309926,2.463,2.63967
0.905468,-0.309926,2.463,2.6424
0.906787,-0.307661,2.445,2.62582
0.914722,-0.307661,2.445,2.62857
0.922658,-0.307661,2.445,2.63135
0.930594,-0.307661,2.445,2.63414
0.93853,-0.307661,2.445,2.63695
0.946466,-0.307661,2.445,2.63979
0.954402,-0.307661,2.445,2.64264
0.962338,-0.307661,2.445,2.64552
0.970273,-0.307661,2.445,2.64842
0.978209,-0.307661,2.445,2.65133
0.986145,-0.307661,2.445,2.65427
0.994081,-0.307661,2.445,2.65723
1.00202,-0.307661,2.445,2.66021
1.00995,-0.307661,2.445,2.66321
1.02538,-0.309926,2.463,2.68586
1.03338,-0.309926,2.463,2.68892
nan,nan,nan,NaN
nan,nan,nan,NaN
nan,nan,nan,NaN
nan,nan,nan,NaN
nan,nan,nan,NaN
nan,nan,nan,NaN
nan,nan,nan,NaN
nan,nan,nan,NaN
nan,nan,nan,NaN
nan,nan,nan,NaN
1.41678,-0.391592,3.112,3.44168
1.42688,-0.391592,3.112,3.44585
1.47715,-0.402539,3.199,3.54649
1.48754,-0.402539,3.199,3.55083
1.51244,-0.40644,3.23,3.58965
1.53706,-0.410215,3.26,3.62746
1.56284,-0.414242,3.292,3.6676
1.55823,-0.410215,3.26,3.63647
1.56881,-0.410215,3.26,3.64102
1.57939,-0.410215,3.26,3.64559
1.57534,-0.40644,3.23,3.6166
1.5706,-0.402539,3.199,3.58642
1.58099,-0.402539,3.199,3.59098
1.57694,-0.39889,3.17,3.56297
1.57271,-0.395241,3.141,3.5349
1.58291,-0.395241,3.141,3.53945
1.57839,-0.391592,3.112,3.5113
1.58849,-0.391592,3.112,3.51585
1.61349,-0.395241,3.141,3.55323
1.63868,-0.39889,3.17,3.59072
1.64897,-0.39889,3.17,3.59543
1.67443,-0.402539,3.199,3.63309
1.71694,-0.410215,3.26,3.70726
1.72753,-0.410215,3.26,3.71217
1.77223,-0.418268,3.324,3.79008
1.81788,-0.426447,3.389,3.86935
1.82888,-0.426447,3.389,3.87453
1.87734,-0.43513,3.458,3.95873
1.88857,-0.43513,3.458,3.96406
1.91902,-0.439534,3.493,4.0096
1.93036,-0.439534,3.493,4.01504
1.96171,-0.444064,3.529,4.06194
1.99385,-0.44872,3.566,4.11013
2.00542,-0.44872,3.566,4.11575
2.017,-0.44872,3.566,4.12141
2.02857,-0.44872,3.566,4.12708
2.04015,-0.44872,3.566,4.13278
2.05172,-0.44872,3.566,4.13851
2.06329,-0.44872,3.566,4.14426
2.05334,-0.444064,3.529,4.10698
2.06479,-0.444064,3.529,4.11271
2.05507,-0.439534,3.493,4.07646
2.06641,-0.439534,3.493,4.08219
2.05692,-0.43513,3.458,4.04698
2.02688,-0.426447,3.389,3.97183
2.03788,-0.426447,3.389,3.97745
2.00958,-0.418268,3.324,3.90671
2.00092,-0.414242,3.292,3.8746
2.01161,-0.414242,3.292,3.88013
1.98421,-0.40644,3.23,3.8125
1.97555,-0.402539,3.199,3.78133
1.98593,-0.402539,3.199,3.78676
1.96012,-0.395241,3.141,3.72346
1.93456,-0.388068,3.084,3.66117
1.94457,-0.388068,3.084,3.66647
1.93746,-0.384671,3.057,3.63964
1.93019,-0.381273,3.03,3.61274
1.94002,-0.381273,3.03,3.618
1.93248,-0.377876,3.003,3.591
1.92541,-0.374604,2.977,3.56512
1.91817,-0.371333,2.951,3.53916
1.92775,-0.371333,2.951,3.54436
1.92092,-0.368187,2.926,3.51951
1.91392,-0.365041,2.901,3.49459
1.92334,-0.365041,2.901,3.49976
1.91676,-0.362021,2.877,3.47594
1.89397,-0.355981,2.829,3.42302
1.90315,-0.355981,2.829,3.42811
1.89678,-0.353087,2.806,3.4053
1.89027,-0.350193,2.783,3.38243
-2.21925,-0.392159,3.199,3.91311
-2.20887,-0.392159,3.199,3.90724
-2.19848,-0.392159,3.199,3.90137
-2.20931,-0.395959,3.23,3.93328
-2.21924,-0.399637,3.26,3.96388
-2.23034,-0.40356,3.292,3.99682
-2.21966,-0.40356,3.292,3.99087
-2.20897,-0.40356,3.292,3.98493
-2.19829,-0.40356,3.292,3.97902
-2.1876,-0.40356,3.292,3.97313
-2.17692,-0.40356,3.292,3.96725
-2.16623,-0.40356,3.292,3.9614
-2.1765,-0.407482,3.324,3.99402
-2.16571,-0.407482,3.324,3.98815
-2.15492,-0.407482,3.324,3.9823
-2.14413,-0.407482,3.324,3.97647
-2.13335,-0.407482,3.324,3.97067
-2.12256,-0.407482,3.324,3.96488
-2.11177,-0.407482,3.324,3.95911
-2.10098,-0.407482,3.324,3.95337
-2.11031,-0.411405,3.356,3.98565
-2.12006,-0.415451,3.389,4.01903
-2.10906,-0.415451,3.389,4.01324
-2.09806,-0.415451,3.389,4.00747
-2.08706,-0.415451,3.389,4.00172
-2.07606,-0.415451,3.389,3.99599
-2.06506,-0.415451,3.389,3.99029
-2.07467,-0.419619,3.423,4.02458
-2.06356,-0.419619,3.423,4.01887
-2.05245,-0.419619,3.423,4.01317
-2.06221,-0.423909,3.458,4.04848
nan,nan,nan,NaN
nan,nan,nan,NaN
nan,nan,nan,NaN
nan,nan,nan,NaN
nan,nan,nan,NaN
nan,nan,nan,NaN
nan,nan,nan,NaN
nan,nan,nan,NaN
nan,nan,nan,NaN
nan,nan,nan,NaN
nan,nan,nan,NaN
nan,nan,nan,NaN
nan,nan,nan,NaN
nan,nan,nan,NaN
nan,nan,nan,NaN
nan,nan,nan,NaN
nan,nan,nan,NaN
nan,nan,nan,NaN
nan,nan,nan,NaN
nan,nan,nan,NaN
nan,nan,nan,NaN
nan,nan,nan,NaN
nan,nan,nan,NaN
nan,nan,nan,NaN
nan,nan,nan,NaN
nan,nan,nan,NaN
nan,nan,nan,NaN
nan,nan,nan,NaN
nan,nan,nan,NaN
nan,nan,nan,NaN
nan,nan,nan,NaN
-1.17904,-0.293476,2.394,2.68468
-1.17127,-0.293476,2.394,2.68127
-1.1635,-0.293476,2.394,2.67789
-1.15572,-0.293476,2.394,2.67452
-1.15611,-0.29556,2.411,2.69014
-1.14828,-0.29556,2.411,2.68679
-1.14046,-0.29556,2.411,2.68345
-1.13263,-0.29556,2.411,2.68014
-1.1248,-0.29556,2.411,2.67684
-1.1091,-0.293476,2.394,2.65471
-1.10133,-0.293476,2.394,2.65147
-1.09356,-0.293476,2.394,2.64825
-1.07808,-0.291392,2.377,2.62627
-1.07037,-0.291392,2.377,2.62311
-1.06265,-0.291392,2.377,2.61997
-1.05494,-0.291392,2.377,2.61685
-1.04017,-0.28943,2.361,2.59616
-1.02551,-0.287469,2.345,2.57553
-1.0179,-0.287469,2.345,2.57251
-1.01029,-0.287469,2.345,2.5695
-0.995836,-0.285507,2.329,2.54901
-0.988277,-0.285507,2.329,2.54607
-0.980718,-0.285507,2.329,2.54314
-0.973158,-0.285507,2.329,2.54023
-0.965599,-0.285507,2.329,2.53735
-0.95804,-0.285507,2.329,2.53448
-0.943951,-0.283546,2.313,2.51424
-0.936443,-0.283546,2.313,2.51143
-0.928936,-0.283546,2.313,2.50864
-0.921428,-0.283546,2.313,2.50587
-0.913921,-0.283546,2.313,2.50312
-0.906413,-0.283546,2.313,2.50039
-0.893076,-0.281707,2.298,2.48148
-0.885618,-0.281707,2.298,2.47881
-0.878159,-0.281707,2.298,2.47615
-0.8707,-0.281707,2.298,2.47352
-0.863242,-0.281707,2.298,2.4709
-0.855783,-0.281707,2.298,2.4683
-0.848324,-0.281707,2.298,2.46573
-0.846354,-0.283546,2.313,2.47925
-0.838847,-0.283546,2.313,2.4767
-0.831339,-0.283546,2.313,2.47417
-0.823832,-0.283546,2.313,2.47165
-0.816324,-0.283546,2.313,2.46916
-0.808817,-0.283546,2.313,2.46669
-0.801309,-0.283546,2.313,2.46424
-0.799293,-0.285507,2.329,2.47884
-0.791734,-0.285507,2.329,2.47641
-0.784174,-0.285507,2.329,2.474
-0.776615,-0.285507,2.329,2.47162
-0.769056,-0.285507,2.329,2.46925
-0.766728,-0.287469,2.345,2.48386
-0.759116,-0.287469,2.345,2.48152
-0.751505,-0.287469,2.345,2.4792
-0.748969,-0.28943,2.361,2.4938
-0.741306,-0.28943,2.361,2.49151
-0.738615,-0.291392,2.377,2.50611
-0.7309,-0.291392,2.377,2.50385
-0.723184,-0.291392,2.377,2.50161
-0.715469,-0.291392,2.377,2.49939
-0.712816,-0.293476,2.394,2.51505
-0.705046,-0.293476,2.394,2.51286
-0.697275,-0.293476,2.394,2.51069
-0.689505,-0.293476,2.394,2.50854
-0.681735,-0.293476,2.394,2.50642
-0.673964,-0.293476,2.394,2.50431
-0.666194,-0.293476,2.394,2.50223
-0.658424,-0.293476,2.394,2.50018
-0.650653,-0.293476,2.394,2.49814
-0.642883,-0.293476,2.394,2.49613
-0.639623,-0.29556,2.411,2.51185
-0.631797,-0.29556,2.411,2.50987
-0.623972,-0.29556,2.411,2.50791
-0.616146,-0.29556,2.411,2.50598
-0.608321,-0.29556,2.411,2.50406
-0.600495,-0.29556,2.411,2.50217
-0.59267,-0.29556,2.411,2.50031
-0.584844,-0.29556,2.411,2.49846
-0.577019,-0.29556,2.411,2.49664
-0.573206,-0.297644,2.428,2.51244
-0.565326,-0.297644,2.428,2.51065
-0.561348,-0.299727,2.445,2.52645
-0.553412,-0.299727,2.445,2.5247
-0.545476,-0.299727,2.445,2.52298
-0.541498,-0.301934,2.463,2.53983
-0.533504,-0.301934,2.463,2.53814
-0.525509,-0.301934,2.463,2.53647
-0.521297,-0.304141,2.481,2.55335
-0.513244,-0.304141,2.481,2.55172
-0.505192,-0.304141,2.481,2.55011
-0.497139,-0.304141,2.481,2.54853
-0.492635,-0.306347,2.499,2.56545
-0.484524,-0.306347,2.499,2.56391
-0.476412,-0.306347,2.499,2.56239
-0.471674,-0.308554,2.517,2.57934
-0.463505,-0.308554,2.517,2.57785
-0.455335,-0.308554,2.517,2.5764
-0.447166,-0.308554,2.517,2.57497
-0.438996,-0.308554,2.517,2.57356
-0.434079,-0.310883,2.536,2.5916
-0.425848,-0.310883,2.536,2.59023
-0.417616,-0.310883,2.536,2.58889
-0.409385,-0.310883,2.536,2.58757
-0.401154,-0.310883,2.536,2.58628
-0.392923,-0.310883,2.536,2.58502
-0.384691,-0.310883,2.536,2.58378
-0.37646,-0.310883,2.536,2.58257
-0.368229,-0.310883,2.536,2.58138
-0.359998,-0.310883,2.536,2.58022
-0.351766,-0.310883,2.536,2.57909
-0.343535,-0.310883,2.536,2.57798
-0.335304,-0.310883,2.536,2.57689
-0.327073,-0.310883,2.536,2.57583
-0.318842,-0.310883,2.536,2.5748
-0.31061,-0.310883,2.536,2.5738
-0.302379,-0.310883,2.536,2.57281
-0.294148,-0.310883,2.536,2.57186
-0.285917,-0.310883,2.536,2.57093
-0.275605,-0.308554,2.517,2.55078
-0.267435,-0.308554,2.517,2.54991
-0.259266,-0.308554,2.517,2.54906
-0.251096,-0.308554,2.517,2.54824
-0.24119,-0.306347,2.499,2.52923
-0.233078,-0.306347,2.499,2.52847
-0.224967,-0.306347,2.499,2.52774
-0.216856,-0.306347,2.499,2.52703
-0.208745,-0.306347,2.499,2.52635
-0.200634,-0.306347,2.499,2.52569
-0.192523,-0.306347,2.499,2.52506
-0.184412,-0.306347,2.499,2.52445
-0.1763,-0.306347,2.499,2.52387
-0.168189,-0.306347,2.499,2.52332
-0.160078,-0.306347,2.499,2.52279
-0.151967,-0.306347,2.499,2.52229
-0.143856,-0.306347,2.499,2.52181
-0.135745,-0.306347,2.499,2.52136
-0.127634,-0.306347,2.499,2.52094
-0.120383,-0.308554,2.517,2.5387
-0.112214,-0.308554,2.517,2.53832
-0.104044,-0.308554,2.517,2.53798
-0.0958747,-0.308554,2.517,2.53765
-0.0877052,-0.308554,2.517,2.53736
-0.080136,-0.310883,2.536,2.55624
-0.0719048,-0.310883,2.536,2.556
-0.0636736,-0.310883,2.536,2.55578
-0.0554423,-0.310883,2.536,2.55559
-0.0475648,-0.313212,2.555,2.57457
-0.0389799,-0.310883,2.536,2.55528
-0.0307487,-0.310883,2.536,2.55517
-0.0226861,-0.313212,2.555,2.57423
-0.0143932,-0.313212,2.555,2.57417
-0.00610034,-0.313212,2.555,2.57413
0.00219255,-0.313212,2.555,2.57413
0.0104854,-0.313212,2.555,2.57415
0.0187783,-0.313212,2.555,2.57419
0.0268699,-0.310883,2.536,2.55513
0.0351011,-0.310883,2.536,2.55523
0.0433324,-0.310883,2.536,2.55535
0.0515636,-0.310883,2.536,2.5555
0.0597948,-0.310883,2.536,2.55568
0.0680261,-0.310883,2.536,2.55589
0.0762573,-0.310883,2.536,2.55612
0.0844885,-0.310883,2.536,2.55638
0.0927197,-0.310883,2.536,2.55667
0.100951,-0.310883,2.536,2.55698
0.11,-0.313212,2.555,2.57648
0.118293,-0.313212,2.555,2.57684
0.126586,-0.313212,2.555,2.57724
0.134879,-0.313212,2.555,2.57766
0.143172,-0.313212,2.555,2.5781
0.151465,-0.313212,2.555,2.57858
0.160946,-0.315541,2.574,2.59826
0.1693,-0.315541,2.574,2.59879
0.178966,-0.317871,2.593,2.61853
0.187382,-0.317871,2.593,2.61912
0.195799,-0.317871,2.593,2.61974
0.204215,-0.317871,2.593,2.62038
0.212631,-0.317871,2.593,2.62105
0.222752,-0.320322,2.613,2.64197
0.231233,-0.320322,2.613,2.6427
0.239715,-0.320322,2.613,2.64345
0.248196,-0.320322,2.613,2.64423
0.256677,-0.320322,2.613,2.64504
0.265158,-0.320322,2.613,2.64588
0.271545,-0.317871,2.593,2.62649
0.279961,-0.317871,2.593,2.62737
0.288377,-0.317871,2.593,2.62828
0.296793,-0.317871,2.593,2.62922
0.302973,-0.315541,2.574,2.61091
0.311328,-0.315541,2.574,2.61189
0.317323,-0.313212,2.555,2.59361
0.325615,-0.313212,2.555,2.59464
0.333908,-0.313212,2.555,2.59569
0.342201,-0.313212,2.555,2.59677
0.350494,-0.313212,2.555,2.59788
0.356119,-0.310883,2.536,2.57968
0.36435,-0.310883,2.536,2.58083
0.372581,-0.310883,2.536,2.58201
0.380813,-0.310883,2.536,2.58321
0.389044,-0.310883,2.536,2.58443
0.397275,-0.310883,2.536,2.58569
0.405506,-0.310883,2.536,2.58696
0.413738,-0.310883,2.536,2.58827
0.421969,-0.310883,2.536,2.58959
0.4302,-0.310883,2.536,2.59095
0.441716,-0.313212,2.555,2.61175
0.446662,-0.310883,2.536,2.59373
0.454894,-0.310883,2.536,2.59516
0.466595,-0.313212,2.555,2.61607
0.474888,-0.313212,2.555,2.61756
0.48318,-0.313212,2.555,2.61908
0.491473,-0.313212,2.555,2.62062
0.499766,-0.313212,2.555,2.62219
0.508059,-0.313212,2.555,2.62379
0.516352,-0.313212,2.555,2.6254
0.524645,-0.313212,2.555,2.62705
0.532938,-0.313212,2.555,2.62872
0.537206,-0.310883,2.536,2.61085
0.545437,-0.310883,2.536,2.61256
0.557817,-0.313212,2.555,2.63387
0.566109,-0.313212,2.555,2.63564
0.570131,-0.310883,2.536,2.61782
0.578362,-0.310883,2.536,2.61963
0.586593,-0.310883,2.536,2.62146
0.594824,-0.310883,2.536,2.62331
0.603056,-0.310883,2.536,2.62519
0.611287,-0.310883,2.536,2.62709
0.619518,-0.310883,2.536,2.62902
0.627749,-0.310883,2.536,2.63097
0.635981,-0.310883,2.536,2.63295
0.644212,-0.310883,2.536,2.63495
0.647555,-0.308554,2.517,2.61722
0.655725,-0.308554,2.517,2.61925
0.663894,-0.308554,2.517,2.62131
0.672064,-0.308554,2.517,2.62339
0.680233,-0.308554,2.517,2.62549
0.68348,-0.306347,2.499,2.60883
0.691591,-0.306347,2.499,2.61097
0.699702,-0.306347,2.499,2.61313
0.707813,-0.306347,2.499,2.61531
0.710768,-0.304141,2.481,2.59866
0.71882,-0.304141,2.481,2.60088
0.726873,-0.304141,2.481,2.60312
0.740258,-0.306347,2.499,2.62428
0.748369,-0.306347,2.499,2.62658
0.75648,-0.306347,2.499,2.6289
0.764591,-0.306347,2.499,2.63124
0.772702,-0.306347,2.499,2.63361
0.780813,-0.306347,2.499,2.636
0.788924,-0.306347,2.499,2.63842
0.797036,-0.306347,2.499,2.64086
0.810946,-0.308554,2.517,2.66235
0.813258,-0.306347,2.499,2.6458
0.821369,-0.306347,2.499,2.6483
0.82948,-0.306347,2.499,2.65083
0.837591,-0.306347,2.499,2.65338
0.845702,-0.306347,2.499,2.65595
0.847664,-0.304141,2.481,2.63939
0.855716,-0.304141,2.481,2.64199
0.863769,-0.304141,2.481,2.64461
0.871822,-0.304141,2.481,2.64725
0.879874,-0.304141,2.481,2.64991
0.887927,-0.304141,2.481,2.6526
0.89598,-0.304141,2.481,2.6553
0.904033,-0.304141,2.481,2.65803
0.905468,-0.301934,2.463,2.64148
0.913462,-0.301934,2.463,2.64423
0.921457,-0.301934,2.463,2.647
0.922658,-0.299727,2.445,2.63043
0.930594,-0.299727,2.445,2.63322
0.93853,-0.299727,2.445,2.63604
0.946466,-0.299727,2.445,2.63887
0.954402,-0.299727,2.445,2.64173
0.962338,-0.299727,2.445,2.64461
0.970273,-0.299727,2.445,2.64751
0.978209,-0.299727,2.445,2.65043
0.986145,-0.299727,2.445,2.65336
0.994081,-0.299727,2.445,2.65632
1.00202,-0.299727,2.445,2.6593
1.00995,-0.299727,2.445,2.6623
nan,nan,nan,NaN
nan,nan,nan,NaN
nan,nan,nan,NaN
nan,nan,nan,NaN
nan,nan,nan,NaN
nan,nan,nan,NaN
nan,nan,nan,NaN
nan,nan,nan,NaN
nan,nan,nan,NaN
nan,nan,nan,NaN
nan,nan,nan,NaN
nan,nan,nan,NaN
1.4705,-0.395959,3.23,3.571
1.48098,-0.395959,3.23,3.57533
1.53487,-0.407482,3.324,3.68386
1.54566,-0.407482,3.324,3.68837
1.57143,-0.411405,3.356,3.72846
1.58233,-0.411405,3.356,3.73306
1.60889,-0.415451,3.389,3.77445
1.60411,-0.411405,3.356,3.74235
1.61501,-0.411405,3.356,3.74703
1.6259,-0.411405,3.356,3.75174
1.62118,-0.407482,3.324,3.72065
1.60055,-0.399637,3.26,3.65364
1.61113,-0.399637,3.26,3.65829
1.60679,-0.395959,3.23,3.62925
1.60175,-0.392159,3.199,3.59903
1.61213,-0.392159,3.199,3.60366
1.60781,-0.388604,3.17,3.57561
1.6181,-0.388604,3.17,3.58025
1.62839,-0.388604,3.17,3.58491
1.65367,-0.392159,3.199,3.62243
1.66405,-0.392159,3.199,3.62718
1.69066,-0.395959,3.23,3.66715
1.75065,-0.407482,3.324,3.77886
1.76144,-0.407482,3.324,3.78387
1.78929,-0.411405,3.356,3.82538
1.8549,-0.423909,3.458,3.94691
1.86612,-0.423909,3.458,3.9522
1.89635,-0.4282,3.493,3.99757
1.92734,-0.432613,3.529,4.04421
1.95913,-0.437149,3.566,4.09214
1.9707,-0.437149,3.566,4.0977
1.98227,-0.437149,3.566,4.10328
2.0151,-0.441807,3.604,4.15266
2.00542,-0.437149,3.566,4.11451
2.017,-0.437149,3.566,4.12016
2.02857,-0.437149,3.566,4.12584
2.04015,-0.437149,3.566,4.13154
2.05172,-0.437149,3.566,4.13727
2.06329,-0.437149,3.566,4.14302
2.05334,-0.432613,3.529,4.10575
2.06479,-0.432613,3.529,4.11149
2.05507,-0.4282,3.493,4.07526
2.06641,-0.4282,3.493,4.08099
2.05692,-0.423909,3.458,4.04579
2.02688,-0.415451,3.389,3.97066
2.03788,-0.415451,3.389,3.97629
2.00958,-0.407482,3.324,3.90557
2.00092,-0.40356,3.292,3.87348
2.01161,-0.40356,3.292,3.87901
1.98421,-0.395959,3.23,3.8114
1.97555,-0.392159,3.199,3.78023
1.98593,-0.392159,3.199,3.78567
1.96012,-0.385049,3.141,3.72239
1.93456,-0.378061,3.084,3.66012
1.94457,-0.378061,3.084,3.66542
1.93746,-0.374751,3.057,3.63861
1.93019,-0.371441,3.03,3.61172
1.94002,-0.371441,3.03,3.61698
1.93248,-0.368132,3.003,3.58999
1.92541,-0.364944,2.977,3.56412
1.91817,-0.361757,2.951,3.53817
1.92775,-0.361757,2.951,3.54337
1.92092,-0.358692,2.926,3.51853
1.91392,-0.355628,2.901,3.49362
1.92334,-0.355628,2.901,3.49879
1.91676,-0.352685,2.877,3.47498
1.89397,-0.346801,2.829,3.42208
1.90315,-0.346801,2.829,3.42717
1.89678,-0.343982,2.806,3.40437
1.89027,-0.341162,2.783,3.38151
-2.19913,-0.378318,3.17,3.87662
-2.18884,-0.378318,3.17,3.8708
-2.17855,-0.378318,3.17,3.86499
-2.1881,-0.381779,3.199,3.8945
-2.19882,-0.385478,3.23,3.92636
-2.20866,-0.389059,3.26,3.95691
-2.19808,-0.389059,3.26,3.95102
-2.1875,-0.389059,3.26,3.94514
-2.17692,-0.389059,3.26,3.93928
-2.16634,-0.389059,3.26,3.93344
-2.15576,-0.389059,3.26,3.92763
-2.14518,-0.389059,3.26,3.92183
-2.15555,-0.392878,3.292,3.95449
-2.14486,-0.392878,3.292,3.94868
-2.13418,-0.392878,3.292,3.94288
-2.12349,-0.392878,3.292,3.93711
-2.11281,-0.392878,3.292,3.93136
-2.12256,-0.396696,3.324,3.96378
-2.11177,-0.396696,3.324,3.95802
-2.10098,-0.396696,3.324,3.95227
-2.09019,-0.396696,3.324,3.94655
-2.09942,-0.400515,3.356,3.97878
-2.08853,-0.400515,3.356,3.97305
-2.07763,-0.400515,3.356,3.96733
-2.08706,-0.404454,3.389,4.00059
-2.07606,-0.404454,3.389,3.99486
-2.06506,-0.404454,3.389,3.98916
-2.05406,-0.404454,3.389,3.98348
-2.06356,-0.408511,3.423,4.01772
-2.05245,-0.408511,3.423,4.01203
-2.04134,-0.408511,3.423,4.00636
nan,nan,nan,NaN
nan,nan,nan,NaN
nan,nan,nan,NaN
nan,nan,nan,NaN
nan,nan,nan,NaN
nan,nan,nan,NaN
nan,nan,nan,NaN
nan,nan,nan,NaN
nan,nan,nan,NaN
nan,nan,nan,NaN
nan,nan,nan,NaN
nan,nan,nan,NaN
nan,nan,nan,NaN
nan,nan,nan,NaN
nan,nan,nan,NaN
nan,nan,nan,NaN
nan,nan,nan,NaN
nan,nan,nan,NaN
nan,nan,nan,NaN
nan,nan,nan,NaN
nan,nan,nan,NaN
nan,nan,nan,NaN
nan,nan,nan,NaN
nan,nan,nan,NaN
nan,nan,nan,NaN
nan,nan,nan,NaN
nan,nan,nan,NaN
nan,nan,nan,NaN
nan,nan,nan,NaN
nan,nan,nan,NaN
nan,nan,nan,NaN
-1.19578,-0.289765,2.428,2.72196
-1.1879,-0.289765,2.428,2.7185
-1.17176,-0.287736,2.411,2.69606
-1.16393,-0.287736,2.411,2.69267
-1.15611,-0.287736,2.411,2.68929
-1.14828,-0.287736,2.411,2.68594
-1.14046,-0.287736,2.411,2.6826
-1.13263,-0.287736,2.411,2.67928
-1.1248,-0.287736,2.411,2.67599
-1.1091,-0.285707,2.394,2.65386
-1.10133,-0.285707,2.394,2.65062
-1.09356,-0.285707,2.394,2.6474
-1.08579,-0.285707,2.394,2.6442
-1.07037,-0.283679,2.377,2.62227
-1.06265,-0.283679,2.377,2.61913
-1.05494,-0.283679,2.377,2.61601
-1.04017,-0.281769,2.361,2.59532
-1.02551,-0.27986,2.345,2.57469
-1.0179,-0.27986,2.345,2.57167
-1.01029,-0.27986,2.345,2.56866
-0.995836,-0.27795,2.329,2.54817
-0.988277,-0.27795,2.329,2.54523
-0.980718,-0.27795,2.329,2.5423
-0.973158,-0.27795,2.329,2.5394
-0.965599,-0.27795,2.329,2.53651
-0.95804,-0.27795,2.329,2.53364
-0.943951,-0.276041,2.313,2.51341
-0.936443,-0.276041,2.313,2.5106
-0.928936,-0.276041,2.313,2.50781
-0.921428,-0.276041,2.313,2.50503
-0.913921,-0.276041,2.313,2.50228
-0.906413,-0.276041,2.313,2.49955
-0.893076,-0.27425,2.298,2.48065
-0.885618,-0.27425,2.298,2.47797
-0.878159,-0.27425,2.298,2.47531
-0.8707,-0.27425,2.298,2.47268
-0.863242,-0.27425,2.298,2.47006
-0.855783,-0.27425,2.298,2.46746
-0.848324,-0.27425,2.298,2.46489
-0.846354,-0.276041,2.313,2.4784
-0.838847,-0.276041,2.313,2.47585
-0.831339,-0.276041,2.313,2.47332
-0.823832,-0.276041,2.313,2.4708
-0.816324,-0.276041,2.313,2.46831
-0.808817,-0.276041,2.313,2.46584
-0.801309,-0.276041,2.313,2.46338
-0.799293,-0.27795,2.329,2.47798
-0.791734,-0.27795,2.329,2.47555
-0.784174,-0.27795,2.329,2.47314
-0.776615,-0.27795,2.329,2.47075
-0.769056,-0.27795,2.329,2.46839
-0.766728,-0.27986,2.345,2.48299
-0.759116,-0.27986,2.345,2.48065
-0.751505,-0.27986,2.345,2.47833
-0.748969,-0.281769,2.361,2.49292
-0.741306,-0.281769,2.361,2.49063
-0.738615,-0.283679,2.377,2.50523
-0.7309,-0.283679,2.377,2.50296
-0.723184,-0.283679,2.377,2.50072
-0.715469,-0.283679,2.377,2.4985
-0.712816,-0.285707,2.394,2.51415
-0.705046,-0.285707,2.394,2.51196
-0.697275,-0.285707,2.394,2.50979
-0.689505,-0.285707,2.394,2.50764
-0.681735,-0.285707,2.394,2.50552
-0.673964,-0.285707,2.394,2.50342
-0.666194,-0.285707,2.394,2.50134
-0.658424,-0.285707,2.394,2.49928
-0.650653,-0.285707,2.394,2.49724
-0.642883,-0.285707,2.394,2.49523
-0.639623,-0.287736,2.411,2.51094
-0.631797,-0.287736,2.411,2.50896
-0.623972,-0.287736,2.411,2.507
-0.616146,-0.287736,2.411,2.50506
-0.608321,-0.287736,2.411,2.50315
-0.600495,-0.287736,2.411,2.50126
-0.59267,-0.287736,2.411,2.49939
-0.584844,-0.287736,2.411,2.49755
-0.577019,-0.287736,2.411,2.49573
-0.573206,-0.289765,2.428,2.51152
-0.565326,-0.289765,2.428,2.50973
-0.557445,-0.289765,2.428,2.50797
-0.549564,-0.289765,2.428,2.50623
-0.545476,-0.291794,2.445,2.52205
-0.53754,-0.291794,2.445,2.52034
-0.529605,-0.291794,2.445,2.51866
-0.525509,-0.293942,2.463,2.53553
-0.521297,-0.29609,2.481,2.55241
-0.513244,-0.29609,2.481,2.55077
-0.505192,-0.29609,2.481,2.54917
-0.497139,-0.29609,2.481,2.54758
-0.489086,-0.29609,2.481,2.54602
-0.481034,-0.29609,2.481,2.54449
-0.476412,-0.298238,2.499,2.56143
-0.471674,-0.300387,2.517,2.57837
-0.463505,-0.300387,2.517,2.57689
-0.455335,-0.300387,2.517,2.57543
-0.447166,-0.300387,2.517,2.574
-0.438996,-0.300387,2.517,2.57259
-0.430827,-0.300387,2.517,2.57121
-0.422657,-0.300387,2.517,2.56986
-0.414487,-0.300387,2.517,2.56853
-0.409385,-0.302654,2.536,2.5866
-0.401154,-0.302654,2.536,2.58531
-0.392923,-0.302654,2.536,2.58404
-0.384691,-0.302654,2.536,2.58281
-0.37646,-0.302654,2.536,2.58159
-0.368229,-0.302654,2.536,2.5804
-0.359998,-0.302654,2.536,2.57924
-0.351766,-0.302654,2.536,2.57811
-0.343535,-0.302654,2.536,2.577
-0.335304,-0.302654,2.536,2.57591
-0.327073,-0.302654,2.536,2.57485
-0.318842,-0.302654,2.536,2.57382
-0.31061,-0.302654,2.536,2.57281
-0.302379,-0.302654,2.536,2.57183
-0.294148,-0.302654,2.536,2.57088
-0.285917,-0.302654,2.536,2.56995
-0.275605,-0.300387,2.517,2.5498
-0.267435,-0.300387,2.517,2.54893
-0.259266,-0.300387,2.517,2.54809
-0.251096,-0.300387,2.517,2.54727
-0.24119,-0.298238,2.499,2.52826
-0.233078,-0.298238,2.499,2.5275
-0.224967,-0.298238,2.499,2.52677
-0.216856,-0.298238,2.499,2.52606
-0.208745,-0.298238,2.499,2.52538
-0.200634,-0.298238,2.499,2.52472
-0.192523,-0.298238,2.499,2.52409
-0.184412,-0.298238,2.499,2.52348
-0.1763,-0.298238,2.499,2.5229
-0.168189,-0.298238,2.499,2.52235
-0.160078,-0.298238,2.499,2.52182
-0.151967,-0.298238,2.499,2.52132
-0.143856,-0.298238,2.499,2.52084
-0.135745,-0.298238,2.499,2.52039
-0.127634,-0.298238,2.499,2.51997
-0.120383,-0.300387,2.517,2.53772
-0.112214,-0.300387,2.517,2.53734
-0.104044,-0.300387,2.517,2.537
-0.0958747,-0.300387,2.517,2.53667
-0.0877052,-0.300387,2.517,2.53638
-0.0795356,-0.300387,2.517,2.53611
-0.0719048,-0.302654,2.536,2.55501
-0.0636736,-0.302654,2.536,2.55479
-0.0554423,-0.302654,2.536,2.5546
-0.0475648,-0.304922,2.555,2.57357
-0.0389799,-0.302654,2.536,2.55429
-0.0307487,-0.302654,2.536,2.55418
-0.0225174,-0.302654,2.536,2.5541
-0.0142862,-0.302654,2.536,2.55404
-0.00605498,-0.302654,2.536,2.554
0.00217625,-0.302654,2.536,2.554
0.0104075,-0.302654,2.536,2.55402
0.0186387,-0.302654,2.536,2.55406
0.0266686,-0.300387,2.517,2.535
0.0348382,-0.300387,2.517,2.5351
0.0430077,-0.300387,2.517,2.53523
0.0511773,-0.300387,2.517,2.53538
0.0593468,-0.300387,2.517,2.53556
0.0675164,-0.300387,2.517,2.53576
0.075686,-0.300387,2.517,2.53599
0.0844885,-0.302654,2.536,2.55539
0.0927197,-0.302654,2.536,2.55568
0.100951,-0.302654,2.536,2.55599
0.109182,-0.302654,2.536,2.55633
0.117413,-0.302654,2.536,2.55669
0.125645,-0.302654,2.536,2.55708
0.133876,-0.302654,2.536,2.5575
0.143172,-0.304922,2.555,2.57711
0.151465,-0.304922,2.555,2.57758
0.159758,-0.304922,2.555,2.57809
0.1693,-0.307189,2.574,2.59779
0.178966,-0.309457,2.593,2.61753
0.187382,-0.309457,2.593,2.61811
0.195799,-0.309457,2.593,2.61873
0.20579,-0.311844,2.613,2.63958
0.214271,-0.311844,2.613,2.64025
0.222752,-0.311844,2.613,2.64095
0.231233,-0.311844,2.613,2.64168
0.239715,-0.311844,2.613,2.64244
0.248196,-0.311844,2.613,2.64322
0.256677,-0.311844,2.613,2.64403
0.265158,-0.311844,2.613,2.64487
0.273639,-0.311844,2.613,2.64573
0.28212,-0.311844,2.613,2.64662
0.290601,-0.311844,2.613,2.64754
0.296793,-0.309457,2.593,2.62821
0.30521,-0.309457,2.593,2.62918
0.313626,-0.309457,2.593,2.63017
0.317323,-0.304922,2.555,2.59262
0.325615,-0.304922,2.555,2.59365
0.336391,-0.307189,2.574,2.614
0.342201,-0.304922,2.555,2.59579
0.350494,-0.304922,2.555,2.59689
0.356119,-0.302654,2.536,2.5787
0.36435,-0.302654,2.536,2.57985
0.372581,-0.302654,2.536,2.58103
0.380813,-0.302654,2.536,2.58223
0.389044,-0.302654,2.536,2.58346
0.397275,-0.302654,2.536,2.58471
0.405506,-0.302654,2.536,2.58599
0.416837,-0.304922,2.555,2.60668
0.42513,-0.304922,2.555,2.60801
0.433423,-0.304922,2.555,2.60938
0.441716,-0.304922,2.555,2.61077
0.450009,-0.304922,2.555,2.61219
0.458302,-0.304922,2.555,2.61363
0.466595,-0.304922,2.555,2.61509
0.474888,-0.304922,2.555,2.61659
0.48318,-0.304922,2.555,2.6181
0.491473,-0.304922,2.555,2.61965
0.499766,-0.304922,2.555,2.62122
0.508059,-0.304922,2.555,2.62281
0.516352,-0.304922,2.555,2.62443
0.524645,-0.304922,2.555,2.62607
0.532938,-0.304922,2.555,2.62774
0.541231,-0.304922,2.555,2.62944
0.549524,-0.304922,2.555,2.63116
0.557817,-0.304922,2.555,2.6329
0.566109,-0.304922,2.555,2.63467
0.574402,-0.304922,2.555,2.63646
0.582695,-0.304922,2.555,2.63828
0.590988,-0.304922,2.555,2.64013
0.599281,-0.304922,2.555,2.642
0.607574,-0.304922,2.555,2.64389
0.615867,-0.304922,2.555,2.64581
0.619518,-0.302654,2.536,2.62806
0.627749,-0.302654,2.536,2.63001
0.635981,-0.302654,2.536,2.63199
0.644212,-0.302654,2.536,2.63399
0.652443,-0.302654,2.536,2.63602
0.660674,-0.302654,2.536,2.63806
0.663894,-0.300387,2.517,2.62036
0.672064,-0.300387,2.517,2.62244
0.680233,-0.300387,2.517,2.62455
0.688403,-0.300387,2.517,2.62667
0.691591,-0.298238,2.499,2.61003
0.699702,-0.298238,2.499,2.61219
0.707813,-0.298238,2.499,2.61437
0.715924,-0.298238,2.499,2.61658
0.724035,-0.298238,2.499,2.61881
0.732147,-0.298238,2.499,2.62107
0.740258,-0.298238,2.499,2.62334
0.748369,-0.298238,2.499,2.62564
0.75648,-0.298238,2.499,2.62797
0.764591,-0.298238,2.499,2.63031
0.772702,-0.298238,2.499,2.63268
0.780813,-0.298238,2.499,2.63507
0.788924,-0.298238,2.499,2.63749
0.802777,-0.300387,2.517,2.65894
0.810946,-0.300387,2.517,2.66142
0.819116,-0.300387,2.517,2.66392
0.827285,-0.300387,2.517,2.66644
0.835455,-0.300387,2.517,2.66899
0.843624,-0.300387,2.517,2.67156
0.845702,-0.298238,2.499,2.65503
0.853814,-0.298238,2.499,2.65762
0.861925,-0.298238,2.499,2.66024
0.870036,-0.298238,2.499,2.66288
0.871822,-0.29609,2.481,2.64634
0.879874,-0.29609,2.481,2.649
0.887927,-0.29609,2.481,2.65169
0.89598,-0.29609,2.481,2.65439
0.904033,-0.29609,2.481,2.65712
0.905468,-0.293942,2.463,2.64058
0.913462,-0.293942,2.463,2.64333
0.921457,-0.293942,2.463,2.6461
0.922658,-0.291794,2.445,2.62954
0.930594,-0.291794,2.445,2.63233
0.93853,-0.291794,2.445,2.63515
0.946466,-0.291794,2.445,2.63799
0.954402,-0.291794,2.445,2.64084
0.962338,-0.291794,2.445,2.64372
0.970273,-0.291794,2.445,2.64662
0.978209,-0.291794,2.445,2.64954
0.986145,-0.291794,2.445,2.65248
0.994081,-0.291794,2.445,2.65544
1.00202,-0.291794,2.445,2.65842
1.00995,-0.291794,2.445,2.66142
nan,nan,nan,NaN
nan,nan,nan,NaN
nan,nan,nan,NaN
nan,nan,nan,NaN
nan,nan,nan,NaN
nan,nan,nan,NaN
nan,nan,nan,NaN
nan,nan,nan,NaN
nan,nan,nan,NaN
nan,nan,nan,NaN
nan,nan,nan,NaN
nan,nan,nan,NaN
1.4705,-0.385478,3.23,3.56986
1.48098,-0.385478,3.23,3.57419
1.53487,-0.396696,3.324,3.68269
1.54566,-0.396696,3.324,3.6872
1.57143,-0.400515,3.356,3.72727
1.58233,-0.400515,3.356,3.73188
1.60889,-0.404454,3.389,3.77325
1.60411,-0.400515,3.356,3.74117
1.61501,-0.400515,3.356,3.74585
1.6259,-0.400515,3.356,3.75056
1.62118,-0.396696,3.324,3.71949
1.60055,-0.389059,3.26,3.6525
1.61113,-0.389059,3.26,3.65715
1.60679,-0.385478,3.23,3.62812
1.60175,-0.381779,3.199,3.59791
1.61213,-0.381779,3.199,3.60255
1.60781,-0.378318,3.17,3.5745
1.6181,-0.378318,3.17,3.57914
1.62839,-0.378318,3.17,3.58381
1.65367,-0.381779,3.199,3.62132
1.66405,-0.381779,3.199,3.62608
1.69066,-0.385478,3.23,3.66604
1.75065,-0.396696,3.324,3.77771
1.76144,-0.396696,3.324,3.78273
1.78929,-0.400515,3.356,3.82423
1.8549,-0.412688,3.458,3.94572
1.86612,-0.412688,3.458,3.95101
1.89635,-0.416865,3.493,3.99637
1.92734,-0.421162,3.529,4.043
1.95913,-0.425577,3.566,4.09092
1.9707,-0.425577,3.566,4.09648
1.98227,-0.425577,3.566,4.10206
2.0151,-0.430113,3.604,4.15144
2.02679,-0.430113,3.604,4.15713
2.03849,-0.430113,3.604,4.16284
2.05019,-0.430113,3.604,4.16858
2.06189,-0.430113,3.604,4.17435
2.07358,-0.430113,3.604,4.18014
2.08528,-0.430113,3.604,4.18595
2.07487,-0.425577,3.566,4.1476
2.08644,-0.425577,3.566,4.1534
2.07625,-0.421162,3.529,4.11607
2.0877,-0.421162,3.529,4.12186
2.05692,-0.412688,3.458,4.04463
2.02688,-0.404454,3.389,3.96953
2.03788,-0.404454,3.389,3.97516
2.02893,-0.400515,3.356,3.94204
2.00092,-0.392878,3.292,3.87238
2.01161,-0.392878,3.292,3.87791
1.98421,-0.385478,3.23,3.81032
1.97555,-0.381779,3.199,3.77917
1.98593,-0.381779,3.199,3.78461
1.96012,-0.374857,3.141,3.72135
1.95212,-0.371396,3.112,3.69232
1.96222,-0.371396,3.112,3.69767
1.93746,-0.364832,3.057,3.6376
1.93019,-0.36161,3.03,3.61072
1.94002,-0.36161,3.03,3.61599
1.93248,-0.358387,3.003,3.589
1.92541,-0.355284,2.977,3.56314
1.91817,-0.352181,2.951,3.53721
1.92775,-0.352181,2.951,3.54241
1.92092,-0.349198,2.926,3.51758
1.91392,-0.346214,2.901,3.49267
1.92334,-0.346214,2.901,3.49784
1.91676,-0.34335,2.877,3.47405
1.89397,-0.337622,2.829,3.42116
1.90315,-0.337622,2.829,3.42625
1.89678,-0.334877,2.806,3.40346
1.87533,-0.329506,2.761,3.35389
-2.17901,-0.364665,3.141,3.84018
-2.16882,-0.364665,3.141,3.8344
-2.15862,-0.364665,3.141,3.82864
-2.16827,-0.368032,3.17,3.8582
-2.17772,-0.371398,3.199,3.88767
-2.18834,-0.374997,3.23,3.91948
-2.17785,-0.374997,3.23,3.91364
-2.1875,-0.37848,3.26,3.94411
-2.17692,-0.37848,3.26,3.93825
-2.16634,-0.37848,3.26,3.93241
-2.15576,-0.37848,3.26,3.92659
-2.14518,-0.37848,3.26,3.92079
-2.15555,-0.382196,3.292,3.95344
-2.14486,-0.382196,3.292,3.94763
-2.13418,-0.382196,3.292,3.94183
-2.12349,-0.382196,3.292,3.93606
-2.11281,-0.382196,3.292,3.9303
-2.12256,-0.385911,3.324,3.96272
-2.11177,-0.385911,3.324,3.95695
-2.10098,-0.385911,3.324,3.9512
-2.09019,-0.385911,3.324,3.94548
-2.09942,-0.389626,3.356,3.9777
-2.08853,-0.389626,3.356,3.97196
-2.07763,-0.389626,3.356,3.96625
-2.08706,-0.393457,3.389,3.9995
-2.07606,-0.393457,3.389,3.99377
-2.06506,-0.393457,3.389,3.98806
-2.05406,-0.393457,3.389,3.98237
-2.06356,-0.397404,3.423,4.01661
-2.05245,-0.397404,3.423,4.01091
-2.04134,-0.397404,3.423,4.00524
nan,nan,nan,NaN
nan,nan,nan,NaN
nan,nan,nan,NaN
nan,nan,nan,NaN
nan,nan,nan,NaN
nan,nan,nan,NaN
nan,nan,nan,NaN
nan,nan,nan,NaN
nan,nan,nan,NaN
nan,nan,nan,NaN
nan,nan,nan,NaN
nan,nan,nan,NaN
nan,nan,nan,NaN
nan,nan,nan,NaN
nan,nan,nan,NaN
nan,nan,nan,NaN
nan,nan,nan,NaN
nan,nan,nan,NaN
nan,nan,nan,NaN
nan,nan,nan,NaN
nan,nan,nan,NaN
nan,nan,nan,NaN
nan,nan,nan,NaN
nan,nan,nan,NaN
nan,nan,nan,NaN
nan,nan,nan,NaN
nan,nan,nan,NaN
nan,nan,nan,NaN
nan,nan,nan,NaN
nan,nan,nan,NaN
nan,nan,nan,NaN
-1.19578,-0.281887,2.428,2.72113
-1.1879,-0.281887,2.428,2.71767
-1.17176,-0.279913,2.411,2.69523
-1.16393,-0.279913,2.411,2.69184
-1.15611,-0.279913,2.411,2.68847
-1.14828,-0.279913,2.411,2.68511
-1.14046,-0.279913,2.411,2.68177
-1.13263,-0.279913,2.411,2.67846
-1.1248,-0.279913,2.411,2.67516
-1.1091,-0.277939,2.394,2.65304
-1.10133,-0.277939,2.394,2.6498
-1.09356,-0.277939,2.394,2.64658
-1.08579,-0.277939,2.394,2.64337
-1.07037,-0.275966,2.377,2.62144
-1.06265,-0.275966,2.377,2.6183
-1.05494,-0.275966,2.377,2.61518
-1.04017,-0.274108,2.361,2.5945
-1.02551,-0.27225,2.345,2.57387
-1.0179,-0.27225,2.345,2.57085
-1.01029,-0.27225,2.345,2.56785
-0.995836,-0.270393,2.329,2.54736
-0.988277,-0.270393,2.329,2.54441
-0.980718,-0.270393,2.329,2.54149
-0.973158,-0.270393,2.329,2.53858
-0.965599,-0.270393,2.329,2.53569
-0.951458,-0.268535,2.313,2.51542
-0.943951,-0.268535,2.313,2.51259
-0.936443,-0.268535,2.313,2.50978
-0.928936,-0.268535,2.313,2.50699
-0.921428,-0.268535,2.313,2.50422
-0.907994,-0.266794,2.298,2.48524
-0.900535,-0.266794,2.298,2.48253
-0.893076,-0.266794,2.298,2.47983
-0.885618,-0.266794,2.298,2.47716
-0.878159,-0.266794,2.298,2.4745
-0.8707,-0.266794,2.298,2.47186
-0.863242,-0.266794,2.298,2.46924
-0.855783,-0.266794,2.298,2.46665
-0.848324,-0.266794,2.298,2.46407
-0.840865,-0.266794,2.298,2.46151
-0.833407,-0.266794,2.298,2.45897
-0.831339,-0.268535,2.313,2.47249
-0.823832,-0.268535,2.313,2.46998
-0.816324,-0.268535,2.313,2.46748
-0.808817,-0.268535,2.313,2.46501
-0.801309,-0.268535,2.313,2.46256
-0.793802,-0.268535,2.313,2.46012
-0.791734,-0.270393,2.329,2.47471
-0.784174,-0.270393,2.329,2.4723
-0.776615,-0.270393,2.329,2.46992
-0.769056,-0.270393,2.329,2.46755
-0.766728,-0.27225,2.345,2.48214
-0.759116,-0.27225,2.345,2.4798
-0.751505,-0.27225,2.345,2.47748
-0.743894,-0.27225,2.345,2.47518
-0.736283,-0.27225,2.345,2.4729
-0.733643,-0.274108,2.361,2.48751
-0.7309,-0.275966,2.377,2.5021
-0.723184,-0.275966,2.377,2.49986
-0.715469,-0.275966,2.377,2.49764
-0.707754,-0.275966,2.377,2.49544
-0.705046,-0.277939,2.394,2.51109
-0.697275,-0.277939,2.394,2.50892
-0.689505,-0.277939,2.394,2.50677
-0.681735,-0.277939,2.394,2.50465
-0.673964,-0.277939,2.394,2.50254
-0.666194,-0.277939,2.394,2.50046
-0.658424,-0.277939,2.394,2.4984
-0.650653,-0.277939,2.394,2.49636
-0.642883,-0.277939,2.394,2.49435
-0.639623,-0.279913,2.411,2.51006
-0.631797,-0.279913,2.411,2.50807
-0.623972,-0.279913,2.411,2.50612
-0.616146,-0.279913,2.411,2.50418
-0.608321,-0.279913,2.411,2.50226
-0.600495,-0.279913,2.411,2.50037
-0.59267,-0.279913,2.411,2.49851
-0.584844,-0.279913,2.411,2.49666
-0.577019,-0.279913,2.411,2.49484
-0.569193,-0.279913,2.411,2.49304
-0.561368,-0.279913,2.411,2.49127
-0.557445,-0.281887,2.428,2.50707
-0.549564,-0.281887,2.428,2.50533
-0.541684,-0.281887,2.428,2.50361
-0.53754,-0.28386,2.445,2.51943
-0.529605,-0.28386,2.445,2.51775
-0.521669,-0.28386,2.445,2.5161
-0.517515,-0.28595,2.463,2.53297
-0.509521,-0.28595,2.463,2.53135
-0.501526,-0.28595,2.463,2.52976
-0.497139,-0.28804,2.481,2.54666
-0.489086,-0.28804,2.481,2.5451
-0.481034,-0.28804,2.481,2.54356
-0.476412,-0.29013,2.499,2.5605
-0.471674,-0.292219,2.517,2.57743
-0.463505,-0.292219,2.517,2.57595
-0.455335,-0.292219,2.517,2.57449
-0.447166,-0.292219,2.517,2.57306
-0.438996,-0.292219,2.517,2.57165
-0.430827,-0.292219,2.517,2.57027
-0.422657,-0.292219,2.517,2.56891
-0.414487,-0.292219,2.517,2.56758
-0.406318,-0.292219,2.517,2.56628
-0.398148,-0.292219,2.517,2.565
-0.389979,-0.292219,2.517,2.56374
-0.381809,-0.292219,2.517,2.56251
-0.37364,-0.292219,2.517,2.56131
-0.36547,-0.292219,2.517,2.56013
-0.357301,-0.292219,2.517,2.55897
-0.349131,-0.292219,2.517,2.55785
-0.343535,-0.294425,2.536,2.57604
-0.332792,-0.292219,2.517,2.55567
-0.324622,-0.292219,2.517,2.55462
-0.316453,-0.292219,2.517,2.55359
-0.308283,-0.292219,2.517,2.55259
-0.300114,-0.292219,2.517,2.55162
-0.291944,-0.292219,2.517,2.55067
-0.283775,-0.292219,2.517,2.54975
-0.275605,-0.292219,2.517,2.54885
-0.267435,-0.292219,2.517,2.54798
-0.259266,-0.292219,2.517,2.54714
-0.251096,-0.292219,2.517,2.54632
-0.242927,-0.292219,2.517,2.54552
-0.234757,-0.292219,2.517,2.54476
-0.226588,-0.292219,2.517,2.54402
-0.218418,-0.292219,2.517,2.5433
-0.210249,-0.292219,2.517,2.54261
-0.202079,-0.292219,2.517,2.54195
-0.192523,-0.29013,2.499,2.52314
-0.184412,-0.29013,2.499,2.52254
-0.1763,-0.29013,2.499,2.52196
-0.168189,-0.29013,2.499,2.5214
-0.160078,-0.29013,2.499,2.52087
-0.151967,-0.29013,2.499,2.52037
-0.143856,-0.29013,2.499,2.5199
-0.135745,-0.29013,2.499,2.51944
-0.127634,-0.29013,2.499,2.51902
-0.120383,-0.292219,2.517,2.53676
-0.112214,-0.292219,2.517,2.53639
-0.104044,-0.292219,2.517,2.53604
-0.0958747,-0.292219,2.517,2.53572
-0.0877052,-0.292219,2.517,2.53542
-0.0795356,-0.292219,2.517,2.53515
-0.0719048,-0.294425,2.536,2.55405
-0.0636736,-0.294425,2.536,2.55383
-0.0558577,-0.296631,2.555,2.57277
-0.0475648,-0.296631,2.555,2.5726
-0.0389799,-0.294425,2.536,2.55333
-0.0307487,-0.294425,2.536,2.55322
-0.0225174,-0.294425,2.536,2.55313
-0.0142862,-0.294425,2.536,2.55307
-0.00605498,-0.294425,2.536,2.55304
0.00217625,-0.294425,2.536,2.55303
0.0104075,-0.294425,2.536,2.55306
0.0186387,-0.294425,2.536,2.5531
0.0266686,-0.292219,2.517,2.53405
0.0348382,-0.292219,2.517,2.53415
0.0430077,-0.292219,2.517,2.53427
0.0511773,-0.292219,2.517,2.53442
0.0593468,-0.292219,2.517,2.5346
0.0675164,-0.292219,2.517,2.53481
0.075686,-0.292219,2.517,2.53504
0.0844885,-0.294425,2.536,2.55443
0.0927197,-0.294425,2.536,2.55472
0.100951,-0.294425,2.536,2.55503
0.109182,-0.294425,2.536,2.55537
0.117413,-0.294425,2.536,2.55573
0.125645,-0.294425,2.536,2.55612
0.133876,-0.294425,2.536,2.55654
0.143172,-0.296631,2.555,2.57614
0.151465,-0.296631,2.555,2.57662
0.159758,-0.296631,2.555,2.57712
0.1693,-0.298837,2.574,2.59681
0.178966,-0.301043,2.593,2.61654
0.187382,-0.301043,2.593,2.61713
0.195799,-0.301043,2.593,2.61775
0.20579,-0.303365,2.613,2.63859
0.214271,-0.303365,2.613,2.63926
0.222752,-0.303365,2.613,2.63997
0.231233,-0.303365,2.613,2.64069
0.239715,-0.303365,2.613,2.64145
0.248196,-0.303365,2.613,2.64223
0.256677,-0.303365,2.613,2.64304
0.265158,-0.303365,2.613,2.64388
0.273639,-0.303365,2.613,2.64475
0.28212,-0.303365,2.613,2.64564
0.290601,-0.303365,2.613,2.64655
0.296793,-0.301043,2.593,2.62723
0.30521,-0.301043,2.593,2.6282
0.313626,-0.301043,2.593,2.62919
0.319682,-0.298837,2.574,2.61093
0.328037,-0.298837,2.574,2.61197
0.336391,-0.298837,2.574,2.61303
0.344746,-0.298837,2.574,2.61412
0.353101,-0.298837,2.574,2.61524
0.358787,-0.296631,2.555,2.59706
0.36708,-0.296631,2.555,2.59822
0.375373,-0.296631,2.555,2.59941
0.383666,-0.296631,2.555,2.60062
0.391959,-0.296631,2.555,2.60185
0.400252,-0.296631,2.555,2.60312
0.408544,-0.296631,2.555,2.6044
0.416837,-0.296631,2.555,2.60572
0.42513,-0.296631,2.555,2.60706
0.433423,-0.296631,2.555,2.60842
0.441716,-0.296631,2.555,2.60981
0.450009,-0.296631,2.555,2.61123
0.458302,-0.296631,2.555,2.61267
0.466595,-0.296631,2.555,2.61414
0.474888,-0.296631,2.555,2.61563
0.48318,-0.296631,2.555,2.61715
0.491473,-0.296631,2.555,2.61869
0.499766,-0.296631,2.555,2.62026
0.508059,-0.296631,2.555,2.62186
0.516352,-0.296631,2.555,2.62348
0.524645,-0.296631,2.555,2.62512
0.532938,-0.296631,2.555,2.62679
0.541231,-0.296631,2.555,2.62849
0.549524,-0.296631,2.555,2.63021
0.557817,-0.296631,2.555,2.63195
0.566109,-0.296631,2.555,2.63372
0.574402,-0.296631,2.555,2.63552
0.582695,-0.296631,2.555,2.63734
0.590988,-0.296631,2.555,2.63918
0.599281,-0.296631,2.555,2.64105
0.607574,-0.296631,2.555,2.64295
0.615867,-0.296631,2.555,2.64486
0.619518,-0.294425,2.536,2.62712
0.627749,-0.294425,2.536,2.62908
0.635981,-0.294425,2.536,2.63106
0.644212,-0.294425,2.536,2.63306
0.652443,-0.294425,2.536,2.63508
0.660674,-0.294425,2.536,2.63713
0.663894,-0.292219,2.517,2.61943
0.672064,-0.292219,2.517,2.62152
0.680233,-0.292219,2.517,2.62362
0.688403,-0.292219,2.517,2.62575
0.691591,-0.29013,2.499,2.60911
0.699702,-0.29013,2.499,2.61128
0.707813,-0.29013,2.499,2.61346
0.715924,-0.29013,2.499,2.61567
0.724035,-0.29013,2.499,2.6179
0.732147,-0.29013,2.499,2.62016
0.740258,-0.29013,2.499,2.62243
0.748369,-0.29013,2.499,2.62473
0.75648,-0.29013,2.499,2.62706
0.764591,-0.29013,2.499,2.62941
0.772702,-0.29013,2.499,2.63178
0.780813,-0.29013,2.499,2.63417
0.788924,-0.29013,2.499,2.63658
0.802777,-0.292219,2.517,2.65803
0.810946,-0.292219,2.517,2.66051
0.819116,-0.292219,2.517,2.66301
0.827285,-0.292219,2.517,2.66554
0.835455,-0.292219,2.517,2.66808
0.843624,-0.292219,2.517,2.67065
0.845702,-0.29013,2.499,2.65413
0.853814,-0.29013,2.499,2.65672
0.861925,-0.29013,2.499,2.65934
0.870036,-0.29013,2.499,2.66198
