0.908362,0.0411304,2.428,2.59268
0.916243,0.0411304,2.428,2.59545
0.917653,0.0408424,2.411,2.58005
0.925479,0.0408424,2.411,2.58285
0.933304,0.0408424,2.411,2.58566
0.94113,0.0408424,2.411,2.5885
0.948955,0.0408424,2.411,2.59135
0.956781,0.0408424,2.411,2.59423
0.964606,0.0408424,2.411,2.59712
0.972432,0.0408424,2.411,2.60004
0.987169,0.0411304,2.428,2.62133
1.00202,0.0414184,2.445,2.64268
1.00995,0.0414184,2.445,2.6457
1.02538,0.0417233,2.463,2.66824
1.03338,0.0417233,2.463,2.67132
1.04137,0.0417233,2.463,2.67443
1.0647,0.0423331,2.499,2.71669
1.08054,0.0426381,2.517,2.73947
1.08871,0.0426381,2.517,2.7427
1.11344,0.0432818,2.555,2.78741
1.13842,0.0439255,2.593,2.83224
1.16452,0.0446031,2.633,2.87937
1.17307,0.0446031,2.633,2.88284
1.20046,0.0453146,2.675,2.93237
1.21864,0.0456703,2.696,2.95898
1.22739,0.0456703,2.696,2.9626
1.25586,0.0463987,2.739,3.01354
1.27491,0.0467714,2.761,3.0415
1.28387,0.0467714,2.761,3.04526
1.30313,0.0471441,2.783,3.07335
1.31216,0.0471441,2.783,3.07719
1.3212,0.0471441,2.783,3.08105
1.33023,0.0471441,2.783,3.08493
1.35033,0.0475337,2.806,3.11437
1.35944,0.0475337,2.806,3.11833
1.36854,0.0475337,2.806,3.12231
1.38894,0.0479233,2.829,3.15194
1.39813,0.0479233,2.829,3.15599
1.40731,0.0479233,2.829,3.16007
1.42851,0.0483299,2.853,3.19102
1.44986,0.0487365,2.877,3.22205
1.47137,0.049143,2.901,3.25318
1.48079,0.049143,2.901,3.25745
1.51589,0.04999,2.951,3.31795
1.53891,0.0504305,2.977,3.35161
1.54857,0.0504305,2.977,3.35606
1.58598,0.0513283,3.03,3.42036
1.61003,0.0517857,3.057,3.45545
1.61995,0.0517857,3.057,3.46008
1.64427,0.0522431,3.084,3.49534
1.6693,0.0527174,3.112,3.53184
1.69505,0.0532086,3.141,3.56958
1.70524,0.0532086,3.141,3.57443
1.71544,0.0532086,3.141,3.57931
1.72563,0.0532086,3.141,3.58421
1.73583,0.0532086,3.141,3.58912
1.74602,0.0532086,3.141,3.59407
1.75622,0.0532086,3.141,3.59903
1.76641,0.0532086,3.141,3.60402
1.77661,0.0532086,3.141,3.60902
1.7868,0.0532086,3.141,3.61405
1.797,0.0532086,3.141,3.6191
1.80719,0.0532086,3.141,3.62418
1.81739,0.0532086,3.141,3.62927
1.82758,0.0532086,3.141,3.63439
1.82081,0.0527174,3.112,3.60592
1.83091,0.0527174,3.112,3.61103
1.84101,0.0527174,3.112,3.61617
1.83446,0.0522431,3.084,3.58874
1.82832,0.0517857,3.057,3.5624
1.83824,0.0517857,3.057,3.5675
1.84816,0.0517857,3.057,3.57262
1.84168,0.0513283,3.03,3.54617
1.85151,0.0513283,3.03,3.55129
1.84476,0.0508709,3.003,3.52473
1.83845,0.0504305,2.977,3.49928
1.84811,0.0504305,2.977,3.50437
1.84155,0.04999,2.951,3.47882
1.83545,0.0495665,2.926,3.45439
1.81405,0.0487365,2.877,3.40151
1.82338,0.0487365,2.877,3.4065
1.80215,0.0479233,2.829,3.35459
1.78187,0.0471441,2.783,3.3049
1.79091,0.0471441,2.783,3.30978
1.77148,0.0463987,2.739,3.26227
1.75242,0.0456703,2.696,3.21582
1.76117,0.0456703,2.696,3.2206
1.74235,0.0449588,2.654,3.17514
1.72392,0.0442643,2.613,3.13075
1.7324,0.0442643,2.613,3.13543
1.71489,0.0436036,2.574,3.09326
1.71053,0.0432818,2.555,3.07503
1.71882,0.0432818,2.555,3.07965
1.70143,0.0426381,2.517,3.03841
1.69737,0.0423331,2.499,3.02124
-1.93066,0.0561745,2.783,3.38758
-1.92163,0.0561745,2.783,3.38244
-1.91259,0.0561745,2.783,3.37731
-1.90356,0.0561745,2.783,3.37221
-1.87955,0.0557304,2.761,3.3405
-1.87059,0.0557304,2.761,3.33547
-1.86163,0.0557304,2.761,3.33045
-1.8379,0.0552864,2.739,3.29895
-1.82901,0.0552864,2.739,3.294
-1.8055,0.0548423,2.717,3.26266
-1.79668,0.0548423,2.717,3.25779
-1.78787,0.0548423,2.717,3.25293
-1.77905,0.0548423,2.717,3.24809
-1.74286,0.0539945,2.675,3.19314
-1.73418,0.0539945,2.675,3.18841
-1.7255,0.0539945,2.675,3.18369
-1.70334,0.0535706,2.654,3.15404
-1.68132,0.0531468,2.633,3.12447
-1.67277,0.0531468,2.633,3.11988
-1.65158,0.0527431,2.613,3.09165
-1.6431,0.0527431,2.613,3.08712
-1.62211,0.0523394,2.593,3.05902
-1.61369,0.0523394,2.593,3.05457
-1.60528,0.0523394,2.593,3.05013
-1.59686,0.0523394,2.593,3.04571
-1.58844,0.0523394,2.593,3.04131
-1.58003,0.0523394,2.593,3.03692
-1.58373,0.0527431,2.613,3.05594
-1.57525,0.0527431,2.613,3.05155
-1.56677,0.0527431,2.613,3.04718
-1.57022,0.0531468,2.633,3.06612
-1.56167,0.0531468,2.633,3.06175
-1.55312,0.0531468,2.633,3.0574
-1.54458,0.0531468,2.633,3.05307
-1.53603,0.0531468,2.633,3.04876
-1.52749,0.0531468,2.633,3.04446
-1.51894,0.0531468,2.633,3.04018
-1.49892,0.0527431,2.613,3.01286
-1.49044,0.0527431,2.613,3.00865
-1.47062,0.0523394,2.593,2.98146
-1.4622,0.0523394,2.593,2.97732
-1.45378,0.0523394,2.593,2.97319
-1.43478,0.0519558,2.574,2.94733
-1.42642,0.0519558,2.574,2.94327
-1.41807,0.0519558,2.574,2.93923
-1.40971,0.0519558,2.574,2.93521
-1.40136,0.0519558,2.574,2.93121
-1.38272,0.0515723,2.555,2.90562
-1.37443,0.0515723,2.555,2.90168
-1.36614,0.0515723,2.555,2.89776
-1.36794,0.0519558,2.574,2.91538
-1.35959,0.0519558,2.574,2.91147
-1.35123,0.0519558,2.574,2.90758
-1.34288,0.0519558,2.574,2.9037
-1.35474,0.0527431,2.613,2.94379
-1.34626,0.0527431,2.613,2.93989
-1.33778,0.0527431,2.613,2.93602
-1.3293,0.0527431,2.613,2.93216
-1.32082,0.0527431,2.613,2.92833
-1.31234,0.0527431,2.613,2.92451
-1.29387,0.0523394,2.593,2.89836
-1.28546,0.0523394,2.593,2.89461
-1.26769,0.0519558,2.574,2.8697
-1.25003,0.0515723,2.555,2.84487
-1.24174,0.0515723,2.555,2.84123
-1.22428,0.0511888,2.536,2.81652
-1.20693,0.0508053,2.517,2.79187
-1.19019,0.050442,2.499,2.76841
-1.18208,0.050442,2.499,2.76493
-1.16551,0.0500787,2.481,2.74159
-1.14906,0.0497153,2.463,2.71831
-1.14107,0.0497153,2.463,2.71494
-1.12479,0.049352,2.445,2.69177
-1.10909,0.0490089,2.428,2.66977
-1.10121,0.0490089,2.428,2.66651
-1.09333,0.0490089,2.428,2.66326
-1.08545,0.0490089,2.428,2.66004
-1.07757,0.0490089,2.428,2.65683
-1.0622,0.0486657,2.411,2.63506
-1.05437,0.0486657,2.411,2.63192
-1.03917,0.0483226,2.394,2.61026
-1.0314,0.0483226,2.394,2.60717
-1.02363,0.0483226,2.394,2.60411
-1.01586,0.0483226,2.394,2.60107
-1.00809,0.0483226,2.394,2.59804
-1.00032,0.0483226,2.394,2.59504
-0.992548,0.0483226,2.394,2.59205
-0.99177,0.0486657,2.411,2.60747
-0.977007,0.0483226,2.394,2.58614
-0.969237,0.0483226,2.394,2.58321
-0.968294,0.0486657,2.411,2.59863
-0.960468,0.0486657,2.411,2.59573
-0.952643,0.0486657,2.411,2.59284
-0.944817,0.0486657,2.411,2.58997
-0.936992,0.0486657,2.411,2.58713
-0.929166,0.0486657,2.411,2.58431
-0.921341,0.0486657,2.411,2.5815
-0.913515,0.0486657,2.411,2.57872
-0.90569,0.0486657,2.411,2.57596
-0.897864,0.0486657,2.411,2.57322
-0.896315,0.0490089,2.428,2.58862
-0.888434,0.0490089,2.428,2.5859
-0.880553,0.0490089,2.428,2.58321
-0.872672,0.0490089,2.428,2.58053
-0.870847,0.049352,2.445,2.59593
-0.862911,0.049352,2.445,2.59328
-0.854975,0.049352,2.445,2.59065
-0.847039,0.049352,2.445,2.58804
-0.839103,0.049352,2.445,2.58545
-0.831167,0.049352,2.445,2.58289
-0.823232,0.049352,2.445,2.58034
-0.821298,0.0497153,2.463,2.5968
-0.813304,0.0497153,2.463,2.59428
-0.811195,0.0500787,2.481,2.61073
-0.803142,0.0500787,2.481,2.60824
-0.795089,0.0500787,2.481,2.60577
-0.787037,0.0500787,2.481,2.60332
-0.778984,0.0500787,2.481,2.6009
-0.770931,0.0500787,2.481,2.5985
-0.768413,0.050442,2.499,2.61496
-0.760302,0.050442,2.499,2.61259
-0.752191,0.050442,2.499,2.61024
-0.74408,0.050442,2.499,2.60791
-0.735969,0.050442,2.499,2.60561
-0.727858,0.050442,2.499,2.60333
-0.719746,0.050442,2.499,2.60107
-0.711635,0.050442,2.499,2.59884
-0.703524,0.050442,2.499,2.59663
-0.695413,0.050442,2.499,2.59444
-0.687302,0.050442,2.499,2.59228
-0.679191,0.050442,2.499,2.59014
-0.67108,0.050442,2.499,2.58803
-0.662968,0.050442,2.499,2.58594
-0.654857,0.050442,2.499,2.58387
-0.646746,0.050442,2.499,2.58183
-0.638635,0.050442,2.499,2.57981
-0.630524,0.050442,2.499,2.57781
-0.622413,0.050442,2.499,2.57584
-0.614302,0.050442,2.499,2.57389
-0.606191,0.050442,2.499,2.57197
-0.598079,0.050442,2.499,2.57007
-0.589968,0.050442,2.499,2.56819
-0.581857,0.050442,2.499,2.56634
-0.573746,0.050442,2.499,2.56451
-0.565635,0.050442,2.499,2.56271
-0.557524,0.050442,2.499,2.56093
-0.55337,0.0508053,2.517,2.57761
-0.5452,0.0508053,2.517,2.57587
-0.537031,0.0508053,2.517,2.57415
-0.528861,0.0508053,2.517,2.57246
-0.520692,0.0508053,2.517,2.5708
-0.512522,0.0508053,2.517,2.56915
-0.504353,0.0508053,2.517,2.56754
-0.499929,0.0511888,2.536,2.58531
-0.491697,0.0511888,2.536,2.58373
-0.483466,0.0511888,2.536,2.58218
-0.475235,0.0511888,2.536,2.58065
-0.467004,0.0511888,2.536,2.57915
-0.458772,0.0511888,2.536,2.57767
-0.453917,0.0515723,2.555,2.59552
-0.445624,0.0515723,2.555,2.59408
-0.437331,0.0515723,2.555,2.59267
-0.432229,0.0519558,2.574,2.61055
-0.423874,0.0519558,2.574,2.60918
-0.415519,0.0519558,2.574,2.60784
-0.41017,0.0523394,2.593,2.62576
-0.39881,0.0519558,2.574,2.60523
-0.390456,0.0519558,2.574,2.60396
-0.379281,0.0515723,2.555,2.58351
-0.370988,0.0515723,2.555,2.58231
-0.362695,0.0515723,2.555,2.58113
-0.354402,0.0515723,2.555,2.57998
-0.346109,0.0515723,2.555,2.57885
-0.337816,0.0515723,2.555,2.57775
-0.329523,0.0515723,2.555,2.57668
-0.318842,0.0511888,2.536,2.55648
-0.31061,0.0511888,2.536,2.55546
-0.302379,0.0511888,2.536,2.55448
-0.294148,0.0511888,2.536,2.55351
-0.285917,0.0511888,2.536,2.55258
-0.277685,0.0511888,2.536,2.55167
-0.269454,0.0511888,2.536,2.55079
-0.261223,0.0511888,2.536,2.54993
-0.252992,0.0511888,2.536,2.5491
-0.244761,0.0511888,2.536,2.5483
-0.236529,0.0511888,2.536,2.54752
-0.228298,0.0511888,2.536,2.54677
-0.220067,0.0511888,2.536,2.54605
-0.211836,0.0511888,2.536,2.54535
-0.20513,0.0515723,2.555,2.56374
-0.196837,0.0515723,2.555,2.56309
-0.188544,0.0515723,2.555,2.56247
-0.180251,0.0515723,2.555,2.56187
-0.171958,0.0515723,2.555,2.5613
-0.163665,0.0515723,2.555,2.56076
-0.155372,0.0515723,2.555,2.56024
-0.14708,0.0515723,2.555,2.55975
-0.137755,0.0511888,2.536,2.54025
-0.129523,0.0511888,2.536,2.53982
-0.121292,0.0511888,2.536,2.53941
-0.113061,0.0511888,2.536,2.53904
-0.105615,0.0515723,2.555,2.5577
-0.0973222,0.0515723,2.555,2.55737
-0.0890293,0.0515723,2.555,2.55707
-0.0807364,0.0515723,2.555,2.5568
-0.0729822,0.0519558,2.574,2.57556
-0.0646277,0.0519558,2.574,2.57534
-0.0562731,0.0519558,2.574,2.57514
-0.0479185,0.0519558,2.574,2.57497
-0.039564,0.0519558,2.574,2.57483
-0.0312094,0.0519558,2.574,2.57471
-0.0228548,0.0519558,2.574,2.57463
-0.0145003,0.0519558,2.574,2.57457
-0.00614571,0.0519558,2.574,2.57453
0.00220886,0.0519558,2.574,2.57453
0.0104854,0.0515723,2.555,2.55554
0.0187783,0.0515723,2.555,2.55559
0.0270712,0.0515723,2.555,2.55566
0.0353641,0.0515723,2.555,2.55577
0.043657,0.0515723,2.555,2.55589
0.0515636,0.0511888,2.536,2.53704
0.0597948,0.0511888,2.536,2.53722
0.0680261,0.0511888,2.536,2.53743
0.0762573,0.0511888,2.536,2.53766
0.0844885,0.0511888,2.536,2.53792
0.0927197,0.0511888,2.536,2.53821
0.100951,0.0511888,2.536,2.53852
0.109182,0.0511888,2.536,2.53887
0.117413,0.0511888,2.536,2.53923
0.126586,0.0515723,2.555,2.55865
0.134879,0.0515723,2.555,2.55908
0.143172,0.0515723,2.555,2.55953
0.152591,0.0519558,2.574,2.57904
0.160946,0.0519558,2.574,2.57955
0.1693,0.0519558,2.574,2.58009
0.177655,0.0519558,2.574,2.58065
0.184636,0.0515723,2.555,2.56218
0.192929,0.0515723,2.555,2.56279
0.201222,0.0515723,2.555,2.56343
0.209515,0.0515723,2.555,2.56409
0.217808,0.0515723,2.555,2.56479
0.224419,0.0511888,2.536,2.54642
0.232651,0.0511888,2.536,2.54716
0.240882,0.0511888,2.536,2.54793
0.249113,0.0511888,2.536,2.54872
nan,nan,nan,NaN
nan,nan,nan,NaN
nan,nan,nan,NaN
nan,nan,nan,NaN
nan,nan,nan,NaN
nan,nan,nan,NaN
nan,nan,nan,NaN
nan,nan,nan,NaN
nan,nan,nan,NaN
nan,nan,nan,NaN
nan,nan,nan,NaN
nan,nan,nan,NaN
nan,nan,nan,NaN
nan,nan,nan,NaN
nan,nan,nan,NaN
nan,nan,nan,NaN
nan,nan,nan,NaN
nan,nan,nan,NaN
nan,nan,nan,NaN
nan,nan,nan,NaN
nan,nan,nan,NaN
nan,nan,nan,NaN
nan,nan,nan,NaN
nan,nan,nan,NaN
nan,nan,nan,NaN
nan,nan,nan,NaN
nan,nan,nan,NaN
nan,nan,nan,NaN
nan,nan,nan,NaN
nan,nan,nan,NaN
nan,nan,nan,NaN
nan,nan,nan,NaN
nan,nan,nan,NaN
nan,nan,nan,NaN
nan,nan,nan,NaN
nan,nan,nan,NaN
nan,nan,nan,NaN
nan,nan,nan,NaN
nan,nan,nan,NaN
nan,nan,nan,NaN
nan,nan,nan,NaN
nan,nan,nan,NaN
nan,nan,nan,NaN
nan,nan,nan,NaN
nan,nan,nan,NaN
nan,nan,nan,NaN
nan,nan,nan,NaN
nan,nan,nan,NaN
nan,nan,nan,NaN
nan,nan,nan,NaN
0.663894,0.0508053,2.517,2.60358
0.672064,0.0508053,2.517,2.60567
0.680233,0.0508053,2.517,2.60779
0.688403,0.0508053,2.517,2.60994
0.70183,0.0511888,2.536,2.63182
0.715382,0.0515723,2.555,2.65376
0.729056,0.0519558,2.574,2.67576
0.737411,0.0519558,2.574,2.67805
0.745765,0.0519558,2.574,2.68036
0.75412,0.0519558,2.574,2.6827
0.762474,0.0519558,2.574,2.68506
0.770829,0.0519558,2.574,2.68744
0.779183,0.0519558,2.574,2.68985
0.787538,0.0519558,2.574,2.69228
0.790018,0.0515723,2.555,2.67485
0.798311,0.0515723,2.555,2.67731
0.806603,0.0515723,2.555,2.67979
0.808836,0.0511888,2.536,2.66235
0.810946,0.0508053,2.517,2.6449
0.819116,0.0508053,2.517,2.64742
0.827285,0.0508053,2.517,2.64996
0.82948,0.050442,2.499,2.63355
0.837591,0.050442,2.499,2.63612
0.839611,0.0500787,2.481,2.6197
0.841514,0.0497153,2.463,2.60326
0.849508,0.0497153,2.463,2.60586
0.857502,0.0497153,2.463,2.60848
0.859171,0.049352,2.445,2.59203
0.867107,0.049352,2.445,2.59467
0.875043,0.049352,2.445,2.59734
0.87684,0.0490089,2.428,2.58194
0.88472,0.0490089,2.428,2.58463
0.892601,0.0490089,2.428,2.58734
0.900482,0.0490089,2.428,2.59007
0.908362,0.0490089,2.428,2.59282
0.916243,0.0490089,2.428,2.59559
0.917653,0.0486657,2.411,2.58019
0.925479,0.0486657,2.411,2.58298
0.933304,0.0486657,2.411,2.5858
0.94113,0.0486657,2.411,2.58863
0.948955,0.0486657,2.411,2.59149
0.956781,0.0486657,2.411,2.59436
0.964606,0.0486657,2.411,2.59726
0.972432,0.0486657,2.411,2.60018
0.987169,0.0490089,2.428,2.62147
1.00202,0.049352,2.445,2.64282
1.00995,0.049352,2.445,2.64584
1.02538,0.0497153,2.463,2.66838
1.03338,0.0497153,2.463,2.67146
1.04137,0.0497153,2.463,2.67456
1.0647,0.050442,2.499,2.71683
1.08054,0.0508053,2.517,2.73961
1.08871,0.0508053,2.517,2.74284
1.11344,0.0515723,2.555,2.78755
1.13842,0.0523394,2.593,2.83238
1.16452,0.0531468,2.633,2.87952
1.17307,0.0531468,2.633,2.88299
1.19104,0.0535706,2.654,2.9095
1.20915,0.0539945,2.675,2.93608
1.21783,0.0539945,2.675,2.93967
1.23614,0.0544184,2.696,2.96638
1.26475,0.0552864,2.739,3.01741
1.27364,0.0552864,2.739,3.02115
1.28253,0.0552864,2.739,3.02491
1.30179,0.0557304,2.761,3.05301
1.31075,0.0557304,2.761,3.05684
1.31971,0.0557304,2.761,3.0607
1.32867,0.0557304,2.761,3.06457
1.33764,0.0557304,2.761,3.06847
1.3466,0.0557304,2.761,3.07239
1.36636,0.0561745,2.783,3.10084
1.37539,0.0561745,2.783,3.10483
1.38443,0.0561745,2.783,3.10884
1.40498,0.0566387,2.806,3.1386
1.43777,0.0575874,2.853,3.19533
1.4592,0.0580719,2.877,3.22642
1.46854,0.0580719,2.877,3.23065
1.50305,0.0590609,2.926,3.29
1.53891,0.0600903,2.977,3.35177
1.54857,0.0600903,2.977,3.35622
1.57184,0.0606152,3.003,3.39004
1.61003,0.0617051,3.057,3.45561
1.61995,0.0617051,3.057,3.46025
1.64427,0.0622501,3.084,3.49551
1.6693,0.0628153,3.112,3.532
1.69505,0.0634007,3.141,3.56975
1.70524,0.0634007,3.141,3.5746
1.71544,0.0634007,3.141,3.57947
1.72563,0.0634007,3.141,3.58437
1.73583,0.0634007,3.141,3.58929
1.74602,0.0634007,3.141,3.59423
1.75622,0.0634007,3.141,3.5992
1.76641,0.0634007,3.141,3.60418
1.79301,0.063986,3.17,3.64251
1.8033,0.063986,3.17,3.64759
1.81359,0.063986,3.17,3.65268
1.80719,0.0634007,3.141,3.62434
1.81739,0.0634007,3.141,3.62944
1.82758,0.0634007,3.141,3.63455
1.82081,0.0628153,3.112,3.60608
1.83091,0.0628153,3.112,3.61119
1.84101,0.0628153,3.112,3.61633
1.83446,0.0622501,3.084,3.5889
1.84447,0.0622501,3.084,3.59402
1.85448,0.0622501,3.084,3.59917
1.84816,0.0617051,3.057,3.57278
1.84168,0.0611602,3.03,3.54632
1.85151,0.0611602,3.03,3.55144
1.84476,0.0606152,3.003,3.52489
1.83845,0.0600903,2.977,3.49943
1.84811,0.0600903,2.977,3.50452
1.84155,0.0595655,2.951,3.47897
1.83545,0.0590609,2.926,3.45454
1.81405,0.0580719,2.877,3.40166
1.82338,0.0580719,2.877,3.40665
1.80215,0.057103,2.829,3.35473
1.78187,0.0561745,2.783,3.30505
1.79091,0.0561745,2.783,3.30992
1.75725,0.0548423,2.717,3.23621
1.73877,0.0539945,2.675,3.1909
1.74746,0.0539945,2.675,3.19564
1.72856,0.0531468,2.633,3.15015
1.72392,0.0527431,2.613,3.13088
1.7324,0.0527431,2.613,3.13556
1.71489,0.0519558,2.574,3.09339
1.69781,0.0511888,2.536,3.05229
1.70604,0.0511888,2.536,3.05688
1.70143,0.0508053,2.517,3.03854
1.68515,0.0500787,2.481,2.9996
-1.93066,0.0652049,2.783,3.38774
-1.92163,0.0652049,2.783,3.3826
-1.91259,0.0652049,2.783,3.37748
-1.90356,0.0652049,2.783,3.37237
-1.89453,0.0652049,2.783,3.36728
-1.88549,0.0652049,2.783,3.36221
-1.86163,0.0646894,2.761,3.33061
-1.8379,0.064174,2.739,3.29911
-1.82901,0.064174,2.739,3.29417
-1.82012,0.064174,2.739,3.28924
-1.79668,0.0636585,2.717,3.25795
-1.78787,0.0636585,2.717,3.25309
-1.77905,0.0636585,2.717,3.24825
-1.74286,0.0626745,2.675,3.19329
-1.73418,0.0626745,2.675,3.18856
-1.7255,0.0626745,2.675,3.18385
-1.70334,0.0621824,2.654,3.1542
-1.68132,0.0616904,2.633,3.12463
-1.67277,0.0616904,2.633,3.12004
-1.65158,0.0612218,2.613,3.0918
-1.6431,0.0612218,2.613,3.08728
-1.62211,0.0607532,2.593,3.05918
-1.61369,0.0607532,2.593,3.05472
-1.60528,0.0607532,2.593,3.05029
-1.59686,0.0607532,2.593,3.04587
-1.58844,0.0607532,2.593,3.04146
-1.58003,0.0607532,2.593,3.03708
-1.58373,0.0612218,2.613,3.0561
-1.57525,0.0612218,2.613,3.05171
-1.56677,0.0612218,2.613,3.04734
-1.57022,0.0616904,2.633,3.06628
-1.56167,0.0616904,2.633,3.06191
-1.55312,0.0616904,2.633,3.05756
-1.54458,0.0616904,2.633,3.05323
-1.53603,0.0616904,2.633,3.04892
-1.52749,0.0616904,2.633,3.04462
-1.51894,0.0616904,2.633,3.04034
-1.49892,0.0612218,2.613,3.01302
-1.49044,0.0612218,2.613,3.00881
-1.47062,0.0607532,2.593,2.98162
-1.4622,0.0607532,2.593,2.97748
-1.45378,0.0607532,2.593,2.97335
-1.43478,0.0603081,2.574,2.94749
-1.42642,0.0603081,2.574,2.94343
-1.41807,0.0603081,2.574,2.93939
-1.40971,0.0603081,2.574,2.93537
-1.40136,0.0603081,2.574,2.93137
-1.38272,0.0598629,2.555,2.90577
-1.37443,0.0598629,2.555,2.90184
-1.36614,0.0598629,2.555,2.89792
-1.36794,0.0603081,2.574,2.91554
-1.35959,0.0603081,2.574,2.91163
-1.35123,0.0603081,2.574,2.90774
-1.34288,0.0603081,2.574,2.90386
-1.33452,0.0603081,2.574,2.90001
-1.32617,0.0603081,2.574,2.89618
-1.31781,0.0603081,2.574,2.89236
-1.30946,0.0603081,2.574,2.88856
-1.3011,0.0603081,2.574,2.88478
-1.29275,0.0603081,2.574,2.88103
-1.27491,0.0598629,2.555,2.85605
-1.26662,0.0598629,2.555,2.85236
-1.25833,0.0598629,2.555,2.84868
-1.24074,0.0594177,2.536,2.82387
-1.23251,0.0594177,2.536,2.82027
-1.2151,0.0589726,2.517,2.79558
-1.1983,0.0585508,2.499,2.77207
-1.19019,0.0585508,2.499,2.76857
-1.18208,0.0585508,2.499,2.76509
-1.15706,0.0577074,2.463,2.72185
-1.14067,0.0572856,2.445,2.6986
-1.13273,0.0572856,2.445,2.69525
-1.11697,0.0568873,2.428,2.67321
-1.10909,0.0568873,2.428,2.66993
-1.10121,0.0568873,2.428,2.66666
-1.09333,0.0568873,2.428,2.66342
-1.07785,0.056489,2.411,2.64157
-1.07003,0.056489,2.411,2.63838
-1.0622,0.056489,2.411,2.63522
-1.05437,0.056489,2.411,2.63207
-1.03917,0.0560907,2.394,2.61041
-1.0314,0.0560907,2.394,2.60733
-1.02363,0.0560907,2.394,2.60427
-1.01586,0.0560907,2.394,2.60122
-1.00809,0.0560907,2.394,2.5982
-1.00032,0.0560907,2.394,2.59519
-0.992548,0.0560907,2.394,2.59221
-0.99177,0.056489,2.411,2.60763
-0.977007,0.0560907,2.394,2.5863
-0.969237,0.0560907,2.394,2.58337
-0.968294,0.056489,2.411,2.59879
-0.960468,0.056489,2.411,2.59588
-0.952643,0.056489,2.411,2.593
-0.944817,0.056489,2.411,2.59013
-0.936992,0.056489,2.411,2.58729
-0.929166,0.056489,2.411,2.58447
-0.921341,0.056489,2.411,2.58166
-0.913515,0.056489,2.411,2.57888
-0.90569,0.056489,2.411,2.57612
-0.897864,0.056489,2.411,2.57338
-0.896315,0.0568873,2.428,2.58878
-0.888434,0.0568873,2.428,2.58607
-0.880553,0.0568873,2.428,2.58337
-0.872672,0.0568873,2.428,2.58069
-0.864792,0.0568873,2.428,2.57804
-0.856911,0.0568873,2.428,2.57541
-0.854975,0.0572856,2.445,2.59081
-0.847039,0.0572856,2.445,2.5882
-0.839103,0.0572856,2.445,2.58561
-0.831167,0.0572856,2.445,2.58305
-0.823232,0.0572856,2.445,2.58051
-0.821298,0.0577074,2.463,2.59697
-0.813304,0.0577074,2.463,2.59445
-0.805309,0.0577074,2.463,2.59195
-0.797315,0.0577074,2.463,2.58948
-0.789321,0.0577074,2.463,2.58703
-0.787037,0.0581291,2.481,2.60349
-0.778984,0.0581291,2.481,2.60107
-0.770931,0.0581291,2.481,2.59867
-0.768413,0.0585508,2.499,2.61513
-0.760302,0.0585508,2.499,2.61276
-0.752191,0.0585508,2.499,2.61041
-0.74408,0.0585508,2.499,2.60808
-0.735969,0.0585508,2.499,2.60578
-0.727858,0.0585508,2.499,2.6035
-0.719746,0.0585508,2.499,2.60124
-0.711635,0.0585508,2.499,2.59901
-0.703524,0.0585508,2.499,2.5968
-0.695413,0.0585508,2.499,2.59462
-0.687302,0.0585508,2.499,2.59245
-0.679191,0.0585508,2.499,2.59031
-0.67108,0.0585508,2.499,2.5882
-0.662968,0.0585508,2.499,2.58611
-0.654857,0.0585508,2.499,2.58404
-0.646746,0.0585508,2.499,2.582
-0.638635,0.0585508,2.499,2.57998
-0.630524,0.0585508,2.499,2.57798
-0.622413,0.0585508,2.499,2.57601
-0.614302,0.0585508,2.499,2.57406
-0.606191,0.0585508,2.499,2.57214
-0.598079,0.0585508,2.499,2.57024
-0.589968,0.0585508,2.499,2.56836
-0.581857,0.0585508,2.499,2.56651
-0.573746,0.0585508,2.499,2.56469
-0.565635,0.0585508,2.499,2.56288
-0.557524,0.0585508,2.499,2.56111
-0.549413,0.0585508,2.499,2.55935
-0.541301,0.0585508,2.499,2.55762
-0.53319,0.0585508,2.499,2.55592
-0.525079,0.0585508,2.499,2.55424
-0.516968,0.0585508,2.499,2.55258
-0.508857,0.0585508,2.499,2.55095
-0.500746,0.0585508,2.499,2.54935
-0.496183,0.0589726,2.517,2.56612
-0.488013,0.0589726,2.517,2.56455
-0.479844,0.0589726,2.517,2.56301
-0.475235,0.0594177,2.536,2.58083
-0.467004,0.0594177,2.536,2.57933
-0.458772,0.0594177,2.536,2.57785
-0.453917,0.0598629,2.555,2.5957
-0.445624,0.0598629,2.555,2.59426
-0.437331,0.0598629,2.555,2.59285
-0.429038,0.0598629,2.555,2.59146
-0.423874,0.0603081,2.574,2.60936
-0.415519,0.0603081,2.574,2.60802
-0.407165,0.0603081,2.574,2.6067
-0.39881,0.0603081,2.574,2.60541
-0.390456,0.0603081,2.574,2.60414
-0.382101,0.0603081,2.574,2.60291
-0.370988,0.0598629,2.555,2.58249
-0.362695,0.0598629,2.555,2.58131
-0.354402,0.0598629,2.555,2.58016
-0.346109,0.0598629,2.555,2.57903
-0.337816,0.0598629,2.555,2.57793
-0.329523,0.0598629,2.555,2.57686
-0.32123,0.0598629,2.555,2.57581
-0.312937,0.0598629,2.555,2.57479
-0.302379,0.0594177,2.536,2.55465
-0.294148,0.0594177,2.536,2.55369
-0.285917,0.0594177,2.536,2.55276
-0.277685,0.0594177,2.536,2.55185
-0.269454,0.0594177,2.536,2.55097
-0.261223,0.0594177,2.536,2.55011
-0.252992,0.0594177,2.536,2.54928
-0.244761,0.0594177,2.536,2.54848
-0.236529,0.0594177,2.536,2.5477
-0.228298,0.0594177,2.536,2.54695
-0.220067,0.0594177,2.536,2.54622
-0.211836,0.0594177,2.536,2.54553
-0.20513,0.0598629,2.555,2.56392
-0.196837,0.0598629,2.555,2.56327
-0.188544,0.0598629,2.555,2.56265
-0.180251,0.0598629,2.555,2.56205
-0.171958,0.0598629,2.555,2.56148
-0.163665,0.0598629,2.555,2.56094
-0.155372,0.0598629,2.555,2.56042
-0.14708,0.0598629,2.555,2.55993
-0.137755,0.0594177,2.536,2.54043
-0.129523,0.0594177,2.536,2.54
-0.121292,0.0594177,2.536,2.53959
-0.113061,0.0594177,2.536,2.53921
-0.105615,0.0598629,2.555,2.55788
-0.0973222,0.0598629,2.555,2.55755
-0.0890293,0.0598629,2.555,2.55725
-0.0807364,0.0598629,2.555,2.55698
-0.0729822,0.0603081,2.574,2.57574
-0.0646277,0.0603081,2.574,2.57552
-0.0562731,0.0603081,2.574,2.57532
-0.0479185,0.0603081,2.574,2.57515
-0.039564,0.0603081,2.574,2.57501
-0.0312094,0.0603081,2.574,2.5749
-0.0228548,0.0603081,2.574,2.57481
-0.0145003,0.0603081,2.574,2.57475
-0.00614571,0.0603081,2.574,2.57471
0.00220886,0.0603081,2.574,2.57471
0.0104854,0.0598629,2.555,2.55572
0.0187783,0.0598629,2.555,2.55577
0.0270712,0.0598629,2.555,2.55584
0.0353641,0.0598629,2.555,2.55595
0.043657,0.0598629,2.555,2.55607
0.0515636,0.0594177,2.536,2.53722
0.0597948,0.0594177,2.536,2.5374
0.0685357,0.0598629,2.555,2.55662
0.0768286,0.0598629,2.555,2.55686
0.0851215,0.0598629,2.555,2.55712
0.0934144,0.0598629,2.555,2.55741
0.101707,0.0598629,2.555,2.55772
0.109182,0.0594177,2.536,2.53904
0.117413,0.0594177,2.536,2.53941
0.126586,0.0598629,2.555,2.55883
0.134879,0.0598629,2.555,2.55926
0.143172,0.0598629,2.555,2.55971
0.152591,0.0603081,2.574,2.57922
0.160946,0.0603081,2.574,2.57973
0.1693,0.0603081,2.574,2.58027
0.177655,0.0603081,2.574,2.58083
0.184636,0.0598629,2.555,2.56236
0.192929,0.0598629,2.555,2.56297
0.201222,0.0598629,2.555,2.56361
0.209515,0.0598629,2.555,2.56427
0.216188,0.0594177,2.536,2.54589
0.224419,0.0594177,2.536,2.5466
0.232651,0.0594177,2.536,2.54734
0.240882,0.0594177,2.536,2.54811
0.249113,0.0594177,2.536,2.5489
nan,nan,nan,NaN
nan,nan,nan,NaN
nan,nan,nan,NaN
nan,nan,nan,NaN
nan,nan,nan,NaN
nan,nan,nan,NaN
nan,nan,nan,NaN
nan,nan,nan,NaN
nan,nan,nan,NaN
nan,nan,nan,NaN
nan,nan,nan,NaN
nan,nan,nan,NaN
nan,nan,nan,NaN
nan,nan,nan,NaN
nan,nan,nan,NaN
nan,nan,nan,NaN
nan,nan,nan,NaN
nan,nan,nan,NaN
nan,nan,nan,NaN
nan,nan,nan,NaN
nan,nan,nan,NaN
nan,nan,nan,NaN
nan,nan,nan,NaN
nan,nan,nan,NaN
nan,nan,nan,NaN
nan,nan,nan,NaN
nan,nan,nan,NaN
nan,nan,nan,NaN
nan,nan,nan,NaN
0.481771,0.0577074,2.463,2.51034
0.489765,0.0577074,2.463,2.51189
0.497759,0.0577074,2.463,2.51346
0.505754,0.0577074,2.463,2.51505
0.513748,0.0577074,2.463,2.51667
0.521742,0.0577074,2.463,2.51832
0.525865,0.0572856,2.445,2.50157
0.533801,0.0572856,2.445,2.50325
0.541737,0.0572856,2.445,2.50495
0.549673,0.0572856,2.445,2.50668
0.557609,0.0572856,2.445,2.50843
0.561612,0.0568873,2.428,2.49276
0.569493,0.0568873,2.428,2.49454
0.577374,0.0568873,2.428,2.49635
nan,nan,nan,NaN
nan,nan,nan,NaN
0.605224,0.0572856,2.445,2.51944
0.61316,0.0572856,2.445,2.52136
0.621095,0.0572856,2.445,2.5233
0.633662,0.0577074,2.463,2.54386
nan,nan,nan,NaN
0.663894,0.0589726,2.517,2.60375
0.667257,0.0585508,2.499,2.58721
0.675369,0.0585508,2.499,2.58931
0.68348,0.0585508,2.499,2.59144
0.70183,0.0594177,2.536,2.63199
0.715382,0.0598629,2.555,2.65394
0.723674,0.0598629,2.555,2.65618
0.731967,0.0598629,2.555,2.65846
0.745765,0.0603081,2.574,2.68054
0.75412,0.0603081,2.574,2.68287
0.762474,0.0603081,2.574,2.68523
0.770829,0.0603081,2.574,2.68762
0.779183,0.0603081,2.574,2.69003
0.787538,0.0603081,2.574,2.69246
0.790018,0.0598629,2.555,2.67502
0.798311,0.0598629,2.555,2.67748
0.806603,0.0598629,2.555,2.67997
0.808836,0.0594177,2.536,2.66253
0.810946,0.0589726,2.517,2.64507
0.819116,0.0589726,2.517,2.64759
0.827285,0.0589726,2.517,2.65013
0.82948,0.0585508,2.499,2.63372
0.837591,0.0585508,2.499,2.63628
0.839611,0.0581291,2.481,2.61986
0.841514,0.0577074,2.463,2.60343
0.849508,0.0577074,2.463,2.60602
0.851236,0.0572856,2.445,2.58958
0.859171,0.0572856,2.445,2.5922
0.867107,0.0572856,2.445,2.59484
0.875043,0.0572856,2.445,2.5975
0.87684,0.0568873,2.428,2.58211
0.88472,0.0568873,2.428,2.58479
0.892601,0.0568873,2.428,2.5875
0.900482,0.0568873,2.428,2.59023
0.908362,0.0568873,2.428,2.59298
0.916243,0.0568873,2.428,2.59575
0.924124,0.0568873,2.428,2.59854
0.925479,0.056489,2.411,2.58314
0.933304,0.056489,2.411,2.58596
0.94113,0.056489,2.411,2.58879
0.948955,0.056489,2.411,2.59165
0.956781,0.056489,2.411,2.59452
0.964606,0.056489,2.411,2.59742
0.972432,0.056489,2.411,2.60033
0.987169,0.0568873,2.428,2.62163
1.00202,0.0572856,2.445,2.64298
1.00995,0.0572856,2.445,2.646
1.02538,0.0577074,2.463,2.66854
1.04093,0.0581291,2.481,2.69115
1.04898,0.0581291,2.481,2.69427
1.0647,0.0585508,2.499,2.71699
1.08054,0.0589726,2.517,2.73977
1.08871,0.0589726,2.517,2.743
1.11344,0.0598629,2.555,2.78772
1.13008,0.0603081,2.574,2.81179
1.15568,0.0612218,2.613,2.85782
1.16416,0.0612218,2.613,2.86126
1.18162,0.0616904,2.633,2.88664
1.19965,0.0621824,2.654,2.9132
1.20827,0.0621824,2.654,2.91676
1.22651,0.0626745,2.675,2.94345
1.24489,0.0631665,2.696,2.97021
1.25364,0.0631665,2.696,2.97389
1.27223,0.0636585,2.717,3.00078
1.28104,0.0636585,2.717,3.00453
1.30031,0.064174,2.739,3.03266
1.3092,0.064174,2.739,3.03648
1.31809,0.064174,2.739,3.04033
1.32698,0.064174,2.739,3.04419
1.33587,0.064174,2.739,3.04808
1.35556,0.0646894,2.761,3.0765
1.36452,0.0646894,2.761,3.08046
1.37348,0.0646894,2.761,3.08444
1.39346,0.0652049,2.783,3.11305
1.41408,0.0657437,2.806,3.14286
1.4592,0.0674073,2.877,3.2266
1.46854,0.0674073,2.877,3.23083
1.50305,0.0685553,2.926,3.29019
1.53891,0.0697502,2.977,3.35196
1.54857,0.0697502,2.977,3.35641
1.57184,0.0703594,3.003,3.39023
1.61003,0.0716246,3.057,3.4558
1.61995,0.0716246,3.057,3.46044
1.64427,0.0722572,3.084,3.4957
1.6693,0.0729132,3.112,3.5322
1.69505,0.0735927,3.141,3.56994
1.70524,0.0735927,3.141,3.57479
1.71544,0.0735927,3.141,3.57967
1.72563,0.0735927,3.141,3.58457
1.73583,0.0735927,3.141,3.58948
1.76214,0.0742722,3.17,3.62761
1.77243,0.0742722,3.17,3.63262
1.78272,0.0742722,3.17,3.63765
1.79301,0.0742722,3.17,3.64271
1.8033,0.0742722,3.17,3.64778
1.81359,0.0742722,3.17,3.65288
1.82388,0.0742722,3.17,3.658
1.83417,0.0742722,3.17,3.66314
1.84446,0.0742722,3.17,3.6683
1.83778,0.0735927,3.141,3.63988
1.83091,0.0729132,3.112,3.61138
1.84101,0.0729132,3.112,3.61652
1.83446,0.0722572,3.084,3.58908
1.84447,0.0722572,3.084,3.59421
1.85448,0.0722572,3.084,3.59936
1.84816,0.0716246,3.057,3.57297
1.84168,0.070992,3.03,3.54651
1.85151,0.070992,3.03,3.55162
1.84476,0.0703594,3.003,3.52507
1.83845,0.0697502,2.977,3.49961
1.84811,0.0697502,2.977,3.5047
1.84155,0.0691411,2.951,3.47915
1.83545,0.0685553,2.926,3.45471
1.81405,0.0674073,2.877,3.40183
1.82338,0.0674073,2.877,3.40682
1.80215,0.0662826,2.829,3.3549
1.78187,0.0652049,2.783,3.30521
1.79091,0.0652049,2.783,3.31009
1.75725,0.0636585,2.717,3.23637
1.73877,0.0626745,2.675,3.19106
1.74746,0.0626745,2.675,3.1958
1.72856,0.0616904,2.633,3.15031
1.72392,0.0612218,2.613,3.13104
1.7324,0.0612218,2.613,3.13572
1.71489,0.0603081,2.574,3.09354
1.69781,0.0594177,2.536,3.05244
1.70604,0.0594177,2.536,3.05702
1.70143,0.0589726,2.517,3.03869
1.68515,0.0581291,2.481,2.99974
-1.93066,0.0742353,2.783,3.38793
-1.92163,0.0742353,2.783,3.38279
-1.91259,0.0742353,2.783,3.37766
-1.90356,0.0742353,2.783,3.37256
-1.89453,0.0742353,2.783,3.36747
-1.88549,0.0742353,2.783,3.36239
-1.86163,0.0736484,2.761,3.3308
-1.8379,0.0730616,2.739,3.29929
-1.82901,0.0730616,2.739,3.29435
-1.82012,0.0730616,2.739,3.28942
-1.79668,0.0724747,2.717,3.25813
-1.77405,0.0719146,2.696,3.22813
-1.7653,0.0719146,2.696,3.22333
-1.74286,0.0713544,2.675,3.19348
-1.72057,0.0707942,2.654,3.16371
-1.71195,0.0707942,2.654,3.15904
-1.68986,0.0702341,2.633,3.12942
-1.66854,0.0697006,2.613,3.10108
-1.66006,0.0697006,2.613,3.09652
-1.63894,0.0691671,2.593,3.06832
-1.61858,0.0686603,2.574,3.04138
-1.61022,0.0686603,2.574,3.03694
-1.60187,0.0686603,2.574,3.03252
-1.59351,0.0686603,2.574,3.02811
-1.58516,0.0686603,2.574,3.02373
-1.58844,0.0691671,2.593,3.04164
-1.58003,0.0691671,2.593,3.03726
-1.57161,0.0691671,2.593,3.03289
-1.57525,0.0697006,2.613,3.05189
-1.56677,0.0697006,2.613,3.04752
-1.57022,0.0702341,2.633,3.06646
-1.54981,0.0697006,2.613,3.03884
-1.54133,0.0697006,2.613,3.03452
-1.53285,0.0697006,2.613,3.03022
-1.53603,0.0702341,2.633,3.0491
-1.52749,0.0702341,2.633,3.0448
-1.5074,0.0697006,2.613,3.01743
-1.48745,0.0691671,2.593,2.99014
-1.47903,0.0691671,2.593,2.98596
-1.47062,0.0691671,2.593,2.9818
-1.45149,0.0686603,2.574,2.95584
-1.44313,0.0686603,2.574,2.95175
-1.42419,0.0681534,2.555,2.92591
-1.41589,0.0681534,2.555,2.92189
-1.4076,0.0681534,2.555,2.91788
-1.39931,0.0681534,2.555,2.91389
-1.39101,0.0681534,2.555,2.90991
-1.37244,0.0676466,2.536,2.88435
-1.36421,0.0676466,2.536,2.88044
-1.35598,0.0676466,2.536,2.87655
-1.35784,0.0681534,2.555,2.8942
-1.34955,0.0681534,2.555,2.89032
-1.33128,0.0676466,2.536,2.86499
-1.32305,0.0676466,2.536,2.86118
-1.31482,0.0676466,2.536,2.85738
-1.30659,0.0676466,2.536,2.8536
-1.29836,0.0676466,2.536,2.84984
-1.29013,0.0676466,2.536,2.8461
-1.2915,0.0681534,2.555,2.86368
-1.27366,0.0676466,2.536,2.83868
-1.26543,0.0676466,2.536,2.83499
-1.2572,0.0676466,2.536,2.83133
-1.23961,0.0671398,2.517,2.8065
-1.23144,0.0671398,2.517,2.8029
-1.22327,0.0671398,2.517,2.79932
-1.20641,0.0666597,2.499,2.77577
-1.1983,0.0666597,2.499,2.77225
-1.18162,0.0661795,2.481,2.74881
-1.17357,0.0661795,2.481,2.74536
-1.15706,0.0656994,2.463,2.72203
-1.14067,0.0652193,2.445,2.69878
-1.13273,0.0652193,2.445,2.69543
-1.11697,0.0647658,2.428,2.67339
-1.10133,0.0643123,2.411,2.65141
-1.0935,0.0643123,2.411,2.64817
-1.08568,0.0643123,2.411,2.64495
-1.07785,0.0643123,2.411,2.64175
-1.07003,0.0643123,2.411,2.63856
-1.0622,0.0643123,2.411,2.6354
-1.05437,0.0643123,2.411,2.63225
-1.03917,0.0638589,2.394,2.61059
-1.0314,0.0638589,2.394,2.60751
-1.02363,0.0638589,2.394,2.60444
-1.01586,0.0638589,2.394,2.6014
-1.00809,0.0638589,2.394,2.59838
-1.00032,0.0638589,2.394,2.59537
-0.992548,0.0638589,2.394,2.59239
-0.99177,0.0643123,2.411,2.60781
-0.977007,0.0638589,2.394,2.58648
-0.969237,0.0638589,2.394,2.58355
-0.968294,0.0643123,2.411,2.59897
-0.960468,0.0643123,2.411,2.59607
-0.952643,0.0643123,2.411,2.59318
-0.944817,0.0643123,2.411,2.59032
-0.936992,0.0643123,2.411,2.58747
-0.929166,0.0643123,2.411,2.58465
-0.921341,0.0643123,2.411,2.58185
-0.913515,0.0643123,2.411,2.57906
-0.90569,0.0643123,2.411,2.5763
-0.897864,0.0643123,2.411,2.57356
-0.896315,0.0647658,2.428,2.58897
-0.888434,0.0647658,2.428,2.58625
-0.880553,0.0647658,2.428,2.58355
-0.872672,0.0647658,2.428,2.58088
-0.864792,0.0647658,2.428,2.57823
-0.856911,0.0647658,2.428,2.57559
-0.84903,0.0647658,2.428,2.57298
-0.847039,0.0652193,2.445,2.58839
-0.839103,0.0652193,2.445,2.5858
-0.831167,0.0652193,2.445,2.58324
-0.823232,0.0652193,2.445,2.5807
-0.821298,0.0656994,2.463,2.59716
-0.813304,0.0656994,2.463,2.59464
-0.805309,0.0656994,2.463,2.59214
-0.797315,0.0656994,2.463,2.58967
-0.789321,0.0656994,2.463,2.58722
-0.787037,0.0661795,2.481,2.60368
-0.778984,0.0661795,2.481,2.60126
-0.770931,0.0661795,2.481,2.59886
-0.762878,0.0661795,2.481,2.59648
-0.754826,0.0661795,2.481,2.59413
-0.746773,0.0661795,2.481,2.5918
-0.73872,0.0661795,2.481,2.58949
-0.735969,0.0666597,2.499,2.60597
-0.727858,0.0666597,2.499,2.60369
-0.719746,0.0666597,2.499,2.60144
-0.711635,0.0666597,2.499,2.59921
-0.703524,0.0666597,2.499,2.597
-0.695413,0.0666597,2.499,2.59481
-0.687302,0.0666597,2.499,2.59265
-0.679191,0.0666597,2.499,2.59051
-0.67108,0.0666597,2.499,2.5884
-0.662968,0.0666597,2.499,2.5863
-0.654857,0.0666597,2.499,2.58424
-0.646746,0.0666597,2.499,2.58219
-0.638635,0.0666597,2.499,2.58017
-0.630524,0.0666597,2.499,2.57818
-0.622413,0.0666597,2.499,2.57621
-0.614302,0.0666597,2.499,2.57426
-0.606191,0.0666597,2.499,2.57234
-0.598079,0.0666597,2.499,2.57044
-0.589968,0.0666597,2.499,2.56856
-0.581857,0.0666597,2.499,2.56671
-0.573746,0.0666597,2.499,2.56488
-0.565635,0.0666597,2.499,2.56308
-0.557524,0.0666597,2.499,2.5613
-0.549413,0.0666597,2.499,2.55955
-0.541301,0.0666597,2.499,2.55782
-0.53319,0.0666597,2.499,2.55612
-0.525079,0.0666597,2.499,2.55444
-0.516968,0.0666597,2.499,2.55278
-0.508857,0.0666597,2.499,2.55115
-0.500746,0.0666597,2.499,2.54955
-0.496183,0.0671398,2.517,2.56632
-0.488013,0.0671398,2.517,2.56475
-0.479844,0.0671398,2.517,2.56321
-0.475235,0.0676466,2.536,2.58103
-0.467004,0.0676466,2.536,2.57953
-0.458772,0.0676466,2.536,2.57805
-0.453917,0.0681534,2.555,2.5959
-0.445624,0.0681534,2.555,2.59447
-0.437331,0.0681534,2.555,2.59305
-0.429038,0.0681534,2.555,2.59167
-0.423874,0.0686603,2.574,2.60957
-0.415519,0.0686603,2.574,2.60823
-0.407165,0.0686603,2.574,2.60691
-0.39881,0.0686603,2.574,2.60562
-0.390456,0.0686603,2.574,2.60435
-0.382101,0.0686603,2.574,2.60311
-0.370988,0.0681534,2.555,2.58269
-0.362695,0.0681534,2.555,2.58151
-0.354402,0.0681534,2.555,2.58036
-0.346109,0.0681534,2.555,2.57924
-0.337816,0.0681534,2.555,2.57814
-0.329523,0.0681534,2.555,2.57706
-0.32123,0.0681534,2.555,2.57602
-0.312937,0.0681534,2.555,2.575
-0.302379,0.0676466,2.536,2.55486
-0.294148,0.0676466,2.536,2.5539
-0.285917,0.0676466,2.536,2.55296
-0.277685,0.0676466,2.536,2.55205
-0.269454,0.0676466,2.536,2.55117
-0.261223,0.0676466,2.536,2.55032
-0.252992,0.0676466,2.536,2.54949
-0.244761,0.0676466,2.536,2.54868
-0.236529,0.0676466,2.536,2.5479
-0.228298,0.0676466,2.536,2.54715
-0.220067,0.0676466,2.536,2.54643
-0.211836,0.0676466,2.536,2.54573
-0.203604,0.0676466,2.536,2.54506
-0.196837,0.0681534,2.555,2.56348
-0.188544,0.0681534,2.555,2.56285
-0.180251,0.0681534,2.555,2.56226
-0.171958,0.0681534,2.555,2.56169
-0.163665,0.0681534,2.555,2.56114
-0.154217,0.0676466,2.536,2.54159
-0.145986,0.0676466,2.536,2.5411
-0.137755,0.0676466,2.536,2.54064
-0.129523,0.0676466,2.536,2.54021
-0.121292,0.0676466,2.536,2.5398
-0.113061,0.0676466,2.536,2.53942
-0.10483,0.0676466,2.536,2.53907
-0.0973222,0.0681534,2.555,2.55776
-0.0890293,0.0681534,2.555,2.55746
-0.0807364,0.0681534,2.555,2.55718
-0.0724435,0.0681534,2.555,2.55694
-0.0641506,0.0681534,2.555,2.55671
-0.0558577,0.0681534,2.555,2.55652
-0.0475648,0.0681534,2.555,2.55635
-0.0392719,0.0681534,2.555,2.55621
-0.030979,0.0681534,2.555,2.5561
-0.0228548,0.0686603,2.574,2.57502
-0.0145003,0.0686603,2.574,2.57496
-0.00614571,0.0686603,2.574,2.57492
0.00220886,0.0686603,2.574,2.57492
0.0104854,0.0681534,2.555,2.55593
0.0187783,0.0681534,2.555,2.55598
0.0270712,0.0681534,2.555,2.55605
0.0351011,0.0676466,2.536,2.53714
0.0433324,0.0676466,2.536,2.53727
0.0515636,0.0676466,2.536,2.53743
0.0597948,0.0676466,2.536,2.53761
0.0685357,0.0681534,2.555,2.55683
0.0768286,0.0681534,2.555,2.55706
0.0851215,0.0681534,2.555,2.55733
0.0934144,0.0681534,2.555,2.55762
0.101707,0.0681534,2.555,2.55793
0.109182,0.0676466,2.536,2.53925
0.117413,0.0676466,2.536,2.53962
0.126586,0.0681534,2.555,2.55904
0.134879,0.0681534,2.555,2.55947
0.143172,0.0681534,2.555,2.55992
0.152591,0.0686603,2.574,2.57943
0.160946,0.0686603,2.574,2.57994
0.1693,0.0686603,2.574,2.58048
0.177655,0.0686603,2.574,2.58104
0.184636,0.0681534,2.555,2.56257
0.192929,0.0681534,2.555,2.56318
0.201222,0.0681534,2.555,2.56382
0.209515,0.0681534,2.555,2.56448
0.216188,0.0676466,2.536,2.5461
0.224419,0.0676466,2.536,2.54681
0.232651,0.0676466,2.536,2.54755
0.240882,0.0676466,2.536,2.54831
0.249113,0.0676466,2.536,2.5491
0.257344,0.0676466,2.536,2.54992
0.265575,0.0676466,2.536,2.55077
0.273807,0.0676466,2.536,2.55164
nan,nan,nan,NaN
nan,nan,nan,NaN
nan,nan,nan,NaN
nan,nan,nan,NaN
nan,nan,nan,NaN
nan,nan,nan,NaN
nan,nan,nan,NaN
nan,nan,nan,NaN
nan,nan,nan,NaN
nan,nan,nan,NaN
nan,nan,nan,NaN
nan,nan,nan,NaN
nan,nan,nan,NaN
nan,nan,nan,NaN
nan,nan,nan,NaN
nan,nan,nan,NaN
nan,nan,nan,NaN
nan,nan,nan,NaN
nan,nan,nan,NaN
nan,nan,nan,NaN
nan,nan,nan,NaN
nan,nan,nan,NaN
nan,nan,nan,NaN
nan,nan,nan,NaN
nan,nan,nan,NaN
nan,nan,nan,NaN
0.47825,0.0652193,2.445,2.49219
0.486186,0.0652193,2.445,2.49372
0.494122,0.0652193,2.445,2.49528
0.502058,0.0652193,2.445,2.49687
0.509993,0.0652193,2.445,2.49847
0.514328,0.0647658,2.428,2.48272
0.522209,0.0647658,2.428,2.48437
0.530089,0.0647658,2.428,2.48604
0.53797,0.0647658,2.428,2.48773
0.545851,0.0647658,2.428,2.48944
0.557609,0.0652193,2.445,2.50863
0.561612,0.0647658,2.428,2.49295
0.565506,0.0643123,2.411,2.47727
0.573331,0.0643123,2.411,2.47907
nan,nan,nan,NaN
nan,nan,nan,NaN
0.605224,0.0652193,2.445,2.51964
0.61316,0.0652193,2.445,2.52156
0.616777,0.0647658,2.428,2.50595
0.624658,0.0647658,2.428,2.5079
0.636967,0.0652193,2.445,2.52745
0.644903,0.0652193,2.445,2.52946
0.657645,0.0656994,2.463,2.55013
0.670504,0.0661795,2.481,2.57086
0.678557,0.0661795,2.481,2.57297
0.691591,0.0666597,2.499,2.59379
0.704742,0.0671398,2.517,2.61466
0.723674,0.0681534,2.555,2.65638
0.731967,0.0681534,2.555,2.65865
0.74026,0.0681534,2.555,2.66095
0.748553,0.0681534,2.555,2.66327
0.756846,0.0681534,2.555,2.66561
0.770829,0.0686603,2.574,2.68782
0.779183,0.0686603,2.574,2.69023
0.787538,0.0686603,2.574,2.69266
0.790018,0.0681534,2.555,2.67522
0.798311,0.0681534,2.555,2.67768
0.806603,0.0681534,2.555,2.68016
0.808836,0.0676466,2.536,2.66272
0.810946,0.0671398,2.517,2.64527
0.819116,0.0671398,2.517,2.64778
0.827285,0.0671398,2.517,2.65032
0.82948,0.0666597,2.499,2.63391
0.837591,0.0666597,2.499,2.63648
0.839611,0.0661795,2.481,2.62005
0.841514,0.0656994,2.463,2.60362
0.849508,0.0656994,2.463,2.60621
0.851236,0.0652193,2.445,2.58976
0.859171,0.0652193,2.445,2.59238
0.867107,0.0652193,2.445,2.59502
0.875043,0.0652193,2.445,2.59769
0.87684,0.0647658,2.428,2.58229
0.88472,0.0647658,2.428,2.58498
0.892601,0.0647658,2.428,2.58769
0.900482,0.0647658,2.428,2.59041
0.908362,0.0647658,2.428,2.59316
0.916243,0.0647658,2.428,2.59594
0.924124,0.0647658,2.428,2.59873
0.932004,0.0647658,2.428,2.60154
0.939885,0.0647658,2.428,2.60437
0.94113,0.0643123,2.411,2.58897
0.948955,0.0643123,2.411,2.59183
0.956781,0.0643123,2.411,2.5947
0.964606,0.0643123,2.411,2.5976
0.972432,0.0643123,2.411,2.60052
0.987169,0.0647658,2.428,2.62181
1.00202,0.0652193,2.445,2.64316
1.00995,0.0652193,2.445,2.64618
1.02538,0.0656994,2.463,2.66873
1.04093,0.0661795,2.481,2.69133
1.04898,0.0661795,2.481,2.69446
1.0647,0.0666597,2.499,2.71717
1.08054,0.0671398,2.517,2.73996
1.08871,0.0671398,2.517,2.74319
1.11344,0.0681534,2.555,2.78791
1.13008,0.0686603,2.574,2.81199
1.15568,0.0697006,2.613,2.85801
1.16416,0.0697006,2.613,2.86145
1.18162,0.0702341,2.633,2.88684
1.19965,0.0707942,2.654,2.9134
1.20827,0.0707942,2.654,2.91696
1.22651,0.0713544,2.675,2.94365
1.24489,0.0719146,2.696,2.97041
1.25364,0.0719146,2.696,2.97409
1.27223,0.0724747,2.717,3.00098
1.28104,0.0724747,2.717,3.00473
1.30031,0.0730616,2.739,3.03286
1.3092,0.0730616,2.739,3.03669
1.31809,0.0730616,2.739,3.04053
1.32698,0.0730616,2.739,3.04439
1.33587,0.0730616,2.739,3.04828
1.35556,0.0736484,2.761,3.0767
1.36452,0.0736484,2.761,3.08066
1.37348,0.0736484,2.761,3.08464
1.39346,0.0742353,2.783,3.11325
1.41408,0.0748488,2.806,3.14307
1.44703,0.0761025,2.853,3.19989
1.45629,0.0761025,2.853,3.20409
1.49021,0.0773828,2.901,3.26228
1.52547,0.0787166,2.951,3.3229
1.53505,0.0787166,2.951,3.32731
1.55823,0.0794101,2.977,3.36109
1.59581,0.0808239,3.03,3.4255
1.60564,0.0808239,3.03,3.43009
1.62987,0.0815441,3.057,3.46531
1.6693,0.0830112,3.112,3.53242
1.69505,0.0837847,3.141,3.57017
1.70524,0.0837847,3.141,3.57502
1.71544,0.0837847,3.141,3.57989
1.72563,0.0837847,3.141,3.58479
1.73583,0.0837847,3.141,3.58971
1.76214,0.0845583,3.17,3.62784
1.77243,0.0845583,3.17,3.63285
1.78272,0.0845583,3.17,3.63788
1.79301,0.0845583,3.17,3.64293
1.8033,0.0845583,3.17,3.64801
1.81359,0.0845583,3.17,3.6531
1.82388,0.0845583,3.17,3.65822
1.83417,0.0845583,3.17,3.66336
1.84446,0.0845583,3.17,3.66852
1.83778,0.0837847,3.141,3.6401
1.83091,0.0830112,3.112,3.6116
1.84101,0.0830112,3.112,3.61673
1.83446,0.0822643,3.084,3.5893
1.84447,0.0822643,3.084,3.59442
1.85448,0.0822643,3.084,3.59957
1.84816,0.0815441,3.057,3.57318
1.84168,0.0808239,3.03,3.54672
1.85151,0.0808239,3.03,3.55183
1.84476,0.0801036,3.003,3.52527
1.83845,0.0794101,2.977,3.49982
1.84811,0.0794101,2.977,3.5049
1.84155,0.0787166,2.951,3.47935
1.81976,0.0773828,2.901,3.42539
1.79891,0.0761025,2.853,3.37365
1.80817,0.0761025,2.853,3.37859
1.78749,0.0748488,2.806,3.32782
1.76779,0.0736484,2.761,3.27927
1.77675,0.0736484,2.761,3.28411
1.75725,0.0724747,2.717,3.23655
1.73877,0.0713544,2.675,3.19125
1.74746,0.0713544,2.675,3.19598
1.72856,0.0702341,2.633,3.15049
1.71072,0.0691671,2.593,3.10725
1.71914,0.0691671,2.593,3.11189
1.70224,0.0681534,2.555,3.07088
1.68509,0.0671398,2.517,3.02974
1.69326,0.0671398,2.517,3.03429
1.68926,0.0666597,2.499,3.01713
1.68515,0.0661795,2.481,2.99991
-1.9154,0.0826074,2.761,3.36135
-1.90643,0.0826074,2.761,3.35625
-1.91259,0.0832656,2.783,3.37787
-1.90356,0.0832656,2.783,3.37277
-1.87955,0.0826074,2.761,3.34106
-1.87059,0.0826074,2.761,3.33602
-1.86163,0.0826074,2.761,3.33101
-1.8379,0.0819492,2.739,3.2995
-1.81432,0.081291,2.717,3.2681
-1.8055,0.081291,2.717,3.26321
-1.7828,0.0806626,2.696,3.23316
-1.76023,0.0800343,2.675,3.20319
-1.75155,0.0800343,2.675,3.19843
-1.72918,0.079406,2.654,3.16861
-1.70695,0.0787777,2.633,3.13888
-1.69841,0.0787777,2.633,3.13424
-1.67703,0.0781793,2.613,3.10585
-1.65577,0.0775809,2.593,3.07754
-1.64736,0.0775809,2.593,3.07302
-1.62693,0.0770125,2.574,3.04603
-1.61858,0.0770125,2.574,3.04158
-1.59834,0.076444,2.555,3.01472
-1.59004,0.076444,2.555,3.01033
-1.58175,0.076444,2.555,3.00596
-1.57346,0.076444,2.555,3.00161
-1.5768,0.0770125,2.574,3.01956
-1.56845,0.0770125,2.574,3.0152
-1.57161,0.0775809,2.593,3.03309
-1.56319,0.0775809,2.593,3.02874
-1.55478,0.0775809,2.593,3.0244
-1.55829,0.0781793,2.613,3.04338
-1.54981,0.0781793,2.613,3.03904
-1.54133,0.0781793,2.613,3.03473
-1.53285,0.0781793,2.613,3.03043
-1.52436,0.0781793,2.613,3.02615
-1.51588,0.0781793,2.613,3.02188
-1.5074,0.0781793,2.613,3.01764
-1.48745,0.0775809,2.593,2.99035
-1.47903,0.0775809,2.593,2.98617
-1.45984,0.0770125,2.574,2.96016
-1.44077,0.076444,2.555,2.93423
-1.43248,0.076444,2.555,2.93016
-1.41359,0.0758755,2.536,2.90436
-1.40536,0.0758755,2.536,2.90036
-1.39713,0.0758755,2.536,2.89638
-1.3889,0.0758755,2.536,2.89242
-1.37033,0.0753071,2.517,2.86684
-1.36216,0.0753071,2.517,2.86294
-1.35399,0.0753071,2.517,2.85906
-1.34582,0.0753071,2.517,2.8552
-1.33765,0.0753071,2.517,2.85136
-1.32948,0.0753071,2.517,2.84754
-1.32131,0.0753071,2.517,2.84373
-1.30375,0.0747685,2.499,2.81964
-1.29564,0.0747685,2.499,2.8159
-1.2968,0.0753071,2.517,2.83243
-1.28863,0.0753071,2.517,2.8287
-1.28046,0.0753071,2.517,2.82499
-1.27229,0.0753071,2.517,2.82129
-1.26412,0.0753071,2.517,2.81762
-1.25595,0.0753071,2.517,2.81396
-1.24778,0.0753071,2.517,2.81032
-1.23961,0.0753071,2.517,2.80671
-1.22264,0.0747685,2.499,2.78306
-1.21453,0.0747685,2.499,2.77951
-1.20641,0.0747685,2.499,2.77597
-1.18967,0.07423,2.481,2.75249
-1.18162,0.07423,2.481,2.74902
-1.17357,0.07423,2.481,2.74557
-1.15706,0.0736914,2.463,2.72224
-1.14067,0.0731529,2.445,2.69898
-1.13273,0.0731529,2.445,2.69564
-1.11697,0.0726442,2.428,2.67359
-1.10133,0.0721356,2.411,2.65161
-1.0935,0.0721356,2.411,2.64837
-1.08568,0.0721356,2.411,2.64515
-1.07785,0.0721356,2.411,2.64195
-1.07003,0.0721356,2.411,2.63876
-1.0622,0.0721356,2.411,2.6356
-1.05437,0.0721356,2.411,2.63246
-1.03917,0.071627,2.394,2.61079
-1.0314,0.071627,2.394,2.60771
-1.02363,0.071627,2.394,2.60465
-1.01586,0.071627,2.394,2.6016
-1.00809,0.071627,2.394,2.59858
-1.00032,0.071627,2.394,2.59557
-0.999596,0.0721356,2.411,2.611
-0.99177,0.0721356,2.411,2.60801
-0.977007,0.071627,2.394,2.58668
-0.969237,0.071627,2.394,2.58375
-0.968294,0.0721356,2.411,2.59918
-0.960468,0.0721356,2.411,2.59627
-0.952643,0.0721356,2.411,2.59339
-0.944817,0.0721356,2.411,2.59052
-0.936992,0.0721356,2.411,2.58768
-0.929166,0.0721356,2.411,2.58485
-0.921341,0.0721356,2.411,2.58205
-0.913515,0.0721356,2.411,2.57927
-0.90569,0.0721356,2.411,2.57651
-0.897864,0.0721356,2.411,2.57377
-0.896315,0.0726442,2.428,2.58918
-0.888434,0.0726442,2.428,2.58646
-0.880553,0.0726442,2.428,2.58376
-0.872672,0.0726442,2.428,2.58109
-0.864792,0.0726442,2.428,2.57843
-0.856911,0.0726442,2.428,2.5758
-0.84903,0.0726442,2.428,2.57319
-0.847039,0.0731529,2.445,2.5886
-0.839103,0.0731529,2.445,2.58601
-0.831167,0.0731529,2.445,2.58345
-0.823232,0.0731529,2.445,2.58091
-0.821298,0.0736914,2.463,2.59737
-0.813304,0.0736914,2.463,2.59485
-0.805309,0.0736914,2.463,2.59236
-0.797315,0.0736914,2.463,2.58989
-0.789321,0.0736914,2.463,2.58744
-0.787037,0.07423,2.481,2.6039
-0.778984,0.07423,2.481,2.60148
-0.770931,0.07423,2.481,2.59908
-0.762878,0.07423,2.481,2.5967
-0.754826,0.07423,2.481,2.59435
-0.746773,0.07423,2.481,2.59202
-0.73872,0.07423,2.481,2.58971
-0.735969,0.0747685,2.499,2.60619
-0.727858,0.0747685,2.499,2.60391
-0.719746,0.0747685,2.499,2.60166
-0.711635,0.0747685,2.499,2.59943
-0.703524,0.0747685,2.499,2.59722
-0.695413,0.0747685,2.499,2.59503
-0.687302,0.0747685,2.499,2.59287
-0.679191,0.0747685,2.499,2.59073
-0.67108,0.0747685,2.499,2.58862
-0.662968,0.0747685,2.499,2.58653
-0.654857,0.0747685,2.499,2.58446
-0.646746,0.0747685,2.499,2.58242
-0.638635,0.0747685,2.499,2.5804
-0.630524,0.0747685,2.499,2.5784
-0.622413,0.0747685,2.499,2.57643
-0.614302,0.0747685,2.499,2.57448
-0.606191,0.0747685,2.499,2.57256
-0.598079,0.0747685,2.499,2.57066
-0.589968,0.0747685,2.499,2.56878
-0.581857,0.0747685,2.499,2.56693
-0.573746,0.0747685,2.499,2.56511
-0.565635,0.0747685,2.499,2.56331
-0.557524,0.0747685,2.499,2.56153
-0.549413,0.0747685,2.499,2.55977
-0.541301,0.0747685,2.499,2.55805
-0.52935,0.07423,2.481,2.53793
-0.521297,0.07423,2.481,2.53626
-0.516968,0.0747685,2.499,2.55301
