0.0356271,-0.0399185,2.574,2.57456
0.0439817,-0.0399185,2.574,2.57469
0.0523362,-0.0399185,2.574,2.57484
0.0606908,-0.0399185,2.574,2.57502
0.0690454,-0.0399185,2.574,2.57524
0.0773999,-0.0399185,2.574,2.57547
0.0857545,-0.0399185,2.574,2.57574
0.0941091,-0.0399185,2.574,2.57603
0.101707,-0.0396238,2.555,2.55733
0.11,-0.0396238,2.555,2.55767
0.118293,-0.0396238,2.555,2.55804
0.127527,-0.0399185,2.574,2.57747
0.134879,-0.0396238,2.555,2.55886
0.143172,-0.0396238,2.555,2.55931
0.151465,-0.0396238,2.555,2.55979
0.159758,-0.0396238,2.555,2.5603
0.1693,-0.0399185,2.574,2.57987
0.177655,-0.0399185,2.574,2.58043
0.186009,-0.0399185,2.574,2.58102
0.194364,-0.0399185,2.574,2.58164
0.202718,-0.0399185,2.574,2.58228
0.212631,-0.0402131,2.593,2.60201
0.221047,-0.0402131,2.593,2.60272
0.229463,-0.0402131,2.593,2.60344
0.23788,-0.0402131,2.593,2.6042
0.246296,-0.0402131,2.593,2.60498
0.252846,-0.0399185,2.574,2.5867
0.2612,-0.0399185,2.574,2.58753
0.269555,-0.0399185,2.574,2.58838
0.275858,-0.0396238,2.555,2.57015
0.284151,-0.0396238,2.555,2.57106
0.290269,-0.0393291,2.536,2.55286
0.2985,-0.0393291,2.536,2.55381
0.306732,-0.0393291,2.536,2.55479
0.314963,-0.0393291,2.536,2.55579
0.320773,-0.0390345,2.517,2.53766
0.32659,-0.0387553,2.499,2.52055
0.334701,-0.0387553,2.499,2.52161
0.342812,-0.0387553,2.499,2.5227
0.350923,-0.0387553,2.499,2.52382
0.359034,-0.0387553,2.499,2.52496
0.367146,-0.0387553,2.499,2.52612
0.375257,-0.0387553,2.499,2.52731
nan,nan,nan,NaN
0.385839,-0.038197,2.463,2.49333
0.393834,-0.038197,2.463,2.49458
nan,nan,nan,NaN
nan,nan,nan,NaN
0.417816,-0.038197,2.463,2.49848
0.425811,-0.038197,2.463,2.49983
nan,nan,nan,NaN
nan,nan,nan,NaN
0.446507,-0.0379179,2.445,2.48573
0.454442,-0.0379179,2.445,2.48716
0.462378,-0.0379179,2.445,2.48863
nan,nan,nan,NaN
nan,nan,nan,NaN
nan,nan,nan,NaN
nan,nan,nan,NaN
0.513146,-0.0387553,2.499,2.55144
0.521257,-0.0387553,2.499,2.55308
0.529368,-0.0387553,2.499,2.55475
nan,nan,nan,NaN
nan,nan,nan,NaN
nan,nan,nan,NaN
0.578674,-0.0399185,2.574,2.63855
0.587028,-0.0399185,2.574,2.64039
0.595383,-0.0399185,2.574,2.64226
0.603738,-0.0399185,2.574,2.64416
0.612092,-0.0399185,2.574,2.64608
0.620447,-0.0399185,2.574,2.64802
0.628801,-0.0399185,2.574,2.64999
0.637156,-0.0399185,2.574,2.65199
0.64551,-0.0399185,2.574,2.65401
0.649038,-0.0396238,2.555,2.63645
0.657331,-0.0396238,2.555,2.6385
0.665624,-0.0396238,2.555,2.64058
0.673917,-0.0396238,2.555,2.64268
0.677137,-0.0393291,2.536,2.62514
0.685368,-0.0393291,2.536,2.62727
0.693599,-0.0393291,2.536,2.62943
0.707089,-0.0396238,2.555,2.65133
0.715382,-0.0396238,2.555,2.65356
0.723674,-0.0396238,2.555,2.6558
0.731967,-0.0396238,2.555,2.65808
0.734755,-0.0393291,2.536,2.64059
0.742987,-0.0393291,2.536,2.64289
0.751218,-0.0393291,2.536,2.64522
0.759449,-0.0393291,2.536,2.64757
0.76768,-0.0393291,2.536,2.64994
0.775912,-0.0393291,2.536,2.65234
0.784143,-0.0393291,2.536,2.65475
0.792374,-0.0393291,2.536,2.6572
0.800605,-0.0393291,2.536,2.65966
0.808836,-0.0393291,2.536,2.66215
0.817068,-0.0393291,2.536,2.66467
0.825299,-0.0393291,2.536,2.6672
0.83353,-0.0393291,2.536,2.66976
0.841761,-0.0393291,2.536,2.67234
0.849993,-0.0393291,2.536,2.67494
0.851794,-0.0390345,2.517,2.65751
0.859963,-0.0390345,2.517,2.66014
0.868133,-0.0390345,2.517,2.66279
0.876303,-0.0390345,2.517,2.66547
0.878147,-0.0387553,2.499,2.64908
0.886258,-0.0387553,2.499,2.65178
0.887927,-0.0384762,2.481,2.63539
0.89598,-0.0384762,2.481,2.63811
0.897474,-0.038197,2.463,2.6217
0.905468,-0.038197,2.463,2.62444
0.913462,-0.038197,2.463,2.62721
0.914722,-0.0379179,2.445,2.61078
0.922658,-0.0379179,2.445,2.61357
0.930594,-0.0379179,2.445,2.61638
0.932004,-0.0376542,2.428,2.60101
0.939885,-0.0376542,2.428,2.60384
0.947766,-0.0376542,2.428,2.6067
0.955646,-0.0376542,2.428,2.60957
0.963527,-0.0376542,2.428,2.61247
0.971408,-0.0376542,2.428,2.61538
0.986145,-0.0379179,2.445,2.63665
1.0014,-0.038197,2.463,2.65907
1.01677,-0.0384762,2.481,2.68154
1.02482,-0.0384762,2.481,2.68461
1.03288,-0.0384762,2.481,2.68769
1.05603,-0.0390345,2.517,2.72984
1.0642,-0.0390345,2.517,2.73301
1.08047,-0.0393291,2.536,2.75686
1.10501,-0.0399185,2.574,2.80145
1.11337,-0.0399185,2.574,2.80476
1.13,-0.0402131,2.593,2.82881
1.15598,-0.0408334,2.633,2.87587
1.17381,-0.0411591,2.654,2.90228
1.18243,-0.0411591,2.654,2.90578
1.20046,-0.0414848,2.675,2.93231
1.22813,-0.0421361,2.717,2.98197
1.23695,-0.0421361,2.717,2.98562
1.26594,-0.0428185,2.761,3.03769
1.29568,-0.0435164,2.806,3.09101
1.30479,-0.0435164,2.806,3.09484
1.32467,-0.0438731,2.829,3.12409
1.34517,-0.0442453,2.853,3.15453
1.35443,-0.0442453,2.853,3.15849
1.36369,-0.0442453,2.853,3.16247
1.37295,-0.0442453,2.853,3.16647
1.38221,-0.0442453,2.853,3.1705
1.39147,-0.0442453,2.853,3.17455
1.41251,-0.0446175,2.877,3.20536
1.42185,-0.0446175,2.877,3.20948
1.43119,-0.0446175,2.877,3.21363
1.44053,-0.0446175,2.877,3.2178
1.44986,-0.0446175,2.877,3.22199
1.4592,-0.0446175,2.877,3.2262
1.46854,-0.0446175,2.877,3.23044
1.50305,-0.0453774,2.926,3.28979
1.52547,-0.0457651,2.951,3.32228
1.53505,-0.0457651,2.951,3.32669
1.55823,-0.0461683,2.977,3.36047
1.58159,-0.0465715,3.003,3.39435
1.59134,-0.0465715,3.003,3.3989
1.60108,-0.0465715,3.003,3.40348
1.62531,-0.0469903,3.03,3.43871
1.63515,-0.0469903,3.03,3.44337
1.6743,-0.0478277,3.084,3.5095
1.68431,-0.0478277,3.084,3.51429
1.7097,-0.0482619,3.112,3.55105
1.7198,-0.0482619,3.112,3.55592
1.7299,-0.0482619,3.112,3.56082
1.74,-0.0482619,3.112,3.56574
1.73436,-0.0478277,3.084,3.53855
1.74437,-0.0478277,3.084,3.54347
1.75438,-0.0478277,3.084,3.54841
1.74894,-0.047409,3.057,3.52226
1.75886,-0.047409,3.057,3.52719
1.76879,-0.047409,3.057,3.53215
1.763,-0.0469903,3.03,3.50589
1.77283,-0.0469903,3.03,3.51085
1.79855,-0.047409,3.057,3.54715
1.80848,-0.047409,3.057,3.55219
1.8184,-0.047409,3.057,3.55726
1.82832,-0.047409,3.057,3.56234
1.83824,-0.047409,3.057,3.56744
1.84816,-0.047409,3.057,3.57256
1.84168,-0.0469903,3.03,3.54611
1.85151,-0.0469903,3.03,3.55123
1.86134,-0.0469903,3.03,3.55636
1.87118,-0.0469903,3.03,3.56152
1.88101,-0.0469903,3.03,3.5667
1.874,-0.0465715,3.003,3.54006
1.86744,-0.0461683,2.977,3.51454
1.86071,-0.0457651,2.951,3.48894
1.87028,-0.0457651,2.951,3.49406
1.83272,-0.0446175,2.877,3.41145
1.81133,-0.0438731,2.829,3.35948
1.82051,-0.0438731,2.829,3.36443
1.79994,-0.0431597,2.783,3.31463
1.78037,-0.0424773,2.739,3.26706
1.78926,-0.0424773,2.739,3.27191
1.76992,-0.0418105,2.696,3.22534
1.75097,-0.0411591,2.654,3.17983
1.75958,-0.0411591,2.654,3.18458
1.74088,-0.0405233,2.613,3.14007
1.72325,-0.0399185,2.574,3.09785
1.7316,-0.0399185,2.574,3.1025
1.71427,-0.0393291,2.536,3.0613
1.69737,-0.0387553,2.499,3.02119
-1.9154,-0.0338595,2.761,3.36051
-1.89124,-0.0335897,2.739,3.32867
-1.88235,-0.0335897,2.739,3.32363
-1.85842,-0.0333199,2.717,3.29195
-1.8353,-0.0330624,2.696,3.26157
-1.82655,-0.0330624,2.696,3.25665
-1.80364,-0.0328049,2.675,3.22643
-1.78087,-0.0325473,2.654,3.19629
-1.77225,-0.0325473,2.654,3.1915
-1.74968,-0.0322898,2.633,3.16151
-1.74114,-0.0322898,2.633,3.15679
-1.74641,-0.0325473,2.654,3.17722
-1.7378,-0.0325473,2.654,3.17249
-1.7155,-0.0322898,2.633,3.14272
-1.70695,-0.0322898,2.633,3.13806
-1.69841,-0.0322898,2.633,3.13342
-1.68986,-0.0322898,2.633,3.1288
-1.68132,-0.0322898,2.633,3.12419
-1.67277,-0.0322898,2.633,3.1196
-1.66422,-0.0322898,2.633,3.11502
-1.66888,-0.0325473,2.654,3.13527
-1.66027,-0.0325473,2.654,3.1307
-1.65165,-0.0325473,2.654,3.12614
-1.64304,-0.0325473,2.654,3.12159
-1.63443,-0.0325473,2.654,3.11707
-1.62581,-0.0325473,2.654,3.11256
-1.6172,-0.0325473,2.654,3.10807
-1.62131,-0.0328049,2.675,3.12815
-1.61263,-0.0328049,2.675,3.12366
-1.60395,-0.0328049,2.675,3.11919
-1.59526,-0.0328049,2.675,3.11473
-1.59904,-0.0330624,2.696,3.13471
-1.59029,-0.0330624,2.696,3.13026
-1.56922,-0.0328049,2.675,3.10147
-1.54828,-0.0325473,2.654,3.07278
-1.53967,-0.0325473,2.654,3.06845
-1.53105,-0.0325473,2.654,3.06413
-1.52244,-0.0325473,2.654,3.05984
-1.5258,-0.0328049,2.675,3.07974
-1.51712,-0.0328049,2.675,3.07544
-1.50844,-0.0328049,2.675,3.07117
-1.49976,-0.0328049,2.675,3.06692
-1.47937,-0.0325473,2.654,3.03864
-1.45912,-0.0322898,2.633,3.01044
-1.45057,-0.0322898,2.633,3.00631
-1.45353,-0.0325473,2.654,3.02614
-1.44491,-0.0325473,2.654,3.02201
-1.44766,-0.0328049,2.675,3.04178
-1.46157,-0.0333199,2.717,3.08535
-1.45276,-0.0333199,2.717,3.08118
-1.46732,-0.0338595,2.761,3.12687
-1.46998,-0.0341293,2.783,3.14755
-1.46095,-0.0341293,2.783,3.14335
-1.45191,-0.0341293,2.783,3.13916
-1.46673,-0.0346934,2.829,3.18681
-1.46991,-0.0349878,2.853,3.20959
-1.46065,-0.0349878,2.853,3.20536
-1.45139,-0.0349878,2.853,3.20115
-1.44213,-0.0349878,2.853,3.19696
-1.42082,-0.0346934,2.829,3.16594
-1.38868,-0.0341293,2.783,3.11042
-1.37965,-0.0341293,2.783,3.10639
-1.32777,-0.0330624,2.696,3.00541
-1.30874,-0.0328049,2.675,2.97817
-1.30006,-0.0328049,2.675,2.97437
-1.2711,-0.0322898,2.633,2.92394
-1.24338,-0.0317992,2.593,2.87587
-1.22591,-0.0315662,2.574,2.8512
-1.21756,-0.0315662,2.574,2.84762
-1.20028,-0.0313332,2.555,2.82306
-1.18312,-0.0311002,2.536,2.79858
-1.17489,-0.0311002,2.536,2.79511
-1.14964,-0.0306465,2.499,2.75093
-1.1333,-0.0304257,2.481,2.72776
-1.12525,-0.0304257,2.481,2.72442
-1.1172,-0.0304257,2.481,2.72111
-1.1011,-0.030205,2.463,2.69809
-1.0931,-0.030205,2.463,2.69484
-1.08511,-0.030205,2.463,2.69161
-1.07712,-0.030205,2.463,2.68839
-1.06912,-0.030205,2.463,2.6852
-1.06113,-0.030205,2.463,2.68203
-1.04544,-0.0299843,2.445,2.6593
-1.0375,-0.0299843,2.445,2.65619
-1.02956,-0.0299843,2.445,2.6531
-1.01452,-0.0297758,2.428,2.6316
-1.00664,-0.0297758,2.428,2.62857
-0.998763,-0.0297758,2.428,2.62557
-0.990883,-0.0297758,2.428,2.62258
-0.983002,-0.0297758,2.428,2.61961
-0.975121,-0.0297758,2.428,2.61666
-0.967241,-0.0297758,2.428,2.61374
-0.952643,-0.0295673,2.411,2.59255
-0.944817,-0.0295673,2.411,2.58969
-0.936992,-0.0295673,2.411,2.58684
-0.929166,-0.0295673,2.411,2.58402
-0.914845,-0.0293588,2.394,2.56301
-0.907074,-0.0293588,2.394,2.56025
-0.899304,-0.0293588,2.394,2.55751
-0.891534,-0.0293588,2.394,2.55479
-0.883763,-0.0293588,2.394,2.55208
-0.875993,-0.0293588,2.394,2.5494
-0.868223,-0.0293588,2.394,2.54674
-0.854342,-0.0291503,2.377,2.52604
-0.846627,-0.0291503,2.377,2.52344
-0.838912,-0.0291503,2.377,2.52086
-0.831197,-0.0291503,2.377,2.51831
-0.823481,-0.0291503,2.377,2.51577
-0.815766,-0.0291503,2.377,2.51326
-0.808051,-0.0291503,2.377,2.51076
-0.800336,-0.0291503,2.377,2.50829
-0.792621,-0.0291503,2.377,2.50584
-0.790519,-0.0293588,2.394,2.52131
-0.782749,-0.0293588,2.394,2.51889
-0.774979,-0.0293588,2.394,2.51648
-0.767208,-0.0293588,2.394,2.5141
-0.754045,-0.0291503,2.377,2.49391
-0.74633,-0.0291503,2.377,2.49158
-0.738615,-0.0291503,2.377,2.48928
-0.736127,-0.0293588,2.394,2.50479
-0.728357,-0.0293588,2.394,2.50252
-0.720586,-0.0293588,2.394,2.50027
-0.712816,-0.0293588,2.394,2.49804
-0.705046,-0.0293588,2.394,2.49583
-0.697275,-0.0293588,2.394,2.49365
-0.689505,-0.0293588,2.394,2.49149
-0.681735,-0.0293588,2.394,2.48935
-0.673964,-0.0293588,2.394,2.48723
-0.666194,-0.0293588,2.394,2.48514
-0.663099,-0.0295673,2.411,2.5007
-0.655274,-0.0295673,2.411,2.49864
-0.647448,-0.0295673,2.411,2.49659
-0.639623,-0.0295673,2.411,2.49458
-0.631797,-0.0295673,2.411,2.49258
-0.623972,-0.0295673,2.411,2.49061
-0.620491,-0.0297758,2.428,2.50621
-0.61261,-0.0297758,2.428,2.50427
-0.604729,-0.0297758,2.428,2.50235
-0.596848,-0.0297758,2.428,2.50046
-0.588968,-0.0297758,2.428,2.49859
-0.581087,-0.0297758,2.428,2.49674
-0.573206,-0.0297758,2.428,2.49492
-0.565326,-0.0297758,2.428,2.49312
-0.557445,-0.0297758,2.428,2.49135
-0.549564,-0.0297758,2.428,2.4896
-0.541684,-0.0297758,2.428,2.48787
-0.53754,-0.0299843,2.445,2.50357
-0.529605,-0.0299843,2.445,2.50188
-0.521669,-0.0299843,2.445,2.50021
-0.510161,-0.0297758,2.428,2.4812
-0.50228,-0.0297758,2.428,2.47959
-0.4944,-0.0297758,2.428,2.478
-0.486519,-0.0297758,2.428,2.47644
-0.478638,-0.0297758,2.428,2.47491
-0.470758,-0.0297758,2.428,2.4734
-0.462877,-0.0297758,2.428,2.47191
-0.454996,-0.0297758,2.428,2.47044
-0.447115,-0.0297758,2.428,2.469
-0.44231,-0.0299843,2.445,2.48487
-0.434374,-0.0299843,2.445,2.48347
-0.426438,-0.0299843,2.445,2.48209
-0.418503,-0.0299843,2.445,2.48074
-0.410567,-0.0299843,2.445,2.47941
-0.402631,-0.0299843,2.445,2.47811
-0.394695,-0.0299843,2.445,2.47683
-0.389606,-0.030205,2.463,2.49381
-0.381612,-0.030205,2.463,2.49257
-0.373618,-0.030205,2.463,2.49136
-0.368296,-0.0304257,2.481,2.50837
-0.360243,-0.0304257,2.481,2.5072
-0.354745,-0.0306465,2.499,2.52424
-0.346634,-0.0306465,2.499,2.52311
-0.338523,-0.0306465,2.499,2.52201
-0.332792,-0.0308672,2.517,2.53909
-0.322301,-0.0306465,2.499,2.51988
-0.31419,-0.0306465,2.499,2.51886
-0.308283,-0.0308672,2.517,2.536
-0.300114,-0.0308672,2.517,2.53502
-0.291944,-0.0308672,2.517,2.53406
-0.285917,-0.0311002,2.536,2.55226
-0.277685,-0.0311002,2.536,2.55135
-0.269454,-0.0311002,2.536,2.55046
-0.261223,-0.0311002,2.536,2.54961
-0.254887,-0.0313332,2.555,2.56787
-0.244761,-0.0311002,2.536,2.54797
-0.236529,-0.0311002,2.536,2.5472
-0.228298,-0.0311002,2.536,2.54645
-0.220067,-0.0311002,2.536,2.54572
-0.211836,-0.0311002,2.536,2.54502
-0.203604,-0.0311002,2.536,2.54435
-0.195373,-0.0311002,2.536,2.5437
-0.187142,-0.0311002,2.536,2.54309
-0.178911,-0.0311002,2.536,2.54249
-0.170679,-0.0311002,2.536,2.54193
-0.162448,-0.0311002,2.536,2.54139
-0.154217,-0.0311002,2.536,2.54087
-0.145986,-0.0311002,2.536,2.54039
-0.137755,-0.0311002,2.536,2.53993
-0.129523,-0.0311002,2.536,2.5395
-0.122201,-0.0313332,2.555,2.55811
-0.113908,-0.0313332,2.555,2.55773
-0.105615,-0.0313332,2.555,2.55737
-0.0973222,-0.0313332,2.555,2.55704
-0.0896914,-0.0315662,2.574,2.57576
-0.0813368,-0.0315662,2.574,2.57548
-0.0729822,-0.0315662,2.574,2.57523
-0.0646277,-0.0315662,2.574,2.575
-0.0562731,-0.0315662,2.574,2.57481
-0.0479185,-0.0315662,2.574,2.57464
-0.039564,-0.0315662,2.574,2.5745
-0.0312094,-0.0315662,2.574,2.57438
-0.0228548,-0.0315662,2.574,2.5743
-0.0145003,-0.0315662,2.574,2.57423
-0.00614571,-0.0315662,2.574,2.5742
0.00220886,-0.0315662,2.574,2.57419
0.0105634,-0.0315662,2.574,2.57422
0.018918,-0.0315662,2.574,2.57426
0.0272725,-0.0315662,2.574,2.57434
0.0356271,-0.0315662,2.574,2.57444
0.0439817,-0.0315662,2.574,2.57457
0.0523362,-0.0315662,2.574,2.57473
0.0606908,-0.0315662,2.574,2.57491
0.0690454,-0.0315662,2.574,2.57512
0.0773999,-0.0315662,2.574,2.57536
0.0857545,-0.0315662,2.574,2.57562
0.0941091,-0.0315662,2.574,2.57591
0.102464,-0.0315662,2.574,2.57623
0.110818,-0.0315662,2.574,2.57658
0.119173,-0.0315662,2.574,2.57695
0.127527,-0.0315662,2.574,2.57735
0.134879,-0.0313332,2.555,2.55875
0.143172,-0.0313332,2.555,2.5592
0.151465,-0.0313332,2.555,2.55968
0.159758,-0.0313332,2.555,2.56018
0.1693,-0.0315662,2.574,2.57976
0.177655,-0.0315662,2.574,2.58032
0.186009,-0.0315662,2.574,2.58091
0.194364,-0.0315662,2.574,2.58152
0.202718,-0.0315662,2.574,2.58216
0.212631,-0.0317992,2.593,2.6019
0.221047,-0.0317992,2.593,2.6026
0.229463,-0.0317992,2.593,2.60333
0.23788,-0.0317992,2.593,2.60408
0.246296,-0.0317992,2.593,2.60487
0.252846,-0.0315662,2.574,2.58658
0.2612,-0.0315662,2.574,2.58741
0.269555,-0.0315662,2.574,2.58827
0.275858,-0.0313332,2.555,2.57004
0.284151,-0.0313332,2.555,2.57094
0.290269,-0.0311002,2.536,2.55275
0.2985,-0.0311002,2.536,2.5537
0.306732,-0.0311002,2.536,2.55467
0.314963,-0.0311002,2.536,2.55567
0.320773,-0.0308672,2.517,2.53755
0.32659,-0.0306465,2.499,2.52044
0.334701,-0.0306465,2.499,2.5215
0.342812,-0.0306465,2.499,2.52259
nan,nan,nan,NaN
nan,nan,nan,NaN
0.367146,-0.0306465,2.499,2.52601
0.375257,-0.0306465,2.499,2.5272
nan,nan,nan,NaN
0.385839,-0.030205,2.463,2.49322
0.393834,-0.030205,2.463,2.49447
nan,nan,nan,NaN
nan,nan,nan,NaN
nan,nan,nan,NaN
nan,nan,nan,NaN
nan,nan,nan,NaN
nan,nan,nan,NaN
0.449794,-0.030205,2.463,2.50392
0.457788,-0.030205,2.463,2.50536
0.465782,-0.030205,2.463,2.50684
nan,nan,nan,NaN
nan,nan,nan,NaN
nan,nan,nan,NaN
nan,nan,nan,NaN
0.516842,-0.0308672,2.517,2.5697
0.525012,-0.0308672,2.517,2.57136
0.533181,-0.0308672,2.517,2.57304
nan,nan,nan,NaN
nan,nan,nan,NaN
nan,nan,nan,NaN
nan,nan,nan,NaN
nan,nan,nan,NaN
nan,nan,nan,NaN
0.603738,-0.0315662,2.574,2.64404
0.612092,-0.0315662,2.574,2.64596
0.620447,-0.0315662,2.574,2.64791
0.628801,-0.0315662,2.574,2.64988
0.637156,-0.0315662,2.574,2.65188
0.64551,-0.0315662,2.574,2.65389
0.649038,-0.0313332,2.555,2.63633
0.657331,-0.0313332,2.555,2.63839
0.665624,-0.0313332,2.555,2.64047
0.673917,-0.0313332,2.555,2.64257
0.677137,-0.0311002,2.536,2.62503
0.685368,-0.0311002,2.536,2.62716
0.693599,-0.0311002,2.536,2.62932
0.707089,-0.0313332,2.555,2.65122
0.715382,-0.0313332,2.555,2.65345
0.723674,-0.0313332,2.555,2.65569
0.731967,-0.0313332,2.555,2.65797
0.734755,-0.0311002,2.536,2.64048
0.742987,-0.0311002,2.536,2.64278
0.751218,-0.0311002,2.536,2.64511
0.759449,-0.0311002,2.536,2.64746
0.76768,-0.0311002,2.536,2.64983
0.775912,-0.0311002,2.536,2.65223
0.784143,-0.0311002,2.536,2.65465
0.792374,-0.0311002,2.536,2.65709
0.794607,-0.0308672,2.517,2.63963
0.802777,-0.0308672,2.517,2.6421
0.817068,-0.0311002,2.536,2.66456
0.825299,-0.0311002,2.536,2.66709
0.83353,-0.0311002,2.536,2.66965
0.835455,-0.0308672,2.517,2.65221
0.843624,-0.0308672,2.517,2.6548
0.851794,-0.0308672,2.517,2.6574
0.859963,-0.0308672,2.517,2.66003
0.868133,-0.0308672,2.517,2.66269
0.870036,-0.0306465,2.499,2.6463
0.878147,-0.0306465,2.499,2.64898
0.886258,-0.0306465,2.499,2.65168
0.887927,-0.0304257,2.481,2.63528
0.889479,-0.030205,2.463,2.61887
0.897474,-0.030205,2.463,2.62159
0.905468,-0.030205,2.463,2.62434
0.906787,-0.0299843,2.445,2.60791
0.914722,-0.0299843,2.445,2.61068
0.922658,-0.0299843,2.445,2.61347
0.924124,-0.0297758,2.428,2.59809
0.932004,-0.0297758,2.428,2.6009
0.939885,-0.0297758,2.428,2.60374
0.947766,-0.0297758,2.428,2.60659
0.955646,-0.0297758,2.428,2.60947
0.963527,-0.0297758,2.428,2.61237
0.971408,-0.0297758,2.428,2.61528
0.986145,-0.0299843,2.445,2.63655
1.0014,-0.030205,2.463,2.65896
1.01677,-0.0304257,2.481,2.68144
1.02482,-0.0304257,2.481,2.6845
1.03288,-0.0304257,2.481,2.68759
1.04848,-0.0306465,2.499,2.71021
1.05659,-0.0306465,2.499,2.71336
1.08047,-0.0311002,2.536,2.75675
1.09685,-0.0313332,2.555,2.78066
1.10515,-0.0313332,2.555,2.78395
1.13,-0.0317992,2.593,2.8287
1.1472,-0.0320445,2.613,2.85392
1.16452,-0.0322898,2.633,2.87921
1.17307,-0.0322898,2.633,2.88268
1.19104,-0.0325473,2.654,2.90918
1.20915,-0.0328049,2.675,2.93577
1.21783,-0.0328049,2.675,2.93936
1.25586,-0.0335897,2.739,3.01337
1.27491,-0.0338595,2.761,3.04132
1.28387,-0.0338595,2.761,3.04509
1.30313,-0.0341293,2.783,3.07317
1.32301,-0.0344114,2.806,3.10245
1.33211,-0.0344114,2.806,3.10634
1.34122,-0.0344114,2.806,3.11026
1.3614,-0.0346934,2.829,3.13972
1.37058,-0.0346934,2.829,3.14371
1.37976,-0.0346934,2.829,3.14773
1.40073,-0.0349878,2.853,3.1785
1.40999,-0.0349878,2.853,3.18259
1.41925,-0.0349878,2.853,3.18671
1.42851,-0.0349878,2.853,3.19084
1.43777,-0.0349878,2.853,3.195
1.44703,-0.0349878,2.853,3.19918
1.45629,-0.0349878,2.853,3.20337
1.47788,-0.0352821,2.877,3.23458
1.51254,-0.035883,2.926,3.29402
1.52204,-0.035883,2.926,3.29839
1.53154,-0.035883,2.926,3.30278
1.5542,-0.0361896,2.951,3.33545
1.56378,-0.0361896,2.951,3.33993
1.58722,-0.0365084,2.977,3.37389
1.61083,-0.0368273,3.003,3.40795
1.62058,-0.0368273,3.003,3.41257
1.64498,-0.0371584,3.03,3.44793
1.66956,-0.0374895,3.057,3.4834
1.67949,-0.0374895,3.057,3.48817
1.68941,-0.0374895,3.057,3.49296
1.69933,-0.0374895,3.057,3.49777
1.70925,-0.0374895,3.057,3.5026
1.70399,-0.0371584,3.03,3.47647
1.71383,-0.0371584,3.03,3.4813
1.72366,-0.0371584,3.03,3.48616
1.71805,-0.0368273,3.003,3.45992
1.72779,-0.0368273,3.003,3.46477
1.73754,-0.0368273,3.003,3.46964
1.74729,-0.0368273,3.003,3.47453
1.75704,-0.0368273,3.003,3.47945
1.76678,-0.0368273,3.003,3.48438
1.77653,-0.0368273,3.003,3.48933
1.78628,-0.0368273,3.003,3.4943
1.79602,-0.0368273,3.003,3.4993
1.80577,-0.0368273,3.003,3.50431
1.81552,-0.0368273,3.003,3.50934
1.82526,-0.0368273,3.003,3.51439
1.83501,-0.0368273,3.003,3.51946
1.84476,-0.0368273,3.003,3.52456
1.85451,-0.0368273,3.003,3.52967
1.86425,-0.0368273,3.003,3.5348
1.874,-0.0368273,3.003,3.53995
1.86744,-0.0365084,2.977,3.51443
1.84494,-0.035883,2.926,3.45927
1.85444,-0.035883,2.926,3.46435
1.83272,-0.0352821,2.877,3.41134
1.81133,-0.0346934,2.829,3.35937
1.82051,-0.0346934,2.829,3.36433
1.79994,-0.0341293,2.783,3.31452
1.78037,-0.0335897,2.739,3.26695
1.78926,-0.0335897,2.739,3.27181
1.76992,-0.0330624,2.696,3.22523
1.75097,-0.0325473,2.654,3.17973
1.75958,-0.0325473,2.654,3.18448
1.74088,-0.0320445,2.613,3.13998
1.72325,-0.0315662,2.574,3.09775
1.7316,-0.0315662,2.574,3.10241
1.71427,-0.0311002,2.536,3.06121
1.69737,-0.0306465,2.499,3.02109
-1.93066,-0.0250989,2.783,3.38721
-1.89124,-0.0247021,2.739,3.32859
-1.88235,-0.0247021,2.739,3.32355
-1.85842,-0.0245037,2.717,3.29187
-1.8496,-0.0245037,2.717,3.2869
-1.84078,-0.0245037,2.717,3.28194
-1.8178,-0.0243143,2.696,3.25168
-1.78087,-0.0239355,2.654,3.19621
-1.77225,-0.0239355,2.654,3.19142
-1.74968,-0.0237461,2.633,3.16143
-1.74114,-0.0237461,2.633,3.15671
-1.74641,-0.0239355,2.654,3.17714
-1.7378,-0.0239355,2.654,3.17242
-1.7155,-0.0237461,2.633,3.14264
-1.70695,-0.0237461,2.633,3.13798
-1.69841,-0.0237461,2.633,3.13334
-1.68986,-0.0237461,2.633,3.12872
-1.68132,-0.0237461,2.633,3.12411
-1.67277,-0.0237461,2.633,3.11952
-1.66422,-0.0237461,2.633,3.11495
-1.66888,-0.0239355,2.654,3.1352
-1.66027,-0.0239355,2.654,3.13062
-1.65165,-0.0239355,2.654,3.12606
-1.64304,-0.0239355,2.654,3.12152
-1.63443,-0.0239355,2.654,3.11699
-1.62581,-0.0239355,2.654,3.11248
-1.6172,-0.0239355,2.654,3.10799
-1.62131,-0.0241249,2.675,3.12808
-1.61263,-0.0241249,2.675,3.12358
-1.60395,-0.0241249,2.675,3.11911
-1.59526,-0.0241249,2.675,3.11465
-1.59904,-0.0243143,2.696,3.13463
-1.59029,-0.0243143,2.696,3.13018
-1.56922,-0.0241249,2.675,3.10139
-1.54828,-0.0239355,2.654,3.0727
-1.53967,-0.0239355,2.654,3.06837
-1.53105,-0.0239355,2.654,3.06405
-1.52244,-0.0239355,2.654,3.05976
-1.5258,-0.0241249,2.675,3.07966
-1.51712,-0.0241249,2.675,3.07536
-1.50844,-0.0241249,2.675,3.07109
-1.49976,-0.0241249,2.675,3.06684
-1.47937,-0.0239355,2.654,3.03856
-1.47075,-0.0239355,2.654,3.03437
-1.46214,-0.0239355,2.654,3.03021
-1.45353,-0.0239355,2.654,3.02606
-1.44491,-0.0239355,2.654,3.02193
-1.44766,-0.0241249,2.675,3.0417
-1.47341,-0.0247021,2.739,3.11025
-1.46452,-0.0247021,2.739,3.10605
-1.46732,-0.0249005,2.761,3.12678
-1.46998,-0.0250989,2.783,3.14747
-1.46095,-0.0250989,2.783,3.14326
-1.45191,-0.0250989,2.783,3.13907
-1.46673,-0.0255138,2.829,3.18672
-1.46991,-0.0257302,2.853,3.2095
-1.46065,-0.0257302,2.853,3.20527
-1.45139,-0.0257302,2.853,3.20106
-1.44213,-0.0257302,2.853,3.19688
-1.42082,-0.0255138,2.829,3.16585
-1.38868,-0.0250989,2.783,3.11033
-1.37965,-0.0250989,2.783,3.10631
-1.32777,-0.0243143,2.696,3.00533
-1.30874,-0.0241249,2.675,2.97809
-1.30006,-0.0241249,2.675,2.97428
-1.2711,-0.0237461,2.633,2.92386
-1.24338,-0.0233854,2.593,2.87579
-1.22591,-0.023214,2.574,2.85112
-1.21756,-0.023214,2.574,2.84754
-1.20028,-0.0230427,2.555,2.82298
-1.18312,-0.0228713,2.536,2.7985
-1.17489,-0.0228713,2.536,2.79503
-1.14964,-0.0225376,2.499,2.75085
-1.1333,-0.0223753,2.481,2.72768
-1.12525,-0.0223753,2.481,2.72434
-1.1172,-0.0223753,2.481,2.72103
-1.1011,-0.022213,2.463,2.69801
-1.0931,-0.022213,2.463,2.69476
-1.08511,-0.022213,2.463,2.69153
-1.07712,-0.022213,2.463,2.68832
-1.06912,-0.022213,2.463,2.68512
-1.06113,-0.022213,2.463,2.68195
-1.04544,-0.0220506,2.445,2.65922
-1.0375,-0.0220506,2.445,2.65611
-1.02956,-0.0220506,2.445,2.65302
-1.01452,-0.0218973,2.428,2.63153
-1.00664,-0.0218973,2.428,2.6285
-0.998763,-0.0218973,2.428,2.62549
-0.990883,-0.0218973,2.428,2.6225
-0.983002,-0.0218973,2.428,2.61953
-0.975121,-0.0218973,2.428,2.61659
-0.967241,-0.0218973,2.428,2.61366
-0.952643,-0.021744,2.411,2.59247
-0.944817,-0.021744,2.411,2.58961
-0.936992,-0.021744,2.411,2.58676
-0.929166,-0.021744,2.411,2.58394
-0.914845,-0.0215907,2.394,2.56294
-0.907074,-0.0215907,2.394,2.56017
-0.899304,-0.0215907,2.394,2.55743
-0.891534,-0.0215907,2.394,2.55471
-0.883763,-0.0215907,2.394,2.55201
-0.875993,-0.0215907,2.394,2.54933
-0.868223,-0.0215907,2.394,2.54667
-0.854342,-0.0214374,2.377,2.52596
-0.846627,-0.0214374,2.377,2.52336
-0.838912,-0.0214374,2.377,2.52079
-0.831197,-0.0214374,2.377,2.51823
-0.823481,-0.0214374,2.377,2.51569
-0.815766,-0.0214374,2.377,2.51318
-0.808051,-0.0214374,2.377,2.51068
-0.800336,-0.0214374,2.377,2.50821
-0.792621,-0.0214374,2.377,2.50576
-0.790519,-0.0215907,2.394,2.52123
-0.782749,-0.0215907,2.394,2.51881
-0.774979,-0.0215907,2.394,2.51641
-0.767208,-0.0215907,2.394,2.51402
-0.759438,-0.0215907,2.394,2.51166
-0.751668,-0.0215907,2.394,2.50932
-0.743897,-0.0215907,2.394,2.50701
-0.736127,-0.0215907,2.394,2.50471
-0.728357,-0.0215907,2.394,2.50244
-0.720586,-0.0215907,2.394,2.50019
-0.712816,-0.0215907,2.394,2.49796
-0.710052,-0.021744,2.411,2.51348
-0.702227,-0.021744,2.411,2.51128
-0.694401,-0.021744,2.411,2.5091
-0.686576,-0.021744,2.411,2.50695
-0.67875,-0.021744,2.411,2.50481
-0.670925,-0.021744,2.411,2.50271
-0.663099,-0.021744,2.411,2.50062
-0.659894,-0.0218973,2.428,2.51617
-0.652013,-0.0218973,2.428,2.51412
-0.644133,-0.0218973,2.428,2.51208
-0.636252,-0.0218973,2.428,2.51008
-0.628371,-0.0218973,2.428,2.50809
-0.620491,-0.0218973,2.428,2.50613
-0.61261,-0.0218973,2.428,2.50419
-0.604729,-0.0218973,2.428,2.50227
-0.596848,-0.0218973,2.428,2.50038
-0.588968,-0.0218973,2.428,2.49851
-0.581087,-0.0218973,2.428,2.49666
-0.573206,-0.0218973,2.428,2.49484
-0.565326,-0.0218973,2.428,2.49304
-0.557445,-0.0218973,2.428,2.49127
-0.549564,-0.0218973,2.428,2.48952
-0.541684,-0.0218973,2.428,2.48779
-0.53754,-0.0220506,2.445,2.50349
-0.529605,-0.0220506,2.445,2.5018
-0.521669,-0.0220506,2.445,2.50013
-0.510161,-0.0218973,2.428,2.48111
-0.50228,-0.0218973,2.428,2.47951
-0.4944,-0.0218973,2.428,2.47792
-0.486519,-0.0218973,2.428,2.47636
-0.478638,-0.0218973,2.428,2.47483
-0.470758,-0.0218973,2.428,2.47331
-0.462877,-0.0218973,2.428,2.47183
-0.458182,-0.0220506,2.445,2.48766
-0.450246,-0.0220506,2.445,2.48621
-0.44231,-0.0220506,2.445,2.48478
-0.434374,-0.0220506,2.445,2.48338
-0.426438,-0.0220506,2.445,2.48201
-0.418503,-0.0220506,2.445,2.48066
-0.413589,-0.022213,2.463,2.49758
-0.405595,-0.022213,2.463,2.49627
-0.397601,-0.022213,2.463,2.49498
-0.389606,-0.022213,2.463,2.49372
-0.381612,-0.022213,2.463,2.49249
-0.373618,-0.022213,2.463,2.49128
-0.368296,-0.0223753,2.481,2.50829
-0.360243,-0.0223753,2.481,2.50712
-0.354745,-0.0225376,2.499,2.52415
-0.346634,-0.0225376,2.499,2.52303
-0.338523,-0.0225376,2.499,2.52193
-0.332792,-0.0227,2.517,2.53901
-0.322301,-0.0225376,2.499,2.5198
-0.31419,-0.0225376,2.499,2.51877
-0.308283,-0.0227,2.517,2.53591
-0.300114,-0.0227,2.517,2.53493
-0.291944,-0.0227,2.517,2.53398
-0.285917,-0.0228713,2.536,2.55217
-0.277685,-0.0228713,2.536,2.55126
-0.269454,-0.0228713,2.536,2.55038
-0.261223,-0.0228713,2.536,2.54952
-0.254887,-0.0230427,2.555,2.56779
-0.246594,-0.0230427,2.555,2.56698
-0.236529,-0.0228713,2.536,2.54711
-0.228298,-0.0228713,2.536,2.54636
-0.220067,-0.0228713,2.536,2.54563
-0.211836,-0.0228713,2.536,2.54493
-0.203604,-0.0228713,2.536,2.54426
-0.195373,-0.0228713,2.536,2.54362
-0.187142,-0.0228713,2.536,2.543
-0.178911,-0.0228713,2.536,2.54241
-0.170679,-0.0228713,2.536,2.54184
-0.162448,-0.0228713,2.536,2.5413
-0.154217,-0.0228713,2.536,2.54079
-0.14708,-0.0230427,2.555,2.55933
-0.138787,-0.0230427,2.555,2.55887
-0.130494,-0.0230427,2.555,2.55843
-0.122201,-0.0230427,2.555,2.55802
-0.113908,-0.0230427,2.555,2.55764
-0.105615,-0.0230427,2.555,2.55729
-0.0980459,-0.023214,2.574,2.57597
-0.0896914,-0.023214,2.574,2.57567
-0.0813368,-0.023214,2.574,2.57539
-0.0729822,-0.023214,2.574,2.57514
-0.0646277,-0.023214,2.574,2.57492
-0.0562731,-0.023214,2.574,2.57472
-0.0479185,-0.023214,2.574,2.57455
-0.039564,-0.023214,2.574,2.57441
-0.0312094,-0.023214,2.574,2.57429
-0.0228548,-0.023214,2.574,2.57421
-0.0146073,-0.0233854,2.593,2.59315
-0.00619107,-0.0233854,2.593,2.59311
0.00220886,-0.023214,2.574,2.57411
0.0105634,-0.023214,2.574,2.57413
0.018918,-0.023214,2.574,2.57417
0.0272725,-0.023214,2.574,2.57425
0.0356271,-0.023214,2.574,2.57435
0.0439817,-0.023214,2.574,2.57448
0.0523362,-0.023214,2.574,2.57464
0.0606908,-0.023214,2.574,2.57482
0.0690454,-0.023214,2.574,2.57503
0.0773999,-0.023214,2.574,2.57527
0.0857545,-0.023214,2.574,2.57553
0.0941091,-0.023214,2.574,2.57582
0.102464,-0.023214,2.574,2.57614
0.110818,-0.023214,2.574,2.57649
0.119173,-0.023214,2.574,2.57686
0.127527,-0.023214,2.574,2.57726
0.134879,-0.0230427,2.555,2.55866
0.143172,-0.0230427,2.555,2.55911
0.151465,-0.0230427,2.555,2.55959
0.159758,-0.0230427,2.555,2.56009
0.1693,-0.023214,2.574,2.57967
0.177655,-0.023214,2.574,2.58023
0.186009,-0.023214,2.574,2.58082
0.194364,-0.023214,2.574,2.58143
0.204215,-0.0233854,2.593,2.60113
0.212631,-0.0233854,2.593,2.60181
0.221047,-0.0233854,2.593,2.60251
0.229463,-0.0233854,2.593,2.60324
0.23788,-0.0233854,2.593,2.60399
0.246296,-0.0233854,2.593,2.60478
0.252846,-0.023214,2.574,2.58649
0.2612,-0.023214,2.574,2.58732
0.269555,-0.023214,2.574,2.58818
0.275858,-0.0230427,2.555,2.56995
0.284151,-0.0230427,2.555,2.57086
0.290269,-0.0228713,2.536,2.55266
0.2985,-0.0228713,2.536,2.55361
0.306732,-0.0228713,2.536,2.55458
0.314963,-0.0228713,2.536,2.55559
0.320773,-0.0227,2.517,2.53746
0.32659,-0.0225376,2.499,2.52035
0.334701,-0.0225376,2.499,2.52141
0.342812,-0.0225376,2.499,2.5225
0.350923,-0.0225376,2.499,2.52362
0.359034,-0.0225376,2.499,2.52476
0.367146,-0.0225376,2.499,2.52593
0.372554,-0.0223753,2.481,2.50892
0.380606,-0.0223753,2.481,2.51012
0.385839,-0.022213,2.463,2.49314
0.393834,-0.022213,2.463,2.49439
nan,nan,nan,NaN
nan,nan,nan,NaN
nan,nan,nan,NaN
nan,nan,nan,NaN
nan,nan,nan,NaN
nan,nan,nan,NaN
0.449794,-0.022213,2.463,2.50383
0.457788,-0.022213,2.463,2.50528
0.465782,-0.022213,2.463,2.50675
nan,nan,nan,NaN
nan,nan,nan,NaN
nan,nan,nan,NaN
nan,nan,nan,NaN
0.516842,-0.0227,2.517,2.56962
0.525012,-0.0227,2.517,2.57127
0.533181,-0.0227,2.517,2.57295
nan,nan,nan,NaN
nan,nan,nan,NaN
nan,nan,nan,NaN
nan,nan,nan,NaN
nan,nan,nan,NaN
nan,nan,nan,NaN
0.603738,-0.023214,2.574,2.64396
0.612092,-0.023214,2.574,2.64588
0.620447,-0.023214,2.574,2.64782
0.62416,-0.0230427,2.555,2.63023
0.632453,-0.0230427,2.555,2.63221
0.640746,-0.0230427,2.555,2.63422
0.649038,-0.0230427,2.555,2.63625
0.657331,-0.0230427,2.555,2.6383
0.665624,-0.0230427,2.555,2.64038
0.668906,-0.0228713,2.536,2.62283
0.677137,-0.0228713,2.536,2.62494
0.685368,-0.0228713,2.536,2.62708
0.693599,-0.0228713,2.536,2.62924
0.70183,-0.0228713,2.536,2.63142
0.710062,-0.0228713,2.536,2.63363
0.718293,-0.0228713,2.536,2.63586
0.726524,-0.0228713,2.536,2.63812
0.734755,-0.0228713,2.536,2.64039
0.742987,-0.0228713,2.536,2.6427
0.751218,-0.0228713,2.536,2.64502
0.759449,-0.0228713,2.536,2.64737
0.76768,-0.0228713,2.536,2.64975
0.775912,-0.0228713,2.536,2.65214
0.784143,-0.0228713,2.536,2.65456
0.792374,-0.0228713,2.536,2.657
0.794607,-0.0227,2.517,2.63955
0.802777,-0.0227,2.517,2.64202
0.817068,-0.0228713,2.536,2.66447
0.825299,-0.0228713,2.536,2.66701
0.83353,-0.0228713,2.536,2.66957
0.835455,-0.0227,2.517,2.65213
0.843624,-0.0227,2.517,2.65471
0.851794,-0.0227,2.517,2.65732
0.853814,-0.0225376,2.499,2.64093
0.861925,-0.0225376,2.499,2.64356
0.870036,-0.0225376,2.499,2.64622
0.871822,-0.0223753,2.481,2.62982
0.879874,-0.0223753,2.481,2.6325
0.887927,-0.0223753,2.481,2.6352
0.889479,-0.022213,2.463,2.61879
0.897474,-0.022213,2.463,2.62151
0.905468,-0.022213,2.463,2.62426
0.906787,-0.0220506,2.445,2.60783
0.914722,-0.0220506,2.445,2.6106
0.922658,-0.0220506,2.445,2.61339
0.924124,-0.0218973,2.428,2.59801
0.932004,-0.0218973,2.428,2.60083
0.939885,-0.0218973,2.428,2.60366
0.947766,-0.0218973,2.428,2.60652
0.955646,-0.0218973,2.428,2.60939
0.963527,-0.0218973,2.428,2.61229
0.971408,-0.0218973,2.428,2.61521
0.986145,-0.0220506,2.445,2.63647
0.994081,-0.0220506,2.445,2.63945
1.00939,-0.022213,2.463,2.66191
1.01739,-0.022213,2.463,2.66495
1.03288,-0.0223753,2.481,2.68751
1.04848,-0.0225376,2.499,2.71013
1.05659,-0.0225376,2.499,2.71328
1.07237,-0.0227,2.517,2.73602
1.0887,-0.0228713,2.536,2.75991
1.09693,-0.0228713,2.536,2.76316
1.11344,-0.0230427,2.555,2.78717
1.13842,-0.0233854,2.593,2.83199
1.15568,-0.0235658,2.613,2.85726
1.16416,-0.0235658,2.613,2.8607
1.18162,-0.0237461,2.633,2.88608
1.19965,-0.0239355,2.654,2.91264
1.20827,-0.0239355,2.654,2.9162
1.23614,-0.0243143,2.696,2.96598
1.26475,-0.0247021,2.739,3.017
1.27364,-0.0247021,2.739,3.02074
1.29283,-0.0249005,2.761,3.04879
1.31216,-0.0250989,2.783,3.07693
1.3212,-0.0250989,2.783,3.08079
1.33023,-0.0250989,2.783,3.08468
1.35033,-0.0253064,2.806,3.11411
1.35944,-0.0253064,2.806,3.11807
1.36854,-0.0253064,2.806,3.12205
1.38894,-0.0255138,2.829,3.15168
1.39813,-0.0255138,2.829,3.15573
1.40731,-0.0255138,2.829,3.15981
1.41649,-0.0255138,2.829,3.16391
1.42567,-0.0255138,2.829,3.16803
1.43486,-0.0255138,2.829,3.17218
1.44404,-0.0255138,2.829,3.17634
1.46555,-0.0257302,2.853,3.20751
1.48722,-0.0259467,2.877,3.23877
1.49655,-0.0259467,2.877,3.24307
1.51845,-0.0261631,2.901,3.27448
1.54104,-0.0263886,2.926,3.30711
1.55053,-0.0263886,2.926,3.31154
1.57336,-0.0266141,2.951,3.34433
1.59688,-0.0268486,2.977,3.37836
1.60655,-0.0268486,2.977,3.38293
1.63032,-0.027083,3.003,3.41712
1.65482,-0.0273265,3.03,3.45255
1.67949,-0.02757,3.057,3.48808
1.68941,-0.02757,3.057,3.49287
1.69933,-0.02757,3.057,3.49768
1.70925,-0.02757,3.057,3.50251
1.70399,-0.0273265,3.03,3.47638
1.71383,-0.0273265,3.03,3.48121
1.72366,-0.0273265,3.03,3.48607
1.71805,-0.027083,3.003,3.45983
1.72779,-0.027083,3.003,3.46468
1.73754,-0.027083,3.003,3.46955
1.74729,-0.027083,3.003,3.47444
1.75704,-0.027083,3.003,3.47936
1.76678,-0.027083,3.003,3.48429
1.77653,-0.027083,3.003,3.48924
1.78628,-0.027083,3.003,3.49421
1.79602,-0.027083,3.003,3.49921
1.80577,-0.027083,3.003,3.50422
1.81552,-0.027083,3.003,3.50925
1.82526,-0.027083,3.003,3.5143
1.83501,-0.027083,3.003,3.51938
1.84476,-0.027083,3.003,3.52447
1.85451,-0.027083,3.003,3.52958
1.86425,-0.027083,3.003,3.53471
1.874,-0.027083,3.003,3.53986
1.86744,-0.0268486,2.977,3.51434
1.84494,-0.0263886,2.926,3.45919
1.85444,-0.0263886,2.926,3.46426
1.83272,-0.0259467,2.877,3.41126
1.81133,-0.0255138,2.829,3.35929
1.82051,-0.0255138,2.829,3.36425
1.79994,-0.0250989,2.783,3.31444
1.78037,-0.0247021,2.739,3.26687
1.78926,-0.0247021,2.739,3.27173
1.76992,-0.0243143,2.696,3.22516
1.75097,-0.0239355,2.654,3.17965
1.75958,-0.0239355,2.654,3.1844
1.74088,-0.0235658,2.613,3.1399
1.72325,-0.023214,2.574,3.09768
1.7316,-0.023214,2.574,3.10233
1.71427,-0.0228713,2.536,3.06113
1.69737,-0.0225376,2.499,3.02102
-1.93066,-0.0160686,2.783,3.38715
-1.89124,-0.0158145,2.739,3.32854
-1.88235,-0.0158145,2.739,3.3235
-1.85842,-0.0156875,2.717,3.29181
-1.8353,-0.0155662,2.696,3.26144
-1.82655,-0.0155662,2.696,3.25652
-1.80364,-0.015445,2.675,3.2263
-1.78087,-0.0153237,2.654,3.19616
-1.77225,-0.0153237,2.654,3.19137
-1.74968,-0.0152025,2.633,3.16138
-1.74114,-0.0152025,2.633,3.15666
-1.73259,-0.0152025,2.633,3.15195
-1.72405,-0.0152025,2.633,3.14726
-1.7155,-0.0152025,2.633,3.14259
-1.69399,-0.015087,2.613,3.1141
-1.68551,-0.015087,2.613,3.10949
-1.67703,-0.015087,2.613,3.1049
-1.66854,-0.015087,2.613,3.10033
-1.66006,-0.015087,2.613,3.09577
-1.65158,-0.015087,2.613,3.09123
-1.6431,-0.015087,2.613,3.08671
-1.63462,-0.015087,2.613,3.0822
-1.62614,-0.015087,2.613,3.07771
-1.63004,-0.0152025,2.633,3.09676
-1.62149,-0.0152025,2.633,3.09227
-1.61295,-0.0152025,2.633,3.0878
-1.6044,-0.0152025,2.633,3.08335
-1.59585,-0.0152025,2.633,3.07891
-1.59997,-0.0153237,2.654,3.09901
-1.59135,-0.0153237,2.654,3.09457
-1.58274,-0.0153237,2.654,3.09015
-1.58658,-0.015445,2.675,3.11016
-1.5779,-0.015445,2.675,3.10574
-1.5569,-0.0153237,2.654,3.07699
-1.53603,-0.0152025,2.633,3.04833
-1.52749,-0.0152025,2.633,3.04403
-1.51894,-0.0152025,2.633,3.03975
-1.51039,-0.0152025,2.633,3.03549
-1.50185,-0.0152025,2.633,3.03125
-1.4933,-0.0152025,2.633,3.02702
-1.4966,-0.0153237,2.654,3.04693
-1.49976,-0.015445,2.675,3.06678
-1.46766,-0.0152025,2.633,3.01446
-1.45912,-0.0152025,2.633,3.01031
-1.45057,-0.0152025,2.633,3.00617
-1.45353,-0.0153237,2.654,3.026
-1.44491,-0.0153237,2.654,3.02187
-1.44766,-0.015445,2.675,3.04164
-1.46157,-0.0156875,2.717,3.08521
-1.45276,-0.0156875,2.717,3.08104
-1.46732,-0.0159415,2.761,3.12672
-1.45836,-0.0159415,2.761,3.12253
-1.4494,-0.0159415,2.761,3.11835
-1.45191,-0.0160686,2.783,3.13901
-1.4548,-0.0162014,2.806,3.16075
-1.4457,-0.0162014,2.806,3.15657
-1.43659,-0.0162014,2.806,3.15241
-1.45139,-0.0164727,2.853,3.201
-1.44213,-0.0164727,2.853,3.19682
-1.43287,-0.0164727,2.853,3.19265
-1.38868,-0.0160686,2.783,3.11027
-1.37965,-0.0160686,2.783,3.10625
-1.33811,-0.0156875,2.717,3.02868
-1.31902,-0.0155662,2.696,3.00141
-1.31027,-0.0155662,2.696,2.99758
-1.28124,-0.0153237,2.654,2.94712
-1.25297,-0.015087,2.613,2.89792
-1.23496,-0.0149715,2.593,2.87211
-1.22654,-0.0149715,2.593,2.8685
-1.20028,-0.0147521,2.555,2.82293
-1.18312,-0.0146424,2.536,2.79844
-1.17489,-0.0146424,2.536,2.79497
-1.14964,-0.0144288,2.499,2.7508
-1.14153,-0.0144288,2.499,2.74742
-1.13341,-0.0144288,2.499,2.74405
-1.1172,-0.0143249,2.481,2.72097
-1.10914,-0.0143249,2.481,2.71768
-1.10109,-0.0143249,2.481,2.7144
-1.09304,-0.0143249,2.481,2.71114
-1.07712,-0.0142209,2.463,2.68826
-1.06912,-0.0142209,2.463,2.68507
-1.06113,-0.0142209,2.463,2.6819
-1.04544,-0.014117,2.445,2.65917
-1.0375,-0.014117,2.445,2.65606
-1.02956,-0.014117,2.445,2.65297
-1.02163,-0.014117,2.445,2.6499
-1.00664,-0.0140188,2.428,2.62844
-0.998763,-0.0140188,2.428,2.62544
-0.990883,-0.0140188,2.428,2.62245
-0.983002,-0.0140188,2.428,2.61948
-0.975121,-0.0140188,2.428,2.61653
-0.967241,-0.0140188,2.428,2.61361
-0.95936,-0.0140188,2.428,2.6107
-0.951479,-0.0140188,2.428,2.60781
-0.943599,-0.0140188,2.428,2.60495
-0.929166,-0.0139207,2.411,2.58389
-0.921341,-0.0139207,2.411,2.58108
-0.913515,-0.0139207,2.411,2.5783
-0.90569,-0.0139207,2.411,2.57554
-0.891534,-0.0138225,2.394,2.55465
-0.883763,-0.0138225,2.394,2.55195
-0.875993,-0.0138225,2.394,2.54927
-0.868223,-0.0138225,2.394,2.54661
-0.860452,-0.0138225,2.394,2.54397
-0.852682,-0.0138225,2.394,2.54136
-0.844912,-0.0138225,2.394,2.53876
-0.837141,-0.0138225,2.394,2.53618
-0.829371,-0.0138225,2.394,2.53363
-0.821601,-0.0138225,2.394,2.5311
-0.81383,-0.0138225,2.394,2.52859
-0.80606,-0.0138225,2.394,2.5261
-0.79829,-0.0138225,2.394,2.52363
-0.790519,-0.0138225,2.394,2.52118
-0.788307,-0.0139207,2.411,2.53664
-0.780482,-0.0139207,2.411,2.53422
-0.772656,-0.0139207,2.411,2.53182
-0.764831,-0.0139207,2.411,2.52944
-0.757005,-0.0139207,2.411,2.52709
-0.74918,-0.0139207,2.411,2.52475
-0.741354,-0.0139207,2.411,2.52244
-0.733529,-0.0139207,2.411,2.52015
-0.725703,-0.0139207,2.411,2.51789
-0.717878,-0.0139207,2.411,2.51564
-0.710052,-0.0139207,2.411,2.51342
-0.702227,-0.0139207,2.411,2.51122
-0.694401,-0.0139207,2.411,2.50905
-0.686576,-0.0139207,2.411,2.50689
-0.67875,-0.0139207,2.411,2.50476
-0.670925,-0.0139207,2.411,2.50265
-0.663099,-0.0139207,2.411,2.50056
-0.659894,-0.0140188,2.428,2.51612
-0.652013,-0.0140188,2.428,2.51406
-0.644133,-0.0140188,2.428,2.51203
-0.636252,-0.0140188,2.428,2.51002
-0.628371,-0.0140188,2.428,2.50803
-0.620491,-0.0140188,2.428,2.50607
-0.61261,-0.0140188,2.428,2.50413
-0.604729,-0.0140188,2.428,2.50221
-0.596848,-0.0140188,2.428,2.50032
-0.588968,-0.0140188,2.428,2.49845
-0.581087,-0.0140188,2.428,2.49661
-0.573206,-0.0140188,2.428,2.49478
-0.565326,-0.0140188,2.428,2.49299
-0.557445,-0.0140188,2.428,2.49121
-0.549564,-0.0140188,2.428,2.48946
-0.541684,-0.0140188,2.428,2.48773
-0.53754,-0.014117,2.445,2.50343
-0.529605,-0.014117,2.445,2.50174
-0.521669,-0.014117,2.445,2.50007
-0.513733,-0.014117,2.445,2.49843
-0.505797,-0.014117,2.445,2.49681
-0.497861,-0.014117,2.445,2.49521
-0.489925,-0.014117,2.445,2.49364
-0.481989,-0.014117,2.445,2.4921
-0.474054,-0.014117,2.445,2.49057
-0.466118,-0.014117,2.445,2.48907
-0.458182,-0.014117,2.445,2.4876
-0.450246,-0.014117,2.445,2.48615
-0.44231,-0.014117,2.445,2.48473
-0.434374,-0.014117,2.445,2.48333
-0.429578,-0.0142209,2.463,2.50022
-0.421584,-0.0142209,2.463,2.49886
-0.413589,-0.0142209,2.463,2.49752
-0.405595,-0.0142209,2.463,2.49621
-0.397601,-0.0142209,2.463,2.49493
-0.389606,-0.0142209,2.463,2.49366
-0.384401,-0.0143249,2.481,2.51064
-0.376348,-0.0143249,2.481,2.50942
-0.368296,-0.0143249,2.481,2.50823
-0.362857,-0.0144288,2.499,2.52525
-0.354745,-0.0144288,2.499,2.52409
-0.346634,-0.0144288,2.499,2.52297
-0.340961,-0.0145327,2.517,2.54003
-0.332792,-0.0145327,2.517,2.53895
-0.324622,-0.0145327,2.517,2.53789
-0.318842,-0.0146424,2.536,2.55601
-0.31061,-0.0146424,2.536,2.55499
-0.302379,-0.0146424,2.536,2.55401
-0.294148,-0.0146424,2.536,2.55304
-0.285917,-0.0146424,2.536,2.55211
-0.277685,-0.0146424,2.536,2.5512
-0.269454,-0.0146424,2.536,2.55032
-0.26318,-0.0147521,2.555,2.56856
-0.254887,-0.0147521,2.555,2.56772
-0.246594,-0.0147521,2.555,2.56691
-0.236529,-0.0146424,2.536,2.54705
-0.228298,-0.0146424,2.536,2.5463
-0.220067,-0.0146424,2.536,2.54557
-0.211836,-0.0146424,2.536,2.54487
-0.20513,-0.0147521,2.555,2.56326
-0.196837,-0.0147521,2.555,2.56261
-0.187142,-0.0146424,2.536,2.54294
-0.178911,-0.0146424,2.536,2.54235
-0.170679,-0.0146424,2.536,2.54178
-0.162448,-0.0146424,2.536,2.54124
-0.154217,-0.0146424,2.536,2.54073
-0.14708,-0.0147521,2.555,2.55927
-0.138787,-0.0147521,2.555,2.55881
-0.130494,-0.0147521,2.555,2.55837
-0.122201,-0.0147521,2.555,2.55796
-0.113908,-0.0147521,2.555,2.55758
-0.105615,-0.0147521,2.555,2.55722
-0.0980459,-0.0148618,2.574,2.57591
-0.0896914,-0.0148618,2.574,2.57561
-0.0813368,-0.0148618,2.574,2.57533
-0.0729822,-0.0148618,2.574,2.57508
-0.0646277,-0.0148618,2.574,2.57485
-0.0562731,-0.0148618,2.574,2.57466
-0.0479185,-0.0148618,2.574,2.57449
-0.039564,-0.0148618,2.574,2.57435
-0.0312094,-0.0148618,2.574,2.57423
-0.0228548,-0.0148618,2.574,2.57414
-0.0146073,-0.0149715,2.593,2.59308
-0.00614571,-0.0148618,2.574,2.57405
0.00220886,-0.0148618,2.574,2.57404
0.0105634,-0.0148618,2.574,2.57406
0.018918,-0.0148618,2.574,2.57411
0.0272725,-0.0148618,2.574,2.57419
0.0356271,-0.0148618,2.574,2.57429
0.0439817,-0.0148618,2.574,2.57442
0.0523362,-0.0148618,2.574,2.57457
0.0606908,-0.0148618,2.574,2.57476
0.0690454,-0.0148618,2.574,2.57497
0.0773999,-0.0148618,2.574,2.57521
0.0857545,-0.0148618,2.574,2.57547
0.0941091,-0.0148618,2.574,2.57576
0.102464,-0.0148618,2.574,2.57608
0.110818,-0.0148618,2.574,2.57643
0.118293,-0.0147521,2.555,2.55778
0.126586,-0.0147521,2.555,2.55818
0.134879,-0.0147521,2.555,2.5586
0.143172,-0.0147521,2.555,2.55905
0.151465,-0.0147521,2.555,2.55953
0.159758,-0.0147521,2.555,2.56003
0.1693,-0.0148618,2.574,2.5796
0.177655,-0.0148618,2.574,2.58017
0.186009,-0.0148618,2.574,2.58076
0.194364,-0.0148618,2.574,2.58137
0.204215,-0.0149715,2.593,2.60107
0.212631,-0.0149715,2.593,2.60175
0.221047,-0.0149715,2.593,2.60245
0.227782,-0.0148618,2.574,2.5841
0.236137,-0.0148618,2.574,2.58485
0.244491,-0.0148618,2.574,2.58563
0.250979,-0.0147521,2.555,2.56734
0.259272,-0.0147521,2.555,2.56816
0.267565,-0.0147521,2.555,2.56901
0.273807,-0.0146424,2.536,2.55078
0.282038,-0.0146424,2.536,2.55168
0.290269,-0.0146424,2.536,2.5526
0.2985,-0.0146424,2.536,2.55355
0.304434,-0.0145327,2.517,2.53539
0.312603,-0.0145327,2.517,2.53638
0.318479,-0.0144288,2.499,2.51925
0.32659,-0.0144288,2.499,2.52029
0.334701,-0.0144288,2.499,2.52136
0.342812,-0.0144288,2.499,2.52245
0.350923,-0.0144288,2.499,2.52356
0.359034,-0.0144288,2.499,2.5247
0.367146,-0.0144288,2.499,2.52587
0.372554,-0.0143249,2.481,2.50886
0.380606,-0.0143249,2.481,2.51007
0.388659,-0.0143249,2.481,2.5113
0.396712,-0.0143249,2.481,2.51256
nan,nan,nan,NaN
nan,nan,nan,NaN
nan,nan,nan,NaN
nan,nan,nan,NaN
nan,nan,nan,NaN
nan,nan,nan,NaN
nan,nan,nan,NaN
nan,nan,nan,NaN
nan,nan,nan,NaN
nan,nan,nan,NaN
nan,nan,nan,NaN
nan,nan,nan,NaN
nan,nan,nan,NaN
nan,nan,nan,NaN
nan,nan,nan,NaN
nan,nan,nan,NaN
nan,nan,nan,NaN
nan,nan,nan,NaN
nan,nan,nan,NaN
nan,nan,nan,NaN
nan,nan,nan,NaN
nan,nan,nan,NaN
0.603738,-0.0148618,2.574,2.6439
0.603056,-0.0146424,2.536,2.60676
0.611287,-0.0146424,2.536,2.60867
0.619518,-0.0146424,2.536,2.61062
0.627749,-0.0146424,2.536,2.61258
0.635981,-0.0146424,2.536,2.61457
0.644212,-0.0146424,2.536,2.61659
0.652443,-0.0146424,2.536,2.61862
0.660674,-0.0146424,2.536,2.62069
0.663894,-0.0145327,2.517,2.60312
0.672064,-0.0145327,2.517,2.60522
0.685368,-0.0146424,2.536,2.62702
0.693599,-0.0146424,2.536,2.62918
0.70183,-0.0146424,2.536,2.63136
0.710062,-0.0146424,2.536,2.63357
0.718293,-0.0146424,2.536,2.6358
0.726524,-0.0146424,2.536,2.63806
0.734755,-0.0146424,2.536,2.64034
0.742987,-0.0146424,2.536,2.64264
0.751218,-0.0146424,2.536,2.64496
0.759449,-0.0146424,2.536,2.64731
0.76768,-0.0146424,2.536,2.64969
0.775912,-0.0146424,2.536,2.65208
0.784143,-0.0146424,2.536,2.6545
0.792374,-0.0146424,2.536,2.65695
0.800605,-0.0146424,2.536,2.65941
0.808836,-0.0146424,2.536,2.6619
0.817068,-0.0146424,2.536,2.66442
0.825299,-0.0146424,2.536,2.66695
0.827285,-0.0145327,2.517,2.64951
0.835455,-0.0145327,2.517,2.65207
0.843624,-0.0145327,2.517,2.65466
0.851794,-0.0145327,2.517,2.65726
0.853814,-0.0144288,2.499,2.64087
0.861925,-0.0144288,2.499,2.64351
0.863769,-0.0143249,2.481,2.6271
0.871822,-0.0143249,2.481,2.62976
0.879874,-0.0143249,2.481,2.63244
0.887927,-0.0143249,2.481,2.63514
0.889479,-0.0142209,2.463,2.61873
0.897474,-0.0142209,2.463,2.62146
0.905468,-0.0142209,2.463,2.6242
0.906787,-0.014117,2.445,2.60777
0.914722,-0.014117,2.445,2.61054
0.922658,-0.014117,2.445,2.61334
0.924124,-0.0140188,2.428,2.59796
0.932004,-0.0140188,2.428,2.60077
0.939885,-0.0140188,2.428,2.60361
0.947766,-0.0140188,2.428,2.60646
0.955646,-0.0140188,2.428,2.60934
0.963527,-0.0140188,2.428,2.61223
0.971408,-0.0140188,2.428,2.61515
0.986145,-0.014117,2.445,2.63642
0.994081,-0.014117,2.445,2.6394
1.00939,-0.0142209,2.463,2.66185
1.01739,-0.0142209,2.463,2.66489
1.03288,-0.0143249,2.481,2.68745
1.04848,-0.0144288,2.499,2.71008
1.05659,-0.0144288,2.499,2.71323
1.07237,-0.0145327,2.517,2.73596
1.0887,-0.0146424,2.536,2.75985
1.09693,-0.0146424,2.536,2.76311
1.11344,-0.0147521,2.555,2.78711
1.13842,-0.0149715,2.593,2.83194
1.15568,-0.015087,2.613,2.8572
1.16416,-0.015087,2.613,2.86064
1.18162,-0.0152025,2.633,2.88602
1.19965,-0.0153237,2.654,2.91258
1.20827,-0.0153237,2.654,2.91614
1.23614,-0.0155662,2.696,2.96592
1.26475,-0.0158145,2.739,3.01694
1.27364,-0.0158145,2.739,3.02068
1.29283,-0.0159415,2.761,3.04873
1.31216,-0.0160686,2.783,3.07687
1.3212,-0.0160686,2.783,3.08073
1.33023,-0.0160686,2.783,3.08462
1.35033,-0.0162014,2.806,3.11405
1.35944,-0.0162014,2.806,3.11801
1.36854,-0.0162014,2.806,3.12199
1.38894,-0.0163341,2.829,3.15161
1.39813,-0.0163341,2.829,3.15567
1.40731,-0.0163341,2.829,3.15975
1.41649,-0.0163341,2.829,3.16385
1.42567,-0.0163341,2.829,3.16797
1.43486,-0.0163341,2.829,3.17212
1.44404,-0.0163341,2.829,3.17628
1.46555,-0.0164727,2.853,3.20745
1.48722,-0.0166113,2.877,3.23871
1.49655,-0.0166113,2.877,3.243
1.51845,-0.0167499,2.901,3.27441
1.54104,-0.0168942,2.926,3.30705
1.55053,-0.0168942,2.926,3.31148
1.57336,-0.0170386,2.951,3.34427
1.59688,-0.0171887,2.977,3.37829
1.60655,-0.0171887,2.977,3.38287
1.63032,-0.0173388,3.003,3.41706
1.65482,-0.0174947,3.03,3.45248
1.66465,-0.0174947,3.03,3.45721
1.67449,-0.0174947,3.03,3.46195
1.68432,-0.0174947,3.03,3.46672
1.69416,-0.0174947,3.03,3.47151
1.68881,-0.0173388,3.003,3.44534
1.69855,-0.0173388,3.003,3.45013
1.7083,-0.0173388,3.003,3.45494
1.71805,-0.0173388,3.003,3.45977
1.71284,-0.0171887,2.977,3.43462
1.7225,-0.0171887,2.977,3.43945
1.73216,-0.0171887,2.977,3.4443
1.74182,-0.0171887,2.977,3.44917
1.75149,-0.0171887,2.977,3.45406
1.77653,-0.0173388,3.003,3.48918
1.78628,-0.0173388,3.003,3.49415
1.79602,-0.0173388,3.003,3.49914
1.80577,-0.0173388,3.003,3.50416
1.81552,-0.0173388,3.003,3.50919
1.82526,-0.0173388,3.003,3.51424
1.83501,-0.0173388,3.003,3.51932
1.84476,-0.0173388,3.003,3.52441
1.85451,-0.0173388,3.003,3.52952
