-1.45903,0.64054,2.696,3.13169
-1.47341,0.650756,2.739,3.17751
-1.46452,0.650756,2.739,3.17339
-1.46732,0.655983,2.761,3.19476
-1.45836,0.655983,2.761,3.19065
-1.4494,0.655983,2.761,3.18656
-1.44044,0.655983,2.761,3.1825
-1.40866,0.645529,2.717,3.1278
-1.3782,0.63555,2.675,3.07555
-1.36952,0.63555,2.675,3.07167
-1.35016,0.630561,2.654,3.04372
-1.33093,0.625572,2.633,3.01586
-1.32238,0.625572,2.633,3.0121
-1.29387,0.616068,2.593,2.96265
-1.28546,0.616068,2.593,2.95899
-1.25833,0.60704,2.555,2.91203
-1.25003,0.60704,2.555,2.90845
-1.23251,0.602525,2.536,2.8833
-1.2151,0.598011,2.517,2.85821
-1.20693,0.598011,2.517,2.85475
-1.19876,0.598011,2.517,2.85131
-1.1906,0.598011,2.517,2.84788
-1.18243,0.598011,2.517,2.84448
-1.17426,0.598011,2.517,2.84109
-1.15775,0.593735,2.499,2.81743
-1.14964,0.593735,2.499,2.8141
-1.14153,0.593735,2.499,2.8108
-1.13341,0.593735,2.499,2.80752
-1.1253,0.593735,2.499,2.80425
-1.11719,0.593735,2.499,2.80101
-1.10109,0.589458,2.481,2.77763
-1.09304,0.589458,2.481,2.77445
-1.08499,0.589458,2.481,2.77128
-1.06912,0.585181,2.463,2.74806
-1.06113,0.585181,2.463,2.74496
-1.05313,0.585181,2.463,2.74188
-1.04514,0.585181,2.463,2.73882
-1.03714,0.585181,2.463,2.73578
-1.02915,0.585181,2.463,2.73276
-1.02116,0.585181,2.463,2.72976
-1.01316,0.585181,2.463,2.72677
-1.00517,0.585181,2.463,2.72381
-1.00446,0.589458,2.481,2.74076
-0.996407,0.589458,2.481,2.73782
-0.995525,0.593735,2.499,2.75474
-0.987414,0.593735,2.499,2.75182
-0.979303,0.593735,2.499,2.74892
-0.971191,0.593735,2.499,2.74604
-0.970017,0.598011,2.517,2.76294
-0.961848,0.598011,2.517,2.76008
-0.953678,0.598011,2.517,2.75725
-0.945509,0.598011,2.517,2.75443
-0.937339,0.598011,2.517,2.75164
-0.92917,0.598011,2.517,2.74887
-0.921,0.598011,2.517,2.74612
-0.91283,0.598011,2.517,2.74339
-0.904661,0.598011,2.517,2.74068
-0.89008,0.593735,2.499,2.71841
-0.881969,0.593735,2.499,2.71577
-0.873858,0.593735,2.499,2.71314
-0.865747,0.593735,2.499,2.71054
-0.857636,0.593735,2.499,2.70796
-0.849525,0.593735,2.499,2.7054
-0.835353,0.589458,2.481,2.6834
-0.8273,0.589458,2.481,2.6809
-0.819247,0.589458,2.481,2.67843
-0.811195,0.589458,2.481,2.67598
-0.797315,0.585181,2.463,2.65415
-0.789321,0.585181,2.463,2.65176
-0.781326,0.585181,2.463,2.64939
-0.773332,0.585181,2.463,2.64705
-0.765338,0.585181,2.463,2.64472
-0.757344,0.585181,2.463,2.64242
-0.749349,0.585181,2.463,2.64014
-0.741355,0.585181,2.463,2.63788
-0.733361,0.585181,2.463,2.63564
-0.725366,0.585181,2.463,2.63343
-0.717372,0.585181,2.463,2.63124
-0.709378,0.585181,2.463,2.62907
-0.701384,0.585181,2.463,2.62693
-0.698457,0.589458,2.481,2.64399
-0.690404,0.589458,2.481,2.64187
-0.682351,0.589458,2.481,2.63978
-0.674299,0.589458,2.481,2.63771
-0.666246,0.589458,2.481,2.63566
-0.658193,0.589458,2.481,2.63364
-0.65014,0.589458,2.481,2.63164
-0.642088,0.589458,2.481,2.62966
-0.634035,0.589458,2.481,2.6277
-0.625982,0.589458,2.481,2.62577
-0.61793,0.589458,2.481,2.62386
-0.609877,0.589458,2.481,2.62198
-0.601824,0.589458,2.481,2.62012
-0.593771,0.589458,2.481,2.61828
-0.585719,0.589458,2.481,2.61647
-0.577666,0.589458,2.481,2.61467
-0.565481,0.585181,2.463,2.59395
-0.557486,0.585181,2.463,2.59222
-0.549492,0.585181,2.463,2.59051
-0.541498,0.585181,2.463,2.58883
-0.533504,0.585181,2.463,2.58717
-0.525509,0.585181,2.463,2.58553
-0.517515,0.585181,2.463,2.58392
-0.509521,0.585181,2.463,2.58233
-0.501526,0.585181,2.463,2.58076
-0.493532,0.585181,2.463,2.57922
-0.481989,0.580905,2.445,2.55887
-0.474054,0.580905,2.445,2.55738
-0.466118,0.580905,2.445,2.55592
-0.458182,0.580905,2.445,2.55449
-0.450246,0.580905,2.445,2.55308
-0.445566,0.585181,2.463,2.57047
-0.437572,0.585181,2.463,2.5691
-0.429578,0.585181,2.463,2.56775
-0.421584,0.585181,2.463,2.56643
-0.413589,0.585181,2.463,2.56512
-0.405595,0.585181,2.463,2.56385
-0.400506,0.589458,2.481,2.58132
-0.392454,0.589458,2.481,2.58009
-0.384401,0.589458,2.481,2.57887
-0.376348,0.589458,2.481,2.57769
-0.368296,0.589458,2.481,2.57652
-0.360243,0.589458,2.481,2.57538
-0.35219,0.589458,2.481,2.57427
-0.344137,0.589458,2.481,2.57318
-0.333646,0.585181,2.463,2.55345
-0.325652,0.585181,2.463,2.55242
-0.317658,0.585181,2.463,2.55141
-0.309664,0.585181,2.463,2.55043
-0.299465,0.580905,2.445,2.53084
-0.291529,0.580905,2.445,2.52991
-0.283593,0.580905,2.445,2.52901
-0.275657,0.580905,2.445,2.52813
-0.26586,0.576866,2.428,2.50971
-0.257979,0.576866,2.428,2.50889
-0.250098,0.576866,2.428,2.50809
-0.242218,0.576866,2.428,2.50732
-0.234337,0.576866,2.428,2.50657
-0.226456,0.576866,2.428,2.50584
-0.218576,0.576866,2.428,2.50514
-0.210695,0.576866,2.428,2.50447
-0.202814,0.576866,2.428,2.50382
-0.193569,0.572827,2.411,2.48566
-0.185743,0.572827,2.411,2.48507
-0.177918,0.572827,2.411,2.48449
-0.170092,0.572827,2.411,2.48395
-0.162267,0.572827,2.411,2.48342
-0.154441,0.572827,2.411,2.48292
-0.146616,0.572827,2.411,2.48245
-0.13879,0.572827,2.411,2.482
-0.130965,0.572827,2.411,2.48157
-0.123139,0.572827,2.411,2.48117
-0.115314,0.572827,2.411,2.4808
-0.107488,0.572827,2.411,2.48044
-0.0996626,0.572827,2.411,2.48012
-0.0918371,0.572827,2.411,2.47982
-0.0840116,0.572827,2.411,2.47954
-0.0767233,0.576866,2.428,2.49677
-0.0688426,0.576866,2.428,2.49654
-0.0613887,0.580905,2.445,2.51381
-0.0534529,0.580905,2.445,2.51363
-0.045517,0.580905,2.445,2.51347
-0.0378578,0.585181,2.463,2.53185
-0.0298635,0.585181,2.463,2.53174
-0.0218693,0.585181,2.463,2.53166
-0.013875,0.585181,2.463,2.5316
-0.00583771,0.580905,2.445,2.51307
0.00209816,0.580905,2.445,2.51306
0.010034,0.580905,2.445,2.51308
0.0179699,0.580905,2.445,2.51313
0.0259057,0.580905,2.445,2.51319
0.0338416,0.580905,2.445,2.51329
0.0417775,0.580905,2.445,2.51341
0.0497133,0.580905,2.445,2.51355
0.0576492,0.580905,2.445,2.51372
0.0655851,0.580905,2.445,2.51392
0.0740622,0.585181,2.463,2.53265
0.0820565,0.585181,2.463,2.53289
0.0900507,0.585181,2.463,2.53316
0.098045,0.585181,2.463,2.53346
0.106039,0.585181,2.463,2.53378
0.114034,0.585181,2.463,2.53413
0.121136,0.580905,2.445,2.51598
0.129072,0.580905,2.445,2.51637
0.137008,0.580905,2.445,2.51679
0.143936,0.576866,2.428,2.49974
0.151817,0.576866,2.428,2.5002
0.159697,0.576866,2.428,2.50069
0.167578,0.576866,2.428,2.50121
0.175459,0.576866,2.428,2.50175
0.183339,0.576866,2.428,2.50231
0.189881,0.572827,2.411,2.48538
0.197707,0.572827,2.411,2.48599
0.205532,0.572827,2.411,2.48662
0.213358,0.572827,2.411,2.48728
0.221183,0.572827,2.411,2.48797
0.230623,0.576866,2.428,2.50622
0.238504,0.576866,2.428,2.50696
0.246385,0.576866,2.428,2.50772
0.254265,0.576866,2.428,2.50851
0.262146,0.576866,2.428,2.50932
0.270027,0.576866,2.428,2.51015
0.277908,0.576866,2.428,2.51101
0.285788,0.576866,2.428,2.5119
0.291613,0.572827,2.411,2.49521
0.299438,0.572827,2.411,2.49614
0.307264,0.572827,2.411,2.49709
0.315089,0.572827,2.411,2.49807
0.320638,0.568788,2.394,2.48144
0.328408,0.568788,2.394,2.48246
0.336179,0.568788,2.394,2.4835
0.343949,0.568788,2.394,2.48456
0.351719,0.568788,2.394,2.48565
0.356937,0.564749,2.377,2.4691
0.364652,0.564749,2.377,2.47023
0.372367,0.564749,2.377,2.47138
0.380082,0.564749,2.377,2.47256
0.387797,0.564749,2.377,2.47375
0.395513,0.564749,2.377,2.47497
0.403228,0.564749,2.377,2.47622
0.410943,0.564749,2.377,2.47749
0.418658,0.564749,2.377,2.47878
0.426373,0.564749,2.377,2.48009
0.434088,0.564749,2.377,2.48143
0.444963,0.568788,2.394,2.50055
0.452734,0.568788,2.394,2.50194
0.460504,0.568788,2.394,2.50336
0.468274,0.568788,2.394,2.5048
0.476045,0.568788,2.394,2.50627
0.483815,0.568788,2.394,2.50775
0.491585,0.568788,2.394,2.50927
0.502901,0.572827,2.411,2.52863
0.514328,0.576866,2.428,2.54804
0.522209,0.576866,2.428,2.54964
0.530089,0.576866,2.428,2.55127
0.541737,0.580905,2.445,2.57079
0.549673,0.580905,2.445,2.57247
0.557609,0.580905,2.445,2.57418
0.569708,0.585181,2.463,2.59487
0.577702,0.585181,2.463,2.59664
0.585697,0.585181,2.463,2.59843
0.593691,0.585181,2.463,2.60025
0.601685,0.585181,2.463,2.60208
0.609679,0.585181,2.463,2.60394
0.61316,0.580905,2.445,2.58678
0.621095,0.580905,2.445,2.58867
0.629031,0.580905,2.445,2.59059
0.632538,0.576866,2.428,2.5745
0.640419,0.576866,2.428,2.57645
0.643761,0.572827,2.411,2.56037
0.646992,0.568788,2.394,2.54428
0.654762,0.568788,2.394,2.54627
0.657828,0.564749,2.377,2.53018
0.665543,0.564749,2.377,2.5322
0.673258,0.564749,2.377,2.53424
0.671806,0.557146,2.345,2.50215
0.674781,0.553345,2.329,2.48712
0.682341,0.553345,2.329,2.48918
0.6899,0.553345,2.329,2.49126
0.692668,0.549543,2.313,2.47624
0.695635,0.545979,2.298,2.46228
0.703093,0.545979,2.298,2.46439
0.710552,0.545979,2.298,2.46653
0.713012,0.542178,2.282,2.4515
0.720418,0.542178,2.282,2.45367
0.727825,0.542178,2.282,2.45585
0.730399,0.538614,2.267,2.4419
0.737757,0.538614,2.267,2.44411
0.745115,0.538614,2.267,2.44634
0.742516,0.531486,2.237,2.41619
0.749777,0.531486,2.237,2.41843
0.757037,0.531486,2.237,2.42069
0.764298,0.531486,2.237,2.42297
0.776732,0.53505,2.252,2.44154
0.784042,0.53505,2.252,2.44387
0.791351,0.53505,2.252,2.44623
0.798661,0.53505,2.252,2.4486
0.80597,0.53505,2.252,2.45099
0.81328,0.53505,2.252,2.45341
0.826055,0.538614,2.267,2.4722
0.838927,0.542178,2.282,2.49104
0.846334,0.542178,2.282,2.49354
0.859727,0.545979,2.298,2.51357
0.872846,0.549543,2.313,2.53255
0.880353,0.549543,2.313,2.53515
0.887861,0.549543,2.313,2.53777
0.895368,0.549543,2.313,2.5404
0.902876,0.549543,2.313,2.54306
0.910383,0.549543,2.313,2.54573
0.917891,0.549543,2.313,2.54843
0.925398,0.549543,2.313,2.55114
0.932905,0.549543,2.313,2.55388
0.940413,0.549543,2.313,2.55663
0.94792,0.549543,2.313,2.5594
0.949232,0.545979,2.298,2.54557
0.95669,0.545979,2.298,2.54836
0.964149,0.545979,2.298,2.55117
0.971608,0.545979,2.298,2.554
0.979067,0.545979,2.298,2.55685
0.986525,0.545979,2.298,2.55971
1.00047,0.549543,2.313,2.57932
1.00798,0.549543,2.313,2.58225
1.0089,0.545979,2.298,2.56842
1.01636,0.545979,2.298,2.57136
1.02382,0.545979,2.298,2.57432
1.03801,0.549543,2.313,2.59411
1.04552,0.549543,2.313,2.59713
1.05302,0.549543,2.313,2.60016
1.06053,0.549543,2.313,2.60321
1.06804,0.549543,2.313,2.60628
1.07555,0.549543,2.313,2.60936
1.08305,0.549543,2.313,2.61246
1.09056,0.549543,2.313,2.61559
1.09807,0.549543,2.313,2.61873
1.10558,0.549543,2.313,2.62188
1.12078,0.553345,2.329,2.64322
1.12834,0.553345,2.329,2.64643
1.1359,0.553345,2.329,2.64966
1.14346,0.553345,2.329,2.65291
1.15102,0.553345,2.329,2.65618
1.15858,0.553345,2.329,2.65946
1.17415,0.557146,2.345,2.68106
1.18983,0.560947,2.361,2.70271
1.19749,0.560947,2.361,2.7061
1.20515,0.560947,2.361,2.7095
1.21281,0.560947,2.361,2.71291
1.22048,0.560947,2.361,2.71635
1.22814,0.560947,2.361,2.7198
1.2358,0.560947,2.361,2.72327
1.25189,0.564749,2.377,2.74523
1.25961,0.564749,2.377,2.74876
1.26732,0.564749,2.377,2.75231
1.27504,0.564749,2.377,2.75587
1.28275,0.564749,2.377,2.75944
1.2997,0.568788,2.394,2.7828
1.30747,0.568788,2.394,2.78644
1.32458,0.572827,2.411,2.8099
1.33241,0.572827,2.411,2.8136
1.34023,0.572827,2.411,2.81732
1.34806,0.572827,2.411,2.82105
1.35588,0.572827,2.411,2.8248
1.36371,0.572827,2.411,2.82856
1.37153,0.572827,2.411,2.83234
1.37936,0.572827,2.411,2.83614
1.38718,0.572827,2.411,2.83995
1.39501,0.572827,2.411,2.84378
1.41273,0.576866,2.428,2.86771
1.41066,0.572827,2.411,2.85149
1.41849,0.572827,2.411,2.85537
1.42631,0.572827,2.411,2.85927
1.43414,0.572827,2.411,2.86318
1.44196,0.572827,2.411,2.86711
1.44979,0.572827,2.411,2.87105
1.45761,0.572827,2.411,2.87501
1.46544,0.572827,2.411,2.87899
1.47326,0.572827,2.411,2.88298
1.48109,0.572827,2.411,2.88698
1.48892,0.572827,2.411,2.89101
1.49674,0.572827,2.411,2.89504
1.50457,0.572827,2.411,2.8991
1.51239,0.572827,2.411,2.90317
1.52022,0.572827,2.411,2.90725
1.52804,0.572827,2.411,2.91135
1.53587,0.572827,2.411,2.91547
1.53281,0.568788,2.394,2.89901
1.54058,0.568788,2.394,2.90313
1.52701,0.560947,2.361,2.86718
1.52427,0.557146,2.345,2.85181
1.53188,0.557146,2.345,2.85589
1.52899,0.553345,2.329,2.84046
1.5161,0.545979,2.298,2.80668
1.52355,0.545979,2.298,2.81071
1.52035,0.542178,2.282,2.79517
1.50768,0.53505,2.252,2.7624
1.51499,0.53505,2.252,2.7664
1.51215,0.531486,2.237,2.75196
1.50991,0.52816,2.223,2.7387
-1.79885,0.624482,2.593,3.21706
-1.79043,0.624482,2.593,3.21236
-1.78202,0.624482,2.593,3.20768
-1.7736,0.624482,2.593,3.20301
-1.76518,0.624482,2.593,3.19836
-1.77032,0.629299,2.613,3.21836
-1.76184,0.629299,2.613,3.2137
-1.76678,0.634115,2.633,3.23362
-1.75823,0.634115,2.633,3.22896
-1.74968,0.634115,2.633,3.22431
-1.74114,0.634115,2.633,3.21968
-1.73259,0.634115,2.633,3.21507
-1.72405,0.634115,2.633,3.21047
-1.72918,0.639173,2.654,3.23146
-1.70695,0.634115,2.633,3.20132
-1.69841,0.634115,2.633,3.19678
-1.71682,0.64423,2.675,3.24316
-1.70813,0.64423,2.675,3.23858
-1.69945,0.64423,2.675,3.23401
-1.70404,0.649288,2.696,3.2548
-1.7085,0.654345,2.717,3.27555
-1.69968,0.654345,2.717,3.27096
-1.69086,0.654345,2.717,3.26638
-1.69566,0.659644,2.739,3.28824
-1.68677,0.659644,2.739,3.28366
-1.69136,0.664942,2.761,3.30544
-1.6958,0.67024,2.783,3.32717
-1.68677,0.67024,2.783,3.32257
-1.67774,0.67024,2.783,3.318
-1.6687,0.67024,2.783,3.31344
-1.65967,0.67024,2.783,3.3089
-1.65064,0.67024,2.783,3.30438
-1.62863,0.664942,2.761,3.27379
-1.61967,0.664942,2.761,3.26934
-1.59787,0.659644,2.739,3.23889
-1.57622,0.654345,2.717,3.20854
-1.5674,0.654345,2.717,3.20422
-1.54653,0.649288,2.696,3.17518
-1.5258,0.64423,2.675,3.14623
-1.51712,0.64423,2.675,3.14202
-1.50844,0.64423,2.675,3.13784
-1.49976,0.64423,2.675,3.13368
-1.49107,0.64423,2.675,3.12953
-1.49403,0.649288,2.696,3.14994
-1.48528,0.649288,2.696,3.1458
-1.47653,0.649288,2.696,3.14168
-1.47921,0.654345,2.717,3.16201
-1.47039,0.654345,2.717,3.1579
-1.46157,0.654345,2.717,3.1538
-1.46452,0.659644,2.739,3.17523
-1.45563,0.659644,2.739,3.17114
-1.44674,0.659644,2.739,3.16707
-1.4263,0.654345,2.717,3.13761
-1.41748,0.654345,2.717,3.13361
-1.38689,0.64423,2.675,3.08125
-1.36738,0.639173,2.654,3.05319
-1.35877,0.639173,2.654,3.04935
-1.33947,0.634115,2.633,3.02142
-1.31071,0.624482,2.593,2.9718
-1.30229,0.624482,2.593,2.9681
-1.28439,0.619906,2.574,2.94269
-1.26662,0.61533,2.555,2.91736
-1.24897,0.610754,2.536,2.8921
-1.24074,0.610754,2.536,2.88856
-1.22327,0.606179,2.517,2.86341
-1.2151,0.606179,2.517,2.85993
-1.20693,0.606179,2.517,2.85647
-1.19876,0.606179,2.517,2.85303
-1.18208,0.601844,2.499,2.82923
-1.17397,0.601844,2.499,2.82585
-1.16586,0.601844,2.499,2.82249
-1.15775,0.601844,2.499,2.81915
-1.14964,0.601844,2.499,2.81583
-1.14153,0.601844,2.499,2.81253
-1.13341,0.601844,2.499,2.80924
-1.1172,0.597509,2.481,2.78577
-1.10914,0.597509,2.481,2.78255
-1.10109,0.597509,2.481,2.77935
-1.08511,0.593174,2.463,2.75603
-1.07712,0.593174,2.463,2.75289
-1.06912,0.593174,2.463,2.74977
-1.06113,0.593174,2.463,2.74667
-1.05313,0.593174,2.463,2.74359
-1.0375,0.588839,2.445,2.72051
-1.02956,0.588839,2.445,2.71749
-1.02163,0.588839,2.445,2.71449
-1.01369,0.588839,2.445,2.71152
-1.00576,0.588839,2.445,2.70856
-0.997821,0.588839,2.445,2.70562
-0.997172,0.593174,2.463,2.7226
-0.989178,0.593174,2.463,2.71969
-0.981184,0.593174,2.463,2.71679
-0.980302,0.597509,2.481,2.73375
-0.972249,0.597509,2.481,2.73087
-0.964196,0.597509,2.481,2.72801
-0.956143,0.597509,2.481,2.72518
-0.948091,0.597509,2.481,2.72236
-0.940038,0.597509,2.481,2.71957
-0.938747,0.601844,2.499,2.73651
-0.930636,0.601844,2.499,2.73373
-0.922525,0.601844,2.499,2.73098
-0.921,0.606179,2.517,2.74791
-0.91283,0.606179,2.517,2.74518
-0.904661,0.606179,2.517,2.74247
-0.89008,0.601844,2.499,2.72019
-0.881969,0.601844,2.499,2.71755
-0.873858,0.601844,2.499,2.71493
-0.865747,0.601844,2.499,2.71233
-0.857636,0.601844,2.499,2.70975
-0.849525,0.601844,2.499,2.7072
-0.841413,0.601844,2.499,2.70466
-0.8273,0.597509,2.481,2.68269
-0.819247,0.597509,2.481,2.68021
-0.811195,0.597509,2.481,2.67776
-0.797315,0.593174,2.463,2.65592
-0.789321,0.593174,2.463,2.65354
-0.781326,0.593174,2.463,2.65117
-0.773332,0.593174,2.463,2.64882
-0.765338,0.593174,2.463,2.6465
-0.757344,0.593174,2.463,2.6442
-0.749349,0.593174,2.463,2.64192
-0.741355,0.593174,2.463,2.63966
-0.733361,0.593174,2.463,2.63743
-0.725366,0.593174,2.463,2.63522
-0.717372,0.593174,2.463,2.63303
-0.709378,0.593174,2.463,2.63086
-0.701384,0.593174,2.463,2.62872
-0.698457,0.597509,2.481,2.64579
-0.690404,0.597509,2.481,2.64368
-0.682351,0.597509,2.481,2.64159
-0.674299,0.597509,2.481,2.63952
-0.666246,0.597509,2.481,2.63747
-0.658193,0.597509,2.481,2.63545
-0.65014,0.597509,2.481,2.63345
-0.642088,0.597509,2.481,2.63147
-0.634035,0.597509,2.481,2.62952
-0.625982,0.597509,2.481,2.62759
-0.61793,0.597509,2.481,2.62568
-0.609877,0.597509,2.481,2.6238
-0.601824,0.597509,2.481,2.62194
-0.593771,0.597509,2.481,2.6201
-0.585719,0.597509,2.481,2.61829
-0.577666,0.597509,2.481,2.6165
-0.565481,0.593174,2.463,2.59576
-0.557486,0.593174,2.463,2.59403
-0.549492,0.593174,2.463,2.59233
-0.541498,0.593174,2.463,2.59065
-0.533504,0.593174,2.463,2.58899
-0.525509,0.593174,2.463,2.58735
-0.517515,0.593174,2.463,2.58574
-0.509521,0.593174,2.463,2.58415
-0.501526,0.593174,2.463,2.58259
-0.493532,0.593174,2.463,2.58105
-0.481989,0.588839,2.445,2.56068
-0.474054,0.588839,2.445,2.5592
-0.466118,0.588839,2.445,2.55774
-0.458182,0.588839,2.445,2.5563
-0.450246,0.588839,2.445,2.55489
-0.44231,0.588839,2.445,2.55351
-0.434374,0.588839,2.445,2.55214
-0.426438,0.588839,2.445,2.55081
-0.418503,0.588839,2.445,2.54949
-0.410567,0.588839,2.445,2.5482
-0.402631,0.588839,2.445,2.54693
-0.394695,0.588839,2.445,2.54569
-0.386759,0.588839,2.445,2.54447
-0.378823,0.588839,2.445,2.54328
-0.370887,0.588839,2.445,2.54211
-0.362952,0.588839,2.445,2.54096
-0.355016,0.588839,2.445,2.53984
-0.34708,0.588839,2.445,2.53874
-0.339144,0.588839,2.445,2.53767
-0.328905,0.584744,2.428,2.51899
-0.321025,0.584744,2.428,2.51797
-0.313144,0.584744,2.428,2.51698
-0.305263,0.584744,2.428,2.51601
-0.297382,0.584744,2.428,2.51506
-0.289502,0.584744,2.428,2.51414
-0.281621,0.584744,2.428,2.51325
-0.271824,0.58065,2.411,2.49479
-0.263998,0.58065,2.411,2.49395
-0.256173,0.58065,2.411,2.49313
-0.248347,0.58065,2.411,2.49234
-0.240522,0.58065,2.411,2.49157
-0.232696,0.58065,2.411,2.49083
-0.223285,0.576556,2.394,2.47255
-0.215515,0.576556,2.394,2.47186
-0.207745,0.576556,2.394,2.4712
-0.199974,0.576556,2.394,2.47056
-0.192204,0.576556,2.394,2.46994
-0.184434,0.576556,2.394,2.46935
-0.176663,0.576556,2.394,2.46878
-0.167694,0.572462,2.377,2.45071
-0.159978,0.572462,2.377,2.45019
-0.152263,0.572462,2.377,2.4497
-0.144548,0.572462,2.377,2.44923
-0.136833,0.572462,2.377,2.44879
-0.129118,0.572462,2.377,2.44837
-0.121403,0.572462,2.377,2.44797
-0.113687,0.572462,2.377,2.4476
-0.105972,0.572462,2.377,2.44726
-0.0982572,0.572462,2.377,2.44694
-0.090542,0.572462,2.377,2.44664
-0.0828269,0.572462,2.377,2.44637
-0.0751117,0.572462,2.377,2.44612
-0.0673966,0.572462,2.377,2.44589
-0.0596814,0.572462,2.377,2.44569
-0.0523379,0.576556,2.394,2.463
-0.0445676,0.576556,2.394,2.46285
-0.036536,0.572462,2.377,2.44524
-0.0288208,0.572462,2.377,2.44513
-0.0211057,0.572462,2.377,2.44505
-0.0133905,0.572462,2.377,2.445
-0.00567535,0.572462,2.377,2.44497
0.0020398,0.572462,2.377,2.44496
0.00975495,0.572462,2.377,2.44498
0.0174701,0.572462,2.377,2.44502
0.0253654,0.576556,2.394,2.46258
0.0331357,0.576556,2.394,2.46267
0.040906,0.576556,2.394,2.46279
0.0486764,0.576556,2.394,2.46293
0.0564467,0.576556,2.394,2.4631
0.064673,0.58065,2.411,2.48078
0.0724985,0.58065,2.411,2.48099
0.0803241,0.58065,2.411,2.48124
0.0887711,0.584744,2.428,2.499
0.0966518,0.584744,2.428,2.49929
0.104532,0.584744,2.428,2.49961
0.112413,0.584744,2.428,2.49995
0.119452,0.58065,2.411,2.48281
0.127277,0.58065,2.411,2.4832
0.135103,0.58065,2.411,2.48361
0.142928,0.58065,2.411,2.48405
0.150754,0.58065,2.411,2.48451
0.157461,0.576556,2.394,2.46748
0.165231,0.576556,2.394,2.46799
0.173002,0.576556,2.394,2.46852
0.180772,0.576556,2.394,2.46907
0.188542,0.576556,2.394,2.46966
0.196313,0.576556,2.394,2.47026
0.204083,0.576556,2.394,2.47089
0.211853,0.576556,2.394,2.47154
0.219624,0.576556,2.394,2.47222
0.227394,0.576556,2.394,2.47293
0.235164,0.576556,2.394,2.47365
0.24466,0.58065,2.411,2.49197
0.252485,0.58065,2.411,2.49275
0.260311,0.58065,2.411,2.49356
0.268136,0.58065,2.411,2.49439
0.275962,0.58065,2.411,2.49524
0.281786,0.576556,2.394,2.47852
0.289557,0.576556,2.394,2.47941
0.297327,0.576556,2.394,2.48033
0.305097,0.576556,2.394,2.48128
0.312868,0.576556,2.394,2.48224
0.318361,0.572462,2.377,2.4656
0.326076,0.572462,2.377,2.46661
0.331545,0.568608,2.361,2.45103
0.339208,0.568608,2.361,2.45208
0.346871,0.568608,2.361,2.45315
0.354534,0.568608,2.361,2.45425
0.362197,0.568608,2.361,2.45537
0.369861,0.568608,2.361,2.45651
0.377524,0.568608,2.361,2.45767
0.385187,0.568608,2.361,2.45886
0.39285,0.568608,2.361,2.46007
0.400513,0.568608,2.361,2.46131
0.408177,0.568608,2.361,2.46257
0.418658,0.572462,2.377,2.48055
0.426373,0.572462,2.377,2.48186
0.434088,0.572462,2.377,2.4832
0.444963,0.576556,2.394,2.50233
0.452734,0.576556,2.394,2.50372
0.460504,0.576556,2.394,2.50514
0.468274,0.576556,2.394,2.50658
0.476045,0.576556,2.394,2.50804
0.483815,0.576556,2.394,2.50953
0.491585,0.576556,2.394,2.51104
0.502901,0.58065,2.411,2.53041
0.514328,0.584744,2.428,2.54983
0.522209,0.584744,2.428,2.55143
0.530089,0.584744,2.428,2.55306
0.541737,0.588839,2.445,2.57259
0.549673,0.588839,2.445,2.57428
0.557609,0.588839,2.445,2.57598
0.569708,0.593174,2.463,2.59669
0.577702,0.593174,2.463,2.59845
0.585697,0.593174,2.463,2.60024
0.593691,0.593174,2.463,2.60206
0.601685,0.593174,2.463,2.60389
0.609679,0.593174,2.463,2.60575
0.61316,0.588839,2.445,2.58858
0.621095,0.588839,2.445,2.59047
0.629031,0.588839,2.445,2.59238
0.632538,0.584744,2.428,2.57628
0.640419,0.584744,2.428,2.57823
0.643761,0.58065,2.411,2.56213
0.646992,0.576556,2.394,2.54603
0.654762,0.576556,2.394,2.54801
0.657828,0.572462,2.377,2.53191
0.665543,0.572462,2.377,2.53393
0.673258,0.572462,2.377,2.53596
0.676389,0.568608,2.361,2.52094
0.674781,0.560902,2.329,2.48881
0.682341,0.560902,2.329,2.49087
0.6899,0.560902,2.329,2.49295
0.692668,0.557048,2.313,2.47791
0.700175,0.557048,2.313,2.48002
0.707683,0.557048,2.313,2.48215
0.71519,0.557048,2.313,2.4843
0.718011,0.553436,2.298,2.47035
0.72547,0.553436,2.298,2.47253
0.732928,0.553436,2.298,2.47473
0.735232,0.549583,2.282,2.4597
0.742639,0.549583,2.282,2.46193
0.745115,0.54597,2.267,2.44797
0.747495,0.542358,2.252,2.43401
0.754804,0.542358,2.252,2.43626
0.762114,0.542358,2.252,2.43854
0.769423,0.542358,2.252,2.44083
0.776732,0.542358,2.252,2.44315
0.784042,0.542358,2.252,2.44548
0.791351,0.542358,2.252,2.44783
0.798661,0.542358,2.252,2.45021
0.80597,0.542358,2.252,2.4526
0.81328,0.542358,2.252,2.45501
0.826055,0.54597,2.267,2.47381
0.838927,0.549583,2.282,2.49266
0.846334,0.549583,2.282,2.49516
0.859727,0.553436,2.298,2.5152
0.872846,0.557048,2.313,2.53419
0.880353,0.557048,2.313,2.53679
0.887861,0.557048,2.313,2.5394
0.895368,0.557048,2.313,2.54204
0.902876,0.557048,2.313,2.54469
0.910383,0.557048,2.313,2.54737
0.917891,0.557048,2.313,2.55006
0.925398,0.557048,2.313,2.55277
0.932905,0.557048,2.313,2.5555
0.940413,0.557048,2.313,2.55825
0.94792,0.557048,2.313,2.56102
0.949232,0.553436,2.298,2.54718
0.95669,0.553436,2.298,2.54997
0.964149,0.553436,2.298,2.55278
0.971608,0.553436,2.298,2.55561
0.979067,0.553436,2.298,2.55845
0.986525,0.553436,2.298,2.56131
1.00047,0.557048,2.313,2.58093
1.00798,0.557048,2.313,2.58385
1.0089,0.553436,2.298,2.57002
1.01636,0.553436,2.298,2.57295
1.02382,0.553436,2.298,2.57591
1.03801,0.557048,2.313,2.59572
1.04552,0.557048,2.313,2.59873
1.05302,0.557048,2.313,2.60176
1.06053,0.557048,2.313,2.6048
1.06804,0.557048,2.313,2.60787
1.07555,0.557048,2.313,2.61095
1.08305,0.557048,2.313,2.61405
1.09056,0.557048,2.313,2.61717
1.09807,0.557048,2.313,2.62031
1.10558,0.557048,2.313,2.62347
1.11308,0.557048,2.313,2.62664
1.12834,0.560902,2.329,2.64802
1.1359,0.560902,2.329,2.65125
1.14346,0.560902,2.329,2.6545
1.15102,0.560902,2.329,2.65776
1.15858,0.560902,2.329,2.66104
1.16614,0.560902,2.329,2.66434
1.18176,0.564755,2.345,2.68599
1.18937,0.564755,2.345,2.68935
1.19698,0.564755,2.345,2.69272
1.21281,0.568608,2.361,2.71451
1.22048,0.568608,2.361,2.71794
1.22814,0.568608,2.361,2.72139
1.2358,0.568608,2.361,2.72486
1.24347,0.568608,2.361,2.72834
1.25113,0.568608,2.361,2.73184
1.26732,0.572462,2.377,2.7539
1.27504,0.572462,2.377,2.75746
1.28275,0.572462,2.377,2.76103
1.29047,0.572462,2.377,2.76463
1.30747,0.576556,2.394,2.78803
1.31524,0.576556,2.394,2.79169
1.32301,0.576556,2.394,2.79536
1.33078,0.576556,2.394,2.79904
1.33855,0.576556,2.394,2.80274
1.34632,0.576556,2.394,2.80646
1.35409,0.576556,2.394,2.8102
1.36186,0.576556,2.394,2.81395
1.36963,0.576556,2.394,2.81772
1.3774,0.576556,2.394,2.82151
1.38517,0.576556,2.394,2.82531
1.39294,0.576556,2.394,2.82912
1.39077,0.572462,2.377,2.81284
1.39848,0.572462,2.377,2.81666
1.4062,0.572462,2.377,2.8205
1.41391,0.572462,2.377,2.82436
1.42163,0.572462,2.377,2.82823
1.42934,0.572462,2.377,2.83211
1.43706,0.572462,2.377,2.83601
1.44477,0.572462,2.377,2.83993
1.45249,0.572462,2.377,2.84386
1.4602,0.572462,2.377,2.84781
1.46792,0.572462,2.377,2.85178
1.48619,0.576556,2.394,2.87618
1.49396,0.576556,2.394,2.8802
1.50173,0.576556,2.394,2.88424
1.5095,0.576556,2.394,2.88829
1.51727,0.576556,2.394,2.89236
1.52504,0.576556,2.394,2.89645
1.52192,0.572462,2.377,2.87995
1.52964,0.572462,2.377,2.88403
1.51666,0.564755,2.345,2.84925
1.51387,0.560902,2.329,2.83384
1.52143,0.560902,2.329,2.83789
1.51848,0.557048,2.313,2.82242
1.5161,0.553436,2.298,2.80814
1.52355,0.553436,2.298,2.81217
1.51036,0.54597,2.267,2.77823
1.50768,0.542358,2.252,2.76383
1.51499,0.542358,2.252,2.76782
1.50269,0.535373,2.223,2.73614
1.5004,0.532002,2.209,2.72285
-1.78567,0.628258,2.574,3.19512
-1.77731,0.628258,2.574,3.19046
-1.78202,0.632896,2.593,3.20933
-1.7736,0.632896,2.593,3.20466
-1.76518,0.632896,2.593,3.20001
-1.77032,0.637777,2.613,3.22002
-1.77532,0.642659,2.633,3.23998
-1.78087,0.647785,2.654,3.26111
-1.77225,0.647785,2.654,3.25641
-1.76364,0.647785,2.654,3.25173
-1.75502,0.647785,2.654,3.24707
-1.74641,0.647785,2.654,3.24242
-1.7378,0.647785,2.654,3.23779
-1.72918,0.647785,2.654,3.23317
-1.72057,0.647785,2.654,3.22857
-1.7255,0.65291,2.675,3.2495
-1.73029,0.658036,2.696,3.27037
-1.73495,0.663162,2.717,3.29119
-1.72614,0.663162,2.717,3.28655
-1.73122,0.668531,2.739,3.3085
-1.73617,0.673901,2.761,3.3304
-1.7272,0.673901,2.761,3.32573
-1.71824,0.673901,2.761,3.32109
-1.7229,0.679271,2.783,3.34289
-1.71387,0.679271,2.783,3.33824
-1.70483,0.679271,2.783,3.33361
-1.70982,0.684884,2.806,3.35651
-1.70071,0.684884,2.806,3.35188
-1.6916,0.684884,2.806,3.34727
-1.68249,0.684884,2.806,3.34268
-1.67339,0.684884,2.806,3.3381
-1.65064,0.679271,2.783,3.30622
-1.62863,0.673901,2.761,3.27562
-1.61967,0.673901,2.761,3.27117
-1.58504,0.663162,2.717,3.21469
-1.57622,0.663162,2.717,3.21035
-1.55528,0.658036,2.696,3.18125
-1.54653,0.658036,2.696,3.17698
-1.5258,0.65291,2.675,3.14801
-1.51712,0.65291,2.675,3.14382
-1.50844,0.65291,2.675,3.13963
-1.49976,0.65291,2.675,3.13547
-1.49107,0.65291,2.675,3.13133
-1.49403,0.658036,2.696,3.15175
-1.48528,0.658036,2.696,3.14762
-1.47653,0.658036,2.696,3.1435
-1.47921,0.663162,2.717,3.16385
-1.47039,0.663162,2.717,3.15974
-1.46157,0.663162,2.717,3.15564
-1.46452,0.668531,2.739,3.17709
-1.45563,0.668531,2.739,3.173
-1.44674,0.668531,2.739,3.16893
-1.4263,0.663162,2.717,3.13946
-1.41748,0.663162,2.717,3.13546
-1.38689,0.65291,2.675,3.08308
-1.36738,0.647785,2.654,3.05501
-1.35877,0.647785,2.654,3.05116
-1.33947,0.642659,2.633,3.02322
-1.31071,0.632896,2.593,2.97358
-1.30229,0.632896,2.593,2.96988
-1.28439,0.628258,2.574,2.94446
-1.26662,0.623621,2.555,2.91912
-1.24897,0.618983,2.536,2.89385
-1.24074,0.618983,2.536,2.89031
-1.22327,0.614346,2.517,2.86515
-1.2151,0.614346,2.517,2.86168
-1.20693,0.614346,2.517,2.85822
-1.19876,0.614346,2.517,2.85478
-1.18208,0.609952,2.499,2.83096
-1.17397,0.609952,2.499,2.82759
-1.16586,0.609952,2.499,2.82423
-1.16609,0.614346,2.517,2.84121
-1.15792,0.614346,2.517,2.83787
-1.14153,0.609952,2.499,2.81427
-1.13341,0.609952,2.499,2.81099
-1.1172,0.605559,2.481,2.78751
-1.10914,0.605559,2.481,2.78429
-1.10109,0.605559,2.481,2.78109
-1.08511,0.601166,2.463,2.75776
-1.07712,0.601166,2.463,2.75462
-1.06912,0.601166,2.463,2.75151
-1.06113,0.601166,2.463,2.74841
-1.05313,0.601166,2.463,2.74533
-1.0375,0.596772,2.445,2.72224
-1.02956,0.596772,2.445,2.71922
-1.02163,0.596772,2.445,2.71623
-1.01369,0.596772,2.445,2.71325
-1.00576,0.596772,2.445,2.7103
-0.997821,0.596772,2.445,2.70736
-0.997172,0.601166,2.463,2.72436
-0.989178,0.601166,2.463,2.72144
-0.981184,0.601166,2.463,2.71855
-0.980302,0.605559,2.481,2.73552
-0.972249,0.605559,2.481,2.73264
-0.964196,0.605559,2.481,2.72979
-0.956143,0.605559,2.481,2.72695
-0.948091,0.605559,2.481,2.72414
-0.940038,0.605559,2.481,2.72135
-0.938747,0.609952,2.499,2.7383
-0.930636,0.609952,2.499,2.73553
-0.922525,0.609952,2.499,2.73278
-0.914414,0.609952,2.499,2.73005
-0.906302,0.609952,2.499,2.72735
-0.898191,0.609952,2.499,2.72466
-0.883669,0.605559,2.481,2.70239
-0.875616,0.605559,2.481,2.69977
-0.867564,0.605559,2.481,2.69717
-0.859511,0.605559,2.481,2.69459
-0.851458,0.605559,2.481,2.69203
-0.843405,0.605559,2.481,2.6895
-0.829292,0.601166,2.463,2.66749
-0.821298,0.601166,2.463,2.66501
-0.813304,0.601166,2.463,2.66256
-0.799424,0.596772,2.445,2.64069
-0.791488,0.596772,2.445,2.6383
-0.783552,0.596772,2.445,2.63593
-0.775616,0.596772,2.445,2.63358
-0.767681,0.596772,2.445,2.63125
-0.759745,0.596772,2.445,2.62895
-0.751809,0.596772,2.445,2.62667
-0.743873,0.596772,2.445,2.62441
-0.735937,0.596772,2.445,2.62217
-0.728001,0.596772,2.445,2.61995
-0.720065,0.596772,2.445,2.61776
-0.712129,0.596772,2.445,2.61559
-0.704194,0.596772,2.445,2.61344
-0.696258,0.596772,2.445,2.61131
-0.688322,0.596772,2.445,2.6092
-0.685395,0.601166,2.463,2.62632
-0.677401,0.601166,2.463,2.62424
-0.669406,0.601166,2.463,2.62219
-0.661412,0.601166,2.463,2.62016
-0.653418,0.601166,2.463,2.61815
-0.645424,0.601166,2.463,2.61617
-0.637429,0.601166,2.463,2.61421
-0.629435,0.601166,2.463,2.61227
-0.621441,0.601166,2.463,2.61036
-0.613446,0.601166,2.463,2.60846
-0.605452,0.601166,2.463,2.6066
-0.597458,0.601166,2.463,2.60475
-0.589464,0.601166,2.463,2.60293
-0.581469,0.601166,2.463,2.60113
-0.573475,0.601166,2.463,2.59935
-0.565481,0.601166,2.463,2.5976
-0.557486,0.601166,2.463,2.59587
-0.549492,0.601166,2.463,2.59417
-0.541498,0.601166,2.463,2.59249
-0.533504,0.601166,2.463,2.59083
-0.525509,0.601166,2.463,2.58919
-0.517515,0.601166,2.463,2.58758
-0.509521,0.601166,2.463,2.586
-0.501526,0.601166,2.463,2.58443
-0.489925,0.596772,2.445,2.56402
-0.481989,0.596772,2.445,2.56251
-0.474054,0.596772,2.445,2.56103
-0.466118,0.596772,2.445,2.55958
-0.454996,0.592623,2.428,2.54036
-0.447115,0.592623,2.428,2.53896
-0.439235,0.592623,2.428,2.53758
-0.431354,0.592623,2.428,2.53623
-0.420508,0.588473,2.411,2.51715
-0.412683,0.588473,2.411,2.51586
-0.404857,0.588473,2.411,2.51458
-0.397032,0.588473,2.411,2.51334
-0.389206,0.588473,2.411,2.51211
-0.381381,0.588473,2.411,2.51091
-0.376189,0.592623,2.428,2.52743
-0.368309,0.592623,2.428,2.52627
-0.360428,0.592623,2.428,2.52513
-0.352547,0.592623,2.428,2.52402
-0.342253,0.588473,2.411,2.50527
-0.334428,0.588473,2.411,2.50421
-0.326602,0.588473,2.411,2.50318
-0.318777,0.588473,2.411,2.50217
-0.310951,0.588473,2.411,2.50118
-0.300988,0.584324,2.394,2.48259
-0.293218,0.584324,2.394,2.48166
-0.285448,0.584324,2.394,2.48076
-0.277677,0.584324,2.394,2.47987
-0.269907,0.584324,2.394,2.47902
-0.262137,0.584324,2.394,2.47818
-0.254366,0.584324,2.394,2.47737
-0.246596,0.584324,2.394,2.47659
-0.238826,0.584324,2.394,2.47582
-0.231055,0.584324,2.394,2.47509
-0.2217,0.580175,2.377,2.4568
-0.213984,0.580175,2.377,2.45612
-0.206269,0.580175,2.377,2.45546
-0.198554,0.580175,2.377,2.45482
-0.190839,0.580175,2.377,2.45421
-0.183124,0.580175,2.377,2.45362
-0.174228,0.57627,2.361,2.43655
-0.166565,0.57627,2.361,2.43601
-0.157825,0.572364,2.345,2.41899
-0.150213,0.572364,2.345,2.41851
-0.142602,0.572364,2.345,2.41805
-0.134991,0.572364,2.345,2.41761
-0.12738,0.572364,2.345,2.4172
-0.118951,0.568459,2.329,2.40032
-0.111392,0.568459,2.329,2.39996
-0.103832,0.568459,2.329,2.39962
-0.096273,0.568459,2.329,2.3993
-0.0887137,0.568459,2.329,2.39901
-0.0811543,0.568459,2.329,2.39874
-0.073595,0.568459,2.329,2.3985
-0.0660356,0.568459,2.329,2.39828
-0.0584762,0.568459,2.329,2.39808
-0.0512667,0.572364,2.345,2.41438
-0.0436554,0.572364,2.345,2.41424
-0.0360441,0.572364,2.345,2.41411
-0.0284328,0.572364,2.345,2.41401
-0.0208215,0.572364,2.345,2.41393
-0.0132102,0.572364,2.345,2.41388
-0.00559895,0.572364,2.345,2.41385
0.00201234,0.572364,2.345,2.41384
0.00962363,0.572364,2.345,2.41386
0.0172349,0.572364,2.345,2.4139
0.0248462,0.572364,2.345,2.41397
0.0324575,0.572364,2.345,2.41406
0.040906,0.584324,2.394,2.46462
0.0486764,0.584324,2.394,2.46476
0.0564467,0.584324,2.394,2.46493
0.064673,0.588473,2.411,2.48262
0.0724985,0.588473,2.411,2.48284
0.0803241,0.588473,2.411,2.48308
0.0887711,0.592623,2.428,2.50085
0.0966518,0.592623,2.428,2.50115
0.104532,0.592623,2.428,2.50146
0.112413,0.592623,2.428,2.5018
0.119452,0.588473,2.411,2.48465
0.127277,0.588473,2.411,2.48504
0.135103,0.588473,2.411,2.48545
0.142928,0.588473,2.411,2.48589
0.150754,0.588473,2.411,2.48635
0.157461,0.584324,2.394,2.4693
0.165231,0.584324,2.394,2.46981
0.173002,0.584324,2.394,2.47034
0.180772,0.584324,2.394,2.4709
0.188542,0.584324,2.394,2.47148
0.196313,0.584324,2.394,2.47209
0.204083,0.584324,2.394,2.47272
0.211853,0.584324,2.394,2.47337
0.219624,0.584324,2.394,2.47405
0.227394,0.584324,2.394,2.47475
0.235164,0.584324,2.394,2.47547
0.24466,0.588473,2.411,2.49381
0.252485,0.588473,2.411,2.49459
0.260311,0.588473,2.411,2.49539
0.268136,0.588473,2.411,2.49622
0.275962,0.588473,2.411,2.49707
0.281786,0.584324,2.394,2.48034
0.289557,0.584324,2.394,2.48123
0.297327,0.584324,2.394,2.48215
0.305097,0.584324,2.394,2.48309
0.312868,0.584324,2.394,2.48406
0.318361,0.580175,2.377,2.4674
0.326076,0.580175,2.377,2.46841
0.331545,0.57627,2.361,2.45282
0.339208,0.57627,2.361,2.45387
0.346871,0.57627,2.361,2.45494
0.354534,0.57627,2.361,2.45603
0.362197,0.57627,2.361,2.45715
0.369861,0.57627,2.361,2.45829
0.377524,0.57627,2.361,2.45946
0.385187,0.57627,2.361,2.46065
0.39285,0.57627,2.361,2.46186
0.400513,0.57627,2.361,2.46309
0.408177,0.57627,2.361,2.46435
0.418658,0.580175,2.377,2.48234
0.426373,0.580175,2.377,2.48365
0.434088,0.580175,2.377,2.48499
0.441803,0.580175,2.377,2.48635
0.449519,0.580175,2.377,2.48773
0.457234,0.580175,2.377,2.48914
0.464949,0.580175,2.377,2.49056
0.476045,0.584324,2.394,2.50984
0.483815,0.584324,2.394,2.51132
0.491585,0.584324,2.394,2.51283
0.502901,0.588473,2.411,2.53222
0.514328,0.592623,2.428,2.55165
0.522209,0.592623,2.428,2.55325
0.530089,0.592623,2.428,2.55487
0.541737,0.596772,2.445,2.57442
0.549673,0.596772,2.445,2.5761
0.557609,0.596772,2.445,2.57781
0.569708,0.601166,2.463,2.59853
0.577702,0.601166,2.463,2.60029
0.585697,0.601166,2.463,2.60208
0.593691,0.601166,2.463,2.60389
0.601685,0.601166,2.463,2.60572
0.605224,0.596772,2.445,2.58852
0.61316,0.596772,2.445,2.59039
0.621095,0.596772,2.445,2.59228
0.624658,0.592623,2.428,2.57616
0.632538,0.592623,2.428,2.57808
0.640419,0.592623,2.428,2.58002
0.643761,0.588473,2.411,2.56391
0.646992,0.584324,2.394,2.5478
0.654762,0.584324,2.394,2.54978
0.657828,0.580175,2.377,2.53367
0.665543,0.580175,2.377,2.53568
0.673258,0.580175,2.377,2.53772
0.676389,0.57627,2.361,2.52268
0.674781,0.568459,2.329,2.49053
0.682341,0.568459,2.329,2.49258
0.6899,0.568459,2.329,2.49466
0.692668,0.564554,2.313,2.47961
0.700175,0.564554,2.313,2.48172
0.707683,0.564554,2.313,2.48385
0.71519,0.564554,2.313,2.486
0.718011,0.560893,2.298,2.47203
0.72547,0.560893,2.298,2.47421
0.732928,0.560893,2.298,2.47641
0.735232,0.556987,2.282,2.46137
0.742639,0.556987,2.282,2.46359
0.745115,0.553326,2.267,2.44962
0.747495,0.549665,2.252,2.43565
0.754804,0.549665,2.252,2.4379
0.762114,0.549665,2.252,2.44017
0.769423,0.549665,2.252,2.44247
0.776732,0.549665,2.252,2.44478
0.789264,0.553326,2.267,2.46341
0.791351,0.549665,2.252,2.44946
0.798661,0.549665,2.252,2.45184
0.80597,0.549665,2.252,2.45423
0.81328,0.549665,2.252,2.45664
0.826055,0.553326,2.267,2.47544
0.838927,0.556987,2.282,2.49431
0.846334,0.556987,2.282,2.49681
0.853741,0.556987,2.282,2.49933
0.867186,0.560893,2.298,2.51941
0.874644,0.560893,2.298,2.52198
0.882103,0.560893,2.298,2.52458
0.889562,0.560893,2.298,2.5272
0.897021,0.560893,2.298,2.52983
0.904479,0.560893,2.298,2.53249
0.911938,0.560893,2.298,2.53516
0.919397,0.560893,2.298,2.53785
0.926855,0.560893,2.298,2.54056
0.940413,0.564554,2.313,2.5599
0.94792,0.564554,2.313,2.56266
0.955428,0.564554,2.313,2.56545
0.95669,0.560893,2.298,2.5516
0.964149,0.560893,2.298,2.55441
0.97795,0.564554,2.313,2.57392
0.985457,0.564554,2.313,2.57678
0.992965,0.564554,2.313,2.57966
1.00047,0.564554,2.313,2.58256
1.00798,0.564554,2.313,2.58548
1.01549,0.564554,2.313,2.58842
1.02299,0.564554,2.313,2.59137
1.0305,0.564554,2.313,2.59434
1.03801,0.564554,2.313,2.59734
1.04552,0.564554,2.313,2.60035
1.05302,0.564554,2.313,2.60337
1.06053,0.564554,2.313,2.60642
1.06804,0.564554,2.313,2.60948
1.07555,0.564554,2.313,2.61256
1.08305,0.564554,2.313,2.61566
1.09056,0.564554,2.313,2.61878
1.09807,0.564554,2.313,2.62192
1.10558,0.564554,2.313,2.62507
1.11308,0.564554,2.313,2.62824
1.12059,0.564554,2.313,2.63143
1.1281,0.564554,2.313,2.63463
1.13561,0.564554,2.313,2.63786
1.14311,0.564554,2.313,2.6411
1.15062,0.564554,2.313,2.64436
1.16614,0.568459,2.329,2.66595
1.1737,0.568459,2.329,2.66926
1.18937,0.572364,2.345,2.69095
1.19698,0.572364,2.345,2.69433
1.2046,0.572364,2.345,2.69772
1.21221,0.572364,2.345,2.70112
1.21982,0.572364,2.345,2.70455
1.22743,0.572364,2.345,2.70799
1.24347,0.57627,2.361,2.72995
1.25113,0.57627,2.361,2.73345
1.25879,0.57627,2.361,2.73696
1.26646,0.57627,2.361,2.7405
1.27412,0.57627,2.361,2.74405
1.28178,0.57627,2.361,2.74761
1.28945,0.57627,2.361,2.7512
1.3059,0.580175,2.377,2.77346
1.31362,0.580175,2.377,2.77711
1.31244,0.57627,2.361,2.76205
1.3201,0.57627,2.361,2.7657
1.32776,0.57627,2.361,2.76936
1.35409,0.584324,2.394,2.8118
1.36186,0.584324,2.394,2.81555
1.36963,0.584324,2.394,2.81932
1.3774,0.584324,2.394,2.8231
1.38517,0.584324,2.394,2.8269
1.39294,0.584324,2.394,2.83072
1.39077,0.580175,2.377,2.81442
1.39848,0.580175,2.377,2.81824
1.4062,0.580175,2.377,2.82208
1.41391,0.580175,2.377,2.82593
1.42163,0.580175,2.377,2.8298
1.42934,0.580175,2.377,2.83368
1.43706,0.580175,2.377,2.83758
1.44477,0.580175,2.377,2.8415
1.45249,0.580175,2.377,2.84543
1.4602,0.580175,2.377,2.84937
1.46792,0.580175,2.377,2.85333
1.48619,0.584324,2.394,2.87775
1.49396,0.584324,2.394,2.88177
1.50173,0.584324,2.394,2.8858
1.5095,0.584324,2.394,2.88985
1.51727,0.584324,2.394,2.89392
1.52504,0.584324,2.394,2.898
1.52192,0.580175,2.377,2.88149
1.52964,0.580175,2.377,2.88557
1.51666,0.572364,2.345,2.85077
1.51387,0.568459,2.329,2.83535
1.52143,0.568459,2.329,2.83939
1.51848,0.564554,2.313,2.82391
1.5161,0.560893,2.298,2.80962
1.52355,0.560893,2.298,2.81365
1.51036,0.553326,2.267,2.77968
1.50768,0.549665,2.252,2.76527
1.51499,0.549665,2.252,2.76926
1.50269,0.542587,2.223,2.73756
1.5004,0.53917,2.209,2.72426
-1.78567,0.636611,2.574,3.19677
-1.77731,0.636611,2.574,3.19211
-1.78202,0.64131,2.593,3.211
-1.78728,0.646256,2.613,3.23107
-1.7788,0.646256,2.613,3.22638
-1.77032,0.646256,2.613,3.22171
-1.78948,0.656396,2.654,3.26754
-1.79496,0.66159,2.675,3.28865
-1.78628,0.66159,2.675,3.28392
-1.77759,0.66159,2.675,3.2792
-1.76891,0.66159,2.675,3.2745
-1.76023,0.66159,2.675,3.26982
-1.7653,0.666784,2.696,3.29079
-1.75655,0.666784,2.696,3.2861
-1.7478,0.666784,2.696,3.28143
-1.73905,0.666784,2.696,3.27678
-1.74377,0.671978,2.717,3.29763
-1.749,0.677419,2.739,3.31964
-1.74011,0.677419,2.739,3.31497
-1.75903,0.688301,2.783,3.36349
-1.75,0.688301,2.783,3.35877
-1.74097,0.688301,2.783,3.35407
-1.74625,0.69399,2.806,3.37708
-1.73714,0.69399,2.806,3.37238
-1.72803,0.69399,2.806,3.36769
-1.73301,0.699678,2.829,3.39059
-1.72383,0.699678,2.829,3.38591
-1.71465,0.699678,2.829,3.38124
-1.70547,0.699678,2.829,3.3766
-1.68249,0.69399,2.806,3.34455
-1.67339,0.69399,2.806,3.33998
-1.65064,0.688301,2.783,3.30809
-1.62863,0.68286,2.761,3.27748
-1.61967,0.68286,2.761,3.27303
-1.58504,0.671978,2.717,3.21652
-1.57622,0.671978,2.717,3.21218
-1.55528,0.666784,2.696,3.18307
-1.54653,0.666784,2.696,3.1788
-1.5258,0.66159,2.675,3.14983
-1.51712,0.66159,2.675,3.14563
-1.50844,0.66159,2.675,3.14145
-1.49976,0.66159,2.675,3.13729
-1.49107,0.66159,2.675,3.13315
-1.49403,0.666784,2.696,3.15359
-1.48528,0.666784,2.696,3.14946
-1.47653,0.666784,2.696,3.14534
-1.47921,0.671978,2.717,3.16571
-1.47039,0.671978,2.717,3.1616
-1.46157,0.671978,2.717,3.15751
-1.45276,0.671978,2.717,3.15343
-1.44394,0.671978,2.717,3.14938
-1.43512,0.671978,2.717,3.14535
-1.40425,0.66159,2.675,3.09277
-1.39557,0.66159,2.675,3.08884
-1.376,0.656396,2.654,3.06071
-1.34626,0.646256,2.613,3.00962
-1.33778,0.646256,2.613,3.00584
-1.31912,0.64131,2.593,2.9791
-1.3011,0.636611,2.574,2.95358
-1.29275,0.636611,2.574,2.94991
-1.26543,0.627212,2.536,2.90276
-1.2572,0.627212,2.536,2.89918
-1.23961,0.622513,2.517,2.87393
-1.23144,0.622513,2.517,2.87041
-1.21453,0.618061,2.499,2.84641
-1.20641,0.618061,2.499,2.84296
-1.1983,0.618061,2.499,2.83953
-1.19019,0.618061,2.499,2.83612
-1.18208,0.618061,2.499,2.83272
-1.17397,0.618061,2.499,2.82935
-1.16586,0.618061,2.499,2.82599
-1.15775,0.618061,2.499,2.82265
-1.14964,0.618061,2.499,2.81934
-1.14153,0.618061,2.499,2.81604
-1.12525,0.613609,2.481,2.7925
-1.10909,0.609158,2.463,2.76903
-1.1011,0.609158,2.463,2.76584
-1.0931,0.609158,2.463,2.76267
-1.07718,0.604706,2.445,2.73934
-1.06924,0.604706,2.445,2.73623
-1.06131,0.604706,2.445,2.73314
-1.04605,0.600501,2.428,2.71109
-1.03817,0.600501,2.428,2.70806
-1.03029,0.600501,2.428,2.70505
-1.02241,0.600501,2.428,2.70205
-1.01452,0.600501,2.428,2.69908
-1.00664,0.600501,2.428,2.69613
-0.998763,0.600501,2.428,2.6932
-0.990883,0.600501,2.428,2.69029
-0.983002,0.600501,2.428,2.68739
-0.975121,0.600501,2.428,2.68452
-0.974013,0.604706,2.445,2.70044
-0.966077,0.604706,2.445,2.69759
-0.958141,0.604706,2.445,2.69476
-0.950205,0.604706,2.445,2.69195
-0.949206,0.609158,2.463,2.70895
-0.941212,0.609158,2.463,2.70616
-0.933218,0.609158,2.463,2.70339
-0.925224,0.609158,2.463,2.70064
-0.923933,0.613609,2.481,2.71763
-0.91588,0.613609,2.481,2.71491
-0.907827,0.613609,2.481,2.7122
-0.899774,0.613609,2.481,2.70952
-0.885252,0.609158,2.463,2.68721
-0.877258,0.609158,2.463,2.68459
-0.869264,0.609158,2.463,2.68199
-0.854975,0.604706,2.445,2.65983
-0.847039,0.604706,2.445,2.65729
-0.839103,0.604706,2.445,2.65477
-0.831167,0.604706,2.445,2.65227
-0.817508,0.600501,2.428,2.63137
-0.809627,0.600501,2.428,2.62893
-0.801746,0.600501,2.428,2.62652
-0.788307,0.596297,2.411,2.60575
-0.780482,0.596297,2.411,2.60339
-0.772656,0.596297,2.411,2.60106
-0.764831,0.596297,2.411,2.59874
-0.757005,0.596297,2.411,2.59645
-0.74918,0.596297,2.411,2.59418
-0.741354,0.596297,2.411,2.59193
-0.733529,0.596297,2.411,2.5897
-0.73082,0.600501,2.428,2.60574
-0.722939,0.600501,2.428,2.60354
-0.710052,0.596297,2.411,2.58315
-0.702227,0.596297,2.411,2.58101
-0.694401,0.596297,2.411,2.57889
-0.686576,0.596297,2.411,2.5768
-0.683536,0.600501,2.428,2.59288
-0.675655,0.600501,2.428,2.59081
-0.667775,0.600501,2.428,2.58877
-0.659894,0.600501,2.428,2.58674
-0.656578,0.604706,2.445,2.60284
-0.648643,0.604706,2.445,2.60085
-0.640707,0.604706,2.445,2.59888
-0.632771,0.604706,2.445,2.59694
-0.624835,0.604706,2.445,2.59502
-0.616899,0.604706,2.445,2.59312
-0.608963,0.604706,2.445,2.59124
-0.605452,0.609158,2.463,2.60845
-0.597458,0.609158,2.463,2.60661
-0.589464,0.609158,2.463,2.60479
-0.581469,0.609158,2.463,2.60299
-0.573475,0.609158,2.463,2.60121
-0.565481,0.609158,2.463,2.59946
-0.557486,0.609158,2.463,2.59774
-0.549492,0.609158,2.463,2.59603
-0.541498,0.609158,2.463,2.59435
-0.533504,0.609158,2.463,2.59269
-0.525509,0.609158,2.463,2.59106
-0.513733,0.604706,2.445,2.57053
-0.505797,0.604706,2.445,2.56895
-0.497861,0.604706,2.445,2.5674
-0.489925,0.604706,2.445,2.56588
-0.478638,0.600501,2.428,2.54654
-0.470758,0.600501,2.428,2.54507
-0.462877,0.600501,2.428,2.54363
-0.45181,0.596297,2.411,2.52441
-0.440854,0.592092,2.394,2.50523
-0.433084,0.592092,2.394,2.50387
-0.425314,0.592092,2.394,2.50254
-0.417543,0.592092,2.394,2.50123
-0.409773,0.592092,2.394,2.49994
-0.402003,0.592092,2.394,2.49868
-0.394232,0.592092,2.394,2.49744
-0.386462,0.592092,2.394,2.49623
-0.376003,0.587888,2.377,2.47732
-0.368287,0.587888,2.377,2.47616
-0.368309,0.600501,2.428,2.52813
-0.360428,0.600501,2.428,2.52699
-0.352547,0.600501,2.428,2.52588
-0.342253,0.596297,2.411,2.50712
-0.334428,0.596297,2.411,2.50606
-0.326602,0.596297,2.411,2.50503
-0.318777,0.596297,2.411,2.50402
-0.310951,0.596297,2.411,2.50303
-0.300988,0.592092,2.394,2.48443
-0.293218,0.592092,2.394,2.4835
-0.285448,0.592092,2.394,2.4826
-0.277677,0.592092,2.394,2.48172
-0.269907,0.592092,2.394,2.48086
-0.262137,0.592092,2.394,2.48003
-0.254366,0.592092,2.394,2.47922
-0.246596,0.592092,2.394,2.47843
-0.238826,0.592092,2.394,2.47767
-0.231055,0.592092,2.394,2.47693
-0.2217,0.587888,2.377,2.45864
-0.213984,0.587888,2.377,2.45795
-0.206269,0.587888,2.377,2.45729
-0.198554,0.587888,2.377,2.45666
-0.190839,0.587888,2.377,2.45605
-0.183124,0.587888,2.377,2.45546
-0.174228,0.583931,2.361,2.43837
-0.166565,0.583931,2.361,2.43783
-0.157825,0.579973,2.345,2.42081
-0.150213,0.579973,2.345,2.42032
-0.142602,0.579973,2.345,2.41986
-0.134991,0.579973,2.345,2.41943
-0.12738,0.579973,2.345,2.41901
-0.118951,0.576016,2.329,2.40212
-0.111392,0.576016,2.329,2.40176
-0.103832,0.576016,2.329,2.40142
-0.096273,0.576016,2.329,2.4011
-0.0887137,0.576016,2.329,2.40081
-0.0811543,0.576016,2.329,2.40055
-0.073595,0.576016,2.329,2.4003
-0.0660356,0.576016,2.329,2.40008
-0.0584762,0.576016,2.329,2.39989
-0.0512667,0.579973,2.345,2.4162
-0.0436554,0.579973,2.345,2.41605
-0.0360441,0.579973,2.345,2.41593
-0.0284328,0.579973,2.345,2.41582
-0.0208215,0.579973,2.345,2.41575
-0.0132102,0.579973,2.345,2.41569
-0.00559895,0.579973,2.345,2.41566
0.00201234,0.579973,2.345,2.41566
0.00962363,0.579973,2.345,2.41568
0.0172349,0.579973,2.345,2.41572
0.0248462,0.579973,2.345,2.41578
0.0324575,0.579973,2.345,2.41587
0.0406156,0.587888,2.377,2.44896
0.0483307,0.587888,2.377,2.4491
0.0560459,0.587888,2.377,2.44926
0.063761,0.587888,2.377,2.44945
0.0714762,0.587888,2.377,2.44966
0.0791913,0.587888,2.377,2.4499
0.087528,0.592092,2.394,2.46769
0.0952983,0.592092,2.394,2.46797
0.103069,0.592092,2.394,2.46829
0.110839,0.592092,2.394,2.46862
0.118609,0.592092,2.394,2.46898
0.12638,0.592092,2.394,2.46937
0.133197,0.587888,2.377,2.45224
0.140913,0.587888,2.377,2.45267
0.148628,0.587888,2.377,2.45313
0.156343,0.587888,2.377,2.45361
0.164058,0.587888,2.377,2.45411
0.171773,0.587888,2.377,2.45464
0.179488,0.587888,2.377,2.45519
0.187203,0.587888,2.377,2.45577
0.194919,0.587888,2.377,2.45637
0.202634,0.587888,2.377,2.45699
0.210349,0.587888,2.377,2.45764
0.218064,0.587888,2.377,2.45831
0.225779,0.587888,2.377,2.45901
0.233494,0.587888,2.377,2.45973
0.24121,0.587888,2.377,2.46047
0.248925,0.587888,2.377,2.46124
0.25664,0.587888,2.377,2.46203
0.264355,0.587888,2.377,2.46285
0.27207,0.587888,2.377,2.46369
0.279785,0.587888,2.377,2.46455
0.2875,0.587888,2.377,2.46544
0.293228,0.583931,2.361,2.44975
0.300892,0.583931,2.361,2.45068
0.308555,0.583931,2.361,2.45163
0.314075,0.579973,2.345,2.43599
0.321686,0.579973,2.345,2.43698
0.329298,0.579973,2.345,2.438
0.336909,0.579973,2.345,2.43904
0.34452,0.579973,2.345,2.4401
0.352132,0.579973,2.345,2.44119
0.359743,0.579973,2.345,2.4423
0.367354,0.579973,2.345,2.44343
0.374965,0.579973,2.345,2.44458
0.382577,0.579973,2.345,2.44576
0.390188,0.579973,2.345,2.44697
0.397799,0.579973,2.345,2.44819
0.405411,0.579973,2.345,2.44944
0.41584,0.583931,2.361,2.46743
0.423503,0.583931,2.361,2.46873
0.431166,0.583931,2.361,2.47006
0.441803,0.587888,2.377,2.48816
0.449519,0.587888,2.377,2.48954
0.457234,0.587888,2.377,2.49094
0.464949,0.587888,2.377,2.49237
0.476045,0.592092,2.394,2.51166
