nan,nan,nan,NaN
nan,nan,nan,NaN
nan,nan,nan,NaN
nan,nan,nan,NaN
nan,nan,nan,NaN
nan,nan,nan,NaN
nan,nan,nan,NaN
nan,nan,nan,NaN
nan,nan,nan,NaN
nan,nan,nan,NaN
nan,nan,nan,NaN
nan,nan,nan,NaN
nan,nan,nan,NaN
nan,nan,nan,NaN
nan,nan,nan,NaN
nan,nan,nan,NaN
nan,nan,nan,NaN
nan,nan,nan,NaN
nan,nan,nan,NaN
nan,nan,nan,NaN
-1.13968,-0.416824,2.345,2.64039
-1.13207,-0.416824,2.345,2.63711
-1.12446,-0.416824,2.345,2.63385
-1.11685,-0.416824,2.345,2.63061
-1.10924,-0.416824,2.345,2.62739
-1.10914,-0.419668,2.361,2.64209
-1.10148,-0.419668,2.361,2.63888
-1.09381,-0.419668,2.361,2.63569
-1.08615,-0.419668,2.361,2.63252
-1.07849,-0.419668,2.361,2.62937
-1.07082,-0.419668,2.361,2.62623
-1.06316,-0.419668,2.361,2.62312
-1.0555,-0.419668,2.361,2.62002
-1.04784,-0.419668,2.361,2.61695
-1.04017,-0.419668,2.361,2.61389
-1.03251,-0.419668,2.361,2.61085
-1.02485,-0.419668,2.361,2.60782
-1.01718,-0.419668,2.361,2.60482
-1.00952,-0.419668,2.361,2.60184
-1.00186,-0.419668,2.361,2.59888
-0.994193,-0.419668,2.361,2.59593
-0.986529,-0.419668,2.361,2.59301
-0.978866,-0.419668,2.361,2.5901
-0.971203,-0.419668,2.361,2.58721
-0.96354,-0.419668,2.361,2.58435
-0.955876,-0.419668,2.361,2.5815
-0.948213,-0.419668,2.361,2.57867
-0.94055,-0.419668,2.361,2.57586
-0.932887,-0.419668,2.361,2.57308
-0.925224,-0.419668,2.361,2.57031
-0.911342,-0.416824,2.345,2.55016
-0.903731,-0.416824,2.345,2.54745
-0.89612,-0.416824,2.345,2.54476
-0.888508,-0.416824,2.345,2.54209
-0.880897,-0.416824,2.345,2.53944
-0.873286,-0.416824,2.345,2.53681
-0.865674,-0.416824,2.345,2.5342
-0.858063,-0.416824,2.345,2.53161
-0.856255,-0.419668,2.361,2.54629
-0.848591,-0.419668,2.361,2.54373
-0.840928,-0.419668,2.361,2.54118
-0.833265,-0.419668,2.361,2.53866
-0.825602,-0.419668,2.361,2.53615
-0.817938,-0.419668,2.361,2.53367
-0.815766,-0.422512,2.377,2.54836
-0.808051,-0.422512,2.377,2.5459
-0.800336,-0.422512,2.377,2.54346
-0.79829,-0.425534,2.394,2.55922
-0.790519,-0.425534,2.394,2.5568
-0.788307,-0.428556,2.411,2.57255
-0.780482,-0.428556,2.411,2.57016
-0.772656,-0.428556,2.411,2.5678
-0.770224,-0.431577,2.428,2.58354
-0.762343,-0.431577,2.428,2.5812
-0.754462,-0.431577,2.428,2.57889
-0.746581,-0.431577,2.428,2.57659
-0.738701,-0.431577,2.428,2.57432
-0.735937,-0.434599,2.445,2.59008
-0.728001,-0.434599,2.445,2.58783
-0.720065,-0.434599,2.445,2.58561
-0.712129,-0.434599,2.445,2.58341
-0.709378,-0.437799,2.463,2.60024
-0.701384,-0.437799,2.463,2.59807
-0.693389,-0.437799,2.463,2.59592
-0.685395,-0.437799,2.463,2.5938
-0.677401,-0.437799,2.463,2.5917
-0.669406,-0.437799,2.463,2.58962
-0.661412,-0.437799,2.463,2.58757
-0.658193,-0.440998,2.481,2.60443
-0.645424,-0.437799,2.463,2.58353
-0.637429,-0.437799,2.463,2.58154
-0.629435,-0.437799,2.463,2.57958
-0.621441,-0.437799,2.463,2.57764
-0.613446,-0.437799,2.463,2.57572
-0.605452,-0.437799,2.463,2.57383
-0.597458,-0.437799,2.463,2.57196
-0.589464,-0.437799,2.463,2.57012
-0.581469,-0.437799,2.463,2.5683
-0.573475,-0.437799,2.463,2.5665
-0.561348,-0.434599,2.445,2.54598
-0.553412,-0.434599,2.445,2.54424
-0.545476,-0.434599,2.445,2.54253
-0.53754,-0.434599,2.445,2.54084
-0.529605,-0.434599,2.445,2.53917
-0.521669,-0.434599,2.445,2.53753
-0.513733,-0.434599,2.445,2.53591
-0.505797,-0.434599,2.445,2.53431
-0.4944,-0.431577,2.428,2.51513
-0.486519,-0.431577,2.428,2.51359
-0.478638,-0.431577,2.428,2.51208
-0.470758,-0.431577,2.428,2.51059
-0.462877,-0.431577,2.428,2.50912
-0.454996,-0.431577,2.428,2.50768
-0.447115,-0.431577,2.428,2.50626
-0.439235,-0.431577,2.428,2.50487
-0.431354,-0.431577,2.428,2.5035
-0.423473,-0.431577,2.428,2.50215
-0.418503,-0.434599,2.445,2.51834
-0.410567,-0.434599,2.445,2.51704
-0.402631,-0.434599,2.445,2.51575
-0.394695,-0.434599,2.445,2.5145
-0.386759,-0.434599,2.445,2.51326
-0.378823,-0.434599,2.445,2.51205
-0.370887,-0.434599,2.445,2.51087
-0.362952,-0.434599,2.445,2.50971
-0.355016,-0.434599,2.445,2.50857
-0.34708,-0.434599,2.445,2.50746
-0.341641,-0.437799,2.463,2.52483
-0.333646,-0.437799,2.463,2.52376
-0.325652,-0.437799,2.463,2.52271
-0.317658,-0.437799,2.463,2.52169
-0.309664,-0.437799,2.463,2.5207
-0.301669,-0.437799,2.463,2.51973
-0.293675,-0.437799,2.463,2.51879
-0.285681,-0.437799,2.463,2.51787
-0.277686,-0.437799,2.463,2.51697
-0.269692,-0.437799,2.463,2.5161
-0.261698,-0.437799,2.463,2.51526
-0.253704,-0.437799,2.463,2.51444
-0.245709,-0.437799,2.463,2.51364
-0.239452,-0.440998,2.481,2.53124
-0.2314,-0.440998,2.481,2.53049
-0.223347,-0.440998,2.481,2.52977
-0.215294,-0.440998,2.481,2.52907
-0.207241,-0.440998,2.481,2.5284
-0.199189,-0.440998,2.481,2.52775
-0.191136,-0.440998,2.481,2.52713
-0.184412,-0.444198,2.499,2.54486
-0.1763,-0.444198,2.499,2.54429
-0.168189,-0.444198,2.499,2.54374
-0.160078,-0.444198,2.499,2.54321
-0.151967,-0.444198,2.499,2.54272
-0.143856,-0.444198,2.499,2.54224
-0.135745,-0.444198,2.499,2.5418
-0.127634,-0.444198,2.499,2.54138
-0.119523,-0.444198,2.499,2.54098
-0.111411,-0.444198,2.499,2.54062
-0.1033,-0.444198,2.499,2.54027
-0.0958747,-0.447397,2.517,2.55825
-0.0877052,-0.447397,2.517,2.55796
-0.0795356,-0.447397,2.517,2.55769
-0.0713661,-0.447397,2.517,2.55745
-0.0631965,-0.447397,2.517,2.55723
-0.055027,-0.447397,2.517,2.55705
-0.0468574,-0.447397,2.517,2.55688
-0.0386878,-0.447397,2.517,2.55675
-0.0305183,-0.447397,2.517,2.55664
-0.0225174,-0.450774,2.536,2.57585
-0.0142862,-0.450774,2.536,2.57579
-0.00605498,-0.450774,2.536,2.57576
0.00217625,-0.450774,2.536,2.57575
0.0104075,-0.450774,2.536,2.57577
0.0186387,-0.450774,2.536,2.57582
0.0268699,-0.450774,2.536,2.57589
0.0353641,-0.454152,2.555,2.59529
0.043657,-0.454152,2.555,2.59542
0.0519499,-0.454152,2.555,2.59557
0.0602428,-0.454152,2.555,2.59575
0.0685357,-0.454152,2.555,2.59595
0.0768286,-0.454152,2.555,2.59619
0.0851215,-0.454152,2.555,2.59644
0.0934144,-0.454152,2.555,2.59673
0.101707,-0.454152,2.555,2.59704
0.110818,-0.457529,2.574,2.61669
0.119173,-0.457529,2.574,2.61706
0.127527,-0.457529,2.574,2.61746
0.135882,-0.457529,2.574,2.61788
0.144236,-0.457529,2.574,2.61832
0.152591,-0.457529,2.574,2.6188
0.160946,-0.457529,2.574,2.6193
0.1693,-0.457529,2.574,2.61982
0.177655,-0.457529,2.574,2.62038
0.186009,-0.457529,2.574,2.62096
0.194364,-0.457529,2.574,2.62156
0.202718,-0.457529,2.574,2.62219
0.211073,-0.457529,2.574,2.62285
0.217808,-0.454152,2.555,2.60417
0.226101,-0.454152,2.555,2.60488
0.234394,-0.454152,2.555,2.60561
0.242687,-0.454152,2.555,2.60637
0.252846,-0.457529,2.574,2.62655
0.2612,-0.457529,2.574,2.62736
0.269555,-0.457529,2.574,2.62821
0.27791,-0.457529,2.574,2.62908
0.286264,-0.457529,2.574,2.62997
0.294619,-0.457529,2.574,2.6309
0.302973,-0.457529,2.574,2.63184
0.311328,-0.457529,2.574,2.63282
0.319682,-0.457529,2.574,2.63382
0.325615,-0.454152,2.555,2.6154
0.333908,-0.454152,2.555,2.61644
0.342201,-0.454152,2.555,2.61751
0.350494,-0.454152,2.555,2.61861
0.358787,-0.454152,2.555,2.61973
0.36708,-0.454152,2.555,2.62088
0.375373,-0.454152,2.555,2.62206
0.383666,-0.454152,2.555,2.62326
0.391959,-0.454152,2.555,2.62448
0.400252,-0.454152,2.555,2.62573
0.408544,-0.454152,2.555,2.62701
0.419937,-0.457529,2.574,2.64786
0.428292,-0.457529,2.574,2.6492
0.436646,-0.457529,2.574,2.65056
0.445001,-0.457529,2.574,2.65195
0.453355,-0.457529,2.574,2.65336
0.465118,-0.460906,2.593,2.6744
0.473534,-0.460906,2.593,2.67588
0.481951,-0.460906,2.593,2.67738
0.490367,-0.460906,2.593,2.67891
0.495128,-0.457529,2.574,2.66082
0.503483,-0.457529,2.574,2.66239
0.511837,-0.457529,2.574,2.66398
0.520192,-0.457529,2.574,2.6656
0.528546,-0.457529,2.574,2.66724
0.536901,-0.457529,2.574,2.66891
0.545256,-0.457529,2.574,2.6706
0.55361,-0.457529,2.574,2.67232
0.561965,-0.457529,2.574,2.67406
0.570319,-0.457529,2.574,2.67583
0.574402,-0.454152,2.555,2.65786
0.582695,-0.454152,2.555,2.65966
0.590988,-0.454152,2.555,2.66149
0.599281,-0.454152,2.555,2.66335
0.612092,-0.457529,2.574,2.68504
0.611287,-0.450774,2.536,2.64729
0.619518,-0.450774,2.536,2.64921
0.632453,-0.454152,2.555,2.67101
0.640746,-0.454152,2.555,2.67298
0.644212,-0.450774,2.536,2.65509
0.652443,-0.450774,2.536,2.6571
0.660674,-0.450774,2.536,2.65913
0.668906,-0.450774,2.536,2.66119
0.677137,-0.450774,2.536,2.66327
0.685368,-0.450774,2.536,2.66537
0.693599,-0.450774,2.536,2.6675
0.696572,-0.447397,2.517,2.64965
0.704742,-0.447397,2.517,2.65181
0.712911,-0.447397,2.517,2.654
0.721081,-0.447397,2.517,2.6562
0.729251,-0.447397,2.517,2.65843
0.732147,-0.444198,2.499,2.64166
0.740258,-0.444198,2.499,2.64392
0.748369,-0.444198,2.499,2.6462
0.75648,-0.444198,2.499,2.6485
0.764591,-0.444198,2.499,2.65083
0.767137,-0.440998,2.481,2.63407
0.775189,-0.440998,2.481,2.63643
0.777559,-0.437799,2.463,2.61966
0.785554,-0.437799,2.463,2.62205
0.793548,-0.437799,2.463,2.62445
0.801542,-0.437799,2.463,2.62688
0.809537,-0.437799,2.463,2.62933
0.817531,-0.437799,2.463,2.6318
0.825525,-0.437799,2.463,2.6343
0.827428,-0.434599,2.445,2.61754
0.835364,-0.434599,2.445,2.62006
0.837436,-0.431577,2.428,2.60437
0.845317,-0.431577,2.428,2.60691
0.853198,-0.431577,2.428,2.60948
0.861078,-0.431577,2.428,2.61207
0.862875,-0.428556,2.411,2.59637
0.8707,-0.428556,2.411,2.59898
0.878526,-0.428556,2.411,2.60161
0.886351,-0.428556,2.411,2.60427
0.887872,-0.425534,2.394,2.58856
0.895642,-0.425534,2.394,2.59123
0.903413,-0.425534,2.394,2.59393
0.911183,-0.425534,2.394,2.59665
0.918953,-0.425534,2.394,2.59938
0.926724,-0.425534,2.394,2.60214
0.934494,-0.425534,2.394,2.60492
0.942264,-0.425534,2.394,2.60771
0.950035,-0.425534,2.394,2.61053
0.957805,-0.425534,2.394,2.61337
nan,nan,nan,NaN
nan,nan,nan,NaN
0.981116,-0.425534,2.394,2.622
0.981864,-0.422512,2.377,2.60628
0.989579,-0.422512,2.377,2.6092
0.997294,-0.422512,2.377,2.61213
nan,nan,nan,NaN
nan,nan,nan,NaN
nan,nan,nan,NaN
1.04286,-0.428556,2.411,2.6616
1.05069,-0.428556,2.411,2.66468
1.05851,-0.428556,2.411,2.66778
1.06634,-0.428556,2.411,2.67089
1.07416,-0.428556,2.411,2.67402
1.08962,-0.431577,2.428,2.69605
1.08213,-0.425534,2.394,2.66145
1.0899,-0.425534,2.394,2.66462
1.10547,-0.428556,2.411,2.68675
1.11329,-0.428556,2.411,2.68998
1.12112,-0.428556,2.411,2.69323
1.12894,-0.428556,2.411,2.6965
1.12074,-0.422512,2.377,2.66171
1.12086,-0.419668,2.361,2.64703
1.12852,-0.419668,2.361,2.65028
1.13618,-0.419668,2.361,2.65355
1.14385,-0.419668,2.361,2.65685
1.15151,-0.419668,2.361,2.66015
nan,nan,nan,NaN
nan,nan,nan,NaN
nan,nan,nan,NaN
nan,nan,nan,NaN
nan,nan,nan,NaN
nan,nan,nan,NaN
nan,nan,nan,NaN
nan,nan,nan,NaN
nan,nan,nan,NaN
nan,nan,nan,NaN
nan,nan,nan,NaN
nan,nan,nan,NaN
nan,nan,nan,NaN
nan,nan,nan,NaN
nan,nan,nan,NaN
1.96542,-0.647366,3.642,4.18881
1.95661,-0.640612,3.604,4.1506
1.9683,-0.640612,3.604,4.15613
1.98,-0.640612,3.604,4.16168
1.9917,-0.640612,3.604,4.16726
1.98227,-0.633857,3.566,4.12887
1.99385,-0.633857,3.566,4.13444
2.00542,-0.633857,3.566,4.14003
2.017,-0.633857,3.566,4.14565
2.02857,-0.633857,3.566,4.15129
2.01898,-0.62728,3.529,4.11383
2.00972,-0.620881,3.493,4.07744
2.02106,-0.620881,3.493,4.08304
2.03239,-0.620881,3.493,4.08866
2.02325,-0.61466,3.458,4.05329
2.03448,-0.61466,3.458,4.0589
2.025,-0.608439,3.423,4.0234
2.01588,-0.602395,3.389,3.98898
1.98801,-0.590842,3.324,3.91794
1.99879,-0.590842,3.324,3.92342
1.99024,-0.585154,3.292,3.89111
1.98147,-0.579466,3.26,3.85871
1.99205,-0.579466,3.26,3.86415
1.96516,-0.568623,3.199,3.79721
1.95764,-0.563468,3.17,3.76812
1.96793,-0.563468,3.17,3.77348
1.92455,-0.548182,3.084,3.67634
1.93456,-0.548182,3.084,3.68159
nan,nan,nan,NaN
nan,nan,nan,NaN
1.86394,-0.520097,2.926,3.50802
1.87343,-0.520097,2.926,3.51308
1.8514,-0.511387,2.877,3.45924
1.82969,-0.502855,2.829,3.40645
1.83887,-0.502855,2.829,3.41139
1.81801,-0.494679,2.783,3.3608
1.8126,-0.490768,2.761,3.33908
1.82156,-0.490768,2.761,3.34396
1.80135,-0.482947,2.717,3.29548
1.81017,-0.482947,2.717,3.30031
1.80493,-0.479214,2.696,3.27961
1.81368,-0.479214,2.696,3.28443
1.80823,-0.475482,2.675,3.26365
1.81691,-0.475482,2.675,3.26847
-2.55363,-0.642354,3.681,4.52586
-2.54168,-0.642354,3.681,4.51913
-2.50293,-0.635548,3.642,4.46461
-2.49111,-0.635548,3.642,4.458
-2.45342,-0.628917,3.604,4.40496
-2.44172,-0.628917,3.604,4.39845
-2.4044,-0.622286,3.566,4.34566
-2.34385,-0.609547,3.493,4.25044
-2.33251,-0.609547,3.493,4.2442
-2.32117,-0.609547,3.493,4.23798
-2.28669,-0.603439,3.458,4.18937
-2.27547,-0.603439,3.458,4.18326
-2.26424,-0.603439,3.458,4.17716
-2.25302,-0.603439,3.458,4.17109
-2.24179,-0.603439,3.458,4.16504
-2.23057,-0.603439,3.458,4.15901
-2.21935,-0.603439,3.458,4.153
-2.20812,-0.603439,3.458,4.14701
-2.1969,-0.603439,3.458,4.14105
-2.16355,-0.597332,3.423,4.09325
-2.15244,-0.597332,3.423,4.08739
-2.14133,-0.597332,3.423,4.08155
-2.10906,-0.591399,3.389,4.03525
-2.09806,-0.591399,3.389,4.02951
-2.08706,-0.591399,3.389,4.02379
-2.05585,-0.58564,3.356,3.97897
-2.02546,-0.580056,3.324,3.93547
-2.01467,-0.580056,3.324,3.92993
-2.00388,-0.580056,3.324,3.92441
-1.9739,-0.574472,3.292,3.88118
-1.96322,-0.574472,3.292,3.87576
nan,nan,nan,NaN
nan,nan,nan,NaN
nan,nan,nan,NaN
nan,nan,nan,NaN
nan,nan,nan,NaN
nan,nan,nan,NaN
nan,nan,nan,NaN
nan,nan,nan,NaN
nan,nan,nan,NaN
nan,nan,nan,NaN
nan,nan,nan,NaN
nan,nan,nan,NaN
nan,nan,nan,NaN
nan,nan,nan,NaN
nan,nan,nan,NaN
nan,nan,nan,NaN
nan,nan,nan,NaN
nan,nan,nan,NaN
nan,nan,nan,NaN
nan,nan,nan,NaN
nan,nan,nan,NaN
nan,nan,nan,NaN
nan,nan,nan,NaN
nan,nan,nan,NaN
nan,nan,nan,NaN
nan,nan,nan,NaN
nan,nan,nan,NaN
nan,nan,nan,NaN
nan,nan,nan,NaN
nan,nan,nan,NaN
nan,nan,nan,NaN
-1.1549,-0.409215,2.345,2.64581
-1.14729,-0.409215,2.345,2.64249
-1.13968,-0.409215,2.345,2.6392
-1.13207,-0.409215,2.345,2.63592
-1.12446,-0.409215,2.345,2.63266
-1.11685,-0.409215,2.345,2.62942
-1.10924,-0.409215,2.345,2.62619
-1.10162,-0.409215,2.345,2.62299
-1.09401,-0.409215,2.345,2.6198
-1.09381,-0.412007,2.361,2.63448
-1.08615,-0.412007,2.361,2.63131
-1.07849,-0.412007,2.361,2.62816
-1.07082,-0.412007,2.361,2.62502
-1.06316,-0.412007,2.361,2.6219
-1.0555,-0.412007,2.361,2.61881
-1.04784,-0.412007,2.361,2.61573
-1.04017,-0.412007,2.361,2.61267
-1.03251,-0.412007,2.361,2.60963
-1.02485,-0.412007,2.361,2.6066
-1.01718,-0.412007,2.361,2.6036
-1.00952,-0.412007,2.361,2.60062
-1.00186,-0.412007,2.361,2.59765
-0.994193,-0.412007,2.361,2.5947
-0.986529,-0.412007,2.361,2.59178
-0.978866,-0.412007,2.361,2.58887
-0.971203,-0.412007,2.361,2.58598
-0.96354,-0.412007,2.361,2.58311
-0.955876,-0.412007,2.361,2.58027
-0.941787,-0.409215,2.345,2.55997
-0.934176,-0.409215,2.345,2.55718
-0.926565,-0.409215,2.345,2.55441
-0.918953,-0.409215,2.345,2.55166
-0.911342,-0.409215,2.345,2.54893
-0.897565,-0.406423,2.329,2.52884
-0.890005,-0.406423,2.329,2.52617
-0.882446,-0.406423,2.329,2.52352
-0.874887,-0.406423,2.329,2.52088
-0.873286,-0.409215,2.345,2.53557
-0.865674,-0.409215,2.345,2.53296
-0.858063,-0.409215,2.345,2.53037
-0.856255,-0.412007,2.361,2.54504
-0.848591,-0.412007,2.361,2.54247
-0.840928,-0.412007,2.361,2.53993
-0.833265,-0.412007,2.361,2.5374
-0.825602,-0.412007,2.361,2.53489
-0.817938,-0.412007,2.361,2.53241
-0.815766,-0.414799,2.377,2.54709
-0.808051,-0.414799,2.377,2.54463
-0.800336,-0.414799,2.377,2.54219
-0.79829,-0.417766,2.394,2.55793
-0.790519,-0.417766,2.394,2.55552
-0.788307,-0.420732,2.411,2.57126
-0.780482,-0.420732,2.411,2.56887
-0.772656,-0.420732,2.411,2.5665
-0.770224,-0.423699,2.428,2.58224
-0.762343,-0.423699,2.428,2.5799
-0.754462,-0.423699,2.428,2.57758
-0.746581,-0.423699,2.428,2.57528
-0.738701,-0.423699,2.428,2.57301
-0.735937,-0.426666,2.445,2.58876
-0.728001,-0.426666,2.445,2.58651
-0.720065,-0.426666,2.445,2.58429
-0.712129,-0.426666,2.445,2.58209
-0.709378,-0.429807,2.463,2.59891
-0.701384,-0.429807,2.463,2.59674
-0.693389,-0.429807,2.463,2.59459
-0.685395,-0.429807,2.463,2.59246
-0.677401,-0.429807,2.463,2.59036
-0.669406,-0.429807,2.463,2.58828
-0.661412,-0.429807,2.463,2.58623
-0.658193,-0.432948,2.481,2.60308
-0.645424,-0.429807,2.463,2.58218
-0.637429,-0.429807,2.463,2.5802
-0.629435,-0.429807,2.463,2.57823
-0.621441,-0.429807,2.463,2.57629
-0.613446,-0.429807,2.463,2.57438
-0.605452,-0.429807,2.463,2.57248
-0.597458,-0.429807,2.463,2.57061
-0.589464,-0.429807,2.463,2.56877
-0.581469,-0.429807,2.463,2.56695
-0.573475,-0.429807,2.463,2.56515
-0.561348,-0.426666,2.445,2.54464
-0.553412,-0.426666,2.445,2.5429
-0.545476,-0.426666,2.445,2.54118
-0.53754,-0.426666,2.445,2.53949
-0.529605,-0.426666,2.445,2.53782
-0.521669,-0.426666,2.445,2.53618
-0.513733,-0.426666,2.445,2.53456
-0.505797,-0.426666,2.445,2.53296
-0.497861,-0.426666,2.445,2.53139
-0.489925,-0.426666,2.445,2.52984
-0.481989,-0.426666,2.445,2.52832
-0.470758,-0.423699,2.428,2.50925
-0.462877,-0.423699,2.428,2.50778
-0.454996,-0.423699,2.428,2.50634
-0.447115,-0.423699,2.428,2.50492
-0.439235,-0.423699,2.428,2.50352
-0.431354,-0.423699,2.428,2.50215
-0.423473,-0.423699,2.428,2.50081
-0.418503,-0.426666,2.445,2.51698
-0.410567,-0.426666,2.445,2.51568
-0.402631,-0.426666,2.445,2.51439
-0.394695,-0.426666,2.445,2.51314
-0.386759,-0.426666,2.445,2.5119
-0.378823,-0.426666,2.445,2.51069
-0.370887,-0.426666,2.445,2.50951
-0.362952,-0.426666,2.445,2.50835
-0.355016,-0.426666,2.445,2.50721
-0.34708,-0.426666,2.445,2.5061
-0.341641,-0.429807,2.463,2.52345
-0.333646,-0.429807,2.463,2.52238
-0.325652,-0.429807,2.463,2.52134
-0.317658,-0.429807,2.463,2.52032
-0.309664,-0.429807,2.463,2.51932
-0.301669,-0.429807,2.463,2.51835
-0.293675,-0.429807,2.463,2.51741
-0.285681,-0.429807,2.463,2.51649
-0.277686,-0.429807,2.463,2.51559
-0.269692,-0.429807,2.463,2.51472
-0.261698,-0.429807,2.463,2.51388
-0.253704,-0.429807,2.463,2.51306
-0.245709,-0.429807,2.463,2.51226
-0.239452,-0.432948,2.481,2.52985
-0.2314,-0.432948,2.481,2.5291
-0.223347,-0.432948,2.481,2.52838
-0.215294,-0.432948,2.481,2.52768
-0.207241,-0.432948,2.481,2.52701
-0.199189,-0.432948,2.481,2.52636
-0.191136,-0.432948,2.481,2.52574
-0.184412,-0.436089,2.499,2.54346
-0.1763,-0.436089,2.499,2.54288
-0.168189,-0.436089,2.499,2.54233
-0.160078,-0.436089,2.499,2.54181
-0.151967,-0.436089,2.499,2.54131
-0.143856,-0.436089,2.499,2.54084
-0.135745,-0.436089,2.499,2.54039
-0.127634,-0.436089,2.499,2.53997
-0.119523,-0.436089,2.499,2.53958
-0.111411,-0.436089,2.499,2.53921
-0.1033,-0.436089,2.499,2.53887
-0.0958747,-0.43923,2.517,2.55683
-0.0877052,-0.43923,2.517,2.55654
-0.0795356,-0.43923,2.517,2.55627
-0.0713661,-0.43923,2.517,2.55603
-0.0631965,-0.43923,2.517,2.55582
-0.055027,-0.43923,2.517,2.55563
-0.0468574,-0.43923,2.517,2.55547
-0.0386878,-0.43923,2.517,2.55533
-0.0305183,-0.43923,2.517,2.55522
-0.0225174,-0.442546,2.536,2.57442
-0.0142862,-0.442546,2.536,2.57436
-0.00605498,-0.442546,2.536,2.57433
0.00217625,-0.442546,2.536,2.57432
0.0104075,-0.442546,2.536,2.57434
0.0186387,-0.442546,2.536,2.57439
0.0268699,-0.442546,2.536,2.57446
0.0353641,-0.445861,2.555,2.59385
0.043657,-0.445861,2.555,2.59398
0.0519499,-0.445861,2.555,2.59413
0.0602428,-0.445861,2.555,2.59431
0.0685357,-0.445861,2.555,2.59452
0.0773999,-0.449177,2.574,2.61404
0.0857545,-0.449177,2.574,2.61431
0.0941091,-0.449177,2.574,2.61459
0.102464,-0.449177,2.574,2.61491
0.110818,-0.449177,2.574,2.61525
0.119173,-0.449177,2.574,2.61561
0.127527,-0.449177,2.574,2.61601
0.135882,-0.449177,2.574,2.61643
0.144236,-0.449177,2.574,2.61688
0.152591,-0.449177,2.574,2.61735
0.160946,-0.449177,2.574,2.61785
0.1693,-0.449177,2.574,2.61838
0.177655,-0.449177,2.574,2.61893
0.186009,-0.449177,2.574,2.61951
0.192929,-0.445861,2.555,2.60078
0.201222,-0.445861,2.555,2.6014
0.209515,-0.445861,2.555,2.60206
0.217808,-0.445861,2.555,2.60274
0.226101,-0.445861,2.555,2.60345
0.234394,-0.445861,2.555,2.60418
0.242687,-0.445861,2.555,2.60494
0.252846,-0.449177,2.574,2.6251
0.2612,-0.449177,2.574,2.62592
0.269555,-0.449177,2.574,2.62677
0.27791,-0.449177,2.574,2.62764
0.286264,-0.449177,2.574,2.62853
0.294619,-0.449177,2.574,2.62946
0.300737,-0.445861,2.555,2.61099
0.30903,-0.445861,2.555,2.61196
0.317323,-0.445861,2.555,2.61295
0.325615,-0.445861,2.555,2.61397
0.333908,-0.445861,2.555,2.61502
0.342201,-0.445861,2.555,2.61609
0.350494,-0.445861,2.555,2.61719
0.358787,-0.445861,2.555,2.61831
0.36708,-0.445861,2.555,2.61946
0.375373,-0.445861,2.555,2.62063
0.383666,-0.445861,2.555,2.62183
0.391959,-0.445861,2.555,2.62306
0.400252,-0.445861,2.555,2.62431
0.408544,-0.445861,2.555,2.62559
0.419937,-0.449177,2.574,2.64643
0.428292,-0.449177,2.574,2.64777
0.436646,-0.449177,2.574,2.64913
0.445001,-0.449177,2.574,2.65052
0.453355,-0.449177,2.574,2.65194
0.46171,-0.449177,2.574,2.65338
0.470064,-0.449177,2.574,2.65484
0.478419,-0.449177,2.574,2.65634
0.486774,-0.449177,2.574,2.65785
0.495128,-0.449177,2.574,2.6594
0.503483,-0.449177,2.574,2.66096
0.511837,-0.449177,2.574,2.66256
0.520192,-0.449177,2.574,2.66418
0.528546,-0.449177,2.574,2.66582
0.536901,-0.449177,2.574,2.66749
0.545256,-0.449177,2.574,2.66918
0.55361,-0.449177,2.574,2.6709
0.561965,-0.449177,2.574,2.67265
0.570319,-0.449177,2.574,2.67442
0.578674,-0.449177,2.574,2.67621
0.587028,-0.449177,2.574,2.67803
0.595383,-0.449177,2.574,2.67987
0.603738,-0.449177,2.574,2.68174
0.612092,-0.449177,2.574,2.68363
0.615867,-0.445861,2.555,2.66573
0.62416,-0.445861,2.555,2.66766
0.632453,-0.445861,2.555,2.66961
0.640746,-0.445861,2.555,2.67159
0.644212,-0.442546,2.536,2.65371
0.652443,-0.442546,2.536,2.65572
0.660674,-0.442546,2.536,2.65775
0.668906,-0.442546,2.536,2.65981
0.677137,-0.442546,2.536,2.66189
0.685368,-0.442546,2.536,2.664
0.693599,-0.442546,2.536,2.66612
0.70183,-0.442546,2.536,2.66828
0.710062,-0.442546,2.536,2.67045
0.712911,-0.43923,2.517,2.65263
0.721081,-0.43923,2.517,2.65484
0.729251,-0.43923,2.517,2.65707
0.73742,-0.43923,2.517,2.65932
0.74559,-0.43923,2.517,2.6616
0.753759,-0.43923,2.517,2.6639
0.75648,-0.436089,2.499,2.64716
0.764591,-0.436089,2.499,2.64949
0.767137,-0.432948,2.481,2.63274
0.775189,-0.432948,2.481,2.63509
0.783242,-0.432948,2.481,2.63748
0.791295,-0.432948,2.481,2.63988
0.799347,-0.432948,2.481,2.6423
0.801542,-0.429807,2.463,2.62556
0.809537,-0.429807,2.463,2.62801
0.817531,-0.429807,2.463,2.63049
0.825525,-0.429807,2.463,2.63298
0.827428,-0.426666,2.445,2.61624
0.835364,-0.426666,2.445,2.61876
0.8433,-0.426666,2.445,2.6213
0.845317,-0.423699,2.428,2.60562
0.853198,-0.423699,2.428,2.60819
0.861078,-0.423699,2.428,2.61078
0.862875,-0.420732,2.411,2.59509
0.8707,-0.420732,2.411,2.5977
0.878526,-0.420732,2.411,2.60034
0.886351,-0.420732,2.411,2.60299
0.894177,-0.420732,2.411,2.60566
0.902002,-0.420732,2.411,2.60836
0.903413,-0.417766,2.394,2.59267
0.911183,-0.417766,2.394,2.59538
0.918953,-0.417766,2.394,2.59812
0.926724,-0.417766,2.394,2.60088
0.934494,-0.417766,2.394,2.60366
0.942264,-0.417766,2.394,2.60646
0.956781,-0.420732,2.411,2.62781
0.964606,-0.420732,2.411,2.63067
nan,nan,nan,NaN
nan,nan,nan,NaN
0.981116,-0.417766,2.394,2.62075
0.981864,-0.414799,2.377,2.60504
0.989579,-0.414799,2.377,2.60796
0.997294,-0.414799,2.377,2.6109
nan,nan,nan,NaN
nan,nan,nan,NaN
nan,nan,nan,NaN
nan,nan,nan,NaN
1.0581,-0.423699,2.428,2.68221
1.06598,-0.423699,2.428,2.68533
1.07386,-0.423699,2.428,2.68847
1.08174,-0.423699,2.428,2.69163
1.08962,-0.423699,2.428,2.6948
1.08981,-0.420732,2.411,2.67911
1.09764,-0.420732,2.411,2.6823
1.10547,-0.420732,2.411,2.68551
1.11329,-0.420732,2.411,2.68875
1.12112,-0.420732,2.411,2.692
1.12894,-0.420732,2.411,2.69526
1.12074,-0.414799,2.377,2.6605
1.12086,-0.412007,2.361,2.64582
1.12852,-0.412007,2.361,2.64908
1.13618,-0.412007,2.361,2.65235
1.14385,-0.412007,2.361,2.65565
1.15151,-0.412007,2.361,2.65896
nan,nan,nan,NaN
nan,nan,nan,NaN
nan,nan,nan,NaN
nan,nan,nan,NaN
nan,nan,nan,NaN
nan,nan,nan,NaN
nan,nan,nan,NaN
nan,nan,nan,NaN
nan,nan,nan,NaN
nan,nan,nan,NaN
nan,nan,nan,NaN
nan,nan,nan,NaN
nan,nan,nan,NaN
nan,nan,nan,NaN
nan,nan,nan,NaN
1.96542,-0.635548,3.642,4.187
1.95661,-0.628917,3.604,4.14881
1.9683,-0.628917,3.604,4.15434
1.98,-0.628917,3.604,4.1599
1.9917,-0.628917,3.604,4.16548
1.98227,-0.622286,3.566,4.12711
1.99385,-0.622286,3.566,4.13268
2.00542,-0.622286,3.566,4.13827
1.99607,-0.615829,3.529,4.1009
2.00752,-0.615829,3.529,4.10649
2.01898,-0.615829,3.529,4.1121
2.00972,-0.609547,3.493,4.07573
2.02106,-0.609547,3.493,4.08133
2.03239,-0.609547,3.493,4.08696
2.02325,-0.603439,3.458,4.0516
2.03448,-0.603439,3.458,4.05722
2.025,-0.597332,3.423,4.02173
2.01588,-0.591399,3.389,3.98734
1.98801,-0.580056,3.324,3.91633
1.99879,-0.580056,3.324,3.92181
1.99024,-0.574472,3.292,3.88952
1.98147,-0.568887,3.26,3.85713
1.99205,-0.568887,3.26,3.86258
1.96516,-0.558243,3.199,3.79567
1.95764,-0.553182,3.17,3.7666
1.96793,-0.553182,3.17,3.77195
1.92455,-0.538174,3.084,3.67486
1.93456,-0.538174,3.084,3.68011
nan,nan,nan,NaN
1.87028,-0.514965,2.951,3.53151
1.84801,-0.50624,2.901,3.47667
1.85743,-0.50624,2.901,3.48168
1.83595,-0.497864,2.853,3.42902
1.81482,-0.489662,2.806,3.37742
1.82392,-0.489662,2.806,3.38232
1.81801,-0.485648,2.783,3.35948
1.79815,-0.47797,2.739,3.31118
1.80704,-0.47797,2.739,3.31602
1.80135,-0.474131,2.717,3.2942
1.79618,-0.470466,2.696,3.27353
1.80493,-0.470466,2.696,3.27834
1.81368,-0.470466,2.696,3.28317
1.80823,-0.466802,2.675,3.2624
1.81691,-0.466802,2.675,3.26722
-2.55363,-0.63041,3.681,4.52418
-2.51475,-0.623731,3.642,4.46959
-2.50293,-0.623731,3.642,4.46294
-2.49111,-0.623731,3.642,4.45633
-2.45342,-0.617223,3.604,4.4033
-2.44172,-0.617223,3.604,4.39679
-2.37946,-0.604378,3.529,4.29895
-2.34385,-0.598213,3.493,4.24883
-2.33251,-0.598213,3.493,4.24258
-2.32117,-0.598213,3.493,4.23636
-2.30983,-0.598213,3.493,4.23016
-2.2985,-0.598213,3.493,4.22398
-2.28716,-0.598213,3.493,4.21782
-2.27582,-0.598213,3.493,4.21168
-2.24179,-0.592219,3.458,4.16343
-2.23057,-0.592219,3.458,4.15739
-2.21935,-0.592219,3.458,4.15138
-2.18577,-0.586225,3.423,4.10344
-2.17466,-0.586225,3.423,4.09753
-2.16355,-0.586225,3.423,4.09164
-2.13106,-0.580402,3.389,4.0452
-2.12006,-0.580402,3.389,4.03941
-2.10906,-0.580402,3.389,4.03365
-2.07763,-0.57475,3.356,3.98869
-2.06674,-0.57475,3.356,3.98303
-2.05585,-0.57475,3.356,3.97738
-2.02546,-0.56927,3.324,3.93389
-1.99527,-0.56379,3.292,3.89053
-1.98459,-0.56379,3.292,3.88506
-1.95472,-0.558309,3.26,3.8419
-1.94413,-0.558309,3.26,3.83653
nan,nan,nan,NaN
nan,nan,nan,NaN
nan,nan,nan,NaN
nan,nan,nan,NaN
nan,nan,nan,NaN
nan,nan,nan,NaN
nan,nan,nan,NaN
nan,nan,nan,NaN
nan,nan,nan,NaN
nan,nan,nan,NaN
nan,nan,nan,NaN
nan,nan,nan,NaN
nan,nan,nan,NaN
nan,nan,nan,NaN
nan,nan,nan,NaN
nan,nan,nan,NaN
nan,nan,nan,NaN
nan,nan,nan,NaN
nan,nan,nan,NaN
nan,nan,nan,NaN
nan,nan,nan,NaN
nan,nan,nan,NaN
nan,nan,nan,NaN
nan,nan,nan,NaN
nan,nan,nan,NaN
nan,nan,nan,NaN
nan,nan,nan,NaN
nan,nan,nan,NaN
nan,nan,nan,NaN
nan,nan,nan,NaN
nan,nan,nan,NaN
-1.1549,-0.401606,2.345,2.64464
-1.14729,-0.401606,2.345,2.64132
-1.13968,-0.401606,2.345,2.63803
-1.13207,-0.401606,2.345,2.63475
-1.12446,-0.401606,2.345,2.63149
-1.11685,-0.401606,2.345,2.62824
-1.10924,-0.401606,2.345,2.62502
-1.10162,-0.401606,2.345,2.62181
-1.09401,-0.401606,2.345,2.61862
-1.09381,-0.404346,2.361,2.6333
-1.08615,-0.404346,2.361,2.63012
-1.07849,-0.404346,2.361,2.62697
-1.07082,-0.404346,2.361,2.62383
-1.06316,-0.404346,2.361,2.62071
-1.0555,-0.404346,2.361,2.61761
-1.04784,-0.404346,2.361,2.61453
-1.04017,-0.404346,2.361,2.61147
-1.03251,-0.404346,2.361,2.60843
-1.02485,-0.404346,2.361,2.6054
-1.01718,-0.404346,2.361,2.6024
-1.00952,-0.404346,2.361,2.59941
-1.00186,-0.404346,2.361,2.59645
-0.994193,-0.404346,2.361,2.5935
-0.986529,-0.404346,2.361,2.59057
-0.978866,-0.404346,2.361,2.58766
-0.971203,-0.404346,2.361,2.58477
-0.96354,-0.404346,2.361,2.5819
-0.955876,-0.404346,2.361,2.57905
-0.941787,-0.401606,2.345,2.55876
-0.934176,-0.401606,2.345,2.55597
-0.926565,-0.401606,2.345,2.5532
-0.918953,-0.401606,2.345,2.55045
-0.911342,-0.401606,2.345,2.54772
-0.897565,-0.398866,2.329,2.52764
-0.890005,-0.398866,2.329,2.52496
-0.882446,-0.398866,2.329,2.52231
-0.874887,-0.398866,2.329,2.51967
-0.867327,-0.398866,2.329,2.51706
-0.859768,-0.398866,2.329,2.51447
-0.852209,-0.398866,2.329,2.51189
-0.850452,-0.401606,2.345,2.52658
-0.842841,-0.401606,2.345,2.52402
-0.835229,-0.401606,2.345,2.52149
-0.833265,-0.404346,2.361,2.53617
-0.825602,-0.404346,2.361,2.53366
-0.817938,-0.404346,2.361,2.53117
-0.810275,-0.404346,2.361,2.52871
-0.808051,-0.407086,2.377,2.54338
-0.800336,-0.407086,2.377,2.54094
-0.792621,-0.407086,2.377,2.53852
-0.790519,-0.409998,2.394,2.55426
-0.782749,-0.409998,2.394,2.55187
-0.774979,-0.409998,2.394,2.5495
-0.772656,-0.412909,2.411,2.56523
-0.770224,-0.41582,2.428,2.58096
-0.762343,-0.41582,2.428,2.57862
-0.754462,-0.41582,2.428,2.5763
-0.746581,-0.41582,2.428,2.574
-0.738701,-0.41582,2.428,2.57173
-0.735937,-0.418732,2.445,2.58746
-0.728001,-0.418732,2.445,2.58522
-0.720065,-0.418732,2.445,2.58299
-0.712129,-0.418732,2.445,2.58079
-0.704194,-0.418732,2.445,2.57861
-0.701384,-0.421815,2.463,2.59543
-0.693389,-0.421815,2.463,2.59328
-0.685395,-0.421815,2.463,2.59115
-0.677401,-0.421815,2.463,2.58905
-0.669406,-0.421815,2.463,2.58697
-0.661412,-0.421815,2.463,2.58491
-0.653418,-0.421815,2.463,2.58288
-0.645424,-0.421815,2.463,2.58087
-0.637429,-0.421815,2.463,2.57888
-0.629435,-0.421815,2.463,2.57691
-0.621441,-0.421815,2.463,2.57497
-0.613446,-0.421815,2.463,2.57306
-0.605452,-0.421815,2.463,2.57116
-0.597458,-0.421815,2.463,2.56929
-0.589464,-0.421815,2.463,2.56744
-0.581469,-0.421815,2.463,2.56562
-0.573475,-0.421815,2.463,2.56382
-0.561348,-0.418732,2.445,2.54332
-0.553412,-0.418732,2.445,2.54158
-0.545476,-0.418732,2.445,2.53986
-0.53754,-0.418732,2.445,2.53817
-0.529605,-0.418732,2.445,2.5365
-0.521669,-0.418732,2.445,2.53486
-0.513733,-0.418732,2.445,2.53324
-0.50228,-0.41582,2.428,2.51404
-0.4944,-0.41582,2.428,2.51247
-0.486519,-0.41582,2.428,2.51093
-0.478638,-0.41582,2.428,2.50942
-0.470758,-0.41582,2.428,2.50793
-0.462877,-0.41582,2.428,2.50646
-0.454996,-0.41582,2.428,2.50502
-0.447115,-0.41582,2.428,2.5036
-0.439235,-0.41582,2.428,2.5022
-0.431354,-0.41582,2.428,2.50083
-0.423473,-0.41582,2.428,2.49948
-0.418503,-0.418732,2.445,2.51565
-0.410567,-0.418732,2.445,2.51434
-0.402631,-0.418732,2.445,2.51306
-0.394695,-0.418732,2.445,2.5118
-0.386759,-0.418732,2.445,2.51057
-0.378823,-0.418732,2.445,2.50936
-0.373618,-0.421815,2.463,2.52664
-0.365624,-0.421815,2.463,2.52547
-0.357629,-0.421815,2.463,2.52432
-0.349635,-0.421815,2.463,2.5232
-0.341641,-0.421815,2.463,2.52211
-0.333646,-0.421815,2.463,2.52103
-0.325652,-0.421815,2.463,2.51999
-0.317658,-0.421815,2.463,2.51897
-0.309664,-0.421815,2.463,2.51797
-0.301669,-0.421815,2.463,2.517
-0.293675,-0.421815,2.463,2.51606
-0.285681,-0.421815,2.463,2.51514
-0.277686,-0.421815,2.463,2.51424
-0.269692,-0.421815,2.463,2.51337
-0.26361,-0.424897,2.481,2.53089
-0.255558,-0.424897,2.481,2.53006
-0.247505,-0.424897,2.481,2.52926
-0.239452,-0.424897,2.481,2.52849
-0.2314,-0.424897,2.481,2.52774
-0.223347,-0.424897,2.481,2.52701
-0.215294,-0.424897,2.481,2.52631
-0.207241,-0.424897,2.481,2.52564
-0.199189,-0.424897,2.481,2.52499
-0.191136,-0.424897,2.481,2.52437
-0.184412,-0.42798,2.499,2.54208
-0.1763,-0.42798,2.499,2.54151
-0.168189,-0.42798,2.499,2.54096
-0.160078,-0.42798,2.499,2.54043
-0.151967,-0.42798,2.499,2.53993
-0.143856,-0.42798,2.499,2.53946
-0.135745,-0.42798,2.499,2.53901
-0.127634,-0.42798,2.499,2.53859
-0.119523,-0.42798,2.499,2.5382
-0.111411,-0.42798,2.499,2.53783
-0.104044,-0.431063,2.517,2.55576
-0.0958747,-0.431063,2.517,2.55544
-0.0877052,-0.431063,2.517,2.55515
-0.0795356,-0.431063,2.517,2.55488
-0.0713661,-0.431063,2.517,2.55464
-0.0631965,-0.431063,2.517,2.55443
-0.0554423,-0.434317,2.536,2.57352
-0.0472111,-0.434317,2.536,2.57335
-0.0389799,-0.434317,2.536,2.57322
-0.0307487,-0.434317,2.536,2.57311
-0.0225174,-0.434317,2.536,2.57302
-0.0142862,-0.434317,2.536,2.57296
-0.00605498,-0.434317,2.536,2.57293
0.00219255,-0.437571,2.555,2.5922
0.0104854,-0.437571,2.555,2.59222
0.0187783,-0.437571,2.555,2.59227
0.0270712,-0.437571,2.555,2.59234
0.0356271,-0.440824,2.574,2.61172
0.0439817,-0.440824,2.574,2.61185
0.0523362,-0.440824,2.574,2.612
0.0611388,-0.444078,2.593,2.63146
0.069555,-0.444078,2.593,2.63167
0.0779713,-0.444078,2.593,2.63191
0.0857545,-0.440824,2.574,2.61288
0.0941091,-0.440824,2.574,2.61317
0.102464,-0.440824,2.574,2.61348
0.110818,-0.440824,2.574,2.61383
0.119173,-0.440824,2.574,2.61419
0.127527,-0.440824,2.574,2.61459
0.135882,-0.440824,2.574,2.61501
0.144236,-0.440824,2.574,2.61546
0.152591,-0.440824,2.574,2.61593
0.160946,-0.440824,2.574,2.61643
0.1693,-0.440824,2.574,2.61696
0.177655,-0.440824,2.574,2.61751
0.186009,-0.440824,2.574,2.61809
0.192929,-0.437571,2.555,2.59937
0.201222,-0.437571,2.555,2.6
0.209515,-0.437571,2.555,2.60065
0.217808,-0.437571,2.555,2.60133
0.226101,-0.437571,2.555,2.60204
0.234394,-0.437571,2.555,2.60277
0.242687,-0.437571,2.555,2.60353
0.252846,-0.440824,2.574,2.62369
0.2612,-0.440824,2.574,2.62451
0.269555,-0.440824,2.574,2.62535
0.27791,-0.440824,2.574,2.62622
0.286264,-0.440824,2.574,2.62712
0.294619,-0.440824,2.574,2.62804
0.300737,-0.437571,2.555,2.60959
0.30903,-0.437571,2.555,2.61055
0.317323,-0.437571,2.555,2.61155
0.325615,-0.437571,2.555,2.61257
0.333908,-0.437571,2.555,2.61362
0.342201,-0.437571,2.555,2.61469
0.350494,-0.437571,2.555,2.61579
0.358787,-0.437571,2.555,2.61691
0.36708,-0.437571,2.555,2.61806
0.375373,-0.437571,2.555,2.61924
0.383666,-0.437571,2.555,2.62044
0.391959,-0.437571,2.555,2.62166
0.400252,-0.437571,2.555,2.62292
0.408544,-0.437571,2.555,2.6242
0.419937,-0.440824,2.574,2.64502
0.428292,-0.440824,2.574,2.64636
0.436646,-0.440824,2.574,2.64773
0.445001,-0.440824,2.574,2.64912
0.453355,-0.440824,2.574,2.65053
0.46171,-0.440824,2.574,2.65198
0.470064,-0.440824,2.574,2.65344
0.478419,-0.440824,2.574,2.65494
0.486774,-0.440824,2.574,2.65645
0.495128,-0.440824,2.574,2.658
0.503483,-0.440824,2.574,2.65957
0.511837,-0.440824,2.574,2.66116
0.520192,-0.440824,2.574,2.66278
0.528546,-0.440824,2.574,2.66443
0.536901,-0.440824,2.574,2.6661
0.545256,-0.440824,2.574,2.66779
0.557697,-0.444078,2.593,2.68922
0.566113,-0.444078,2.593,2.69097
0.574529,-0.444078,2.593,2.69276
0.582945,-0.444078,2.593,2.69457
0.591362,-0.444078,2.593,2.6964
0.595383,-0.440824,2.574,2.67849
0.603738,-0.440824,2.574,2.68035
0.612092,-0.440824,2.574,2.68225
0.620447,-0.440824,2.574,2.68417
0.628801,-0.440824,2.574,2.68611
0.637156,-0.440824,2.574,2.68808
0.640746,-0.437571,2.555,2.67021
0.649038,-0.437571,2.555,2.67222
0.657331,-0.437571,2.555,2.67424
0.665624,-0.437571,2.555,2.67629
0.673917,-0.437571,2.555,2.67837
0.68221,-0.437571,2.555,2.68047
0.690503,-0.437571,2.555,2.68259
0.698796,-0.437571,2.555,2.68474
0.70183,-0.434317,2.536,2.66693
0.710062,-0.434317,2.536,2.6691
0.718293,-0.434317,2.536,2.67131
0.721081,-0.431063,2.517,2.6535
0.729251,-0.431063,2.517,2.65573
0.73742,-0.431063,2.517,2.65799
0.74559,-0.431063,2.517,2.66026
0.753759,-0.431063,2.517,2.66257
0.75648,-0.42798,2.499,2.64583
0.764591,-0.42798,2.499,2.64816
0.767137,-0.424897,2.481,2.63143
0.775189,-0.424897,2.481,2.63378
0.783242,-0.424897,2.481,2.63617
0.791295,-0.424897,2.481,2.63857
0.799347,-0.424897,2.481,2.641
0.801542,-0.421815,2.463,2.62426
0.809537,-0.421815,2.463,2.62672
0.817531,-0.421815,2.463,2.62919
0.825525,-0.421815,2.463,2.63169
0.827428,-0.418732,2.445,2.61496
0.835364,-0.418732,2.445,2.61748
0.8433,-0.418732,2.445,2.62002
0.845317,-0.41582,2.428,2.60435
0.853198,-0.41582,2.428,2.60692
0.861078,-0.41582,2.428,2.60951
0.862875,-0.412909,2.411,2.59383
0.8707,-0.412909,2.411,2.59645
0.878526,-0.412909,2.411,2.59908
0.886351,-0.412909,2.411,2.60174
0.894177,-0.412909,2.411,2.60441
0.902002,-0.412909,2.411,2.60711
0.903413,-0.409998,2.394,2.59143
0.911183,-0.409998,2.394,2.59415
0.918953,-0.409998,2.394,2.59688
0.926724,-0.409998,2.394,2.59964
0.934494,-0.409998,2.394,2.60242
0.942264,-0.409998,2.394,2.60522
0.956781,-0.412909,2.411,2.62657
0.964606,-0.412909,2.411,2.62943
nan,nan,nan,NaN
nan,nan,nan,NaN
0.981116,-0.409998,2.394,2.61953
0.981864,-0.407086,2.377,2.60383
0.989579,-0.407086,2.377,2.60674
0.997294,-0.407086,2.377,2.60968
nan,nan,nan,NaN
nan,nan,nan,NaN
nan,nan,nan,NaN
1.06535,-0.421815,2.463,2.71648
1.0581,-0.41582,2.428,2.68098
1.06598,-0.41582,2.428,2.6841
1.07386,-0.41582,2.428,2.68724
1.08174,-0.41582,2.428,2.6904
1.08962,-0.41582,2.428,2.69358
1.08981,-0.412909,2.411,2.67789
1.09764,-0.412909,2.411,2.68109
1.10547,-0.412909,2.411,2.6843
1.11329,-0.412909,2.411,2.68753
1.12112,-0.412909,2.411,2.69078
1.12894,-0.412909,2.411,2.69405
1.12074,-0.407086,2.377,2.6593
1.12086,-0.404346,2.361,2.64464
1.12852,-0.404346,2.361,2.6479
1.13618,-0.404346,2.361,2.65117
1.14385,-0.404346,2.361,2.65447
1.15151,-0.404346,2.361,2.65778
1.17537,-0.409998,2.394,2.6983
1.18314,-0.409998,2.394,2.7017
nan,nan,nan,NaN
nan,nan,nan,NaN
nan,nan,nan,NaN
nan,nan,nan,NaN
nan,nan,nan,NaN
nan,nan,nan,NaN
nan,nan,nan,NaN
nan,nan,nan,NaN
nan,nan,nan,NaN
nan,nan,nan,NaN
nan,nan,nan,NaN
nan,nan,nan,NaN
nan,nan,nan,NaN
1.96542,-0.623731,3.642,4.18522
1.95661,-0.617223,3.604,4.14706
1.9683,-0.617223,3.604,4.15259
1.98,-0.617223,3.604,4.15815
1.9917,-0.617223,3.604,4.16373
2.0034,-0.617223,3.604,4.16934
2.0151,-0.617223,3.604,4.17497
2.00542,-0.610715,3.566,4.13655
1.99607,-0.604378,3.529,4.0992
2.00752,-0.604378,3.529,4.10479
2.01898,-0.604378,3.529,4.1104
2.00972,-0.598213,3.493,4.07405
2.02106,-0.598213,3.493,4.07965
2.01203,-0.592219,3.458,4.04435
2.02325,-0.592219,3.458,4.04994
2.03448,-0.592219,3.458,4.05556
2.025,-0.586225,3.423,4.0201
2.01588,-0.580402,3.389,3.98572
1.98801,-0.56927,3.324,3.91474
1.99879,-0.56927,3.324,3.92023
1.99024,-0.56379,3.292,3.88795
1.98147,-0.558309,3.26,3.85559
1.99205,-0.558309,3.26,3.86103
1.98421,-0.553171,3.23,3.83092
1.95764,-0.542896,3.17,3.7651
1.96793,-0.542896,3.17,3.77046
1.94202,-0.532963,3.112,3.70676
1.90068,-0.518919,3.03,3.61425
1.91052,-0.518919,3.03,3.61943
1.87028,-0.50539,2.951,3.53013
1.84801,-0.496827,2.901,3.47531
1.85743,-0.496827,2.901,3.48033
1.83595,-0.488606,2.853,3.42769
1.81482,-0.480557,2.806,3.37611
1.82392,-0.480557,2.806,3.38102
1.81801,-0.476618,2.783,3.35818
1.79815,-0.469083,2.739,3.30991
1.80704,-0.469083,2.739,3.31475
1.80135,-0.465315,2.717,3.29294
1.78218,-0.458122,2.675,3.2468
1.79087,-0.458122,2.675,3.25157
1.79955,-0.458122,2.675,3.25636
1.80823,-0.458122,2.675,3.26117
1.81691,-0.458122,2.675,3.26599
-2.55363,-0.618466,3.681,4.52253
-2.51475,-0.611913,3.642,4.46795
-2.50293,-0.611913,3.642,4.46131
-2.49111,-0.611913,3.642,4.45469
-2.45342,-0.605528,3.604,4.40168
-2.44172,-0.605528,3.604,4.39517
-2.37946,-0.592927,3.529,4.29735
-2.368,-0.592927,3.529,4.29102
-2.35655,-0.592927,3.529,4.28471
-2.34509,-0.592927,3.529,4.27842
-2.30983,-0.586879,3.493,4.22857
-2.2985,-0.586879,3.493,4.22239
-2.28716,-0.586879,3.493,4.21623
-2.27582,-0.586879,3.493,4.21009
-2.24179,-0.580998,3.458,4.16185
-2.23057,-0.580998,3.458,4.15581
-2.21935,-0.580998,3.458,4.1498
-2.18577,-0.575118,3.423,4.10186
-2.17466,-0.575118,3.423,4.09596
-2.16355,-0.575118,3.423,4.09007
-2.13106,-0.569405,3.389,4.04363
-2.12006,-0.569405,3.389,4.03785
-2.10906,-0.569405,3.389,4.03208
-2.07763,-0.563861,3.356,3.98713
-2.06674,-0.563861,3.356,3.98147
-2.05585,-0.563861,3.356,3.97583
-2.02546,-0.558484,3.324,3.93235
-1.99527,-0.553108,3.292,3.889
-1.98459,-0.553108,3.292,3.88353
-1.95472,-0.547731,3.26,3.84038
-1.94413,-0.547731,3.26,3.83501
nan,nan,nan,NaN
nan,nan,nan,NaN
nan,nan,nan,NaN
nan,nan,nan,NaN
nan,nan,nan,NaN
nan,nan,nan,NaN
nan,nan,nan,NaN
nan,nan,nan,NaN
nan,nan,nan,NaN
nan,nan,nan,NaN
nan,nan,nan,NaN
nan,nan,nan,NaN
nan,nan,nan,NaN
nan,nan,nan,NaN
nan,nan,nan,NaN
nan,nan,nan,NaN
nan,nan,nan,NaN
nan,nan,nan,NaN
nan,nan,nan,NaN
nan,nan,nan,NaN
nan,nan,nan,NaN
nan,nan,nan,NaN
nan,nan,nan,NaN
nan,nan,nan,NaN
nan,nan,nan,NaN
nan,nan,nan,NaN
nan,nan,nan,NaN
nan,nan,nan,NaN
nan,nan,nan,NaN
nan,nan,nan,NaN
nan,nan,nan,NaN
-1.1549,-0.393997,2.345,2.64349
-1.14729,-0.393997,2.345,2.64018
-1.13968,-0.393997,2.345,2.63688
-1.13207,-0.393997,2.345,2.6336
-1.12446,-0.393997,2.345,2.63034
-1.11685,-0.393997,2.345,2.62709
-1.10924,-0.393997,2.345,2.62386
-1.10162,-0.393997,2.345,2.62066
-1.09401,-0.393997,2.345,2.61747
-1.09381,-0.396685,2.361,2.63213
-1.08615,-0.396685,2.361,2.62896
-1.07849,-0.396685,2.361,2.6258
-1.07082,-0.396685,2.361,2.62266
-1.06316,-0.396685,2.361,2.61954
-1.0555,-0.396685,2.361,2.61644
-1.04784,-0.396685,2.361,2.61336
-1.04017,-0.396685,2.361,2.61029
-1.03251,-0.396685,2.361,2.60725
-1.02485,-0.396685,2.361,2.60423
-1.01718,-0.396685,2.361,2.60122
-1.00952,-0.396685,2.361,2.59823
-1.00186,-0.396685,2.361,2.59526
-0.994193,-0.396685,2.361,2.59232
-0.986529,-0.396685,2.361,2.58939
-0.978866,-0.396685,2.361,2.58648
-0.971203,-0.396685,2.361,2.58359
-0.96354,-0.396685,2.361,2.58071
-0.955876,-0.396685,2.361,2.57786
-0.941787,-0.393997,2.345,2.55758
-0.934176,-0.393997,2.345,2.55479
-0.926565,-0.393997,2.345,2.55202
-0.918953,-0.393997,2.345,2.54926
-0.911342,-0.393997,2.345,2.54653
-0.897565,-0.391308,2.329,2.52646
-0.890005,-0.391308,2.329,2.52378
-0.882446,-0.391308,2.329,2.52113
-0.874887,-0.391308,2.329,2.51849
-0.867327,-0.391308,2.329,2.51587
-0.859768,-0.391308,2.329,2.51328
-0.852209,-0.391308,2.329,2.5107
-0.844649,-0.391308,2.329,2.50815
-0.842841,-0.393997,2.345,2.52282
-0.835229,-0.393997,2.345,2.52029
-0.827618,-0.393997,2.345,2.51778
-0.825602,-0.396685,2.361,2.53245
-0.817938,-0.396685,2.361,2.52996
-0.810275,-0.396685,2.361,2.52749
-0.802612,-0.396685,2.361,2.52505
-0.794949,-0.396685,2.361,2.52262
-0.792621,-0.399373,2.377,2.5373
-0.790519,-0.402229,2.394,2.55303
-0.782749,-0.402229,2.394,2.55063
-0.774979,-0.402229,2.394,2.54826
-0.772656,-0.405086,2.411,2.56398
-0.770224,-0.407942,2.428,2.5797
-0.762343,-0.407942,2.428,2.57736
-0.754462,-0.407942,2.428,2.57504
-0.746581,-0.407942,2.428,2.57274
-0.738701,-0.407942,2.428,2.57046
-0.735937,-0.410798,2.445,2.58619
-0.728001,-0.410798,2.445,2.58394
-0.720065,-0.410798,2.445,2.58172
-0.712129,-0.410798,2.445,2.57952
-0.704194,-0.410798,2.445,2.57734
-0.701384,-0.413823,2.463,2.59414
-0.693389,-0.413823,2.463,2.59199
-0.685395,-0.413823,2.463,2.58986
-0.677401,-0.413823,2.463,2.58776
-0.669406,-0.413823,2.463,2.58568
-0.661412,-0.413823,2.463,2.58362
-0.653418,-0.413823,2.463,2.58158
-0.640707,-0.410798,2.445,2.56072
-0.632771,-0.410798,2.445,2.55875
-0.629435,-0.413823,2.463,2.57562
-0.621441,-0.413823,2.463,2.57368
-0.613446,-0.413823,2.463,2.57176
-0.605452,-0.413823,2.463,2.56986
-0.597458,-0.413823,2.463,2.56799
-0.589464,-0.413823,2.463,2.56614
-0.581469,-0.413823,2.463,2.56432
-0.573475,-0.413823,2.463,2.56252
-0.561348,-0.410798,2.445,2.54203
-0.553412,-0.410798,2.445,2.54028
-0.545476,-0.410798,2.445,2.53857
-0.53754,-0.410798,2.445,2.53687
-0.529605,-0.410798,2.445,2.5352
-0.521669,-0.410798,2.445,2.53356
-0.513733,-0.410798,2.445,2.53194
-0.50228,-0.407942,2.428,2.51274
-0.4944,-0.407942,2.428,2.51118
-0.486519,-0.407942,2.428,2.50964
-0.478638,-0.407942,2.428,2.50813
-0.474054,-0.410798,2.445,2.52418
-0.466118,-0.410798,2.445,2.52271
-0.458182,-0.410798,2.445,2.52125
-0.450246,-0.410798,2.445,2.51982
-0.44231,-0.410798,2.445,2.51842
-0.434374,-0.410798,2.445,2.51703
-0.426438,-0.410798,2.445,2.51568
-0.418503,-0.410798,2.445,2.51434
-0.413589,-0.413823,2.463,2.53154
-0.405595,-0.413823,2.463,2.53024
-0.397601,-0.413823,2.463,2.52897
-0.389606,-0.413823,2.463,2.52773
-0.381612,-0.413823,2.463,2.52651
-0.373618,-0.413823,2.463,2.52531
-0.365624,-0.413823,2.463,2.52414
-0.357629,-0.413823,2.463,2.523
-0.349635,-0.413823,2.463,2.52188
-0.344137,-0.416847,2.481,2.5392
-0.336085,-0.416847,2.481,2.53812
-0.328032,-0.416847,2.481,2.53707
-0.319979,-0.416847,2.481,2.53604
-0.311927,-0.416847,2.481,2.53504
-0.303874,-0.416847,2.481,2.53406
-0.295821,-0.416847,2.481,2.53311
-0.287769,-0.416847,2.481,2.53218
-0.279716,-0.416847,2.481,2.53128
-0.271663,-0.416847,2.481,2.5304
-0.26361,-0.416847,2.481,2.52955
-0.255558,-0.416847,2.481,2.52872
-0.247505,-0.416847,2.481,2.52792
-0.239452,-0.416847,2.481,2.52714
-0.2314,-0.416847,2.481,2.52639
-0.223347,-0.416847,2.481,2.52567
-0.215294,-0.416847,2.481,2.52497
-0.207241,-0.416847,2.481,2.5243
-0.199189,-0.416847,2.481,2.52365
-0.191136,-0.416847,2.481,2.52303
-0.184412,-0.419871,2.499,2.54073
-0.1763,-0.419871,2.499,2.54015
-0.168189,-0.419871,2.499,2.5396
-0.160078,-0.419871,2.499,2.53908
-0.153062,-0.422895,2.517,2.55686
-0.143856,-0.419871,2.499,2.53811
-0.135745,-0.419871,2.499,2.53766
-0.127634,-0.419871,2.499,2.53724
-0.119523,-0.419871,2.499,2.53684
-0.112214,-0.422895,2.517,2.55475
-0.104044,-0.422895,2.517,2.5544
-0.0958747,-0.422895,2.517,2.55408
-0.0877052,-0.422895,2.517,2.55379
-0.080136,-0.426088,2.536,2.57279
-0.0719048,-0.426088,2.536,2.57255
-0.0636736,-0.426088,2.536,2.57233
-0.0554423,-0.426088,2.536,2.57214
-0.0472111,-0.426088,2.536,2.57198
-0.0389799,-0.426088,2.536,2.57184
-0.0307487,-0.426088,2.536,2.57173
-0.0226861,-0.42928,2.555,2.59091
-0.0145003,-0.432472,2.574,2.61012
-0.00610034,-0.42928,2.555,2.59082
0.00219255,-0.42928,2.555,2.59081
0.0104854,-0.42928,2.555,2.59083
0.0187783,-0.42928,2.555,2.59088
0.0272725,-0.432472,2.574,2.61022
0.0356271,-0.432472,2.574,2.61032
0.0439817,-0.432472,2.574,2.61045
0.0523362,-0.432472,2.574,2.6106
0.0611388,-0.435665,2.593,2.63006
0.069555,-0.435665,2.593,2.63026
0.0779713,-0.435665,2.593,2.6305
0.0863875,-0.435665,2.593,2.63076
0.0948037,-0.435665,2.593,2.63105
0.10322,-0.435665,2.593,2.63137
0.112497,-0.439025,2.613,2.65201
0.120978,-0.439025,2.613,2.65239
0.128469,-0.435665,2.593,2.63248
0.136885,-0.435665,2.593,2.63291
0.145301,-0.435665,2.593,2.63336
0.152591,-0.432472,2.574,2.61453
0.160946,-0.432472,2.574,2.61504
0.1693,-0.432472,2.574,2.61556
0.177655,-0.432472,2.574,2.61612
0.186009,-0.432472,2.574,2.6167
0.194364,-0.432472,2.574,2.61731
0.202718,-0.432472,2.574,2.61794
0.209515,-0.42928,2.555,2.59927
0.217808,-0.42928,2.555,2.59995
0.226101,-0.42928,2.555,2.60066
0.234394,-0.42928,2.555,2.60139
0.242687,-0.42928,2.555,2.60215
0.250979,-0.42928,2.555,2.60294
0.259272,-0.42928,2.555,2.60375
0.267565,-0.42928,2.555,2.60459
0.275858,-0.42928,2.555,2.60546
0.284151,-0.42928,2.555,2.60635
0.292444,-0.42928,2.555,2.60726
0.300737,-0.42928,2.555,2.60821
0.30903,-0.42928,2.555,2.60918
0.317323,-0.42928,2.555,2.61017
0.325615,-0.42928,2.555,2.61119
0.333908,-0.42928,2.555,2.61224
0.342201,-0.42928,2.555,2.61331
0.350494,-0.42928,2.555,2.61441
0.358787,-0.42928,2.555,2.61554
0.36708,-0.42928,2.555,2.61669
0.375373,-0.42928,2.555,2.61786
0.383666,-0.42928,2.555,2.61907
0.391959,-0.42928,2.555,2.62029
0.400252,-0.42928,2.555,2.62155
0.408544,-0.42928,2.555,2.62283
0.419937,-0.432472,2.574,2.64364
0.428292,-0.432472,2.574,2.64498
0.436646,-0.432472,2.574,2.64635
0.445001,-0.432472,2.574,2.64774
0.453355,-0.432472,2.574,2.64916
0.46171,-0.432472,2.574,2.6506
0.470064,-0.432472,2.574,2.65207
0.478419,-0.432472,2.574,2.65356
0.486774,-0.432472,2.574,2.65508
0.495128,-0.432472,2.574,2.65663
0.503483,-0.432472,2.574,2.6582
0.511837,-0.432472,2.574,2.65979
0.520192,-0.432472,2.574,2.66141
0.528546,-0.432472,2.574,2.66306
0.536901,-0.432472,2.574,2.66473
0.545256,-0.432472,2.574,2.66642
0.557697,-0.435665,2.593,2.68784
0.566113,-0.435665,2.593,2.6896
0.574529,-0.435665,2.593,2.69138
0.582945,-0.435665,2.593,2.69319
0.591362,-0.435665,2.593,2.69503
0.595383,-0.432472,2.574,2.67712
0.603738,-0.432472,2.574,2.67899
0.612092,-0.432472,2.574,2.68089
0.620447,-0.432472,2.574,2.68281
0.628801,-0.432472,2.574,2.68475
0.637156,-0.432472,2.574,2.68672
0.640746,-0.42928,2.555,2.66887
0.649038,-0.42928,2.555,2.67087
0.657331,-0.42928,2.555,2.6729
0.665624,-0.42928,2.555,2.67495
0.673917,-0.42928,2.555,2.67703
0.68221,-0.42928,2.555,2.67913
0.690503,-0.42928,2.555,2.68125
0.698796,-0.42928,2.555,2.6834
0.70183,-0.426088,2.536,2.6656
0.710062,-0.426088,2.536,2.66778
0.718293,-0.426088,2.536,2.66998
0.721081,-0.422895,2.517,2.65219
0.729251,-0.422895,2.517,2.65442
0.73742,-0.422895,2.517,2.65667
0.74559,-0.422895,2.517,2.65895
0.753759,-0.422895,2.517,2.66126
0.761929,-0.422895,2.517,2.66358
0.764591,-0.419871,2.499,2.64686
0.772702,-0.419871,2.499,2.64922
0.780813,-0.419871,2.499,2.6516
0.788924,-0.419871,2.499,2.654
0.791295,-0.416847,2.481,2.63728
0.799347,-0.416847,2.481,2.63971
0.8074,-0.416847,2.481,2.64216
0.815453,-0.416847,2.481,2.64463
