0.462378,0.279427,2.445,2.50398
0.467044,0.277484,2.428,2.48803
0.474925,0.277484,2.428,2.48953
0.482805,0.277484,2.428,2.49104
0.48725,0.275541,2.411,2.47513
0.491585,0.273599,2.394,2.45922
0.499355,0.273599,2.394,2.46078
0.503525,0.271656,2.377,2.44489
0.507799,0.269827,2.361,2.43002
0.515462,0.269827,2.361,2.43163
0.523125,0.269827,2.361,2.43327
0.527191,0.267999,2.345,2.41842
0.534802,0.267999,2.345,2.4201
0.542414,0.267999,2.345,2.42179
0.550025,0.267999,2.345,2.42351
0.557636,0.267999,2.345,2.42524
nan,nan,nan,NaN
0.565042,0.264342,2.313,2.39565
0.564875,0.260799,2.282,2.3653
0.572282,0.260799,2.282,2.36708
0.572068,0.25737,2.252,2.33774
0.579378,0.25737,2.252,2.33953
0.586687,0.25737,2.252,2.34136
0.586347,0.254056,2.223,2.31302
0.589825,0.252456,2.209,2.30028
0.596994,0.252456,2.209,2.30213
0.600062,0.250742,2.194,2.28836
0.603309,0.249142,2.18,2.27562
0.610384,0.249142,2.18,2.27751
0.61746,0.249142,2.18,2.27941
0.624536,0.249142,2.18,2.28134
0.631612,0.249142,2.18,2.28329
0.642789,0.250742,2.194,2.29993
0.64991,0.250742,2.194,2.30193
0.661523,0.252456,2.209,2.3197
0.668693,0.252456,2.209,2.32176
0.675863,0.252456,2.209,2.32383
0.687362,0.254056,2.223,2.34067
nan,nan,nan,NaN
nan,nan,nan,NaN
0.709008,0.254056,2.223,2.34712
0.716223,0.254056,2.223,2.34931
0.723438,0.254056,2.223,2.35152
0.71652,0.249142,2.18,2.30822
0.723596,0.249142,2.18,2.31042
0.730672,0.249142,2.18,2.31265
0.737748,0.249142,2.18,2.3149
nan,nan,nan,NaN
nan,nan,nan,NaN
nan,nan,nan,NaN
nan,nan,nan,NaN
0.831643,0.267999,2.345,2.50249
0.839254,0.267999,2.345,2.50503
0.846865,0.267999,2.345,2.50759
0.854477,0.267999,2.345,2.51017
0.86797,0.269827,2.361,2.52992
0.875633,0.269827,2.361,2.53256
0.883296,0.269827,2.361,2.53522
0.896997,0.271656,2.377,2.5551
0.904712,0.271656,2.377,2.55782
0.912428,0.271656,2.377,2.56056
0.920143,0.271656,2.377,2.56332
0.927858,0.271656,2.377,2.5661
0.935573,0.271656,2.377,2.5689
0.943288,0.271656,2.377,2.57172
0.957805,0.273599,2.394,2.59297
0.965575,0.273599,2.394,2.59585
0.980257,0.275541,2.411,2.6172
0.988083,0.275541,2.411,2.62014
0.995908,0.275541,2.411,2.6231
1.01081,0.277484,2.428,2.6446
1.01869,0.277484,2.428,2.64762
1.01938,0.275541,2.411,2.63211
1.02721,0.275541,2.411,2.63515
1.03504,0.275541,2.411,2.63821
1.05021,0.277484,2.428,2.65991
1.05069,0.275541,2.411,2.64439
1.05851,0.275541,2.411,2.64751
1.07386,0.277484,2.428,2.66934
1.08174,0.277484,2.428,2.67252
1.08962,0.277484,2.428,2.67571
1.0975,0.277484,2.428,2.67893
1.10538,0.277484,2.428,2.68217
1.11326,0.277484,2.428,2.68543
1.12114,0.277484,2.428,2.68871
1.12902,0.277484,2.428,2.692
1.14486,0.279427,2.445,2.71419
1.1528,0.279427,2.445,2.71754
1.16073,0.279427,2.445,2.72092
1.16867,0.279427,2.445,2.72432
1.18527,0.281484,2.463,2.74781
1.19326,0.281484,2.463,2.75127
1.20126,0.281484,2.463,2.75475
1.20925,0.281484,2.463,2.75824
1.22614,0.283541,2.481,2.78194
1.23419,0.283541,2.481,2.7855
1.24225,0.283541,2.481,2.78907
1.25937,0.285599,2.499,2.81293
1.26748,0.285599,2.499,2.81657
1.27559,0.285599,2.499,2.82023
1.2837,0.285599,2.499,2.82391
1.30112,0.287656,2.517,2.84797
1.30929,0.287656,2.517,2.85171
1.31746,0.287656,2.517,2.85547
1.32563,0.287656,2.517,2.85925
1.3338,0.287656,2.517,2.86305
1.3521,0.289827,2.536,2.88851
1.37052,0.291999,2.555,2.91404
1.37881,0.291999,2.555,2.91795
1.39742,0.29417,2.574,2.9436
1.41615,0.296341,2.593,2.96934
1.42457,0.296341,2.593,2.97336
1.43298,0.296341,2.593,2.9774
1.45252,0.298627,2.613,3.00446
1.47218,0.300913,2.633,3.03159
1.48073,0.300913,2.633,3.03575
1.51303,0.305713,2.675,3.08842
1.53366,0.308113,2.696,3.11696
1.54241,0.308113,2.696,3.12128
1.55116,0.308113,2.696,3.12561
1.57206,0.310513,2.717,3.15434
1.56866,0.308113,2.696,3.13433
1.57741,0.308113,2.696,3.13872
1.58616,0.308113,2.696,3.14313
1.59491,0.308113,2.696,3.14755
1.60366,0.308113,2.696,3.152
1.62497,0.310513,2.717,3.18105
1.63379,0.310513,2.717,3.18556
1.64261,0.310513,2.717,3.19009
1.63867,0.308113,2.696,3.16995
1.64742,0.308113,2.696,3.17448
1.65617,0.308113,2.696,3.17903
1.65195,0.305713,2.675,3.1588
1.66063,0.305713,2.675,3.16335
1.65621,0.303313,2.654,3.14305
1.65165,0.300913,2.633,3.12269
1.64759,0.298627,2.613,3.10346
1.65607,0.298627,2.613,3.10797
1.65181,0.296341,2.593,3.08868
1.64806,0.29417,2.574,3.07052
1.65641,0.29417,2.574,3.07501
1.64019,0.289827,2.536,3.03406
1.62437,0.285599,2.499,2.99419
1.63248,0.285599,2.499,2.99859
1.62878,0.283541,2.481,2.98139
1.62495,0.281484,2.463,2.96413
1.63295,0.281484,2.463,2.96852
1.61762,0.277484,2.428,2.93068
1.6255,0.277484,2.428,2.93504
1.63339,0.277484,2.428,2.93941
1.61828,0.273599,2.394,2.90257
1.60364,0.269827,2.361,2.86684
-1.74613,0.295823,2.517,3.07762
-1.73796,0.295823,2.517,3.07299
-1.72979,0.295823,2.517,3.06838
-1.72162,0.295823,2.517,3.06378
-1.71345,0.295823,2.517,3.0592
-1.70528,0.295823,2.517,3.05463
-1.70992,0.298056,2.536,3.0731
-1.70169,0.298056,2.536,3.06853
-1.69346,0.298056,2.536,3.06397
-1.69785,0.300289,2.555,3.08235
-1.68956,0.300289,2.555,3.07779
-1.69377,0.302522,2.574,3.0961
-1.71095,0.307106,2.613,3.13838
-1.70247,0.307106,2.613,3.13376
-1.70695,0.309456,2.633,3.15312
-1.7255,0.314393,2.675,3.19872
-1.73029,0.316861,2.696,3.21912
-1.72154,0.316861,2.696,3.21443
-1.72614,0.319329,2.717,3.23475
-1.73122,0.321915,2.739,3.25621
-1.72233,0.321915,2.739,3.25149
-1.7272,0.3245,2.761,3.27287
-1.71824,0.3245,2.761,3.26815
-1.70928,0.3245,2.761,3.26344
-1.68677,0.321915,2.739,3.23279
-1.6644,0.319329,2.717,3.20223
-1.65559,0.319329,2.717,3.19766
-1.63404,0.316861,2.696,3.16842
-1.59997,0.311925,2.654,3.11463
-1.59135,0.311925,2.654,3.11021
-1.55829,0.307106,2.613,3.05783
-1.52668,0.302522,2.574,3.00795
-1.51832,0.302522,2.574,3.00371
-1.48768,0.298056,2.536,2.95522
-1.44736,0.291592,2.481,2.88708
-1.43931,0.291592,2.481,2.88305
-1.41049,0.287361,2.445,2.83726
-1.3928,0.285363,2.428,2.81363
-1.38492,0.285363,2.428,2.80974
-1.35775,0.281367,2.394,2.76657
-1.3404,0.279369,2.377,2.74314
-1.33268,0.279369,2.377,2.73938
-1.32497,0.279369,2.377,2.73564
-1.31725,0.279369,2.377,2.73191
-1.30954,0.279369,2.377,2.7282
-1.31113,0.281367,2.394,2.74399
-1.30336,0.281367,2.394,2.74028
-1.30479,0.283365,2.411,2.75603
-1.30611,0.285363,2.428,2.77174
-1.29823,0.285363,2.428,2.76803
-1.30895,0.289476,2.463,2.8042
-1.31997,0.293707,2.499,2.84141
-1.34126,0.300289,2.555,2.90124
-1.33296,0.300289,2.555,2.89741
-1.33452,0.302522,2.574,2.91512
-1.34626,0.307106,2.613,2.95542
-1.33778,0.307106,2.613,2.95157
-1.35016,0.311925,2.654,2.99398
-1.36277,0.316861,2.696,3.03743
-1.35402,0.316861,2.696,3.03351
-1.34527,0.316861,2.696,3.02962
-1.33652,0.316861,2.696,3.02574
-1.32777,0.316861,2.696,3.02189
-1.30874,0.314393,2.675,2.99454
-1.28986,0.311925,2.654,2.96728
-1.28124,0.311925,2.654,2.96354
-1.26256,0.309456,2.633,2.93641
-1.23496,0.304755,2.593,2.88819
-1.22654,0.304755,2.593,2.8846
-1.2092,0.302522,2.574,2.85992
-1.18312,0.298056,2.536,2.81423
-1.15775,0.293707,2.499,2.76977
-1.14964,0.293707,2.499,2.76639
-1.1333,0.291592,2.481,2.74313
-1.11709,0.289476,2.463,2.71994
-1.10909,0.289476,2.463,2.71666
-1.09305,0.287361,2.445,2.69358
-1.07757,0.285363,2.428,2.67166
-1.06969,0.285363,2.428,2.66849
-1.05437,0.283365,2.411,2.64668
-1.04655,0.283365,2.411,2.64357
-1.03872,0.283365,2.411,2.64049
-1.0309,0.283365,2.411,2.63742
-1.02307,0.283365,2.411,2.63437
-1.01525,0.283365,2.411,2.63134
-1.00742,0.283365,2.411,2.62833
-0.999596,0.283365,2.411,2.62534
-0.99177,0.283365,2.411,2.62237
-0.983945,0.283365,2.411,2.61942
-0.976119,0.283365,2.411,2.61649
-0.968294,0.283365,2.411,2.61358
-0.960468,0.283365,2.411,2.61069
-0.952643,0.283365,2.411,2.60782
-0.944817,0.283365,2.411,2.60498
-0.930385,0.281367,2.394,2.5838
-0.922615,0.281367,2.394,2.58101
-0.914845,0.281367,2.394,2.57824
-0.907074,0.281367,2.394,2.5755
-0.899304,0.281367,2.394,2.57277
-0.885203,0.279369,2.377,2.55182
-0.877488,0.279369,2.377,2.54915
-0.869772,0.279369,2.377,2.5465
-0.862057,0.279369,2.377,2.54388
-0.854342,0.279369,2.377,2.54127
-0.846627,0.279369,2.377,2.53869
-0.838912,0.279369,2.377,2.53613
-0.831197,0.279369,2.377,2.53359
-0.823481,0.279369,2.377,2.53107
-0.815766,0.279369,2.377,2.52857
-0.808051,0.279369,2.377,2.52609
-0.800336,0.279369,2.377,2.52363
-0.79829,0.281367,2.394,2.53923
-0.790519,0.281367,2.394,2.53679
-0.782749,0.281367,2.394,2.53438
-0.780482,0.283365,2.411,2.54997
-0.772656,0.283365,2.411,2.54759
-0.764831,0.283365,2.411,2.54523
-0.757005,0.283365,2.411,2.54289
-0.754462,0.285363,2.428,2.55848
-0.746581,0.285363,2.428,2.55617
-0.743873,0.287361,2.445,2.57176
-0.735937,0.287361,2.445,2.56948
-0.728001,0.287361,2.445,2.56721
-0.725366,0.289476,2.463,2.58386
-0.717372,0.289476,2.463,2.58163
-0.709378,0.289476,2.463,2.57942
-0.706509,0.291592,2.481,2.59606
-0.698457,0.291592,2.481,2.59388
-0.690404,0.291592,2.481,2.59173
-0.682351,0.291592,2.481,2.58959
-0.679191,0.293707,2.499,2.60626
-0.67108,0.293707,2.499,2.60415
-0.662968,0.293707,2.499,2.60207
-0.654857,0.293707,2.499,2.60002
-0.646746,0.293707,2.499,2.59799
-0.638635,0.293707,2.499,2.59598
-0.630524,0.293707,2.499,2.594
-0.622413,0.293707,2.499,2.59204
-0.614302,0.293707,2.499,2.5901
-0.606191,0.293707,2.499,2.58819
-0.598079,0.293707,2.499,2.5863
-0.589968,0.293707,2.499,2.58444
-0.581857,0.293707,2.499,2.5826
-0.573746,0.293707,2.499,2.58078
-0.565635,0.293707,2.499,2.57899
-0.557524,0.293707,2.499,2.57723
-0.549413,0.293707,2.499,2.57548
-0.541301,0.293707,2.499,2.57377
-0.53319,0.293707,2.499,2.57207
-0.525079,0.293707,2.499,2.5704
-0.520692,0.295823,2.517,2.58726
-0.512522,0.295823,2.517,2.58563
-0.504353,0.295823,2.517,2.58402
-0.496183,0.295823,2.517,2.58244
-0.488013,0.295823,2.517,2.58088
-0.479844,0.295823,2.517,2.57935
-0.471674,0.295823,2.517,2.57784
-0.463505,0.295823,2.517,2.57636
-0.455335,0.295823,2.517,2.5749
-0.447166,0.295823,2.517,2.57347
-0.438996,0.295823,2.517,2.57207
-0.430827,0.295823,2.517,2.57068
-0.422657,0.295823,2.517,2.56933
-0.414487,0.295823,2.517,2.568
-0.406318,0.295823,2.517,2.56669
-0.398148,0.295823,2.517,2.56541
-0.389979,0.295823,2.517,2.56415
-0.381809,0.295823,2.517,2.56292
-0.37364,0.295823,2.517,2.56172
-0.36547,0.295823,2.517,2.56054
-0.357301,0.295823,2.517,2.55939
-0.349131,0.295823,2.517,2.55826
-0.340961,0.295823,2.517,2.55716
-0.332792,0.295823,2.517,2.55608
-0.324622,0.295823,2.517,2.55503
-0.316453,0.295823,2.517,2.55401
-0.308283,0.295823,2.517,2.55301
-0.300114,0.295823,2.517,2.55203
-0.291944,0.295823,2.517,2.55108
-0.283775,0.295823,2.517,2.55016
-0.275605,0.295823,2.517,2.54927
-0.267435,0.295823,2.517,2.5484
-0.261223,0.298056,2.536,2.56678
-0.251096,0.295823,2.517,2.54673
-0.242927,0.295823,2.517,2.54594
-0.234757,0.295823,2.517,2.54517
-0.226588,0.295823,2.517,2.54443
-0.218418,0.295823,2.517,2.54372
-0.210249,0.295823,2.517,2.54303
-0.202079,0.295823,2.517,2.54237
-0.193909,0.295823,2.517,2.54173
-0.18574,0.295823,2.517,2.54112
-0.17757,0.295823,2.517,2.54054
-0.169401,0.295823,2.517,2.53998
-0.161231,0.295823,2.517,2.53945
-0.153062,0.295823,2.517,2.53894
-0.144892,0.295823,2.517,2.53846
-0.136723,0.295823,2.517,2.53801
-0.128553,0.295823,2.517,2.53758
-0.120383,0.295823,2.517,2.53718
-0.112214,0.295823,2.517,2.53681
-0.104044,0.295823,2.517,2.53646
-0.0965985,0.298056,2.536,2.55528
-0.0883672,0.298056,2.536,2.55498
-0.080136,0.298056,2.536,2.55471
-0.0719048,0.298056,2.536,2.55447
-0.0636736,0.298056,2.536,2.55425
-0.0554423,0.298056,2.536,2.55406
-0.0472111,0.298056,2.536,2.55389
-0.0389799,0.298056,2.536,2.55375
-0.030979,0.300289,2.555,2.57277
-0.0226861,0.300289,2.555,2.57269
-0.0142862,0.298056,2.536,2.5535
-0.00605498,0.298056,2.536,2.55346
0.00217625,0.298056,2.536,2.55346
0.0104075,0.298056,2.536,2.55348
0.0186387,0.298056,2.536,2.55352
0.0268699,0.298056,2.536,2.5536
0.0348382,0.295823,2.517,2.53456
0.0430077,0.295823,2.517,2.53469
0.0511773,0.295823,2.517,2.53484
0.0593468,0.295823,2.517,2.53502
0.0675164,0.295823,2.517,2.53522
0.075686,0.295823,2.517,2.53545
0.0838555,0.295823,2.517,2.53571
0.091367,0.293707,2.499,2.51786
0.0994781,0.293707,2.499,2.51817
0.107589,0.293707,2.499,2.5185
0.1157,0.293707,2.499,2.51886
0.123811,0.293707,2.499,2.51924
0.131923,0.293707,2.499,2.51966
0.140034,0.293707,2.499,2.52009
0.148145,0.293707,2.499,2.52056
0.156256,0.293707,2.499,2.52105
0.164367,0.293707,2.499,2.52156
nan,nan,nan,NaN
nan,nan,nan,NaN
nan,nan,nan,NaN
nan,nan,nan,NaN
nan,nan,nan,NaN
nan,nan,nan,NaN
nan,nan,nan,NaN
nan,nan,nan,NaN
nan,nan,nan,NaN
nan,nan,nan,NaN
nan,nan,nan,NaN
nan,nan,nan,NaN
nan,nan,nan,NaN
nan,nan,nan,NaN
nan,nan,nan,NaN
nan,nan,nan,NaN
nan,nan,nan,NaN
nan,nan,nan,NaN
nan,nan,nan,NaN
nan,nan,nan,NaN
nan,nan,nan,NaN
nan,nan,nan,NaN
nan,nan,nan,NaN
nan,nan,nan,NaN
nan,nan,nan,NaN
nan,nan,nan,NaN
nan,nan,nan,NaN
nan,nan,nan,NaN
nan,nan,nan,NaN
nan,nan,nan,NaN
nan,nan,nan,NaN
nan,nan,nan,NaN
0.425811,0.289476,2.463,2.51624
0.433805,0.289476,2.463,2.51761
0.441799,0.289476,2.463,2.519
0.449794,0.289476,2.463,2.52041
0.454442,0.287361,2.445,2.50342
0.462378,0.287361,2.445,2.50487
0.467044,0.285363,2.428,2.48892
0.474925,0.285363,2.428,2.49042
0.482805,0.285363,2.428,2.49193
0.48725,0.283365,2.411,2.47601
0.491585,0.281367,2.394,2.46009
0.499355,0.281367,2.394,2.46166
0.503525,0.279369,2.377,2.44575
0.507799,0.277488,2.361,2.43088
0.515462,0.277488,2.361,2.43249
0.523125,0.277488,2.361,2.43413
0.527191,0.275608,2.345,2.41928
0.534802,0.275608,2.345,2.42095
0.542414,0.275608,2.345,2.42264
0.550025,0.275608,2.345,2.42436
0.553832,0.273727,2.329,2.40954
0.561391,0.273727,2.329,2.41129
0.565042,0.271847,2.313,2.39649
0.564875,0.268203,2.282,2.36612
0.572282,0.268203,2.282,2.3679
0.572068,0.264677,2.252,2.33855
0.579378,0.264677,2.252,2.34035
0.586687,0.264677,2.252,2.34217
0.586347,0.261269,2.223,2.31383
0.589825,0.259624,2.209,2.30108
0.596994,0.259624,2.209,2.30293
0.600062,0.257861,2.194,2.28915
0.603309,0.256215,2.18,2.27641
0.610384,0.256215,2.18,2.27829
0.61746,0.256215,2.18,2.2802
0.624536,0.256215,2.18,2.28212
0.631612,0.256215,2.18,2.28407
0.642789,0.257861,2.194,2.30072
0.64991,0.257861,2.194,2.30272
0.661523,0.259624,2.209,2.3205
0.668693,0.259624,2.209,2.32255
0.675863,0.259624,2.209,2.32462
0.687362,0.261269,2.223,2.34146
nan,nan,nan,NaN
nan,nan,nan,NaN
0.709008,0.261269,2.223,2.34791
0.716223,0.261269,2.223,2.3501
0.723438,0.261269,2.223,2.35231
0.730654,0.261269,2.223,2.35454
0.737869,0.261269,2.223,2.35679
nan,nan,nan,NaN
nan,nan,nan,NaN
nan,nan,nan,NaN
nan,nan,nan,NaN
nan,nan,nan,NaN
0.818409,0.273727,2.329,2.48374
0.825968,0.273727,2.329,2.48624
0.839254,0.275608,2.345,2.50586
0.846865,0.275608,2.345,2.50842
0.854477,0.275608,2.345,2.511
0.86797,0.277488,2.361,2.53075
0.875633,0.277488,2.361,2.53339
0.883296,0.277488,2.361,2.53605
0.89096,0.277488,2.361,2.53873
0.898623,0.277488,2.361,2.54143
0.906286,0.277488,2.361,2.54415
0.920143,0.279369,2.377,2.56414
0.927858,0.279369,2.377,2.56692
0.935573,0.279369,2.377,2.56972
0.943288,0.279369,2.377,2.57254
0.957805,0.281367,2.394,2.5938
0.965575,0.281367,2.394,2.59668
0.973346,0.281367,2.394,2.59958
0.981116,0.281367,2.394,2.6025
0.988886,0.281367,2.394,2.60544
1.00373,0.283365,2.411,2.62692
1.01156,0.283365,2.411,2.62992
1.01938,0.283365,2.411,2.63294
1.02721,0.283365,2.411,2.63598
1.03504,0.283365,2.411,2.63904
1.04286,0.283365,2.411,2.64212
1.05069,0.283365,2.411,2.64521
1.05851,0.283365,2.411,2.64833
1.06634,0.283365,2.411,2.65147
1.07416,0.283365,2.411,2.65463
1.08962,0.285363,2.428,2.67654
1.0975,0.285363,2.428,2.67976
1.10538,0.285363,2.428,2.683
1.11326,0.285363,2.428,2.68625
1.12114,0.285363,2.428,2.68953
1.12902,0.285363,2.428,2.69283
1.14486,0.287361,2.445,2.71502
1.1528,0.287361,2.445,2.71837
1.16073,0.287361,2.445,2.72175
1.16867,0.287361,2.445,2.72514
1.18527,0.289476,2.463,2.74864
1.19326,0.289476,2.463,2.7521
1.20126,0.289476,2.463,2.75557
1.20925,0.289476,2.463,2.75907
1.22614,0.291592,2.481,2.78277
1.23419,0.291592,2.481,2.78633
1.25126,0.293707,2.499,2.81014
1.25937,0.293707,2.499,2.81377
1.26748,0.293707,2.499,2.81741
1.27559,0.293707,2.499,2.82106
1.2837,0.293707,2.499,2.82474
1.30112,0.295823,2.517,2.84881
1.30929,0.295823,2.517,2.85255
1.31746,0.295823,2.517,2.85631
1.32563,0.295823,2.517,2.86009
1.3338,0.295823,2.517,2.86388
1.3521,0.298056,2.536,2.88934
1.37052,0.300289,2.555,2.91488
1.37881,0.300289,2.555,2.91879
1.38711,0.300289,2.555,2.92271
1.40578,0.302522,2.574,2.94842
1.41413,0.302522,2.574,2.95242
1.42248,0.302522,2.574,2.95643
1.4414,0.304755,2.593,2.98231
1.47218,0.309456,2.633,3.03245
1.48073,0.309456,2.633,3.03661
1.51303,0.314393,2.675,3.08929
1.53366,0.316861,2.696,3.11784
1.54241,0.316861,2.696,3.12215
1.55116,0.316861,2.696,3.12649
1.57206,0.319329,2.717,3.15522
1.56866,0.316861,2.696,3.13521
1.57741,0.316861,2.696,3.13959
1.58616,0.316861,2.696,3.144
1.59491,0.316861,2.696,3.14842
1.60366,0.316861,2.696,3.15286
1.62497,0.319329,2.717,3.18192
1.63379,0.319329,2.717,3.18643
1.64261,0.319329,2.717,3.19096
1.63867,0.316861,2.696,3.17081
1.64742,0.316861,2.696,3.17534
1.65617,0.316861,2.696,3.17989
1.66492,0.316861,2.696,3.18446
1.67367,0.316861,2.696,3.18904
1.66931,0.314393,2.675,3.16877
1.66482,0.311925,2.654,3.14844
1.64759,0.307106,2.613,3.10429
1.65607,0.307106,2.613,3.1088
1.66455,0.307106,2.613,3.11333
1.64806,0.302522,2.574,3.07133
1.65641,0.302522,2.574,3.07582
1.64019,0.298056,2.536,3.03486
1.63607,0.295823,2.517,3.01654
1.64424,0.295823,2.517,3.02098
1.62878,0.291592,2.481,2.98216
1.62495,0.289476,2.463,2.9649
1.63295,0.289476,2.463,2.96929
1.61762,0.285363,2.428,2.93144
1.6255,0.285363,2.428,2.93579
1.63339,0.285363,2.428,2.94016
1.61828,0.281367,2.394,2.90332
1.61451,0.279369,2.377,2.88701
-1.75931,0.306285,2.536,3.10166
-1.75107,0.306285,2.536,3.09699
-1.74284,0.306285,2.536,3.09235
-1.73461,0.306285,2.536,3.08772
-1.72638,0.306285,2.536,3.0831
-1.71815,0.306285,2.536,3.0785
-1.70992,0.306285,2.536,3.07391
-1.70169,0.306285,2.536,3.06934
-1.70614,0.30858,2.555,3.08775
-1.69785,0.30858,2.555,3.08317
-1.68956,0.30858,2.555,3.07861
-1.70627,0.313169,2.593,3.11979
-1.71095,0.315585,2.613,3.13922
-1.70247,0.315585,2.613,3.13461
-1.72057,0.320536,2.654,3.17912
-1.7255,0.323073,2.675,3.19959
-1.73029,0.325609,2.696,3.21999
-1.72154,0.325609,2.696,3.2153
-1.72614,0.328145,2.717,3.23563
-1.73122,0.330802,2.739,3.2571
-1.72233,0.330802,2.739,3.25238
-1.7272,0.333459,2.761,3.27377
-1.71824,0.333459,2.761,3.26905
-1.70928,0.333459,2.761,3.26435
-1.68677,0.330802,2.739,3.23369
-1.6644,0.328145,2.717,3.20313
-1.65559,0.328145,2.717,3.19855
-1.63404,0.325609,2.696,3.16931
-1.59997,0.320536,2.654,3.1155
-1.59135,0.320536,2.654,3.11109
-1.55829,0.315585,2.613,3.0587
-1.51541,0.30858,2.555,2.98659
-1.50711,0.30858,2.555,2.98239
-1.47653,0.30399,2.517,2.93391
-1.44736,0.299642,2.481,2.88791
-1.43931,0.299642,2.481,2.88388
-1.41049,0.295294,2.445,2.83808
-1.38305,0.291188,2.411,2.79473
-1.37522,0.291188,2.411,2.79087
-1.35775,0.289135,2.394,2.76737
-1.3404,0.287082,2.377,2.74394
-1.33268,0.287082,2.377,2.74018
-1.32497,0.287082,2.377,2.73644
-1.31725,0.287082,2.377,2.73271
-1.30954,0.287082,2.377,2.729
-1.30182,0.287082,2.377,2.7253
-1.29411,0.287082,2.377,2.72163
-1.29559,0.289135,2.394,2.73741
-1.30611,0.293241,2.428,2.77256
-1.29823,0.293241,2.428,2.76886
-1.30895,0.297468,2.463,2.80503
-1.31997,0.301816,2.499,2.84226
-1.33128,0.306285,2.536,2.88052
-1.32305,0.306285,2.536,2.87673
-1.32467,0.30858,2.555,2.89448
-1.34626,0.315585,2.613,2.95631
-1.33778,0.315585,2.613,2.95246
-1.35016,0.320536,2.654,2.99489
-1.35216,0.323073,2.675,3.01469
-1.35402,0.325609,2.696,3.03444
-1.34527,0.325609,2.696,3.03054
-1.33652,0.325609,2.696,3.02667
-1.32777,0.325609,2.696,3.02281
-1.30874,0.323073,2.675,2.99547
-1.28986,0.320536,2.654,2.9682
-1.28124,0.320536,2.654,2.96446
-1.26256,0.318,2.633,2.93732
-1.23496,0.313169,2.593,2.88909
-1.22654,0.313169,2.593,2.8855
-1.2092,0.310874,2.574,2.86082
-1.18312,0.306285,2.536,2.81512
-1.15775,0.301816,2.499,2.77064
-1.14964,0.301816,2.499,2.76727
-1.1333,0.299642,2.481,2.744
-1.11709,0.297468,2.463,2.7208
-1.10909,0.297468,2.463,2.71753
-1.09305,0.295294,2.445,2.69444
-1.07757,0.293241,2.428,2.67251
-1.06969,0.293241,2.428,2.66935
-1.05437,0.291188,2.411,2.64753
-1.04655,0.291188,2.411,2.64442
-1.03872,0.291188,2.411,2.64134
-1.0309,0.291188,2.411,2.63827
-1.02307,0.291188,2.411,2.63522
-1.01525,0.291188,2.411,2.63219
-1.00742,0.291188,2.411,2.62918
-0.999596,0.291188,2.411,2.6262
-0.998763,0.293241,2.428,2.64172
-0.990883,0.293241,2.428,2.63875
-0.976119,0.291188,2.411,2.61735
-0.968294,0.291188,2.411,2.61444
-0.960468,0.291188,2.411,2.61155
-0.952643,0.291188,2.411,2.60869
-0.944817,0.291188,2.411,2.60584
-0.930385,0.289135,2.394,2.58466
-0.922615,0.289135,2.394,2.58187
-0.914845,0.289135,2.394,2.5791
-0.907074,0.289135,2.394,2.57636
-0.899304,0.289135,2.394,2.57363
-0.885203,0.287082,2.377,2.55267
-0.877488,0.287082,2.377,2.55001
-0.869772,0.287082,2.377,2.54736
-0.862057,0.287082,2.377,2.54474
-0.854342,0.287082,2.377,2.54213
-0.846627,0.287082,2.377,2.53955
-0.838912,0.287082,2.377,2.53699
-0.831197,0.287082,2.377,2.53445
-0.823481,0.287082,2.377,2.53193
-0.815766,0.287082,2.377,2.52943
-0.808051,0.287082,2.377,2.52695
-0.800336,0.287082,2.377,2.5245
-0.79829,0.289135,2.394,2.5401
-0.790519,0.289135,2.394,2.53767
-0.782749,0.289135,2.394,2.53526
-0.780482,0.291188,2.411,2.55086
-0.772656,0.291188,2.411,2.54847
-0.764831,0.291188,2.411,2.54611
-0.757005,0.291188,2.411,2.54377
-0.754462,0.293241,2.428,2.55937
-0.746581,0.293241,2.428,2.55706
-0.743873,0.295294,2.445,2.57266
-0.735937,0.295294,2.445,2.57038
-0.728001,0.295294,2.445,2.56811
-0.725366,0.297468,2.463,2.58477
-0.717372,0.297468,2.463,2.58253
-0.709378,0.297468,2.463,2.58032
-0.706509,0.299642,2.481,2.59698
-0.698457,0.299642,2.481,2.5948
-0.695413,0.301816,2.499,2.61145
-0.687302,0.301816,2.499,2.60931
-0.679191,0.301816,2.499,2.60718
-0.67108,0.301816,2.499,2.60508
-0.662968,0.301816,2.499,2.603
-0.654857,0.301816,2.499,2.60095
-0.646746,0.301816,2.499,2.59892
-0.638635,0.301816,2.499,2.59691
-0.630524,0.301816,2.499,2.59493
-0.622413,0.301816,2.499,2.59297
-0.614302,0.301816,2.499,2.59103
-0.606191,0.301816,2.499,2.58912
-0.598079,0.301816,2.499,2.58724
-0.589968,0.301816,2.499,2.58537
-0.581857,0.301816,2.499,2.58353
-0.573746,0.301816,2.499,2.58172
-0.565635,0.301816,2.499,2.57993
-0.557524,0.301816,2.499,2.57816
-0.549413,0.301816,2.499,2.57642
-0.541301,0.301816,2.499,2.5747
-0.53319,0.301816,2.499,2.57301
-0.525079,0.301816,2.499,2.57134
-0.520692,0.30399,2.517,2.58821
-0.512522,0.30399,2.517,2.58658
-0.504353,0.30399,2.517,2.58497
-0.496183,0.30399,2.517,2.58339
-0.488013,0.30399,2.517,2.58183
-0.479844,0.30399,2.517,2.5803
-0.471674,0.30399,2.517,2.57879
-0.463505,0.30399,2.517,2.57731
-0.455335,0.30399,2.517,2.57586
-0.447166,0.30399,2.517,2.57442
-0.438996,0.30399,2.517,2.57302
-0.430827,0.30399,2.517,2.57164
-0.422657,0.30399,2.517,2.57028
-0.414487,0.30399,2.517,2.56895
-0.406318,0.30399,2.517,2.56764
-0.398148,0.30399,2.517,2.56636
-0.389979,0.30399,2.517,2.56511
-0.381809,0.30399,2.517,2.56388
-0.37364,0.30399,2.517,2.56268
-0.36547,0.30399,2.517,2.5615
-0.357301,0.30399,2.517,2.56034
-0.349131,0.30399,2.517,2.55922
-0.340961,0.30399,2.517,2.55812
-0.332792,0.30399,2.517,2.55704
-0.324622,0.30399,2.517,2.55599
-0.316453,0.30399,2.517,2.55496
-0.308283,0.30399,2.517,2.55397
-0.300114,0.30399,2.517,2.55299
-0.291944,0.30399,2.517,2.55204
-0.283775,0.30399,2.517,2.55112
-0.275605,0.30399,2.517,2.55023
-0.267435,0.30399,2.517,2.54936
-0.261223,0.306285,2.536,2.56775
-0.251096,0.30399,2.517,2.54769
-0.242927,0.30399,2.517,2.5469
-0.234757,0.30399,2.517,2.54614
-0.226588,0.30399,2.517,2.5454
-0.218418,0.30399,2.517,2.54468
-0.210249,0.30399,2.517,2.54399
-0.202079,0.30399,2.517,2.54333
-0.193909,0.30399,2.517,2.5427
-0.18574,0.30399,2.517,2.54209
-0.17757,0.30399,2.517,2.5415
-0.169401,0.30399,2.517,2.54094
-0.161231,0.30399,2.517,2.54041
-0.153062,0.30399,2.517,2.53991
-0.144892,0.30399,2.517,2.53943
-0.136723,0.30399,2.517,2.53897
-0.128553,0.30399,2.517,2.53855
-0.120383,0.30399,2.517,2.53815
-0.112214,0.30399,2.517,2.53777
-0.104044,0.30399,2.517,2.53742
-0.0965985,0.306285,2.536,2.55625
-0.0883672,0.306285,2.536,2.55596
-0.080136,0.306285,2.536,2.55569
-0.0719048,0.306285,2.536,2.55544
-0.0636736,0.306285,2.536,2.55522
-0.0554423,0.306285,2.536,2.55503
-0.0472111,0.306285,2.536,2.55486
-0.0389799,0.306285,2.536,2.55473
-0.0307487,0.306285,2.536,2.55461
-0.0225174,0.306285,2.536,2.55453
-0.0142862,0.306285,2.536,2.55447
-0.00605498,0.306285,2.536,2.55444
0.00217625,0.306285,2.536,2.55443
0.0103295,0.30399,2.517,2.53531
0.0184991,0.30399,2.517,2.53536
0.0266686,0.30399,2.517,2.53543
0.0348382,0.30399,2.517,2.53553
0.0430077,0.30399,2.517,2.53566
0.0511773,0.30399,2.517,2.53581
0.0593468,0.30399,2.517,2.53599
0.0675164,0.30399,2.517,2.53619
0.075686,0.30399,2.517,2.53642
0.0832558,0.301816,2.499,2.51854
0.091367,0.301816,2.499,2.51882
0.0994781,0.301816,2.499,2.51912
0.107589,0.301816,2.499,2.51946
0.1157,0.301816,2.499,2.51982
0.123811,0.301816,2.499,2.5202
0.131923,0.301816,2.499,2.52061
0.140034,0.301816,2.499,2.52105
0.148145,0.301816,2.499,2.52152
0.156256,0.301816,2.499,2.52201
0.164367,0.301816,2.499,2.52252
0.172478,0.301816,2.499,2.52306
0.180589,0.301816,2.499,2.52363
0.188701,0.301816,2.499,2.52422
0.196812,0.301816,2.499,2.52484
nan,nan,nan,NaN
nan,nan,nan,NaN
nan,nan,nan,NaN
nan,nan,nan,NaN
nan,nan,nan,NaN
nan,nan,nan,NaN
nan,nan,nan,NaN
nan,nan,nan,NaN
nan,nan,nan,NaN
nan,nan,nan,NaN
nan,nan,nan,NaN
nan,nan,nan,NaN
nan,nan,nan,NaN
nan,nan,nan,NaN
nan,nan,nan,NaN
nan,nan,nan,NaN
nan,nan,nan,NaN
nan,nan,nan,NaN
nan,nan,nan,NaN
nan,nan,nan,NaN
nan,nan,nan,NaN
nan,nan,nan,NaN
nan,nan,nan,NaN
nan,nan,nan,NaN
nan,nan,nan,NaN
nan,nan,nan,NaN
nan,nan,nan,NaN
nan,nan,nan,NaN
nan,nan,nan,NaN
0.436975,0.299642,2.481,2.53695
0.445028,0.299642,2.481,2.53835
0.453081,0.299642,2.481,2.53977
0.457788,0.297468,2.463,2.52278
0.465782,0.297468,2.463,2.52424
0.470314,0.295294,2.445,2.50727
0.474925,0.293241,2.428,2.49133
0.482805,0.293241,2.428,2.49285
0.490686,0.293241,2.428,2.49438
0.491585,0.289135,2.394,2.46099
0.499355,0.289135,2.394,2.46256
0.507126,0.289135,2.394,2.46415
0.51124,0.287082,2.377,2.44825
0.518955,0.287082,2.377,2.44987
0.52667,0.287082,2.377,2.45152
0.530788,0.285149,2.361,2.43667
0.538451,0.285149,2.361,2.43835
0.546115,0.285149,2.361,2.44006
0.550025,0.283217,2.345,2.42524
0.553832,0.281285,2.329,2.41041
0.561391,0.281285,2.329,2.41216
0.56895,0.281285,2.329,2.41393
0.568836,0.277541,2.298,2.38357
0.576295,0.277541,2.298,2.38536
0.579689,0.275608,2.282,2.37055
0.579378,0.271985,2.252,2.34119
0.586687,0.271985,2.252,2.34301
0.593997,0.271985,2.252,2.34485
0.593563,0.268482,2.223,2.31649
0.600778,0.268482,2.223,2.31835
0.604164,0.266792,2.209,2.30562
0.611334,0.266792,2.209,2.30751
0.618504,0.266792,2.209,2.30942
0.625674,0.266792,2.209,2.31135
0.632844,0.266792,2.209,2.3133
0.64407,0.268482,2.223,2.32994
0.655387,0.270173,2.237,2.34663
0.662648,0.270173,2.237,2.34867
0.6744,0.271985,2.252,2.36649
0.68171,0.271985,2.252,2.36859
0.689019,0.271985,2.252,2.3707
nan,nan,nan,NaN
nan,nan,nan,NaN
nan,nan,nan,NaN
nan,nan,nan,NaN
nan,nan,nan,NaN
nan,nan,nan,NaN
0.740185,0.271985,2.252,2.38608
0.747495,0.271985,2.252,2.38835
nan,nan,nan,NaN
nan,nan,nan,NaN
nan,nan,nan,NaN
nan,nan,nan,NaN
nan,nan,nan,NaN
0.818409,0.281285,2.329,2.48458
0.825968,0.281285,2.329,2.48708
0.839254,0.283217,2.345,2.50671
0.846865,0.283217,2.345,2.50927
0.860307,0.285149,2.361,2.52898
0.86797,0.285149,2.361,2.5316
0.875633,0.285149,2.361,2.53424
0.883296,0.285149,2.361,2.5369
0.89096,0.285149,2.361,2.53957
0.898623,0.285149,2.361,2.54227
0.906286,0.285149,2.361,2.54499
0.920143,0.287082,2.377,2.565
0.927858,0.287082,2.377,2.56777
0.935573,0.287082,2.377,2.57057
0.943288,0.287082,2.377,2.57339
0.957805,0.289135,2.394,2.59465
0.965575,0.289135,2.394,2.59753
0.973346,0.289135,2.394,2.60043
0.981116,0.289135,2.394,2.60335
0.988886,0.289135,2.394,2.60629
1.00373,0.291188,2.411,2.62777
1.01156,0.291188,2.411,2.63077
1.01938,0.291188,2.411,2.63379
1.02721,0.291188,2.411,2.63683
1.03504,0.291188,2.411,2.63989
1.04286,0.291188,2.411,2.64297
1.05069,0.291188,2.411,2.64606
1.05851,0.291188,2.411,2.64918
1.06634,0.291188,2.411,2.65232
1.07416,0.291188,2.411,2.65547
1.08962,0.293241,2.428,2.67739
1.0975,0.293241,2.428,2.68061
1.10538,0.293241,2.428,2.68385
1.11326,0.293241,2.428,2.6871
1.12114,0.293241,2.428,2.69038
1.12902,0.293241,2.428,2.69367
1.14486,0.295294,2.445,2.71587
1.1528,0.295294,2.445,2.71922
1.16073,0.295294,2.445,2.7226
1.16867,0.295294,2.445,2.72599
1.18527,0.297468,2.463,2.74949
1.19326,0.297468,2.463,2.75295
1.20126,0.297468,2.463,2.75642
1.20925,0.297468,2.463,2.75992
1.22614,0.299642,2.481,2.78363
1.23419,0.299642,2.481,2.78718
1.25126,0.301816,2.499,2.811
1.25937,0.301816,2.499,2.81462
1.26748,0.301816,2.499,2.81826
1.27559,0.301816,2.499,2.82192
1.29295,0.30399,2.517,2.84595
1.30112,0.30399,2.517,2.84967
1.30929,0.30399,2.517,2.85341
1.31746,0.30399,2.517,2.85717
1.32563,0.30399,2.517,2.86094
1.3338,0.30399,2.517,2.86474
1.3521,0.306285,2.536,2.8902
1.37052,0.30858,2.555,2.91575
1.37881,0.30858,2.555,2.91965
1.38711,0.30858,2.555,2.92358
1.40578,0.310874,2.574,2.94929
1.41413,0.310874,2.574,2.95328
1.42248,0.310874,2.574,2.95729
1.4414,0.313169,2.593,2.98318
1.47218,0.318,2.633,3.03334
1.48073,0.318,2.633,3.03749
1.50115,0.320536,2.654,3.06593
1.52171,0.323073,2.675,3.09445
1.5304,0.323073,2.675,3.09873
1.53908,0.323073,2.675,3.10302
1.55991,0.325609,2.696,3.13173
1.56866,0.325609,2.696,3.1361
1.57741,0.325609,2.696,3.14049
1.58616,0.325609,2.696,3.14489
1.59491,0.325609,2.696,3.14932
1.60366,0.325609,2.696,3.15376
1.62497,0.328145,2.717,3.18281
1.63379,0.328145,2.717,3.18733
1.64261,0.328145,2.717,3.19186
1.63867,0.325609,2.696,3.1717
1.64742,0.325609,2.696,3.17623
1.65617,0.325609,2.696,3.18077
1.66492,0.325609,2.696,3.18534
1.67367,0.325609,2.696,3.18992
1.66931,0.323073,2.675,3.16964
1.66482,0.320536,2.654,3.1493
1.64759,0.315585,2.613,3.10514
1.65607,0.315585,2.613,3.10965
1.66455,0.315585,2.613,3.11417
1.64806,0.310874,2.574,3.07217
1.65641,0.310874,2.574,3.07666
1.64019,0.306285,2.536,3.03568
1.63607,0.30399,2.517,3.01735
1.64424,0.30399,2.517,3.02179
1.62878,0.299642,2.481,2.98296
1.62495,0.297468,2.463,2.96569
1.63295,0.297468,2.463,2.97008
1.61762,0.293241,2.428,2.93221
1.6255,0.293241,2.428,2.93657
1.63339,0.293241,2.428,2.94094
1.61828,0.289135,2.394,2.90408
1.61451,0.287082,2.377,2.88776
-1.75931,0.314514,2.536,3.10248
-1.75107,0.314514,2.536,3.09782
-1.74284,0.314514,2.536,3.09317
-1.73461,0.314514,2.536,3.08854
-1.72638,0.314514,2.536,3.08393
-1.71815,0.314514,2.536,3.07933
-1.70992,0.314514,2.536,3.07474
-1.70169,0.314514,2.536,3.07017
-1.70614,0.31687,2.555,3.08859
-1.69785,0.31687,2.555,3.08401
-1.68956,0.31687,2.555,3.07945
-1.70627,0.321583,2.593,3.12064
-1.71095,0.324063,2.613,3.14009
-1.70247,0.324063,2.613,3.13547
-1.72057,0.329148,2.654,3.18
-1.7255,0.331753,2.675,3.20047
-1.73029,0.334357,2.696,3.22089
-1.72154,0.334357,2.696,3.2162
-1.72614,0.336961,2.717,3.23654
-1.73122,0.33969,2.739,3.25801
-1.72233,0.33969,2.739,3.2533
-1.7272,0.342418,2.761,3.27469
-1.71824,0.342418,2.761,3.26997
-1.70928,0.342418,2.761,3.26527
-1.68677,0.33969,2.739,3.23461
-1.6644,0.336961,2.717,3.20404
-1.65559,0.336961,2.717,3.19947
-1.63404,0.334357,2.696,3.17022
-1.59997,0.329148,2.654,3.1164
-1.59135,0.329148,2.654,3.11199
-1.54636,0.321583,2.593,3.03617
-1.51541,0.31687,2.555,2.98746
-1.50711,0.31687,2.555,2.98326
-1.47653,0.312157,2.517,2.93477
-1.44736,0.307693,2.481,2.88875
-1.43931,0.307693,2.481,2.88473
-1.41049,0.303228,2.445,2.83892
-1.38305,0.299011,2.411,2.79556
-1.37522,0.299011,2.411,2.79169
-1.35775,0.296903,2.394,2.76819
-1.3404,0.294795,2.377,2.74476
-1.33268,0.294795,2.377,2.741
-1.32497,0.294795,2.377,2.73726
-1.31725,0.294795,2.377,2.73353
-1.30954,0.294795,2.377,2.72982
-1.30182,0.294795,2.377,2.72613
-1.29411,0.294795,2.377,2.72245
-1.29559,0.296903,2.394,2.73824
-1.30611,0.30112,2.428,2.77341
-1.29823,0.30112,2.428,2.7697
-1.30895,0.30546,2.463,2.80589
-1.31997,0.309925,2.499,2.84313
-1.33128,0.314514,2.536,2.88141
-1.32305,0.314514,2.536,2.87762
-1.32467,0.31687,2.555,2.89537
-1.33596,0.321583,2.593,2.93459
-1.32754,0.321583,2.593,2.93077
-1.33947,0.326544,2.633,2.97212
-1.35216,0.331753,2.675,3.01563
-1.35402,0.334357,2.696,3.03539
-1.34527,0.334357,2.696,3.0315
-1.33652,0.334357,2.696,3.02762
-1.32777,0.334357,2.696,3.02377
-1.30874,0.331753,2.675,2.99641
-1.30006,0.331753,2.675,2.99263
-1.29138,0.331753,2.675,2.98887
-1.27263,0.329148,2.654,2.96169
-1.24449,0.324063,2.613,2.91231
-1.22654,0.321583,2.593,2.88643
-1.21813,0.321583,2.593,2.88286
-1.19198,0.31687,2.555,2.83712
-1.16609,0.312157,2.517,2.7915
-1.15792,0.312157,2.517,2.7881
-1.14153,0.309925,2.499,2.7648
-1.12525,0.307693,2.481,2.74157
-1.1172,0.307693,2.481,2.73828
-1.1011,0.30546,2.463,2.71516
-1.08512,0.303228,2.445,2.69211
-1.07718,0.303228,2.445,2.68892
-1.06181,0.30112,2.428,2.66708
-1.05393,0.30112,2.428,2.66395
-1.04605,0.30112,2.428,2.66084
-1.03817,0.30112,2.428,2.65775
-1.03029,0.30112,2.428,2.65468
-1.02241,0.30112,2.428,2.65164
-1.01452,0.30112,2.428,2.64861
-1.00664,0.30112,2.428,2.6456
-0.998763,0.30112,2.428,2.64261
-0.990883,0.30112,2.428,2.63964
-0.983002,0.30112,2.428,2.63669
-0.968294,0.299011,2.411,2.61532
-0.960468,0.299011,2.411,2.61244
-0.952643,0.299011,2.411,2.60957
-0.944817,0.299011,2.411,2.60672
-0.930385,0.296903,2.394,2.58554
-0.922615,0.296903,2.394,2.58275
-0.914845,0.296903,2.394,2.57999
-0.907074,0.296903,2.394,2.57724
-0.899304,0.296903,2.394,2.57452
-0.885203,0.294795,2.377,2.55355
-0.877488,0.294795,2.377,2.55089
-0.869772,0.294795,2.377,2.54824
-0.862057,0.294795,2.377,2.54562
-0.854342,0.294795,2.377,2.54302
-0.846627,0.294795,2.377,2.54044
-0.838912,0.294795,2.377,2.53787
-0.831197,0.294795,2.377,2.53533
-0.823481,0.294795,2.377,2.53282
-0.815766,0.294795,2.377,2.53032
-0.808051,0.294795,2.377,2.52784
-0.800336,0.294795,2.377,2.52539
-0.79829,0.296903,2.394,2.54099
-0.790519,0.296903,2.394,2.53856
-0.782749,0.296903,2.394,2.53616
-0.780482,0.299011,2.411,2.55176
-0.772656,0.299011,2.411,2.54938
-0.764831,0.299011,2.411,2.54702
-0.757005,0.299011,2.411,2.54468
-0.754462,0.30112,2.428,2.56029
-0.746581,0.30112,2.428,2.55798
-0.743873,0.303228,2.445,2.57358
-0.735937,0.303228,2.445,2.5713
-0.728001,0.303228,2.445,2.56904
-0.725366,0.30546,2.463,2.5857
-0.717372,0.30546,2.463,2.58347
-0.709378,0.30546,2.463,2.58126
-0.706509,0.307693,2.481,2.59792
-0.698457,0.307693,2.481,2.59574
-0.695413,0.309925,2.499,2.6124
-0.687302,0.309925,2.499,2.61026
-0.679191,0.309925,2.499,2.60813
-0.67108,0.309925,2.499,2.60603
-0.662968,0.309925,2.499,2.60396
-0.654857,0.309925,2.499,2.6019
-0.646746,0.309925,2.499,2.59987
-0.638635,0.309925,2.499,2.59787
-0.630524,0.309925,2.499,2.59588
-0.622413,0.309925,2.499,2.59393
-0.614302,0.309925,2.499,2.59199
-0.606191,0.309925,2.499,2.59008
-0.598079,0.309925,2.499,2.5882
-0.589968,0.309925,2.499,2.58633
-0.581857,0.309925,2.499,2.58449
-0.573746,0.309925,2.499,2.58268
-0.565635,0.309925,2.499,2.58089
-0.557524,0.309925,2.499,2.57913
-0.549413,0.309925,2.499,2.57738
-0.541301,0.309925,2.499,2.57567
-0.53319,0.309925,2.499,2.57397
-0.525079,0.309925,2.499,2.57231
-0.520692,0.312157,2.517,2.58918
-0.512522,0.312157,2.517,2.58755
-0.504353,0.312157,2.517,2.58594
-0.496183,0.312157,2.517,2.58436
-0.488013,0.312157,2.517,2.58281
-0.479844,0.312157,2.517,2.58128
-0.471674,0.312157,2.517,2.57977
-0.463505,0.312157,2.517,2.57829
-0.455335,0.312157,2.517,2.57683
-0.447166,0.312157,2.517,2.5754
-0.438996,0.312157,2.517,2.57399
-0.430827,0.312157,2.517,2.57261
-0.422657,0.312157,2.517,2.57126
-0.414487,0.312157,2.517,2.56993
-0.406318,0.312157,2.517,2.56862
-0.398148,0.312157,2.517,2.56734
-0.389979,0.312157,2.517,2.56609
-0.381809,0.312157,2.517,2.56486
-0.37364,0.312157,2.517,2.56366
-0.36547,0.312157,2.517,2.56248
-0.357301,0.312157,2.517,2.56133
-0.349131,0.312157,2.517,2.5602
-0.340961,0.312157,2.517,2.5591
-0.332792,0.312157,2.517,2.55802
-0.324622,0.312157,2.517,2.55697
-0.316453,0.312157,2.517,2.55595
-0.308283,0.312157,2.517,2.55495
-0.300114,0.312157,2.517,2.55398
-0.291944,0.312157,2.517,2.55303
-0.283775,0.312157,2.517,2.55211
-0.275605,0.312157,2.517,2.55121
-0.267435,0.312157,2.517,2.55034
-0.259266,0.312157,2.517,2.5495
-0.251096,0.312157,2.517,2.54868
-0.242927,0.312157,2.517,2.54789
-0.234757,0.312157,2.517,2.54712
-0.226588,0.312157,2.517,2.54638
-0.218418,0.312157,2.517,2.54567
-0.210249,0.312157,2.517,2.54498
-0.202079,0.312157,2.517,2.54432
-0.193909,0.312157,2.517,2.54368
-0.184412,0.309925,2.499,2.52489
-0.1763,0.309925,2.499,2.52431
-0.169401,0.312157,2.517,2.54193
-0.161231,0.312157,2.517,2.5414
-0.153062,0.312157,2.517,2.5409
-0.144892,0.312157,2.517,2.54042
-0.136723,0.312157,2.517,2.53997
-0.128553,0.312157,2.517,2.53954
-0.120383,0.312157,2.517,2.53914
-0.112214,0.312157,2.517,2.53876
-0.104044,0.312157,2.517,2.53842
-0.0965985,0.314514,2.536,2.55725
-0.0883672,0.314514,2.536,2.55696
-0.080136,0.314514,2.536,2.55668
-0.0719048,0.314514,2.536,2.55644
-0.0636736,0.314514,2.536,2.55622
-0.0554423,0.314514,2.536,2.55603
-0.0472111,0.314514,2.536,2.55586
-0.0389799,0.314514,2.536,2.55573
-0.0307487,0.314514,2.536,2.55561
-0.0225174,0.314514,2.536,2.55553
-0.0142862,0.314514,2.536,2.55547
-0.00605498,0.314514,2.536,2.55544
0.00217625,0.314514,2.536,2.55543
0.0103295,0.312157,2.517,2.5363
0.0184991,0.312157,2.517,2.53635
0.0266686,0.312157,2.517,2.53642
0.0348382,0.312157,2.517,2.53652
0.0430077,0.312157,2.517,2.53665
0.0511773,0.312157,2.517,2.5368
0.0593468,0.312157,2.517,2.53698
0.0670336,0.309925,2.499,2.51904
0.0751447,0.309925,2.499,2.51927
0.0832558,0.309925,2.499,2.51952
0.091367,0.309925,2.499,2.5198
0.0994781,0.309925,2.499,2.52011
0.107589,0.309925,2.499,2.52044
0.1157,0.309925,2.499,2.5208
0.123811,0.309925,2.499,2.52119
0.131923,0.309925,2.499,2.5216
0.140034,0.309925,2.499,2.52204
0.148145,0.309925,2.499,2.5225
0.156256,0.309925,2.499,2.52299
0.164367,0.309925,2.499,2.5235
0.172478,0.309925,2.499,2.52405
0.180589,0.309925,2.499,2.52461
0.188701,0.309925,2.499,2.52521
0.195394,0.307693,2.481,2.50763
0.203447,0.307693,2.481,2.50827
0.2115,0.307693,2.481,2.50894
nan,nan,nan,NaN
nan,nan,nan,NaN
nan,nan,nan,NaN
nan,nan,nan,NaN
nan,nan,nan,NaN
nan,nan,nan,NaN
nan,nan,nan,NaN
nan,nan,nan,NaN
nan,nan,nan,NaN
nan,nan,nan,NaN
nan,nan,nan,NaN
nan,nan,nan,NaN
nan,nan,nan,NaN
nan,nan,nan,NaN
nan,nan,nan,NaN
nan,nan,nan,NaN
nan,nan,nan,NaN
nan,nan,nan,NaN
nan,nan,nan,NaN
nan,nan,nan,NaN
nan,nan,nan,NaN
nan,nan,nan,NaN
nan,nan,nan,NaN
nan,nan,nan,NaN
nan,nan,nan,NaN
nan,nan,nan,NaN
nan,nan,nan,NaN
nan,nan,nan,NaN
nan,nan,nan,NaN
0.456368,0.309925,2.499,2.55917
0.461134,0.307693,2.481,2.54218
0.469186,0.307693,2.481,2.54365
0.473776,0.30546,2.463,2.52669
0.481771,0.30546,2.463,2.5282
0.489765,0.30546,2.463,2.52973
0.494122,0.303228,2.445,2.51279
0.498567,0.30112,2.428,2.49688
0.506447,0.30112,2.428,2.49847
0.510727,0.299011,2.411,2.48257
0.518552,0.299011,2.411,2.4842
0.526378,0.299011,2.411,2.48584
0.52667,0.294795,2.377,2.45243
0.534385,0.294795,2.377,2.4541
0.538451,0.29281,2.361,2.43926
0.546115,0.29281,2.361,2.44096
0.553778,0.29281,2.361,2.44269
0.557636,0.290826,2.345,2.42787
0.565248,0.290826,2.345,2.42963
0.572859,0.290826,2.345,2.43141
0.572549,0.286857,2.313,2.40001
0.580056,0.286857,2.313,2.40182
0.579689,0.283013,2.282,2.37143
0.587096,0.283013,2.282,2.37325
nan,nan,nan,NaN
nan,nan,nan,NaN
nan,nan,nan,NaN
nan,nan,nan,NaN
nan,nan,nan,NaN
nan,nan,nan,NaN
0.630544,0.279292,2.252,2.35523
0.637853,0.279292,2.252,2.35719
0.645163,0.279292,2.252,2.35918
0.656818,0.281153,2.267,2.37692
0.668571,0.283013,2.282,2.3947
0.675978,0.283013,2.282,2.39678
0.688176,0.284997,2.298,2.4157
0.695635,0.284997,2.298,2.41784
0.703093,0.284997,2.298,2.41999
nan,nan,nan,NaN
nan,nan,nan,NaN
nan,nan,nan,NaN
nan,nan,nan,NaN
nan,nan,nan,NaN
nan,nan,nan,NaN
0.755304,0.284997,2.298,2.43567
0.762763,0.284997,2.298,2.438
nan,nan,nan,NaN
nan,nan,nan,NaN
nan,nan,nan,NaN
nan,nan,nan,NaN
nan,nan,nan,NaN
0.824031,0.290826,2.345,2.50253
0.831643,0.290826,2.345,2.50504
0.84498,0.29281,2.361,2.52469
0.852643,0.29281,2.361,2.52726
0.860307,0.29281,2.361,2.52986
0.873852,0.294795,2.377,2.54964
0.875633,0.29281,2.361,2.53511
0.883296,0.29281,2.361,2.53777
0.89096,0.29281,2.361,2.54045
0.898623,0.29281,2.361,2.54314
0.906286,0.29281,2.361,2.54586
0.913949,0.29281,2.361,2.5486
0.927858,0.294795,2.377,2.56865
0.935573,0.294795,2.377,2.57145
0.943288,0.294795,2.377,2.57426
0.951003,0.294795,2.377,2.5771
0.958719,0.294795,2.377,2.57996
0.973346,0.296903,2.394,2.60131
0.981116,0.296903,2.394,2.60422
0.988886,0.296903,2.394,2.60716
0.996657,0.296903,2.394,2.61012
1.00443,0.296903,2.394,2.61309
1.0122,0.296903,2.394,2.61609
1.02721,0.299011,2.411,2.63771
1.03504,0.299011,2.411,2.64076
1.04286,0.299011,2.411,2.64384
1.05069,0.299011,2.411,2.64694
1.05851,0.299011,2.411,2.65005
1.06634,0.299011,2.411,2.65319
1.07416,0.299011,2.411,2.65634
1.08962,0.30112,2.428,2.67827
1.0975,0.30112,2.428,2.68148
1.10538,0.30112,2.428,2.68472
1.11326,0.30112,2.428,2.68797
1.12114,0.30112,2.428,2.69125
1.12902,0.30112,2.428,2.69454
1.14486,0.303228,2.445,2.71674
1.1528,0.303228,2.445,2.7201
1.16073,0.303228,2.445,2.72347
1.16867,0.303228,2.445,2.72686
1.18527,0.30546,2.463,2.75037
1.19326,0.30546,2.463,2.75382
1.20126,0.30546,2.463,2.7573
1.20925,0.30546,2.463,2.76079
1.22614,0.307693,2.481,2.7845
1.23419,0.307693,2.481,2.78806
1.25126,0.309925,2.499,2.81189
1.25937,0.309925,2.499,2.81551
1.26748,0.309925,2.499,2.81914
1.27559,0.309925,2.499,2.8228
1.29295,0.312157,2.517,2.84683
1.30112,0.312157,2.517,2.85055
1.30929,0.312157,2.517,2.85429
1.31746,0.312157,2.517,2.85805
1.32563,0.312157,2.517,2.86182
1.3338,0.312157,2.517,2.86561
1.3521,0.314514,2.536,2.89109
1.37052,0.31687,2.555,2.91663
1.37881,0.31687,2.555,2.92054
1.38711,0.31687,2.555,2.92446
1.3954,0.31687,2.555,2.92841
1.41413,0.319227,2.574,2.95417
1.42248,0.319227,2.574,2.95818
1.4414,0.321583,2.593,2.98407
1.461,0.324063,2.613,3.0112
1.46948,0.324063,2.613,3.01532
1.48927,0.326544,2.633,3.04257
1.50977,0.329148,2.654,3.07107
1.51838,0.329148,2.654,3.07531
1.53908,0.331753,2.675,3.10394
1.54776,0.331753,2.675,3.10825
1.55644,0.331753,2.675,3.11259
1.57741,0.334357,2.696,3.14141
1.58616,0.334357,2.696,3.14581
1.59491,0.334357,2.696,3.15023
1.60366,0.334357,2.696,3.15467
1.62497,0.336961,2.717,3.18374
1.63379,0.336961,2.717,3.18825
1.64261,0.336961,2.717,3.19277
1.63867,0.334357,2.696,3.17261
1.64742,0.334357,2.696,3.17714
1.65617,0.334357,2.696,3.18168
1.66492,0.334357,2.696,3.18625
1.67367,0.334357,2.696,3.19083
1.66931,0.331753,2.675,3.17054
1.66482,0.329148,2.654,3.15019
1.6602,0.326544,2.633,3.12979
1.66874,0.326544,2.633,3.13433
1.66455,0.324063,2.613,3.11505
1.66022,0.321583,2.593,3.09571
1.66864,0.321583,2.593,3.10023
1.65248,0.31687,2.555,3.05927
1.63607,0.312157,2.517,3.01819
1.64424,0.312157,2.517,3.02262
1.62878,0.307693,2.481,2.98378
1.62495,0.30546,2.463,2.9665
1.63295,0.30546,2.463,2.97089
1.62895,0.303228,2.445,2.95355
1.6255,0.30112,2.428,2.93737
1.63339,0.30112,2.428,2.94174
1.62977,0.299011,2.411,2.92549
1.61451,0.294795,2.377,2.88854
-1.77249,0.325161,2.555,3.12657
-1.76419,0.325161,2.555,3.12188
-1.7559,0.325161,2.555,3.1172
-1.74761,0.325161,2.555,3.11254
-1.73932,0.325161,2.555,3.10789
-1.73102,0.325161,2.555,3.10326
-1.72273,0.325161,2.555,3.09864
-1.71444,0.325161,2.555,3.09403
-1.70614,0.325161,2.555,3.08945
-1.71048,0.327579,2.574,3.10782
-1.70212,0.327579,2.574,3.10322
-1.70627,0.329997,2.593,3.12152
-1.71095,0.332542,2.613,3.14097
-1.70247,0.332542,2.613,3.13636
-1.72057,0.33776,2.654,3.1809
-1.7255,0.340432,2.675,3.20139
-1.73029,0.343105,2.696,3.22181
-1.72154,0.343105,2.696,3.21712
-1.71279,0.343105,2.696,3.21244
-1.71732,0.345778,2.717,3.23277
-1.7085,0.345778,2.717,3.2281
-1.71344,0.348577,2.739,3.24954
-1.70455,0.348577,2.739,3.24486
-1.69566,0.348577,2.739,3.2402
-1.67322,0.345778,2.717,3.20957
-1.65154,0.343105,2.696,3.18021
-1.64279,0.343105,2.696,3.17567
-1.60858,0.33776,2.654,3.12175
-1.57525,0.332542,2.613,3.06916
-1.56677,0.332542,2.613,3.06482
-1.53503,0.327579,2.574,3.01481
-1.50414,0.322743,2.536,2.96612
-1.49591,0.322743,2.536,2.96196
-1.46597,0.318034,2.499,2.91466
-1.43686,0.313452,2.463,2.86866
-1.42886,0.313452,2.463,2.86466
-1.40068,0.308998,2.428,2.82003
-1.38305,0.306835,2.411,2.79641
-1.37522,0.306835,2.411,2.79254
-1.36739,0.306835,2.411,2.7887
-1.34998,0.304671,2.394,2.76523
-1.33268,0.302508,2.377,2.74184
-1.32497,0.302508,2.377,2.7381
-1.31725,0.302508,2.377,2.73437
-1.30954,0.302508,2.377,2.73066
-1.31113,0.304671,2.394,2.74648
-1.30336,0.304671,2.394,2.74277
-1.30479,0.306835,2.411,2.75854
-1.30611,0.308998,2.428,2.77427
-1.29823,0.308998,2.428,2.77057
-1.30895,0.313452,2.463,2.80677
-1.31997,0.318034,2.499,2.84402
-1.33128,0.322743,2.536,2.88232
-1.32305,0.322743,2.536,2.87853
-1.32467,0.325161,2.555,2.89629
-1.33596,0.329997,2.593,2.93553
-1.32754,0.329997,2.593,2.93171
-1.33947,0.335087,2.633,2.97307
-1.35216,0.340432,2.675,3.0166
-1.35402,0.343105,2.696,3.03636
-1.34527,0.343105,2.696,3.03247
-1.33652,0.343105,2.696,3.0286
-1.32777,0.343105,2.696,3.02475
-1.30874,0.340432,2.675,2.99739
-1.30006,0.340432,2.675,2.99361
-1.29138,0.340432,2.675,2.98985
-1.27263,0.33776,2.654,2.96266
-1.25401,0.335087,2.633,2.93556
-1.22654,0.329997,2.593,2.88738
-1.21813,0.329997,2.593,2.88381
-1.19198,0.325161,2.555,2.83806
-1.17489,0.322743,2.536,2.81351
-1.16666,0.322743,2.536,2.81008
-1.14153,0.318034,2.499,2.76572
-1.12525,0.315743,2.481,2.74249
-1.1172,0.315743,2.481,2.73919
-1.1011,0.313452,2.463,2.71607
-1.08512,0.311162,2.445,2.69301
-1.07718,0.311162,2.445,2.68983
-1.06181,0.308998,2.428,2.66798
-1.05393,0.308998,2.428,2.66485
-1.04605,0.308998,2.428,2.66174
-1.03817,0.308998,2.428,2.65866
-1.03029,0.308998,2.428,2.65559
-1.02241,0.308998,2.428,2.65254
-1.01452,0.308998,2.428,2.64951
-1.00664,0.308998,2.428,2.64651
-0.998763,0.308998,2.428,2.64352
-0.990883,0.308998,2.428,2.64055
-0.983002,0.308998,2.428,2.6376
-0.968294,0.306835,2.411,2.61623
-0.960468,0.306835,2.411,2.61334
-0.952643,0.306835,2.411,2.61048
-0.944817,0.306835,2.411,2.60763
-0.930385,0.304671,2.394,2.58644
-0.922615,0.304671,2.394,2.58366
-0.914845,0.304671,2.394,2.58089
-0.907074,0.304671,2.394,2.57815
-0.899304,0.304671,2.394,2.57542
-0.885203,0.302508,2.377,2.55445
-0.877488,0.302508,2.377,2.55179
-0.869772,0.302508,2.377,2.54915
-0.862057,0.302508,2.377,2.54652
-0.854342,0.302508,2.377,2.54392
-0.846627,0.302508,2.377,2.54134
-0.838912,0.302508,2.377,2.53878
-0.831197,0.302508,2.377,2.53624
-0.823481,0.302508,2.377,2.53372
-0.815766,0.302508,2.377,2.53123
-0.808051,0.302508,2.377,2.52875
-0.800336,0.302508,2.377,2.5263
-0.79829,0.304671,2.394,2.54191
-0.790519,0.304671,2.394,2.53948
-0.782749,0.304671,2.394,2.53708
-0.774979,0.304671,2.394,2.53469
-0.767208,0.304671,2.394,2.53232
-0.764831,0.306835,2.411,2.54795
-0.757005,0.306835,2.411,2.54561
-0.754462,0.308998,2.428,2.56123
-0.746581,0.308998,2.428,2.55892
-0.743873,0.311162,2.445,2.57453
-0.735937,0.311162,2.445,2.57225
-0.728001,0.311162,2.445,2.56999
-0.720065,0.311162,2.445,2.56775
-0.717372,0.313452,2.463,2.58442
-0.709378,0.313452,2.463,2.58222
-0.701384,0.313452,2.463,2.58003
-0.698457,0.315743,2.481,2.59671
-0.690404,0.315743,2.481,2.59455
-0.682351,0.315743,2.481,2.59242
-0.674299,0.315743,2.481,2.59032
-0.67108,0.318034,2.499,2.60701
-0.662968,0.318034,2.499,2.60493
-0.65014,0.315743,2.481,2.58413
-0.642088,0.315743,2.481,2.58212
-0.634035,0.315743,2.481,2.58013
-0.630524,0.318034,2.499,2.59686
-0.622413,0.318034,2.499,2.59491
-0.614302,0.318034,2.499,2.59297
-0.606191,0.318034,2.499,2.59106
-0.598079,0.318034,2.499,2.58918
-0.589968,0.318034,2.499,2.58732
-0.581857,0.318034,2.499,2.58548
-0.573746,0.318034,2.499,2.58367
-0.565635,0.318034,2.499,2.58188
-0.557524,0.318034,2.499,2.58011
-0.549413,0.318034,2.499,2.57837
-0.541301,0.318034,2.499,2.57666
-0.53319,0.318034,2.499,2.57496
-0.525079,0.318034,2.499,2.5733
