-0.537403,-0.457099,2.481,2.57936
-0.52935,-0.457099,2.481,2.5777
-0.521297,-0.457099,2.481,2.57605
-0.513244,-0.457099,2.481,2.57444
-0.501526,-0.453783,2.463,2.55418
-0.493532,-0.453783,2.463,2.55262
-0.485538,-0.453783,2.463,2.55108
-0.477544,-0.453783,2.463,2.54958
-0.469549,-0.453783,2.463,2.54809
-0.461555,-0.453783,2.463,2.54663
-0.453561,-0.453783,2.463,2.54519
-0.445566,-0.453783,2.463,2.54378
-0.437572,-0.453783,2.463,2.54239
-0.429578,-0.453783,2.463,2.54103
-0.424665,-0.457099,2.481,2.55825
-0.416612,-0.457099,2.481,2.55693
-0.408559,-0.457099,2.481,2.55563
-0.403412,-0.460415,2.499,2.57288
-0.395301,-0.460415,2.499,2.57162
-0.38719,-0.460415,2.499,2.57039
-0.379079,-0.460415,2.499,2.56918
-0.370968,-0.460415,2.499,2.568
-0.362857,-0.460415,2.499,2.56684
-0.354745,-0.460415,2.499,2.5657
-0.346634,-0.460415,2.499,2.56459
-0.340961,-0.463732,2.517,2.58197
-0.332792,-0.463732,2.517,2.58091
-0.324622,-0.463732,2.517,2.57987
-0.316453,-0.463732,2.517,2.57885
-0.308283,-0.463732,2.517,2.57786
-0.300114,-0.463732,2.517,2.5769
-0.291944,-0.463732,2.517,2.57596
-0.283775,-0.463732,2.517,2.57505
-0.275605,-0.463732,2.517,2.57416
-0.269454,-0.467232,2.536,2.59272
-0.261223,-0.467232,2.536,2.59188
-0.251096,-0.463732,2.517,2.57165
-0.242927,-0.463732,2.517,2.57087
-0.236529,-0.467232,2.536,2.58951
-0.228298,-0.467232,2.536,2.58877
-0.220067,-0.467232,2.536,2.58806
-0.211836,-0.467232,2.536,2.58737
-0.203604,-0.467232,2.536,2.58671
-0.195373,-0.467232,2.536,2.58607
-0.187142,-0.467232,2.536,2.58546
-0.178911,-0.467232,2.536,2.58488
-0.170679,-0.467232,2.536,2.58432
-0.162448,-0.467232,2.536,2.58379
-0.154217,-0.467232,2.536,2.58329
-0.144892,-0.463732,2.517,2.56346
-0.136723,-0.463732,2.517,2.56301
-0.128553,-0.463732,2.517,2.56259
-0.120383,-0.463732,2.517,2.56219
-0.112214,-0.463732,2.517,2.56182
-0.104044,-0.463732,2.517,2.56148
-0.0958747,-0.463732,2.517,2.56116
-0.087078,-0.460415,2.499,2.54255
-0.0789668,-0.460415,2.499,2.54229
-0.0708557,-0.460415,2.499,2.54205
-0.0627446,-0.460415,2.499,2.54183
-0.0546334,-0.460415,2.499,2.54165
-0.0465223,-0.460415,2.499,2.54149
-0.0384112,-0.460415,2.499,2.54135
-0.0303,-0.460415,2.499,2.54124
-0.0221889,-0.460415,2.499,2.54116
-0.0140778,-0.460415,2.499,2.5411
-0.00596664,-0.460415,2.499,2.54107
0.00214449,-0.460415,2.499,2.54106
0.0103295,-0.463732,2.517,2.55938
0.0184991,-0.463732,2.517,2.55943
0.0266686,-0.463732,2.517,2.5595
0.0348382,-0.463732,2.517,2.5596
0.0430077,-0.463732,2.517,2.55972
0.0511773,-0.463732,2.517,2.55987
0.0593468,-0.463732,2.517,2.56005
0.0675164,-0.463732,2.517,2.56025
0.0762573,-0.467232,2.536,2.57981
0.0844885,-0.467232,2.536,2.58007
0.0927197,-0.467232,2.536,2.58035
0.100951,-0.467232,2.536,2.58066
0.109182,-0.467232,2.536,2.58099
0.117413,-0.467232,2.536,2.58135
0.125645,-0.467232,2.536,2.58174
0.133876,-0.467232,2.536,2.58215
0.143172,-0.470733,2.555,2.60194
0.151465,-0.470733,2.555,2.60241
0.159758,-0.470733,2.555,2.60291
0.16805,-0.470733,2.555,2.60343
0.176343,-0.470733,2.555,2.60398
0.184636,-0.470733,2.555,2.60455
0.194364,-0.474233,2.574,2.62453
0.202718,-0.474233,2.574,2.62516
0.211073,-0.474233,2.574,2.62582
0.219428,-0.474233,2.574,2.6265
0.227782,-0.474233,2.574,2.62722
0.236137,-0.474233,2.574,2.62795
0.244491,-0.474233,2.574,2.62872
0.252846,-0.474233,2.574,2.62951
0.2612,-0.474233,2.574,2.63032
0.267565,-0.470733,2.555,2.61174
0.275858,-0.470733,2.555,2.61261
0.284151,-0.470733,2.555,2.6135
0.292444,-0.470733,2.555,2.61441
0.2985,-0.467232,2.536,2.5959
0.306732,-0.467232,2.536,2.59686
0.314963,-0.467232,2.536,2.59785
0.323194,-0.467232,2.536,2.59886
0.331425,-0.467232,2.536,2.59989
0.339657,-0.467232,2.536,2.60096
0.347888,-0.467232,2.536,2.60204
0.356119,-0.467232,2.536,2.60316
0.36435,-0.467232,2.536,2.6043
0.372581,-0.467232,2.536,2.60546
0.383666,-0.470733,2.555,2.62618
0.391959,-0.470733,2.555,2.6274
0.400252,-0.470733,2.555,2.62865
0.408544,-0.470733,2.555,2.62993
0.419937,-0.474233,2.574,2.6508
0.428292,-0.474233,2.574,2.65213
0.436646,-0.474233,2.574,2.65349
0.445001,-0.474233,2.574,2.65488
0.453355,-0.474233,2.574,2.6563
0.465118,-0.477734,2.593,2.67735
0.473534,-0.477734,2.593,2.67883
0.481951,-0.477734,2.593,2.68033
0.490367,-0.477734,2.593,2.68185
0.498783,-0.477734,2.593,2.68341
0.507199,-0.477734,2.593,2.68498
0.515615,-0.477734,2.593,2.68658
0.520192,-0.474233,2.574,2.66852
0.528546,-0.474233,2.574,2.67016
0.536901,-0.474233,2.574,2.67182
0.545256,-0.474233,2.574,2.67351
0.55361,-0.474233,2.574,2.67523
0.561965,-0.474233,2.574,2.67697
0.570319,-0.474233,2.574,2.67874
0.582945,-0.477734,2.593,2.70032
0.591362,-0.477734,2.593,2.70215
0.599778,-0.477734,2.593,2.704
0.603738,-0.474233,2.574,2.68605
0.612092,-0.474233,2.574,2.68794
0.620447,-0.474233,2.574,2.68986
0.628801,-0.474233,2.574,2.6918
0.637156,-0.474233,2.574,2.69376
0.64551,-0.474233,2.574,2.69575
0.649038,-0.470733,2.555,2.67785
0.657331,-0.470733,2.555,2.67987
0.665624,-0.470733,2.555,2.68192
0.673917,-0.470733,2.555,2.68399
0.677137,-0.467232,2.536,2.66611
0.685368,-0.467232,2.536,2.66821
0.688403,-0.463732,2.517,2.65033
0.696572,-0.463732,2.517,2.65246
0.704742,-0.463732,2.517,2.65462
0.712911,-0.463732,2.517,2.6568
0.715924,-0.460415,2.499,2.63999
0.724035,-0.460415,2.499,2.6422
0.732147,-0.460415,2.499,2.64443
0.740258,-0.460415,2.499,2.64669
0.748369,-0.460415,2.499,2.64897
0.75648,-0.460415,2.499,2.65127
0.764591,-0.460415,2.499,2.6536
0.767137,-0.457099,2.481,2.63682
0.775189,-0.457099,2.481,2.63917
0.783242,-0.457099,2.481,2.64155
0.791295,-0.457099,2.481,2.64395
0.799347,-0.457099,2.481,2.64637
0.8074,-0.457099,2.481,2.64881
0.815453,-0.457099,2.481,2.65128
0.823505,-0.457099,2.481,2.65376
0.831558,-0.457099,2.481,2.65627
0.839611,-0.457099,2.481,2.65881
0.847664,-0.457099,2.481,2.66136
0.849508,-0.453783,2.463,2.64461
0.857502,-0.453783,2.463,2.64719
0.859171,-0.450466,2.445,2.63042
0.867107,-0.450466,2.445,2.63302
0.875043,-0.450466,2.445,2.63565
0.882979,-0.450466,2.445,2.63829
0.890915,-0.450466,2.445,2.64096
0.898851,-0.450466,2.445,2.64365
0.900482,-0.447334,2.428,2.62796
0.908362,-0.447334,2.428,2.63067
0.916243,-0.447334,2.428,2.6334
0.924124,-0.447334,2.428,2.63615
0.932004,-0.447334,2.428,2.63893
0.933304,-0.444202,2.411,2.62322
0.94113,-0.444202,2.411,2.62602
nan,nan,nan,NaN
nan,nan,nan,NaN
nan,nan,nan,NaN
nan,nan,nan,NaN
nan,nan,nan,NaN
nan,nan,nan,NaN
nan,nan,nan,NaN
nan,nan,nan,NaN
nan,nan,nan,NaN
nan,nan,nan,NaN
nan,nan,nan,NaN
nan,nan,nan,NaN
nan,nan,nan,NaN
nan,nan,nan,NaN
nan,nan,nan,NaN
nan,nan,nan,NaN
nan,nan,nan,NaN
nan,nan,nan,NaN
nan,nan,nan,NaN
nan,nan,nan,NaN
nan,nan,nan,NaN
1.08282,-0.432042,2.345,2.61881
1.09043,-0.432042,2.345,2.62197
1.09804,-0.432042,2.345,2.62514
1.09811,-0.429095,2.329,2.6104
1.10566,-0.429095,2.329,2.61359
nan,nan,nan,NaN
nan,nan,nan,NaN
nan,nan,nan,NaN
nan,nan,nan,NaN
nan,nan,nan,NaN
nan,nan,nan,NaN
nan,nan,nan,NaN
nan,nan,nan,NaN
nan,nan,nan,NaN
nan,nan,nan,NaN
nan,nan,nan,NaN
nan,nan,nan,NaN
nan,nan,nan,NaN
nan,nan,nan,NaN
nan,nan,nan,NaN
nan,nan,nan,NaN
nan,nan,nan,NaN
nan,nan,nan,NaN
nan,nan,nan,NaN
2.03017,-0.69311,3.762,4.33066
2.02013,-0.685556,3.721,4.28914
2.0322,-0.685556,3.721,4.29484
2.04428,-0.685556,3.721,4.30057
2.05636,-0.685556,3.721,4.30633
2.0462,-0.678187,3.681,4.26575
2.05815,-0.678187,3.681,4.2715
2.04816,-0.671001,3.642,4.23195
2.05998,-0.671001,3.642,4.23768
2.07181,-0.671001,3.642,4.24344
2.06189,-0.664,3.604,4.20489
2.05172,-0.656999,3.566,4.16624
2.06329,-0.656999,3.566,4.17195
2.07487,-0.656999,3.566,4.17769
2.06479,-0.650182,3.529,4.14004
2.07625,-0.650182,3.529,4.14577
2.06641,-0.64355,3.493,4.10917
2.05692,-0.637101,3.458,4.07365
2.02688,-0.624389,3.389,3.99793
2.03788,-0.624389,3.389,4.00352
2.02893,-0.618309,3.356,3.97009
2.02037,-0.612413,3.324,3.93776
2.03116,-0.612413,3.324,3.9433
2.02229,-0.606518,3.292,3.91086
1.99469,-0.595095,3.23,3.84263
2.00517,-0.595095,3.23,3.84809
1.96012,-0.578697,3.141,3.74738
1.91762,-0.563221,3.057,3.65236
1.92754,-0.563221,3.057,3.65758
1.90324,-0.553272,3.003,3.59812
1.87986,-0.543692,2.951,3.54089
1.88944,-0.543692,2.951,3.54598
1.86684,-0.53448,2.901,3.49093
1.82969,-0.521214,2.829,3.4092
1.83887,-0.521214,2.829,3.41414
1.81801,-0.512739,2.783,3.3635
1.79815,-0.504633,2.739,3.31514
1.80704,-0.504633,2.739,3.31997
1.78743,-0.496711,2.696,3.27262
1.78218,-0.492842,2.675,3.25188
1.79087,-0.492842,2.675,3.25664
1.78542,-0.488973,2.654,3.23582
1.79404,-0.488973,2.654,3.24058
1.80265,-0.488973,2.654,3.24536
-2.30597,-0.601627,3.324,4.09004
-2.29518,-0.601627,3.324,4.08397
-2.28439,-0.601627,3.324,4.07791
-2.29549,-0.607419,3.356,4.11108
-2.2846,-0.607419,3.356,4.10501
-2.29606,-0.613392,3.389,4.13926
-2.26281,-0.607419,3.356,4.09292
-2.25192,-0.607419,3.356,4.08691
-2.24102,-0.607419,3.356,4.08092
-2.23013,-0.607419,3.356,4.07495
-2.21924,-0.607419,3.356,4.06899
-2.20835,-0.607419,3.356,4.06306
-2.19745,-0.607419,3.356,4.05715
-2.18656,-0.607419,3.356,4.05126
-2.19706,-0.613392,3.389,4.08518
-2.18606,-0.613392,3.389,4.07927
-2.17506,-0.613392,3.389,4.07339
-2.16406,-0.613392,3.389,4.06752
-2.15306,-0.613392,3.389,4.06168
-2.14206,-0.613392,3.389,4.05586
-2.15244,-0.619546,3.423,4.09069
-2.14133,-0.619546,3.423,4.08486
-2.10906,-0.613392,3.389,4.03853
-2.09806,-0.613392,3.389,4.0328
-2.08706,-0.613392,3.389,4.02708
-2.07606,-0.613392,3.389,4.02139
-2.06506,-0.613392,3.389,4.01573
-2.05406,-0.613392,3.389,4.01008
-2.04306,-0.613392,3.389,4.00446
-2.01228,-0.607419,3.356,3.95992
-2.00138,-0.607419,3.356,3.95439
nan,nan,nan,NaN
nan,nan,nan,NaN
nan,nan,nan,NaN
nan,nan,nan,NaN
nan,nan,nan,NaN
nan,nan,nan,NaN
nan,nan,nan,NaN
nan,nan,nan,NaN
nan,nan,nan,NaN
nan,nan,nan,NaN
nan,nan,nan,NaN
nan,nan,nan,NaN
nan,nan,nan,NaN
nan,nan,nan,NaN
nan,nan,nan,NaN
nan,nan,nan,NaN
nan,nan,nan,NaN
nan,nan,nan,NaN
nan,nan,nan,NaN
nan,nan,nan,NaN
nan,nan,nan,NaN
nan,nan,nan,NaN
nan,nan,nan,NaN
nan,nan,nan,NaN
nan,nan,nan,NaN
nan,nan,nan,NaN
nan,nan,nan,NaN
nan,nan,nan,NaN
nan,nan,nan,NaN
nan,nan,nan,NaN
nan,nan,nan,NaN
nan,nan,nan,NaN
nan,nan,nan,NaN
nan,nan,nan,NaN
nan,nan,nan,NaN
nan,nan,nan,NaN
-1.10161,-0.418641,2.313,2.59591
-1.0941,-0.418641,2.313,2.59274
-1.08659,-0.418641,2.313,2.58958
-1.07908,-0.418641,2.313,2.58644
-1.07158,-0.418641,2.313,2.58331
-1.06407,-0.418641,2.313,2.58021
-1.06387,-0.421537,2.329,2.59495
-1.05631,-0.421537,2.329,2.59186
-1.04875,-0.421537,2.329,2.58879
-1.04119,-0.421537,2.329,2.58573
-1.03363,-0.421537,2.329,2.5827
-1.01902,-0.418641,2.313,2.56196
-1.01152,-0.418641,2.313,2.55898
-1.00401,-0.418641,2.313,2.55603
-0.996502,-0.418641,2.313,2.55309
-0.988995,-0.418641,2.313,2.55016
-0.981488,-0.418641,2.313,2.54726
-0.97398,-0.418641,2.313,2.54438
-0.973158,-0.421537,2.329,2.5591
-0.965599,-0.421537,2.329,2.55623
-0.951458,-0.418641,2.313,2.53584
-0.943951,-0.418641,2.313,2.53304
-0.942921,-0.421537,2.329,2.54775
-0.928936,-0.418641,2.313,2.52748
-0.921428,-0.418641,2.313,2.52473
-0.920243,-0.421537,2.329,2.53945
-0.912683,-0.421537,2.329,2.53672
-0.905124,-0.421537,2.329,2.53401
-0.897565,-0.421537,2.329,2.53132
-0.890005,-0.421537,2.329,2.52864
-0.882446,-0.421537,2.329,2.52599
-0.874887,-0.421537,2.329,2.52336
-0.867327,-0.421537,2.329,2.52075
-0.859768,-0.421537,2.329,2.51816
-0.852209,-0.421537,2.329,2.51559
-0.844649,-0.421537,2.329,2.51304
-0.83709,-0.421537,2.329,2.51051
-0.835229,-0.424433,2.345,2.52523
-0.827618,-0.424433,2.345,2.52272
-0.825602,-0.427329,2.361,2.53743
-0.817938,-0.427329,2.361,2.53495
-0.810275,-0.427329,2.361,2.53248
-0.802612,-0.427329,2.361,2.53004
-0.794949,-0.427329,2.361,2.52762
-0.787286,-0.427329,2.361,2.52522
-0.784906,-0.430225,2.377,2.53994
-0.777191,-0.430225,2.377,2.53757
-0.769475,-0.430225,2.377,2.53522
-0.76176,-0.430225,2.377,2.53288
-0.754045,-0.430225,2.377,2.53057
-0.74633,-0.430225,2.377,2.52829
-0.743897,-0.433302,2.394,2.54409
-0.736127,-0.433302,2.394,2.54182
-0.728357,-0.433302,2.394,2.53958
-0.725703,-0.436379,2.411,2.55539
-0.717878,-0.436379,2.411,2.55317
-0.710052,-0.436379,2.411,2.55098
-0.702227,-0.436379,2.411,2.54882
-0.699297,-0.439456,2.428,2.56463
-0.691417,-0.439456,2.428,2.56249
-0.683536,-0.439456,2.428,2.56038
-0.675655,-0.439456,2.428,2.55828
-0.667775,-0.439456,2.428,2.55621
-0.659894,-0.439456,2.428,2.55417
-0.656578,-0.442533,2.445,2.57001
-0.648643,-0.442533,2.445,2.568
-0.640707,-0.442533,2.445,2.566
-0.632771,-0.442533,2.445,2.56403
-0.624835,-0.442533,2.445,2.56209
-0.616899,-0.442533,2.445,2.56016
-0.608963,-0.442533,2.445,2.55826
-0.601027,-0.442533,2.445,2.55638
-0.597458,-0.445791,2.463,2.57334
-0.589464,-0.445791,2.463,2.57149
-0.581469,-0.445791,2.463,2.56967
-0.573475,-0.445791,2.463,2.56787
-0.565481,-0.445791,2.463,2.5661
-0.557486,-0.445791,2.463,2.56435
-0.549492,-0.445791,2.463,2.56262
-0.541498,-0.445791,2.463,2.56092
-0.533504,-0.445791,2.463,2.55924
-0.525509,-0.445791,2.463,2.55759
-0.521297,-0.449049,2.481,2.57464
-0.513244,-0.449049,2.481,2.57302
-0.501526,-0.445791,2.463,2.55277
-0.493532,-0.445791,2.463,2.55121
-0.485538,-0.445791,2.463,2.54968
-0.477544,-0.445791,2.463,2.54817
-0.469549,-0.445791,2.463,2.54668
-0.461555,-0.445791,2.463,2.54522
-0.453561,-0.445791,2.463,2.54378
-0.445566,-0.445791,2.463,2.54237
-0.437572,-0.445791,2.463,2.54098
-0.429578,-0.445791,2.463,2.53961
-0.421584,-0.445791,2.463,2.53827
-0.416612,-0.449049,2.481,2.5555
-0.408559,-0.449049,2.481,2.5542
-0.400506,-0.449049,2.481,2.55292
-0.392454,-0.449049,2.481,2.55167
-0.384401,-0.449049,2.481,2.55045
-0.379079,-0.452306,2.499,2.56774
-0.370968,-0.452306,2.499,2.56655
-0.362857,-0.452306,2.499,2.56539
-0.354745,-0.452306,2.499,2.56426
-0.346634,-0.452306,2.499,2.56315
-0.338523,-0.452306,2.499,2.56207
-0.330412,-0.452306,2.499,2.56101
-0.322301,-0.452306,2.499,2.55997
-0.316453,-0.455564,2.517,2.5774
-0.308283,-0.455564,2.517,2.57641
-0.300114,-0.455564,2.517,2.57544
-0.291944,-0.455564,2.517,2.5745
-0.283775,-0.455564,2.517,2.57359
-0.275605,-0.455564,2.517,2.5727
-0.267435,-0.455564,2.517,2.57184
-0.261223,-0.459003,2.536,2.59041
-0.252992,-0.459003,2.536,2.58959
-0.244761,-0.459003,2.536,2.5888
-0.236529,-0.459003,2.536,2.58804
-0.228298,-0.459003,2.536,2.5873
-0.220067,-0.459003,2.536,2.58658
-0.211836,-0.459003,2.536,2.5859
-0.203604,-0.459003,2.536,2.58523
-0.195373,-0.459003,2.536,2.5846
-0.187142,-0.459003,2.536,2.58399
-0.178911,-0.459003,2.536,2.58341
-0.170679,-0.459003,2.536,2.58285
-0.161231,-0.455564,2.517,2.56297
-0.153062,-0.455564,2.517,2.56247
-0.144892,-0.455564,2.517,2.562
-0.136723,-0.455564,2.517,2.56155
-0.128553,-0.455564,2.517,2.56112
-0.120383,-0.455564,2.517,2.56073
-0.112214,-0.455564,2.517,2.56036
-0.1033,-0.452306,2.499,2.5417
-0.0951891,-0.452306,2.499,2.54139
-0.087078,-0.452306,2.499,2.5411
-0.0789668,-0.452306,2.499,2.54083
-0.0708557,-0.452306,2.499,2.54059
-0.0627446,-0.452306,2.499,2.54038
-0.0546334,-0.452306,2.499,2.54019
-0.0465223,-0.452306,2.499,2.54003
-0.0384112,-0.452306,2.499,2.53989
-0.0303,-0.452306,2.499,2.53978
-0.0221889,-0.452306,2.499,2.5397
-0.0140778,-0.452306,2.499,2.53964
-0.00596664,-0.452306,2.499,2.53961
0.00214449,-0.452306,2.499,2.5396
0.0103295,-0.455564,2.517,2.55792
0.0184991,-0.455564,2.517,2.55796
0.0266686,-0.455564,2.517,2.55803
0.0348382,-0.455564,2.517,2.55813
0.0430077,-0.455564,2.517,2.55826
0.0515636,-0.459003,2.536,2.57772
0.0597948,-0.459003,2.536,2.5779
0.0680261,-0.459003,2.536,2.5781
0.0762573,-0.459003,2.536,2.57833
0.0844885,-0.459003,2.536,2.57859
0.0927197,-0.459003,2.536,2.57887
0.100951,-0.459003,2.536,2.57918
0.109182,-0.459003,2.536,2.57952
0.117413,-0.459003,2.536,2.57988
0.125645,-0.459003,2.536,2.58026
0.133876,-0.459003,2.536,2.58068
0.143172,-0.462442,2.555,2.60046
0.151465,-0.462442,2.555,2.60093
0.159758,-0.462442,2.555,2.60142
0.16805,-0.462442,2.555,2.60195
0.176343,-0.462442,2.555,2.60249
0.186009,-0.465881,2.574,2.62243
0.194364,-0.465881,2.574,2.62303
0.202718,-0.465881,2.574,2.62366
0.211073,-0.465881,2.574,2.62432
0.219428,-0.465881,2.574,2.62501
0.227782,-0.465881,2.574,2.62572
0.236137,-0.465881,2.574,2.62646
0.244491,-0.465881,2.574,2.62722
0.252846,-0.465881,2.574,2.62801
0.2612,-0.465881,2.574,2.62883
0.267565,-0.462442,2.555,2.61026
0.275858,-0.462442,2.555,2.61113
0.284151,-0.462442,2.555,2.61201
0.292444,-0.462442,2.555,2.61293
0.2985,-0.459003,2.536,2.59443
0.306732,-0.459003,2.536,2.59539
0.314963,-0.459003,2.536,2.59638
0.323194,-0.459003,2.536,2.59739
0.331425,-0.459003,2.536,2.59843
0.339657,-0.459003,2.536,2.59949
0.347888,-0.459003,2.536,2.60058
0.356119,-0.459003,2.536,2.60169
0.36435,-0.459003,2.536,2.60283
0.372581,-0.459003,2.536,2.604
0.383666,-0.462442,2.555,2.62471
0.391959,-0.462442,2.555,2.62593
0.400252,-0.462442,2.555,2.62718
0.408544,-0.462442,2.555,2.62846
0.419937,-0.465881,2.574,2.64931
0.428292,-0.465881,2.574,2.65065
0.436646,-0.465881,2.574,2.65201
0.445001,-0.465881,2.574,2.6534
0.453355,-0.465881,2.574,2.65482
0.465118,-0.46932,2.593,2.67586
0.473534,-0.46932,2.593,2.67734
0.481951,-0.46932,2.593,2.67884
0.490367,-0.46932,2.593,2.68037
0.498783,-0.46932,2.593,2.68192
0.507199,-0.46932,2.593,2.6835
0.515615,-0.46932,2.593,2.6851
0.520192,-0.465881,2.574,2.66704
0.528546,-0.465881,2.574,2.66869
0.536901,-0.465881,2.574,2.67035
0.545256,-0.465881,2.574,2.67205
0.55361,-0.465881,2.574,2.67376
0.561965,-0.465881,2.574,2.6755
0.570319,-0.465881,2.574,2.67727
0.582945,-0.46932,2.593,2.69884
0.591362,-0.46932,2.593,2.70067
0.599778,-0.46932,2.593,2.70253
0.603738,-0.465881,2.574,2.68459
0.612092,-0.465881,2.574,2.68648
0.620447,-0.465881,2.574,2.6884
0.628801,-0.465881,2.574,2.69034
0.637156,-0.465881,2.574,2.6923
0.64551,-0.465881,2.574,2.69429
0.649038,-0.462442,2.555,2.6764
0.657331,-0.462442,2.555,2.67843
0.665624,-0.462442,2.555,2.68047
0.673917,-0.462442,2.555,2.68254
0.677137,-0.459003,2.536,2.66468
0.685368,-0.459003,2.536,2.66678
0.688403,-0.455564,2.517,2.64891
0.696572,-0.455564,2.517,2.65105
0.704742,-0.455564,2.517,2.6532
0.712911,-0.455564,2.517,2.65539
0.715924,-0.452306,2.499,2.63858
0.724035,-0.452306,2.499,2.6408
0.732147,-0.452306,2.499,2.64303
0.740258,-0.452306,2.499,2.64529
0.748369,-0.452306,2.499,2.64757
0.75648,-0.452306,2.499,2.64988
0.764591,-0.452306,2.499,2.6522
0.767137,-0.449049,2.481,2.63543
0.775189,-0.449049,2.481,2.63779
0.783242,-0.449049,2.481,2.64017
0.791295,-0.449049,2.481,2.64257
0.799347,-0.449049,2.481,2.64499
0.8074,-0.449049,2.481,2.64743
0.815453,-0.449049,2.481,2.6499
0.823505,-0.449049,2.481,2.65239
0.831558,-0.449049,2.481,2.6549
0.839611,-0.449049,2.481,2.65743
0.847664,-0.449049,2.481,2.65999
0.849508,-0.445791,2.463,2.64325
0.857502,-0.445791,2.463,2.64583
0.859171,-0.442533,2.445,2.62908
0.867107,-0.442533,2.445,2.63168
0.875043,-0.442533,2.445,2.6343
0.882979,-0.442533,2.445,2.63695
0.890915,-0.442533,2.445,2.63962
0.898851,-0.442533,2.445,2.64231
0.900482,-0.439456,2.428,2.62663
0.908362,-0.439456,2.428,2.62934
0.909828,-0.436379,2.411,2.61364
0.917653,-0.436379,2.411,2.61638
0.925479,-0.436379,2.411,2.61913
0.933304,-0.436379,2.411,2.62191
0.94113,-0.436379,2.411,2.6247
0.948955,-0.436379,2.411,2.62752
nan,nan,nan,NaN
nan,nan,nan,NaN
nan,nan,nan,NaN
nan,nan,nan,NaN
nan,nan,nan,NaN
nan,nan,nan,NaN
nan,nan,nan,NaN
nan,nan,nan,NaN
nan,nan,nan,NaN
nan,nan,nan,NaN
nan,nan,nan,NaN
nan,nan,nan,NaN
nan,nan,nan,NaN
nan,nan,nan,NaN
1.0513,-0.430225,2.377,2.63447
1.05902,-0.430225,2.377,2.63756
nan,nan,nan,NaN
1.08213,-0.433302,2.394,2.6627
1.08216,-0.430225,2.377,2.64694
1.08988,-0.430225,2.377,2.6501
1.08282,-0.424433,2.345,2.61757
1.09043,-0.424433,2.345,2.62072
1.09804,-0.424433,2.345,2.6239
1.09811,-0.421537,2.329,2.60917
1.10566,-0.421537,2.329,2.61236
1.12087,-0.424433,2.345,2.63354
1.12078,-0.421537,2.329,2.6188
1.12834,-0.421537,2.329,2.62204
nan,nan,nan,NaN
nan,nan,nan,NaN
nan,nan,nan,NaN
nan,nan,nan,NaN
nan,nan,nan,NaN
nan,nan,nan,NaN
nan,nan,nan,NaN
nan,nan,nan,NaN
nan,nan,nan,NaN
nan,nan,nan,NaN
nan,nan,nan,NaN
nan,nan,nan,NaN
nan,nan,nan,NaN
nan,nan,nan,NaN
nan,nan,nan,NaN
nan,nan,nan,NaN
2.03017,-0.680903,3.762,4.32873
2.02013,-0.673482,3.721,4.28723
2.0322,-0.673482,3.721,4.29293
2.04428,-0.673482,3.721,4.29866
2.03425,-0.666243,3.681,4.25815
2.0462,-0.666243,3.681,4.26387
2.05815,-0.666243,3.681,4.26962
2.02679,-0.652306,3.604,4.18595
2.03849,-0.652306,3.604,4.19163
2.05019,-0.652306,3.604,4.19733
2.04015,-0.645428,3.566,4.15874
2.03043,-0.638731,3.529,4.12122
2.04189,-0.638731,3.529,4.12688
2.05334,-0.638731,3.529,4.13256
2.04373,-0.632216,3.493,4.09605
2.05507,-0.632216,3.493,4.10171
2.0457,-0.625881,3.458,4.06625
2.03611,-0.619546,3.423,4.03069
2.00714,-0.607419,3.356,3.95731
2.01804,-0.607419,3.356,3.96285
2.00958,-0.601627,3.324,3.93057
2.00092,-0.595836,3.292,3.8982
2.01161,-0.595836,3.292,3.9037
2.00264,-0.590044,3.26,3.87121
1.97555,-0.579003,3.199,3.80416
1.98593,-0.579003,3.199,3.80956
1.94202,-0.563256,3.112,3.71123
1.91762,-0.553302,3.057,3.65084
1.92754,-0.553302,3.057,3.65607
1.90324,-0.543528,3.003,3.59663
1.87986,-0.534116,2.951,3.53943
1.88944,-0.534116,2.951,3.54453
1.8514,-0.520723,2.877,3.46063
1.82969,-0.512035,2.829,3.40781
1.83887,-0.512035,2.829,3.41275
1.80364,-0.499727,2.761,3.33556
1.78371,-0.491763,2.717,3.28718
1.79253,-0.491763,2.717,3.29197
1.78743,-0.487963,2.696,3.2713
1.78218,-0.484162,2.675,3.25057
1.77681,-0.480361,2.654,3.22978
1.78542,-0.480361,2.654,3.23453
1.79404,-0.480361,2.654,3.23929
1.78839,-0.47656,2.633,3.2184
-2.30597,-0.590842,3.324,4.08847
-2.29518,-0.590842,3.324,4.08239
-2.28439,-0.590842,3.324,4.07633
-2.29549,-0.59653,3.356,4.10948
-2.30706,-0.602395,3.389,4.14376
-2.29606,-0.602395,3.389,4.13764
-2.28506,-0.602395,3.389,4.13155
-2.25192,-0.59653,3.356,4.08531
-2.24102,-0.59653,3.356,4.07931
-2.23013,-0.59653,3.356,4.07334
-2.21924,-0.59653,3.356,4.06738
-2.20835,-0.59653,3.356,4.06145
-2.19745,-0.59653,3.356,4.05554
-2.20806,-0.602395,3.389,4.08947
-2.19706,-0.602395,3.389,4.08354
-2.18606,-0.602395,3.389,4.07763
-2.17506,-0.602395,3.389,4.07174
-2.16406,-0.602395,3.389,4.06588
-2.15306,-0.602395,3.389,4.06003
-2.14206,-0.602395,3.389,4.05421
-2.15244,-0.608439,3.423,4.08903
-2.14133,-0.608439,3.423,4.08319
-2.10906,-0.602395,3.389,4.03687
-2.09806,-0.602395,3.389,4.03114
-2.08706,-0.602395,3.389,4.02542
-2.07606,-0.602395,3.389,4.01973
-2.06506,-0.602395,3.389,4.01406
-2.05406,-0.602395,3.389,4.00841
-2.04306,-0.602395,3.389,4.00279
-2.01228,-0.59653,3.356,3.95826
-2.00138,-0.59653,3.356,3.95274
nan,nan,nan,NaN
nan,nan,nan,NaN
nan,nan,nan,NaN
nan,nan,nan,NaN
nan,nan,nan,NaN
nan,nan,nan,NaN
nan,nan,nan,NaN
nan,nan,nan,NaN
nan,nan,nan,NaN
nan,nan,nan,NaN
nan,nan,nan,NaN
nan,nan,nan,NaN
nan,nan,nan,NaN
nan,nan,nan,NaN
nan,nan,nan,NaN
nan,nan,nan,NaN
nan,nan,nan,NaN
nan,nan,nan,NaN
nan,nan,nan,NaN
nan,nan,nan,NaN
nan,nan,nan,NaN
nan,nan,nan,NaN
nan,nan,nan,NaN
nan,nan,nan,NaN
nan,nan,nan,NaN
nan,nan,nan,NaN
nan,nan,nan,NaN
nan,nan,nan,NaN
nan,nan,nan,NaN
nan,nan,nan,NaN
nan,nan,nan,NaN
nan,nan,nan,NaN
nan,nan,nan,NaN
nan,nan,nan,NaN
-1.11662,-0.411136,2.313,2.60112
-1.10911,-0.411136,2.313,2.59791
-1.10161,-0.411136,2.313,2.59471
-1.0941,-0.411136,2.313,2.59154
-1.08659,-0.411136,2.313,2.58837
-1.07908,-0.411136,2.313,2.58523
-1.07158,-0.411136,2.313,2.58211
-1.06407,-0.411136,2.313,2.579
-1.06387,-0.41398,2.329,2.59373
-1.05631,-0.41398,2.329,2.59064
-1.04875,-0.41398,2.329,2.58757
-1.04119,-0.41398,2.329,2.58451
-1.03363,-0.41398,2.329,2.58148
-1.02607,-0.41398,2.329,2.57846
-1.01851,-0.41398,2.329,2.57546
-1.00401,-0.411136,2.313,2.55481
-0.996502,-0.411136,2.313,2.55187
-0.988995,-0.411136,2.313,2.54894
-0.981488,-0.411136,2.313,2.54604
-0.97398,-0.411136,2.313,2.54316
-0.973158,-0.41398,2.329,2.55786
-0.965599,-0.41398,2.329,2.555
-0.951458,-0.411136,2.313,2.53462
-0.943951,-0.411136,2.313,2.53181
-0.936443,-0.411136,2.313,2.52902
-0.928936,-0.411136,2.313,2.52625
-0.921428,-0.411136,2.313,2.5235
-0.913921,-0.411136,2.313,2.52076
-0.906413,-0.411136,2.313,2.51805
-0.898906,-0.411136,2.313,2.51536
-0.891399,-0.411136,2.313,2.51269
-0.883891,-0.411136,2.313,2.51003
-0.876384,-0.411136,2.313,2.5074
-0.868876,-0.411136,2.313,2.50479
-0.861369,-0.411136,2.313,2.50219
-0.853861,-0.411136,2.313,2.49962
-0.852209,-0.41398,2.329,2.51433
-0.844649,-0.41398,2.329,2.51178
-0.83709,-0.41398,2.329,2.50925
-0.835229,-0.416824,2.345,2.52396
-0.827618,-0.416824,2.345,2.52145
-0.825602,-0.419668,2.361,2.53615
-0.817938,-0.419668,2.361,2.53367
-0.810275,-0.419668,2.361,2.5312
-0.802612,-0.419668,2.361,2.52876
-0.794949,-0.419668,2.361,2.52634
-0.787286,-0.419668,2.361,2.52394
-0.784906,-0.422512,2.377,2.53865
-0.777191,-0.422512,2.377,2.53627
-0.769475,-0.422512,2.377,2.53392
-0.76176,-0.422512,2.377,2.53159
-0.754045,-0.422512,2.377,2.52927
-0.74633,-0.422512,2.377,2.52699
-0.743897,-0.425534,2.394,2.54277
-0.736127,-0.425534,2.394,2.54051
-0.728357,-0.425534,2.394,2.53827
-0.720586,-0.425534,2.394,2.53605
-0.712816,-0.425534,2.394,2.53386
-0.705046,-0.425534,2.394,2.53168
-0.702227,-0.428556,2.411,2.54749
-0.694401,-0.428556,2.411,2.54534
-0.691417,-0.431577,2.428,2.56115
-0.683536,-0.431577,2.428,2.55904
-0.675655,-0.431577,2.428,2.55694
-0.667775,-0.431577,2.428,2.55487
-0.659894,-0.431577,2.428,2.55282
-0.652013,-0.431577,2.428,2.5508
-0.648643,-0.434599,2.445,2.56664
-0.640707,-0.434599,2.445,2.56465
-0.632771,-0.434599,2.445,2.56267
-0.624835,-0.434599,2.445,2.56073
-0.616899,-0.434599,2.445,2.5588
-0.608963,-0.434599,2.445,2.5569
-0.601027,-0.434599,2.445,2.55502
-0.593092,-0.434599,2.445,2.55317
-0.585156,-0.434599,2.445,2.55133
-0.581469,-0.437799,2.463,2.5683
-0.573475,-0.437799,2.463,2.5665
-0.565481,-0.437799,2.463,2.56472
-0.557486,-0.437799,2.463,2.56297
-0.549492,-0.437799,2.463,2.56125
-0.541498,-0.437799,2.463,2.55954
-0.533504,-0.437799,2.463,2.55786
-0.525509,-0.437799,2.463,2.55621
-0.521297,-0.440998,2.481,2.57325
-0.513244,-0.440998,2.481,2.57163
-0.505192,-0.440998,2.481,2.57003
-0.497139,-0.440998,2.481,2.56846
-0.485538,-0.437799,2.463,2.54829
-0.477544,-0.437799,2.463,2.54678
-0.469549,-0.437799,2.463,2.54529
-0.461555,-0.437799,2.463,2.54383
-0.453561,-0.437799,2.463,2.54239
-0.445566,-0.437799,2.463,2.54098
-0.437572,-0.437799,2.463,2.53959
-0.429578,-0.437799,2.463,2.53822
-0.421584,-0.437799,2.463,2.53688
-0.416612,-0.440998,2.481,2.5541
-0.408559,-0.440998,2.481,2.55279
-0.400506,-0.440998,2.481,2.55152
-0.392454,-0.440998,2.481,2.55027
-0.384401,-0.440998,2.481,2.54904
-0.379079,-0.444198,2.499,2.56632
-0.370968,-0.444198,2.499,2.56514
-0.362857,-0.444198,2.499,2.56398
-0.354745,-0.444198,2.499,2.56284
-0.346634,-0.444198,2.499,2.56173
-0.338523,-0.444198,2.499,2.56065
-0.330412,-0.444198,2.499,2.55959
-0.322301,-0.444198,2.499,2.55855
-0.316453,-0.447397,2.517,2.57597
-0.308283,-0.447397,2.517,2.57497
-0.300114,-0.447397,2.517,2.57401
-0.291944,-0.447397,2.517,2.57307
-0.283775,-0.447397,2.517,2.57216
-0.275605,-0.447397,2.517,2.57127
-0.267435,-0.447397,2.517,2.5704
-0.261223,-0.450774,2.536,2.58896
-0.252992,-0.450774,2.536,2.58815
-0.244761,-0.450774,2.536,2.58735
-0.236529,-0.450774,2.536,2.58659
-0.228298,-0.450774,2.536,2.58585
-0.220067,-0.450774,2.536,2.58513
-0.211836,-0.450774,2.536,2.58445
-0.203604,-0.450774,2.536,2.58379
-0.195373,-0.450774,2.536,2.58315
-0.187142,-0.450774,2.536,2.58254
-0.178911,-0.450774,2.536,2.58196
-0.170679,-0.450774,2.536,2.5814
-0.161231,-0.447397,2.517,2.56153
-0.153062,-0.447397,2.517,2.56103
-0.144892,-0.447397,2.517,2.56056
-0.136723,-0.447397,2.517,2.56011
-0.128553,-0.447397,2.517,2.55968
-0.120383,-0.447397,2.517,2.55929
-0.112214,-0.447397,2.517,2.55892
-0.1033,-0.444198,2.499,2.54027
-0.0951891,-0.444198,2.499,2.53996
-0.087078,-0.444198,2.499,2.53966
-0.0789668,-0.444198,2.499,2.5394
-0.0708557,-0.444198,2.499,2.53916
-0.0627446,-0.444198,2.499,2.53895
-0.0546334,-0.444198,2.499,2.53876
-0.0465223,-0.444198,2.499,2.5386
-0.0384112,-0.444198,2.499,2.53846
-0.0303,-0.444198,2.499,2.53835
-0.0221889,-0.444198,2.499,2.53827
-0.0140778,-0.444198,2.499,2.53821
-0.00596664,-0.444198,2.499,2.53818
0.00214449,-0.444198,2.499,2.53817
0.0103295,-0.447397,2.517,2.55647
0.0184991,-0.447397,2.517,2.55652
0.0266686,-0.447397,2.517,2.55659
0.0348382,-0.447397,2.517,2.55669
0.0430077,-0.447397,2.517,2.55682
0.0515636,-0.450774,2.536,2.57627
0.0597948,-0.450774,2.536,2.57644
0.0680261,-0.450774,2.536,2.57665
0.0762573,-0.450774,2.536,2.57688
0.0844885,-0.450774,2.536,2.57714
0.0927197,-0.450774,2.536,2.57742
0.100951,-0.450774,2.536,2.57773
0.109182,-0.450774,2.536,2.57806
0.117413,-0.450774,2.536,2.57843
0.125645,-0.450774,2.536,2.57881
0.133876,-0.450774,2.536,2.57923
0.143172,-0.454152,2.555,2.599
0.151465,-0.454152,2.555,2.59947
0.159758,-0.454152,2.555,2.59996
0.16805,-0.454152,2.555,2.60048
0.176343,-0.454152,2.555,2.60103
0.186009,-0.457529,2.574,2.62096
0.194364,-0.457529,2.574,2.62156
0.202718,-0.457529,2.574,2.62219
0.211073,-0.457529,2.574,2.62285
0.219428,-0.457529,2.574,2.62354
0.227782,-0.457529,2.574,2.62425
0.236137,-0.457529,2.574,2.62499
0.244491,-0.457529,2.574,2.62575
0.252846,-0.457529,2.574,2.62655
0.2612,-0.457529,2.574,2.62736
0.267565,-0.454152,2.555,2.60881
0.275858,-0.454152,2.555,2.60967
0.284151,-0.454152,2.555,2.61056
0.292444,-0.454152,2.555,2.61148
0.2985,-0.450774,2.536,2.59299
0.306732,-0.450774,2.536,2.59395
0.314963,-0.450774,2.536,2.59494
0.323194,-0.450774,2.536,2.59595
0.331425,-0.450774,2.536,2.59699
0.339657,-0.450774,2.536,2.59805
0.347888,-0.450774,2.536,2.59914
0.356119,-0.450774,2.536,2.60025
0.36435,-0.450774,2.536,2.60139
0.372581,-0.450774,2.536,2.60256
0.383666,-0.454152,2.555,2.62326
0.391959,-0.454152,2.555,2.62448
0.400252,-0.454152,2.555,2.62573
0.408544,-0.454152,2.555,2.62701
0.419937,-0.457529,2.574,2.64786
0.428292,-0.457529,2.574,2.6492
0.436646,-0.457529,2.574,2.65056
0.445001,-0.457529,2.574,2.65195
0.453355,-0.457529,2.574,2.65336
0.46171,-0.457529,2.574,2.6548
0.470064,-0.457529,2.574,2.65627
0.478419,-0.457529,2.574,2.65776
0.486774,-0.457529,2.574,2.65928
0.495128,-0.457529,2.574,2.66082
0.503483,-0.457529,2.574,2.66239
0.511837,-0.457529,2.574,2.66398
0.520192,-0.457529,2.574,2.6656
0.528546,-0.457529,2.574,2.66724
0.536901,-0.457529,2.574,2.66891
0.545256,-0.457529,2.574,2.6706
0.55361,-0.457529,2.574,2.67232
0.561965,-0.457529,2.574,2.67406
0.570319,-0.457529,2.574,2.67583
0.582945,-0.460906,2.593,2.69739
0.591362,-0.460906,2.593,2.69922
0.599778,-0.460906,2.593,2.70108
0.608194,-0.460906,2.593,2.70296
0.61661,-0.460906,2.593,2.70486
0.620447,-0.457529,2.574,2.68696
0.628801,-0.457529,2.574,2.6889
0.637156,-0.457529,2.574,2.69087
0.64551,-0.457529,2.574,2.69286
0.649038,-0.454152,2.555,2.67498
0.657331,-0.454152,2.555,2.67701
0.665624,-0.454152,2.555,2.67905
0.673917,-0.454152,2.555,2.68113
0.677137,-0.450774,2.536,2.66327
0.685368,-0.450774,2.536,2.66537
0.693599,-0.450774,2.536,2.6675
0.696572,-0.447397,2.517,2.64965
0.704742,-0.447397,2.517,2.65181
0.712911,-0.447397,2.517,2.654
0.715924,-0.444198,2.499,2.63721
0.724035,-0.444198,2.499,2.63942
0.732147,-0.444198,2.499,2.64166
0.740258,-0.444198,2.499,2.64392
0.748369,-0.444198,2.499,2.6462
0.75648,-0.444198,2.499,2.6485
0.764591,-0.444198,2.499,2.65083
0.772702,-0.444198,2.499,2.65318
0.780813,-0.444198,2.499,2.65556
0.788924,-0.444198,2.499,2.65795
0.791295,-0.440998,2.481,2.64121
0.799347,-0.440998,2.481,2.64363
0.8074,-0.440998,2.481,2.64608
0.815453,-0.440998,2.481,2.64855
0.823505,-0.440998,2.481,2.65104
0.831558,-0.440998,2.481,2.65355
0.839611,-0.440998,2.481,2.65609
0.847664,-0.440998,2.481,2.65864
0.849508,-0.437799,2.463,2.64191
0.857502,-0.437799,2.463,2.64449
0.859171,-0.434599,2.445,2.62775
0.867107,-0.434599,2.445,2.63036
0.875043,-0.434599,2.445,2.63298
0.882979,-0.434599,2.445,2.63563
0.890915,-0.434599,2.445,2.6383
0.892601,-0.431577,2.428,2.62263
0.900482,-0.431577,2.428,2.62532
0.908362,-0.431577,2.428,2.62803
0.909828,-0.428556,2.411,2.61235
0.917653,-0.428556,2.411,2.61508
0.925479,-0.428556,2.411,2.61784
0.933304,-0.428556,2.411,2.62062
0.94113,-0.428556,2.411,2.62341
0.948955,-0.428556,2.411,2.62623
0.956781,-0.428556,2.411,2.62907
0.964606,-0.428556,2.411,2.63193
nan,nan,nan,NaN
nan,nan,nan,NaN
nan,nan,nan,NaN
nan,nan,nan,NaN
nan,nan,nan,NaN
nan,nan,nan,NaN
nan,nan,nan,NaN
nan,nan,nan,NaN
nan,nan,nan,NaN
nan,nan,nan,NaN
1.05069,-0.428556,2.411,2.66468
1.05851,-0.428556,2.411,2.66778
1.0513,-0.422512,2.377,2.63323
1.05902,-0.422512,2.377,2.63632
1.08962,-0.431577,2.428,2.69605
1.08213,-0.425534,2.394,2.66145
1.08216,-0.422512,2.377,2.6457
1.08988,-0.422512,2.377,2.64886
1.09759,-0.422512,2.377,2.65205
1.09787,-0.419668,2.361,2.63738
1.10553,-0.419668,2.361,2.64058
1.10565,-0.416824,2.345,2.62588
1.11326,-0.416824,2.345,2.62909
1.12087,-0.416824,2.345,2.63232
1.12078,-0.41398,2.329,2.61759
1.12834,-0.41398,2.329,2.62084
1.15931,-0.422512,2.377,2.67818
1.16703,-0.422512,2.377,2.68153
1.17474,-0.422512,2.377,2.6849
nan,nan,nan,NaN
nan,nan,nan,NaN
nan,nan,nan,NaN
nan,nan,nan,NaN
nan,nan,nan,NaN
nan,nan,nan,NaN
nan,nan,nan,NaN
nan,nan,nan,NaN
nan,nan,nan,NaN
nan,nan,nan,NaN
nan,nan,nan,NaN
nan,nan,nan,NaN
nan,nan,nan,NaN
2.03017,-0.668696,3.762,4.32682
2.02013,-0.661408,3.721,4.28535
2.0322,-0.661408,3.721,4.29106
2.04428,-0.661408,3.721,4.29679
2.03425,-0.654298,3.681,4.2563
2.0462,-0.654298,3.681,4.26202
2.05815,-0.654298,3.681,4.26777
2.02679,-0.640612,3.604,4.18415
2.03849,-0.640612,3.604,4.18983
2.05019,-0.640612,3.604,4.19553
2.04015,-0.633857,3.566,4.15696
2.03043,-0.62728,3.529,4.11946
2.04189,-0.62728,3.529,4.12512
2.05334,-0.62728,3.529,4.1308
2.04373,-0.620881,3.493,4.09431
2.05507,-0.620881,3.493,4.09998
2.0457,-0.61466,3.458,4.06454
2.03611,-0.608439,3.423,4.029
2.00714,-0.59653,3.356,3.95566
2.01804,-0.59653,3.356,3.96119
2.00958,-0.590842,3.324,3.92893
2.00092,-0.585154,3.292,3.89658
2.01161,-0.585154,3.292,3.90208
2.00264,-0.579466,3.26,3.86962
1.97555,-0.568623,3.199,3.80259
1.98593,-0.568623,3.199,3.808
1.94202,-0.553158,3.112,3.70971
1.91762,-0.543382,3.057,3.64935
1.92754,-0.543382,3.057,3.65458
1.93746,-0.543382,3.057,3.65982
1.87986,-0.524541,2.951,3.538
1.88944,-0.524541,2.951,3.5431
1.8514,-0.511387,2.877,3.45924
1.82969,-0.502855,2.829,3.40645
1.83887,-0.502855,2.829,3.41139
1.80364,-0.490768,2.761,3.33423
1.78371,-0.482947,2.717,3.28587
1.79253,-0.482947,2.717,3.29067
1.78743,-0.479214,2.696,3.27001
1.78218,-0.475482,2.675,3.24929
1.77681,-0.471749,2.654,3.22852
1.78542,-0.471749,2.654,3.23326
1.79404,-0.471749,2.654,3.23803
1.78839,-0.468016,2.633,3.21715
-2.28377,-0.574472,3.292,4.04758
-2.29518,-0.580056,3.324,4.08084
-2.28439,-0.580056,3.324,4.07479
-2.29549,-0.58564,3.356,4.10792
-2.30706,-0.591399,3.389,4.14217
-2.29606,-0.591399,3.389,4.13606
-2.28506,-0.591399,3.389,4.12996
-2.25192,-0.58564,3.356,4.08373
-2.24102,-0.58564,3.356,4.07773
-2.23013,-0.58564,3.356,4.07176
-2.21924,-0.58564,3.356,4.0658
-2.20835,-0.58564,3.356,4.05987
-2.19745,-0.58564,3.356,4.05395
-2.20806,-0.591399,3.389,4.08786
-2.19706,-0.591399,3.389,4.08193
-2.18606,-0.591399,3.389,4.07602
-2.17506,-0.591399,3.389,4.07013
-2.16406,-0.591399,3.389,4.06426
-2.15306,-0.591399,3.389,4.05842
-2.14206,-0.591399,3.389,4.05259
-2.15244,-0.597332,3.423,4.08739
-2.16323,-0.603439,3.458,4.12328
-2.13022,-0.597332,3.423,4.07573
-2.11911,-0.597332,3.423,4.06993
-2.108,-0.597332,3.423,4.06416
-2.09689,-0.597332,3.423,4.05841
-2.06506,-0.591399,3.389,4.01243
-2.05406,-0.591399,3.389,4.00678
-2.04306,-0.591399,3.389,4.00115
-2.01228,-0.58564,3.356,3.95664
-2.00138,-0.58564,3.356,3.95111
nan,nan,nan,NaN
nan,nan,nan,NaN
nan,nan,nan,NaN
nan,nan,nan,NaN
nan,nan,nan,NaN
nan,nan,nan,NaN
nan,nan,nan,NaN
nan,nan,nan,NaN
nan,nan,nan,NaN
nan,nan,nan,NaN
nan,nan,nan,NaN
nan,nan,nan,NaN
nan,nan,nan,NaN
nan,nan,nan,NaN
nan,nan,nan,NaN
nan,nan,nan,NaN
nan,nan,nan,NaN
nan,nan,nan,NaN
nan,nan,nan,NaN
nan,nan,nan,NaN
nan,nan,nan,NaN
nan,nan,nan,NaN
nan,nan,nan,NaN
nan,nan,nan,NaN
nan,nan,nan,NaN
nan,nan,nan,NaN
nan,nan,nan,NaN
nan,nan,nan,NaN
nan,nan,nan,NaN
nan,nan,nan,NaN
nan,nan,nan,NaN
nan,nan,nan,NaN
nan,nan,nan,NaN
-1.12413,-0.403631,2.313,2.60318
-1.11662,-0.403631,2.313,2.59995
-1.10911,-0.403631,2.313,2.59673
-1.10161,-0.403631,2.313,2.59354
-1.10167,-0.406423,2.329,2.60827
-1.09411,-0.406423,2.329,2.60509
-1.08655,-0.406423,2.329,2.60192
-1.07899,-0.406423,2.329,2.59878
-1.07143,-0.406423,2.329,2.59565
-1.06387,-0.406423,2.329,2.59254
-1.05631,-0.406423,2.329,2.58944
-1.04875,-0.406423,2.329,2.58637
-1.04119,-0.406423,2.329,2.58331
-1.03363,-0.406423,2.329,2.58027
-1.02607,-0.406423,2.329,2.57726
-1.01851,-0.406423,2.329,2.57426
-1.01096,-0.406423,2.329,2.57127
-1.0034,-0.406423,2.329,2.56831
-0.995836,-0.406423,2.329,2.56537
-0.988277,-0.406423,2.329,2.56244
-0.980718,-0.406423,2.329,2.55954
-0.973158,-0.406423,2.329,2.55665
-0.965599,-0.406423,2.329,2.55378
-0.95804,-0.406423,2.329,2.55093
-0.943951,-0.403631,2.313,2.5306
-0.936443,-0.403631,2.313,2.52781
-0.928936,-0.403631,2.313,2.52504
-0.921428,-0.403631,2.313,2.52228
-0.913921,-0.403631,2.313,2.51955
-0.906413,-0.403631,2.313,2.51684
-0.898906,-0.403631,2.313,2.51414
-0.891399,-0.403631,2.313,2.51147
-0.883891,-0.403631,2.313,2.50881
-0.876384,-0.403631,2.313,2.50618
-0.868876,-0.403631,2.313,2.50356
-0.861369,-0.403631,2.313,2.50097
-0.853861,-0.403631,2.313,2.49839
-0.852209,-0.406423,2.329,2.5131
-0.850452,-0.409215,2.345,2.5278
-0.842841,-0.409215,2.345,2.52524
-0.835229,-0.409215,2.345,2.52271
-0.827618,-0.409215,2.345,2.52021
-0.825602,-0.412007,2.361,2.53489
-0.817938,-0.412007,2.361,2.53241
-0.810275,-0.412007,2.361,2.52994
-0.802612,-0.412007,2.361,2.5275
-0.794949,-0.412007,2.361,2.52508
-0.792621,-0.414799,2.377,2.53977
-0.784906,-0.414799,2.377,2.53737
-0.777191,-0.414799,2.377,2.535
-0.769475,-0.414799,2.377,2.53264
-0.76176,-0.414799,2.377,2.53031
-0.754045,-0.414799,2.377,2.528
-0.74633,-0.414799,2.377,2.52571
-0.743897,-0.417766,2.394,2.54149
-0.736127,-0.417766,2.394,2.53922
-0.728357,-0.417766,2.394,2.53698
-0.720586,-0.417766,2.394,2.53476
-0.712816,-0.417766,2.394,2.53256
-0.705046,-0.417766,2.394,2.53039
-0.702227,-0.420732,2.411,2.54619
-0.694401,-0.420732,2.411,2.54404
-0.691417,-0.423699,2.428,2.55984
-0.683536,-0.423699,2.428,2.55772
-0.675655,-0.423699,2.428,2.55562
-0.667775,-0.423699,2.428,2.55355
-0.659894,-0.423699,2.428,2.5515
-0.652013,-0.423699,2.428,2.54948
-0.648643,-0.426666,2.445,2.56531
-0.640707,-0.426666,2.445,2.56331
-0.632771,-0.426666,2.445,2.56134
-0.624835,-0.426666,2.445,2.55939
-0.616899,-0.426666,2.445,2.55747
-0.608963,-0.426666,2.445,2.55556
-0.601027,-0.426666,2.445,2.55368
-0.593092,-0.426666,2.445,2.55183
-0.585156,-0.426666,2.445,2.55
-0.581469,-0.429807,2.463,2.56695
-0.573475,-0.429807,2.463,2.56515
-0.565481,-0.429807,2.463,2.56337
-0.557486,-0.429807,2.463,2.56162
-0.549492,-0.429807,2.463,2.55989
-0.545455,-0.432948,2.481,2.57688
-0.537403,-0.432948,2.481,2.57519
-0.52935,-0.432948,2.481,2.57352
-0.521297,-0.432948,2.481,2.57188
-0.513244,-0.432948,2.481,2.57026
-0.505192,-0.432948,2.481,2.56866
-0.497139,-0.432948,2.481,2.56709
-0.489086,-0.432948,2.481,2.56554
-0.481034,-0.432948,2.481,2.56402
-0.472981,-0.432948,2.481,2.56252
-0.464928,-0.432948,2.481,2.56105
-0.456875,-0.432948,2.481,2.5596
-0.445566,-0.429807,2.463,2.53961
-0.437572,-0.429807,2.463,2.53822
-0.429578,-0.429807,2.463,2.53686
-0.421584,-0.429807,2.463,2.53551
-0.416612,-0.432948,2.481,2.55272
-0.408559,-0.432948,2.481,2.55142
-0.400506,-0.432948,2.481,2.55014
-0.392454,-0.432948,2.481,2.54889
-0.384401,-0.432948,2.481,2.54766
-0.379079,-0.436089,2.499,2.56493
-0.370968,-0.436089,2.499,2.56375
-0.362857,-0.436089,2.499,2.56258
-0.354745,-0.436089,2.499,2.56145
-0.346634,-0.436089,2.499,2.56034
-0.338523,-0.436089,2.499,2.55925
-0.330412,-0.436089,2.499,2.55819
-0.322301,-0.436089,2.499,2.55716
-0.316453,-0.43923,2.517,2.57456
-0.308283,-0.43923,2.517,2.57357
-0.300114,-0.43923,2.517,2.5726
-0.291944,-0.43923,2.517,2.57166
-0.283775,-0.43923,2.517,2.57075
-0.275605,-0.43923,2.517,2.56986
-0.267435,-0.43923,2.517,2.56899
-0.261223,-0.442546,2.536,2.58754
-0.252992,-0.442546,2.536,2.58673
-0.244761,-0.442546,2.536,2.58593
-0.236529,-0.442546,2.536,2.58517
-0.228298,-0.442546,2.536,2.58443
-0.220067,-0.442546,2.536,2.58371
-0.211836,-0.442546,2.536,2.58302
-0.203604,-0.442546,2.536,2.58236
-0.195373,-0.442546,2.536,2.58173
-0.187142,-0.442546,2.536,2.58112
-0.178911,-0.442546,2.536,2.58053
-0.170679,-0.442546,2.536,2.57998
-0.161231,-0.43923,2.517,2.56012
-0.153062,-0.43923,2.517,2.55962
-0.144892,-0.43923,2.517,2.55914
-0.136723,-0.43923,2.517,2.55869
-0.128553,-0.43923,2.517,2.55827
-0.119523,-0.436089,2.499,2.53958
-0.111411,-0.436089,2.499,2.53921
-0.1033,-0.436089,2.499,2.53887
-0.0951891,-0.436089,2.499,2.53855
-0.087078,-0.436089,2.499,2.53826
-0.0789668,-0.436089,2.499,2.53799
-0.0708557,-0.436089,2.499,2.53775
-0.0627446,-0.436089,2.499,2.53754
-0.0546334,-0.436089,2.499,2.53735
-0.0465223,-0.436089,2.499,2.53719
-0.0384112,-0.436089,2.499,2.53706
-0.0303,-0.436089,2.499,2.53695
-0.0221889,-0.436089,2.499,2.53686
-0.0140778,-0.436089,2.499,2.5368
-0.00596664,-0.436089,2.499,2.53677
0.00214449,-0.436089,2.499,2.53677
0.0103295,-0.43923,2.517,2.55506
0.0184991,-0.43923,2.517,2.5551
0.0266686,-0.43923,2.517,2.55518
0.0348382,-0.43923,2.517,2.55527
0.0430077,-0.43923,2.517,2.5554
0.0515636,-0.442546,2.536,2.57484
0.0597948,-0.442546,2.536,2.57502
0.0680261,-0.442546,2.536,2.57522
0.0762573,-0.442546,2.536,2.57545
0.0844885,-0.442546,2.536,2.57571
0.0934144,-0.445861,2.555,2.59529
0.101707,-0.445861,2.555,2.5956
0.11,-0.445861,2.555,2.59594
0.118293,-0.445861,2.555,2.59631
0.126586,-0.445861,2.555,2.5967
0.134879,-0.445861,2.555,2.59712
0.144236,-0.449177,2.574,2.61688
0.152591,-0.449177,2.574,2.61735
0.160946,-0.449177,2.574,2.61785
0.1693,-0.449177,2.574,2.61838
0.177655,-0.449177,2.574,2.61893
0.186009,-0.449177,2.574,2.61951
0.194364,-0.449177,2.574,2.62012
0.202718,-0.449177,2.574,2.62075
0.211073,-0.449177,2.574,2.62141
0.219428,-0.449177,2.574,2.6221
0.229463,-0.452492,2.593,2.64217
0.23788,-0.452492,2.593,2.64291
0.244491,-0.449177,2.574,2.62431
0.252846,-0.449177,2.574,2.6251
0.2612,-0.449177,2.574,2.62592
0.267565,-0.445861,2.555,2.60738
0.275858,-0.445861,2.555,2.60824
0.284151,-0.445861,2.555,2.60913
0.292444,-0.445861,2.555,2.61005
0.2985,-0.442546,2.536,2.59157
0.306732,-0.442546,2.536,2.59253
0.314963,-0.442546,2.536,2.59352
0.323194,-0.442546,2.536,2.59453
0.331425,-0.442546,2.536,2.59557
0.339657,-0.442546,2.536,2.59663
0.347888,-0.442546,2.536,2.59772
0.356119,-0.442546,2.536,2.59884
0.36435,-0.442546,2.536,2.59998
0.375373,-0.445861,2.555,2.62063
0.383666,-0.445861,2.555,2.62183
0.391959,-0.445861,2.555,2.62306
0.400252,-0.445861,2.555,2.62431
0.408544,-0.445861,2.555,2.62559
0.419937,-0.449177,2.574,2.64643
0.428292,-0.449177,2.574,2.64777
0.436646,-0.449177,2.574,2.64913
0.445001,-0.449177,2.574,2.65052
0.453355,-0.449177,2.574,2.65194
0.46171,-0.449177,2.574,2.65338
0.470064,-0.449177,2.574,2.65484
0.478419,-0.449177,2.574,2.65634
0.486774,-0.449177,2.574,2.65785
0.495128,-0.449177,2.574,2.6594
0.503483,-0.449177,2.574,2.66096
0.511837,-0.449177,2.574,2.66256
0.520192,-0.449177,2.574,2.66418
0.528546,-0.449177,2.574,2.66582
0.536901,-0.449177,2.574,2.66749
0.545256,-0.449177,2.574,2.66918
0.55361,-0.449177,2.574,2.6709
0.561965,-0.449177,2.574,2.67265
0.570319,-0.449177,2.574,2.67442
0.578674,-0.449177,2.574,2.67621
0.587028,-0.449177,2.574,2.67803
0.595383,-0.449177,2.574,2.67987
0.608194,-0.452492,2.593,2.70154
0.61661,-0.452492,2.593,2.70344
0.620447,-0.449177,2.574,2.68555
0.628801,-0.449177,2.574,2.68749
0.637156,-0.449177,2.574,2.68946
0.64551,-0.449177,2.574,2.69145
0.653865,-0.449177,2.574,2.69347
0.662219,-0.449177,2.574,2.69551
0.665624,-0.445861,2.555,2.67766
0.673917,-0.445861,2.555,2.67974
0.677137,-0.442546,2.536,2.66189
0.685368,-0.442546,2.536,2.664
0.693599,-0.442546,2.536,2.66612
0.70183,-0.442546,2.536,2.66828
0.710062,-0.442546,2.536,2.67045
0.712911,-0.43923,2.517,2.65263
0.715924,-0.436089,2.499,2.63585
0.724035,-0.436089,2.499,2.63807
0.732147,-0.436089,2.499,2.64031
0.740258,-0.436089,2.499,2.64257
0.748369,-0.436089,2.499,2.64485
0.75648,-0.436089,2.499,2.64716
0.764591,-0.436089,2.499,2.64949
0.772702,-0.436089,2.499,2.65184
0.780813,-0.436089,2.499,2.65421
0.788924,-0.436089,2.499,2.65661
0.791295,-0.432948,2.481,2.63988
0.799347,-0.432948,2.481,2.6423
0.8074,-0.432948,2.481,2.64475
0.815453,-0.432948,2.481,2.64722
0.823505,-0.432948,2.481,2.64971
0.831558,-0.432948,2.481,2.65222
0.839611,-0.432948,2.481,2.65476
0.847664,-0.432948,2.481,2.65732
0.849508,-0.429807,2.463,2.6406
0.857502,-0.429807,2.463,2.64318
0.859171,-0.426666,2.445,2.62645
0.867107,-0.426666,2.445,2.62906
0.875043,-0.426666,2.445,2.63169
0.882979,-0.426666,2.445,2.63434
0.890915,-0.426666,2.445,2.63701
0.892601,-0.423699,2.428,2.62134
0.900482,-0.423699,2.428,2.62404
0.908362,-0.423699,2.428,2.62675
0.909828,-0.420732,2.411,2.61108
0.917653,-0.420732,2.411,2.61381
0.932004,-0.423699,2.428,2.63502
0.933304,-0.420732,2.411,2.61935
0.94113,-0.420732,2.411,2.62215
0.948955,-0.420732,2.411,2.62497
0.956781,-0.420732,2.411,2.62781
0.964606,-0.420732,2.411,2.63067
nan,nan,nan,NaN
nan,nan,nan,NaN
nan,nan,nan,NaN
nan,nan,nan,NaN
nan,nan,nan,NaN
nan,nan,nan,NaN
nan,nan,nan,NaN
nan,nan,nan,NaN
nan,nan,nan,NaN
nan,nan,nan,NaN
1.05069,-0.420732,2.411,2.66343
1.05851,-0.420732,2.411,2.66653
1.06634,-0.420732,2.411,2.66965
1.07416,-0.420732,2.411,2.67278
1.08962,-0.423699,2.428,2.6948
1.08981,-0.420732,2.411,2.67911
1.09764,-0.420732,2.411,2.6823
1.10547,-0.420732,2.411,2.68551
1.11329,-0.420732,2.411,2.68875
1.11321,-0.417766,2.394,2.67301
1.12098,-0.417766,2.394,2.67626
1.12074,-0.414799,2.377,2.6605
1.12845,-0.414799,2.377,2.66376
1.13617,-0.414799,2.377,2.66703
1.14388,-0.414799,2.377,2.67033
1.1516,-0.414799,2.377,2.67364
1.15931,-0.414799,2.377,2.67697
1.16703,-0.414799,2.377,2.68032
1.17474,-0.414799,2.377,2.68369
nan,nan,nan,NaN
nan,nan,nan,NaN
nan,nan,nan,NaN
nan,nan,nan,NaN
nan,nan,nan,NaN
nan,nan,nan,NaN
nan,nan,nan,NaN
nan,nan,nan,NaN
nan,nan,nan,NaN
nan,nan,nan,NaN
nan,nan,nan,NaN
nan,nan,nan,NaN
nan,nan,nan,NaN
2.00805,-0.649334,3.721,4.27782
2.02013,-0.649334,3.721,4.2835
2.0322,-0.649334,3.721,4.28921
2.04428,-0.649334,3.721,4.29495
2.03425,-0.642354,3.681,4.25448
2.0462,-0.642354,3.681,4.2602
2.05815,-0.642354,3.681,4.26595
2.02679,-0.628917,3.604,4.18237
2.03849,-0.628917,3.604,4.18805
2.05019,-0.628917,3.604,4.19376
2.04015,-0.622286,3.566,4.15521
2.03043,-0.615829,3.529,4.11773
2.04189,-0.615829,3.529,4.12339
2.05334,-0.615829,3.529,4.12908
2.04373,-0.609547,3.493,4.09261
2.05507,-0.609547,3.493,4.09828
2.0457,-0.603439,3.458,4.06286
2.01588,-0.591399,3.389,3.98734
2.00714,-0.58564,3.356,3.95403
2.01804,-0.58564,3.356,3.95957
2.00958,-0.580056,3.324,3.92732
1.98147,-0.568887,3.26,3.85713
1.99205,-0.568887,3.26,3.86258
1.98421,-0.563652,3.23,3.83245
1.95764,-0.553182,3.17,3.7666
1.96793,-0.553182,3.17,3.77195
1.94202,-0.543061,3.112,3.70822
1.91762,-0.533463,3.057,3.64789
1.92754,-0.533463,3.057,3.65312
1.93746,-0.533463,3.057,3.65836
1.86394,-0.510603,2.926,3.50663
1.87343,-0.510603,2.926,3.51169
1.8514,-0.502052,2.877,3.45787
1.81482,-0.489662,2.806,3.37742
1.82392,-0.489662,2.806,3.38232
1.80364,-0.481809,2.761,3.33292
1.78371,-0.474131,2.717,3.28459
1.79253,-0.474131,2.717,3.28938
1.7735,-0.466802,2.675,3.24328
1.78218,-0.466802,2.675,3.24803
1.77681,-0.463137,2.654,3.22727
1.78542,-0.463137,2.654,3.23202
1.77984,-0.459473,2.633,3.21117
1.78839,-0.459473,2.633,3.21592
-2.26157,-0.558309,3.26,4.00674
-2.27308,-0.56379,3.292,4.04005
-2.2624,-0.56379,3.292,4.03405
-2.2736,-0.56927,3.324,4.06722
-2.2846,-0.57475,3.356,4.1003
-2.29606,-0.580402,3.389,4.1345
-2.28506,-0.580402,3.389,4.1284
-2.25192,-0.57475,3.356,4.08218
-2.24102,-0.57475,3.356,4.07618
-2.23013,-0.57475,3.356,4.0702
-2.21924,-0.57475,3.356,4.06425
-2.23006,-0.580402,3.389,4.09821
-2.21906,-0.580402,3.389,4.09224
-2.20806,-0.580402,3.389,4.08629
-2.19706,-0.580402,3.389,4.08035
-2.20799,-0.586225,3.423,4.11532
-2.19688,-0.586225,3.423,4.10937
-2.18577,-0.586225,3.423,4.10344
-2.17466,-0.586225,3.423,4.09753
