nan,nan,nan,NaN
nan,nan,nan,NaN
nan,nan,nan,NaN
nan,nan,nan,NaN
nan,nan,nan,NaN
nan,nan,nan,NaN
nan,nan,nan,NaN
nan,nan,nan,NaN
nan,nan,nan,NaN
nan,nan,nan,NaN
nan,nan,nan,NaN
nan,nan,nan,NaN
nan,nan,nan,NaN
nan,nan,nan,NaN
-1.15458,-0.330851,2.329,2.62045
-1.14702,-0.330851,2.329,2.61713
-1.13946,-0.330851,2.329,2.61383
-1.1319,-0.330851,2.329,2.61054
-1.13207,-0.333124,2.345,2.62518
-1.12446,-0.333124,2.345,2.62191
-1.11685,-0.333124,2.345,2.61865
-1.10924,-0.333124,2.345,2.61542
-1.10162,-0.333124,2.345,2.6122
-1.10148,-0.335396,2.361,2.6268
-1.09381,-0.335396,2.361,2.62359
-1.08615,-0.335396,2.361,2.62041
-1.07849,-0.335396,2.361,2.61724
-1.07082,-0.335396,2.361,2.61409
-1.06316,-0.335396,2.361,2.61096
-1.0555,-0.335396,2.361,2.60785
-1.04784,-0.335396,2.361,2.60476
-1.04722,-0.337669,2.377,2.61932
-1.03951,-0.337669,2.377,2.61624
-1.03179,-0.337669,2.377,2.61319
-1.02408,-0.337669,2.377,2.61015
-1.01636,-0.337669,2.377,2.60713
-1.00865,-0.337669,2.377,2.60413
-1.00093,-0.337669,2.377,2.60116
-0.993215,-0.337669,2.377,2.5982
-0.9855,-0.337669,2.377,2.59526
-0.977785,-0.337669,2.377,2.59234
-0.970069,-0.337669,2.377,2.58944
-0.955876,-0.335396,2.361,2.56915
-0.948213,-0.335396,2.361,2.5663
-0.94055,-0.335396,2.361,2.56348
-0.939209,-0.337669,2.377,2.57803
-0.931494,-0.337669,2.377,2.57523
-0.923778,-0.337669,2.377,2.57245
-0.916063,-0.337669,2.377,2.56969
-0.908348,-0.337669,2.377,2.56695
-0.900633,-0.337669,2.377,2.56423
-0.892918,-0.337669,2.377,2.56153
-0.885203,-0.337669,2.377,2.55885
-0.877488,-0.337669,2.377,2.5562
-0.869772,-0.337669,2.377,2.55356
-0.862057,-0.337669,2.377,2.55094
-0.860452,-0.340084,2.394,2.56657
-0.852682,-0.340084,2.394,2.56397
-0.844912,-0.340084,2.394,2.5614
-0.837141,-0.340084,2.394,2.55885
-0.829371,-0.340084,2.394,2.55632
-0.821601,-0.340084,2.394,2.55381
-0.81383,-0.340084,2.394,2.55132
-0.80606,-0.340084,2.394,2.54885
-0.803958,-0.342499,2.411,2.56448
-0.796133,-0.342499,2.411,2.56204
-0.788307,-0.342499,2.411,2.55962
-0.780482,-0.342499,2.411,2.55722
-0.772656,-0.342499,2.411,2.55484
-0.764831,-0.342499,2.411,2.55249
-0.757005,-0.342499,2.411,2.55015
-0.754462,-0.344914,2.428,2.56581
-0.746581,-0.344914,2.428,2.5635
-0.738701,-0.344914,2.428,2.56122
-0.73082,-0.344914,2.428,2.55895
-0.728001,-0.347329,2.445,2.57462
-0.720065,-0.347329,2.445,2.57238
-0.712129,-0.347329,2.445,2.57017
-0.704194,-0.347329,2.445,2.56799
-0.696258,-0.347329,2.445,2.56582
-0.688322,-0.347329,2.445,2.56368
-0.680386,-0.347329,2.445,2.56156
-0.67245,-0.347329,2.445,2.55946
-0.664514,-0.347329,2.445,2.55739
-0.661412,-0.349886,2.463,2.57415
-0.653418,-0.349886,2.463,2.57211
-0.645424,-0.349886,2.463,2.57009
-0.632771,-0.347329,2.445,2.54933
-0.624835,-0.347329,2.445,2.54737
-0.621441,-0.349886,2.463,2.56417
-0.613446,-0.349886,2.463,2.56225
-0.605452,-0.349886,2.463,2.56034
-0.597458,-0.349886,2.463,2.55847
-0.589464,-0.349886,2.463,2.55661
-0.581469,-0.349886,2.463,2.55478
-0.573475,-0.349886,2.463,2.55297
-0.565481,-0.349886,2.463,2.55119
-0.561561,-0.352443,2.481,2.56806
-0.553508,-0.352443,2.481,2.56631
-0.545455,-0.352443,2.481,2.56459
-0.537403,-0.352443,2.481,2.56289
-0.53319,-0.355,2.499,2.57979
-0.525079,-0.355,2.499,2.57813
-0.516968,-0.355,2.499,2.57649
-0.508857,-0.355,2.499,2.57487
-0.500746,-0.355,2.499,2.57328
-0.492635,-0.355,2.499,2.57171
-0.484524,-0.355,2.499,2.57017
-0.479844,-0.357557,2.517,2.58716
-0.471674,-0.357557,2.517,2.58566
-0.463505,-0.357557,2.517,2.58418
-0.455335,-0.357557,2.517,2.58272
-0.447166,-0.357557,2.517,2.5813
-0.438996,-0.357557,2.517,2.57989
-0.430827,-0.357557,2.517,2.57852
-0.422657,-0.357557,2.517,2.57716
-0.414487,-0.357557,2.517,2.57584
-0.409385,-0.360256,2.536,2.59397
-0.398148,-0.357557,2.517,2.57326
-0.389979,-0.357557,2.517,2.57201
-0.379079,-0.355,2.499,2.5524
-0.370968,-0.355,2.499,2.5512
-0.362857,-0.355,2.499,2.55004
-0.354745,-0.355,2.499,2.5489
-0.346634,-0.355,2.499,2.54778
-0.338523,-0.355,2.499,2.54669
-0.328032,-0.352443,2.481,2.52729
-0.319979,-0.352443,2.481,2.52626
-0.311927,-0.352443,2.481,2.52525
-0.303874,-0.352443,2.481,2.52427
-0.295821,-0.352443,2.481,2.52331
-0.287769,-0.352443,2.481,2.52238
-0.279716,-0.352443,2.481,2.52147
-0.271663,-0.352443,2.481,2.52059
-0.26361,-0.352443,2.481,2.51974
-0.255558,-0.352443,2.481,2.51891
-0.247505,-0.352443,2.481,2.5181
-0.237715,-0.349886,2.463,2.49906
-0.229721,-0.349886,2.463,2.49831
-0.221726,-0.349886,2.463,2.49759
-0.213732,-0.349886,2.463,2.49689
-0.207241,-0.352443,2.481,2.51446
-0.199189,-0.352443,2.481,2.51381
-0.191136,-0.352443,2.481,2.51319
-0.183083,-0.352443,2.481,2.51259
-0.175031,-0.352443,2.481,2.51201
-0.166978,-0.352443,2.481,2.51147
-0.158925,-0.352443,2.481,2.51094
-0.150872,-0.352443,2.481,2.51045
-0.14282,-0.352443,2.481,2.50998
-0.135745,-0.355,2.499,2.52774
-0.127634,-0.355,2.499,2.52731
-0.119523,-0.355,2.499,2.52692
-0.111411,-0.355,2.499,2.52655
-0.104044,-0.357557,2.517,2.5444
-0.0958747,-0.357557,2.517,2.54408
-0.0877052,-0.357557,2.517,2.54378
-0.0795356,-0.357557,2.517,2.54351
-0.0719048,-0.360256,2.536,2.56247
-0.0636736,-0.360256,2.536,2.56225
-0.0554423,-0.360256,2.536,2.56206
-0.0472111,-0.360256,2.536,2.5619
-0.0389799,-0.360256,2.536,2.56176
-0.0307487,-0.360256,2.536,2.56165
-0.0226861,-0.362956,2.555,2.58075
-0.0145003,-0.365655,2.574,2.59988
-0.00614571,-0.365655,2.574,2.59985
0.00220886,-0.365655,2.574,2.59984
0.0106414,-0.368354,2.593,2.61905
0.0190576,-0.368354,2.593,2.6191
0.0274739,-0.368354,2.593,2.61918
0.0358901,-0.368354,2.593,2.61928
0.0443063,-0.368354,2.593,2.61941
0.0531292,-0.371195,2.613,2.63977
0.0616104,-0.371195,2.613,2.63995
0.0700915,-0.371195,2.613,2.64016
0.0785727,-0.371195,2.613,2.6404
0.0870538,-0.371195,2.613,2.64067
0.095535,-0.371195,2.613,2.64096
0.104016,-0.371195,2.613,2.64128
0.112497,-0.371195,2.613,2.64163
0.120978,-0.371195,2.613,2.64201
0.12946,-0.371195,2.613,2.64241
0.138997,-0.374036,2.633,2.66306
0.147543,-0.374036,2.633,2.66352
0.156089,-0.374036,2.633,2.66401
0.163384,-0.371195,2.613,2.64429
0.171865,-0.371195,2.613,2.64482
0.180346,-0.371195,2.613,2.64539
0.188828,-0.371195,2.613,2.64598
0.197309,-0.371195,2.613,2.6466
0.20579,-0.371195,2.613,2.64724
0.214271,-0.371195,2.613,2.64792
0.222752,-0.371195,2.613,2.64862
0.231233,-0.371195,2.613,2.64934
0.239715,-0.371195,2.613,2.6501
0.248196,-0.371195,2.613,2.65088
0.256677,-0.371195,2.613,2.65169
0.265158,-0.371195,2.613,2.65252
0.273639,-0.371195,2.613,2.65338
0.28428,-0.374036,2.633,2.67459
0.292826,-0.374036,2.633,2.67551
0.301372,-0.374036,2.633,2.67646
0.309918,-0.374036,2.633,2.67743
0.318464,-0.374036,2.633,2.67843
0.324526,-0.371195,2.613,2.65911
0.333007,-0.371195,2.613,2.66016
0.344102,-0.374036,2.633,2.6816
0.349969,-0.371195,2.613,2.66234
0.358451,-0.371195,2.613,2.66346
0.364123,-0.368354,2.593,2.64422
0.372539,-0.368354,2.593,2.6454
0.380956,-0.368354,2.593,2.64659
0.389372,-0.368354,2.593,2.64782
0.397788,-0.368354,2.593,2.64907
0.403228,-0.365655,2.574,2.63093
0.411583,-0.365655,2.574,2.63222
0.419937,-0.365655,2.574,2.63354
0.42513,-0.362956,2.555,2.61543
0.433423,-0.362956,2.555,2.6168
0.441716,-0.362956,2.555,2.61818
0.450009,-0.362956,2.555,2.61959
0.458302,-0.362956,2.555,2.62103
0.466595,-0.362956,2.555,2.62249
0.474888,-0.362956,2.555,2.62398
0.48318,-0.362956,2.555,2.6255
0.491473,-0.362956,2.555,2.62703
0.499766,-0.362956,2.555,2.6286
0.508059,-0.362956,2.555,2.63019
0.520192,-0.365655,2.574,2.65137
0.528546,-0.365655,2.574,2.65302
0.536901,-0.365655,2.574,2.6547
0.545256,-0.365655,2.574,2.6564
0.55361,-0.365655,2.574,2.65813
0.561965,-0.365655,2.574,2.65988
0.566109,-0.362956,2.555,2.64201
0.574402,-0.362956,2.555,2.6438
0.582695,-0.362956,2.555,2.64562
0.590988,-0.362956,2.555,2.64746
0.599281,-0.362956,2.555,2.64932
0.607574,-0.362956,2.555,2.65121
0.615867,-0.362956,2.555,2.65312
0.619518,-0.360256,2.536,2.63531
0.627749,-0.360256,2.536,2.63726
0.635981,-0.360256,2.536,2.63923
0.644212,-0.360256,2.536,2.64123
0.652443,-0.360256,2.536,2.64325
0.660674,-0.360256,2.536,2.64529
0.668906,-0.360256,2.536,2.64736
0.677137,-0.360256,2.536,2.64945
0.685368,-0.360256,2.536,2.65157
0.693599,-0.360256,2.536,2.65371
0.70183,-0.360256,2.536,2.65587
0.710062,-0.360256,2.536,2.65806
0.718293,-0.360256,2.536,2.66027
0.726524,-0.360256,2.536,2.6625
0.734755,-0.360256,2.536,2.66476
0.742987,-0.360256,2.536,2.66704
0.751218,-0.360256,2.536,2.66935
0.759449,-0.360256,2.536,2.67167
0.76768,-0.360256,2.536,2.67403
0.775912,-0.360256,2.536,2.6764
0.784143,-0.360256,2.536,2.6788
0.792374,-0.360256,2.536,2.68122
0.800605,-0.360256,2.536,2.68366
0.808836,-0.360256,2.536,2.68613
0.817068,-0.360256,2.536,2.68862
0.825299,-0.360256,2.536,2.69113
0.83353,-0.360256,2.536,2.69367
0.841761,-0.360256,2.536,2.69623
0.849993,-0.360256,2.536,2.69881
0.851794,-0.357557,2.517,2.68117
0.859963,-0.357557,2.517,2.68378
0.868133,-0.357557,2.517,2.68641
0.870036,-0.355,2.499,2.66983
0.878147,-0.355,2.499,2.67248
0.886258,-0.355,2.499,2.67516
0.894369,-0.355,2.499,2.67786
0.89598,-0.352443,2.481,2.66127
0.904033,-0.352443,2.481,2.66399
0.912085,-0.352443,2.481,2.66674
0.913462,-0.349886,2.463,2.65013
0.921457,-0.349886,2.463,2.6529
0.929451,-0.349886,2.463,2.65569
0.937445,-0.349886,2.463,2.65849
0.945439,-0.349886,2.463,2.66132
0.953434,-0.349886,2.463,2.66417
0.961428,-0.349886,2.463,2.66705
0.969422,-0.349886,2.463,2.66994
0.977417,-0.349886,2.463,2.67285
0.985411,-0.349886,2.463,2.67578
0.993405,-0.349886,2.463,2.67874
1.0014,-0.349886,2.463,2.68171
1.00202,-0.347329,2.445,2.66509
1.00995,-0.347329,2.445,2.66808
1.03288,-0.352443,2.481,2.71043
1.04093,-0.352443,2.481,2.71351
nan,nan,nan,NaN
nan,nan,nan,NaN
nan,nan,nan,NaN
1.11337,-0.365655,2.574,2.82821
1.12172,-0.365655,2.574,2.83151
1.1472,-0.371195,2.613,2.87778
1.15568,-0.371195,2.613,2.88117
1.18243,-0.377019,2.654,2.92985
1.19104,-0.377019,2.654,2.93333
1.18112,-0.371195,2.613,2.89147
1.1896,-0.371195,2.613,2.89495
1.19808,-0.371195,2.613,2.89844
1.2255,-0.377019,2.654,2.94749
1.23411,-0.377019,2.654,2.95108
1.24273,-0.377019,2.654,2.9547
1.25134,-0.377019,2.654,2.95833
1.25995,-0.377019,2.654,2.96198
1.27861,-0.380002,2.675,2.98912
1.28729,-0.380002,2.675,2.99285
1.2858,-0.377019,2.654,2.97307
1.29441,-0.377019,2.654,2.9768
1.31334,-0.380002,2.675,3.00414
1.32202,-0.380002,2.675,3.00795
1.34115,-0.382986,2.696,3.03542
1.36041,-0.385969,2.717,3.06297
1.38032,-0.389094,2.739,3.09173
1.38921,-0.389094,2.739,3.09571
1.3981,-0.389094,2.739,3.09971
nan,nan,nan,NaN
1.47481,-0.405288,2.853,3.23712
1.48407,-0.405288,2.853,3.24135
nan,nan,nan,NaN
nan,nan,nan,NaN
nan,nan,nan,NaN
1.77223,-0.472197,3.324,3.79641
1.78302,-0.472197,3.324,3.80146
1.79381,-0.472197,3.324,3.80653
1.85834,-0.486261,3.423,3.92515
1.90768,-0.496205,3.493,4.0108
1.91902,-0.496205,3.493,4.01621
1.93036,-0.496205,3.493,4.02164
1.98227,-0.506575,3.566,4.11125
1.99385,-0.506575,3.566,4.11684
2.00542,-0.506575,3.566,4.12246
2.03849,-0.511973,3.604,4.1721
2.07181,-0.517371,3.642,4.22187
2.08363,-0.517371,3.642,4.22769
2.07358,-0.511973,3.604,4.18935
2.08528,-0.511973,3.604,4.19516
2.07487,-0.506575,3.566,4.15669
2.08644,-0.506575,3.566,4.16248
2.07625,-0.501319,3.529,4.12504
2.0877,-0.501319,3.529,4.13082
2.07774,-0.496205,3.493,4.09442
2.06815,-0.491233,3.458,4.0591
2.07937,-0.491233,3.458,4.06483
2.04888,-0.481431,3.389,3.98936
2.03982,-0.476743,3.356,3.95612
2.05072,-0.476743,3.356,3.96175
2.02229,-0.467652,3.292,3.89174
1.99469,-0.458844,3.23,3.8239
2.00517,-0.458844,3.23,3.82938
1.97821,-0.450321,3.17,3.76364
1.9885,-0.450321,3.17,3.76906
nan,nan,nan,NaN
1.92035,-0.430433,3.03,3.61302
1.89642,-0.422904,2.977,3.55497
1.90609,-0.422904,2.977,3.56013
1.88293,-0.415659,2.926,3.50424
1.86074,-0.408698,2.877,3.45058
1.87007,-0.408698,2.877,3.45562
1.86373,-0.405288,2.853,3.43182
1.85724,-0.401879,2.829,3.40794
1.83607,-0.395345,2.783,3.35746
1.84511,-0.395345,2.783,3.36241
1.83948,-0.392219,2.761,3.34076
1.83371,-0.389094,2.739,3.31904
1.8426,-0.389094,2.739,3.32396
1.83662,-0.385969,2.717,3.30216
1.81691,-0.380002,2.675,3.25595
-2.35106,-0.470434,3.389,4.1514
-2.34006,-0.470434,3.389,4.14518
-2.30638,-0.465853,3.356,4.09868
-2.29549,-0.465853,3.356,4.09256
-2.2846,-0.465853,3.356,4.08646
-2.29606,-0.470434,3.389,4.1205
-2.28506,-0.470434,3.389,4.11438
-2.25192,-0.465853,3.356,4.06828
-2.24102,-0.465853,3.356,4.06226
-2.23013,-0.465853,3.356,4.05626
-2.21924,-0.465853,3.356,4.05028
-2.20835,-0.465853,3.356,4.04432
-2.19745,-0.465853,3.356,4.03839
-2.18656,-0.465853,3.356,4.03247
-2.19706,-0.470434,3.389,4.06617
-2.18606,-0.470434,3.389,4.06023
-2.17506,-0.470434,3.389,4.05432
-2.16406,-0.470434,3.389,4.04843
-2.15306,-0.470434,3.389,4.04256
-2.14206,-0.470434,3.389,4.03671
-2.13106,-0.470434,3.389,4.03089
-2.12006,-0.470434,3.389,4.02508
-2.10906,-0.470434,3.389,4.0193
-2.09806,-0.470434,3.389,4.01354
-2.08706,-0.470434,3.389,4.0078
-2.07606,-0.470434,3.389,4.00208
-2.04496,-0.465853,3.356,3.95747
-2.03406,-0.465853,3.356,3.95186
-2.04306,-0.470434,3.389,3.98506
-2.01228,-0.465853,3.356,3.94069
-2.00138,-0.465853,3.356,3.93514
-1.99049,-0.465853,3.356,3.92961
-1.9796,-0.465853,3.356,3.9241
nan,nan,nan,NaN
nan,nan,nan,NaN
nan,nan,nan,NaN
nan,nan,nan,NaN
nan,nan,nan,NaN
nan,nan,nan,NaN
nan,nan,nan,NaN
nan,nan,nan,NaN
nan,nan,nan,NaN
nan,nan,nan,NaN
nan,nan,nan,NaN
nan,nan,nan,NaN
nan,nan,nan,NaN
nan,nan,nan,NaN
nan,nan,nan,NaN
nan,nan,nan,NaN
nan,nan,nan,NaN
nan,nan,nan,NaN
nan,nan,nan,NaN
nan,nan,nan,NaN
nan,nan,nan,NaN
nan,nan,nan,NaN
nan,nan,nan,NaN
nan,nan,nan,NaN
nan,nan,nan,NaN
nan,nan,nan,NaN
nan,nan,nan,NaN
nan,nan,nan,NaN
nan,nan,nan,NaN
-1.16278,-0.327735,2.361,2.65213
-1.15512,-0.327735,2.361,2.64878
-1.14746,-0.327735,2.361,2.64545
-1.13979,-0.327735,2.361,2.64213
-1.13213,-0.327735,2.361,2.63884
-1.12447,-0.327735,2.361,2.63556
-1.1168,-0.327735,2.361,2.6323
-1.11666,-0.329956,2.377,2.64687
-1.10894,-0.329956,2.377,2.64363
-1.10123,-0.329956,2.377,2.6404
-1.09351,-0.329956,2.377,2.63719
-1.0858,-0.329956,2.377,2.634
-1.07808,-0.329956,2.377,2.63083
-1.07037,-0.329956,2.377,2.62768
-1.06265,-0.329956,2.377,2.62454
-1.05494,-0.329956,2.377,2.62143
-1.04722,-0.329956,2.377,2.61833
-1.03951,-0.329956,2.377,2.61526
-1.03179,-0.329956,2.377,2.6122
-1.02408,-0.329956,2.377,2.60916
-1.01636,-0.329956,2.377,2.60614
-1.00865,-0.329956,2.377,2.60315
-1.00093,-0.329956,2.377,2.60017
-0.993215,-0.329956,2.377,2.59721
-0.9855,-0.329956,2.377,2.59426
-0.977785,-0.329956,2.377,2.59134
-0.970069,-0.329956,2.377,2.58844
-0.955876,-0.327735,2.361,2.56816
-0.948213,-0.327735,2.361,2.56531
-0.94055,-0.327735,2.361,2.56249
-0.939209,-0.329956,2.377,2.57704
-0.931494,-0.329956,2.377,2.57423
-0.923778,-0.329956,2.377,2.57145
-0.909897,-0.327735,2.361,2.5514
-0.902234,-0.327735,2.361,2.54868
-0.894571,-0.327735,2.361,2.54597
-0.886907,-0.327735,2.361,2.54329
-0.879244,-0.327735,2.361,2.54063
-0.871581,-0.327735,2.361,2.53799
-0.869772,-0.329956,2.377,2.55255
-0.862057,-0.329956,2.377,2.54993
-0.854342,-0.329956,2.377,2.54733
-0.846627,-0.329956,2.377,2.54475
-0.838912,-0.329956,2.377,2.5422
-0.831197,-0.329956,2.377,2.53966
-0.823481,-0.329956,2.377,2.53715
-0.815766,-0.329956,2.377,2.53465
-0.81383,-0.332316,2.394,2.55029
-0.80606,-0.332316,2.394,2.54782
-0.79829,-0.332316,2.394,2.54538
-0.790519,-0.332316,2.394,2.54295
-0.782749,-0.332316,2.394,2.54054
-0.774979,-0.332316,2.394,2.53816
-0.772656,-0.334676,2.411,2.55381
-0.764831,-0.334676,2.411,2.55145
-0.757005,-0.334676,2.411,2.54911
-0.74918,-0.334676,2.411,2.5468
-0.746581,-0.337036,2.428,2.56245
-0.738701,-0.337036,2.428,2.56017
-0.73082,-0.337036,2.428,2.5579
-0.722939,-0.337036,2.428,2.55566
-0.720065,-0.339396,2.445,2.57132
-0.712129,-0.339396,2.445,2.56911
-0.704194,-0.339396,2.445,2.56693
-0.696258,-0.339396,2.445,2.56476
-0.688322,-0.339396,2.445,2.56262
-0.680386,-0.339396,2.445,2.5605
-0.67245,-0.339396,2.445,2.5584
-0.664514,-0.339396,2.445,2.55632
-0.656578,-0.339396,2.445,2.55427
-0.648643,-0.339396,2.445,2.55224
-0.640707,-0.339396,2.445,2.55024
-0.632771,-0.339396,2.445,2.54826
-0.624835,-0.339396,2.445,2.5463
-0.621441,-0.341894,2.463,2.56309
-0.613446,-0.341894,2.463,2.56117
-0.605452,-0.341894,2.463,2.55926
-0.597458,-0.341894,2.463,2.55738
-0.589464,-0.341894,2.463,2.55553
-0.581469,-0.341894,2.463,2.5537
-0.573475,-0.341894,2.463,2.55189
-0.565481,-0.341894,2.463,2.5501
-0.557486,-0.341894,2.463,2.54834
-0.553508,-0.344393,2.481,2.56522
-0.545455,-0.344393,2.481,2.56349
-0.537403,-0.344393,2.481,2.56179
-0.52935,-0.344393,2.481,2.56011
-0.525079,-0.346891,2.499,2.57702
-0.516968,-0.346891,2.499,2.57538
-0.508857,-0.346891,2.499,2.57377
-0.500746,-0.346891,2.499,2.57217
-0.492635,-0.346891,2.499,2.57061
-0.488013,-0.34939,2.517,2.58757
-0.479844,-0.34939,2.517,2.58604
-0.471674,-0.34939,2.517,2.58454
-0.463505,-0.34939,2.517,2.58306
-0.455335,-0.34939,2.517,2.58161
-0.447166,-0.34939,2.517,2.58018
-0.438996,-0.34939,2.517,2.57878
-0.430827,-0.34939,2.517,2.5774
-0.425848,-0.352028,2.536,2.59549
-0.417616,-0.352028,2.536,2.59415
-0.409385,-0.352028,2.536,2.59284
-0.401154,-0.352028,2.536,2.59155
-0.392923,-0.352028,2.536,2.59029
-0.381809,-0.34939,2.517,2.56966
-0.370968,-0.346891,2.499,2.55009
-0.362857,-0.346891,2.499,2.54892
-0.354745,-0.346891,2.499,2.54778
-0.346634,-0.346891,2.499,2.54666
-0.338523,-0.346891,2.499,2.54557
-0.328032,-0.344393,2.481,2.52618
-0.319979,-0.344393,2.481,2.52514
-0.311927,-0.344393,2.481,2.52414
-0.303874,-0.344393,2.481,2.52315
-0.295821,-0.344393,2.481,2.5222
-0.287769,-0.344393,2.481,2.52127
-0.279716,-0.344393,2.481,2.52036
-0.271663,-0.344393,2.481,2.51948
-0.26361,-0.344393,2.481,2.51862
-0.255558,-0.344393,2.481,2.51779
-0.247505,-0.344393,2.481,2.51699
-0.237715,-0.341894,2.463,2.49795
-0.229721,-0.341894,2.463,2.49721
-0.221726,-0.341894,2.463,2.49648
-0.213732,-0.341894,2.463,2.49578
-0.207241,-0.344393,2.481,2.51335
-0.199189,-0.344393,2.481,2.5127
-0.189749,-0.341894,2.463,2.49385
-0.181755,-0.341894,2.463,2.49325
-0.173761,-0.341894,2.463,2.49268
-0.165766,-0.341894,2.463,2.49214
-0.158925,-0.344393,2.481,2.50983
-0.150872,-0.344393,2.481,2.50933
-0.14282,-0.344393,2.481,2.50886
-0.134767,-0.344393,2.481,2.50841
-0.127634,-0.346891,2.499,2.52619
-0.119523,-0.346891,2.499,2.52579
-0.111411,-0.346891,2.499,2.52542
-0.104044,-0.34939,2.517,2.54326
-0.0958747,-0.34939,2.517,2.54294
-0.0877052,-0.34939,2.517,2.54265
-0.0795356,-0.34939,2.517,2.54238
-0.0719048,-0.352028,2.536,2.56133
-0.0636736,-0.352028,2.536,2.56111
-0.0554423,-0.352028,2.536,2.56092
-0.0472111,-0.352028,2.536,2.56075
-0.0389799,-0.352028,2.536,2.56061
-0.030979,-0.354665,2.555,2.57968
-0.0226861,-0.354665,2.555,2.5796
-0.0145003,-0.357302,2.574,2.59872
-0.00614571,-0.357302,2.574,2.59869
0.00220886,-0.357302,2.574,2.59868
0.0105634,-0.357302,2.574,2.5987
0.018918,-0.357302,2.574,2.59875
0.0274739,-0.35994,2.593,2.61801
0.0358901,-0.35994,2.593,2.61811
0.0443063,-0.35994,2.593,2.61824
0.0531292,-0.362716,2.613,2.63859
0.0616104,-0.362716,2.613,2.63877
0.0700915,-0.362716,2.613,2.63899
0.0785727,-0.362716,2.613,2.63922
0.0870538,-0.362716,2.613,2.63949
0.095535,-0.362716,2.613,2.63978
0.104016,-0.362716,2.613,2.6401
0.112497,-0.362716,2.613,2.64045
0.120978,-0.362716,2.613,2.64083
0.12946,-0.362716,2.613,2.64123
0.137941,-0.362716,2.613,2.64166
0.147543,-0.365492,2.633,2.66234
0.156089,-0.365492,2.633,2.66283
0.164635,-0.365492,2.633,2.66334
0.171865,-0.362716,2.613,2.64365
0.180346,-0.362716,2.613,2.64421
0.188828,-0.362716,2.613,2.6448
0.197309,-0.362716,2.613,2.64542
0.20579,-0.362716,2.613,2.64607
0.214271,-0.362716,2.613,2.64674
0.222752,-0.362716,2.613,2.64744
0.231233,-0.362716,2.613,2.64817
0.239715,-0.362716,2.613,2.64892
0.248196,-0.362716,2.613,2.6497
0.256677,-0.362716,2.613,2.65051
0.267187,-0.365492,2.633,2.67164
0.275734,-0.365492,2.633,2.67251
0.28428,-0.365492,2.633,2.6734
0.292826,-0.365492,2.633,2.67433
0.301372,-0.365492,2.633,2.67528
0.309918,-0.365492,2.633,2.67625
0.318464,-0.365492,2.633,2.67725
0.324526,-0.362716,2.613,2.65794
0.333007,-0.362716,2.613,2.65899
0.344102,-0.365492,2.633,2.68043
0.349969,-0.362716,2.613,2.66117
0.358451,-0.362716,2.613,2.6623
0.364123,-0.35994,2.593,2.64306
0.372539,-0.35994,2.593,2.64424
0.380956,-0.35994,2.593,2.64544
0.389372,-0.35994,2.593,2.64666
0.397788,-0.35994,2.593,2.64791
0.403228,-0.357302,2.574,2.62978
0.411583,-0.357302,2.574,2.63107
0.419937,-0.357302,2.574,2.63239
0.42513,-0.354665,2.555,2.6143
0.433423,-0.354665,2.555,2.61566
0.441716,-0.354665,2.555,2.61705
0.450009,-0.354665,2.555,2.61846
0.458302,-0.354665,2.555,2.6199
0.466595,-0.354665,2.555,2.62136
0.478419,-0.357302,2.574,2.64235
0.486774,-0.357302,2.574,2.64388
0.491473,-0.354665,2.555,2.6259
0.499766,-0.354665,2.555,2.62747
0.508059,-0.354665,2.555,2.62906
0.520192,-0.357302,2.574,2.65023
0.528546,-0.357302,2.574,2.65189
0.536901,-0.357302,2.574,2.65356
0.54928,-0.35994,2.593,2.67487
0.557697,-0.35994,2.593,2.67661
0.561965,-0.357302,2.574,2.65875
0.566109,-0.354665,2.555,2.64089
0.574402,-0.354665,2.555,2.64268
0.582695,-0.354665,2.555,2.64449
0.590988,-0.354665,2.555,2.64633
0.599281,-0.354665,2.555,2.6482
0.607574,-0.354665,2.555,2.65009
0.615867,-0.354665,2.555,2.652
0.619518,-0.352028,2.536,2.6342
0.627749,-0.352028,2.536,2.63615
0.635981,-0.352028,2.536,2.63812
0.644212,-0.352028,2.536,2.64012
0.652443,-0.352028,2.536,2.64214
0.660674,-0.352028,2.536,2.64418
0.668906,-0.352028,2.536,2.64625
0.677137,-0.352028,2.536,2.64835
0.685368,-0.352028,2.536,2.65046
0.693599,-0.352028,2.536,2.6526
0.70183,-0.352028,2.536,2.65477
0.710062,-0.352028,2.536,2.65695
0.718293,-0.352028,2.536,2.65917
0.726524,-0.352028,2.536,2.6614
0.734755,-0.352028,2.536,2.66366
0.742987,-0.352028,2.536,2.66594
0.751218,-0.352028,2.536,2.66825
0.759449,-0.352028,2.536,2.67058
0.76768,-0.352028,2.536,2.67293
0.775912,-0.352028,2.536,2.67531
0.784143,-0.352028,2.536,2.6777
0.792374,-0.352028,2.536,2.68013
0.800605,-0.352028,2.536,2.68257
0.808836,-0.352028,2.536,2.68504
0.817068,-0.352028,2.536,2.68753
0.825299,-0.352028,2.536,2.69004
0.83353,-0.352028,2.536,2.69258
0.841761,-0.352028,2.536,2.69514
0.843624,-0.34939,2.517,2.67751
0.851794,-0.34939,2.517,2.6801
0.859963,-0.34939,2.517,2.6827
0.868133,-0.34939,2.517,2.68533
0.870036,-0.346891,2.499,2.66876
0.878147,-0.346891,2.499,2.67142
0.886258,-0.346891,2.499,2.6741
0.887927,-0.344393,2.481,2.65751
0.89598,-0.344393,2.481,2.66022
0.904033,-0.344393,2.481,2.66294
0.905468,-0.341894,2.463,2.64634
0.913462,-0.341894,2.463,2.64909
0.921457,-0.341894,2.463,2.65186
0.922658,-0.339396,2.445,2.63524
0.930594,-0.339396,2.445,2.63803
0.93853,-0.339396,2.445,2.64084
0.946466,-0.339396,2.445,2.64367
0.954402,-0.339396,2.445,2.64653
0.962338,-0.339396,2.445,2.6494
0.970273,-0.339396,2.445,2.65229
0.978209,-0.339396,2.445,2.6552
0.986145,-0.339396,2.445,2.65814
0.994081,-0.339396,2.445,2.66109
1.00202,-0.339396,2.445,2.66407
1.00995,-0.339396,2.445,2.66706
1.02538,-0.341894,2.463,2.68973
1.03338,-0.341894,2.463,2.69279
nan,nan,nan,NaN
nan,nan,nan,NaN
nan,nan,nan,NaN
1.11337,-0.357302,2.574,2.82714
1.12172,-0.357302,2.574,2.83044
1.1472,-0.362716,2.613,2.8767
1.15568,-0.362716,2.613,2.88009
1.18243,-0.368407,2.654,2.92875
1.19104,-0.368407,2.654,2.93224
1.19965,-0.368407,2.654,2.93575
1.21783,-0.371322,2.675,2.96254
1.22651,-0.371322,2.675,2.96611
1.25459,-0.377153,2.717,3.01634
1.26341,-0.377153,2.717,3.02002
1.27223,-0.377153,2.717,3.02372
1.29142,-0.380206,2.739,3.05196
1.30031,-0.380206,2.739,3.05573
1.31971,-0.38326,2.761,3.0841
1.32867,-0.38326,2.761,3.08794
1.32698,-0.380206,2.739,3.06717
1.33587,-0.380206,2.739,3.07103
1.36636,-0.386314,2.783,3.1243
1.37539,-0.386314,2.783,3.12826
1.38443,-0.386314,2.783,3.13225
1.40498,-0.389507,2.806,3.16217
1.41408,-0.389507,2.806,3.16623
1.42319,-0.389507,2.806,3.1703
1.4323,-0.389507,2.806,3.1744
1.49021,-0.402694,2.901,3.28613
1.48722,-0.399362,2.877,3.26319
1.49655,-0.399362,2.877,3.26746
1.60011,-0.424349,3.057,3.47644
nan,nan,nan,NaN
1.6952,-0.44406,3.199,3.64753
1.70558,-0.44406,3.199,3.65237
1.78302,-0.461412,3.324,3.80014
1.79381,-0.461412,3.324,3.80521
1.85834,-0.475154,3.423,3.92379
1.90768,-0.484871,3.493,4.00941
1.91902,-0.484871,3.493,4.01482
1.93036,-0.484871,3.493,4.02025
1.96171,-0.489868,3.529,4.0672
1.99385,-0.495004,3.566,4.11544
2.00542,-0.495004,3.566,4.12106
2.03849,-0.500279,3.604,4.17068
2.05019,-0.500279,3.604,4.17641
2.06189,-0.500279,3.604,4.18216
2.07358,-0.500279,3.604,4.18794
2.08528,-0.500279,3.604,4.19374
2.09698,-0.500279,3.604,4.19957
2.08644,-0.495004,3.566,4.16109
2.09802,-0.495004,3.566,4.1669
2.10959,-0.495004,3.566,4.17274
2.09916,-0.489868,3.529,4.13525
2.06815,-0.480012,3.458,4.05776
2.07937,-0.480012,3.458,4.06349
2.06944,-0.475154,3.423,4.02806
2.03982,-0.465853,3.356,3.95482
2.05072,-0.465853,3.356,3.96045
2.02229,-0.45697,3.292,3.89047
1.99469,-0.448363,3.23,3.82266
2.00517,-0.448363,3.23,3.82814
1.99631,-0.44406,3.199,3.79685
1.93456,-0.428097,3.084,3.66563
1.94457,-0.428097,3.084,3.67092
1.92035,-0.420601,3.03,3.61186
1.89642,-0.413244,2.977,3.55383
1.90609,-0.413244,2.977,3.559
1.89902,-0.409635,2.951,3.53305
1.86074,-0.399362,2.877,3.44949
1.87007,-0.399362,2.877,3.45453
1.86373,-0.396031,2.853,3.43074
1.85724,-0.3927,2.829,3.40687
1.85125,-0.389507,2.806,3.38415
1.86035,-0.389507,2.806,3.38914
1.85414,-0.386314,2.783,3.36633
1.84844,-0.38326,2.761,3.34466
1.8574,-0.38326,2.761,3.34962
1.83662,-0.377153,2.717,3.30114
1.83118,-0.374237,2.696,3.2805
-2.35106,-0.459438,3.389,4.15017
-2.34006,-0.459438,3.389,4.14395
-2.30638,-0.454964,3.356,4.09745
-2.29549,-0.454964,3.356,4.09133
-2.2846,-0.454964,3.356,4.08523
-2.29606,-0.459438,3.389,4.11926
-2.28506,-0.459438,3.389,4.11314
-2.25192,-0.454964,3.356,4.06705
-2.24102,-0.454964,3.356,4.06102
-2.23013,-0.454964,3.356,4.05502
-2.21924,-0.454964,3.356,4.04904
-2.20835,-0.454964,3.356,4.04308
-2.19745,-0.454964,3.356,4.03714
-2.18656,-0.454964,3.356,4.03123
-2.19706,-0.459438,3.389,4.06491
-2.18606,-0.459438,3.389,4.05897
-2.17506,-0.459438,3.389,4.05306
-2.16406,-0.459438,3.389,4.04717
-2.15306,-0.459438,3.389,4.0413
-2.14206,-0.459438,3.389,4.03545
-2.13106,-0.459438,3.389,4.02962
-2.12006,-0.459438,3.389,4.02381
-2.10906,-0.459438,3.389,4.01803
-2.09806,-0.459438,3.389,4.01227
-2.08706,-0.459438,3.389,4.00652
-2.07606,-0.459438,3.389,4.00081
-2.04496,-0.454964,3.356,3.95621
-2.03406,-0.454964,3.356,3.95059
-2.04306,-0.459438,3.389,3.98378
-2.01228,-0.454964,3.356,3.93941
-2.00138,-0.454964,3.356,3.93386
-1.99049,-0.454964,3.356,3.92833
-1.9796,-0.454964,3.356,3.92282
nan,nan,nan,NaN
nan,nan,nan,NaN
nan,nan,nan,NaN
nan,nan,nan,NaN
nan,nan,nan,NaN
nan,nan,nan,NaN
nan,nan,nan,NaN
nan,nan,nan,NaN
nan,nan,nan,NaN
nan,nan,nan,NaN
nan,nan,nan,NaN
nan,nan,nan,NaN
nan,nan,nan,NaN
nan,nan,nan,NaN
nan,nan,nan,NaN
nan,nan,nan,NaN
nan,nan,nan,NaN
nan,nan,nan,NaN
nan,nan,nan,NaN
nan,nan,nan,NaN
nan,nan,nan,NaN
nan,nan,nan,NaN
nan,nan,nan,NaN
nan,nan,nan,NaN
nan,nan,nan,NaN
nan,nan,nan,NaN
nan,nan,nan,NaN
nan,nan,nan,NaN
nan,nan,nan,NaN
-1.16278,-0.320074,2.361,2.65119
-1.15512,-0.320074,2.361,2.64784
-1.14746,-0.320074,2.361,2.64451
-1.13979,-0.320074,2.361,2.64119
-1.13213,-0.320074,2.361,2.63789
-1.12447,-0.320074,2.361,2.63461
-1.1168,-0.320074,2.361,2.63135
-1.11666,-0.322243,2.377,2.64592
-1.10894,-0.322243,2.377,2.64267
-1.10123,-0.322243,2.377,2.63945
-1.09351,-0.322243,2.377,2.63624
-1.0858,-0.322243,2.377,2.63304
-1.07808,-0.322243,2.377,2.62987
-1.07037,-0.322243,2.377,2.62672
-1.06265,-0.322243,2.377,2.62358
-1.04784,-0.320074,2.361,2.60283
-1.04017,-0.320074,2.361,2.59976
-1.03251,-0.320074,2.361,2.5967
-1.02485,-0.320074,2.361,2.59366
-1.01718,-0.320074,2.361,2.59064
-1.00952,-0.320074,2.361,2.58764
-1.00865,-0.322243,2.377,2.60218
-1.00093,-0.322243,2.377,2.5992
-0.986529,-0.320074,2.361,2.57876
-0.978866,-0.320074,2.361,2.57584
-0.971203,-0.320074,2.361,2.57294
-0.96354,-0.320074,2.361,2.57005
-0.955876,-0.320074,2.361,2.56719
-0.948213,-0.320074,2.361,2.56435
-0.94055,-0.320074,2.361,2.56152
-0.932887,-0.320074,2.361,2.55872
-0.925224,-0.320074,2.361,2.55594
-0.91756,-0.320074,2.361,2.55317
-0.909897,-0.320074,2.361,2.55043
-0.902234,-0.320074,2.361,2.5477
-0.894571,-0.320074,2.361,2.545
-0.886907,-0.320074,2.361,2.54232
-0.879244,-0.320074,2.361,2.53965
-0.871581,-0.320074,2.361,2.53701
-0.863918,-0.320074,2.361,2.53439
-0.856255,-0.320074,2.361,2.53179
-0.848591,-0.320074,2.361,2.5292
-0.840928,-0.320074,2.361,2.52664
-0.833265,-0.320074,2.361,2.5241
-0.825602,-0.320074,2.361,2.52158
-0.817938,-0.320074,2.361,2.51909
-0.815766,-0.322243,2.377,2.53366
-0.808051,-0.322243,2.377,2.53119
-0.800336,-0.322243,2.377,2.52874
-0.792621,-0.322243,2.377,2.52631
-0.790519,-0.324548,2.394,2.54195
-0.782749,-0.324548,2.394,2.53954
-0.774979,-0.324548,2.394,2.53716
-0.767208,-0.324548,2.394,2.53479
-0.764831,-0.326853,2.411,2.55044
-0.757005,-0.326853,2.411,2.5481
-0.74918,-0.326853,2.411,2.54579
-0.741354,-0.326853,2.411,2.54349
-0.733529,-0.326853,2.411,2.54122
-0.73082,-0.329157,2.428,2.55688
-0.722939,-0.329157,2.428,2.55464
-0.720065,-0.331462,2.445,2.57029
-0.712129,-0.331462,2.445,2.56808
-0.704194,-0.331462,2.445,2.56589
-0.696258,-0.331462,2.445,2.56372
-0.688322,-0.331462,2.445,2.56158
-0.680386,-0.331462,2.445,2.55946
-0.67245,-0.331462,2.445,2.55736
-0.664514,-0.331462,2.445,2.55528
-0.656578,-0.331462,2.445,2.55323
-0.648643,-0.331462,2.445,2.5512
-0.640707,-0.331462,2.445,2.5492
-0.632771,-0.331462,2.445,2.54721
-0.624835,-0.331462,2.445,2.54525
-0.616899,-0.331462,2.445,2.54332
-0.608963,-0.331462,2.445,2.5414
-0.605452,-0.333902,2.463,2.55821
-0.597458,-0.333902,2.463,2.55633
-0.589464,-0.333902,2.463,2.55447
-0.581469,-0.333902,2.463,2.55264
-0.573475,-0.333902,2.463,2.55083
-0.565481,-0.333902,2.463,2.54904
-0.557486,-0.333902,2.463,2.54728
-0.553508,-0.336342,2.481,2.56415
-0.545455,-0.336342,2.481,2.56242
-0.537403,-0.336342,2.481,2.56072
-0.52935,-0.336342,2.481,2.55904
-0.521297,-0.336342,2.481,2.55739
-0.513244,-0.336342,2.481,2.55576
-0.508857,-0.338783,2.499,2.57269
-0.500746,-0.338783,2.499,2.57109
-0.492635,-0.338783,2.499,2.56953
-0.484524,-0.338783,2.499,2.56798
-0.479844,-0.341223,2.517,2.58495
-0.471674,-0.341223,2.517,2.58345
-0.463505,-0.341223,2.517,2.58197
-0.455335,-0.341223,2.517,2.58051
-0.447166,-0.341223,2.517,2.57909
-0.438996,-0.341223,2.517,2.57768
-0.434079,-0.343799,2.536,2.59575
-0.425848,-0.343799,2.536,2.59439
-0.417616,-0.343799,2.536,2.59305
-0.406318,-0.341223,2.517,2.57232
-0.398148,-0.341223,2.517,2.57104
-0.389979,-0.341223,2.517,2.56979
-0.381809,-0.341223,2.517,2.56856
-0.37364,-0.341223,2.517,2.56736
-0.36547,-0.341223,2.517,2.56618
-0.357301,-0.341223,2.517,2.56503
-0.349131,-0.341223,2.517,2.56391
-0.340961,-0.341223,2.517,2.56281
-0.330412,-0.338783,2.499,2.54341
-0.322301,-0.338783,2.499,2.54237
-0.31419,-0.338783,2.499,2.54136
-0.306079,-0.338783,2.499,2.54037
-0.295821,-0.336342,2.481,2.52111
-0.287769,-0.336342,2.481,2.52018
-0.279716,-0.336342,2.481,2.51927
-0.271663,-0.336342,2.481,2.51839
-0.26361,-0.336342,2.481,2.51753
-0.255558,-0.336342,2.481,2.5167
-0.247505,-0.336342,2.481,2.5159
-0.237715,-0.333902,2.463,2.49687
-0.229721,-0.333902,2.463,2.49612
-0.221726,-0.333902,2.463,2.4954
-0.213732,-0.333902,2.463,2.4947
-0.207241,-0.336342,2.481,2.51226
-0.199189,-0.336342,2.481,2.51161
-0.189749,-0.333902,2.463,2.49276
-0.181755,-0.333902,2.463,2.49217
-0.173761,-0.333902,2.463,2.4916
-0.165766,-0.333902,2.463,2.49105
-0.158925,-0.336342,2.481,2.50873
-0.150872,-0.336342,2.481,2.50824
-0.14282,-0.336342,2.481,2.50777
-0.134767,-0.336342,2.481,2.50732
-0.127634,-0.338783,2.499,2.52509
-0.119523,-0.338783,2.499,2.52469
-0.111411,-0.338783,2.499,2.52432
-0.104044,-0.341223,2.517,2.54215
-0.0958747,-0.341223,2.517,2.54183
-0.0877052,-0.341223,2.517,2.54154
-0.0795356,-0.341223,2.517,2.54127
-0.0719048,-0.343799,2.536,2.56021
-0.0636736,-0.343799,2.536,2.55999
-0.0554423,-0.343799,2.536,2.5598
-0.0475648,-0.346374,2.555,2.57881
-0.0392719,-0.346374,2.555,2.57867
-0.030979,-0.346374,2.555,2.57856
-0.0226861,-0.346374,2.555,2.57847
-0.0145003,-0.34895,2.574,2.59759
-0.00614571,-0.34895,2.574,2.59755
0.00220886,-0.34895,2.574,2.59755
0.0105634,-0.34895,2.574,2.59757
0.018918,-0.34895,2.574,2.59761
0.0274739,-0.351526,2.593,2.61686
0.0358901,-0.351526,2.593,2.61697
0.0443063,-0.351526,2.593,2.61709
0.0531292,-0.354237,2.613,2.63744
0.0616104,-0.354237,2.613,2.63762
0.0700915,-0.354237,2.613,2.63783
0.0785727,-0.354237,2.613,2.63807
0.0870538,-0.354237,2.613,2.63834
0.095535,-0.354237,2.613,2.63863
0.104016,-0.354237,2.613,2.63895
0.112497,-0.354237,2.613,2.6393
0.120978,-0.354237,2.613,2.63968
0.12946,-0.354237,2.613,2.64008
0.137941,-0.354237,2.613,2.64051
0.146422,-0.354237,2.613,2.64096
0.154903,-0.354237,2.613,2.64145
0.163384,-0.354237,2.613,2.64196
0.171865,-0.354237,2.613,2.6425
0.180346,-0.354237,2.613,2.64306
0.188828,-0.354237,2.613,2.64365
0.197309,-0.354237,2.613,2.64427
0.20579,-0.354237,2.613,2.64492
0.214271,-0.354237,2.613,2.64559
0.222752,-0.354237,2.613,2.64629
0.231233,-0.354237,2.613,2.64702
0.239715,-0.354237,2.613,2.64778
0.248196,-0.354237,2.613,2.64856
0.256677,-0.354237,2.613,2.64937
0.267187,-0.356949,2.633,2.67049
0.275734,-0.356949,2.633,2.67135
0.28428,-0.356949,2.633,2.67225
0.292826,-0.356949,2.633,2.67317
0.301372,-0.356949,2.633,2.67412
0.307564,-0.354237,2.613,2.65478
0.316045,-0.354237,2.613,2.65577
0.324526,-0.354237,2.613,2.6568
0.330458,-0.351526,2.593,2.6375
0.338875,-0.351526,2.593,2.63857
0.347291,-0.351526,2.593,2.63966
0.355707,-0.351526,2.593,2.64079
0.361455,-0.34895,2.574,2.62257
0.36981,-0.34895,2.574,2.62374
0.378164,-0.34895,2.574,2.62493
0.386519,-0.34895,2.574,2.62615
0.394873,-0.34895,2.574,2.62739
0.403228,-0.34895,2.574,2.62866
0.408544,-0.346374,2.555,2.61054
0.416837,-0.346374,2.555,2.61185
0.42513,-0.346374,2.555,2.61319
0.433423,-0.346374,2.555,2.61455
0.441716,-0.346374,2.555,2.61593
0.450009,-0.346374,2.555,2.61735
0.458302,-0.346374,2.555,2.61879
0.466595,-0.346374,2.555,2.62025
0.478419,-0.34895,2.574,2.64124
0.486774,-0.34895,2.574,2.64276
0.491473,-0.346374,2.555,2.62479
0.499766,-0.346374,2.555,2.62636
0.508059,-0.346374,2.555,2.62795
0.520192,-0.34895,2.574,2.64912
0.528546,-0.34895,2.574,2.65077
0.536901,-0.34895,2.574,2.65245
0.54928,-0.351526,2.593,2.67375
0.557697,-0.351526,2.593,2.67549
0.561965,-0.34895,2.574,2.65764
0.566109,-0.346374,2.555,2.63979
0.574402,-0.346374,2.555,2.64158
0.582695,-0.346374,2.555,2.64339
0.590988,-0.346374,2.555,2.64523
0.599281,-0.346374,2.555,2.6471
0.607574,-0.346374,2.555,2.64899
0.611287,-0.343799,2.536,2.63119
0.619518,-0.343799,2.536,2.63312
0.627749,-0.343799,2.536,2.63506
0.635981,-0.343799,2.536,2.63704
0.644212,-0.343799,2.536,2.63903
0.652443,-0.343799,2.536,2.64106
0.660674,-0.343799,2.536,2.6431
0.668906,-0.343799,2.536,2.64517
0.677137,-0.343799,2.536,2.64726
0.685368,-0.343799,2.536,2.64938
0.688403,-0.341223,2.517,2.63166
0.696572,-0.341223,2.517,2.63381
0.704742,-0.341223,2.517,2.63598
0.712911,-0.341223,2.517,2.63817
0.726524,-0.343799,2.536,2.66033
0.734755,-0.343799,2.536,2.66259
0.742987,-0.343799,2.536,2.66487
0.751218,-0.343799,2.536,2.66717
0.759449,-0.343799,2.536,2.6695
0.76768,-0.343799,2.536,2.67186
0.775912,-0.343799,2.536,2.67423
0.784143,-0.343799,2.536,2.67663
0.792374,-0.343799,2.536,2.67906
0.800605,-0.343799,2.536,2.6815
0.808836,-0.343799,2.536,2.68397
0.817068,-0.343799,2.536,2.68646
0.819116,-0.341223,2.517,2.66883
0.827285,-0.341223,2.517,2.67135
0.835455,-0.341223,2.517,2.67389
0.843624,-0.341223,2.517,2.67646
0.845702,-0.338783,2.499,2.65988
0.853814,-0.338783,2.499,2.66247
0.861925,-0.338783,2.499,2.66509
0.870036,-0.338783,2.499,2.66772
0.871822,-0.336342,2.481,2.65114
0.879874,-0.336342,2.481,2.6538
0.887927,-0.336342,2.481,2.65648
0.889479,-0.333902,2.463,2.63989
0.897474,-0.333902,2.463,2.6426
0.905468,-0.333902,2.463,2.64532
0.906787,-0.331462,2.445,2.62872
0.914722,-0.331462,2.445,2.63147
0.922658,-0.331462,2.445,2.63423
0.930594,-0.331462,2.445,2.63702
0.93853,-0.331462,2.445,2.63984
0.946466,-0.331462,2.445,2.64267
0.947766,-0.329157,2.428,2.62713
0.955646,-0.329157,2.428,2.62998
0.970273,-0.331462,2.445,2.65129
0.978209,-0.331462,2.445,2.6542
0.986145,-0.331462,2.445,2.65714
0.994081,-0.331462,2.445,2.66009
1.00202,-0.331462,2.445,2.66307
1.01739,-0.333902,2.463,2.68569
1.02538,-0.333902,2.463,2.68873
1.03338,-0.333902,2.463,2.69179
nan,nan,nan,NaN
nan,nan,nan,NaN
nan,nan,nan,NaN
1.11337,-0.34895,2.574,2.8261
1.12172,-0.34895,2.574,2.8294
1.1652,-0.359796,2.654,2.92076
1.17381,-0.359796,2.654,2.92421
1.21049,-0.368336,2.717,2.99718
1.22919,-0.371319,2.739,3.02505
1.24802,-0.374301,2.761,3.05299
1.25698,-0.374301,2.761,3.05667
1.27603,-0.377284,2.783,3.08475
1.3063,-0.38352,2.829,3.13955
1.31549,-0.38352,2.829,3.14338
1.32467,-0.38352,2.829,3.14723
1.34517,-0.386773,2.853,3.17784
1.35443,-0.386773,2.853,3.18177
1.37516,-0.390027,2.877,3.21252
1.3845,-0.390027,2.877,3.21653
1.38221,-0.386773,2.853,3.1937
1.39147,-0.386773,2.853,3.19772
1.40073,-0.386773,2.853,3.20176
1.40999,-0.386773,2.853,3.20582
1.41925,-0.386773,2.853,3.2099
1.44053,-0.390027,2.877,3.24104
1.44986,-0.390027,2.877,3.2452
1.4592,-0.390027,2.877,3.24939
1.46854,-0.390027,2.877,3.25359
1.49021,-0.393281,2.901,3.28499
1.49962,-0.393281,2.901,3.28928
1.53505,-0.400059,2.951,3.35035
1.60011,-0.414429,3.057,3.47525
nan,nan,nan,NaN
1.6952,-0.43368,3.199,3.64628
1.70558,-0.43368,3.199,3.65112
1.78302,-0.450626,3.324,3.79884
1.79381,-0.450626,3.324,3.80392
1.85834,-0.464047,3.423,3.92246
1.90768,-0.473537,3.493,4.00806
1.91902,-0.473537,3.493,4.01347
1.93036,-0.473537,3.493,4.0189
1.96171,-0.478417,3.529,4.06584
1.99385,-0.483433,3.566,4.11406
2.00542,-0.483433,3.566,4.11968
2.03849,-0.488585,3.604,4.16929
2.05019,-0.488585,3.604,4.17502
2.06189,-0.488585,3.604,4.18078
2.07358,-0.488585,3.604,4.18656
2.08528,-0.488585,3.604,4.19237
2.09698,-0.488585,3.604,4.1982
2.08644,-0.483433,3.566,4.15972
2.09802,-0.483433,3.566,4.16554
2.10959,-0.483433,3.566,4.17138
2.09916,-0.478417,3.529,4.13391
2.06815,-0.468792,3.458,4.05645
2.07937,-0.468792,3.458,4.06218
2.06944,-0.464047,3.423,4.02676
2.03982,-0.454964,3.356,3.95356
2.05072,-0.454964,3.356,3.95919
2.04195,-0.450626,3.324,3.92703
2.01322,-0.441949,3.26,3.85694
2.0238,-0.441949,3.26,3.86247
1.99631,-0.43368,3.199,3.79565
1.93456,-0.41809,3.084,3.66447
1.94457,-0.41809,3.084,3.66977
1.92035,-0.410769,3.03,3.61073
1.91299,-0.407109,3.003,3.58375
1.92273,-0.407109,3.003,3.58896
1.89902,-0.400059,2.951,3.53196
1.87626,-0.393281,2.901,3.47719
1.88567,-0.393281,2.901,3.48228
1.87941,-0.390027,2.877,3.45853
1.85724,-0.38352,2.829,3.40583
1.85125,-0.380402,2.806,3.38311
1.86035,-0.380402,2.806,3.38811
1.85414,-0.377284,2.783,3.3653
1.84844,-0.374301,2.761,3.34365
1.8574,-0.374301,2.761,3.34861
1.85149,-0.371319,2.739,3.32686
1.84544,-0.368336,2.717,3.30506
-2.32817,-0.444074,3.356,4.10856
-2.31727,-0.444074,3.356,4.1024
-2.28439,-0.43984,3.324,4.0572
-2.2736,-0.43984,3.324,4.05114
-2.26281,-0.43984,3.324,4.04509
-2.2737,-0.444074,3.356,4.07795
-2.26281,-0.444074,3.356,4.07189
-2.23045,-0.43984,3.324,4.02707
-2.21966,-0.43984,3.324,4.02111
-2.20887,-0.43984,3.324,4.01516
-2.19808,-0.43984,3.324,4.00924
-2.18729,-0.43984,3.324,4.00333
-2.1765,-0.43984,3.324,3.99745
-2.18656,-0.444074,3.356,4.03001
-2.17567,-0.444074,3.356,4.02411
-2.16478,-0.444074,3.356,4.01823
-2.15388,-0.444074,3.356,4.01237
-2.14299,-0.444074,3.356,4.00654
-2.1321,-0.444074,3.356,4.00072
-2.1212,-0.444074,3.356,3.99493
-2.13106,-0.448441,3.389,4.02838
-2.12006,-0.448441,3.389,4.02257
-2.10906,-0.448441,3.389,4.01679
-2.07763,-0.444074,3.356,3.97196
-2.06674,-0.444074,3.356,3.96628
-2.05585,-0.444074,3.356,3.96061
-2.04496,-0.444074,3.356,3.95497
-2.03406,-0.444074,3.356,3.94935
-2.02317,-0.444074,3.356,3.94375
-2.01228,-0.444074,3.356,3.93817
-2.00138,-0.444074,3.356,3.93262
-1.99049,-0.444074,3.356,3.92709
-1.9796,-0.444074,3.356,3.92158
nan,nan,nan,NaN
nan,nan,nan,NaN
nan,nan,nan,NaN
nan,nan,nan,NaN
nan,nan,nan,NaN
nan,nan,nan,NaN
nan,nan,nan,NaN
nan,nan,nan,NaN
nan,nan,nan,NaN
nan,nan,nan,NaN
nan,nan,nan,NaN
nan,nan,nan,NaN
nan,nan,nan,NaN
nan,nan,nan,NaN
nan,nan,nan,NaN
nan,nan,nan,NaN
nan,nan,nan,NaN
nan,nan,nan,NaN
nan,nan,nan,NaN
nan,nan,nan,NaN
nan,nan,nan,NaN
nan,nan,nan,NaN
nan,nan,nan,NaN
nan,nan,nan,NaN
nan,nan,nan,NaN
nan,nan,nan,NaN
nan,nan,nan,NaN
nan,nan,nan,NaN
nan,nan,nan,NaN
-1.17066,-0.31453,2.377,2.66824
-1.16295,-0.31453,2.377,2.66487
-1.15523,-0.31453,2.377,2.66151
-1.14752,-0.31453,2.377,2.65817
-1.1398,-0.31453,2.377,2.65485
-1.13209,-0.31453,2.377,2.65154
-1.12437,-0.31453,2.377,2.64826
-1.11666,-0.31453,2.377,2.64499
-1.10894,-0.31453,2.377,2.64174
-1.10123,-0.31453,2.377,2.63851
-1.09351,-0.31453,2.377,2.6353
-1.0858,-0.31453,2.377,2.63211
-1.07808,-0.31453,2.377,2.62894
-1.07037,-0.31453,2.377,2.62578
-1.06265,-0.31453,2.377,2.62265
-1.04784,-0.312413,2.361,2.6019
-1.04017,-0.312413,2.361,2.59882
-1.03251,-0.312413,2.361,2.59577
-1.02485,-0.312413,2.361,2.59273
-1.01718,-0.312413,2.361,2.58971
-1.00952,-0.312413,2.361,2.58671
-1.00186,-0.312413,2.361,2.58373
-0.994193,-0.312413,2.361,2.58076
-0.986529,-0.312413,2.361,2.57782
-0.978866,-0.312413,2.361,2.5749
-0.971203,-0.312413,2.361,2.572
-0.96354,-0.312413,2.361,2.56911
-0.955876,-0.312413,2.361,2.56625
-0.948213,-0.312413,2.361,2.5634
-0.94055,-0.312413,2.361,2.56058
-0.932887,-0.312413,2.361,2.55777
-0.925224,-0.312413,2.361,2.55499
-0.91756,-0.312413,2.361,2.55222
-0.909897,-0.312413,2.361,2.54948
-0.902234,-0.312413,2.361,2.54675
-0.888508,-0.310296,2.345,2.52681
-0.880897,-0.310296,2.345,2.52414
-0.873286,-0.310296,2.345,2.52149
-0.865674,-0.310296,2.345,2.51887
-0.858063,-0.310296,2.345,2.51626
-0.850452,-0.310296,2.345,2.51368
-0.848591,-0.312413,2.361,2.52825
-0.840928,-0.312413,2.361,2.52568
-0.833265,-0.312413,2.361,2.52314
-0.825602,-0.312413,2.361,2.52062
-0.817938,-0.312413,2.361,2.51812
-0.810275,-0.312413,2.361,2.51564
-0.808051,-0.31453,2.377,2.53022
-0.800336,-0.31453,2.377,2.52777
-0.792621,-0.31453,2.377,2.52533
-0.790519,-0.31678,2.394,2.54097
-0.782749,-0.31678,2.394,2.53856
-0.774979,-0.31678,2.394,2.53617
-0.767208,-0.31678,2.394,2.53381
-0.764831,-0.319029,2.411,2.54944
-0.757005,-0.319029,2.411,2.54711
-0.74918,-0.319029,2.411,2.54479
-0.741354,-0.319029,2.411,2.5425
-0.733529,-0.319029,2.411,2.54023
-0.73082,-0.321279,2.428,2.55588
-0.722939,-0.321279,2.428,2.55363
-0.720065,-0.323528,2.445,2.56928
-0.712129,-0.323528,2.445,2.56707
-0.704194,-0.323528,2.445,2.56488
-0.696258,-0.323528,2.445,2.56271
-0.688322,-0.323528,2.445,2.56056
-0.680386,-0.323528,2.445,2.55844
-0.67245,-0.323528,2.445,2.55634
-0.664514,-0.323528,2.445,2.55427
-0.656578,-0.323528,2.445,2.55221
-0.648643,-0.323528,2.445,2.55018
-0.640707,-0.323528,2.445,2.54818
-0.632771,-0.323528,2.445,2.54619
-0.624835,-0.323528,2.445,2.54423
-0.616899,-0.323528,2.445,2.54229
-0.608963,-0.323528,2.445,2.54038
-0.605452,-0.32591,2.463,2.55718
-0.597458,-0.32591,2.463,2.5553
-0.589464,-0.32591,2.463,2.55344
-0.581469,-0.32591,2.463,2.55161
-0.573475,-0.32591,2.463,2.5498
-0.565481,-0.32591,2.463,2.54801
-0.557486,-0.32591,2.463,2.54625
-0.553508,-0.328292,2.481,2.56311
-0.545455,-0.328292,2.481,2.56138
-0.537403,-0.328292,2.481,2.55968
-0.52935,-0.328292,2.481,2.558
-0.521297,-0.328292,2.481,2.55634
-0.513244,-0.328292,2.481,2.55471
-0.508857,-0.330674,2.499,2.57163
-0.500746,-0.330674,2.499,2.57004
-0.492635,-0.330674,2.499,2.56847
-0.484524,-0.330674,2.499,2.56693
-0.479844,-0.333056,2.517,2.58389
-0.471674,-0.333056,2.517,2.58238
-0.463505,-0.333056,2.517,2.5809
-0.455335,-0.333056,2.517,2.57945
-0.447166,-0.333056,2.517,2.57802
-0.438996,-0.333056,2.517,2.57661
-0.434079,-0.33557,2.536,2.59467
-0.425848,-0.33557,2.536,2.59331
-0.417616,-0.33557,2.536,2.59197
-0.406318,-0.333056,2.517,2.57125
-0.398148,-0.333056,2.517,2.56997
-0.389979,-0.333056,2.517,2.56872
-0.381809,-0.333056,2.517,2.56749
-0.37364,-0.333056,2.517,2.56629
-0.36547,-0.333056,2.517,2.56511
-0.357301,-0.333056,2.517,2.56396
-0.349131,-0.333056,2.517,2.56283
-0.340961,-0.333056,2.517,2.56173
-0.330412,-0.330674,2.499,2.54235
-0.322301,-0.330674,2.499,2.5413
-0.31419,-0.330674,2.499,2.54029
-0.306079,-0.330674,2.499,2.5393
-0.295821,-0.328292,2.481,2.52005
-0.287769,-0.328292,2.481,2.51912
-0.279716,-0.328292,2.481,2.51821
-0.271663,-0.328292,2.481,2.51733
-0.26361,-0.328292,2.481,2.51647
-0.255558,-0.328292,2.481,2.51564
-0.247505,-0.328292,2.481,2.51484
-0.237715,-0.32591,2.463,2.49582
-0.229721,-0.32591,2.463,2.49507
-0.221726,-0.32591,2.463,2.49434
-0.213732,-0.32591,2.463,2.49365
-0.205738,-0.32591,2.463,2.49297
-0.197744,-0.32591,2.463,2.49233
-0.189749,-0.32591,2.463,2.4917
-0.181755,-0.32591,2.463,2.49111
-0.173761,-0.32591,2.463,2.49054
-0.165766,-0.32591,2.463,2.48999
-0.158925,-0.328292,2.481,2.50767
-0.150872,-0.328292,2.481,2.50717
-0.14282,-0.328292,2.481,2.5067
-0.134767,-0.328292,2.481,2.50625
-0.127634,-0.330674,2.499,2.52401
-0.119523,-0.330674,2.499,2.52361
-0.111411,-0.330674,2.499,2.52324
-0.104044,-0.333056,2.517,2.54107
-0.0958747,-0.333056,2.517,2.54075
-0.0877052,-0.333056,2.517,2.54045
-0.0795356,-0.333056,2.517,2.54019
-0.0713661,-0.333056,2.517,2.53994
-0.0631965,-0.333056,2.517,2.53973
-0.0554423,-0.33557,2.536,2.55871
-0.0475648,-0.338084,2.555,2.57771
-0.0392719,-0.338084,2.555,2.57757
-0.030979,-0.338084,2.555,2.57746
-0.0226861,-0.338084,2.555,2.57737
-0.0145003,-0.340598,2.574,2.59648
-0.00614571,-0.340598,2.574,2.59644
0.00220886,-0.340598,2.574,2.59644
0.0105634,-0.340598,2.574,2.59646
0.018918,-0.340598,2.574,2.59651
0.0274739,-0.343112,2.593,2.61575
0.0358901,-0.343112,2.593,2.61585
0.0443063,-0.343112,2.593,2.61598
0.0527226,-0.343112,2.593,2.61613
0.0611388,-0.343112,2.593,2.61632
0.069555,-0.343112,2.593,2.61653
0.0779713,-0.343112,2.593,2.61676
0.0863875,-0.343112,2.593,2.61703
0.095535,-0.345759,2.613,2.63751
0.104016,-0.345759,2.613,2.63783
0.112497,-0.345759,2.613,2.63818
0.120978,-0.345759,2.613,2.63855
0.12946,-0.345759,2.613,2.63895
0.137941,-0.345759,2.613,2.63938
0.146422,-0.345759,2.613,2.63984
0.154903,-0.345759,2.613,2.64032
0.163384,-0.345759,2.613,2.64084
0.171865,-0.345759,2.613,2.64137
0.180346,-0.345759,2.613,2.64194
0.188828,-0.345759,2.613,2.64253
0.197309,-0.345759,2.613,2.64315
0.20579,-0.345759,2.613,2.6438
0.214271,-0.345759,2.613,2.64447
0.222752,-0.345759,2.613,2.64517
0.231233,-0.345759,2.613,2.6459
0.239715,-0.345759,2.613,2.64665
0.248196,-0.345759,2.613,2.64744
0.256677,-0.345759,2.613,2.64825
0.265158,-0.345759,2.613,2.64908
0.273639,-0.345759,2.613,2.64994
0.28212,-0.345759,2.613,2.65083
0.292826,-0.348405,2.633,2.67204
0.301372,-0.348405,2.633,2.67299
0.307564,-0.345759,2.613,2.65366
0.316045,-0.345759,2.613,2.65466
0.324526,-0.345759,2.613,2.65568
0.330458,-0.343112,2.593,2.63639
0.338875,-0.343112,2.593,2.63746
0.347291,-0.343112,2.593,2.63856
0.355707,-0.343112,2.593,2.63968
0.361455,-0.340598,2.574,2.62148
0.36981,-0.340598,2.574,2.62264
0.375373,-0.338084,2.555,2.60446
0.383666,-0.338084,2.555,2.60567
0.391959,-0.338084,2.555,2.60691
0.400252,-0.338084,2.555,2.60817
0.408544,-0.338084,2.555,2.60945
0.416837,-0.338084,2.555,2.61076
0.42513,-0.338084,2.555,2.6121
0.433423,-0.338084,2.555,2.61346
0.441716,-0.338084,2.555,2.61485
0.450009,-0.338084,2.555,2.61626
0.458302,-0.338084,2.555,2.6177
0.466595,-0.338084,2.555,2.61917
0.478419,-0.340598,2.574,2.64015
0.486774,-0.340598,2.574,2.64167
0.491473,-0.338084,2.555,2.62371
0.499766,-0.338084,2.555,2.62528
0.508059,-0.338084,2.555,2.62687
0.520192,-0.340598,2.574,2.64803
0.532448,-0.343112,2.593,2.66925
0.540864,-0.343112,2.593,2.67094
0.545256,-0.340598,2.574,2.65307
0.55361,-0.340598,2.574,2.6548
0.561965,-0.340598,2.574,2.65656
0.566109,-0.338084,2.555,2.63871
0.574402,-0.338084,2.555,2.6405
0.582695,-0.338084,2.555,2.64232
0.590988,-0.338084,2.555,2.64416
0.599281,-0.338084,2.555,2.64603
0.607574,-0.338084,2.555,2.64792
0.611287,-0.33557,2.536,2.63013
0.619518,-0.33557,2.536,2.63205
0.627749,-0.33557,2.536,2.634
0.635981,-0.33557,2.536,2.63598
