0.0104854,0.242255,2.555,2.56648
0.0187783,0.242255,2.555,2.56653
0.0270712,0.242255,2.555,2.5666
0.0351011,0.240454,2.536,2.54762
0.0433324,0.240454,2.536,2.54774
0.0515636,0.240454,2.536,2.5479
0.0597948,0.240454,2.536,2.54808
0.0680261,0.240454,2.536,2.54828
0.0762573,0.240454,2.536,2.54852
0.0838555,0.238652,2.517,2.52968
0.0920251,0.238652,2.517,2.52996
0.100195,0.238652,2.517,2.53027
0.108364,0.238652,2.517,2.53061
0.1157,0.236945,2.499,2.51287
0.123811,0.236945,2.499,2.51326
0.131923,0.236945,2.499,2.51367
0.140034,0.236945,2.499,2.51411
0.148145,0.236945,2.499,2.51458
0.156256,0.236945,2.499,2.51507
0.164367,0.236945,2.499,2.51558
nan,nan,nan,NaN
nan,nan,nan,NaN
nan,nan,nan,NaN
nan,nan,nan,NaN
nan,nan,nan,NaN
nan,nan,nan,NaN
nan,nan,nan,NaN
nan,nan,nan,NaN
nan,nan,nan,NaN
nan,nan,nan,NaN
nan,nan,nan,NaN
nan,nan,nan,NaN
nan,nan,nan,NaN
nan,nan,nan,NaN
nan,nan,nan,NaN
nan,nan,nan,NaN
nan,nan,nan,NaN
nan,nan,nan,NaN
nan,nan,nan,NaN
nan,nan,nan,NaN
nan,nan,nan,NaN
nan,nan,nan,NaN
nan,nan,nan,NaN
nan,nan,nan,NaN
nan,nan,nan,NaN
nan,nan,nan,NaN
nan,nan,nan,NaN
nan,nan,nan,NaN
nan,nan,nan,NaN
nan,nan,nan,NaN
nan,nan,nan,NaN
0.414763,0.231825,2.445,2.49074
0.41976,0.230214,2.428,2.47475
0.427641,0.230214,2.428,2.4761
0.435521,0.230214,2.428,2.47747
0.443402,0.230214,2.428,2.47887
0.448123,0.228602,2.411,2.46292
0.455948,0.228602,2.411,2.46436
0.463774,0.228602,2.411,2.46582
0.471599,0.228602,2.411,2.4673
0.479425,0.228602,2.411,2.46881
0.48725,0.228602,2.411,2.47034
0.491585,0.22699,2.394,2.45447
0.499355,0.22699,2.394,2.45604
0.507126,0.22699,2.394,2.45763
0.514896,0.22699,2.394,2.45924
0.522667,0.22699,2.394,2.46088
0.52667,0.225378,2.377,2.44506
0.534385,0.225378,2.377,2.44673
0.5421,0.225378,2.377,2.44843
0.549816,0.225378,2.377,2.45015
0.550025,0.222344,2.345,2.41888
0.553832,0.220827,2.329,2.40411
0.561391,0.220827,2.329,2.40586
0.56895,0.220827,2.329,2.40764
0.557449,0.213526,2.252,2.32977
0.564759,0.213526,2.252,2.33153
0.561145,0.209449,2.209,2.28876
0.560854,0.206699,2.18,2.26046
0.56793,0.206699,2.18,2.26223
0.571577,0.205467,2.167,2.25051
0.57861,0.205467,2.167,2.25231
0.585644,0.205467,2.167,2.25413
0.588848,0.204139,2.153,2.24139
0.595836,0.204139,2.153,2.24323
0.602825,0.204139,2.153,2.2451
0.609813,0.204139,2.153,2.24699
0.616801,0.204139,2.153,2.24889
0.623789,0.204139,2.153,2.25082
0.634879,0.205467,2.167,2.26742
0.641912,0.205467,2.167,2.2694
0.652839,0.206699,2.18,2.28502
0.664152,0.208027,2.194,2.30174
0.671274,0.208027,2.194,2.30381
0.678395,0.208027,2.194,2.30589
0.685516,0.208027,2.194,2.308
0.692637,0.208027,2.194,2.31012
0.704542,0.209449,2.209,2.32807
0.711712,0.209449,2.209,2.33025
0.718882,0.209449,2.209,2.33245
0.726052,0.209449,2.209,2.33467
0.733222,0.209449,2.209,2.33691
0.740392,0.209449,2.209,2.33917
0.747562,0.209449,2.209,2.34145
nan,nan,nan,NaN
nan,nan,nan,NaN
nan,nan,nan,NaN
nan,nan,nan,NaN
0.831643,0.222344,2.345,2.49802
0.839254,0.222344,2.345,2.50056
0.846865,0.222344,2.345,2.50313
0.854477,0.222344,2.345,2.50571
0.862088,0.222344,2.345,2.50832
0.869699,0.222344,2.345,2.51094
0.87731,0.222344,2.345,2.51359
0.884922,0.222344,2.345,2.51626
0.886443,0.220827,2.329,2.50176
0.894003,0.220827,2.329,2.50445
0.901562,0.220827,2.329,2.50715
0.909121,0.220827,2.329,2.50988
0.922978,0.222344,2.345,2.52989
0.930589,0.222344,2.345,2.53268
nan,nan,nan,NaN
0.952265,0.223861,2.361,2.55563
0.959929,0.223861,2.361,2.5585
0.967592,0.223861,2.361,2.56138
0.975255,0.223861,2.361,2.56429
0.989579,0.225378,2.377,2.58461
1.00443,0.22699,2.394,2.60608
1.0122,0.22699,2.394,2.60908
1.03445,0.230214,2.428,2.6492
1.04233,0.230214,2.428,2.65229
1.05021,0.230214,2.428,2.6554
1.0581,0.230214,2.428,2.65852
1.07344,0.231825,2.445,2.68031
1.08138,0.231825,2.445,2.68349
1.08931,0.231825,2.445,2.6867
1.10533,0.233532,2.463,2.70973
1.11332,0.233532,2.463,2.713
1.11312,0.231825,2.445,2.69644
1.12105,0.231825,2.445,2.69973
1.1373,0.233532,2.463,2.72293
1.1453,0.233532,2.463,2.72628
1.15329,0.233532,2.463,2.72965
1.16129,0.233532,2.463,2.73304
1.16928,0.233532,2.463,2.73644
1.17727,0.233532,2.463,2.73987
1.18527,0.233532,2.463,2.74331
1.20198,0.235239,2.481,2.76685
1.21004,0.235239,2.481,2.77036
1.21809,0.235239,2.481,2.77389
1.22614,0.235239,2.481,2.77743
1.23419,0.235239,2.481,2.781
1.24225,0.235239,2.481,2.78458
1.25937,0.236945,2.499,2.80841
1.26748,0.236945,2.499,2.81206
1.27559,0.236945,2.499,2.81572
1.2837,0.236945,2.499,2.8194
1.30112,0.238652,2.517,2.84344
1.30929,0.238652,2.517,2.84719
1.31746,0.238652,2.517,2.85095
1.33563,0.240454,2.536,2.87629
1.34387,0.240454,2.536,2.88012
1.36223,0.242255,2.555,2.90558
1.38071,0.244057,2.574,2.93111
1.38907,0.244057,2.574,2.93505
1.40774,0.245858,2.593,2.96071
1.42708,0.247754,2.613,2.98759
1.45808,0.251642,2.654,3.03859
1.4667,0.251642,2.654,3.04274
1.48698,0.253633,2.675,3.07101
1.51915,0.257615,2.717,3.1235
1.52797,0.257615,2.717,3.1278
1.54923,0.259701,2.739,3.15748
1.57064,0.261787,2.761,3.18725
1.5796,0.261787,2.761,3.19167
1.58856,0.261787,2.761,3.19612
1.59752,0.261787,2.761,3.20058
1.61928,0.263873,2.783,3.2306
1.61544,0.261787,2.761,3.20957
1.6244,0.261787,2.761,3.21409
1.63337,0.261787,2.761,3.21862
1.64233,0.261787,2.761,3.22318
1.63813,0.259701,2.739,3.20204
1.64702,0.259701,2.739,3.20659
1.64261,0.257615,2.717,3.18538
1.65143,0.257615,2.717,3.18993
1.66025,0.257615,2.717,3.19451
1.64327,0.253633,2.675,3.14965
1.63898,0.251642,2.654,3.12942
1.64759,0.251642,2.654,3.13394
1.63062,0.247754,2.613,3.09
1.62656,0.245858,2.593,3.0708
1.63497,0.245858,2.593,3.07526
1.61931,0.242255,2.555,3.03461
1.6155,0.240454,2.536,3.01645
1.61156,0.238652,2.517,2.99823
1.61973,0.238652,2.517,3.00263
1.60462,0.235239,2.481,2.96403
1.61267,0.235239,2.481,2.9684
1.62072,0.235239,2.481,2.97278
1.61696,0.233532,2.463,2.95558
1.62495,0.233532,2.463,2.95996
1.63295,0.233532,2.463,2.96436
1.62895,0.231825,2.445,2.94707
1.63689,0.231825,2.445,2.95147
1.64482,0.231825,2.445,2.95588
1.64127,0.230214,2.428,2.93972
1.64915,0.230214,2.428,2.94412
-1.78567,0.252409,2.574,3.1429
-1.76419,0.250546,2.555,3.11499
-1.7559,0.250546,2.555,3.1103
-1.74761,0.250546,2.555,3.10563
-1.75225,0.252409,2.574,3.12403
-1.7439,0.252409,2.574,3.11935
-1.74835,0.254272,2.593,3.13768
-1.73994,0.254272,2.593,3.133
-1.74487,0.256233,2.613,3.15246
-1.76364,0.260254,2.654,3.19717
-1.75502,0.260254,2.654,3.19242
-1.76023,0.262313,2.675,3.21292
-1.77905,0.266432,2.717,3.25854
-1.77023,0.266432,2.717,3.25373
-1.77567,0.268589,2.739,3.27525
-1.78097,0.270746,2.761,3.29671
-1.78613,0.272904,2.783,3.31811
-1.7771,0.272904,2.783,3.31325
-1.78268,0.275159,2.806,3.33576
-1.77357,0.275159,2.806,3.3309
-1.75,0.272904,2.783,3.2988
-1.74097,0.272904,2.783,3.29401
-1.73193,0.272904,2.783,3.28925
-1.70928,0.270746,2.761,3.25854
-1.68677,0.268589,2.739,3.22792
-1.6644,0.266432,2.717,3.19739
-1.65559,0.266432,2.717,3.19281
-1.62131,0.262313,2.675,3.13896
-1.57525,0.256233,2.613,3.06184
-1.56677,0.256233,2.613,3.05748
-1.53503,0.252409,2.574,3.00758
-1.50414,0.248683,2.536,2.95898
-1.49591,0.248683,2.536,2.95481
-1.44485,0.241524,2.463,2.86571
-1.41644,0.238092,2.428,2.82102
-1.40856,0.238092,2.428,2.81708
-1.38106,0.234758,2.394,2.77375
-1.35436,0.231522,2.361,2.73171
-1.3467,0.231522,2.361,2.72792
-1.32996,0.229953,2.345,2.70568
-1.32235,0.229953,2.345,2.70195
-1.31474,0.229953,2.345,2.69823
-1.29821,0.228384,2.329,2.67614
-1.29065,0.228384,2.329,2.67249
-1.28309,0.228384,2.329,2.66884
-1.2843,0.229953,2.345,2.68353
-1.27668,0.229953,2.345,2.67989
-1.28639,0.233091,2.377,2.7128
-1.29697,0.236425,2.411,2.7479
-1.28914,0.236425,2.411,2.74421
-1.29938,0.239759,2.445,2.77919
-1.31046,0.243289,2.481,2.81636
-1.31186,0.245054,2.499,2.83302
-1.30375,0.245054,2.499,2.82928
-1.31482,0.248683,2.536,2.86738
-1.32617,0.252409,2.574,2.90653
-1.31781,0.252409,2.574,2.90273
-1.3293,0.256233,2.613,2.94287
-1.33093,0.258194,2.633,2.96154
-1.33293,0.260254,2.654,2.9813
-1.32431,0.260254,2.654,2.97746
-1.30529,0.258194,2.633,2.95011
-1.29674,0.258194,2.633,2.94634
-1.2882,0.258194,2.633,2.94258
-1.26993,0.256233,2.613,2.91653
-1.26145,0.256233,2.613,2.91285
-1.24338,0.254272,2.593,2.88692
-1.23496,0.254272,2.593,2.8833
-1.22654,0.254272,2.593,2.87971
-1.20028,0.250546,2.555,2.83398
-1.18312,0.248683,2.536,2.80943
-1.16609,0.246819,2.517,2.78495
-1.14964,0.245054,2.499,2.76165
-1.1333,0.243289,2.481,2.73842
-1.11709,0.241524,2.463,2.71525
-1.10909,0.241524,2.463,2.71197
-1.08545,0.238092,2.428,2.67022
-1.07757,0.238092,2.428,2.66703
-1.06969,0.238092,2.428,2.66385
-1.05437,0.236425,2.411,2.64207
-1.03917,0.234758,2.394,2.62035
-1.0314,0.234758,2.394,2.61728
-1.02363,0.234758,2.394,2.61422
-1.00865,0.233091,2.377,2.59265
-1.00093,0.233091,2.377,2.58966
-0.993215,0.233091,2.377,2.58668
-0.9855,0.233091,2.377,2.58373
-0.977785,0.233091,2.377,2.5808
-0.970069,0.233091,2.377,2.57789
-0.962354,0.233091,2.377,2.57499
-0.954639,0.233091,2.377,2.57212
-0.946924,0.233091,2.377,2.56927
-0.939209,0.233091,2.377,2.56643
-0.931494,0.233091,2.377,2.56362
-0.923778,0.233091,2.377,2.56083
-0.916063,0.233091,2.377,2.55805
-0.908348,0.233091,2.377,2.5553
-0.900633,0.233091,2.377,2.55257
-0.892918,0.233091,2.377,2.54986
-0.885203,0.233091,2.377,2.54716
-0.877488,0.233091,2.377,2.54449
-0.869772,0.233091,2.377,2.54184
-0.862057,0.233091,2.377,2.53921
-0.848591,0.231522,2.361,2.51953
-0.840928,0.231522,2.361,2.51696
-0.833265,0.231522,2.361,2.51441
-0.825602,0.231522,2.361,2.51188
-0.817938,0.231522,2.361,2.50937
-0.810275,0.231522,2.361,2.50688
-0.802612,0.231522,2.361,2.50442
-0.794949,0.231522,2.361,2.50197
-0.787286,0.231522,2.361,2.49955
-0.779622,0.231522,2.361,2.49715
-0.771959,0.231522,2.361,2.49476
-0.769475,0.233091,2.377,2.50929
-0.76176,0.233091,2.377,2.50694
-0.754045,0.233091,2.377,2.5046
-0.74633,0.233091,2.377,2.50229
-0.738615,0.233091,2.377,2.5
-0.736127,0.234758,2.394,2.5156
-0.733529,0.236425,2.411,2.53118
-0.725703,0.236425,2.411,2.52893
-0.717878,0.236425,2.411,2.52669
-0.710052,0.236425,2.411,2.52448
-0.707178,0.238092,2.428,2.54007
-0.699297,0.238092,2.428,2.53789
-0.691417,0.238092,2.428,2.53573
-0.688322,0.239759,2.445,2.55133
-0.680386,0.239759,2.445,2.5492
-0.67245,0.239759,2.445,2.5471
-0.664514,0.239759,2.445,2.54501
-0.661412,0.241524,2.463,2.56167
-0.653418,0.241524,2.463,2.55962
-0.645424,0.241524,2.463,2.55759
-0.637429,0.241524,2.463,2.55559
-0.629435,0.241524,2.463,2.5536
-0.621441,0.241524,2.463,2.55164
-0.613446,0.241524,2.463,2.54971
-0.605452,0.241524,2.463,2.5478
-0.601824,0.243289,2.481,2.56452
-0.593771,0.243289,2.481,2.56264
-0.585719,0.243289,2.481,2.56078
-0.577666,0.243289,2.481,2.55895
-0.569613,0.243289,2.481,2.55715
-0.561561,0.243289,2.481,2.55537
-0.553508,0.243289,2.481,2.55361
-0.545455,0.243289,2.481,2.55188
-0.537403,0.243289,2.481,2.55017
-0.52935,0.243289,2.481,2.54848
-0.525079,0.245054,2.499,2.5653
-0.516968,0.245054,2.499,2.56365
-0.508857,0.245054,2.499,2.56203
-0.500746,0.245054,2.499,2.56043
-0.492635,0.245054,2.499,2.55886
-0.488013,0.246819,2.517,2.57573
-0.479844,0.246819,2.517,2.57419
-0.471674,0.246819,2.517,2.57268
-0.463505,0.246819,2.517,2.5712
-0.455335,0.246819,2.517,2.56974
-0.447166,0.246819,2.517,2.5683
-0.438996,0.246819,2.517,2.56689
-0.430827,0.246819,2.517,2.56551
-0.425848,0.248683,2.536,2.5835
-0.417616,0.248683,2.536,2.58216
-0.409385,0.248683,2.536,2.58084
-0.398148,0.246819,2.517,2.56022
-0.389979,0.246819,2.517,2.55896
-0.384691,0.248683,2.536,2.57704
-0.37646,0.248683,2.536,2.57582
-0.368229,0.248683,2.536,2.57463
-0.359998,0.248683,2.536,2.57347
-0.351766,0.248683,2.536,2.57233
-0.343535,0.248683,2.536,2.57122
-0.332792,0.246819,2.517,2.55087
-0.324622,0.246819,2.517,2.54982
-0.316453,0.246819,2.517,2.54879
-0.31061,0.248683,2.536,2.56703
-0.302379,0.248683,2.536,2.56604
-0.294148,0.248683,2.536,2.56509
-0.285917,0.248683,2.536,2.56415
-0.277685,0.248683,2.536,2.56325
-0.269454,0.248683,2.536,2.56237
-0.26318,0.250546,2.555,2.58071
-0.254887,0.250546,2.555,2.57988
-0.246594,0.250546,2.555,2.57907
-0.238301,0.250546,2.555,2.57829
-0.230009,0.250546,2.555,2.57754
-0.223364,0.252409,2.574,2.59597
-0.21501,0.252409,2.574,2.59527
-0.20513,0.250546,2.555,2.57544
-0.196837,0.250546,2.555,2.57479
-0.188544,0.250546,2.555,2.57417
-0.180251,0.250546,2.555,2.57358
-0.171958,0.250546,2.555,2.57301
-0.163665,0.250546,2.555,2.57247
-0.155372,0.250546,2.555,2.57195
-0.14708,0.250546,2.555,2.57146
-0.138787,0.250546,2.555,2.571
-0.130494,0.250546,2.555,2.57057
-0.122201,0.250546,2.555,2.57016
-0.113908,0.250546,2.555,2.56978
-0.105615,0.250546,2.555,2.56943
-0.0980459,0.252409,2.574,2.5882
-0.0896914,0.252409,2.574,2.5879
-0.0813368,0.252409,2.574,2.58763
-0.0729822,0.252409,2.574,2.58738
-0.0646277,0.252409,2.574,2.58715
-0.0562731,0.252409,2.574,2.58696
-0.0479185,0.252409,2.574,2.58679
-0.039564,0.252409,2.574,2.58665
-0.0312094,0.252409,2.574,2.58653
-0.0228548,0.252409,2.574,2.58645
-0.0145003,0.252409,2.574,2.58639
-0.00614571,0.252409,2.574,2.58635
0.00219255,0.250546,2.555,2.56726
0.0104854,0.250546,2.555,2.56728
0.0187783,0.250546,2.555,2.56732
0.0270712,0.250546,2.555,2.5674
0.0351011,0.248683,2.536,2.54841
0.0433324,0.248683,2.536,2.54853
0.0515636,0.248683,2.536,2.54869
0.0597948,0.248683,2.536,2.54887
0.0680261,0.248683,2.536,2.54907
0.0762573,0.248683,2.536,2.5493
0.0838555,0.246819,2.517,2.53046
0.0920251,0.246819,2.517,2.53075
0.100195,0.246819,2.517,2.53106
0.108364,0.246819,2.517,2.53139
0.1157,0.245054,2.499,2.51365
0.123811,0.245054,2.499,2.51404
0.131923,0.245054,2.499,2.51445
0.140034,0.245054,2.499,2.51489
0.148145,0.245054,2.499,2.51535
0.156256,0.245054,2.499,2.51584
0.164367,0.245054,2.499,2.51636
nan,nan,nan,NaN
nan,nan,nan,NaN
nan,nan,nan,NaN
nan,nan,nan,NaN
nan,nan,nan,NaN
nan,nan,nan,NaN
nan,nan,nan,NaN
nan,nan,nan,NaN
nan,nan,nan,NaN
nan,nan,nan,NaN
nan,nan,nan,NaN
nan,nan,nan,NaN
nan,nan,nan,NaN
nan,nan,nan,NaN
nan,nan,nan,NaN
nan,nan,nan,NaN
nan,nan,nan,NaN
nan,nan,nan,NaN
nan,nan,nan,NaN
nan,nan,nan,NaN
nan,nan,nan,NaN
nan,nan,nan,NaN
nan,nan,nan,NaN
nan,nan,nan,NaN
nan,nan,nan,NaN
nan,nan,nan,NaN
nan,nan,nan,NaN
nan,nan,nan,NaN
nan,nan,nan,NaN
nan,nan,nan,NaN
nan,nan,nan,NaN
0.414763,0.239759,2.445,2.49149
0.41976,0.238092,2.428,2.47549
0.427641,0.238092,2.428,2.47684
0.435521,0.238092,2.428,2.47822
0.443402,0.238092,2.428,2.47961
0.448123,0.236425,2.411,2.46366
0.455948,0.236425,2.411,2.4651
0.463774,0.236425,2.411,2.46656
0.471599,0.236425,2.411,2.46804
0.479425,0.236425,2.411,2.46955
0.48725,0.236425,2.411,2.47108
0.491585,0.234758,2.394,2.4552
0.499355,0.234758,2.394,2.45677
0.507126,0.234758,2.394,2.45836
0.514896,0.234758,2.394,2.45997
0.522667,0.234758,2.394,2.46161
0.52667,0.233091,2.377,2.44578
0.534385,0.233091,2.377,2.44745
0.538451,0.231522,2.361,2.43266
0.546115,0.231522,2.361,2.43437
0.550025,0.229953,2.345,2.41959
0.553832,0.228384,2.329,2.40481
0.561391,0.228384,2.329,2.40657
0.56895,0.228384,2.329,2.40834
0.561162,0.222304,2.267,2.34598
0.568521,0.222304,2.267,2.34775
0.564701,0.217989,2.223,2.30394
0.564456,0.215146,2.194,2.27564
0.571577,0.215146,2.194,2.27742
0.575006,0.213773,2.18,2.26467
0.57861,0.212498,2.167,2.25296
0.585644,0.212498,2.167,2.25478
0.588848,0.211125,2.153,2.24204
0.595836,0.211125,2.153,2.24388
0.602825,0.211125,2.153,2.24575
0.609813,0.211125,2.153,2.24763
0.616801,0.211125,2.153,2.24954
0.623789,0.211125,2.153,2.25147
0.634879,0.212498,2.167,2.26806
0.641912,0.212498,2.167,2.27004
0.648946,0.212498,2.167,2.27204
0.655979,0.212498,2.167,2.27406
0.663013,0.212498,2.167,2.2761
0.670046,0.212498,2.167,2.27816
0.67708,0.212498,2.167,2.28024
0.684113,0.212498,2.167,2.28234
0.695293,0.213773,2.18,2.29816
0.702369,0.213773,2.18,2.30031
0.709445,0.213773,2.18,2.30248
0.712248,0.212498,2.167,2.29093
0.719281,0.212498,2.167,2.29312
0.726315,0.212498,2.167,2.29534
0.733348,0.212498,2.167,2.29757
nan,nan,nan,NaN
nan,nan,nan,NaN
nan,nan,nan,NaN
0.812787,0.226815,2.313,2.46212
0.820294,0.226815,2.313,2.46461
0.833528,0.228384,2.329,2.48418
0.841087,0.228384,2.329,2.48673
0.848646,0.228384,2.329,2.4893
0.856206,0.228384,2.329,2.49188
0.863765,0.228384,2.329,2.49449
0.871324,0.228384,2.329,2.49712
0.878884,0.228384,2.329,2.49977
0.880353,0.226815,2.313,2.48524
0.887861,0.226815,2.313,2.48791
0.895368,0.226815,2.313,2.4906
0.902876,0.226815,2.313,2.49331
0.916681,0.228384,2.329,2.51331
0.930589,0.229953,2.345,2.53336
nan,nan,nan,NaN
0.952265,0.231522,2.361,2.55631
0.959929,0.231522,2.361,2.55918
0.967592,0.231522,2.361,2.56206
0.975255,0.231522,2.361,2.56497
0.989579,0.233091,2.377,2.58529
0.997294,0.233091,2.377,2.58825
1.00501,0.233091,2.377,2.59124
1.01997,0.234758,2.394,2.61279
1.03504,0.236425,2.411,2.63441
1.05021,0.238092,2.428,2.65609
1.0581,0.238092,2.428,2.65922
1.06598,0.238092,2.428,2.66236
1.07386,0.238092,2.428,2.66553
1.08174,0.238092,2.428,2.66871
1.08962,0.238092,2.428,2.67192
1.10518,0.239759,2.445,2.69387
1.11312,0.239759,2.445,2.69714
1.12105,0.239759,2.445,2.70042
1.1373,0.241524,2.463,2.72363
1.1453,0.241524,2.463,2.72698
1.15329,0.241524,2.463,2.73034
1.16129,0.241524,2.463,2.73373
1.16928,0.241524,2.463,2.73714
1.17727,0.241524,2.463,2.74056
1.18527,0.241524,2.463,2.744
1.20198,0.243289,2.481,2.76755
1.21004,0.243289,2.481,2.77105
1.21809,0.243289,2.481,2.77458
1.22614,0.243289,2.481,2.77812
1.23419,0.243289,2.481,2.78169
1.24225,0.243289,2.481,2.78527
1.25937,0.245054,2.499,2.8091
1.26748,0.245054,2.499,2.81275
1.27559,0.245054,2.499,2.81641
1.2837,0.245054,2.499,2.8201
1.30112,0.246819,2.517,2.84414
1.30929,0.246819,2.517,2.84788
1.31746,0.246819,2.517,2.85165
1.33563,0.248683,2.536,2.87699
1.34387,0.248683,2.536,2.88082
1.36223,0.250546,2.555,2.90628
1.38071,0.252409,2.574,2.93182
1.38907,0.252409,2.574,2.93576
1.40774,0.254272,2.593,2.96142
1.42708,0.256233,2.613,2.98831
1.45808,0.260254,2.654,3.03932
1.4667,0.260254,2.654,3.04346
1.48698,0.262313,2.675,3.07173
1.51915,0.266432,2.717,3.12424
1.52797,0.266432,2.717,3.12854
1.54923,0.268589,2.739,3.15822
1.57064,0.270746,2.761,3.188
1.5796,0.270746,2.761,3.19242
1.58856,0.270746,2.761,3.19686
1.59752,0.270746,2.761,3.20133
1.61928,0.272904,2.783,3.23135
1.61544,0.270746,2.761,3.21031
1.6244,0.270746,2.761,3.21483
1.63337,0.270746,2.761,3.21936
1.64233,0.270746,2.761,3.22392
1.63813,0.268589,2.739,3.20277
1.64702,0.268589,2.739,3.20733
1.64261,0.266432,2.717,3.1861
1.65143,0.266432,2.717,3.19066
1.66025,0.266432,2.717,3.19523
1.64327,0.262313,2.675,3.15036
1.63898,0.260254,2.654,3.13013
1.64759,0.260254,2.654,3.13465
1.63062,0.256233,2.613,3.09069
1.62656,0.254272,2.593,3.07148
1.63497,0.254272,2.593,3.07595
1.61931,0.250546,2.555,3.03528
1.6155,0.248683,2.536,3.01711
1.61156,0.246819,2.517,2.99889
1.61973,0.246819,2.517,3.00329
1.60462,0.243289,2.481,2.96468
1.60097,0.241524,2.463,2.94751
1.60897,0.241524,2.463,2.95186
1.61696,0.241524,2.463,2.95622
1.61308,0.239759,2.445,2.93897
1.62101,0.239759,2.445,2.94333
1.62895,0.239759,2.445,2.94771
1.6255,0.238092,2.428,2.93158
1.63339,0.238092,2.428,2.93595
1.64127,0.238092,2.428,2.94034
1.6376,0.236425,2.411,2.92413
-1.77249,0.258836,2.555,3.12037
-1.76419,0.258836,2.555,3.11567
-1.7559,0.258836,2.555,3.11098
-1.74761,0.258836,2.555,3.10631
-1.72638,0.256911,2.536,3.07859
-1.71815,0.256911,2.536,3.07398
-1.73554,0.260761,2.574,3.11538
-1.72719,0.260761,2.574,3.11073
-1.74487,0.264712,2.613,3.15316
-1.76364,0.268866,2.654,3.19788
-1.75502,0.268866,2.654,3.19314
-1.76023,0.270993,2.675,3.21364
-1.7653,0.27312,2.696,3.23408
-1.75655,0.27312,2.696,3.22931
-1.77567,0.277477,2.739,3.27599
-1.78097,0.279705,2.761,3.29746
-1.78613,0.281934,2.783,3.31886
-1.7771,0.281934,2.783,3.31401
-1.78268,0.284264,2.806,3.33652
-1.77357,0.284264,2.806,3.33167
-1.75,0.281934,2.783,3.29956
-1.74097,0.281934,2.783,3.29478
-1.73193,0.281934,2.783,3.29001
-1.70928,0.279705,2.761,3.25929
-1.68677,0.277477,2.739,3.22867
-1.6644,0.275248,2.717,3.19814
-1.65559,0.275248,2.717,3.19356
-1.62131,0.270993,2.675,3.1397
-1.57525,0.264712,2.613,3.06256
-1.56677,0.264712,2.613,3.0582
-1.53503,0.260761,2.574,3.00829
-1.50414,0.256911,2.536,2.95968
-1.49591,0.256911,2.536,2.95551
-1.44485,0.249516,2.463,2.8664
-1.41644,0.24597,2.428,2.8217
-1.40856,0.24597,2.428,2.81775
-1.38106,0.242526,2.394,2.77442
-1.35436,0.239183,2.361,2.73237
-1.3467,0.239183,2.361,2.72858
-1.32996,0.237562,2.345,2.70634
-1.32235,0.237562,2.345,2.70261
-1.30577,0.235941,2.329,2.68047
-1.29821,0.235941,2.329,2.6768
-1.29065,0.235941,2.329,2.67314
-1.28309,0.235941,2.329,2.6695
-1.2843,0.237562,2.345,2.68419
-1.27668,0.237562,2.345,2.68056
-1.28639,0.240804,2.377,2.71347
-1.28782,0.242526,2.394,2.7292
-1.28005,0.242526,2.394,2.72554
-1.29938,0.247693,2.445,2.77989
-1.30096,0.249516,2.463,2.79663
-1.31186,0.253163,2.499,2.83374
-1.30375,0.253163,2.499,2.82999
-1.31482,0.256911,2.536,2.86811
-1.32617,0.260761,2.574,2.90727
-1.31781,0.260761,2.574,2.90346
-1.31912,0.262686,2.593,2.92109
-1.33093,0.266738,2.633,2.9623
-1.33293,0.268866,2.654,2.98206
-1.32431,0.268866,2.654,2.97822
-1.30529,0.266738,2.633,2.95087
-1.29674,0.266738,2.633,2.9471
-1.2882,0.266738,2.633,2.94335
-1.26993,0.264712,2.613,2.91729
-1.26145,0.264712,2.613,2.91361
-1.25297,0.264712,2.613,2.90994
-1.23496,0.262686,2.593,2.88406
-1.22654,0.262686,2.593,2.88046
-1.2092,0.260761,2.574,2.85581
-1.18312,0.256911,2.536,2.81017
-1.16609,0.254987,2.517,2.78569
-1.15792,0.254987,2.517,2.78228
-1.1333,0.25134,2.481,2.73914
-1.11709,0.249516,2.463,2.71597
-1.10909,0.249516,2.463,2.71269
-1.09305,0.247693,2.445,2.68964
-1.07757,0.24597,2.428,2.66774
-1.06969,0.24597,2.428,2.66457
-1.05437,0.244248,2.411,2.64278
-1.03917,0.242526,2.394,2.62105
-1.0314,0.242526,2.394,2.61798
-1.02363,0.242526,2.394,2.61493
-1.00865,0.240804,2.377,2.59335
-1.00093,0.240804,2.377,2.59036
-0.993215,0.240804,2.377,2.58739
-0.9855,0.240804,2.377,2.58444
-0.977785,0.240804,2.377,2.58151
-0.970069,0.240804,2.377,2.57859
-0.962354,0.240804,2.377,2.5757
-0.954639,0.240804,2.377,2.57283
-0.946924,0.240804,2.377,2.56998
-0.939209,0.240804,2.377,2.56714
-0.931494,0.240804,2.377,2.56433
-0.923778,0.240804,2.377,2.56154
-0.916063,0.240804,2.377,2.55877
-0.908348,0.240804,2.377,2.55602
-0.900633,0.240804,2.377,2.55328
-0.892918,0.240804,2.377,2.55057
-0.885203,0.240804,2.377,2.54788
-0.877488,0.240804,2.377,2.54521
-0.869772,0.240804,2.377,2.54256
-0.862057,0.240804,2.377,2.53993
-0.848591,0.239183,2.361,2.52025
-0.840928,0.239183,2.361,2.51768
-0.833265,0.239183,2.361,2.51513
-0.825602,0.239183,2.361,2.5126
-0.817938,0.239183,2.361,2.51009
-0.810275,0.239183,2.361,2.5076
-0.802612,0.239183,2.361,2.50514
-0.794949,0.239183,2.361,2.50269
-0.787286,0.239183,2.361,2.50027
-0.779622,0.239183,2.361,2.49787
-0.771959,0.239183,2.361,2.49549
-0.769475,0.240804,2.377,2.51002
-0.76176,0.240804,2.377,2.50767
-0.754045,0.240804,2.377,2.50533
-0.74633,0.240804,2.377,2.50302
-0.738615,0.240804,2.377,2.50073
-0.736127,0.242526,2.394,2.51633
-0.733529,0.244248,2.411,2.53192
-0.725703,0.244248,2.411,2.52967
-0.717878,0.244248,2.411,2.52743
-0.710052,0.244248,2.411,2.52522
-0.707178,0.24597,2.428,2.54082
-0.699297,0.24597,2.428,2.53864
-0.691417,0.24597,2.428,2.53648
-0.688322,0.247693,2.445,2.55209
-0.680386,0.247693,2.445,2.54996
-0.67245,0.247693,2.445,2.54786
-0.664514,0.247693,2.445,2.54577
-0.661412,0.249516,2.463,2.56244
-0.653418,0.249516,2.463,2.56039
-0.645424,0.249516,2.463,2.55836
-0.637429,0.249516,2.463,2.55635
-0.629435,0.249516,2.463,2.55437
-0.625982,0.25134,2.481,2.57107
-0.61793,0.25134,2.481,2.56912
-0.609877,0.25134,2.481,2.56719
-0.601824,0.25134,2.481,2.56529
-0.593771,0.25134,2.481,2.56342
-0.585719,0.25134,2.481,2.56156
-0.577666,0.25134,2.481,2.55973
-0.569613,0.25134,2.481,2.55793
-0.561561,0.25134,2.481,2.55615
-0.553508,0.25134,2.481,2.55439
-0.545455,0.25134,2.481,2.55266
-0.541301,0.253163,2.499,2.56946
-0.53319,0.253163,2.499,2.56776
-0.525079,0.253163,2.499,2.56609
-0.516968,0.253163,2.499,2.56444
-0.508857,0.253163,2.499,2.56282
-0.500746,0.253163,2.499,2.56122
-0.496183,0.254987,2.517,2.57808
-0.488013,0.254987,2.517,2.57652
-0.479844,0.254987,2.517,2.57499
-0.471674,0.254987,2.517,2.57348
-0.463505,0.254987,2.517,2.57199
-0.455335,0.254987,2.517,2.57053
-0.447166,0.254987,2.517,2.5691
-0.44231,0.256911,2.536,2.58707
-0.434079,0.256911,2.536,2.58568
-0.425848,0.256911,2.536,2.58431
-0.417616,0.256911,2.536,2.58296
-0.409385,0.256911,2.536,2.58165
-0.401154,0.256911,2.536,2.58035
-0.392923,0.256911,2.536,2.57909
-0.384691,0.256911,2.536,2.57785
-0.37646,0.256911,2.536,2.57663
-0.368229,0.256911,2.536,2.57544
-0.359998,0.256911,2.536,2.57428
-0.351766,0.256911,2.536,2.57314
-0.343535,0.256911,2.536,2.57203
-0.332792,0.254987,2.517,2.55168
-0.324622,0.254987,2.517,2.55062
-0.316453,0.254987,2.517,2.5496
-0.31061,0.256911,2.536,2.56784
-0.302379,0.256911,2.536,2.56685
-0.294148,0.256911,2.536,2.5659
-0.285917,0.256911,2.536,2.56497
-0.277685,0.256911,2.536,2.56406
-0.269454,0.256911,2.536,2.56318
-0.261223,0.256911,2.536,2.56233
-0.252992,0.256911,2.536,2.5615
-0.244761,0.256911,2.536,2.5607
-0.238301,0.258836,2.555,2.57911
-0.230009,0.258836,2.555,2.57836
-0.221716,0.258836,2.555,2.57763
-0.213423,0.258836,2.555,2.57693
-0.20513,0.258836,2.555,2.57626
-0.196837,0.258836,2.555,2.57561
-0.188544,0.258836,2.555,2.57499
-0.180251,0.258836,2.555,2.5744
-0.171958,0.258836,2.555,2.57383
-0.163665,0.258836,2.555,2.57329
-0.155372,0.258836,2.555,2.57277
-0.14708,0.258836,2.555,2.57229
-0.138787,0.258836,2.555,2.57182
-0.130494,0.258836,2.555,2.57139
-0.122201,0.258836,2.555,2.57098
-0.113908,0.258836,2.555,2.5706
-0.105615,0.258836,2.555,2.57025
-0.0980459,0.260761,2.574,2.58903
-0.0896914,0.260761,2.574,2.58873
-0.0813368,0.260761,2.574,2.58845
-0.0729822,0.260761,2.574,2.5882
-0.0646277,0.260761,2.574,2.58798
-0.0562731,0.260761,2.574,2.58779
-0.0479185,0.260761,2.574,2.58762
-0.039564,0.260761,2.574,2.58748
-0.0312094,0.260761,2.574,2.58736
-0.0228548,0.260761,2.574,2.58728
-0.0145003,0.260761,2.574,2.58722
-0.00614571,0.260761,2.574,2.58718
0.00219255,0.258836,2.555,2.56808
0.0104854,0.258836,2.555,2.5681
0.0187783,0.258836,2.555,2.56815
0.0270712,0.258836,2.555,2.56822
0.0351011,0.256911,2.536,2.54922
0.0433324,0.256911,2.536,2.54935
0.0515636,0.256911,2.536,2.5495
0.0597948,0.256911,2.536,2.54968
0.0680261,0.256911,2.536,2.54989
0.0762573,0.256911,2.536,2.55012
0.0838555,0.254987,2.517,2.53127
0.0920251,0.254987,2.517,2.53156
0.100195,0.254987,2.517,2.53187
0.108364,0.254987,2.517,2.5322
0.1157,0.253163,2.499,2.51445
0.123811,0.253163,2.499,2.51484
0.131923,0.253163,2.499,2.51525
0.140034,0.253163,2.499,2.51569
0.148145,0.253163,2.499,2.51616
nan,nan,nan,NaN
nan,nan,nan,NaN
nan,nan,nan,NaN
nan,nan,nan,NaN
nan,nan,nan,NaN
nan,nan,nan,NaN
nan,nan,nan,NaN
nan,nan,nan,NaN
nan,nan,nan,NaN
nan,nan,nan,NaN
nan,nan,nan,NaN
nan,nan,nan,NaN
nan,nan,nan,NaN
nan,nan,nan,NaN
nan,nan,nan,NaN
nan,nan,nan,NaN
nan,nan,nan,NaN
nan,nan,nan,NaN
nan,nan,nan,NaN
nan,nan,nan,NaN
nan,nan,nan,NaN
nan,nan,nan,NaN
nan,nan,nan,NaN
nan,nan,nan,NaN
nan,nan,nan,NaN
nan,nan,nan,NaN
nan,nan,nan,NaN
nan,nan,nan,NaN
nan,nan,nan,NaN
nan,nan,nan,NaN
nan,nan,nan,NaN
nan,nan,nan,NaN
nan,nan,nan,NaN
0.414763,0.247693,2.445,2.49227
0.41976,0.24597,2.428,2.47626
0.427641,0.24597,2.428,2.47761
0.435521,0.24597,2.428,2.47898
0.443402,0.24597,2.428,2.48038
0.451283,0.24597,2.428,2.4818
0.459163,0.24597,2.428,2.48325
0.463774,0.244248,2.411,2.46732
0.471599,0.244248,2.411,2.4688
0.479425,0.244248,2.411,2.47031
0.48725,0.244248,2.411,2.47184
0.491585,0.242526,2.394,2.45595
0.499355,0.242526,2.394,2.45752
0.507126,0.242526,2.394,2.45911
0.514896,0.242526,2.394,2.46073
0.522667,0.242526,2.394,2.46236
0.52667,0.240804,2.377,2.44653
0.534385,0.240804,2.377,2.4482
0.538451,0.239183,2.361,2.4334
0.546115,0.239183,2.361,2.43511
0.553778,0.239183,2.361,2.43684
0.561441,0.239183,2.361,2.4386
nan,nan,nan,NaN
0.565042,0.23432,2.313,2.39252
0.561162,0.22966,2.267,2.34669
0.568521,0.22966,2.267,2.34846
0.568258,0.226621,2.237,2.31915
0.568315,0.223784,2.209,2.29189
0.575485,0.223784,2.209,2.29367
0.578698,0.222265,2.194,2.2799
0.57861,0.21953,2.167,2.25364
0.585644,0.21953,2.167,2.25545
0.588848,0.218111,2.153,2.2427
0.595836,0.218111,2.153,2.24455
0.602825,0.218111,2.153,2.24641
0.609813,0.218111,2.153,2.2483
0.616801,0.218111,2.153,2.25021
0.623789,0.218111,2.153,2.25213
0.634879,0.21953,2.167,2.26873
0.641912,0.21953,2.167,2.27071
0.648946,0.21953,2.167,2.27271
0.655979,0.21953,2.167,2.27473
0.663013,0.21953,2.167,2.27677
0.670046,0.21953,2.167,2.27883
0.67708,0.21953,2.167,2.2809
0.684113,0.21953,2.167,2.283
0.695293,0.220847,2.18,2.29883
0.702369,0.220847,2.18,2.30098
0.709445,0.220847,2.18,2.30315
0.712248,0.21953,2.167,2.29159
0.719281,0.21953,2.167,2.29378
0.726315,0.21953,2.167,2.296
0.733348,0.21953,2.167,2.29823
nan,nan,nan,NaN
nan,nan,nan,NaN
nan,nan,nan,NaN
0.812787,0.23432,2.313,2.46282
0.820294,0.23432,2.313,2.46531
0.833528,0.235941,2.329,2.48489
0.841087,0.235941,2.329,2.48744
0.848646,0.235941,2.329,2.49
0.856206,0.235941,2.329,2.49259
0.863765,0.235941,2.329,2.4952
0.871324,0.235941,2.329,2.49782
0.878884,0.235941,2.329,2.50047
0.880353,0.23432,2.313,2.48594
0.887861,0.23432,2.313,2.48861
0.895368,0.23432,2.313,2.4913
0.902876,0.23432,2.313,2.494
0.916681,0.235941,2.329,2.514
nan,nan,nan,NaN
nan,nan,nan,NaN
nan,nan,nan,NaN
0.959929,0.239183,2.361,2.55988
0.967592,0.239183,2.361,2.56276
0.975255,0.239183,2.361,2.56567
0.989579,0.240804,2.377,2.586
0.997294,0.240804,2.377,2.58896
1.00501,0.240804,2.377,2.59194
1.01997,0.242526,2.394,2.6135
1.03504,0.244248,2.411,2.63512
1.05021,0.24597,2.428,2.65681
1.0581,0.24597,2.428,2.65993
1.06598,0.24597,2.428,2.66308
1.07386,0.24597,2.428,2.66624
1.08174,0.24597,2.428,2.66943
1.08962,0.24597,2.428,2.67263
1.10518,0.247693,2.445,2.69459
1.11312,0.247693,2.445,2.69785
1.12105,0.247693,2.445,2.70114
1.1373,0.249516,2.463,2.72435
1.1453,0.249516,2.463,2.7277
1.15329,0.249516,2.463,2.73106
1.16129,0.249516,2.463,2.73445
1.16928,0.249516,2.463,2.73785
1.17727,0.249516,2.463,2.74128
1.18527,0.249516,2.463,2.74472
1.19326,0.249516,2.463,2.74818
1.20126,0.249516,2.463,2.75166
1.21809,0.25134,2.481,2.7753
1.22614,0.25134,2.481,2.77884
1.23419,0.25134,2.481,2.7824
1.24225,0.25134,2.481,2.78598
1.25937,0.253163,2.499,2.80982
1.26748,0.253163,2.499,2.81347
1.27559,0.253163,2.499,2.81713
1.2837,0.253163,2.499,2.82081
1.29181,0.253163,2.499,2.82451
1.29993,0.253163,2.499,2.82823
1.31746,0.254987,2.517,2.85237
1.33563,0.256911,2.536,2.87771
1.34387,0.256911,2.536,2.88154
1.36223,0.258836,2.555,2.90701
1.38071,0.260761,2.574,2.93255
1.38907,0.260761,2.574,2.93649
1.40774,0.262686,2.593,2.96216
1.42708,0.264712,2.613,2.98904
1.44654,0.266738,2.633,3.01601
1.45509,0.266738,2.633,3.02012
1.48698,0.270993,2.675,3.07249
1.50741,0.27312,2.696,3.10085
1.51616,0.27312,2.696,3.10512
1.54923,0.277477,2.739,3.15899
1.57064,0.279705,2.761,3.18877
1.5796,0.279705,2.761,3.19319
1.58856,0.279705,2.761,3.19764
1.59752,0.279705,2.761,3.2021
1.61928,0.281934,2.783,3.23213
1.61544,0.279705,2.761,3.21108
1.6244,0.279705,2.761,3.21559
1.63337,0.279705,2.761,3.22013
1.64233,0.279705,2.761,3.22469
1.63813,0.277477,2.739,3.20353
1.64702,0.277477,2.739,3.20808
1.64261,0.275248,2.717,3.18685
1.65143,0.275248,2.717,3.19141
1.66025,0.275248,2.717,3.19598
1.64327,0.270993,2.675,3.15109
1.63898,0.268866,2.654,3.13086
1.64759,0.268866,2.654,3.13537
1.63062,0.264712,2.613,3.0914
1.62656,0.262686,2.593,3.07219
1.63497,0.262686,2.593,3.07665
1.61931,0.258836,2.555,3.03598
1.6155,0.256911,2.536,3.0178
1.61156,0.254987,2.517,2.99957
1.61973,0.254987,2.517,3.00397
1.60462,0.25134,2.481,2.96536
1.60097,0.249516,2.463,2.94817
1.60897,0.249516,2.463,2.95252
1.61696,0.249516,2.463,2.95689
1.61308,0.247693,2.445,2.93963
1.62101,0.247693,2.445,2.94399
1.61762,0.24597,2.428,2.92787
1.6255,0.24597,2.428,2.93223
1.63339,0.24597,2.428,2.9366
1.62977,0.244248,2.411,2.9204
1.62605,0.242526,2.394,2.90415
-1.75931,0.26514,2.536,3.09786
-1.75107,0.26514,2.536,3.0932
-1.74284,0.26514,2.536,3.08854
-1.73461,0.26514,2.536,3.08391
-1.72638,0.26514,2.536,3.07928
-1.71815,0.26514,2.536,3.07468
-1.72273,0.267127,2.555,3.09309
-1.71444,0.267127,2.555,3.08847
-1.73152,0.2711,2.593,3.12975
-1.74968,0.275282,2.633,3.1733
-1.74114,0.275282,2.633,3.1686
-1.74641,0.277477,2.654,3.18915
-1.7653,0.281868,2.696,3.23483
-1.75655,0.281868,2.696,3.23007
-1.76141,0.284064,2.717,3.25044
-1.78097,0.288664,2.761,3.29823
-1.80089,0.293369,2.806,3.34708
-1.79179,0.293369,2.806,3.34218
-1.78268,0.293369,2.806,3.33731
-1.77357,0.293369,2.806,3.33245
-1.75,0.290964,2.783,3.30034
-1.74097,0.290964,2.783,3.29556
-1.73193,0.290964,2.783,3.2908
-1.7229,0.290964,2.783,3.28605
-1.71387,0.290964,2.783,3.28133
-1.69136,0.288664,2.761,3.25071
-1.6824,0.288664,2.761,3.24606
-1.63404,0.281868,2.696,3.16511
-1.59997,0.277477,2.654,3.11137
-1.59135,0.277477,2.654,3.10695
-1.54636,0.2711,2.593,3.03123
-1.50414,0.26514,2.536,2.96041
-1.49591,0.26514,2.536,2.95624
-1.46597,0.261272,2.499,2.90901
-1.42636,0.255626,2.445,2.84216
-1.41842,0.255626,2.445,2.83818
-1.39087,0.252072,2.411,2.79481
-1.35436,0.246844,2.361,2.73305
-1.3467,0.246844,2.361,2.72926
-1.32996,0.245171,2.345,2.70702
-1.32235,0.245171,2.345,2.70328
-1.30577,0.243498,2.329,2.68115
-1.29821,0.243498,2.329,2.67748
-1.29065,0.243498,2.329,2.67382
-1.28309,0.243498,2.329,2.67018
-1.2843,0.245171,2.345,2.68487
-1.27668,0.245171,2.345,2.68124
-1.27773,0.246844,2.361,2.6959
-1.27868,0.248517,2.377,2.71052
-1.27096,0.248517,2.377,2.70689
-1.29035,0.253849,2.428,2.76127
-1.29145,0.255626,2.445,2.77691
-1.30241,0.25939,2.481,2.81406
-1.29436,0.25939,2.481,2.81034
-1.30497,0.263154,2.517,2.84736
-1.31638,0.267127,2.555,2.88656
-1.30808,0.267127,2.555,2.88279
-1.31912,0.2711,2.593,2.92185
-1.33093,0.275282,2.633,2.96308
-1.33293,0.277477,2.654,2.98285
-1.32431,0.277477,2.654,2.97901
-1.30529,0.275282,2.633,2.95165
-1.29674,0.275282,2.633,2.94788
-1.2882,0.275282,2.633,2.94413
-1.27965,0.275282,2.633,2.9404
-1.2711,0.275282,2.633,2.93669
-1.25297,0.273191,2.613,2.91073
-1.24449,0.273191,2.613,2.90709
-1.23601,0.273191,2.613,2.90347
-1.2092,0.269113,2.574,2.85658
-1.19198,0.267127,2.555,2.832
-1.16609,0.263154,2.517,2.78645
-1.15792,0.263154,2.517,2.78304
-1.14153,0.261272,2.499,2.75977
-1.12525,0.25939,2.481,2.73657
-1.1172,0.25939,2.481,2.73327
-1.09305,0.255626,2.445,2.69038
-1.07757,0.253849,2.428,2.66848
-1.06969,0.253849,2.428,2.66531
-1.05437,0.252072,2.411,2.64351
-1.03917,0.250294,2.394,2.62179
-1.0314,0.250294,2.394,2.61872
-1.02363,0.250294,2.394,2.61566
-1.01586,0.250294,2.394,2.61263
-1.00809,0.250294,2.394,2.60962
-1.00032,0.250294,2.394,2.60663
-0.992548,0.250294,2.394,2.60366
-0.984778,0.250294,2.394,2.60071
-0.977007,0.250294,2.394,2.59777
-0.969237,0.250294,2.394,2.59486
-0.961466,0.250294,2.394,2.59197
-0.953696,0.250294,2.394,2.5891
-0.939209,0.248517,2.377,2.56788
-0.931494,0.248517,2.377,2.56507
-0.923778,0.248517,2.377,2.56228
-0.916063,0.248517,2.377,2.5595
-0.908348,0.248517,2.377,2.55675
-0.900633,0.248517,2.377,2.55402
-0.892918,0.248517,2.377,2.55131
-0.885203,0.248517,2.377,2.54862
-0.877488,0.248517,2.377,2.54595
-0.869772,0.248517,2.377,2.5433
-0.862057,0.248517,2.377,2.54068
-0.854342,0.248517,2.377,2.53807
-0.846627,0.248517,2.377,2.53548
-0.833265,0.246844,2.361,2.51587
-0.825602,0.246844,2.361,2.51334
-0.817938,0.246844,2.361,2.51083
-0.810275,0.246844,2.361,2.50835
-0.802612,0.246844,2.361,2.50588
-0.800336,0.248517,2.377,2.5204
-0.792621,0.248517,2.377,2.51796
-0.784906,0.248517,2.377,2.51554
-0.777191,0.248517,2.377,2.51315
-0.769475,0.248517,2.377,2.51077
-0.76176,0.248517,2.377,2.50842
-0.754045,0.248517,2.377,2.50609
-0.751668,0.250294,2.394,2.52168
-0.743897,0.250294,2.394,2.51938
-0.736127,0.250294,2.394,2.51709
-0.733529,0.252072,2.411,2.53269
-0.73082,0.253849,2.428,2.54828
-0.717878,0.252072,2.411,2.5282
-0.710052,0.252072,2.411,2.52599
-0.707178,0.253849,2.428,2.5416
-0.699297,0.253849,2.428,2.53942
-0.691417,0.253849,2.428,2.53726
-0.688322,0.255626,2.445,2.55287
-0.680386,0.255626,2.445,2.55074
-0.67245,0.255626,2.445,2.54864
-0.664514,0.255626,2.445,2.54656
-0.661412,0.257508,2.463,2.56323
-0.653418,0.257508,2.463,2.56118
-0.645424,0.257508,2.463,2.55915
-0.637429,0.257508,2.463,2.55715
-0.629435,0.257508,2.463,2.55517
-0.625982,0.25939,2.481,2.57187
-0.61793,0.25939,2.481,2.56992
-0.609877,0.25939,2.481,2.56799
-0.601824,0.25939,2.481,2.56609
-0.593771,0.25939,2.481,2.56422
-0.585719,0.25939,2.481,2.56236
-0.577666,0.25939,2.481,2.56054
-0.569613,0.25939,2.481,2.55873
-0.561561,0.25939,2.481,2.55695
-0.553508,0.25939,2.481,2.55519
-0.545455,0.25939,2.481,2.55346
-0.541301,0.261272,2.499,2.57027
-0.53319,0.261272,2.499,2.56857
-0.525079,0.261272,2.499,2.5669
-0.516968,0.261272,2.499,2.56525
-0.508857,0.261272,2.499,2.56363
-0.500746,0.261272,2.499,2.56203
-0.496183,0.263154,2.517,2.5789
-0.488013,0.263154,2.517,2.57734
-0.479844,0.263154,2.517,2.57581
-0.471674,0.263154,2.517,2.5743
-0.463505,0.263154,2.517,2.57281
-0.455335,0.263154,2.517,2.57136
-0.447166,0.263154,2.517,2.56992
-0.44231,0.26514,2.536,2.5879
-0.434079,0.26514,2.536,2.58651
-0.425848,0.26514,2.536,2.58514
-0.417616,0.26514,2.536,2.5838
-0.409385,0.26514,2.536,2.58248
-0.401154,0.26514,2.536,2.58119
-0.392923,0.26514,2.536,2.57992
-0.384691,0.26514,2.536,2.57868
-0.37646,0.26514,2.536,2.57746
-0.368229,0.26514,2.536,2.57627
-0.359998,0.26514,2.536,2.57511
-0.351766,0.26514,2.536,2.57397
-0.343535,0.26514,2.536,2.57286
-0.332792,0.263154,2.517,2.55251
-0.324622,0.263154,2.517,2.55145
-0.316453,0.263154,2.517,2.55043
-0.31061,0.26514,2.536,2.56867
-0.302379,0.26514,2.536,2.56769
-0.294148,0.26514,2.536,2.56673
-0.285917,0.26514,2.536,2.5658
-0.277685,0.26514,2.536,2.5649
-0.269454,0.26514,2.536,2.56402
-0.261223,0.26514,2.536,2.56317
-0.252992,0.26514,2.536,2.56234
-0.244761,0.26514,2.536,2.56154
-0.236529,0.26514,2.536,2.56077
-0.230009,0.267127,2.555,2.5792
-0.221716,0.267127,2.555,2.57848
-0.213423,0.267127,2.555,2.57778
-0.206655,0.269113,2.574,2.59627
-0.198301,0.269113,2.574,2.59562
-0.188544,0.267127,2.555,2.57584
-0.180251,0.267127,2.555,2.57524
-0.171958,0.267127,2.555,2.57468
-0.163665,0.267127,2.555,2.57413
-0.156528,0.269113,2.574,2.59276
-0.148173,0.269113,2.574,2.59227
-0.139819,0.269113,2.574,2.5918
-0.131464,0.269113,2.574,2.59137
-0.12311,0.269113,2.574,2.59096
-0.114755,0.269113,2.574,2.59057
-0.1064,0.269113,2.574,2.59022
-0.0980459,0.269113,2.574,2.58989
-0.0896914,0.269113,2.574,2.58958
-0.0813368,0.269113,2.574,2.58931
-0.0729822,0.269113,2.574,2.58906
-0.0646277,0.269113,2.574,2.58884
-0.0562731,0.269113,2.574,2.58864
-0.0479185,0.269113,2.574,2.58847
-0.039564,0.269113,2.574,2.58833
-0.0312094,0.269113,2.574,2.58822
-0.0228548,0.269113,2.574,2.58813
-0.0145003,0.269113,2.574,2.58807
-0.00614571,0.269113,2.574,2.58804
0.00219255,0.267127,2.555,2.56893
0.0104854,0.267127,2.555,2.56895
0.0187783,0.267127,2.555,2.56899
0.0268699,0.26514,2.536,2.54996
0.0351011,0.26514,2.536,2.55006
0.0433324,0.26514,2.536,2.55019
0.0515636,0.26514,2.536,2.55034
0.0593468,0.263154,2.517,2.53141
0.0675164,0.263154,2.517,2.53162
0.075686,0.263154,2.517,2.53185
0.0838555,0.263154,2.517,2.53211
0.0920251,0.263154,2.517,2.53239
0.100195,0.263154,2.517,2.5327
0.108364,0.263154,2.517,2.53304
0.1157,0.261272,2.499,2.51528
0.123811,0.261272,2.499,2.51567
0.131923,0.261272,2.499,2.51608
0.140034,0.261272,2.499,2.51652
0.148145,0.261272,2.499,2.51698
nan,nan,nan,NaN
0.163183,0.25939,2.481,2.49985
0.171236,0.25939,2.481,2.50039
nan,nan,nan,NaN
nan,nan,nan,NaN
0.195394,0.25939,2.481,2.50216
0.203447,0.25939,2.481,2.50281
0.2115,0.25939,2.481,2.50347
nan,nan,nan,NaN
nan,nan,nan,NaN
nan,nan,nan,NaN
nan,nan,nan,NaN
nan,nan,nan,NaN
nan,nan,nan,NaN
nan,nan,nan,NaN
nan,nan,nan,NaN
nan,nan,nan,NaN
nan,nan,nan,NaN
nan,nan,nan,NaN
nan,nan,nan,NaN
nan,nan,nan,NaN
nan,nan,nan,NaN
nan,nan,nan,NaN
nan,nan,nan,NaN
nan,nan,nan,NaN
nan,nan,nan,NaN
nan,nan,nan,NaN
nan,nan,nan,NaN
nan,nan,nan,NaN
nan,nan,nan,NaN
nan,nan,nan,NaN
nan,nan,nan,NaN
nan,nan,nan,NaN
0.417816,0.257508,2.463,2.51142
0.422699,0.255626,2.445,2.4944
0.430635,0.255626,2.445,2.49576
0.438571,0.255626,2.445,2.49714
0.443402,0.253849,2.428,2.48117
0.451283,0.253849,2.428,2.4826
0.459163,0.253849,2.428,2.48404
0.467044,0.253849,2.428,2.48551
0.471599,0.252072,2.411,2.46959
0.479425,0.252072,2.411,2.47109
0.48725,0.252072,2.411,2.47263
0.491585,0.250294,2.394,2.45673
0.499355,0.250294,2.394,2.4583
0.507126,0.250294,2.394,2.45989
0.514896,0.250294,2.394,2.4615
0.522667,0.250294,2.394,2.46314
0.52667,0.248517,2.377,2.4473
0.534385,0.248517,2.377,2.44897
0.5421,0.248517,2.377,2.45067
0.549816,0.248517,2.377,2.45238
0.553778,0.246844,2.361,2.43761
0.561441,0.246844,2.361,2.43936
nan,nan,nan,NaN
0.565042,0.241826,2.313,2.39327
0.564875,0.238585,2.282,2.36295
0.572282,0.238585,2.282,2.36473
0.568258,0.23388,2.237,2.31987
0.568315,0.230952,2.209,2.2926
0.575485,0.230952,2.209,2.29439
0.578698,0.229384,2.194,2.2806
0.582081,0.22792,2.18,2.26786
0.589157,0.22792,2.18,2.26968
0.592677,0.226561,2.167,2.25798
0.595836,0.225097,2.153,2.24524
0.602825,0.225097,2.153,2.2471
0.609813,0.225097,2.153,2.24899
0.616801,0.225097,2.153,2.25089
0.623789,0.225097,2.153,2.25282
0.634879,0.226561,2.167,2.26943
0.641912,0.226561,2.167,2.2714
0.648946,0.226561,2.167,2.2734
0.655979,0.226561,2.167,2.27542
0.663013,0.226561,2.167,2.27746
0.665717,0.225097,2.153,2.26479
0.672706,0.225097,2.153,2.26685
0.679694,0.225097,2.153,2.26893
0.686682,0.225097,2.153,2.27104
0.69367,0.225097,2.153,2.27316
0.700658,0.225097,2.153,2.2753
0.703373,0.223738,2.14,2.26371
0.710319,0.223738,2.14,2.26588
0.717265,0.223738,2.14,2.26807
0.724211,0.223738,2.14,2.27027
nan,nan,nan,NaN
nan,nan,nan,NaN
nan,nan,nan,NaN
0.812787,0.241826,2.313,2.46355
0.820294,0.241826,2.313,2.46604
0.827801,0.241826,2.313,2.46854
0.835309,0.241826,2.313,2.47107
0.842816,0.241826,2.313,2.47362
0.850324,0.241826,2.313,2.47619
0.857831,0.241826,2.313,2.47877
0.865339,0.241826,2.313,2.48138
0.878884,0.243498,2.329,2.50119
0.880353,0.241826,2.313,2.48666
0.887861,0.241826,2.313,2.48933
0.895368,0.241826,2.313,2.49201
0.902876,0.241826,2.313,2.49472
0.910383,0.241826,2.313,2.49745
0.917891,0.241826,2.313,2.50019
0.931799,0.243498,2.329,2.52027
0.939359,0.243498,2.329,2.52308
0.959929,0.246844,2.361,2.56061
0.967592,0.246844,2.361,2.56349
0.975255,0.246844,2.361,2.56639
0.982918,0.246844,2.361,2.56932
0.997294,0.248517,2.377,2.58969
1.00501,0.248517,2.377,2.59267
1.01997,0.250294,2.394,2.61423
1.03504,0.252072,2.411,2.63586
1.03551,0.250294,2.394,2.62034
1.04328,0.250294,2.394,2.62342
1.05851,0.252072,2.411,2.64517
1.07386,0.253849,2.428,2.66698
1.08174,0.253849,2.428,2.67016
1.08962,0.253849,2.428,2.67337
1.0975,0.253849,2.428,2.67659
1.10538,0.253849,2.428,2.67983
1.12105,0.255626,2.445,2.70188
1.12899,0.255626,2.445,2.70518
1.13693,0.255626,2.445,2.7085
1.14486,0.255626,2.445,2.71184
1.16129,0.257508,2.463,2.73519
1.16928,0.257508,2.463,2.73859
1.17727,0.257508,2.463,2.74202
1.18527,0.257508,2.463,2.74546
1.19326,0.257508,2.463,2.74892
1.20126,0.257508,2.463,2.7524
1.21809,0.25939,2.481,2.77604
1.22614,0.25939,2.481,2.77958
1.23419,0.25939,2.481,2.78314
1.24225,0.25939,2.481,2.78672
1.25937,0.261272,2.499,2.81057
1.26748,0.261272,2.499,2.81421
1.27559,0.261272,2.499,2.81787
1.2837,0.261272,2.499,2.82155
1.29181,0.261272,2.499,2.82525
1.29993,0.261272,2.499,2.82897
1.30804,0.261272,2.499,2.83271
1.33563,0.26514,2.536,2.87846
1.34387,0.26514,2.536,2.88229
1.36223,0.267127,2.555,2.90776
1.38071,0.269113,2.574,2.9333
1.38907,0.269113,2.574,2.93724
1.40774,0.2711,2.593,2.96292
1.42708,0.273191,2.613,2.98981
1.44654,0.275282,2.633,3.01678
1.45509,0.275282,2.633,3.02089
1.48698,0.279673,2.675,3.07327
1.50741,0.281868,2.696,3.10164
1.51616,0.281868,2.696,3.1059
1.54923,0.286364,2.739,3.15978
1.57064,0.288664,2.761,3.18957
1.5796,0.288664,2.761,3.19399
1.60122,0.290964,2.783,3.22392
1.61025,0.290964,2.783,3.22841
1.61928,0.290964,2.783,3.23293
1.62831,0.290964,2.783,3.23746
1.63735,0.290964,2.783,3.24201
1.64638,0.290964,2.783,3.24659
1.64233,0.288664,2.761,3.22547
1.63813,0.286364,2.739,3.20431
1.64702,0.286364,2.739,3.20886
1.64261,0.284064,2.717,3.18763
1.65143,0.284064,2.717,3.19218
1.66025,0.284064,2.717,3.19675
1.65617,0.281868,2.696,3.17659
1.63898,0.277477,2.654,3.13161
1.64759,0.277477,2.654,3.13612
1.63062,0.273191,2.613,3.09214
1.62656,0.2711,2.593,3.07292
1.63497,0.2711,2.593,3.07738
1.61931,0.267127,2.555,3.0367
1.6155,0.26514,2.536,3.01851
1.61156,0.263154,2.517,3.00028
1.61973,0.263154,2.517,3.00468
1.60462,0.25939,2.481,2.96605
1.60097,0.257508,2.463,2.94886
1.60897,0.257508,2.463,2.95321
1.60514,0.255626,2.445,2.93596
1.61308,0.255626,2.445,2.9403
1.62101,0.255626,2.445,2.94467
1.61762,0.253849,2.428,2.92854
1.61412,0.252072,2.411,2.91236
1.62195,0.252072,2.411,2.91671
1.62977,0.252072,2.411,2.92107
1.62605,0.250294,2.394,2.90481
-1.75931,0.273369,2.536,3.09858
-1.75107,0.273369,2.536,3.09391
-1.74284,0.273369,2.536,3.08926
-1.73461,0.273369,2.536,3.08462
-1.71345,0.271321,2.517,3.05693
-1.70528,0.271321,2.517,3.05236
-1.70992,0.273369,2.536,3.07081
-1.70169,0.273369,2.536,3.06623
-1.71883,0.277465,2.574,3.10755
-1.74968,0.283825,2.633,3.17406
-1.74114,0.283825,2.633,3.16935
-1.74641,0.286089,2.654,3.18991
-1.75155,0.288353,2.675,3.2104
-1.74286,0.288353,2.675,3.20567
-1.76141,0.29288,2.717,3.25122
-1.78097,0.297623,2.761,3.29903
-1.80089,0.302474,2.806,3.34789
-1.79179,0.302474,2.806,3.343
-1.78268,0.302474,2.806,3.33812
-1.77357,0.302474,2.806,3.33327
-1.75,0.299995,2.783,3.30115
-1.74097,0.299995,2.783,3.29637
-1.74625,0.302474,2.806,3.31881
-1.7229,0.299995,2.783,3.28686
-1.71387,0.299995,2.783,3.28214
-1.69136,0.297623,2.761,3.25152
-1.6824,0.297623,2.761,3.24687
-1.64677,0.29288,2.717,3.19057
-1.59997,0.286089,2.654,3.11215
-1.59135,0.286089,2.654,3.10773
-1.55829,0.28167,2.613,3.05538
-1.51541,0.275417,2.555,2.98334
-1.50711,0.275417,2.555,2.97914
-1.46597,0.269381,2.499,2.90975
-1.43686,0.2655,2.463,2.86381
-1.42886,0.2655,2.463,2.85981
-1.39087,0.259895,2.411,2.79553
-1.36354,0.25623,2.377,2.75228
-1.35583,0.25623,2.377,2.74846
-1.33904,0.254505,2.361,2.72619
-1.32235,0.25278,2.345,2.70399
-1.30577,0.251056,2.329,2.68185
-1.29821,0.251056,2.329,2.67817
-1.29065,0.251056,2.329,2.67452
-1.28309,0.251056,2.329,2.67088
-1.2843,0.25278,2.345,2.68558
-1.27668,0.25278,2.345,2.68195
-1.27773,0.254505,2.361,2.69661
-1.27868,0.25623,2.377,2.71123
-1.27096,0.25623,2.377,2.7076
-1.29035,0.261727,2.428,2.76201
-1.29145,0.26356,2.445,2.77765
-1.30241,0.267441,2.481,2.81481
-1.29436,0.267441,2.481,2.81109
-1.30497,0.271321,2.517,2.84813
-1.31638,0.275417,2.555,2.88734
-1.30808,0.275417,2.555,2.88357
-1.31912,0.279514,2.593,2.92265
-1.33093,0.283825,2.633,2.96388
-1.33293,0.286089,2.654,2.98367
-1.32431,0.286089,2.654,2.97983
-1.3157,0.286089,2.654,2.97601
-1.30708,0.286089,2.654,2.97221
-1.29847,0.286089,2.654,2.96843
-1.28986,0.286089,2.654,2.96467
-1.28124,0.286089,2.654,2.96094
-1.26256,0.283825,2.633,2.93382
-1.24449,0.28167,2.613,2.9079
-1.23601,0.28167,2.613,2.90428
-1.2092,0.277465,2.574,2.85738
-1.19198,0.275417,2.555,2.83279
-1.16609,0.271321,2.517,2.78723
-1.15792,0.271321,2.517,2.78382
-1.14153,0.269381,2.499,2.76055
-1.12525,0.267441,2.481,2.73735
-1.1172,0.267441,2.481,2.73405
-1.09305,0.26356,2.445,2.69114
-1.07757,0.261727,2.428,2.66924
-1.06969,0.261727,2.428,2.66607
-1.05437,0.259895,2.411,2.64427
-1.03917,0.258062,2.394,2.62254
-1.0314,0.258062,2.394,2.61947
-1.02363,0.258062,2.394,2.61642
-1.01586,0.258062,2.394,2.61339
-1.00809,0.258062,2.394,2.61038
-1.00032,0.258062,2.394,2.60739
-0.992548,0.258062,2.394,2.60442
-0.984778,0.258062,2.394,2.60146
-0.977007,0.258062,2.394,2.59853
-0.969237,0.258062,2.394,2.59562
-0.961466,0.258062,2.394,2.59273
-0.953696,0.258062,2.394,2.58986
-0.939209,0.25623,2.377,2.56864
-0.931494,0.25623,2.377,2.56583
-0.923778,0.25623,2.377,2.56304
-0.916063,0.25623,2.377,2.56026
-0.908348,0.25623,2.377,2.55751
-0.900633,0.25623,2.377,2.55478
-0.892918,0.25623,2.377,2.55207
-0.885203,0.25623,2.377,2.54939
-0.877488,0.25623,2.377,2.54672
