1.2755,0.609903,2.18,2.59832
1.28258,0.609903,2.18,2.60181
1.28196,0.606265,2.167,2.58976
1.28067,0.602349,2.153,2.5765
1.27988,0.598712,2.14,2.5644
1.28683,0.598712,2.14,2.56788
1.28531,0.594795,2.126,2.55454
1.28431,0.591158,2.113,2.54238
1.29117,0.591158,2.113,2.54585
1.29803,0.591158,2.113,2.54934
1.29686,0.587521,2.1,2.53713
1.30367,0.587521,2.1,2.54062
1.31049,0.587521,2.1,2.54412
1.31731,0.587521,2.1,2.54764
1.32412,0.587521,2.1,2.55117
1.33094,0.587521,2.1,2.55472
1.33775,0.587521,2.1,2.55827
1.34457,0.587521,2.1,2.56184
1.34302,0.583884,2.087,2.54955
1.34979,0.583884,2.087,2.55312
1.35657,0.583884,2.087,2.55671
1.37183,0.587521,2.1,2.57626
1.37865,0.587521,2.1,2.57989
1.38547,0.587521,2.1,2.58354
1.39228,0.587521,2.1,2.58721
1.39044,0.583884,2.087,2.57484
1.39721,0.583884,2.087,2.57851
1.40398,0.583884,2.087,2.58218
1.41076,0.583884,2.087,2.58587
1.40938,0.580526,2.075,2.57468
-1.67259,0.682353,2.411,3.01265
-1.66476,0.682353,2.411,3.00832
-1.66862,0.687164,2.428,3.02517
-1.66074,0.687164,2.428,3.02083
-1.65286,0.687164,2.428,3.01651
-1.6565,0.691976,2.445,3.03329
-1.64856,0.691976,2.445,3.02896
-1.64063,0.691976,2.445,3.02465
-1.63269,0.691976,2.445,3.02035
-1.62475,0.691976,2.445,3.01607
-1.61682,0.691976,2.445,3.0118
-1.60888,0.691976,2.445,3.00755
-1.61273,0.69707,2.463,3.02542
-1.60474,0.69707,2.463,3.02117
-1.59674,0.69707,2.463,3.01693
-1.57714,0.691976,2.445,2.99069
-1.5692,0.691976,2.445,2.98651
-1.57276,0.69707,2.463,3.00431
-1.56477,0.69707,2.463,3.00013
-1.55677,0.69707,2.463,2.99597
-1.54878,0.69707,2.463,2.99182
-1.54078,0.69707,2.463,2.98769
-1.52159,0.691976,2.445,2.96177
-1.51365,0.691976,2.445,2.9577
-1.50572,0.691976,2.445,2.95365
-1.49778,0.691976,2.445,2.94961
-1.48984,0.691976,2.445,2.94559
-1.48191,0.691976,2.445,2.94158
-1.47397,0.691976,2.445,2.93759
-1.45584,0.687164,2.428,2.91322
-1.44796,0.687164,2.428,2.90929
-1.44008,0.687164,2.428,2.90538
-1.4322,0.687164,2.428,2.90148
-1.42432,0.687164,2.428,2.8976
-1.40652,0.682353,2.411,2.87347
-1.3987,0.682353,2.411,2.86965
-1.39087,0.682353,2.411,2.86584
-1.37329,0.677542,2.394,2.84187
-1.35583,0.672731,2.377,2.81797
-1.34811,0.672731,2.377,2.81427
-1.3404,0.672731,2.377,2.81058
-1.33268,0.672731,2.377,2.80691
-1.32497,0.672731,2.377,2.80325
-1.31725,0.672731,2.377,2.79962
-1.30954,0.672731,2.377,2.79599
-1.30182,0.672731,2.377,2.79239
-1.30336,0.677542,2.394,2.80875
-1.28639,0.672731,2.377,2.78523
-1.27868,0.672731,2.377,2.78167
-1.27096,0.672731,2.377,2.77814
-1.26325,0.672731,2.377,2.77461
-1.24708,0.668202,2.361,2.75246
-1.23942,0.668202,2.361,2.74899
-1.23175,0.668202,2.361,2.74555
-1.22409,0.668202,2.361,2.74212
-1.21643,0.668202,2.361,2.73871
-1.20876,0.668202,2.361,2.73531
-1.2011,0.668202,2.361,2.73193
-1.18535,0.663674,2.345,2.71008
-1.17774,0.663674,2.345,2.70676
-1.17013,0.663674,2.345,2.70346
-1.16251,0.663674,2.345,2.70017
-1.14702,0.659146,2.329,2.6785
-1.13946,0.659146,2.329,2.67527
-1.1319,0.659146,2.329,2.67206
-1.12435,0.659146,2.329,2.66887
-1.11679,0.659146,2.329,2.66569
-1.10923,0.659146,2.329,2.66254
-1.10167,0.659146,2.329,2.6594
-1.09411,0.659146,2.329,2.65627
-1.07908,0.654617,2.313,2.63494
-1.07158,0.654617,2.313,2.63188
-1.06407,0.654617,2.313,2.62883
-1.04971,0.650372,2.298,2.60877
-1.04225,0.650372,2.298,2.60578
-1.03479,0.650372,2.298,2.6028
-1.02733,0.650372,2.298,2.59985
-1.01277,0.645844,2.282,2.57883
-1.00537,0.645844,2.282,2.57593
-0.99796,0.645844,2.282,2.57305
-0.984043,0.641599,2.267,2.55329
-0.976684,0.641599,2.267,2.55046
-0.969326,0.641599,2.267,2.54765
-0.961968,0.641599,2.267,2.54486
-0.960926,0.645844,2.282,2.55891
-0.95352,0.645844,2.282,2.55614
-0.946113,0.645844,2.282,2.55338
-0.938706,0.645844,2.282,2.55065
-0.931299,0.645844,2.282,2.54793
-0.923892,0.645844,2.282,2.54523
-0.916486,0.645844,2.282,2.54255
-0.909079,0.645844,2.282,2.53989
-0.901672,0.645844,2.282,2.53725
-0.894265,0.645844,2.282,2.53463
-0.886858,0.645844,2.282,2.53203
-0.879452,0.645844,2.282,2.52944
-0.872045,0.645844,2.282,2.52688
-0.864638,0.645844,2.282,2.52433
-0.857231,0.645844,2.282,2.5218
-0.855783,0.650372,2.298,2.53696
-0.848324,0.650372,2.298,2.53445
-0.840865,0.650372,2.298,2.53196
-0.833407,0.650372,2.298,2.5295
-0.825948,0.650372,2.298,2.52705
-0.823832,0.654617,2.313,2.5411
-0.827618,0.663674,2.345,2.5738
-0.820007,0.663674,2.345,2.57136
-0.817938,0.668202,2.361,2.58647
-0.815766,0.672731,2.377,2.60157
-0.808051,0.672731,2.377,2.59916
-0.800336,0.672731,2.377,2.59677
-0.803958,0.682353,2.411,2.63152
-0.796133,0.682353,2.411,2.62914
-0.788307,0.682353,2.411,2.62678
-0.780482,0.682353,2.411,2.62444
-0.778104,0.687164,2.428,2.64061
-0.770224,0.687164,2.428,2.6383
-0.767681,0.691976,2.445,2.65447
-0.759745,0.691976,2.445,2.65218
-0.751809,0.691976,2.445,2.64992
-0.738701,0.687164,2.428,2.62927
-0.73082,0.687164,2.428,2.62707
-0.722939,0.687164,2.428,2.62489
-0.715059,0.687164,2.428,2.62273
-0.707178,0.687164,2.428,2.62059
-0.699297,0.687164,2.428,2.61847
-0.686576,0.682353,2.411,2.59806
-0.673964,0.677542,2.394,2.5777
-0.666194,0.677542,2.394,2.57568
-0.653748,0.672731,2.377,2.5554
-0.641684,0.668202,2.361,2.53625
-0.634021,0.668202,2.361,2.53432
-0.626358,0.668202,2.361,2.53242
-0.614502,0.663674,2.345,2.51338
-0.60275,0.659146,2.329,2.4944
-0.59519,0.659146,2.329,2.49258
-0.587631,0.659146,2.329,2.49079
-0.580072,0.659146,2.329,2.48902
-0.572512,0.659146,2.329,2.48726
-0.564953,0.659146,2.329,2.48554
-0.557394,0.659146,2.329,2.48383
-0.549834,0.659146,2.329,2.48214
-0.542275,0.659146,2.329,2.48048
-0.534716,0.659146,2.329,2.47884
-0.523535,0.654617,2.313,2.4602
-0.516027,0.654617,2.313,2.45861
-0.50852,0.654617,2.313,2.45705
-0.501013,0.654617,2.313,2.45551
-0.493505,0.654617,2.313,2.45398
-0.485998,0.654617,2.313,2.45249
-0.475387,0.650372,2.298,2.43511
-0.467928,0.650372,2.298,2.43367
-0.46047,0.650372,2.298,2.43225
-0.453011,0.650372,2.298,2.43085
-0.44245,0.645844,2.282,2.41255
-0.435043,0.645844,2.282,2.4112
-0.424826,0.641599,2.267,2.39404
-0.417467,0.641599,2.267,2.39274
-0.410109,0.641599,2.267,2.39147
-0.402751,0.641599,2.267,2.39022
-0.395393,0.641599,2.267,2.38899
-0.388035,0.641599,2.267,2.38778
-0.378158,0.637353,2.252,2.37081
-0.368378,0.633108,2.237,2.35387
-0.361118,0.633108,2.237,2.35274
-0.353857,0.633108,2.237,2.35164
-0.34892,0.637353,2.252,2.36632
-0.339335,0.633108,2.237,2.3495
-0.332075,0.633108,2.237,2.34846
-0.324814,0.633108,2.237,2.34745
-0.315566,0.629146,2.223,2.33177
-0.308351,0.629146,2.223,2.3308
-0.301135,0.629146,2.223,2.32986
-0.29392,0.629146,2.223,2.32894
-0.286705,0.629146,2.223,2.32804
-0.277729,0.625184,2.209,2.3125
-0.270559,0.625184,2.209,2.31165
-0.263389,0.625184,2.209,2.31082
-0.25622,0.625184,2.209,2.31002
-0.24905,0.625184,2.209,2.30923
-0.240237,0.620938,2.194,2.2928
-0.233116,0.620938,2.194,2.29206
-0.225995,0.620938,2.194,2.29135
-0.218874,0.620938,2.194,2.29066
-0.211753,0.620938,2.194,2.28999
-0.204631,0.620938,2.194,2.28934
-0.19751,0.620938,2.194,2.28871
-0.190389,0.620938,2.194,2.28811
-0.183268,0.620938,2.194,2.28753
-0.175023,0.616976,2.18,2.27238
-0.167947,0.616976,2.18,2.27184
-0.160871,0.616976,2.18,2.27133
-0.153796,0.616976,2.18,2.27084
-0.14672,0.616976,2.18,2.27037
-0.139644,0.616976,2.18,2.26993
-0.132568,0.616976,2.18,2.2695
-0.125493,0.616976,2.18,2.2691
-0.118417,0.616976,2.18,2.26872
-0.111341,0.616976,2.18,2.26836
-0.104265,0.616976,2.18,2.26802
-0.0971896,0.616976,2.18,2.26771
-0.0901139,0.616976,2.18,2.26742
-0.0825429,0.613297,2.167,2.25363
-0.0755094,0.613297,2.167,2.25338
-0.0684758,0.613297,2.167,2.25316
-0.0610453,0.609335,2.153,2.2384
-0.0537308,0.605656,2.14,2.2247
-0.0467849,0.605656,2.14,2.22455
-0.0395784,0.601693,2.126,2.20986
-0.0326779,0.601693,2.126,2.20975
-0.0257775,0.601693,2.126,2.20966
-0.018877,0.601693,2.126,2.20959
-0.0119765,0.601693,2.126,2.20954
-0.00507606,0.601693,2.126,2.20951
0.00182441,0.601693,2.126,2.20951
0.00872488,0.601693,2.126,2.20952
0.0156253,0.601693,2.126,2.20956
0.0225258,0.601693,2.126,2.20962
0.0294263,0.601693,2.126,2.2097
0.0363267,0.601693,2.126,2.2098
0.0435119,0.605656,2.14,2.22448
0.0501277,0.601693,2.126,2.21007
0.0570282,0.601693,2.126,2.21024
0.0639286,0.601693,2.126,2.21043
0.070396,0.598014,2.113,2.19712
0.0772543,0.598014,2.113,2.19735
0.08463,0.601693,2.126,2.21112
0.0915305,0.601693,2.126,2.2114
0.098431,0.601693,2.126,2.2117
0.105331,0.601693,2.126,2.21201
0.112232,0.601693,2.126,2.21235
0.118404,0.598014,2.113,2.19918
0.125262,0.598014,2.113,2.19956
0.13212,0.598014,2.113,2.19997
0.138979,0.598014,2.113,2.20039
0.146734,0.601693,2.126,2.21437
0.153635,0.601693,2.126,2.21484
0.160535,0.601693,2.126,2.21533
0.167436,0.601693,2.126,2.21584
0.174336,0.601693,2.126,2.21637
0.181237,0.601693,2.126,2.21693
0.188137,0.601693,2.126,2.2175
0.196322,0.605656,2.14,2.2327
0.204503,0.609335,2.153,2.24689
0.211491,0.609335,2.153,2.24754
0.218479,0.609335,2.153,2.24821
0.226933,0.613297,2.167,2.26352
0.233967,0.613297,2.167,2.26424
0.242446,0.616976,2.18,2.27856
0.249522,0.616976,2.18,2.27932
0.256597,0.616976,2.18,2.28011
0.265366,0.620938,2.194,2.29557
0.272488,0.620938,2.194,2.2964
0.279609,0.620938,2.194,2.29726
0.28673,0.620938,2.194,2.29813
0.293851,0.620938,2.194,2.29903
0.300972,0.620938,2.194,2.29995
0.308093,0.620938,2.194,2.3009
0.315215,0.620938,2.194,2.30186
0.322336,0.620938,2.194,2.30285
0.329457,0.620938,2.194,2.30385
0.336578,0.620938,2.194,2.30488
0.346049,0.625184,2.209,2.3217
0.353219,0.625184,2.209,2.32278
0.357942,0.620938,2.194,2.3081
0.365063,0.620938,2.194,2.30921
0.374729,0.625184,2.209,2.32615
0.381899,0.625184,2.209,2.32731
0.389068,0.625184,2.209,2.3285
0.396238,0.625184,2.209,2.32971
0.403408,0.625184,2.209,2.33094
0.410578,0.625184,2.209,2.33219
0.42588,0.637353,2.252,2.37889
0.430304,0.633108,2.237,2.36435
0.437564,0.633108,2.237,2.36568
0.447808,0.637353,2.252,2.38291
0.455117,0.637353,2.252,2.38429
0.459347,0.633108,2.237,2.36981
0.466607,0.633108,2.237,2.37123
0.473868,0.633108,2.237,2.37267
0.481129,0.633108,2.237,2.37413
0.48839,0.633108,2.237,2.37561
0.49565,0.633108,2.237,2.37711
0.502911,0.633108,2.237,2.37864
0.510172,0.633108,2.237,2.38018
0.517433,0.633108,2.237,2.38175
0.524693,0.633108,2.237,2.38334
0.531954,0.633108,2.237,2.38495
0.539215,0.633108,2.237,2.38658
0.546476,0.633108,2.237,2.38823
0.553736,0.633108,2.237,2.3899
0.557486,0.629146,2.223,2.37662
0.564701,0.629146,2.223,2.37833
0.571917,0.629146,2.223,2.38005
0.579132,0.629146,2.223,2.3818
0.586347,0.629146,2.223,2.38356
0.593563,0.629146,2.223,2.38534
0.600778,0.629146,2.223,2.38715
0.607993,0.629146,2.223,2.38898
0.615209,0.629146,2.223,2.39082
0.626344,0.633108,2.237,2.40776
0.637853,0.637353,2.252,2.42582
0.645163,0.637353,2.252,2.42775
0.656818,0.641599,2.267,2.44588
0.664176,0.641599,2.267,2.44787
0.675978,0.645844,2.282,2.46609
0.683384,0.645844,2.282,2.46813
0.690791,0.645844,2.282,2.47019
0.703093,0.650372,2.298,2.4896
0.705605,0.645844,2.282,2.47437
0.713012,0.645844,2.282,2.47649
0.720418,0.645844,2.282,2.47864
0.723041,0.641599,2.267,2.46449
0.720734,0.633108,2.237,2.43402
0.727994,0.633108,2.237,2.43618
0.730654,0.629146,2.223,2.4231
0.733222,0.625184,2.209,2.41001
0.740392,0.625184,2.209,2.4122
0.747562,0.625184,2.209,2.41441
0.754731,0.625184,2.209,2.41664
0.761901,0.625184,2.209,2.41889
0.769071,0.625184,2.209,2.42116
0.77097,0.620938,2.194,2.40699
0.778091,0.620938,2.194,2.40928
0.785212,0.620938,2.194,2.41159
0.792334,0.620938,2.194,2.41392
0.799455,0.620938,2.194,2.41626
0.806576,0.620938,2.194,2.41863
0.813697,0.620938,2.194,2.42101
0.820818,0.620938,2.194,2.42342
0.822656,0.616976,2.18,2.41036
0.829732,0.616976,2.18,2.41278
0.831818,0.613297,2.167,2.40082
0.833432,0.609335,2.153,2.38774
0.84042,0.609335,2.153,2.39019
0.847408,0.609335,2.153,2.39266
0.849237,0.605656,2.14,2.38068
0.856183,0.605656,2.14,2.38316
0.863129,0.605656,2.14,2.38567
0.864383,0.601693,2.126,2.37257
0.871283,0.601693,2.126,2.37509
0.878184,0.601693,2.126,2.37763
0.885084,0.601693,2.126,2.38019
0.891985,0.601693,2.126,2.38276
0.898885,0.601693,2.126,2.38535
0.91175,0.605656,2.14,2.40369
0.918696,0.605656,2.14,2.40633
0.925642,0.605656,2.14,2.40899
0.932588,0.605656,2.14,2.41167
0.945242,0.609335,2.153,2.42903
0.95223,0.609335,2.153,2.43176
0.959218,0.609335,2.153,2.4345
0.966206,0.609335,2.153,2.43726
0.979522,0.613297,2.167,2.45591
0.986556,0.613297,2.167,2.45872
0.993589,0.613297,2.167,2.46155
1.00663,0.616976,2.18,2.47918
1.02021,0.620938,2.194,2.49801
1.02733,0.620938,2.194,2.50092
1.04153,0.625184,2.209,2.52097
1.05534,0.629146,2.223,2.53994
1.06256,0.629146,2.223,2.54295
1.06977,0.629146,2.223,2.54597
1.08377,0.633108,2.237,2.56506
1.09103,0.633108,2.237,2.56814
1.09829,0.633108,2.237,2.57123
1.10555,0.633108,2.237,2.57434
1.11281,0.633108,2.237,2.57747
1.12007,0.633108,2.237,2.58061
1.13489,0.637353,2.252,2.6011
1.1422,0.637353,2.252,2.6043
1.14951,0.637353,2.252,2.60751
1.15682,0.637353,2.252,2.61074
1.16413,0.637353,2.252,2.61399
1.16364,0.633108,2.237,2.59982
1.1709,0.633108,2.237,2.60308
1.17816,0.633108,2.237,2.60635
1.18542,0.633108,2.237,2.60964
1.19268,0.633108,2.237,2.61295
1.19994,0.633108,2.237,2.61627
1.19965,0.629146,2.223,2.60321
1.20686,0.629146,2.223,2.60654
1.21408,0.629146,2.223,2.60989
1.22129,0.629146,2.223,2.61326
1.22077,0.625184,2.209,2.60016
1.22794,0.625184,2.209,2.60353
1.23511,0.625184,2.209,2.60692
1.24228,0.625184,2.209,2.61033
1.24945,0.625184,2.209,2.61375
1.25662,0.625184,2.209,2.61718
1.25521,0.620938,2.194,2.60284
1.25428,0.616976,2.18,2.58965
1.26135,0.616976,2.18,2.59308
1.26086,0.613297,2.167,2.58105
1.2679,0.613297,2.167,2.58449
1.27493,0.613297,2.167,2.58795
1.26599,0.605656,2.14,2.55913
1.27294,0.605656,2.14,2.56257
1.27151,0.601693,2.126,2.54925
1.27841,0.601693,2.126,2.55269
1.27745,0.598014,2.113,2.54053
1.27641,0.594335,2.1,2.52833
1.28322,0.594335,2.1,2.53178
1.28206,0.590656,2.087,2.51955
1.28883,0.590656,2.087,2.523
1.2956,0.590656,2.087,2.52647
1.30238,0.590656,2.087,2.52995
1.30915,0.590656,2.087,2.53344
1.31592,0.590656,2.087,2.53695
1.31509,0.587259,2.075,2.52586
1.32183,0.587259,2.075,2.52937
1.32856,0.587259,2.075,2.5329
1.3353,0.587259,2.075,2.53644
1.34203,0.587259,2.075,2.53999
1.34877,0.587259,2.075,2.54356
1.3555,0.587259,2.075,2.54713
1.36224,0.587259,2.075,2.55072
1.36897,0.587259,2.075,2.55433
1.37571,0.587259,2.075,2.55794
1.38244,0.587259,2.075,2.56157
1.38047,0.58358,2.062,2.54914
1.38717,0.58358,2.062,2.55277
1.39386,0.58358,2.062,2.55641
1.3924,0.580184,2.05,2.54517
-1.67259,0.690176,2.411,3.01444
-1.66476,0.690176,2.411,3.0101
-1.66862,0.695043,2.428,3.02697
-1.66074,0.695043,2.428,3.02264
-1.65286,0.695043,2.428,3.01831
-1.64498,0.695043,2.428,3.01401
-1.64856,0.699909,2.445,3.03078
-1.64063,0.699909,2.445,3.02647
-1.63269,0.699909,2.445,3.02218
-1.62475,0.699909,2.445,3.0179
-1.61682,0.699909,2.445,3.01364
-1.60888,0.699909,2.445,3.00939
-1.61273,0.705062,2.463,3.02727
-1.60474,0.705062,2.463,3.02302
-1.59674,0.705062,2.463,3.01879
-1.57714,0.699909,2.445,2.99253
-1.5692,0.699909,2.445,2.98836
-1.57276,0.705062,2.463,3.00617
-1.56477,0.705062,2.463,3.002
-1.55677,0.705062,2.463,2.99784
-1.54878,0.705062,2.463,2.99369
-1.54078,0.705062,2.463,2.98956
-1.53279,0.705062,2.463,2.98545
-1.5248,0.705062,2.463,2.98136
-1.5168,0.705062,2.463,2.97727
-1.50881,0.705062,2.463,2.97321
-1.50081,0.705062,2.463,2.96916
-1.49282,0.705062,2.463,2.96513
-1.46372,0.695043,2.428,2.91903
-1.45584,0.695043,2.428,2.91509
-1.44796,0.695043,2.428,2.91116
-1.43,0.690176,2.411,2.88689
-1.42217,0.690176,2.411,2.88303
-1.41435,0.690176,2.411,2.87917
-1.39661,0.68531,2.394,2.85506
-1.38883,0.68531,2.394,2.85127
-1.38106,0.68531,2.394,2.84749
-1.36354,0.680443,2.377,2.82354
-1.35583,0.680443,2.377,2.81982
-1.34811,0.680443,2.377,2.81612
-1.3404,0.680443,2.377,2.81244
-1.33268,0.680443,2.377,2.80877
-1.32497,0.680443,2.377,2.80511
-1.31725,0.680443,2.377,2.80148
-1.30072,0.675863,2.361,2.77903
-1.29306,0.675863,2.361,2.77545
-1.28539,0.675863,2.361,2.77189
-1.27773,0.675863,2.361,2.76834
-1.27007,0.675863,2.361,2.76481
-1.26241,0.675863,2.361,2.7613
-1.25474,0.675863,2.361,2.75781
-1.24708,0.675863,2.361,2.75433
-1.23942,0.675863,2.361,2.75087
-1.23175,0.675863,2.361,2.74742
-1.22409,0.675863,2.361,2.74399
-1.21643,0.675863,2.361,2.74058
-1.20876,0.675863,2.361,2.73719
-1.2011,0.675863,2.361,2.73382
-1.18535,0.671283,2.345,2.71195
-1.17774,0.671283,2.345,2.70864
-1.17013,0.671283,2.345,2.70534
-1.16251,0.671283,2.345,2.70205
-1.14702,0.666703,2.329,2.68037
-1.13946,0.666703,2.329,2.67715
-1.1319,0.666703,2.329,2.67394
-1.12435,0.666703,2.329,2.67075
-1.11679,0.666703,2.329,2.66757
-1.10923,0.666703,2.329,2.66442
-1.10167,0.666703,2.329,2.66128
-1.09411,0.666703,2.329,2.65816
-1.07908,0.662123,2.313,2.63682
-1.07158,0.662123,2.313,2.63375
-1.06407,0.662123,2.313,2.63071
-1.04971,0.657829,2.298,2.61064
-1.04225,0.657829,2.298,2.60765
-1.03479,0.657829,2.298,2.60468
-1.02733,0.657829,2.298,2.60172
-1.01277,0.653249,2.282,2.58069
-1.00537,0.653249,2.282,2.57779
-0.99796,0.653249,2.282,2.57491
-0.984043,0.648955,2.267,2.55515
-0.976684,0.648955,2.267,2.55232
-0.969326,0.648955,2.267,2.54951
-0.961968,0.648955,2.267,2.54673
-0.960926,0.653249,2.282,2.56079
-0.95352,0.653249,2.282,2.55802
-0.946113,0.653249,2.282,2.55527
-0.938706,0.653249,2.282,2.55253
-0.931299,0.653249,2.282,2.54982
-0.923892,0.653249,2.282,2.54712
-0.916486,0.653249,2.282,2.54445
-0.909079,0.653249,2.282,2.54179
-0.901672,0.653249,2.282,2.53915
-0.894265,0.653249,2.282,2.53653
-0.886858,0.653249,2.282,2.53393
-0.879452,0.653249,2.282,2.53134
-0.872045,0.653249,2.282,2.52878
-0.864638,0.653249,2.282,2.52623
-0.857231,0.653249,2.282,2.52371
-0.855783,0.657829,2.298,2.53888
-0.848324,0.657829,2.298,2.53637
-0.840865,0.657829,2.298,2.53389
-0.833407,0.657829,2.298,2.53142
-0.825948,0.657829,2.298,2.52898
-0.823832,0.662123,2.313,2.54304
-0.816324,0.662123,2.313,2.54062
-0.808817,0.662123,2.313,2.53822
-0.812395,0.671283,2.345,2.57092
-0.804784,0.671283,2.345,2.56853
-0.802612,0.675863,2.361,2.58366
-0.794949,0.675863,2.361,2.58129
-0.792621,0.680443,2.377,2.59642
-0.790519,0.68531,2.394,2.61262
-0.782749,0.68531,2.394,2.61028
-0.774979,0.68531,2.394,2.60796
-0.772656,0.690176,2.411,2.62417
-0.764831,0.690176,2.411,2.62188
-0.757005,0.690176,2.411,2.6196
-0.754462,0.695043,2.428,2.63581
-0.746581,0.695043,2.428,2.63356
-0.738701,0.695043,2.428,2.63134
-0.725703,0.690176,2.411,2.61073
-0.717878,0.690176,2.411,2.60857
-0.710052,0.690176,2.411,2.60642
-0.697275,0.68531,2.394,2.58594
-0.689505,0.68531,2.394,2.58385
-0.681735,0.68531,2.394,2.58179
-0.669178,0.680443,2.377,2.56143
-0.661463,0.680443,2.377,2.55943
-0.649348,0.675863,2.361,2.54023
-0.637336,0.671283,2.345,2.52108
-0.629725,0.671283,2.345,2.51917
-0.622113,0.671283,2.345,2.51727
-0.610309,0.666703,2.329,2.49824
-0.594727,0.657829,2.298,2.46318
-0.587268,0.657829,2.298,2.46139
-0.57981,0.657829,2.298,2.45962
-0.572351,0.657829,2.298,2.45787
-0.564892,0.657829,2.298,2.45614
-0.557433,0.657829,2.298,2.45444
-0.549975,0.657829,2.298,2.45276
-0.542516,0.657829,2.298,2.4511
-0.535057,0.657829,2.298,2.44945
-0.527598,0.657829,2.298,2.44784
-0.52014,0.657829,2.298,2.44624
-0.512681,0.657829,2.298,2.44466
-0.505222,0.657829,2.298,2.44311
-0.497763,0.657829,2.298,2.44158
-0.490305,0.657829,2.298,2.44007
-0.482846,0.657829,2.298,2.43858
-0.472077,0.653249,2.282,2.42015
-0.46467,0.653249,2.282,2.41871
-0.454258,0.648955,2.267,2.40141
-0.4469,0.648955,2.267,2.40003
-0.439542,0.648955,2.267,2.39867
-0.429324,0.644661,2.252,2.38147
-0.422015,0.644661,2.252,2.38017
-0.414705,0.644661,2.252,2.37888
-0.407396,0.644661,2.252,2.37762
-0.400086,0.644661,2.252,2.37638
-0.390161,0.640367,2.237,2.35934
-0.3829,0.640367,2.237,2.35815
-0.375639,0.640367,2.237,2.35698
-0.368378,0.640367,2.237,2.35583
-0.361118,0.640367,2.237,2.35471
-0.353857,0.640367,2.237,2.3536
-0.346596,0.640367,2.237,2.35252
-0.339335,0.640367,2.237,2.35146
-0.332075,0.640367,2.237,2.35043
-0.322781,0.636359,2.223,2.33471
-0.315566,0.636359,2.223,2.33372
-0.308351,0.636359,2.223,2.33276
-0.297207,0.628058,2.194,2.3014
-0.290086,0.628058,2.194,2.30049
-0.284899,0.632352,2.209,2.31532
-0.277729,0.632352,2.209,2.31445
-0.268722,0.628058,2.194,2.29789
-0.261601,0.628058,2.194,2.29707
-0.252856,0.62405,2.18,2.28162
-0.24578,0.62405,2.18,2.28084
-0.237281,0.620329,2.167,2.26649
-0.230247,0.620329,2.167,2.26577
-0.223214,0.620329,2.167,2.26507
-0.214784,0.616321,2.153,2.24975
-0.207796,0.616321,2.153,2.2491
-0.200807,0.616321,2.153,2.24846
-0.193819,0.616321,2.153,2.24785
-0.186831,0.616321,2.153,2.24726
-0.179843,0.616321,2.153,2.24669
-0.172855,0.616321,2.153,2.24614
-0.165867,0.616321,2.153,2.24561
-0.158879,0.616321,2.153,2.24511
-0.150974,0.6126,2.14,2.23107
-0.144028,0.6126,2.14,2.23061
-0.137082,0.6126,2.14,2.23017
-0.130136,0.6126,2.14,2.22976
-0.12319,0.6126,2.14,2.22936
-0.11695,0.616321,2.153,2.24253
-0.109962,0.616321,2.153,2.24218
-0.102352,0.6126,2.14,2.22831
-0.0954063,0.6126,2.14,2.228
-0.0884604,0.6126,2.14,2.22771
-0.0815145,0.6126,2.14,2.22745
-0.0745686,0.6126,2.14,2.2272
-0.0676227,0.6126,2.14,2.22698
-0.0602798,0.608592,2.126,2.21221
-0.0530529,0.60487,2.113,2.19851
-0.0461947,0.60487,2.113,2.19836
-0.0393364,0.60487,2.113,2.19822
-0.0322783,0.601149,2.1,2.18459
-0.0254622,0.601149,2.1,2.1845
-0.0186461,0.601149,2.1,2.18443
-0.0118301,0.601149,2.1,2.18438
-0.00501398,0.601149,2.1,2.18435
0.00179094,0.597428,2.087,2.17083
0.00856483,0.597428,2.087,2.17084
0.0153387,0.597428,2.087,2.17088
0.0221126,0.597428,2.087,2.17094
0.0288865,0.597428,2.087,2.17102
0.0358825,0.601149,2.1,2.18464
0.0435119,0.6126,2.14,2.22638
0.0501277,0.608592,2.126,2.21196
0.0570282,0.608592,2.126,2.21213
0.0639286,0.608592,2.126,2.21232
0.070396,0.60487,2.113,2.199
0.0772543,0.60487,2.113,2.19923
0.08463,0.608592,2.126,2.21301
0.0915305,0.608592,2.126,2.21329
0.098431,0.608592,2.126,2.21358
0.105331,0.608592,2.126,2.2139
0.112232,0.608592,2.126,2.21424
0.118404,0.60487,2.113,2.20106
0.125262,0.60487,2.113,2.20144
0.13212,0.60487,2.113,2.20184
0.138979,0.60487,2.113,2.20226
0.146734,0.608592,2.126,2.21626
0.153635,0.608592,2.126,2.21672
0.160535,0.608592,2.126,2.21721
0.167436,0.608592,2.126,2.21772
0.174336,0.608592,2.126,2.21825
0.181237,0.608592,2.126,2.21881
0.188137,0.608592,2.126,2.21938
0.196322,0.6126,2.14,2.2346
0.204503,0.616321,2.153,2.2488
0.211491,0.616321,2.153,2.24944
0.218479,0.616321,2.153,2.25011
0.226933,0.620329,2.167,2.26543
0.233967,0.620329,2.167,2.26615
0.242446,0.62405,2.18,2.28049
0.249522,0.62405,2.18,2.28125
0.256597,0.62405,2.18,2.28203
0.265366,0.628058,2.194,2.2975
0.272488,0.628058,2.194,2.29833
0.279609,0.628058,2.194,2.29919
0.28673,0.628058,2.194,2.30007
0.293851,0.628058,2.194,2.30097
0.300972,0.628058,2.194,2.30189
0.308093,0.628058,2.194,2.30283
0.315215,0.628058,2.194,2.30379
0.322336,0.628058,2.194,2.30478
0.329457,0.628058,2.194,2.30578
0.336578,0.628058,2.194,2.30681
0.346049,0.632352,2.209,2.32364
0.353219,0.632352,2.209,2.32472
0.357942,0.628058,2.194,2.31002
0.365063,0.628058,2.194,2.31114
0.374729,0.632352,2.209,2.32808
0.381899,0.632352,2.209,2.32925
0.389068,0.632352,2.209,2.33043
0.396238,0.632352,2.209,2.33164
0.403408,0.632352,2.209,2.33287
0.410578,0.632352,2.209,2.33412
0.417748,0.632352,2.209,2.33539
0.424918,0.632352,2.209,2.33669
0.434826,0.636359,2.223,2.35282
0.442041,0.636359,2.223,2.35416
0.449257,0.636359,2.223,2.35553
0.456472,0.636359,2.223,2.35692
0.463687,0.636359,2.223,2.35832
0.470903,0.636359,2.223,2.35975
0.478118,0.636359,2.223,2.3612
0.485333,0.636359,2.223,2.36267
0.492548,0.636359,2.223,2.36417
0.499764,0.636359,2.223,2.36568
0.506979,0.636359,2.223,2.36722
0.514194,0.636359,2.223,2.36877
0.52141,0.636359,2.223,2.37035
0.525296,0.632352,2.209,2.35701
0.532466,0.632352,2.209,2.35862
0.535971,0.628058,2.194,2.34422
0.543092,0.628058,2.194,2.34586
0.550214,0.628058,2.194,2.34752
0.557335,0.628058,2.194,2.34919
0.564456,0.628058,2.194,2.35089
0.56793,0.62405,2.18,2.3376
0.575006,0.62405,2.18,2.33933
0.57861,0.620329,2.167,2.32712
0.585644,0.620329,2.167,2.32888
0.592677,0.620329,2.167,2.33066
0.599711,0.620329,2.167,2.33246
0.610384,0.62405,2.18,2.34828
0.61746,0.62405,2.18,2.35013
0.624536,0.62405,2.18,2.352
0.635668,0.628058,2.194,2.369
0.642789,0.628058,2.194,2.37092
0.64991,0.628058,2.194,2.37286
0.657031,0.628058,2.194,2.37482
0.668693,0.632352,2.209,2.39305
0.675863,0.632352,2.209,2.39507
0.683033,0.632352,2.209,2.3971
0.690203,0.632352,2.209,2.39915
0.697373,0.632352,2.209,2.40122
0.699758,0.628058,2.194,2.387
0.702369,0.62405,2.18,2.37385
0.709445,0.62405,2.18,2.37595
0.712248,0.620329,2.167,2.36389
0.719281,0.620329,2.167,2.36602
0.726315,0.620329,2.167,2.36817
0.733348,0.620329,2.167,2.37034
0.740382,0.620329,2.167,2.37252
0.747415,0.620329,2.167,2.37473
0.758975,0.62405,2.18,2.39121
0.761482,0.620329,2.167,2.37919
0.768516,0.620329,2.167,2.38145
0.775549,0.620329,2.167,2.38373
0.782583,0.620329,2.167,2.38603
0.789617,0.620329,2.167,2.38834
0.79665,0.620329,2.167,2.39068
0.803684,0.620329,2.167,2.39303
0.805479,0.616321,2.153,2.37993
0.812468,0.616321,2.153,2.3823
0.819456,0.616321,2.153,2.38469
0.821454,0.6126,2.14,2.37269
0.817948,0.60487,2.113,2.34514
0.824806,0.60487,2.113,2.34754
0.831664,0.60487,2.113,2.34996
0.833364,0.601149,2.1,2.33792
0.84018,0.601149,2.1,2.34036
0.846996,0.601149,2.1,2.34282
0.853812,0.601149,2.1,2.34529
0.860628,0.601149,2.1,2.34778
0.862074,0.597428,2.087,2.33574
0.868848,0.597428,2.087,2.33824
0.875622,0.597428,2.087,2.34077
0.882396,0.597428,2.087,2.34331
0.88917,0.597428,2.087,2.34587
0.895944,0.597428,2.087,2.34845
0.908341,0.601149,2.1,2.36568
0.915157,0.601149,2.1,2.36831
0.92768,0.60487,2.113,2.38563
0.934538,0.60487,2.113,2.3883
0.941397,0.60487,2.113,2.391
0.954089,0.608592,2.126,2.40843
0.960989,0.608592,2.126,2.41117
0.96789,0.608592,2.126,2.41393
0.98121,0.6126,2.14,2.43262
0.994158,0.616321,2.153,2.45023
1.00766,0.620329,2.167,2.46902
1.01469,0.620329,2.167,2.4719
1.02785,0.62405,2.18,2.48964
1.03493,0.62405,2.18,2.49257
1.042,0.62405,2.18,2.49552
1.05582,0.628058,2.194,2.51453
1.06294,0.628058,2.194,2.51752
1.07006,0.628058,2.194,2.52054
1.07718,0.628058,2.194,2.52357
1.0843,0.628058,2.194,2.52662
1.09142,0.628058,2.194,2.52968
1.09854,0.628058,2.194,2.53276
1.10567,0.628058,2.194,2.53586
1.12039,0.632352,2.209,2.55633
1.12756,0.632352,2.209,2.55948
1.13473,0.632352,2.209,2.56265
1.1419,0.632352,2.209,2.56583
1.14907,0.632352,2.209,2.56903
1.14839,0.628058,2.194,2.55478
1.15551,0.628058,2.194,2.55799
1.16263,0.628058,2.194,2.56121
1.16976,0.628058,2.194,2.56445
1.17688,0.628058,2.194,2.56771
1.17644,0.62405,2.18,2.55458
1.18352,0.62405,2.18,2.55784
1.19059,0.62405,2.18,2.56112
1.19767,0.62405,2.18,2.56442
1.19756,0.620329,2.167,2.55242
1.2046,0.620329,2.167,2.55573
1.2189,0.62405,2.18,2.5744
1.22597,0.62405,2.18,2.57776
1.24945,0.632352,2.209,2.61547
1.25662,0.632352,2.209,2.6189
1.25521,0.628058,2.194,2.60454
1.25428,0.62405,2.18,2.59134
1.26135,0.62405,2.18,2.59477
1.26086,0.620329,2.167,2.58273
1.2679,0.620329,2.167,2.58617
1.27493,0.620329,2.167,2.58962
1.26599,0.6126,2.14,2.56078
1.27294,0.6126,2.14,2.56422
1.27151,0.608592,2.126,2.55088
1.27841,0.608592,2.126,2.55433
1.27745,0.60487,2.113,2.54215
1.27641,0.601149,2.1,2.52994
1.28322,0.601149,2.1,2.53339
1.28206,0.597428,2.087,2.52114
1.28883,0.597428,2.087,2.52459
1.2956,0.597428,2.087,2.52806
1.30238,0.597428,2.087,2.53154
1.30915,0.597428,2.087,2.53503
1.31592,0.597428,2.087,2.53853
1.31509,0.593993,2.075,2.52743
1.32183,0.593993,2.075,2.53094
1.32856,0.593993,2.075,2.53447
1.3353,0.593993,2.075,2.53801
1.34203,0.593993,2.075,2.54156
1.34877,0.593993,2.075,2.54512
1.3555,0.593993,2.075,2.54869
1.36224,0.593993,2.075,2.55228
1.36897,0.593993,2.075,2.55588
1.37571,0.593993,2.075,2.5595
1.38244,0.593993,2.075,2.56312
1.38047,0.590271,2.062,2.55068
1.38717,0.590271,2.062,2.55431
1.39386,0.590271,2.062,2.55795
1.3924,0.586836,2.05,2.5467
-1.67259,0.698,2.411,3.01624
-1.66476,0.698,2.411,3.0119
-1.66862,0.702921,2.428,3.02879
-1.66074,0.702921,2.428,3.02446
-1.65286,0.702921,2.428,3.02014
-1.64498,0.702921,2.428,3.01583
-1.64856,0.707843,2.445,3.03263
-1.64063,0.707843,2.445,3.02832
-1.63269,0.707843,2.445,3.02403
-1.62475,0.707843,2.445,3.01975
-1.61682,0.707843,2.445,3.01549
-1.60888,0.707843,2.445,3.01124
-1.61273,0.713054,2.463,3.02915
-1.60474,0.713054,2.463,3.0249
-1.59674,0.713054,2.463,3.02066
-1.58875,0.713054,2.463,3.01644
-1.58076,0.713054,2.463,3.01224
-1.58425,0.718265,2.481,3.03004
-1.56477,0.713054,2.463,3.00388
-1.55677,0.713054,2.463,2.99973
-1.54878,0.713054,2.463,2.99558
-1.54078,0.713054,2.463,2.99146
-1.53279,0.713054,2.463,2.98735
-1.5248,0.713054,2.463,2.98326
-1.5168,0.713054,2.463,2.97918
-1.50881,0.713054,2.463,2.97512
-1.50081,0.713054,2.463,2.97107
-1.49282,0.713054,2.463,2.96704
-1.46372,0.702921,2.428,2.92092
-1.45584,0.702921,2.428,2.91698
-1.44796,0.702921,2.428,2.91305
-1.43,0.698,2.411,2.88878
-1.42217,0.698,2.411,2.88491
-1.41435,0.698,2.411,2.88106
-1.39661,0.693078,2.394,2.85694
-1.38883,0.693078,2.394,2.85315
-1.38106,0.693078,2.394,2.84937
-1.36354,0.688156,2.377,2.82541
-1.35583,0.688156,2.377,2.82169
-1.34811,0.688156,2.377,2.81799
-1.3404,0.688156,2.377,2.81431
-1.33268,0.688156,2.377,2.81065
-1.32497,0.688156,2.377,2.807
-1.31725,0.688156,2.377,2.80336
-1.30072,0.683524,2.361,2.7809
-1.29306,0.683524,2.361,2.77732
-1.28539,0.683524,2.361,2.77376
-1.27773,0.683524,2.361,2.77022
-1.27007,0.683524,2.361,2.76669
-1.26241,0.683524,2.361,2.76319
-1.25474,0.683524,2.361,2.75969
-1.24708,0.683524,2.361,2.75622
-1.23942,0.683524,2.361,2.75276
-1.23175,0.683524,2.361,2.74932
-1.22409,0.683524,2.361,2.74589
-1.21643,0.683524,2.361,2.74248
-1.20876,0.683524,2.361,2.73909
-1.19296,0.678892,2.345,2.71718
-1.18535,0.678892,2.345,2.71385
-1.17774,0.678892,2.345,2.71053
-1.16214,0.67426,2.329,2.68876
-1.15458,0.67426,2.329,2.6855
-1.13914,0.669628,2.313,2.66384
-1.13164,0.669628,2.313,2.66063
-1.12413,0.669628,2.313,2.65745
-1.11662,0.669628,2.313,2.65428
-1.10911,0.669628,2.313,2.65113
-1.09446,0.665285,2.298,2.63083
-1.087,0.665285,2.298,2.62773
-1.07954,0.665285,2.298,2.62466
-1.07209,0.665285,2.298,2.6216
-1.05721,0.660653,2.282,2.60033
-1.04981,0.660653,2.282,2.59732
-1.0424,0.660653,2.282,2.59434
-1.02819,0.656311,2.267,2.57434
-1.02083,0.656311,2.267,2.57141
-1.01348,0.656311,2.267,2.56849
-1.00612,0.656311,2.267,2.5656
-0.99215,0.651968,2.252,2.54577
-0.984841,0.651968,2.252,2.54293
-0.977531,0.651968,2.252,2.54011
-0.970222,0.651968,2.252,2.5373
-0.962913,0.651968,2.252,2.53452
-0.955603,0.651968,2.252,2.53175
-0.95461,0.656311,2.267,2.54584
-0.947252,0.656311,2.267,2.54309
-0.939894,0.656311,2.267,2.54036
-0.932536,0.656311,2.267,2.53765
-0.925178,0.656311,2.267,2.53495
-0.917819,0.656311,2.267,2.53228
-0.910461,0.656311,2.267,2.52962
-0.903103,0.656311,2.267,2.52698
-0.895745,0.656311,2.267,2.52436
-0.888387,0.656311,2.267,2.52176
-0.881029,0.656311,2.267,2.51918
-0.873671,0.656311,2.267,2.51661
-0.866313,0.656311,2.267,2.51407
-0.858954,0.656311,2.267,2.51154
-0.851596,0.656311,2.267,2.50903
-0.844238,0.656311,2.267,2.50655
-0.83688,0.656311,2.267,2.50408
-0.835011,0.660653,2.282,2.51818
-0.827604,0.660653,2.282,2.51573
-0.820197,0.660653,2.282,2.51331
-0.81279,0.660653,2.282,2.5109
-0.81103,0.665285,2.298,2.5261
-0.803572,0.665285,2.298,2.52371
-0.801309,0.669628,2.313,2.53781
-0.799293,0.67426,2.329,2.55299
-0.791734,0.67426,2.329,2.55063
-0.784174,0.67426,2.329,2.54829
-0.787286,0.683524,2.361,2.58096
-0.779622,0.683524,2.361,2.57863
-0.771959,0.683524,2.361,2.57632
-0.774979,0.693078,2.394,2.61002
-0.767208,0.693078,2.394,2.60772
-0.759438,0.693078,2.394,2.60544
-0.757005,0.698,2.411,2.62168
-0.74918,0.698,2.411,2.61943
-0.741354,0.698,2.411,2.6172
-0.728357,0.693078,2.394,2.59655
-0.720586,0.693078,2.394,2.59439
-0.712816,0.693078,2.394,2.59224
-0.705046,0.693078,2.394,2.59011
-0.697275,0.693078,2.394,2.58801
-0.689505,0.693078,2.394,2.58593
-0.676894,0.688156,2.377,2.56552
-0.664674,0.683524,2.361,2.54624
-0.657011,0.683524,2.361,2.54425
-0.640547,0.67426,2.329,2.50782
-0.632987,0.67426,2.329,2.5059
-0.617103,0.665285,2.298,2.47067
-0.609644,0.665285,2.298,2.46882
-0.602186,0.665285,2.298,2.46699
-0.590586,0.660653,2.282,2.44802
-0.583179,0.660653,2.282,2.44624
-0.571988,0.656311,2.267,2.42842
-0.56463,0.656311,2.267,2.42669
-0.557272,0.656311,2.267,2.42499
-0.549914,0.656311,2.267,2.42331
-0.542555,0.656311,2.267,2.42165
-0.535197,0.656311,2.267,2.42001
-0.527839,0.656311,2.267,2.4184
-0.520481,0.656311,2.267,2.4168
-0.513123,0.656311,2.267,2.41523
-0.505765,0.656311,2.267,2.41368
-0.498407,0.656311,2.267,2.41214
-0.487799,0.651968,2.252,2.39468
-0.48049,0.651968,2.252,2.39321
-0.473181,0.651968,2.252,2.39175
-0.465871,0.651968,2.252,2.39031
-0.458562,0.651968,2.252,2.3889
-0.448247,0.647626,2.237,2.37161
-0.438226,0.643573,2.223,2.35541
-0.431011,0.643573,2.223,2.35408
-0.423795,0.643573,2.223,2.35277
-0.41658,0.643573,2.223,2.35148
-0.409365,0.643573,2.223,2.35021
-0.404682,0.647626,2.237,2.36376
-0.394934,0.643573,2.223,2.34774
-0.385277,0.639519,2.209,2.33176
-0.378107,0.639519,2.209,2.33059
-0.370937,0.639519,2.209,2.32943
-0.363768,0.639519,2.209,2.3283
-0.358858,0.643573,2.223,2.34194
-0.351642,0.643573,2.223,2.34085
-0.342258,0.639519,2.209,2.32504
-0.335088,0.639519,2.209,2.32399
-0.327918,0.639519,2.209,2.32297
-0.320748,0.639519,2.209,2.32197
-0.315566,0.643573,2.223,2.3357
-0.308351,0.643573,2.223,2.33474
-0.297207,0.635177,2.194,2.30335
-0.290086,0.635177,2.194,2.30244
-0.284899,0.639519,2.209,2.31729
-0.277729,0.639519,2.209,2.31642
-0.268722,0.635177,2.194,2.29985
-0.261601,0.635177,2.194,2.29903
-0.252856,0.631124,2.18,2.28356
-0.24578,0.631124,2.18,2.28279
-0.237281,0.62736,2.167,2.26843
-0.230247,0.62736,2.167,2.2677
-0.223214,0.62736,2.167,2.267
-0.214784,0.623307,2.153,2.25168
-0.207796,0.623307,2.153,2.25102
-0.200807,0.623307,2.153,2.25039
-0.193819,0.623307,2.153,2.24977
-0.186831,0.623307,2.153,2.24918
-0.179843,0.623307,2.153,2.24861
-0.172855,0.623307,2.153,2.24807
-0.165867,0.623307,2.153,2.24754
-0.158879,0.623307,2.153,2.24703
-0.150974,0.619543,2.14,2.23299
-0.144028,0.619543,2.14,2.23253
-0.137082,0.619543,2.14,2.23209
-0.130136,0.619543,2.14,2.23167
-0.12319,0.619543,2.14,2.23128
-0.11695,0.623307,2.153,2.24446
-0.109962,0.623307,2.153,2.24411
-0.102352,0.619543,2.14,2.23023
-0.0954063,0.619543,2.14,2.22992
-0.0884604,0.619543,2.14,2.22963
-0.0815145,0.619543,2.14,2.22937
-0.0745686,0.619543,2.14,2.22912
-0.0676227,0.619543,2.14,2.2289
-0.0602798,0.61549,2.126,2.21412
-0.0530529,0.611727,2.113,2.20041
-0.0461947,0.611727,2.113,2.20025
-0.0393364,0.611727,2.113,2.20012
-0.0322783,0.607963,2.1,2.18647
-0.0254622,0.607963,2.1,2.18638
-0.0186461,0.607963,2.1,2.18631
-0.0118301,0.607963,2.1,2.18627
-0.00501398,0.607963,2.1,2.18624
0.00179094,0.6042,2.087,2.1727
0.00856483,0.6042,2.087,2.17272
0.0153387,0.6042,2.087,2.17275
0.0221126,0.6042,2.087,2.17281
0.0288865,0.6042,2.087,2.17289
0.0358825,0.607963,2.1,2.18653
0.0426986,0.607963,2.1,2.18665
0.0495146,0.607963,2.1,2.18679
0.055982,0.6042,2.087,2.17342
0.0627559,0.6042,2.087,2.17361
0.0695298,0.6042,2.087,2.17381
0.0763037,0.6042,2.087,2.17404
0.0830775,0.6042,2.087,2.17429
0.0893348,0.600726,2.075,2.16205
0.0960697,0.600726,2.075,2.16234
0.102805,0.600726,2.075,2.16265
0.10954,0.600726,2.075,2.16298
0.116275,0.600726,2.075,2.16333
0.123009,0.600726,2.075,2.16371
0.129744,0.600726,2.075,2.1641
0.136479,0.600726,2.075,2.16451
0.143214,0.600726,2.075,2.16495
0.150816,0.6042,2.087,2.17793
0.15759,0.6042,2.087,2.17841
0.164364,0.6042,2.087,2.17891
0.171138,0.6042,2.087,2.17943
0.177912,0.6042,2.087,2.17997
0.184686,0.6042,2.087,2.18054
0.19146,0.6042,2.087,2.18112
0.198234,0.6042,2.087,2.18172
0.206284,0.607963,2.1,2.19594
0.21442,0.611727,2.113,2.21019
0.221278,0.611727,2.113,2.21087
0.228136,0.611727,2.113,2.21157
0.23644,0.61549,2.126,2.2259
0.243341,0.61549,2.126,2.22664
0.250241,0.61549,2.126,2.2274
0.257142,0.61549,2.126,2.22819
0.265781,0.619543,2.14,2.24367
0.272727,0.619543,2.14,2.24451
0.281372,0.623307,2.153,2.259
0.28836,0.623307,2.153,2.25988
0.295348,0.623307,2.153,2.26079
0.302336,0.623307,2.153,2.26171
0.309324,0.623307,2.153,2.26265
0.316312,0.623307,2.153,2.26362
0.3233,0.623307,2.153,2.26461
0.330288,0.623307,2.153,2.26561
0.337277,0.623307,2.153,2.26664
0.344265,0.623307,2.153,2.26769
0.351253,0.623307,2.153,2.26877
0.358241,0.623307,2.153,2.26986
0.365229,0.623307,2.153,2.27097
0.372217,0.623307,2.153,2.27211
0.379205,0.623307,2.153,2.27326
0.386193,0.623307,2.153,2.27444
0.393181,0.623307,2.153,2.27563
0.400169,0.623307,2.153,2.27685
0.409805,0.62736,2.167,2.2929
0.416839,0.62736,2.167,2.29417
0.426415,0.631124,2.18,2.30923
0.433491,0.631124,2.18,2.31055
0.440567,0.631124,2.18,2.31189
0.450517,0.635177,2.194,2.3281
0.457638,0.635177,2.194,2.32949
0.464759,0.635177,2.194,2.3309
0.471881,0.635177,2.194,2.33233
0.479002,0.635177,2.194,2.33378
0.486123,0.635177,2.194,2.33525
0.493244,0.635177,2.194,2.33674
0.503786,0.639519,2.209,2.35424
0.510956,0.639519,2.209,2.35579
0.518126,0.639519,2.209,2.35735
0.5184,0.631124,2.18,2.32797
0.525475,0.631124,2.18,2.32956
0.532551,0.631124,2.18,2.33116
0.536409,0.62736,2.167,2.31888
0.539932,0.623307,2.153,2.30553
0.54692,0.623307,2.153,2.30717
0.553908,0.623307,2.153,2.30884
0.553862,0.61549,2.126,2.28155
0.560762,0.61549,2.126,2.28323
0.567663,0.61549,2.126,2.28494
0.574563,0.61549,2.126,2.28666
0.581464,0.61549,2.126,2.28841
0.588364,0.61549,2.126,2.29017
0.595265,0.61549,2.126,2.29195
0.602165,0.61549,2.126,2.29375
0.609066,0.61549,2.126,2.29558
0.615966,0.61549,2.126,2.29742
0.622867,0.61549,2.126,2.29928
0.629767,0.61549,2.126,2.30115
0.636667,0.61549,2.126,2.30305
0.647806,0.619543,2.14,2.32015
0.654752,0.619543,2.14,2.3221
0.661698,0.619543,2.14,2.32406
0.668644,0.619543,2.14,2.32605
0.67559,0.619543,2.14,2.32806
0.67807,0.61549,2.126,2.31484
0.684971,0.61549,2.126,2.31687
0.691871,0.61549,2.126,2.31892
0.694499,0.611727,2.113,2.3068
0.701357,0.611727,2.113,2.30887
0.708215,0.611727,2.113,2.31096
0.715074,0.611727,2.113,2.31307
0.726374,0.61549,2.126,2.32945
0.733274,0.61549,2.126,2.33161
0.745049,0.619543,2.14,2.34916
0.751995,0.619543,2.14,2.35137
0.75894,0.619543,2.14,2.3536
0.765886,0.619543,2.14,2.35585
0.772832,0.619543,2.14,2.35811
0.779778,0.619543,2.14,2.3604
0.786724,0.619543,2.14,2.3627
0.79367,0.619543,2.14,2.36503
0.795378,0.61549,2.126,2.35188
0.802279,0.61549,2.126,2.35422
0.809179,0.61549,2.126,2.35658
0.806099,0.607963,2.1,2.33011
0.807883,0.6042,2.087,2.31804
0.814657,0.6042,2.087,2.32041
0.821431,0.6042,2.087,2.32279
0.833364,0.607963,2.1,2.33968
0.84018,0.607963,2.1,2.34212
0.846996,0.607963,2.1,2.34457
0.853812,0.607963,2.1,2.34704
0.860628,0.607963,2.1,2.34953
0.862074,0.6042,2.087,2.33748
0.868848,0.6042,2.087,2.33998
0.875622,0.6042,2.087,2.34251
0.882396,0.6042,2.087,2.34505
0.88917,0.6042,2.087,2.3476
0.895944,0.6042,2.087,2.35018
0.908341,0.607963,2.1,2.36743
0.915157,0.607963,2.1,2.37005
0.92768,0.611727,2.113,2.38738
0.934538,0.611727,2.113,2.39005
0.941397,0.611727,2.113,2.39274
0.954089,0.61549,2.126,2.41018
0.960989,0.61549,2.126,2.41292
0.96789,0.61549,2.126,2.41568
0.98121,0.619543,2.14,2.43438
0.994158,0.623307,2.153,2.45199
1.00766,0.62736,2.167,2.4708
1.01469,0.62736,2.167,2.47367
1.02785,0.631124,2.18,2.49143
1.03493,0.631124,2.18,2.49435
1.042,0.631124,2.18,2.4973
1.05582,0.635177,2.194,2.51631
1.06294,0.635177,2.194,2.51931
1.07006,0.635177,2.194,2.52232
1.07718,0.635177,2.194,2.52535
1.0843,0.635177,2.194,2.5284
1.09142,0.635177,2.194,2.53146
1.09854,0.635177,2.194,2.53454
1.10567,0.635177,2.194,2.53763
1.12039,0.639519,2.209,2.55811
1.12756,0.639519,2.209,2.56126
1.13473,0.639519,2.209,2.56443
1.1419,0.639519,2.209,2.56761
1.14907,0.639519,2.209,2.5708
1.14839,0.635177,2.194,2.55654
1.15551,0.635177,2.194,2.55975
1.16263,0.635177,2.194,2.56297
1.16976,0.635177,2.194,2.56621
1.17688,0.635177,2.194,2.56946
1.17644,0.631124,2.18,2.55631
1.18352,0.631124,2.18,2.55958
1.19059,0.631124,2.18,2.56286
1.19767,0.631124,2.18,2.56615
1.19756,0.62736,2.167,2.55414
1.2046,0.62736,2.167,2.55744
1.2189,0.631124,2.18,2.57613
1.21866,0.62736,2.167,2.5641
1.2257,0.62736,2.167,2.56745
1.23273,0.62736,2.167,2.57082
1.23175,0.623307,2.153,2.55756
1.23874,0.623307,2.153,2.56094
1.24573,0.623307,2.153,2.56433
1.24515,0.619543,2.14,2.55222
1.2521,0.619543,2.14,2.55562
1.25905,0.619543,2.14,2.55903
1.25771,0.61549,2.126,2.54569
1.25688,0.611727,2.113,2.53352
1.25596,0.607963,2.1,2.52132
1.26278,0.607963,2.1,2.52472
1.26959,0.607963,2.1,2.52814
1.26851,0.6042,2.087,2.5159
1.27528,0.6042,2.087,2.51932
1.27468,0.600726,2.075,2.50825
1.28142,0.600726,2.075,2.51168
1.28815,0.600726,2.075,2.51512
1.28678,0.596962,2.062,2.5028
1.29347,0.596962,2.062,2.50625
1.30836,0.600726,2.075,2.52553
1.30685,0.596962,2.062,2.51318
1.31355,0.596962,2.062,2.51667
1.32024,0.596962,2.062,2.52017
1.32693,0.596962,2.062,2.52368
1.33362,0.596962,2.062,2.5272
1.34032,0.596962,2.062,2.53074
1.34701,0.596962,2.062,2.53429
1.34582,0.593488,2.05,2.52309
1.35248,0.593488,2.05,2.52664
1.35913,0.593488,2.05,2.53021
1.36579,0.593488,2.05,2.53379
1.37244,0.593488,2.05,2.53738
1.37909,0.593488,2.05,2.54099
1.37764,0.590014,2.038,2.52971
1.38425,0.590014,2.038,2.53332
-1.67259,0.705823,2.411,3.01806
-1.66476,0.705823,2.411,3.01373
-1.66862,0.7108,2.428,3.03063
-1.66074,0.7108,2.428,3.0263
-1.65286,0.7108,2.428,3.02198
-1.64498,0.7108,2.428,3.01768
-1.6371,0.7108,2.428,3.01339
-1.64063,0.715777,2.445,3.03018
-1.63269,0.715777,2.445,3.02589
-1.62475,0.715777,2.445,3.02162
-1.61682,0.715777,2.445,3.01736
-1.60888,0.715777,2.445,3.01312
-1.61273,0.721046,2.463,3.03104
-1.60474,0.721046,2.463,3.02679
-1.59674,0.721046,2.463,3.02256
-1.58875,0.721046,2.463,3.01834
-1.58076,0.721046,2.463,3.01414
-1.57276,0.721046,2.463,3.00996
-1.56477,0.721046,2.463,3.00579
-1.55677,0.721046,2.463,3.00164
-1.54878,0.721046,2.463,2.9975
-1.54078,0.721046,2.463,2.99337
-1.53279,0.721046,2.463,2.98927
-1.5248,0.721046,2.463,2.98518
-1.5168,0.721046,2.463,2.9811
-1.49778,0.715777,2.445,2.95528
-1.48984,0.715777,2.445,2.95127
-1.48191,0.715777,2.445,2.94727
-1.46372,0.7108,2.428,2.92283
-1.44565,0.705823,2.411,2.89845
-1.43782,0.705823,2.411,2.89455
-1.41992,0.700846,2.394,2.87029
-1.41215,0.700846,2.394,2.86646
-1.40438,0.700846,2.394,2.86264
-1.38669,0.695869,2.377,2.83853
-1.37897,0.695869,2.377,2.83477
-1.37126,0.695869,2.377,2.83103
-1.36354,0.695869,2.377,2.8273
-1.3467,0.691185,2.361,2.80458
-1.33904,0.691185,2.361,2.80091
-1.33137,0.691185,2.361,2.79725
-1.32371,0.691185,2.361,2.79361
-1.31605,0.691185,2.361,2.78999
-1.30838,0.691185,2.361,2.78638
-1.30072,0.691185,2.361,2.78279
-1.29306,0.691185,2.361,2.77922
-1.28539,0.691185,2.361,2.77566
-1.27773,0.691185,2.361,2.77212
-1.26146,0.686501,2.345,2.74984
-1.25385,0.686501,2.345,2.74635
-1.24624,0.686501,2.345,2.74289
-1.23863,0.686501,2.345,2.73944
-1.23102,0.686501,2.345,2.736
-1.22341,0.686501,2.345,2.73259
-1.21579,0.686501,2.345,2.72919
-1.20818,0.686501,2.345,2.72581
-1.20057,0.686501,2.345,2.72244
-1.18482,0.681817,2.329,2.70054
-1.17726,0.681817,2.329,2.69723
-1.1697,0.681817,2.329,2.69394
-1.16214,0.681817,2.329,2.69067
-1.14665,0.677133,2.313,2.66895
-1.13914,0.677133,2.313,2.66573
-1.13164,0.677133,2.313,2.66253
-1.12413,0.677133,2.313,2.65935
-1.10938,0.672742,2.298,2.63896
-1.10192,0.672742,2.298,2.63583
-1.09446,0.672742,2.298,2.63272
-1.087,0.672742,2.298,2.62963
-1.07954,0.672742,2.298,2.62656
-1.05762,0.663667,2.267,2.58811
-1.05027,0.663667,2.267,2.58511
-1.04291,0.663667,2.267,2.58213
-1.0287,0.659276,2.252,2.5621
-1.02139,0.659276,2.252,2.55918
-1.01408,0.659276,2.252,2.55627
-1.00677,0.659276,2.252,2.55338
-0.992803,0.654884,2.237,2.53352
-0.985542,0.654884,2.237,2.53068
-0.978281,0.654884,2.237,2.52786
-0.97102,0.654884,2.237,2.52506
-0.96376,0.654884,2.237,2.52228
-0.956499,0.654884,2.237,2.51951
-0.949238,0.654884,2.237,2.51676
-0.948294,0.659276,2.252,2.53089
-0.940984,0.659276,2.252,2.52816
-0.933675,0.659276,2.252,2.52545
-0.926365,0.659276,2.252,2.52276
-0.919056,0.659276,2.252,2.52008
-0.911747,0.659276,2.252,2.51743
-0.904437,0.659276,2.252,2.51479
-0.897128,0.659276,2.252,2.51217
-0.889818,0.659276,2.252,2.50957
-0.882509,0.659276,2.252,2.50698
-0.875199,0.659276,2.252,2.50442
-0.86789,0.659276,2.252,2.50188
-0.860581,0.659276,2.252,2.49935
-0.853271,0.659276,2.252,2.49684
-0.845962,0.659276,2.252,2.49435
-0.838652,0.659276,2.252,2.49188
-0.831343,0.659276,2.252,2.48943
-0.824033,0.659276,2.252,2.487
-0.816724,0.659276,2.252,2.48459
-0.809415,0.659276,2.252,2.4822
-0.807448,0.663667,2.267,2.49634
-0.80009,0.663667,2.267,2.49397
-0.792731,0.663667,2.267,2.49162
-0.79057,0.668058,2.282,2.50576
-0.788654,0.672742,2.298,2.52098
-0.791734,0.681817,2.329,2.55264
-0.784174,0.681817,2.329,2.5503
-0.78195,0.686501,2.345,2.56549
-0.779622,0.691185,2.361,2.58067
-0.771959,0.691185,2.361,2.57837
-0.764296,0.691185,2.361,2.57608
-0.767208,0.700846,2.394,2.6098
-0.759438,0.700846,2.394,2.60752
-0.751668,0.700846,2.394,2.60527
-0.743897,0.700846,2.394,2.60304
-0.741354,0.705823,2.411,2.6193
-0.728357,0.700846,2.394,2.59864
-0.720586,0.700846,2.394,2.59647
-0.712816,0.700846,2.394,2.59433
-0.705046,0.700846,2.394,2.5922
-0.697275,0.700846,2.394,2.5901
-0.689505,0.700846,2.394,2.58802
-0.676894,0.695869,2.377,2.5676
-0.664674,0.691185,2.361,2.5483
-0.657011,0.691185,2.361,2.54632
-0.640547,0.681817,2.329,2.50986
-0.632987,0.681817,2.329,2.50795
-0.617103,0.672742,2.298,2.47269
-0.609644,0.672742,2.298,2.47084
-0.602186,0.672742,2.298,2.46901
-0.590586,0.668058,2.282,2.45002
-0.583179,0.668058,2.282,2.44825
-0.571988,0.663667,2.267,2.43041
-0.56463,0.663667,2.267,2.42869
-0.557272,0.663667,2.267,2.42699
-0.549914,0.663667,2.267,2.42531
-0.542555,0.663667,2.267,2.42366
-0.535197,0.663667,2.267,2.42202
-0.527839,0.663667,2.267,2.4204
-0.520481,0.663667,2.267,2.41881
-0.513123,0.663667,2.267,2.41724
-0.505765,0.663667,2.267,2.41569
-0.498407,0.663667,2.267,2.41416
-0.487799,0.659276,2.252,2.39668
-0.48049,0.659276,2.252,2.39521
-0.473181,0.659276,2.252,2.39375
-0.465871,0.659276,2.252,2.39232
-0.458562,0.659276,2.252,2.39091
-0.448247,0.654884,2.237,2.3736
-0.438226,0.650786,2.223,2.35739
-0.431011,0.650786,2.223,2.35606
-0.423795,0.650786,2.223,2.35475
-0.41658,0.650786,2.223,2.35346
-0.409365,0.650786,2.223,2.3522
-0.404682,0.654884,2.237,2.36576
-0.394934,0.650786,2.223,2.34973
-0.385277,0.646687,2.209,2.33374
-0.378107,0.646687,2.209,2.33256
-0.370937,0.646687,2.209,2.33141
-0.363768,0.646687,2.209,2.33028
-0.358858,0.650786,2.223,2.34393
-0.351642,0.650786,2.223,2.34284
-0.342258,0.646687,2.209,2.32702
-0.335088,0.646687,2.209,2.32598
-0.327918,0.646687,2.209,2.32496
-0.320748,0.646687,2.209,2.32395
-0.311449,0.642296,2.194,2.3072
-0.304328,0.642296,2.194,2.30625
-0.29531,0.638197,2.18,2.29061
-0.288235,0.638197,2.18,2.28971
-0.281159,0.638197,2.18,2.28883
-0.274083,0.638197,2.18,2.28797
-0.267007,0.638197,2.18,2.28714
-0.259932,0.638197,2.18,2.28632
-0.251348,0.634392,2.167,2.2719
-0.242736,0.630293,2.153,2.25646
-0.235748,0.630293,2.153,2.25572
-0.22876,0.630293,2.153,2.255
-0.220433,0.626487,2.14,2.24069
-0.213487,0.626487,2.14,2.24001
-0.206541,0.626487,2.14,2.23936
-0.198289,0.622389,2.126,2.22409
-0.191389,0.622389,2.126,2.22348
-0.184488,0.622389,2.126,2.2229
-0.176502,0.618583,2.113,2.20875
-0.169644,0.618583,2.113,2.20821
-0.162785,0.618583,2.113,2.20769
-0.155927,0.618583,2.113,2.2072
-0.149069,0.618583,2.113,2.20673
-0.14221,0.618583,2.113,2.20627
-0.135352,0.618583,2.113,2.20584
-0.128494,0.618583,2.113,2.20543
-0.121636,0.618583,2.113,2.20504
-0.115484,0.622389,2.126,2.21824
-0.108583,0.622389,2.126,2.21789
-0.101683,0.622389,2.126,2.21756
-0.0947821,0.622389,2.126,2.21726
-0.0878817,0.622389,2.126,2.21697
-0.080486,0.618583,2.113,2.20316
-0.0736278,0.618583,2.113,2.20292
-0.0667695,0.618583,2.113,2.2027
-0.0595426,0.614777,2.1,2.18895
-0.0524001,0.610972,2.087,2.17522
-0.0456262,0.610972,2.087,2.17507
-0.0388524,0.610972,2.087,2.17494
-0.031894,0.607459,2.075,2.16232
