0.0826561,0.299642,2.481,2.5004
0.091367,0.301816,2.499,2.51882
0.0994781,0.301816,2.499,2.51912
0.107589,0.301816,2.499,2.51946
0.1157,0.301816,2.499,2.51982
0.123811,0.301816,2.499,2.5202
0.130972,0.299642,2.481,2.50246
0.139025,0.299642,2.481,2.50289
0.147078,0.299642,2.481,2.50335
0.155131,0.299642,2.481,2.50384
0.163183,0.299642,2.481,2.50435
0.169994,0.297468,2.463,2.48672
0.177988,0.297468,2.463,2.48727
0.185982,0.297468,2.463,2.48786
0.193976,0.297468,2.463,2.48847
0.201971,0.297468,2.463,2.48911
0.209965,0.297468,2.463,2.48977
0.219552,0.299642,2.481,2.50866
0.227605,0.299642,2.481,2.50937
0.235658,0.299642,2.481,2.51012
0.245479,0.301816,2.499,2.5291
0.25359,0.301816,2.499,2.5299
0.261701,0.301816,2.499,2.53073
0.269812,0.301816,2.499,2.53158
0.277923,0.301816,2.499,2.53246
0.288094,0.30399,2.517,2.55161
0.296264,0.30399,2.517,2.55254
nan,nan,nan,NaN
nan,nan,nan,NaN
nan,nan,nan,NaN
nan,nan,nan,NaN
nan,nan,nan,NaN
nan,nan,nan,NaN
nan,nan,nan,NaN
nan,nan,nan,NaN
nan,nan,nan,NaN
nan,nan,nan,NaN
nan,nan,nan,NaN
nan,nan,nan,NaN
nan,nan,nan,NaN
nan,nan,nan,NaN
nan,nan,nan,NaN
nan,nan,nan,NaN
nan,nan,nan,NaN
nan,nan,nan,NaN
nan,nan,nan,NaN
nan,nan,nan,NaN
nan,nan,nan,NaN
nan,nan,nan,NaN
nan,nan,nan,NaN
nan,nan,nan,NaN
nan,nan,nan,NaN
0.524032,0.313169,2.593,2.66389
0.524645,0.30858,2.555,2.6265
0.532938,0.30858,2.555,2.62817
0.541231,0.30858,2.555,2.62986
0.549524,0.30858,2.555,2.63158
nan,nan,nan,NaN
nan,nan,nan,NaN
nan,nan,nan,NaN
nan,nan,nan,NaN
nan,nan,nan,NaN
nan,nan,nan,NaN
nan,nan,nan,NaN
nan,nan,nan,NaN
nan,nan,nan,NaN
0.596808,0.291188,2.411,2.50078
0.604633,0.291188,2.411,2.50266
0.599757,0.285149,2.361,2.45262
0.60742,0.285149,2.361,2.4545
nan,nan,nan,NaN
nan,nan,nan,NaN
nan,nan,nan,NaN
nan,nan,nan,NaN
0.611822,0.270173,2.237,2.33484
0.615209,0.268482,2.223,2.32213
0.618504,0.266792,2.209,2.30942
0.625674,0.266792,2.209,2.31135
0.628547,0.26498,2.194,2.29759
0.635668,0.26498,2.194,2.29955
0.642789,0.26498,2.194,2.30153
0.645763,0.263289,2.18,2.28883
0.652839,0.263289,2.18,2.29083
0.659914,0.263289,2.18,2.29286
0.66699,0.263289,2.18,2.29491
nan,nan,nan,NaN
nan,nan,nan,NaN
nan,nan,nan,NaN
0.695293,0.263289,2.18,2.30329
0.702369,0.263289,2.18,2.30544
0.714001,0.26498,2.194,2.32242
0.721122,0.26498,2.194,2.32462
0.728243,0.26498,2.194,2.32684
nan,nan,nan,NaN
nan,nan,nan,NaN
nan,nan,nan,NaN
nan,nan,nan,NaN
nan,nan,nan,NaN
0.818409,0.281285,2.329,2.48458
0.825968,0.281285,2.329,2.48708
0.839254,0.283217,2.345,2.50671
0.846865,0.283217,2.345,2.50927
0.854477,0.283217,2.345,2.51185
0.86797,0.285149,2.361,2.5316
0.875633,0.285149,2.361,2.53424
0.883296,0.285149,2.361,2.5369
0.89096,0.285149,2.361,2.53957
0.898623,0.285149,2.361,2.54227
0.906286,0.285149,2.361,2.54499
0.913949,0.285149,2.361,2.54773
0.921612,0.285149,2.361,2.55049
0.935573,0.287082,2.377,2.57057
0.950035,0.289135,2.394,2.59179
0.957805,0.289135,2.394,2.59465
0.965575,0.289135,2.394,2.59753
0.980257,0.291188,2.411,2.6189
0.988083,0.291188,2.411,2.62184
0.995908,0.291188,2.411,2.62479
1.00373,0.291188,2.411,2.62777
1.01156,0.291188,2.411,2.63077
1.01938,0.291188,2.411,2.63379
1.02721,0.291188,2.411,2.63683
1.03504,0.291188,2.411,2.63989
1.04286,0.291188,2.411,2.64297
1.05069,0.291188,2.411,2.64606
1.05851,0.291188,2.411,2.64918
1.06634,0.291188,2.411,2.65232
1.07416,0.291188,2.411,2.65547
1.08199,0.291188,2.411,2.65865
1.08981,0.291188,2.411,2.66184
1.09764,0.291188,2.411,2.66506
1.10547,0.291188,2.411,2.66829
1.11329,0.291188,2.411,2.67154
1.12112,0.291188,2.411,2.67481
1.12894,0.291188,2.411,2.6781
1.13677,0.291188,2.411,2.68141
1.14459,0.291188,2.411,2.68474
1.15242,0.291188,2.411,2.68808
1.16024,0.291188,2.411,2.69145
1.16807,0.291188,2.411,2.69483
1.1759,0.291188,2.411,2.69823
1.18372,0.291188,2.411,2.70165
1.19155,0.291188,2.411,2.70509
1.19937,0.291188,2.411,2.70854
1.21571,0.293241,2.428,2.73114
1.22359,0.293241,2.428,2.73466
1.23147,0.293241,2.428,2.73819
1.24803,0.295294,2.445,2.76094
1.25596,0.295294,2.445,2.76454
1.2639,0.295294,2.445,2.76815
1.27184,0.295294,2.445,2.77179
1.27977,0.295294,2.445,2.77544
1.29719,0.297468,2.463,2.79956
1.30518,0.297468,2.463,2.80328
1.33237,0.301816,2.499,2.84804
1.36033,0.306285,2.536,2.89406
1.36856,0.306285,2.536,2.89794
1.39742,0.310874,2.574,2.94532
1.42708,0.315585,2.613,2.99398
1.45808,0.320536,2.654,3.04507
1.4667,0.320536,2.654,3.04921
1.49866,0.325609,2.696,3.10168
1.53145,0.330802,2.739,3.15545
1.54034,0.330802,2.739,3.15978
1.57412,0.336116,2.783,3.21495
1.59623,0.338894,2.806,3.24599
1.60534,0.338894,2.806,3.25048
1.62768,0.341672,2.829,3.28167
1.63686,0.341672,2.829,3.28623
1.64605,0.341672,2.829,3.29081
1.64177,0.338894,2.806,3.26862
1.65088,0.338894,2.806,3.27321
1.65999,0.338894,2.806,3.27781
1.65541,0.336116,2.783,3.25553
1.65129,0.333459,2.761,3.23436
1.66025,0.333459,2.761,3.23894
1.66921,0.333459,2.761,3.24355
1.65143,0.328145,2.717,3.1964
1.66025,0.328145,2.717,3.20097
1.65617,0.325609,2.696,3.18077
1.63898,0.320536,2.654,3.13572
1.64759,0.320536,2.654,3.14023
1.63062,0.315585,2.613,3.09617
1.61464,0.310874,2.574,3.05437
1.62299,0.310874,2.574,3.0588
1.61931,0.30858,2.555,3.04063
1.60339,0.30399,2.517,2.99976
1.60004,0.301816,2.499,2.98265
1.60815,0.301816,2.499,2.98701
1.59298,0.297468,2.463,2.94829
1.57822,0.293241,2.428,2.91066
1.5861,0.293241,2.428,2.91494
1.59398,0.293241,2.428,2.91924
1.59065,0.291188,2.411,2.90308
1.59847,0.291188,2.411,2.90737
1.59497,0.289135,2.394,2.89115
1.59136,0.287082,2.377,2.87489
1.59908,0.287082,2.377,2.87916
1.60679,0.287082,2.377,2.88346
1.60364,0.285149,2.361,2.86833
-1.75931,0.314514,2.536,3.10248
-1.73796,0.312157,2.517,3.07461
-1.72979,0.312157,2.517,3.07
-1.72162,0.312157,2.517,3.0654
-1.72638,0.314514,2.536,3.08393
-1.71815,0.314514,2.536,3.07933
-1.70992,0.314514,2.536,3.07474
-1.70169,0.314514,2.536,3.07017
-1.69346,0.314514,2.536,3.06562
-1.69785,0.31687,2.555,3.08401
-1.68956,0.31687,2.555,3.07945
-1.68127,0.31687,2.555,3.07491
-1.67297,0.31687,2.555,3.07039
-1.66468,0.31687,2.555,3.06588
-1.6687,0.319227,2.574,3.08415
-1.67261,0.321583,2.593,3.10237
-1.67703,0.324063,2.613,3.12173
-1.66854,0.324063,2.613,3.11718
-1.67277,0.326544,2.633,3.13648
-1.6775,0.329148,2.654,3.1569
-1.66888,0.329148,2.654,3.15234
-1.66027,0.329148,2.654,3.14778
-1.66472,0.331753,2.675,3.16812
-1.65604,0.331753,2.675,3.16357
-1.64736,0.331753,2.675,3.15903
-1.63868,0.331753,2.675,3.15451
-1.64279,0.334357,2.696,3.17474
-1.62131,0.331753,2.675,3.14553
-1.59997,0.329148,2.654,3.1164
-1.59135,0.329148,2.654,3.11199
-1.57022,0.326544,2.633,3.083
-1.53795,0.321583,2.593,3.03189
-1.52953,0.321583,2.593,3.02763
-1.50997,0.319227,2.574,3.00123
-1.47944,0.314514,2.536,2.95279
-1.47121,0.314514,2.536,2.94867
-1.46298,0.314514,2.536,2.94458
-1.43353,0.309925,2.499,2.89759
-1.41515,0.307693,2.481,2.87275
-1.4071,0.307693,2.481,2.86879
-1.37874,0.303228,2.445,2.82328
-1.37081,0.303228,2.445,2.81941
-1.36287,0.303228,2.445,2.81556
-1.35493,0.303228,2.445,2.81173
-1.347,0.303228,2.445,2.80791
-1.33906,0.303228,2.445,2.80412
-1.33113,0.303228,2.445,2.80033
-1.34267,0.307693,2.481,2.83775
-1.35399,0.312157,2.517,2.87507
-1.35598,0.314514,2.536,2.8929
-1.34774,0.314514,2.536,2.88905
-1.34955,0.31687,2.555,2.90684
-1.3612,0.321583,2.593,2.94617
-1.35279,0.321583,2.593,2.9423
-1.36511,0.326544,2.633,2.98376
-1.36738,0.329148,2.654,3.00363
-1.35877,0.329148,2.654,2.99972
-1.37152,0.334357,2.696,3.04324
-1.37339,0.336961,2.717,3.06298
-1.36457,0.336961,2.717,3.05903
-1.35575,0.336961,2.717,3.05511
-1.34693,0.336961,2.717,3.05121
-1.33811,0.336961,2.717,3.04732
-1.31902,0.334357,2.696,3.01994
-1.30006,0.331753,2.675,2.99263
-1.29138,0.331753,2.675,2.98887
-1.27263,0.329148,2.654,2.96169
-1.25401,0.326544,2.633,2.9346
-1.22654,0.321583,2.593,2.88643
-1.21813,0.321583,2.593,2.88286
-1.20085,0.319227,2.574,2.85822
-1.17489,0.314514,2.536,2.81258
-1.16666,0.314514,2.536,2.80915
-1.14975,0.312157,2.517,2.78472
-1.13341,0.309925,2.499,2.76146
-1.1253,0.309925,2.499,2.75814
-1.10914,0.307693,2.481,2.735
-1.10109,0.307693,2.481,2.73175
-1.09304,0.307693,2.481,2.72851
-1.07712,0.30546,2.463,2.70552
-1.06912,0.30546,2.463,2.70235
-1.06113,0.30546,2.463,2.6992
-1.04544,0.303228,2.445,2.67636
-1.0375,0.303228,2.445,2.67327
-1.02956,0.303228,2.445,2.6702
-1.02163,0.303228,2.445,2.66715
-1.00664,0.30112,2.428,2.6456
-0.998763,0.30112,2.428,2.64261
-0.990883,0.30112,2.428,2.63964
-0.983002,0.30112,2.428,2.63669
-0.968294,0.299011,2.411,2.61532
-0.960468,0.299011,2.411,2.61244
-0.952643,0.299011,2.411,2.60957
-0.944817,0.299011,2.411,2.60672
-0.936992,0.299011,2.411,2.6039
-0.929166,0.299011,2.411,2.60109
-0.921341,0.299011,2.411,2.59831
-0.913515,0.299011,2.411,2.59554
-0.90569,0.299011,2.411,2.5928
-0.897864,0.299011,2.411,2.59008
-0.890039,0.299011,2.411,2.58737
-0.882213,0.299011,2.411,2.58469
-0.874388,0.299011,2.411,2.58203
-0.866562,0.299011,2.411,2.57939
-0.858737,0.299011,2.411,2.57677
-0.850911,0.299011,2.411,2.57418
-0.843086,0.299011,2.411,2.5716
-0.84115,0.30112,2.428,2.58716
-0.833269,0.30112,2.428,2.58461
-0.825388,0.30112,2.428,2.58208
-0.823232,0.303228,2.445,2.59763
-0.815296,0.303228,2.445,2.59513
-0.80736,0.303228,2.445,2.59264
-0.799424,0.303228,2.445,2.59018
-0.797315,0.30546,2.463,2.6068
-0.789321,0.30546,2.463,2.60436
-0.781326,0.30546,2.463,2.60195
-0.778984,0.307693,2.481,2.61856
-0.770931,0.307693,2.481,2.61617
-0.762878,0.307693,2.481,2.61381
-0.754826,0.307693,2.481,2.61147
-0.746773,0.307693,2.481,2.60916
-0.73872,0.307693,2.481,2.60686
-0.735969,0.309925,2.499,2.62349
-0.727858,0.309925,2.499,2.62123
-0.719746,0.309925,2.499,2.61899
-0.711635,0.309925,2.499,2.61677
-0.708592,0.312157,2.517,2.63341
-0.700422,0.312157,2.517,2.63122
-0.692252,0.312157,2.517,2.62906
-0.684083,0.312157,2.517,2.62692
-0.675913,0.312157,2.517,2.6248
-0.667744,0.312157,2.517,2.62271
-0.659574,0.312157,2.517,2.62064
-0.651405,0.312157,2.517,2.6186
-0.643235,0.312157,2.517,2.61658
-0.635065,0.312157,2.517,2.61458
-0.626896,0.312157,2.517,2.61261
-0.618726,0.312157,2.517,2.61066
-0.610557,0.312157,2.517,2.60874
-0.602387,0.312157,2.517,2.60684
-0.594218,0.312157,2.517,2.60496
-0.586048,0.312157,2.517,2.60311
-0.577879,0.312157,2.517,2.60128
-0.569709,0.312157,2.517,2.59948
-0.561539,0.312157,2.517,2.5977
-0.55337,0.312157,2.517,2.59595
-0.5452,0.312157,2.517,2.59422
-0.537031,0.312157,2.517,2.59251
-0.525079,0.309925,2.499,2.57231
-0.513244,0.307693,2.481,2.55215
-0.505192,0.307693,2.481,2.55054
-0.497139,0.307693,2.481,2.54896
-0.492635,0.309925,2.499,2.56588
-0.484524,0.309925,2.499,2.56434
-0.476412,0.309925,2.499,2.56282
-0.468301,0.309925,2.499,2.56132
-0.46019,0.309925,2.499,2.55985
-0.452079,0.309925,2.499,2.5584
-0.443968,0.309925,2.499,2.55698
-0.438996,0.312157,2.517,2.57399
-0.430827,0.312157,2.517,2.57261
-0.422657,0.312157,2.517,2.57126
-0.414487,0.312157,2.517,2.56993
-0.409385,0.314514,2.536,2.58801
-0.401154,0.314514,2.536,2.58672
-0.392923,0.314514,2.536,2.58546
-0.384691,0.314514,2.536,2.58422
-0.37646,0.314514,2.536,2.58301
-0.368229,0.314514,2.536,2.58182
-0.359998,0.314514,2.536,2.58066
-0.351766,0.314514,2.536,2.57953
-0.343535,0.314514,2.536,2.57842
-0.335304,0.314514,2.536,2.57733
-0.327073,0.314514,2.536,2.57627
-0.318842,0.314514,2.536,2.57524
-0.31061,0.314514,2.536,2.57424
-0.302379,0.314514,2.536,2.57326
-0.294148,0.314514,2.536,2.5723
-0.285917,0.314514,2.536,2.57137
-0.277685,0.314514,2.536,2.57047
-0.269454,0.314514,2.536,2.5696
-0.261223,0.314514,2.536,2.56875
-0.252992,0.314514,2.536,2.56792
-0.244761,0.314514,2.536,2.56712
-0.236529,0.314514,2.536,2.56635
-0.230009,0.31687,2.555,2.58483
-0.221716,0.31687,2.555,2.5841
-0.213423,0.31687,2.555,2.58341
-0.20513,0.31687,2.555,2.58273
-0.196837,0.31687,2.555,2.58209
-0.188544,0.31687,2.555,2.58147
-0.180251,0.31687,2.555,2.58088
-0.171958,0.31687,2.555,2.58031
-0.163665,0.31687,2.555,2.57977
-0.155372,0.31687,2.555,2.57926
-0.14708,0.31687,2.555,2.57877
-0.138787,0.31687,2.555,2.57831
-0.130494,0.31687,2.555,2.57788
-0.122201,0.31687,2.555,2.57747
-0.113908,0.31687,2.555,2.57709
-0.105615,0.31687,2.555,2.57674
-0.0973222,0.31687,2.555,2.57641
-0.0896914,0.319227,2.574,2.59527
-0.0807364,0.31687,2.555,2.57584
-0.0724435,0.31687,2.555,2.57559
-0.0641506,0.31687,2.555,2.57537
-0.0558577,0.31687,2.555,2.57518
-0.0475648,0.31687,2.555,2.57501
-0.0392719,0.31687,2.555,2.57487
-0.030979,0.31687,2.555,2.57476
-0.0226861,0.31687,2.555,2.57467
-0.0142862,0.314514,2.536,2.55547
-0.00605498,0.314514,2.536,2.55544
0.00217625,0.314514,2.536,2.55543
0.0103295,0.312157,2.517,2.5363
0.0184991,0.312157,2.517,2.53635
0.0264779,0.309925,2.499,2.51828
0.034589,0.309925,2.499,2.51838
0.0427002,0.309925,2.499,2.51851
0.0508113,0.309925,2.499,2.51866
0.058498,0.307693,2.481,2.50069
0.0665507,0.307693,2.481,2.50089
0.0746034,0.307693,2.481,2.50112
0.0826561,0.307693,2.481,2.50137
0.091367,0.309925,2.499,2.5198
0.0994781,0.309925,2.499,2.52011
0.107589,0.309925,2.499,2.52044
0.1157,0.309925,2.499,2.5208
0.123811,0.309925,2.499,2.52119
0.130972,0.307693,2.481,2.50344
0.139025,0.307693,2.481,2.50387
0.146011,0.30546,2.463,2.48616
0.154005,0.30546,2.463,2.48664
0.161999,0.30546,2.463,2.48715
0.171236,0.307693,2.481,2.50586
0.179289,0.307693,2.481,2.50643
0.185982,0.30546,2.463,2.48883
0.193976,0.30546,2.463,2.48944
0.203447,0.307693,2.481,2.50827
0.2115,0.307693,2.481,2.50894
0.219552,0.307693,2.481,2.50963
0.227605,0.307693,2.481,2.51035
0.235658,0.307693,2.481,2.51109
0.24371,0.307693,2.481,2.51186
0.251763,0.307693,2.481,2.51265
0.261701,0.309925,2.499,2.53171
0.269812,0.309925,2.499,2.53256
0.277923,0.309925,2.499,2.53344
0.286034,0.309925,2.499,2.53434
0.294145,0.309925,2.499,2.53527
nan,nan,nan,NaN
nan,nan,nan,NaN
nan,nan,nan,NaN
nan,nan,nan,NaN
nan,nan,nan,NaN
nan,nan,nan,NaN
nan,nan,nan,NaN
nan,nan,nan,NaN
nan,nan,nan,NaN
nan,nan,nan,NaN
nan,nan,nan,NaN
nan,nan,nan,NaN
nan,nan,nan,NaN
nan,nan,nan,NaN
nan,nan,nan,NaN
nan,nan,nan,NaN
nan,nan,nan,NaN
nan,nan,nan,NaN
nan,nan,nan,NaN
nan,nan,nan,NaN
nan,nan,nan,NaN
nan,nan,nan,NaN
nan,nan,nan,NaN
nan,nan,nan,NaN
nan,nan,nan,NaN
nan,nan,nan,NaN
nan,nan,nan,NaN
nan,nan,nan,NaN
nan,nan,nan,NaN
nan,nan,nan,NaN
nan,nan,nan,NaN
nan,nan,nan,NaN
nan,nan,nan,NaN
nan,nan,nan,NaN
nan,nan,nan,NaN
nan,nan,nan,NaN
nan,nan,nan,NaN
nan,nan,nan,NaN
nan,nan,nan,NaN
nan,nan,nan,NaN
nan,nan,nan,NaN
nan,nan,nan,NaN
nan,nan,nan,NaN
nan,nan,nan,NaN
nan,nan,nan,NaN
nan,nan,nan,NaN
nan,nan,nan,NaN
nan,nan,nan,NaN
0.623234,0.279292,2.252,2.35328
0.626344,0.277432,2.237,2.33954
0.633605,0.277432,2.237,2.34149
0.640865,0.277432,2.237,2.34347
0.648126,0.277432,2.237,2.34546
0.655387,0.277432,2.237,2.34748
0.6585,0.275696,2.223,2.33481
0.665716,0.275696,2.223,2.33686
0.672931,0.275696,2.223,2.33893
0.680146,0.275696,2.223,2.34101
nan,nan,nan,NaN
nan,nan,nan,NaN
nan,nan,nan,NaN
nan,nan,nan,NaN
0.720734,0.277432,2.237,2.36656
0.727994,0.277432,2.237,2.36878
0.735255,0.277432,2.237,2.37102
0.742516,0.277432,2.237,2.37328
nan,nan,nan,NaN
nan,nan,nan,NaN
nan,nan,nan,NaN
nan,nan,nan,NaN
nan,nan,nan,NaN
0.824031,0.290826,2.345,2.50253
0.831643,0.290826,2.345,2.50504
0.84498,0.29281,2.361,2.52469
0.852643,0.29281,2.361,2.52726
0.860307,0.29281,2.361,2.52986
0.86797,0.29281,2.361,2.53248
0.875633,0.29281,2.361,2.53511
0.883296,0.29281,2.361,2.53777
0.89096,0.29281,2.361,2.54045
0.898623,0.29281,2.361,2.54314
0.906286,0.29281,2.361,2.54586
0.913949,0.29281,2.361,2.5486
0.921612,0.29281,2.361,2.55136
0.935573,0.294795,2.377,2.57145
0.950035,0.296903,2.394,2.59267
0.957805,0.296903,2.394,2.59553
0.965575,0.296903,2.394,2.59841
0.980257,0.299011,2.411,2.61978
0.988083,0.299011,2.411,2.62272
0.995908,0.299011,2.411,2.62567
1.00373,0.299011,2.411,2.62865
1.01156,0.299011,2.411,2.63165
1.01938,0.299011,2.411,2.63467
1.02721,0.299011,2.411,2.63771
1.03504,0.299011,2.411,2.64076
1.04286,0.299011,2.411,2.64384
1.05069,0.299011,2.411,2.64694
1.05851,0.299011,2.411,2.65005
1.06634,0.299011,2.411,2.65319
1.07416,0.299011,2.411,2.65634
1.08199,0.299011,2.411,2.65952
1.08981,0.299011,2.411,2.66271
1.09764,0.299011,2.411,2.66592
1.10547,0.299011,2.411,2.66915
1.11329,0.299011,2.411,2.6724
1.12112,0.299011,2.411,2.67567
1.12894,0.299011,2.411,2.67896
1.13677,0.299011,2.411,2.68227
1.14459,0.299011,2.411,2.6856
1.15242,0.299011,2.411,2.68894
1.16024,0.299011,2.411,2.6923
1.16807,0.299011,2.411,2.69568
1.1759,0.299011,2.411,2.69908
1.18372,0.299011,2.411,2.7025
1.19155,0.299011,2.411,2.70594
1.19937,0.299011,2.411,2.70939
1.21571,0.30112,2.428,2.732
1.22359,0.30112,2.428,2.73551
1.23147,0.30112,2.428,2.73905
1.24803,0.303228,2.445,2.7618
1.25596,0.303228,2.445,2.7654
1.2639,0.303228,2.445,2.76901
1.27184,0.303228,2.445,2.77264
1.27977,0.303228,2.445,2.77629
1.29719,0.30546,2.463,2.80042
1.30518,0.30546,2.463,2.80414
1.32277,0.307693,2.481,2.82839
1.35014,0.312157,2.517,2.87326
1.35831,0.312157,2.517,2.8771
1.38711,0.31687,2.555,2.92446
1.42708,0.324063,2.613,2.99488
1.44654,0.326544,2.633,3.02189
1.45509,0.326544,2.633,3.02599
1.48698,0.331753,2.675,3.07844
1.51915,0.336961,2.717,3.13105
1.52797,0.336961,2.717,3.13533
1.56167,0.342418,2.761,3.19049
1.59623,0.347999,2.806,3.24695
1.60534,0.347999,2.806,3.25144
1.61445,0.347999,2.806,3.25595
1.62356,0.347999,2.806,3.26047
1.63266,0.347999,2.806,3.26502
1.64177,0.347999,2.806,3.26958
1.63735,0.345147,2.783,3.24733
1.64638,0.345147,2.783,3.25189
1.64233,0.342418,2.761,3.23073
1.65129,0.342418,2.761,3.23529
1.66025,0.342418,2.761,3.23988
1.65591,0.33969,2.739,3.21863
1.65143,0.336961,2.717,3.19732
1.66025,0.336961,2.717,3.20188
1.64327,0.331753,2.675,3.1569
1.63898,0.329148,2.654,3.13661
1.64759,0.329148,2.654,3.14112
1.63062,0.324063,2.613,3.09705
1.61464,0.319227,2.574,3.05523
1.61101,0.31687,2.555,3.03707
1.61931,0.31687,2.555,3.04148
1.60339,0.312157,2.517,3.0006
1.60004,0.309925,2.499,2.98348
1.60815,0.309925,2.499,2.98784
1.59298,0.30546,2.463,2.94911
1.57822,0.30112,2.428,2.91147
1.5861,0.30112,2.428,2.91575
1.59398,0.30112,2.428,2.92004
1.59065,0.299011,2.411,2.90387
1.59847,0.299011,2.411,2.90817
1.59497,0.296903,2.394,2.89194
1.59136,0.294795,2.377,2.87567
1.59908,0.294795,2.377,2.87994
1.60679,0.294795,2.377,2.88423
1.60364,0.29281,2.361,2.8691
-1.75931,0.322743,2.536,3.10332
-1.73796,0.320325,2.517,3.07545
-1.72979,0.320325,2.517,3.07084
-1.72162,0.320325,2.517,3.06625
-1.72638,0.322743,2.536,3.08478
-1.71815,0.322743,2.536,3.08018
-1.70992,0.322743,2.536,3.07559
-1.70169,0.322743,2.536,3.07103
-1.69346,0.322743,2.536,3.06647
-1.69785,0.325161,2.555,3.08487
-1.68956,0.325161,2.555,3.08032
-1.68127,0.325161,2.555,3.07578
-1.68541,0.327579,2.574,3.09409
-1.67706,0.327579,2.574,3.08955
-1.68102,0.329997,2.593,3.10779
-1.68551,0.332542,2.613,3.12718
-1.68986,0.335087,2.633,3.14652
-1.68132,0.335087,2.633,3.14194
-1.68611,0.33776,2.654,3.1624
-1.6775,0.33776,2.654,3.15781
-1.66888,0.33776,2.654,3.15325
-1.6734,0.340432,2.675,3.17361
-1.66472,0.340432,2.675,3.16904
-1.65604,0.340432,2.675,3.16449
-1.64736,0.340432,2.675,3.15995
-1.65154,0.343105,2.696,3.18021
-1.64279,0.343105,2.696,3.17567
-1.63404,0.343105,2.696,3.17115
-1.59997,0.33776,2.654,3.11732
-1.59135,0.33776,2.654,3.11291
-1.55829,0.332542,2.613,3.06049
-1.53795,0.329997,2.593,3.03279
-1.52953,0.329997,2.593,3.02853
-1.49882,0.325161,2.555,2.97997
-1.47944,0.322743,2.536,2.95368
-1.47121,0.322743,2.536,2.94956
-1.45202,0.320325,2.517,2.9234
-1.43353,0.318034,2.499,2.89847
-1.41515,0.315743,2.481,2.87362
-1.4071,0.315743,2.481,2.86966
-1.37874,0.311162,2.445,2.82414
-1.37081,0.311162,2.445,2.82028
-1.36287,0.311162,2.445,2.81643
-1.35493,0.311162,2.445,2.8126
-1.347,0.311162,2.445,2.80878
-1.34892,0.313452,2.463,2.82563
-1.34093,0.313452,2.463,2.82183
-1.34267,0.315743,2.481,2.83863
-1.35399,0.320325,2.517,2.87597
-1.35598,0.322743,2.536,2.89381
-1.34774,0.322743,2.536,2.88996
-1.35959,0.327579,2.574,2.92938
-1.3612,0.329997,2.593,2.9471
-1.35279,0.329997,2.593,2.94323
-1.36511,0.335087,2.633,2.98471
-1.3782,0.340432,2.675,3.02836
-1.39102,0.345778,2.717,3.07191
-1.38221,0.345778,2.717,3.06792
-1.38451,0.348577,2.739,3.08877
-1.37562,0.348577,2.739,3.08479
-1.36673,0.348577,2.739,3.08084
-1.34693,0.345778,2.717,3.05219
-1.33811,0.345778,2.717,3.04831
-1.32929,0.345778,2.717,3.04445
-1.31027,0.343105,2.696,3.01711
-1.30152,0.343105,2.696,3.01332
-1.27263,0.33776,2.654,2.96266
-1.26401,0.33776,2.654,2.95897
-1.23601,0.332542,2.613,2.90965
-1.22752,0.332542,2.613,2.90606
-1.20085,0.327579,2.574,2.85916
-1.18369,0.325161,2.555,2.83459
-1.1754,0.325161,2.555,2.83113
-1.14975,0.320325,2.517,2.78564
-1.14158,0.320325,2.517,2.78228
-1.13341,0.320325,2.517,2.77894
-1.11719,0.318034,2.499,2.75577
-1.10109,0.315743,2.481,2.73267
-1.09304,0.315743,2.481,2.72943
-1.08499,0.315743,2.481,2.72622
-1.06912,0.313452,2.463,2.70326
-1.06113,0.313452,2.463,2.70011
-1.05313,0.313452,2.463,2.69698
-1.0375,0.311162,2.445,2.67418
-1.02956,0.311162,2.445,2.67111
-1.02163,0.311162,2.445,2.66807
-1.01369,0.311162,2.445,2.66504
-0.998763,0.308998,2.428,2.64352
-0.990883,0.308998,2.428,2.64055
-0.983002,0.308998,2.428,2.6376
-0.975121,0.308998,2.428,2.63468
-0.967241,0.308998,2.428,2.63177
-0.952643,0.306835,2.411,2.61048
-0.944817,0.306835,2.411,2.60763
-0.936992,0.306835,2.411,2.60481
-0.929166,0.306835,2.411,2.602
-0.921341,0.306835,2.411,2.59922
-0.913515,0.306835,2.411,2.59646
-0.90569,0.306835,2.411,2.59371
-0.897864,0.306835,2.411,2.59099
-0.890039,0.306835,2.411,2.58829
-0.882213,0.306835,2.411,2.58561
-0.874388,0.306835,2.411,2.58295
-0.866562,0.306835,2.411,2.58031
-0.858737,0.306835,2.411,2.57769
-0.850911,0.306835,2.411,2.5751
-0.843086,0.306835,2.411,2.57252
-0.84115,0.308998,2.428,2.58809
-0.833269,0.308998,2.428,2.58554
-0.825388,0.308998,2.428,2.58301
-0.823232,0.311162,2.445,2.59857
-0.815296,0.311162,2.445,2.59607
-0.80736,0.311162,2.445,2.59358
-0.799424,0.311162,2.445,2.59112
-0.797315,0.313452,2.463,2.60774
-0.789321,0.313452,2.463,2.60531
-0.781326,0.313452,2.463,2.6029
-0.778984,0.315743,2.481,2.61952
-0.770931,0.315743,2.481,2.61713
-0.762878,0.315743,2.481,2.61477
-0.754826,0.315743,2.481,2.61244
-0.746773,0.315743,2.481,2.61012
-0.73872,0.315743,2.481,2.60783
-0.735969,0.318034,2.499,2.62446
-0.727858,0.318034,2.499,2.6222
-0.719746,0.318034,2.499,2.61996
-0.711635,0.318034,2.499,2.61774
-0.708592,0.320325,2.517,2.63439
-0.700422,0.320325,2.517,2.6322
-0.692252,0.320325,2.517,2.63004
-0.684083,0.320325,2.517,2.6279
-0.675913,0.320325,2.517,2.62579
-0.667744,0.320325,2.517,2.6237
-0.659574,0.320325,2.517,2.62163
-0.651405,0.320325,2.517,2.61959
-0.643235,0.320325,2.517,2.61757
-0.635065,0.320325,2.517,2.61557
-0.626896,0.320325,2.517,2.6136
-0.618726,0.320325,2.517,2.61165
-0.610557,0.320325,2.517,2.60973
-0.602387,0.320325,2.517,2.60783
-0.594218,0.320325,2.517,2.60595
-0.586048,0.320325,2.517,2.6041
-0.577879,0.320325,2.517,2.60228
-0.569709,0.320325,2.517,2.60047
-0.561539,0.320325,2.517,2.5987
-0.549413,0.318034,2.499,2.57837
-0.541301,0.318034,2.499,2.57666
-0.53319,0.318034,2.499,2.57496
-0.521297,0.315743,2.481,2.55476
-0.513244,0.315743,2.481,2.55313
-0.505192,0.315743,2.481,2.55152
-0.497139,0.315743,2.481,2.54994
-0.492635,0.318034,2.499,2.56687
-0.484524,0.318034,2.499,2.56533
-0.476412,0.318034,2.499,2.56381
-0.468301,0.318034,2.499,2.56231
-0.46019,0.318034,2.499,2.56084
-0.452079,0.318034,2.499,2.5594
-0.443968,0.318034,2.499,2.55798
-0.435857,0.318034,2.499,2.55658
-0.430827,0.320325,2.517,2.57362
-0.422657,0.320325,2.517,2.57226
-0.414487,0.320325,2.517,2.57093
-0.409385,0.322743,2.536,2.58903
-0.401154,0.322743,2.536,2.58774
-0.392923,0.322743,2.536,2.58647
-0.384691,0.322743,2.536,2.58524
-0.37646,0.322743,2.536,2.58402
-0.368229,0.322743,2.536,2.58284
-0.359998,0.322743,2.536,2.58168
-0.351766,0.322743,2.536,2.58054
-0.343535,0.322743,2.536,2.57943
-0.337816,0.325161,2.555,2.59767
-0.329523,0.325161,2.555,2.5966
-0.32123,0.325161,2.555,2.59556
-0.31061,0.322743,2.536,2.57525
-0.302379,0.322743,2.536,2.57428
-0.294148,0.322743,2.536,2.57332
-0.285917,0.322743,2.536,2.57239
-0.277685,0.322743,2.536,2.57149
-0.269454,0.322743,2.536,2.57062
-0.261223,0.322743,2.536,2.56977
-0.252992,0.322743,2.536,2.56894
-0.244761,0.322743,2.536,2.56814
-0.236529,0.322743,2.536,2.56737
-0.228298,0.322743,2.536,2.56663
-0.221716,0.325161,2.555,2.58513
-0.213423,0.325161,2.555,2.58443
-0.20513,0.325161,2.555,2.58376
-0.196837,0.325161,2.555,2.58312
-0.188544,0.325161,2.555,2.5825
-0.180251,0.325161,2.555,2.58191
-0.171958,0.325161,2.555,2.58134
-0.163665,0.325161,2.555,2.5808
-0.155372,0.325161,2.555,2.58029
-0.14708,0.325161,2.555,2.5798
-0.138787,0.325161,2.555,2.57934
-0.130494,0.325161,2.555,2.57891
-0.122201,0.325161,2.555,2.57851
-0.113908,0.325161,2.555,2.57813
-0.105615,0.325161,2.555,2.57777
-0.0973222,0.325161,2.555,2.57745
-0.0896914,0.327579,2.574,2.59631
-0.0807364,0.325161,2.555,2.57687
-0.0724435,0.325161,2.555,2.57663
-0.0641506,0.325161,2.555,2.57641
-0.0558577,0.325161,2.555,2.57621
-0.0475648,0.325161,2.555,2.57605
-0.0392719,0.325161,2.555,2.57591
-0.030979,0.325161,2.555,2.57579
-0.0226861,0.325161,2.555,2.57571
-0.0142862,0.322743,2.536,2.55649
-0.00605498,0.322743,2.536,2.55646
0.00217625,0.322743,2.536,2.55646
0.0103295,0.320325,2.517,2.53732
0.0184991,0.320325,2.517,2.53737
0.0266686,0.320325,2.517,2.53744
0.034589,0.318034,2.499,2.51939
0.0427002,0.318034,2.499,2.51952
0.0508113,0.318034,2.499,2.51967
0.058498,0.315743,2.481,2.50169
0.0665507,0.315743,2.481,2.5019
0.0746034,0.315743,2.481,2.50212
0.0826561,0.315743,2.481,2.50238
0.091367,0.318034,2.499,2.52081
0.0994781,0.318034,2.499,2.52112
0.107589,0.318034,2.499,2.52145
0.1157,0.318034,2.499,2.52181
0.123811,0.318034,2.499,2.5222
0.130972,0.315743,2.481,2.50444
0.139025,0.315743,2.481,2.50487
0.146011,0.313452,2.463,2.48716
0.154005,0.313452,2.463,2.48764
0.161999,0.313452,2.463,2.48814
0.171236,0.315743,2.481,2.50687
0.179289,0.315743,2.481,2.50743
0.187341,0.315743,2.481,2.50802
0.195394,0.315743,2.481,2.50863
0.203447,0.315743,2.481,2.50927
0.2115,0.315743,2.481,2.50994
0.219552,0.315743,2.481,2.51063
0.227605,0.315743,2.481,2.51135
0.235658,0.315743,2.481,2.51209
0.24371,0.315743,2.481,2.51286
0.251763,0.315743,2.481,2.51365
0.261701,0.318034,2.499,2.53271
0.269812,0.318034,2.499,2.53356
0.277923,0.318034,2.499,2.53444
0.286034,0.318034,2.499,2.53534
0.294145,0.318034,2.499,2.53627
nan,nan,nan,NaN
nan,nan,nan,NaN
nan,nan,nan,NaN
nan,nan,nan,NaN
nan,nan,nan,NaN
nan,nan,nan,NaN
nan,nan,nan,NaN
nan,nan,nan,NaN
nan,nan,nan,NaN
nan,nan,nan,NaN
nan,nan,nan,NaN
nan,nan,nan,NaN
nan,nan,nan,NaN
nan,nan,nan,NaN
nan,nan,nan,NaN
nan,nan,nan,NaN
nan,nan,nan,NaN
nan,nan,nan,NaN
nan,nan,nan,NaN
nan,nan,nan,NaN
nan,nan,nan,NaN
nan,nan,nan,NaN
nan,nan,nan,NaN
nan,nan,nan,NaN
nan,nan,nan,NaN
nan,nan,nan,NaN
nan,nan,nan,NaN
nan,nan,nan,NaN
nan,nan,nan,NaN
nan,nan,nan,NaN
nan,nan,nan,NaN
nan,nan,nan,NaN
nan,nan,nan,NaN
nan,nan,nan,NaN
nan,nan,nan,NaN
nan,nan,nan,NaN
nan,nan,nan,NaN
nan,nan,nan,NaN
nan,nan,nan,NaN
nan,nan,nan,NaN
nan,nan,nan,NaN
nan,nan,nan,NaN
nan,nan,nan,NaN
nan,nan,nan,NaN
nan,nan,nan,NaN
nan,nan,nan,NaN
nan,nan,nan,NaN
nan,nan,nan,NaN
0.623234,0.2866,2.252,2.35416
0.626344,0.284691,2.237,2.34041
0.633605,0.284691,2.237,2.34236
0.640865,0.284691,2.237,2.34434
0.648126,0.284691,2.237,2.34633
0.655387,0.284691,2.237,2.34835
0.6585,0.282909,2.223,2.33568
0.665716,0.282909,2.223,2.33772
0.672931,0.282909,2.223,2.33979
0.680146,0.282909,2.223,2.34187
0.700967,0.288509,2.267,2.39037
nan,nan,nan,NaN
nan,nan,nan,NaN
nan,nan,nan,NaN
0.720734,0.284691,2.237,2.36742
0.727994,0.284691,2.237,2.36964
0.735255,0.284691,2.237,2.37188
0.742516,0.284691,2.237,2.37414
0.770222,0.292454,2.298,2.44122
0.777681,0.292454,2.298,2.44359
0.790264,0.294363,2.313,2.46194
0.80329,0.296399,2.329,2.4814
0.81085,0.296399,2.329,2.48386
0.824031,0.298435,2.345,2.50342
0.831643,0.298435,2.345,2.50594
0.84498,0.300471,2.361,2.52559
0.852643,0.300471,2.361,2.52816
0.860307,0.300471,2.361,2.53076
0.86797,0.300471,2.361,2.53337
0.875633,0.300471,2.361,2.53601
0.883296,0.300471,2.361,2.53866
0.89096,0.300471,2.361,2.54134
0.898623,0.300471,2.361,2.54404
0.912428,0.302508,2.377,2.56401
0.920143,0.302508,2.377,2.56677
0.934494,0.304671,2.394,2.58792
0.942264,0.304671,2.394,2.59074
0.950035,0.304671,2.394,2.59357
0.957805,0.304671,2.394,2.59643
0.965575,0.304671,2.394,2.59931
0.980257,0.306835,2.411,2.62068
0.988083,0.306835,2.411,2.62362
0.995908,0.306835,2.411,2.62658
1.00373,0.306835,2.411,2.62955
1.01156,0.306835,2.411,2.63255
1.01938,0.306835,2.411,2.63557
1.02721,0.306835,2.411,2.6386
1.03504,0.306835,2.411,2.64166
1.04286,0.306835,2.411,2.64474
1.05069,0.306835,2.411,2.64783
1.05851,0.306835,2.411,2.65095
1.06634,0.306835,2.411,2.65408
1.07416,0.306835,2.411,2.65723
1.08199,0.306835,2.411,2.66041
1.08981,0.306835,2.411,2.6636
1.09764,0.306835,2.411,2.66681
1.10547,0.306835,2.411,2.67004
1.11329,0.306835,2.411,2.67329
1.12112,0.306835,2.411,2.67656
1.12894,0.306835,2.411,2.67985
1.13677,0.306835,2.411,2.68315
1.14459,0.306835,2.411,2.68648
1.15242,0.306835,2.411,2.68982
1.16024,0.306835,2.411,2.69318
1.17631,0.308998,2.428,2.71558
1.18419,0.308998,2.428,2.719
1.19207,0.308998,2.428,2.72244
1.19995,0.308998,2.428,2.7259
1.20783,0.308998,2.428,2.72938
1.21571,0.308998,2.428,2.73288
1.22359,0.308998,2.428,2.73639
1.23147,0.308998,2.428,2.73992
1.24803,0.311162,2.445,2.76268
1.25596,0.311162,2.445,2.76628
1.27321,0.313452,2.463,2.79028
1.2812,0.313452,2.463,2.79394
1.28919,0.313452,2.463,2.79761
1.29719,0.313452,2.463,2.80131
1.30518,0.313452,2.463,2.80502
1.32277,0.315743,2.481,2.82927
1.35014,0.320325,2.517,2.87416
1.35831,0.320325,2.517,2.878
1.38711,0.325161,2.555,2.92537
1.41615,0.329997,2.593,2.97288
1.43556,0.332542,2.613,2.99986
1.44404,0.332542,2.613,3.00393
1.47531,0.33776,2.654,3.05521
1.50741,0.343105,2.696,3.1078
1.51616,0.343105,2.696,3.11205
1.54923,0.348577,2.739,3.16603
1.57064,0.351377,2.761,3.19585
1.5796,0.351377,2.761,3.20027
1.60122,0.354177,2.783,3.23024
1.61025,0.354177,2.783,3.23472
1.61928,0.354177,2.783,3.23923
1.62831,0.354177,2.783,3.24375
1.6244,0.351377,2.761,3.22262
1.63337,0.351377,2.761,3.22715
1.62924,0.348577,2.739,3.20594
1.63813,0.348577,2.739,3.21047
1.64702,0.348577,2.739,3.21501
1.64261,0.345778,2.717,3.19372
1.65143,0.345778,2.717,3.19826
1.66025,0.345778,2.717,3.20282
1.64327,0.340432,2.675,3.15782
1.63898,0.33776,2.654,3.13752
1.64759,0.33776,2.654,3.14203
1.63062,0.332542,2.613,3.09795
1.61464,0.327579,2.574,3.05612
1.61101,0.325161,2.555,3.03795
1.61931,0.325161,2.555,3.04235
1.60339,0.320325,2.517,3.00146
1.60004,0.318034,2.499,2.98434
1.60815,0.318034,2.499,2.98869
1.59298,0.313452,2.463,2.94995
1.58927,0.311162,2.445,2.93268
1.59721,0.311162,2.445,2.93699
1.59398,0.308998,2.428,2.92086
1.59065,0.306835,2.411,2.90469
1.59847,0.306835,2.411,2.90898
1.6063,0.306835,2.411,2.91329
1.60274,0.304671,2.394,2.89704
1.61051,0.304671,2.394,2.90135
1.60679,0.302508,2.377,2.88503
1.60364,0.300471,2.361,2.86989
-1.75931,0.330972,2.536,3.10419
-1.73796,0.328492,2.517,3.07631
-1.72979,0.328492,2.517,3.0717
-1.72162,0.328492,2.517,3.06711
-1.72638,0.330972,2.536,3.08565
-1.71815,0.330972,2.536,3.08105
-1.72273,0.333451,2.555,3.09952
-1.71444,0.333451,2.555,3.09492
-1.70614,0.333451,2.555,3.09033
-1.69785,0.333451,2.555,3.08576
-1.68956,0.333451,2.555,3.0812
-1.69377,0.335931,2.574,3.09954
-1.69785,0.338411,2.593,3.11783
-1.68944,0.338411,2.593,3.11326
-1.69399,0.341021,2.613,3.13268
-1.69841,0.343631,2.633,3.15204
-1.70334,0.346372,2.654,3.17255
-1.69472,0.346372,2.654,3.16793
-1.68611,0.346372,2.654,3.16333
-1.69077,0.349112,2.675,3.18374
-1.68209,0.349112,2.675,3.17914
-1.6734,0.349112,2.675,3.17455
-1.66472,0.349112,2.675,3.16999
-1.65604,0.349112,2.675,3.16543
-1.64736,0.349112,2.675,3.1609
-1.65154,0.351853,2.696,3.18116
-1.64279,0.351853,2.696,3.17663
-1.63404,0.351853,2.696,3.17211
-1.59997,0.346372,2.654,3.11827
-1.59135,0.346372,2.654,3.11386
-1.55829,0.341021,2.613,3.06143
-1.53795,0.338411,2.593,3.03372
-1.52953,0.338411,2.593,3.02946
-1.49882,0.333451,2.555,2.98089
-1.47944,0.330972,2.536,2.95459
-1.47121,0.330972,2.536,2.95048
-1.45202,0.328492,2.517,2.92431
-1.43353,0.326143,2.499,2.89937
-1.41515,0.323794,2.481,2.87452
-1.4071,0.323794,2.481,2.87056
-1.38889,0.321444,2.463,2.84582
-1.37081,0.319095,2.445,2.82116
-1.36287,0.319095,2.445,2.81731
-1.35493,0.319095,2.445,2.81348
-1.347,0.319095,2.445,2.80967
-1.34892,0.321444,2.463,2.82653
-1.34093,0.321444,2.463,2.82273
-1.34267,0.323794,2.481,2.83954
-1.35399,0.328492,2.517,2.87689
-1.35598,0.330972,2.536,2.89474
-1.34774,0.330972,2.536,2.89089
-1.35959,0.335931,2.574,2.93032
-1.3612,0.338411,2.593,2.94806
-1.35279,0.338411,2.593,2.94418
-1.36511,0.343631,2.633,2.98568
-1.3782,0.349112,2.675,3.02935
-1.39102,0.354594,2.717,3.07291
-1.38221,0.354594,2.717,3.06893
-1.38451,0.357465,2.739,3.08978
-1.37562,0.357465,2.739,3.08581
-1.36673,0.357465,2.739,3.08186
-1.34693,0.354594,2.717,3.0532
-1.33811,0.354594,2.717,3.04932
-1.32929,0.354594,2.717,3.04546
-1.31027,0.351853,2.696,3.01812
-1.30152,0.351853,2.696,3.01433
-1.27263,0.346372,2.654,2.96366
-1.26401,0.346372,2.654,2.95997
-1.23601,0.341021,2.613,2.91063
-1.22752,0.341021,2.613,2.90704
-1.20085,0.335931,2.574,2.86013
-1.18369,0.333451,2.555,2.83555
-1.1754,0.333451,2.555,2.8321
-1.14975,0.328492,2.517,2.7866
-1.14158,0.328492,2.517,2.78324
-1.13341,0.328492,2.517,2.77989
-1.11719,0.326143,2.499,2.75672
-1.10109,0.323794,2.481,2.73361
-1.09304,0.323794,2.481,2.73037
-1.08499,0.323794,2.481,2.72716
-1.06912,0.321444,2.463,2.7042
-1.06113,0.321444,2.463,2.70105
-1.05313,0.321444,2.463,2.69792
-1.0375,0.319095,2.445,2.67512
-1.02956,0.319095,2.445,2.67205
-1.02163,0.319095,2.445,2.669
-1.01369,0.319095,2.445,2.66597
-0.998763,0.316877,2.428,2.64445
-0.990883,0.316877,2.428,2.64149
-0.983002,0.316877,2.428,2.63854
-0.975121,0.316877,2.428,2.63561
-0.967241,0.316877,2.428,2.63271
-0.952643,0.314658,2.411,2.61141
-0.944817,0.314658,2.411,2.60856
-0.936992,0.314658,2.411,2.60574
-0.929166,0.314658,2.411,2.60294
-0.921341,0.314658,2.411,2.60015
-0.913515,0.314658,2.411,2.59739
-0.90569,0.314658,2.411,2.59465
-0.897864,0.314658,2.411,2.59193
-0.890039,0.314658,2.411,2.58923
-0.882213,0.314658,2.411,2.58655
-0.874388,0.314658,2.411,2.58389
-0.866562,0.314658,2.411,2.58125
-0.858737,0.314658,2.411,2.57864
-0.856911,0.316877,2.428,2.5942
-0.84903,0.316877,2.428,2.59161
-0.84115,0.316877,2.428,2.58904
-0.833269,0.316877,2.428,2.58649
-0.825388,0.316877,2.428,2.58396
-0.823232,0.319095,2.445,2.59953
-0.815296,0.319095,2.445,2.59703
-0.80736,0.319095,2.445,2.59455
-0.805309,0.321444,2.463,2.61117
-0.797315,0.321444,2.463,2.60872
-0.795089,0.323794,2.481,2.62533
-0.787037,0.323794,2.481,2.62291
-0.778984,0.323794,2.481,2.6205
-0.770931,0.323794,2.481,2.61812
-0.762878,0.323794,2.481,2.61576
-0.754826,0.323794,2.481,2.61342
-0.746773,0.323794,2.481,2.61111
-0.73872,0.323794,2.481,2.60881
-0.735969,0.326143,2.499,2.62546
-0.727858,0.326143,2.499,2.62319
-0.719746,0.326143,2.499,2.62095
-0.711635,0.326143,2.499,2.61874
-0.708592,0.328492,2.517,2.63539
-0.700422,0.328492,2.517,2.63321
-0.692252,0.328492,2.517,2.63105
-0.684083,0.328492,2.517,2.62891
-0.675913,0.328492,2.517,2.6268
-0.667744,0.328492,2.517,2.62471
-0.659574,0.328492,2.517,2.62264
-0.651405,0.328492,2.517,2.6206
-0.643235,0.328492,2.517,2.61858
-0.635065,0.328492,2.517,2.61658
-0.626896,0.328492,2.517,2.61461
-0.618726,0.328492,2.517,2.61267
-0.610557,0.328492,2.517,2.61074
-0.602387,0.328492,2.517,2.60884
-0.594218,0.328492,2.517,2.60697
-0.586048,0.328492,2.517,2.60512
-0.577879,0.328492,2.517,2.60329
-0.569709,0.328492,2.517,2.60149
-0.557524,0.326143,2.499,2.58112
-0.549413,0.326143,2.499,2.57938
-0.541301,0.326143,2.499,2.57767
-0.53319,0.326143,2.499,2.57598
-0.521297,0.323794,2.481,2.55577
-0.513244,0.323794,2.481,2.55414
-0.505192,0.323794,2.481,2.55253
-0.497139,0.323794,2.481,2.55095
-0.492635,0.326143,2.499,2.56789
-0.484524,0.326143,2.499,2.56635
-0.476412,0.326143,2.499,2.56483
-0.468301,0.326143,2.499,2.56333
-0.46019,0.326143,2.499,2.56186
-0.452079,0.326143,2.499,2.56042
-0.443968,0.326143,2.499,2.559
-0.435857,0.326143,2.499,2.5576
-0.430827,0.328492,2.517,2.57465
-0.422657,0.328492,2.517,2.57329
-0.414487,0.328492,2.517,2.57196
-0.409385,0.330972,2.536,2.59006
-0.401154,0.330972,2.536,2.58878
-0.392923,0.330972,2.536,2.58751
-0.384691,0.330972,2.536,2.58628
-0.37646,0.330972,2.536,2.58506
-0.368229,0.330972,2.536,2.58388
-0.362695,0.333451,2.555,2.60207
-0.354402,0.333451,2.555,2.60093
-0.346109,0.333451,2.555,2.59981
-0.337816,0.333451,2.555,2.59872
-0.329523,0.333451,2.555,2.59765
-0.32123,0.333451,2.555,2.59661
-0.31061,0.330972,2.536,2.5763
-0.302379,0.330972,2.536,2.57532
-0.294148,0.330972,2.536,2.57437
-0.285917,0.330972,2.536,2.57344
-0.277685,0.330972,2.536,2.57254
-0.269454,0.330972,2.536,2.57166
-0.261223,0.330972,2.536,2.57081
-0.252992,0.330972,2.536,2.56999
-0.244761,0.330972,2.536,2.56919
-0.236529,0.330972,2.536,2.56842
-0.228298,0.330972,2.536,2.56768
-0.221716,0.333451,2.555,2.58619
-0.213423,0.333451,2.555,2.58549
-0.20513,0.333451,2.555,2.58482
-0.196837,0.333451,2.555,2.58417
-0.188544,0.333451,2.555,2.58356
-0.180251,0.333451,2.555,2.58296
-0.171958,0.333451,2.555,2.5824
-0.163665,0.333451,2.555,2.58186
-0.155372,0.333451,2.555,2.58135
-0.14708,0.333451,2.555,2.58086
-0.138787,0.333451,2.555,2.5804
-0.130494,0.333451,2.555,2.57997
-0.122201,0.333451,2.555,2.57956
-0.113908,0.333451,2.555,2.57918
-0.105615,0.333451,2.555,2.57883
-0.0973222,0.333451,2.555,2.5785
-0.0896914,0.335931,2.574,2.59738
-0.0807364,0.333451,2.555,2.57793
-0.0724435,0.333451,2.555,2.57769
-0.0646277,0.335931,2.574,2.59663
-0.0562731,0.335931,2.574,2.59644
-0.0479185,0.335931,2.574,2.59627
-0.0392719,0.333451,2.555,2.57697
-0.030979,0.333451,2.555,2.57685
-0.0226861,0.333451,2.555,2.57677
-0.0142862,0.330972,2.536,2.55755
-0.00605498,0.330972,2.536,2.55751
0.00217625,0.330972,2.536,2.55751
0.0103295,0.328492,2.517,2.53837
0.0184991,0.328492,2.517,2.53841
0.0266686,0.328492,2.517,2.53849
0.034589,0.326143,2.499,2.52043
0.0427002,0.326143,2.499,2.52055
0.0508113,0.326143,2.499,2.5207
0.058498,0.323794,2.481,2.50272
0.0665507,0.323794,2.481,2.50292
0.0746034,0.323794,2.481,2.50315
0.0826561,0.323794,2.481,2.5034
0.091367,0.326143,2.499,2.52185
0.0994781,0.326143,2.499,2.52216
0.107589,0.326143,2.499,2.52249
0.1157,0.326143,2.499,2.52285
0.123811,0.326143,2.499,2.52323
0.130972,0.323794,2.481,2.50547
0.139025,0.323794,2.481,2.5059
0.146011,0.321444,2.463,2.48817
0.154005,0.321444,2.463,2.48866
0.161999,0.321444,2.463,2.48916
0.171236,0.323794,2.481,2.50789
0.179289,0.323794,2.481,2.50846
0.187341,0.323794,2.481,2.50904
0.193976,0.321444,2.463,2.49145
0.201971,0.321444,2.463,2.49208
0.209965,0.321444,2.463,2.49275
0.217959,0.321444,2.463,2.49343
0.227605,0.323794,2.481,2.51237
0.235658,0.323794,2.481,2.51311
0.24371,0.323794,2.481,2.51388
0.251763,0.323794,2.481,2.51467
0.259816,0.323794,2.481,2.51549
0.267868,0.323794,2.481,2.51634
0.275921,0.323794,2.481,2.51721
0.283974,0.323794,2.481,2.5181
0.292027,0.323794,2.481,2.51902
nan,nan,nan,NaN
nan,nan,nan,NaN
nan,nan,nan,NaN
nan,nan,nan,NaN
nan,nan,nan,NaN
nan,nan,nan,NaN
nan,nan,nan,NaN
nan,nan,nan,NaN
nan,nan,nan,NaN
nan,nan,nan,NaN
nan,nan,nan,NaN
nan,nan,nan,NaN
nan,nan,nan,NaN
nan,nan,nan,NaN
nan,nan,nan,NaN
nan,nan,nan,NaN
nan,nan,nan,NaN
nan,nan,nan,NaN
nan,nan,nan,NaN
nan,nan,nan,NaN
nan,nan,nan,NaN
nan,nan,nan,NaN
nan,nan,nan,NaN
nan,nan,nan,NaN
nan,nan,nan,NaN
nan,nan,nan,NaN
nan,nan,nan,NaN
nan,nan,nan,NaN
nan,nan,nan,NaN
nan,nan,nan,NaN
nan,nan,nan,NaN
nan,nan,nan,NaN
nan,nan,nan,NaN
nan,nan,nan,NaN
nan,nan,nan,NaN
nan,nan,nan,NaN
nan,nan,nan,NaN
nan,nan,nan,NaN
nan,nan,nan,NaN
nan,nan,nan,NaN
nan,nan,nan,NaN
nan,nan,nan,NaN
nan,nan,nan,NaN
nan,nan,nan,NaN
nan,nan,nan,NaN
nan,nan,nan,NaN
0.633749,0.306044,2.345,2.44833
0.641361,0.306044,2.345,2.45031
0.648972,0.306044,2.345,2.45232
0.652103,0.303956,2.329,2.43759
0.659663,0.303956,2.329,2.43963
0.667222,0.303956,2.329,2.44168
0.674781,0.303956,2.329,2.44376
0.682341,0.303956,2.329,2.44586
0.6899,0.303956,2.329,2.44798
0.678892,0.295865,2.267,2.38489
0.686251,0.295865,2.267,2.387
0.693609,0.295865,2.267,2.38913
0.700967,0.295865,2.267,2.39127
0.722698,0.301868,2.313,2.442
0.735256,0.303956,2.329,2.46114
0.737712,0.301868,2.313,2.44649
0.735232,0.297822,2.282,2.41594
0.742639,0.297822,2.282,2.41821
0.750046,0.297822,2.282,2.42049
0.757452,0.297822,2.282,2.4228
0.770222,0.29991,2.298,2.44213
0.777681,0.29991,2.298,2.44449
0.790264,0.301868,2.313,2.46285
0.80329,0.303956,2.329,2.48232
0.81085,0.303956,2.329,2.48478
0.824031,0.306044,2.345,2.50434
0.837317,0.308132,2.361,2.52396
0.84498,0.308132,2.361,2.52651
0.852643,0.308132,2.361,2.52908
0.866137,0.310221,2.377,2.54883
0.873852,0.310221,2.377,2.55147
0.881567,0.310221,2.377,2.55412
0.889282,0.310221,2.377,2.55679
0.896997,0.310221,2.377,2.55949
0.904712,0.310221,2.377,2.5622
0.912428,0.310221,2.377,2.56493
0.926724,0.312439,2.394,2.58605
0.934494,0.312439,2.394,2.58885
0.942264,0.312439,2.394,2.59166
0.950035,0.312439,2.394,2.5945
0.964606,0.314658,2.411,2.6158
0.972432,0.314658,2.411,2.61869
0.980257,0.314658,2.411,2.62161
0.988083,0.314658,2.411,2.62455
0.995908,0.314658,2.411,2.6275
1.00373,0.314658,2.411,2.63048
1.01156,0.314658,2.411,2.63347
1.01938,0.314658,2.411,2.63649
1.02721,0.314658,2.411,2.63952
1.03504,0.314658,2.411,2.64258
1.04286,0.314658,2.411,2.64566
1.05069,0.314658,2.411,2.64875
1.05851,0.314658,2.411,2.65186
1.06634,0.314658,2.411,2.655
1.07416,0.314658,2.411,2.65815
1.08199,0.314658,2.411,2.66132
1.08981,0.314658,2.411,2.66451
1.09764,0.314658,2.411,2.66772
1.10547,0.314658,2.411,2.67095
1.11329,0.314658,2.411,2.6742
1.12112,0.314658,2.411,2.67747
1.12894,0.314658,2.411,2.68075
1.13677,0.314658,2.411,2.68406
1.14459,0.314658,2.411,2.68738
1.15242,0.314658,2.411,2.69072
1.16024,0.314658,2.411,2.69409
1.17631,0.316877,2.428,2.71649
1.18419,0.316877,2.428,2.71991
1.19207,0.316877,2.428,2.72335
1.19995,0.316877,2.428,2.72681
1.20783,0.316877,2.428,2.73028
1.21571,0.316877,2.428,2.73378
1.23216,0.319095,2.445,2.75646
1.24009,0.319095,2.445,2.76001
1.24803,0.319095,2.445,2.76359
1.25596,0.319095,2.445,2.76718
1.27321,0.321444,2.463,2.79119
1.2812,0.321444,2.463,2.79485
1.28919,0.321444,2.463,2.79852
1.30667,0.323794,2.481,2.82269
1.31472,0.323794,2.481,2.82643
1.33237,0.326143,2.499,2.85072
1.35014,0.328492,2.517,2.87508
1.35831,0.328492,2.517,2.87892
1.38711,0.333451,2.555,2.92631
1.41615,0.338411,2.593,2.97383
1.43556,0.341021,2.613,3.00081
1.44404,0.341021,2.613,3.00488
1.47531,0.346372,2.654,3.05618
1.50741,0.351853,2.696,3.10878
1.51616,0.351853,2.696,3.11303
1.54923,0.357465,2.739,3.16702
1.57064,0.360336,2.761,3.19685
1.5796,0.360336,2.761,3.20126
1.60122,0.363207,2.783,3.23124
1.61025,0.363207,2.783,3.23572
1.61928,0.363207,2.783,3.24023
1.62831,0.363207,2.783,3.24475
1.6244,0.360336,2.761,3.22361
1.63337,0.360336,2.761,3.22813
1.62924,0.357465,2.739,3.20692
1.63813,0.357465,2.739,3.21144
1.64702,0.357465,2.739,3.21599
1.64261,0.354594,2.717,3.19468
1.63867,0.351853,2.696,3.1745
1.64742,0.351853,2.696,3.17902
1.63037,0.346372,2.654,3.13397
1.62601,0.343631,2.633,3.11363
1.63456,0.343631,2.633,3.1181
1.61814,0.338411,2.593,3.07515
1.61464,0.335931,2.574,3.05702
1.59903,0.330972,2.536,3.01625
1.60727,0.330972,2.536,3.02062
1.60339,0.328492,2.517,3.00234
1.60004,0.326143,2.499,2.98521
1.60815,0.326143,2.499,2.98957
1.59298,0.321444,2.463,2.95081
1.58927,0.319095,2.445,2.93354
1.59721,0.319095,2.445,2.93784
1.59398,0.316877,2.428,2.92171
1.59065,0.314658,2.411,2.90553
1.59847,0.314658,2.411,2.90982
1.6063,0.314658,2.411,2.91412
1.60274,0.312439,2.394,2.89787
1.61051,0.312439,2.394,2.90217
1.60679,0.310221,2.377,2.88585
1.60364,0.308132,2.361,2.8707
-1.75931,0.3392,2.536,3.10508
-1.73796,0.336659,2.517,3.07719
-1.72979,0.336659,2.517,3.07259
-1.72162,0.336659,2.517,3.068
-1.72638,0.3392,2.536,3.08654
-1.71815,0.3392,2.536,3.08195
-1.72273,0.341742,2.555,3.10042
-1.71444,0.341742,2.555,3.09582
-1.70614,0.341742,2.555,3.09124
-1.69785,0.341742,2.555,3.08667
-1.68956,0.341742,2.555,3.08211
-1.69377,0.344283,2.574,3.10046
-1.69785,0.346824,2.593,3.11876
-1.68944,0.346824,2.593,3.11418
-1.69399,0.3495,2.613,3.13361
-1.69841,0.352175,2.633,3.15298
-1.70334,0.354984,2.654,3.1735
-1.69472,0.354984,2.654,3.16888
-1.68611,0.354984,2.654,3.16428
-1.69077,0.357792,2.675,3.1847
-1.68209,0.357792,2.675,3.1801
-1.6734,0.357792,2.675,3.17552
-1.66472,0.357792,2.675,3.17095
-1.64304,0.354984,2.654,3.14155
-1.63443,0.354984,2.654,3.13705
-1.62581,0.354984,2.654,3.13257
-1.6172,0.354984,2.654,3.12811
-1.60858,0.354984,2.654,3.12366
-1.57525,0.3495,2.613,3.07105
-1.56677,0.3495,2.613,3.06671
-1.55829,0.3495,2.613,3.06238
-1.52668,0.344283,2.574,3.01243
-1.51832,0.344283,2.574,3.00821
-1.49882,0.341742,2.555,2.98182
-1.47944,0.3392,2.536,2.95552
-1.47121,0.3392,2.536,2.95141
-1.45202,0.336659,2.517,2.92523
-1.43353,0.334252,2.499,2.9003
-1.41515,0.331844,2.481,2.87544
-1.4071,0.331844,2.481,2.87148
-1.38889,0.329436,2.463,2.84674
-1.37081,0.327029,2.445,2.82207
-1.36287,0.327029,2.445,2.81822
-1.35493,0.327029,2.445,2.8144
-1.347,0.327029,2.445,2.81058
-1.34892,0.329436,2.463,2.82745
-1.34093,0.329436,2.463,2.82365
-1.34267,0.331844,2.481,2.84047
-1.36421,0.3392,2.536,2.89955
-1.36614,0.341742,2.555,2.91739
-1.35784,0.341742,2.555,2.91351
-1.35959,0.344283,2.574,2.93129
-1.3717,0.3495,2.613,2.97178
-1.36322,0.3495,2.613,2.96788
-1.376,0.354984,2.654,3.0105
-1.3782,0.357792,2.675,3.03036
-1.39102,0.36341,2.717,3.07394
-1.38221,0.36341,2.717,3.06996
-1.38451,0.366353,2.739,3.09082
-1.37562,0.366353,2.739,3.08685
-1.36673,0.366353,2.739,3.0829
-1.35784,0.366353,2.739,3.07897
-1.34895,0.366353,2.739,3.07506
-1.32929,0.36341,2.717,3.0465
-1.31027,0.360601,2.696,3.01915
-1.30152,0.360601,2.696,3.01536
-1.2827,0.357792,2.675,2.98814
-1.26401,0.354984,2.654,2.96099
-1.23601,0.3495,2.613,2.91164
-1.22752,0.3495,2.613,2.90805
-1.20971,0.346824,2.593,2.88225
-1.19249,0.344283,2.574,2.85763
-1.18414,0.344283,2.574,2.85415
-1.15843,0.3392,2.536,2.80861
-1.14158,0.336659,2.517,2.78421
-1.13341,0.336659,2.517,2.78087
-1.11719,0.334252,2.499,2.75769
-1.10908,0.334252,2.499,2.75441
-1.10097,0.334252,2.499,2.75116
-1.08499,0.331844,2.481,2.72813
-1.06912,0.329436,2.463,2.70516
-1.06113,0.329436,2.463,2.70202
-1.05313,0.329436,2.463,2.69889
-1.0375,0.327029,2.445,2.67608
-1.02956,0.327029,2.445,2.67301
-1.02163,0.327029,2.445,2.66996
-1.01369,0.327029,2.445,2.66694
-0.998763,0.324755,2.428,2.64541
-0.990883,0.324755,2.428,2.64244
-0.983002,0.324755,2.428,2.6395
-0.975121,0.324755,2.428,2.63657
-0.967241,0.324755,2.428,2.63367
-0.95936,0.324755,2.428,2.63078
-0.951479,0.324755,2.428,2.62792
-0.936992,0.322481,2.411,2.6067
-0.929166,0.322481,2.411,2.60389
-0.921341,0.322481,2.411,2.60111
-0.913515,0.322481,2.411,2.59835
-0.90569,0.322481,2.411,2.59561
-0.897864,0.322481,2.411,2.59289
-0.896315,0.324755,2.428,2.60845
-0.888434,0.324755,2.428,2.60576
-0.880553,0.324755,2.428,2.60308
-0.872672,0.324755,2.428,2.60042
-0.864792,0.324755,2.428,2.59779
-0.856911,0.324755,2.428,2.59518
-0.84903,0.324755,2.428,2.59259
-0.84115,0.324755,2.428,2.59002
-0.833269,0.324755,2.428,2.58747
-0.825388,0.324755,2.428,2.58494
-0.823232,0.327029,2.445,2.60052
-0.815296,0.327029,2.445,2.59801
-0.80736,0.327029,2.445,2.59554
-0.805309,0.329436,2.463,2.61217
-0.797315,0.329436,2.463,2.60971
-0.795089,0.331844,2.481,2.62634
-0.787037,0.331844,2.481,2.62391
-0.778984,0.331844,2.481,2.62151
-0.770931,0.331844,2.481,2.61913
-0.762878,0.331844,2.481,2.61677
-0.754826,0.331844,2.481,2.61443
-0.752191,0.334252,2.499,2.63107
-0.74408,0.334252,2.499,2.62876
-0.735969,0.334252,2.499,2.62648
-0.727858,0.334252,2.499,2.62421
-0.719746,0.334252,2.499,2.62198
-0.711635,0.334252,2.499,2.61976
-0.708592,0.336659,2.517,2.63642
-0.700422,0.336659,2.517,2.63424
-0.692252,0.336659,2.517,2.63208
-0.684083,0.336659,2.517,2.62994
-0.675913,0.336659,2.517,2.62783
-0.667744,0.336659,2.517,2.62574
-0.659574,0.336659,2.517,2.62367
-0.651405,0.336659,2.517,2.62163
