-0.918462,-0.474267,2.445,2.65453
-0.910526,-0.474267,2.445,2.65179
-0.90259,-0.474267,2.445,2.64908
-0.894654,-0.474267,2.445,2.64639
-0.886718,-0.474267,2.445,2.64371
-0.878783,-0.474267,2.445,2.64106
-0.870847,-0.474267,2.445,2.63843
-0.862911,-0.474267,2.445,2.63582
-0.854975,-0.474267,2.445,2.63324
-0.847039,-0.474267,2.445,2.63067
-0.839103,-0.474267,2.445,2.62813
-0.831167,-0.474267,2.445,2.6256
-0.823232,-0.474267,2.445,2.6231
-0.815296,-0.474267,2.445,2.62062
-0.80736,-0.474267,2.445,2.61816
-0.799424,-0.474267,2.445,2.61573
-0.791488,-0.474267,2.445,2.61331
-0.783552,-0.474267,2.445,2.61092
-0.781326,-0.477759,2.463,2.62775
-0.773332,-0.477759,2.463,2.62539
-0.765338,-0.477759,2.463,2.62304
-0.757344,-0.477759,2.463,2.62072
-0.749349,-0.477759,2.463,2.61842
-0.741355,-0.477759,2.463,2.61615
-0.733361,-0.477759,2.463,2.61389
-0.725366,-0.477759,2.463,2.61166
-0.717372,-0.477759,2.463,2.60945
-0.709378,-0.477759,2.463,2.60727
-0.701384,-0.477759,2.463,2.6051
-0.693389,-0.477759,2.463,2.60296
-0.690404,-0.48125,2.481,2.61985
-0.682351,-0.48125,2.481,2.61774
-0.674299,-0.48125,2.481,2.61565
-0.666246,-0.48125,2.481,2.61359
-0.658193,-0.48125,2.481,2.61155
-0.65014,-0.48125,2.481,2.60953
-0.642088,-0.48125,2.481,2.60754
-0.629435,-0.477759,2.463,2.58666
-0.621441,-0.477759,2.463,2.58473
-0.613446,-0.477759,2.463,2.58282
-0.609877,-0.48125,2.481,2.59979
-0.601824,-0.48125,2.481,2.59791
-0.593771,-0.48125,2.481,2.59606
-0.585719,-0.48125,2.481,2.59423
-0.577666,-0.48125,2.481,2.59242
-0.569613,-0.48125,2.481,2.59064
-0.561561,-0.48125,2.481,2.58888
-0.553508,-0.48125,2.481,2.58715
-0.545455,-0.48125,2.481,2.58544
-0.537403,-0.48125,2.481,2.58375
-0.52935,-0.48125,2.481,2.58209
-0.521297,-0.48125,2.481,2.58045
-0.513244,-0.48125,2.481,2.57883
-0.505192,-0.48125,2.481,2.57724
-0.497139,-0.48125,2.481,2.57568
-0.489086,-0.48125,2.481,2.57413
-0.481034,-0.48125,2.481,2.57262
-0.472981,-0.48125,2.481,2.57112
-0.461555,-0.477759,2.463,2.55101
-0.453561,-0.477759,2.463,2.54958
-0.448823,-0.48125,2.481,2.56679
-0.44077,-0.48125,2.481,2.56539
-0.429578,-0.477759,2.463,2.54542
-0.421584,-0.477759,2.463,2.54408
-0.413589,-0.477759,2.463,2.54277
-0.405595,-0.477759,2.463,2.54148
-0.400506,-0.48125,2.481,2.55878
-0.392454,-0.48125,2.481,2.55753
-0.384401,-0.48125,2.481,2.55631
-0.376348,-0.48125,2.481,2.55511
-0.370968,-0.484742,2.499,2.57247
-0.362857,-0.484742,2.499,2.57131
-0.354745,-0.484742,2.499,2.57018
-0.346634,-0.484742,2.499,2.56907
-0.338523,-0.484742,2.499,2.56799
-0.330412,-0.484742,2.499,2.56693
-0.322301,-0.484742,2.499,2.5659
-0.316453,-0.488233,2.517,2.58337
-0.308283,-0.488233,2.517,2.58238
-0.300114,-0.488233,2.517,2.58142
-0.291944,-0.488233,2.517,2.58048
-0.283775,-0.488233,2.517,2.57957
-0.275605,-0.488233,2.517,2.57869
-0.269454,-0.491919,2.536,2.59728
-0.261223,-0.491919,2.536,2.59644
-0.252992,-0.491919,2.536,2.59563
-0.244761,-0.491919,2.536,2.59484
-0.236529,-0.491919,2.536,2.59408
-0.228298,-0.491919,2.536,2.59334
-0.220067,-0.491919,2.536,2.59263
-0.211836,-0.491919,2.536,2.59194
-0.203604,-0.491919,2.536,2.59128
-0.195373,-0.491919,2.536,2.59065
-0.187142,-0.491919,2.536,2.59004
-0.178911,-0.491919,2.536,2.58946
-0.170679,-0.491919,2.536,2.5889
-0.162448,-0.491919,2.536,2.58837
-0.154217,-0.491919,2.536,2.58787
-0.145986,-0.491919,2.536,2.58739
-0.137755,-0.491919,2.536,2.58694
-0.129523,-0.491919,2.536,2.58651
-0.120383,-0.488233,2.517,2.56674
-0.112214,-0.488233,2.517,2.56637
-0.104044,-0.488233,2.517,2.56603
-0.0958747,-0.488233,2.517,2.56571
-0.0877052,-0.488233,2.517,2.56541
-0.0795356,-0.488233,2.517,2.56515
-0.0713661,-0.488233,2.517,2.56491
-0.0631965,-0.488233,2.517,2.56469
-0.055027,-0.488233,2.517,2.56451
-0.0468574,-0.488233,2.517,2.56434
-0.0386878,-0.488233,2.517,2.56421
-0.0305183,-0.488233,2.517,2.5641
-0.0225174,-0.491919,2.536,2.58337
-0.0142862,-0.491919,2.536,2.58331
-0.00605498,-0.491919,2.536,2.58328
0.00217625,-0.491919,2.536,2.58327
0.0104075,-0.491919,2.536,2.58329
0.0186387,-0.491919,2.536,2.58334
0.0268699,-0.491919,2.536,2.58341
0.0351011,-0.491919,2.536,2.58351
0.0433324,-0.491919,2.536,2.58363
0.0515636,-0.491919,2.536,2.58378
0.0597948,-0.491919,2.536,2.58396
0.0680261,-0.491919,2.536,2.58416
0.0762573,-0.491919,2.536,2.58439
0.0844885,-0.491919,2.536,2.58465
0.0927197,-0.491919,2.536,2.58493
0.100951,-0.491919,2.536,2.58524
0.109182,-0.491919,2.536,2.58558
0.117413,-0.491919,2.536,2.58594
0.125645,-0.491919,2.536,2.58632
0.134879,-0.495604,2.555,2.60612
0.143172,-0.495604,2.555,2.60656
0.151465,-0.495604,2.555,2.60703
0.159758,-0.495604,2.555,2.60752
0.16805,-0.495604,2.555,2.60804
0.176343,-0.495604,2.555,2.60859
0.184636,-0.495604,2.555,2.60916
0.192929,-0.495604,2.555,2.60976
0.201222,-0.495604,2.555,2.61039
0.209515,-0.495604,2.555,2.61104
0.219428,-0.49929,2.574,2.63114
0.227782,-0.49929,2.574,2.63185
0.236137,-0.49929,2.574,2.63259
0.244491,-0.49929,2.574,2.63335
0.252846,-0.49929,2.574,2.63414
0.2612,-0.49929,2.574,2.63496
0.269555,-0.49929,2.574,2.6358
0.27791,-0.49929,2.574,2.63666
0.286264,-0.49929,2.574,2.63756
0.294619,-0.49929,2.574,2.63848
0.302973,-0.49929,2.574,2.63942
0.311328,-0.49929,2.574,2.6404
0.319682,-0.49929,2.574,2.64139
0.328037,-0.49929,2.574,2.64242
0.336391,-0.49929,2.574,2.64347
0.342201,-0.495604,2.555,2.62502
0.350494,-0.495604,2.555,2.62612
0.358787,-0.495604,2.555,2.62724
0.36708,-0.495604,2.555,2.62838
0.375373,-0.495604,2.555,2.62955
0.383666,-0.495604,2.555,2.63075
0.391959,-0.495604,2.555,2.63197
0.400252,-0.495604,2.555,2.63322
0.408544,-0.495604,2.555,2.63449
0.416837,-0.495604,2.555,2.63579
0.42513,-0.495604,2.555,2.63712
0.433423,-0.495604,2.555,2.63847
0.441716,-0.495604,2.555,2.63984
0.450009,-0.495604,2.555,2.64124
0.46171,-0.49929,2.574,2.66232
0.470064,-0.49929,2.574,2.66378
0.478419,-0.49929,2.574,2.66527
0.490367,-0.502975,2.593,2.68647
0.495128,-0.49929,2.574,2.66832
0.503483,-0.49929,2.574,2.66988
0.511837,-0.49929,2.574,2.67147
0.520192,-0.49929,2.574,2.67308
0.528546,-0.49929,2.574,2.67472
0.536901,-0.49929,2.574,2.67638
0.545256,-0.49929,2.574,2.67807
0.55361,-0.49929,2.574,2.67979
0.557817,-0.495604,2.555,2.66173
0.566109,-0.495604,2.555,2.66348
0.574402,-0.495604,2.555,2.66526
0.578362,-0.491919,2.536,2.64722
0.582199,-0.488233,2.517,2.62919
0.590368,-0.488233,2.517,2.63101
0.598538,-0.488233,2.517,2.63285
0.606707,-0.488233,2.517,2.63472
0.614877,-0.488233,2.517,2.63661
0.623046,-0.488233,2.517,2.63853
0.631216,-0.488233,2.517,2.64047
0.639385,-0.488233,2.517,2.64244
0.647555,-0.488233,2.517,2.64443
0.655725,-0.488233,2.517,2.64644
0.663894,-0.488233,2.517,2.64847
0.672064,-0.488233,2.517,2.65053
0.680233,-0.488233,2.517,2.65262
0.688403,-0.488233,2.517,2.65472
0.696572,-0.488233,2.517,2.65685
0.704742,-0.488233,2.517,2.65901
0.712911,-0.488233,2.517,2.66118
0.721081,-0.488233,2.517,2.66338
0.729251,-0.488233,2.517,2.66561
0.73742,-0.488233,2.517,2.66786
0.74559,-0.488233,2.517,2.67012
0.753759,-0.488233,2.517,2.67242
0.761929,-0.488233,2.517,2.67473
0.770098,-0.488233,2.517,2.67707
0.778268,-0.488233,2.517,2.67943
0.786437,-0.488233,2.517,2.68182
0.788924,-0.484742,2.499,2.66503
0.797036,-0.484742,2.499,2.66744
0.805147,-0.484742,2.499,2.66988
0.813258,-0.484742,2.499,2.67233
0.821369,-0.484742,2.499,2.67481
0.82948,-0.484742,2.499,2.67731
0.837591,-0.484742,2.499,2.67984
0.845702,-0.484742,2.499,2.68238
0.853814,-0.484742,2.499,2.68495
0.855716,-0.48125,2.481,2.66819
0.863769,-0.48125,2.481,2.67078
0.871822,-0.48125,2.481,2.67339
0.873491,-0.477759,2.463,2.65662
0.881485,-0.477759,2.463,2.65926
0.882979,-0.474267,2.445,2.64246
0.890915,-0.474267,2.445,2.64512
0.898851,-0.474267,2.445,2.64781
0.906787,-0.474267,2.445,2.65051
nan,nan,nan,NaN
nan,nan,nan,NaN
nan,nan,nan,NaN
nan,nan,nan,NaN
nan,nan,nan,NaN
nan,nan,nan,NaN
nan,nan,nan,NaN
nan,nan,nan,NaN
nan,nan,nan,NaN
nan,nan,nan,NaN
nan,nan,nan,NaN
nan,nan,nan,NaN
nan,nan,nan,NaN
nan,nan,nan,NaN
nan,nan,nan,NaN
nan,nan,nan,NaN
nan,nan,nan,NaN
nan,nan,nan,NaN
nan,nan,nan,NaN
nan,nan,nan,NaN
nan,nan,nan,NaN
nan,nan,nan,NaN
nan,nan,nan,NaN
nan,nan,nan,NaN
nan,nan,nan,NaN
nan,nan,nan,NaN
nan,nan,nan,NaN
nan,nan,nan,NaN
nan,nan,nan,NaN
nan,nan,nan,NaN
nan,nan,nan,NaN
nan,nan,nan,NaN
nan,nan,nan,NaN
nan,nan,nan,NaN
nan,nan,nan,NaN
nan,nan,nan,NaN
nan,nan,nan,NaN
nan,nan,nan,NaN
nan,nan,nan,NaN
nan,nan,nan,NaN
nan,nan,nan,NaN
nan,nan,nan,NaN
nan,nan,nan,NaN
nan,nan,nan,NaN
nan,nan,nan,NaN
nan,nan,nan,NaN
nan,nan,nan,NaN
nan,nan,nan,NaN
nan,nan,nan,NaN
nan,nan,nan,NaN
nan,nan,nan,NaN
1.98646,-0.71402,3.681,4.2433
1.97724,-0.706455,3.642,4.20389
1.98906,-0.706455,3.642,4.20947
1.98,-0.699084,3.604,4.17108
1.9917,-0.699084,3.604,4.17665
1.98227,-0.691712,3.566,4.13814
1.99385,-0.691712,3.566,4.1437
1.96437,-0.677552,3.493,4.06434
1.95591,-0.670763,3.458,4.02905
1.96713,-0.670763,3.458,4.03451
1.95833,-0.663974,3.423,3.99911
1.96944,-0.663974,3.423,4.00456
1.98055,-0.663974,3.423,4.01004
1.97188,-0.657379,3.389,3.97565
1.96357,-0.650978,3.356,3.94235
1.97447,-0.650978,3.356,3.94779
1.96643,-0.644771,3.324,3.91555
1.95818,-0.638564,3.292,3.88323
1.96887,-0.638564,3.292,3.88863
1.96031,-0.632356,3.26,3.8562
1.95275,-0.626537,3.23,3.82606
1.9444,-0.620524,3.199,3.79464
1.95478,-0.620524,3.199,3.79998
1.94735,-0.614899,3.17,3.77083
1.92182,-0.603648,3.112,3.70706
1.93192,-0.603648,3.112,3.71231
1.9077,-0.59298,3.057,3.65187
1.86744,-0.577462,2.977,3.56136
1.8771,-0.577462,2.977,3.56644
1.87028,-0.572418,2.951,3.54034
1.84801,-0.56272,2.901,3.48534
1.85743,-0.56272,2.901,3.49034
1.8514,-0.558064,2.877,3.46644
1.84521,-0.553409,2.853,3.44248
1.85447,-0.553409,2.853,3.44745
1.83303,-0.544292,2.806,3.39557
1.82704,-0.539831,2.783,3.37262
1.83607,-0.539831,2.783,3.37752
1.81593,-0.531296,2.739,3.32897
1.82482,-0.531296,2.739,3.33382
1.83371,-0.531296,2.739,3.3387
1.8426,-0.531296,2.739,3.34359
1.83662,-0.527028,2.717,3.3216
1.81691,-0.518881,2.675,3.27506
-2.32817,-0.640088,3.356,4.13435
-2.31727,-0.640088,3.356,4.12822
-2.30638,-0.640088,3.356,4.12212
-2.29549,-0.640088,3.356,4.11603
-2.30706,-0.646382,3.389,4.15038
-2.29606,-0.646382,3.389,4.14428
-2.28506,-0.646382,3.389,4.13819
-2.25192,-0.640088,3.356,4.09189
-2.24102,-0.640088,3.356,4.08591
-2.23013,-0.640088,3.356,4.07994
-2.21924,-0.640088,3.356,4.074
-2.20835,-0.640088,3.356,4.06808
-2.19745,-0.640088,3.356,4.06217
-2.18656,-0.640088,3.356,4.05629
-2.17567,-0.640088,3.356,4.05043
-2.16478,-0.640088,3.356,4.04459
-2.17506,-0.646382,3.389,4.07848
-2.14299,-0.640088,3.356,4.03297
-2.1321,-0.640088,3.356,4.02719
-2.1212,-0.640088,3.356,4.02144
-2.11031,-0.640088,3.356,4.0157
-2.09942,-0.640088,3.356,4.00999
-2.08853,-0.640088,3.356,4.0043
-2.05782,-0.633985,3.324,3.9605
-2.04703,-0.633985,3.324,3.9549
-2.03625,-0.633985,3.324,3.94933
-2.02546,-0.633985,3.324,3.94378
-2.01467,-0.633985,3.324,3.93825
-2.00388,-0.633985,3.324,3.93274
-1.99309,-0.633985,3.324,3.92725
-1.9823,-0.633985,3.324,3.92179
nan,nan,nan,NaN
nan,nan,nan,NaN
nan,nan,nan,NaN
nan,nan,nan,NaN
nan,nan,nan,NaN
nan,nan,nan,NaN
nan,nan,nan,NaN
nan,nan,nan,NaN
nan,nan,nan,NaN
nan,nan,nan,NaN
nan,nan,nan,NaN
nan,nan,nan,NaN
nan,nan,nan,NaN
nan,nan,nan,NaN
nan,nan,nan,NaN
nan,nan,nan,NaN
nan,nan,nan,NaN
nan,nan,nan,NaN
nan,nan,nan,NaN
nan,nan,nan,NaN
nan,nan,nan,NaN
nan,nan,nan,NaN
nan,nan,nan,NaN
nan,nan,nan,NaN
nan,nan,nan,NaN
nan,nan,nan,NaN
nan,nan,nan,NaN
nan,nan,nan,NaN
nan,nan,nan,NaN
nan,nan,nan,NaN
nan,nan,nan,NaN
nan,nan,nan,NaN
nan,nan,nan,NaN
nan,nan,nan,NaN
nan,nan,nan,NaN
nan,nan,nan,NaN
nan,nan,nan,NaN
nan,nan,nan,NaN
nan,nan,nan,NaN
-1.09401,-0.447261,2.345,2.62601
-1.0864,-0.447261,2.345,2.62285
-1.07143,-0.444209,2.329,2.60183
-1.06387,-0.444209,2.329,2.59873
-1.05631,-0.444209,2.329,2.59564
-1.04875,-0.444209,2.329,2.59257
-1.04119,-0.444209,2.329,2.58953
-1.03363,-0.444209,2.329,2.5865
-1.01902,-0.441157,2.313,2.56574
-1.01152,-0.441157,2.313,2.56276
-1.00401,-0.441157,2.313,2.55981
-0.996502,-0.441157,2.313,2.55687
-0.995836,-0.444209,2.329,2.57162
-1.00186,-0.450312,2.361,2.604
-0.994193,-0.450312,2.361,2.60106
-0.993215,-0.453364,2.377,2.61575
-0.9855,-0.453364,2.377,2.61283
-0.977785,-0.453364,2.377,2.60993
-0.970069,-0.453364,2.377,2.60705
-0.969237,-0.456606,2.394,2.62281
-0.961466,-0.456606,2.394,2.61995
-0.953696,-0.456606,2.394,2.61711
-0.952643,-0.459849,2.411,2.63285
-0.944817,-0.459849,2.411,2.63003
-0.936992,-0.459849,2.411,2.62723
-0.929166,-0.459849,2.411,2.62445
-0.921341,-0.459849,2.411,2.62169
-0.913515,-0.459849,2.411,2.61895
-0.90569,-0.459849,2.411,2.61623
-0.897864,-0.459849,2.411,2.61353
-0.890039,-0.459849,2.411,2.61085
-0.888434,-0.463091,2.428,2.62659
-0.880553,-0.463091,2.428,2.62393
-0.872672,-0.463091,2.428,2.6213
-0.864792,-0.463091,2.428,2.61868
-0.856911,-0.463091,2.428,2.61609
-0.84903,-0.463091,2.428,2.61352
-0.84115,-0.463091,2.428,2.61097
-0.833269,-0.463091,2.428,2.60844
-0.825388,-0.463091,2.428,2.60594
-0.817508,-0.463091,2.428,2.60345
-0.809627,-0.463091,2.428,2.60099
-0.801746,-0.463091,2.428,2.59854
-0.793866,-0.463091,2.428,2.59612
-0.785985,-0.463091,2.428,2.59373
-0.778104,-0.463091,2.428,2.59135
-0.770224,-0.463091,2.428,2.58899
-0.762343,-0.463091,2.428,2.58666
-0.754462,-0.463091,2.428,2.58435
-0.751809,-0.466334,2.445,2.60014
-0.743873,-0.466334,2.445,2.59785
-0.735937,-0.466334,2.445,2.59559
-0.728001,-0.466334,2.445,2.59335
-0.720065,-0.466334,2.445,2.59114
-0.712129,-0.466334,2.445,2.58894
-0.704194,-0.466334,2.445,2.58677
-0.696258,-0.466334,2.445,2.58462
-0.688322,-0.466334,2.445,2.58249
-0.680386,-0.466334,2.445,2.58039
-0.677401,-0.469767,2.463,2.59729
-0.669406,-0.469767,2.463,2.59522
-0.661412,-0.469767,2.463,2.59317
-0.653418,-0.469767,2.463,2.59114
-0.645424,-0.469767,2.463,2.58914
-0.637429,-0.469767,2.463,2.58715
-0.629435,-0.469767,2.463,2.5852
-0.621441,-0.469767,2.463,2.58326
-0.613446,-0.469767,2.463,2.58135
-0.605452,-0.469767,2.463,2.57946
-0.597458,-0.469767,2.463,2.5776
-0.589464,-0.469767,2.463,2.57576
-0.581469,-0.469767,2.463,2.57394
-0.573475,-0.469767,2.463,2.57214
-0.565481,-0.469767,2.463,2.57037
-0.557486,-0.469767,2.463,2.56863
-0.553508,-0.4732,2.481,2.58566
-0.541498,-0.469767,2.463,2.5652
-0.533504,-0.469767,2.463,2.56353
-0.525509,-0.469767,2.463,2.56188
-0.517515,-0.469767,2.463,2.56025
-0.509521,-0.469767,2.463,2.55864
-0.501526,-0.469767,2.463,2.55706
-0.493532,-0.469767,2.463,2.55551
-0.485538,-0.469767,2.463,2.55398
-0.477544,-0.469767,2.463,2.55247
-0.469549,-0.469767,2.463,2.55099
-0.461555,-0.469767,2.463,2.54953
-0.453561,-0.469767,2.463,2.54809
-0.445566,-0.469767,2.463,2.54668
-0.437572,-0.469767,2.463,2.54529
-0.429578,-0.469767,2.463,2.54393
-0.421584,-0.469767,2.463,2.54259
-0.413589,-0.469767,2.463,2.54128
-0.405595,-0.469767,2.463,2.53999
-0.397601,-0.469767,2.463,2.53873
-0.389606,-0.469767,2.463,2.53749
-0.381612,-0.469767,2.463,2.53627
-0.373618,-0.469767,2.463,2.53508
-0.368296,-0.4732,2.481,2.55243
-0.360243,-0.4732,2.481,2.55129
-0.35219,-0.4732,2.481,2.55016
-0.344137,-0.4732,2.481,2.54906
-0.336085,-0.4732,2.481,2.54799
-0.328032,-0.4732,2.481,2.54694
-0.319979,-0.4732,2.481,2.54591
-0.31419,-0.476633,2.499,2.56338
-0.306079,-0.476633,2.499,2.56239
-0.297967,-0.476633,2.499,2.56144
-0.289856,-0.476633,2.499,2.56051
-0.281745,-0.476633,2.499,2.5596
-0.275605,-0.480066,2.517,2.57715
-0.267435,-0.480066,2.517,2.57629
-0.259266,-0.480066,2.517,2.57546
-0.251096,-0.480066,2.517,2.57465
-0.242927,-0.480066,2.517,2.57386
-0.234757,-0.480066,2.517,2.5731
-0.226588,-0.480066,2.517,2.57237
-0.218418,-0.480066,2.517,2.57166
-0.210249,-0.480066,2.517,2.57098
-0.202079,-0.480066,2.517,2.57033
-0.195373,-0.48369,2.536,2.5891
-0.187142,-0.48369,2.536,2.58849
-0.178911,-0.48369,2.536,2.58791
-0.170679,-0.48369,2.536,2.58735
-0.162448,-0.48369,2.536,2.58682
-0.154217,-0.48369,2.536,2.58632
-0.145986,-0.48369,2.536,2.58584
-0.137755,-0.48369,2.536,2.58539
-0.129523,-0.48369,2.536,2.58496
-0.121292,-0.48369,2.536,2.58456
-0.113061,-0.48369,2.536,2.58419
-0.10483,-0.48369,2.536,2.58384
-0.0958747,-0.480066,2.517,2.56417
-0.0877052,-0.480066,2.517,2.56387
-0.0795356,-0.480066,2.517,2.56361
-0.0713661,-0.480066,2.517,2.56337
-0.0631965,-0.480066,2.517,2.56315
-0.0554423,-0.48369,2.536,2.58231
-0.0472111,-0.48369,2.536,2.58215
-0.0389799,-0.48369,2.536,2.58201
-0.0307487,-0.48369,2.536,2.5819
-0.0225174,-0.48369,2.536,2.58181
-0.0142862,-0.48369,2.536,2.58175
-0.00605498,-0.48369,2.536,2.58172
0.00217625,-0.48369,2.536,2.58172
0.0104075,-0.48369,2.536,2.58174
0.0186387,-0.48369,2.536,2.58178
0.0268699,-0.48369,2.536,2.58185
0.0351011,-0.48369,2.536,2.58195
0.0433324,-0.48369,2.536,2.58208
0.0515636,-0.48369,2.536,2.58223
0.0597948,-0.48369,2.536,2.58241
0.0680261,-0.48369,2.536,2.58261
0.0762573,-0.48369,2.536,2.58284
0.0844885,-0.48369,2.536,2.5831
0.0927197,-0.48369,2.536,2.58338
0.100951,-0.48369,2.536,2.58369
0.11,-0.487314,2.555,2.60338
0.118293,-0.487314,2.555,2.60375
0.126586,-0.487314,2.555,2.60414
0.134879,-0.487314,2.555,2.60455
0.143172,-0.487314,2.555,2.60499
0.151465,-0.487314,2.555,2.60546
0.159758,-0.487314,2.555,2.60596
0.16805,-0.487314,2.555,2.60648
0.176343,-0.487314,2.555,2.60703
0.184636,-0.487314,2.555,2.6076
0.192929,-0.487314,2.555,2.6082
0.201222,-0.487314,2.555,2.60883
0.209515,-0.487314,2.555,2.60948
0.219428,-0.490938,2.574,2.62957
0.227782,-0.490938,2.574,2.63028
0.236137,-0.490938,2.574,2.63102
0.244491,-0.490938,2.574,2.63178
0.252846,-0.490938,2.574,2.63257
0.2612,-0.490938,2.574,2.63339
0.269555,-0.490938,2.574,2.63423
0.27791,-0.490938,2.574,2.6351
0.286264,-0.490938,2.574,2.63599
0.294619,-0.490938,2.574,2.63691
0.302973,-0.490938,2.574,2.63786
0.311328,-0.490938,2.574,2.63883
0.319682,-0.490938,2.574,2.63983
0.328037,-0.490938,2.574,2.64085
0.336391,-0.490938,2.574,2.6419
0.342201,-0.487314,2.555,2.62347
0.350494,-0.487314,2.555,2.62457
0.358787,-0.487314,2.555,2.62569
0.36708,-0.487314,2.555,2.62683
0.375373,-0.487314,2.555,2.628
0.383666,-0.487314,2.555,2.6292
0.391959,-0.487314,2.555,2.63042
0.400252,-0.487314,2.555,2.63167
0.408544,-0.487314,2.555,2.63295
0.416837,-0.487314,2.555,2.63425
0.42513,-0.487314,2.555,2.63557
0.433423,-0.487314,2.555,2.63692
0.441716,-0.487314,2.555,2.6383
0.450009,-0.487314,2.555,2.6397
0.458302,-0.487314,2.555,2.64112
0.466595,-0.487314,2.555,2.64258
0.474888,-0.487314,2.555,2.64405
0.486774,-0.490938,2.574,2.66523
0.495128,-0.490938,2.574,2.66677
0.503483,-0.490938,2.574,2.66833
0.511837,-0.490938,2.574,2.66992
0.520192,-0.490938,2.574,2.67153
0.528546,-0.490938,2.574,2.67317
0.532938,-0.487314,2.555,2.65509
0.541231,-0.487314,2.555,2.65677
0.549524,-0.487314,2.555,2.65847
0.557817,-0.487314,2.555,2.6602
0.566109,-0.487314,2.555,2.66195
0.574402,-0.487314,2.555,2.66373
0.578362,-0.48369,2.536,2.6457
0.582199,-0.480066,2.517,2.62768
0.590368,-0.480066,2.517,2.6295
0.598538,-0.480066,2.517,2.63135
0.606707,-0.480066,2.517,2.63322
0.614877,-0.480066,2.517,2.63511
0.623046,-0.480066,2.517,2.63703
0.631216,-0.480066,2.517,2.63897
0.639385,-0.480066,2.517,2.64094
0.647555,-0.480066,2.517,2.64293
0.655725,-0.480066,2.517,2.64494
0.663894,-0.480066,2.517,2.64698
0.672064,-0.480066,2.517,2.64904
0.680233,-0.480066,2.517,2.65113
0.688403,-0.480066,2.517,2.65323
0.696572,-0.480066,2.517,2.65537
0.704742,-0.480066,2.517,2.65752
0.712911,-0.480066,2.517,2.6597
0.721081,-0.480066,2.517,2.6619
0.729251,-0.480066,2.517,2.66412
0.73742,-0.480066,2.517,2.66637
0.74559,-0.480066,2.517,2.66864
0.753759,-0.480066,2.517,2.67094
0.761929,-0.480066,2.517,2.67325
0.770098,-0.480066,2.517,2.67559
0.778268,-0.480066,2.517,2.67796
0.786437,-0.480066,2.517,2.68034
0.788924,-0.476633,2.499,2.66357
0.797036,-0.476633,2.499,2.66598
0.805147,-0.476633,2.499,2.66842
0.813258,-0.476633,2.499,2.67087
0.821369,-0.476633,2.499,2.67336
0.82948,-0.476633,2.499,2.67586
0.831558,-0.4732,2.481,2.65909
0.839611,-0.4732,2.481,2.66162
0.847664,-0.4732,2.481,2.66417
0.855716,-0.4732,2.481,2.66675
0.863769,-0.4732,2.481,2.66934
0.865497,-0.469767,2.463,2.65257
0.873491,-0.469767,2.463,2.65519
0.881485,-0.469767,2.463,2.65783
0.882979,-0.466334,2.445,2.64105
0.890915,-0.466334,2.445,2.64371
0.898851,-0.466334,2.445,2.6464
0.906787,-0.466334,2.445,2.6491
0.914722,-0.466334,2.445,2.65183
0.922658,-0.466334,2.445,2.65458
0.930594,-0.466334,2.445,2.65735
nan,nan,nan,NaN
nan,nan,nan,NaN
nan,nan,nan,NaN
nan,nan,nan,NaN
nan,nan,nan,NaN
nan,nan,nan,NaN
nan,nan,nan,NaN
nan,nan,nan,NaN
nan,nan,nan,NaN
nan,nan,nan,NaN
nan,nan,nan,NaN
nan,nan,nan,NaN
nan,nan,nan,NaN
nan,nan,nan,NaN
nan,nan,nan,NaN
nan,nan,nan,NaN
nan,nan,nan,NaN
nan,nan,nan,NaN
nan,nan,nan,NaN
nan,nan,nan,NaN
nan,nan,nan,NaN
nan,nan,nan,NaN
nan,nan,nan,NaN
nan,nan,nan,NaN
nan,nan,nan,NaN
nan,nan,nan,NaN
nan,nan,nan,NaN
nan,nan,nan,NaN
nan,nan,nan,NaN
nan,nan,nan,NaN
nan,nan,nan,NaN
nan,nan,nan,NaN
nan,nan,nan,NaN
nan,nan,nan,NaN
nan,nan,nan,NaN
nan,nan,nan,NaN
nan,nan,nan,NaN
nan,nan,nan,NaN
nan,nan,nan,NaN
nan,nan,nan,NaN
nan,nan,nan,NaN
nan,nan,nan,NaN
nan,nan,nan,NaN
nan,nan,nan,NaN
nan,nan,nan,NaN
nan,nan,nan,NaN
nan,nan,nan,NaN
nan,nan,nan,NaN
1.96542,-0.694637,3.642,4.19637
1.95661,-0.687389,3.604,4.15808
1.9683,-0.687389,3.604,4.1636
1.95913,-0.680141,3.566,4.12518
1.9707,-0.680141,3.566,4.13069
1.96171,-0.673084,3.529,4.09331
1.97316,-0.673084,3.529,4.09881
1.94469,-0.659543,3.458,4.02176
1.93611,-0.652867,3.423,3.98644
1.94722,-0.652867,3.423,3.99185
1.93888,-0.646382,3.389,3.95757
1.94988,-0.646382,3.389,3.96298
1.96088,-0.646382,3.389,3.9684
1.95268,-0.640088,3.356,3.93515
1.96357,-0.640088,3.356,3.94057
1.97447,-0.640088,3.356,3.94601
1.96643,-0.633985,3.324,3.91379
1.93915,-0.621778,3.26,3.84376
1.94973,-0.621778,3.26,3.84911
1.94227,-0.616056,3.23,3.81901
1.95275,-0.616056,3.23,3.82435
1.9444,-0.610144,3.199,3.79296
1.95478,-0.610144,3.199,3.79829
1.92953,-0.599081,3.141,3.73469
1.92182,-0.59355,3.112,3.70543
1.93192,-0.59355,3.112,3.71068
1.89085,-0.57791,3.03,3.61804
1.85113,-0.562843,2.951,3.52872
1.86071,-0.562843,2.951,3.53375
1.85444,-0.558075,2.926,3.50883
1.84801,-0.553306,2.901,3.48383
1.85743,-0.553306,2.901,3.48884
1.8514,-0.548729,2.877,3.46495
1.84521,-0.544151,2.853,3.44101
1.85447,-0.544151,2.853,3.44598
1.83303,-0.535187,2.806,3.39412
1.82704,-0.5308,2.783,3.37119
1.83607,-0.5308,2.783,3.37609
1.81593,-0.522408,2.739,3.32756
1.82482,-0.522408,2.739,3.33242
1.83371,-0.522408,2.739,3.3373
1.8426,-0.522408,2.739,3.34219
1.83662,-0.518212,2.717,3.32021
1.81691,-0.510201,2.675,3.2737
-2.32817,-0.629199,3.356,4.13267
-2.31727,-0.629199,3.356,4.12655
-2.30638,-0.629199,3.356,4.12044
-2.29549,-0.629199,3.356,4.11435
-2.2846,-0.629199,3.356,4.10828
-2.2737,-0.629199,3.356,4.10224
-2.28506,-0.635386,3.389,4.13649
-2.25192,-0.629199,3.356,4.0902
-2.24102,-0.629199,3.356,4.08422
-2.23013,-0.629199,3.356,4.07825
-2.21924,-0.629199,3.356,4.0723
-2.20835,-0.629199,3.356,4.06638
-2.19745,-0.629199,3.356,4.06047
-2.18656,-0.629199,3.356,4.05459
-2.17567,-0.629199,3.356,4.04872
-2.16478,-0.629199,3.356,4.04288
-2.17506,-0.635386,3.389,4.07676
-2.14299,-0.629199,3.356,4.03126
-2.1321,-0.629199,3.356,4.02548
-2.1212,-0.629199,3.356,4.01972
-2.11031,-0.629199,3.356,4.01398
-2.09942,-0.629199,3.356,4.00827
-2.08853,-0.629199,3.356,4.00257
-2.05782,-0.623199,3.324,3.95879
-2.04703,-0.623199,3.324,3.95319
-2.03625,-0.623199,3.324,3.94761
-2.00596,-0.6172,3.292,3.90411
-1.99527,-0.6172,3.292,3.89863
-2.00388,-0.623199,3.324,3.93102
-1.99309,-0.623199,3.324,3.92553
-1.9823,-0.623199,3.324,3.92006
nan,nan,nan,NaN
nan,nan,nan,NaN
nan,nan,nan,NaN
nan,nan,nan,NaN
nan,nan,nan,NaN
nan,nan,nan,NaN
nan,nan,nan,NaN
nan,nan,nan,NaN
nan,nan,nan,NaN
nan,nan,nan,NaN
nan,nan,nan,NaN
nan,nan,nan,NaN
nan,nan,nan,NaN
nan,nan,nan,NaN
nan,nan,nan,NaN
nan,nan,nan,NaN
nan,nan,nan,NaN
nan,nan,nan,NaN
nan,nan,nan,NaN
nan,nan,nan,NaN
nan,nan,nan,NaN
nan,nan,nan,NaN
nan,nan,nan,NaN
nan,nan,nan,NaN
nan,nan,nan,NaN
nan,nan,nan,NaN
nan,nan,nan,NaN
nan,nan,nan,NaN
nan,nan,nan,NaN
nan,nan,nan,NaN
nan,nan,nan,NaN
nan,nan,nan,NaN
nan,nan,nan,NaN
nan,nan,nan,NaN
nan,nan,nan,NaN
nan,nan,nan,NaN
nan,nan,nan,NaN
-1.10924,-0.439652,2.345,2.63111
-1.10162,-0.439652,2.345,2.62791
-1.09401,-0.439652,2.345,2.62473
-1.0864,-0.439652,2.345,2.62156
-1.07143,-0.436652,2.329,2.60055
-1.06387,-0.436652,2.329,2.59745
-1.05631,-0.436652,2.329,2.59436
-1.04875,-0.436652,2.329,2.59129
-1.04119,-0.436652,2.329,2.58824
-1.03363,-0.436652,2.329,2.58521
-1.01902,-0.433652,2.313,2.56446
-1.01152,-0.433652,2.313,2.56148
-1.00401,-0.433652,2.313,2.55853
-0.996502,-0.433652,2.313,2.55559
-0.995836,-0.436652,2.329,2.57033
-0.995066,-0.439652,2.345,2.58505
-0.987455,-0.439652,2.345,2.58213
-0.979844,-0.439652,2.345,2.57923
-0.972232,-0.439652,2.345,2.57635
-0.964621,-0.439652,2.345,2.57348
-0.96354,-0.442651,2.361,2.58818
-0.955876,-0.442651,2.361,2.58534
-0.948213,-0.442651,2.361,2.58251
-0.94055,-0.442651,2.361,2.57971
-0.939209,-0.445651,2.377,2.59439
-0.931494,-0.445651,2.377,2.5916
-0.923778,-0.445651,2.377,2.58884
-0.916063,-0.445651,2.377,2.5861
-0.908348,-0.445651,2.377,2.58338
-0.900633,-0.445651,2.377,2.58067
-0.892918,-0.445651,2.377,2.57799
-0.885203,-0.445651,2.377,2.57533
-0.877488,-0.445651,2.377,2.57269
-0.875993,-0.448838,2.394,2.58845
-0.868223,-0.448838,2.394,2.58583
-0.860452,-0.448838,2.394,2.58323
-0.852682,-0.448838,2.394,2.58065
-0.844912,-0.448838,2.394,2.57809
-0.837141,-0.448838,2.394,2.57556
-0.829371,-0.448838,2.394,2.57304
-0.821601,-0.448838,2.394,2.57055
-0.819609,-0.452026,2.411,2.58631
-0.811784,-0.452026,2.411,2.58384
-0.803958,-0.452026,2.411,2.58139
-0.796133,-0.452026,2.411,2.57897
-0.788307,-0.452026,2.411,2.57656
-0.774979,-0.448838,2.394,2.55603
-0.767208,-0.448838,2.394,2.55368
-0.764831,-0.452026,2.411,2.56948
-0.757005,-0.452026,2.411,2.56716
-0.74918,-0.452026,2.411,2.56486
-0.746581,-0.455213,2.428,2.58066
-0.738701,-0.455213,2.428,2.57839
-0.73082,-0.455213,2.428,2.57614
-0.722939,-0.455213,2.428,2.57392
-0.715059,-0.455213,2.428,2.57171
-0.707178,-0.455213,2.428,2.56953
-0.704194,-0.4584,2.445,2.58535
-0.696258,-0.4584,2.445,2.5832
-0.688322,-0.4584,2.445,2.58107
-0.680386,-0.4584,2.445,2.57897
-0.67245,-0.4584,2.445,2.57689
-0.664514,-0.4584,2.445,2.57483
-0.656578,-0.4584,2.445,2.57279
-0.648643,-0.4584,2.445,2.57078
-0.640707,-0.4584,2.445,2.56879
-0.637429,-0.461775,2.463,2.58571
-0.629435,-0.461775,2.463,2.58376
-0.621441,-0.461775,2.463,2.58182
-0.613446,-0.461775,2.463,2.57991
-0.605452,-0.461775,2.463,2.57802
-0.597458,-0.461775,2.463,2.57615
-0.589464,-0.461775,2.463,2.57431
-0.581469,-0.461775,2.463,2.57249
-0.573475,-0.461775,2.463,2.5707
-0.565481,-0.461775,2.463,2.56892
-0.557486,-0.461775,2.463,2.56718
-0.553508,-0.465149,2.481,2.5842
-0.541498,-0.461775,2.463,2.56375
-0.533504,-0.461775,2.463,2.56208
-0.525509,-0.461775,2.463,2.56042
-0.517515,-0.461775,2.463,2.55879
-0.509521,-0.461775,2.463,2.55719
-0.501526,-0.461775,2.463,2.55561
-0.493532,-0.461775,2.463,2.55405
-0.485538,-0.461775,2.463,2.55252
-0.477544,-0.461775,2.463,2.55101
-0.469549,-0.461775,2.463,2.54953
-0.461555,-0.461775,2.463,2.54807
-0.453561,-0.461775,2.463,2.54663
-0.445566,-0.461775,2.463,2.54522
-0.437572,-0.461775,2.463,2.54383
-0.429578,-0.461775,2.463,2.54247
-0.421584,-0.461775,2.463,2.54113
-0.413589,-0.461775,2.463,2.53982
-0.405595,-0.461775,2.463,2.53853
-0.397601,-0.461775,2.463,2.53726
-0.389606,-0.461775,2.463,2.53602
-0.381612,-0.461775,2.463,2.5348
-0.373618,-0.461775,2.463,2.53361
-0.368296,-0.465149,2.481,2.55095
-0.360243,-0.465149,2.481,2.5498
-0.35219,-0.465149,2.481,2.54868
-0.344137,-0.465149,2.481,2.54758
-0.336085,-0.465149,2.481,2.5465
-0.328032,-0.465149,2.481,2.54545
-0.319979,-0.465149,2.481,2.54443
-0.31419,-0.468524,2.499,2.56188
-0.306079,-0.468524,2.499,2.5609
-0.297967,-0.468524,2.499,2.55994
-0.289856,-0.468524,2.499,2.55901
-0.281745,-0.468524,2.499,2.5581
-0.275605,-0.471899,2.517,2.57564
-0.267435,-0.471899,2.517,2.57478
-0.259266,-0.471899,2.517,2.57395
-0.251096,-0.471899,2.517,2.57314
-0.242927,-0.471899,2.517,2.57235
-0.234757,-0.471899,2.517,2.57159
-0.226588,-0.471899,2.517,2.57086
-0.218418,-0.471899,2.517,2.57015
-0.210249,-0.471899,2.517,2.56947
-0.202079,-0.471899,2.517,2.56882
-0.195373,-0.475461,2.536,2.58757
-0.187142,-0.475461,2.536,2.58696
-0.178911,-0.475461,2.536,2.58638
-0.170679,-0.475461,2.536,2.58582
-0.162448,-0.475461,2.536,2.58529
-0.154217,-0.475461,2.536,2.58479
-0.145986,-0.475461,2.536,2.58431
-0.137755,-0.475461,2.536,2.58386
-0.129523,-0.475461,2.536,2.58343
-0.121292,-0.475461,2.536,2.58304
-0.113061,-0.475461,2.536,2.58266
-0.10483,-0.475461,2.536,2.58231
-0.0965985,-0.475461,2.536,2.58199
-0.0877052,-0.471899,2.517,2.56236
-0.0795356,-0.471899,2.517,2.56209
-0.0713661,-0.471899,2.517,2.56185
-0.0631965,-0.471899,2.517,2.56163
-0.055027,-0.471899,2.517,2.56145
-0.0468574,-0.471899,2.517,2.56128
-0.0386878,-0.471899,2.517,2.56115
-0.0307487,-0.475461,2.536,2.58037
-0.0225174,-0.475461,2.536,2.58028
-0.0142862,-0.475461,2.536,2.58023
-0.00605498,-0.475461,2.536,2.58019
0.00217625,-0.475461,2.536,2.58019
0.0104075,-0.475461,2.536,2.58021
0.0186387,-0.475461,2.536,2.58025
0.0268699,-0.475461,2.536,2.58033
0.0351011,-0.475461,2.536,2.58042
0.0433324,-0.475461,2.536,2.58055
0.0515636,-0.475461,2.536,2.5807
0.0597948,-0.475461,2.536,2.58088
0.0680261,-0.475461,2.536,2.58108
0.0762573,-0.475461,2.536,2.58131
0.0844885,-0.475461,2.536,2.58157
0.0927197,-0.475461,2.536,2.58185
0.100951,-0.475461,2.536,2.58216
0.109182,-0.475461,2.536,2.58249
0.117413,-0.475461,2.536,2.58286
0.125645,-0.475461,2.536,2.58324
0.133876,-0.475461,2.536,2.58366
0.143172,-0.479023,2.555,2.60346
0.151465,-0.479023,2.555,2.60393
0.15857,-0.475461,2.536,2.58505
0.166801,-0.475461,2.536,2.58557
0.175032,-0.475461,2.536,2.58612
0.184636,-0.479023,2.555,2.60607
0.192929,-0.479023,2.555,2.60667
0.201222,-0.479023,2.555,2.60729
0.209515,-0.479023,2.555,2.60795
0.217808,-0.479023,2.555,2.60863
0.227782,-0.482586,2.574,2.62874
0.236137,-0.482586,2.574,2.62947
0.244491,-0.482586,2.574,2.63024
0.252846,-0.482586,2.574,2.63103
0.2612,-0.482586,2.574,2.63184
0.269555,-0.482586,2.574,2.63268
0.27791,-0.482586,2.574,2.63355
0.286264,-0.482586,2.574,2.63445
0.294619,-0.482586,2.574,2.63537
0.302973,-0.482586,2.574,2.63632
0.311328,-0.482586,2.574,2.63729
0.319682,-0.482586,2.574,2.63829
0.325615,-0.479023,2.555,2.61983
0.333908,-0.479023,2.555,2.62087
0.342201,-0.479023,2.555,2.62194
0.350494,-0.479023,2.555,2.62304
0.358787,-0.479023,2.555,2.62416
0.36708,-0.479023,2.555,2.62531
0.375373,-0.479023,2.555,2.62648
0.383666,-0.479023,2.555,2.62768
0.391959,-0.479023,2.555,2.6289
0.400252,-0.479023,2.555,2.63015
0.408544,-0.479023,2.555,2.63142
0.416837,-0.479023,2.555,2.63273
0.42513,-0.479023,2.555,2.63405
0.433423,-0.479023,2.555,2.6354
0.441716,-0.479023,2.555,2.63678
0.450009,-0.479023,2.555,2.63818
0.458302,-0.479023,2.555,2.63961
0.466595,-0.479023,2.555,2.64106
0.474888,-0.479023,2.555,2.64254
0.48318,-0.479023,2.555,2.64404
0.491473,-0.479023,2.555,2.64557
0.499766,-0.479023,2.555,2.64712
0.508059,-0.479023,2.555,2.6487
0.516352,-0.479023,2.555,2.6503
0.524645,-0.479023,2.555,2.65193
0.532938,-0.479023,2.555,2.65358
0.537206,-0.475461,2.536,2.63552
0.545437,-0.475461,2.536,2.63721
0.553668,-0.475461,2.536,2.63892
0.5619,-0.475461,2.536,2.64066
0.570131,-0.475461,2.536,2.64242
0.574029,-0.471899,2.517,2.6244
0.582199,-0.471899,2.517,2.6262
0.590368,-0.471899,2.517,2.62802
0.598538,-0.471899,2.517,2.62987
0.606707,-0.471899,2.517,2.63174
0.614877,-0.471899,2.517,2.63364
0.627749,-0.475461,2.536,2.65545
0.631216,-0.471899,2.517,2.6375
0.639385,-0.471899,2.517,2.63947
0.647555,-0.471899,2.517,2.64146
0.655725,-0.471899,2.517,2.64347
0.663894,-0.471899,2.517,2.64551
0.672064,-0.471899,2.517,2.64757
0.680233,-0.471899,2.517,2.64966
0.688403,-0.471899,2.517,2.65177
0.70183,-0.475461,2.536,2.67393
0.710062,-0.475461,2.536,2.67611
0.718293,-0.475461,2.536,2.6783
0.726524,-0.475461,2.536,2.68052
0.734755,-0.475461,2.536,2.68276
0.742987,-0.475461,2.536,2.68503
0.74559,-0.471899,2.517,2.66719
0.753759,-0.471899,2.517,2.66948
0.761929,-0.471899,2.517,2.6718
0.770098,-0.471899,2.517,2.67414
0.778268,-0.471899,2.517,2.67651
0.786437,-0.471899,2.517,2.67889
0.794607,-0.471899,2.517,2.6813
0.797036,-0.468524,2.499,2.66454
0.805147,-0.468524,2.499,2.66698
0.813258,-0.468524,2.499,2.66944
0.821369,-0.468524,2.499,2.67192
0.82948,-0.468524,2.499,2.67443
0.831558,-0.465149,2.481,2.65767
0.839611,-0.465149,2.481,2.6602
0.847664,-0.465149,2.481,2.66275
0.855716,-0.465149,2.481,2.66533
0.857502,-0.461775,2.463,2.64857
0.865497,-0.461775,2.463,2.65117
0.873491,-0.461775,2.463,2.65379
0.881485,-0.461775,2.463,2.65643
0.889479,-0.461775,2.463,2.65909
0.897474,-0.461775,2.463,2.66178
0.898851,-0.4584,2.445,2.64501
0.906787,-0.4584,2.445,2.64772
0.914722,-0.4584,2.445,2.65045
0.922658,-0.4584,2.445,2.6532
0.930594,-0.4584,2.445,2.65597
0.945439,-0.461775,2.463,2.67833
0.953434,-0.461775,2.463,2.68116
0.961428,-0.461775,2.463,2.68402
nan,nan,nan,NaN
nan,nan,nan,NaN
nan,nan,nan,NaN
nan,nan,nan,NaN
nan,nan,nan,NaN
nan,nan,nan,NaN
nan,nan,nan,NaN
nan,nan,nan,NaN
nan,nan,nan,NaN
nan,nan,nan,NaN
nan,nan,nan,NaN
nan,nan,nan,NaN
nan,nan,nan,NaN
nan,nan,nan,NaN
nan,nan,nan,NaN
nan,nan,nan,NaN
nan,nan,nan,NaN
nan,nan,nan,NaN
nan,nan,nan,NaN
nan,nan,nan,NaN
nan,nan,nan,NaN
nan,nan,nan,NaN
nan,nan,nan,NaN
nan,nan,nan,NaN
nan,nan,nan,NaN
nan,nan,nan,NaN
nan,nan,nan,NaN
nan,nan,nan,NaN
nan,nan,nan,NaN
nan,nan,nan,NaN
nan,nan,nan,NaN
nan,nan,nan,NaN
nan,nan,nan,NaN
nan,nan,nan,NaN
nan,nan,nan,NaN
nan,nan,nan,NaN
nan,nan,nan,NaN
nan,nan,nan,NaN
nan,nan,nan,NaN
nan,nan,nan,NaN
nan,nan,nan,NaN
nan,nan,nan,NaN
nan,nan,nan,NaN
nan,nan,nan,NaN
nan,nan,nan,NaN
1.96542,-0.682819,3.642,4.19443
1.95661,-0.675695,3.604,4.15616
1.9683,-0.675695,3.604,4.16168
1.95913,-0.66857,3.566,4.12329
1.9707,-0.66857,3.566,4.1288
1.96171,-0.661633,3.529,4.09144
1.97316,-0.661633,3.529,4.09695
1.94469,-0.648322,3.458,4.01994
1.93611,-0.64176,3.423,3.98464
1.94722,-0.64176,3.423,3.99005
1.93888,-0.635386,3.389,3.95579
1.94988,-0.635386,3.389,3.9612
1.96088,-0.635386,3.389,3.96662
1.95268,-0.629199,3.356,3.93339
1.96357,-0.629199,3.356,3.93881
1.97447,-0.629199,3.356,3.94425
1.96643,-0.623199,3.324,3.91206
1.93915,-0.6112,3.26,3.84206
1.94973,-0.6112,3.26,3.84742
1.94227,-0.605576,3.23,3.81733
1.95275,-0.605576,3.23,3.82268
1.9444,-0.599763,3.199,3.79131
1.95478,-0.599763,3.199,3.79664
1.92953,-0.588889,3.141,3.73306
1.92182,-0.583452,3.112,3.70383
1.93192,-0.583452,3.112,3.70908
1.89085,-0.568079,3.03,3.61648
1.85113,-0.553267,2.951,3.52721
1.86071,-0.553267,2.951,3.53224
1.85444,-0.54858,2.926,3.50733
1.84801,-0.543893,2.901,3.48235
1.85743,-0.543893,2.901,3.48736
1.8514,-0.539393,2.877,3.46349
1.82969,-0.530394,2.829,3.41062
1.83887,-0.530394,2.829,3.41556
1.83303,-0.526082,2.806,3.3927
1.8126,-0.517645,2.761,3.34314
1.82156,-0.517645,2.761,3.34801
1.81593,-0.513521,2.739,3.32617
1.82482,-0.513521,2.739,3.33104
1.81899,-0.509396,2.717,3.30912
1.8278,-0.509396,2.717,3.31398
1.82243,-0.505459,2.696,3.2932
1.81691,-0.501521,2.675,3.27236
-2.32817,-0.618309,3.356,4.13103
-2.31727,-0.618309,3.356,4.1249
-2.30638,-0.618309,3.356,4.11879
-2.29549,-0.618309,3.356,4.1127
-2.2846,-0.618309,3.356,4.10663
-2.2737,-0.618309,3.356,4.10058
-2.28506,-0.624389,3.389,4.13481
-2.25192,-0.618309,3.356,4.08854
-2.24102,-0.618309,3.356,4.08255
-2.23013,-0.618309,3.356,4.07658
-2.21924,-0.618309,3.356,4.07063
-2.20835,-0.618309,3.356,4.06471
-2.19745,-0.618309,3.356,4.0588
-2.18656,-0.618309,3.356,4.05291
-2.17567,-0.618309,3.356,4.04705
-2.16478,-0.618309,3.356,4.0412
-2.17506,-0.624389,3.389,4.07506
-2.14299,-0.618309,3.356,4.02957
-2.1321,-0.618309,3.356,4.02379
-2.1212,-0.618309,3.356,4.01803
-2.11031,-0.618309,3.356,4.01229
-2.09942,-0.618309,3.356,4.00657
-2.08853,-0.618309,3.356,4.00087
-2.05782,-0.612413,3.324,3.9571
-2.04703,-0.612413,3.324,3.9515
-2.03625,-0.612413,3.324,3.94592
-2.00596,-0.606518,3.292,3.90243
-1.99527,-0.606518,3.292,3.89695
-1.98459,-0.606518,3.292,3.89149
-1.9739,-0.606518,3.292,3.88605
-1.96322,-0.606518,3.292,3.88064
nan,nan,nan,NaN
nan,nan,nan,NaN
nan,nan,nan,NaN
nan,nan,nan,NaN
nan,nan,nan,NaN
nan,nan,nan,NaN
nan,nan,nan,NaN
nan,nan,nan,NaN
nan,nan,nan,NaN
nan,nan,nan,NaN
nan,nan,nan,NaN
nan,nan,nan,NaN
nan,nan,nan,NaN
nan,nan,nan,NaN
nan,nan,nan,NaN
nan,nan,nan,NaN
nan,nan,nan,NaN
nan,nan,nan,NaN
nan,nan,nan,NaN
nan,nan,nan,NaN
nan,nan,nan,NaN
nan,nan,nan,NaN
nan,nan,nan,NaN
nan,nan,nan,NaN
nan,nan,nan,NaN
nan,nan,nan,NaN
nan,nan,nan,NaN
nan,nan,nan,NaN
nan,nan,nan,NaN
nan,nan,nan,NaN
nan,nan,nan,NaN
nan,nan,nan,NaN
nan,nan,nan,NaN
nan,nan,nan,NaN
nan,nan,nan,NaN
nan,nan,nan,NaN
-1.12447,-0.43499,2.361,2.65103
-1.10924,-0.432042,2.345,2.62985
-1.10162,-0.432042,2.345,2.62664
-1.09401,-0.432042,2.345,2.62346
-1.0864,-0.432042,2.345,2.6203
-1.07143,-0.429095,2.329,2.59929
-1.06387,-0.429095,2.329,2.59619
-1.05631,-0.429095,2.329,2.5931
-1.04875,-0.429095,2.329,2.59003
-1.04119,-0.429095,2.329,2.58698
-1.03363,-0.429095,2.329,2.58394
-1.02607,-0.429095,2.329,2.58093
-1.01851,-0.429095,2.329,2.57793
-1.01096,-0.429095,2.329,2.57495
-1.0034,-0.429095,2.329,2.572
-0.995836,-0.429095,2.329,2.56906
-0.995066,-0.432042,2.345,2.58377
-0.987455,-0.432042,2.345,2.58084
-0.979844,-0.432042,2.345,2.57794
-0.972232,-0.432042,2.345,2.57506
-0.964621,-0.432042,2.345,2.57219
-0.96354,-0.43499,2.361,2.58688
-0.955876,-0.43499,2.361,2.58404
-0.948213,-0.43499,2.361,2.58121
-0.94055,-0.43499,2.361,2.5784
-0.939209,-0.437938,2.377,2.59307
-0.931494,-0.437938,2.377,2.59029
-0.923778,-0.437938,2.377,2.58753
-0.916063,-0.437938,2.377,2.58478
-0.908348,-0.437938,2.377,2.58206
-0.900633,-0.437938,2.377,2.57935
-0.892918,-0.437938,2.377,2.57667
-0.885203,-0.437938,2.377,2.57401
-0.877488,-0.437938,2.377,2.57136
-0.875993,-0.44107,2.394,2.58711
-0.868223,-0.44107,2.394,2.58449
-0.860452,-0.44107,2.394,2.58189
-0.852682,-0.44107,2.394,2.57931
-0.844912,-0.44107,2.394,2.57675
-0.837141,-0.44107,2.394,2.57422
-0.829371,-0.44107,2.394,2.5717
-0.821601,-0.44107,2.394,2.5692
-0.819609,-0.444202,2.411,2.58496
-0.811784,-0.444202,2.411,2.58249
-0.803958,-0.444202,2.411,2.58004
-0.796133,-0.444202,2.411,2.57761
-0.788307,-0.444202,2.411,2.5752
-0.774979,-0.44107,2.394,2.55468
-0.767208,-0.44107,2.394,2.55233
-0.764831,-0.444202,2.411,2.56811
-0.757005,-0.444202,2.411,2.56579
-0.74918,-0.444202,2.411,2.5635
-0.746581,-0.447334,2.428,2.57928
-0.738701,-0.447334,2.428,2.57701
-0.73082,-0.447334,2.428,2.57476
-0.722939,-0.447334,2.428,2.57253
-0.715059,-0.447334,2.428,2.57033
-0.707178,-0.447334,2.428,2.56815
-0.704194,-0.450466,2.445,2.58396
-0.696258,-0.450466,2.445,2.58181
-0.688322,-0.450466,2.445,2.57968
-0.680386,-0.450466,2.445,2.57757
-0.67245,-0.450466,2.445,2.57549
-0.664514,-0.450466,2.445,2.57343
-0.656578,-0.450466,2.445,2.57139
-0.648643,-0.450466,2.445,2.56937
-0.640707,-0.450466,2.445,2.56738
-0.637429,-0.453783,2.463,2.5843
-0.629435,-0.453783,2.463,2.58234
-0.621441,-0.453783,2.463,2.5804
-0.613446,-0.453783,2.463,2.57849
-0.605452,-0.453783,2.463,2.5766
-0.597458,-0.453783,2.463,2.57473
-0.589464,-0.453783,2.463,2.57289
-0.581469,-0.453783,2.463,2.57107
-0.573475,-0.453783,2.463,2.56927
-0.565481,-0.453783,2.463,2.5675
-0.557486,-0.453783,2.463,2.56575
-0.549492,-0.453783,2.463,2.56403
-0.541498,-0.453783,2.463,2.56232
-0.529605,-0.450466,2.445,2.54193
-0.521669,-0.450466,2.445,2.54029
-0.513733,-0.450466,2.445,2.53867
-0.505797,-0.450466,2.445,2.53708
-0.497861,-0.450466,2.445,2.53551
-0.489925,-0.450466,2.445,2.53396
-0.481989,-0.450466,2.445,2.53244
-0.474054,-0.450466,2.445,2.53094
-0.466118,-0.450466,2.445,2.52947
-0.458182,-0.450466,2.445,2.52802
-0.450246,-0.450466,2.445,2.52659
-0.44231,-0.450466,2.445,2.52519
-0.434374,-0.450466,2.445,2.52381
-0.426438,-0.450466,2.445,2.52246
-0.418503,-0.450466,2.445,2.52113
-0.410567,-0.450466,2.445,2.51982
-0.402631,-0.450466,2.445,2.51854
-0.394695,-0.450466,2.445,2.51729
-0.386759,-0.450466,2.445,2.51605
-0.378823,-0.450466,2.445,2.51485
-0.373618,-0.453783,2.463,2.53217
-0.365624,-0.453783,2.463,2.531
-0.357629,-0.453783,2.463,2.52986
-0.349635,-0.453783,2.463,2.52874
-0.341641,-0.453783,2.463,2.52765
-0.333646,-0.453783,2.463,2.52658
-0.325652,-0.453783,2.463,2.52554
-0.319979,-0.457099,2.481,2.54297
-0.311927,-0.457099,2.481,2.54197
-0.303874,-0.457099,2.481,2.54099
-0.295821,-0.457099,2.481,2.54004
-0.287769,-0.457099,2.481,2.53912
-0.279716,-0.457099,2.481,2.53822
-0.273634,-0.460415,2.499,2.55575
-0.265523,-0.460415,2.499,2.55489
-0.257412,-0.460415,2.499,2.55406
-0.249301,-0.460415,2.499,2.55326
-0.242927,-0.463732,2.517,2.57087
-0.234757,-0.463732,2.517,2.57011
-0.226588,-0.463732,2.517,2.56937
-0.218418,-0.463732,2.517,2.56867
-0.210249,-0.463732,2.517,2.56798
-0.202079,-0.463732,2.517,2.56733
-0.193909,-0.463732,2.517,2.5667
-0.187142,-0.467232,2.536,2.58546
-0.178911,-0.467232,2.536,2.58488
-0.170679,-0.467232,2.536,2.58432
-0.162448,-0.467232,2.536,2.58379
-0.154217,-0.467232,2.536,2.58329
-0.145986,-0.467232,2.536,2.58281
-0.136723,-0.463732,2.517,2.56301
-0.128553,-0.463732,2.517,2.56259
-0.120383,-0.463732,2.517,2.56219
-0.112214,-0.463732,2.517,2.56182
-0.10483,-0.467232,2.536,2.58081
-0.0965985,-0.467232,2.536,2.58049
-0.0883672,-0.467232,2.536,2.5802
-0.0795356,-0.463732,2.517,2.5606
-0.0713661,-0.463732,2.517,2.56036
-0.0631965,-0.463732,2.517,2.56014
-0.055027,-0.463732,2.517,2.55995
-0.0468574,-0.463732,2.517,2.55979
-0.0386878,-0.463732,2.517,2.55965
-0.0307487,-0.467232,2.536,2.57887
-0.0225174,-0.467232,2.536,2.57878
-0.0142862,-0.467232,2.536,2.57872
-0.00605498,-0.467232,2.536,2.57869
0.00217625,-0.467232,2.536,2.57868
0.0104075,-0.467232,2.536,2.5787
0.0186387,-0.467232,2.536,2.57875
0.0268699,-0.467232,2.536,2.57882
0.0351011,-0.467232,2.536,2.57892
0.0433324,-0.467232,2.536,2.57905
0.0515636,-0.467232,2.536,2.5792
0.0597948,-0.467232,2.536,2.57938
0.0680261,-0.467232,2.536,2.57958
0.0762573,-0.467232,2.536,2.57981
0.0844885,-0.467232,2.536,2.58007
0.0927197,-0.467232,2.536,2.58035
0.100951,-0.467232,2.536,2.58066
0.109182,-0.467232,2.536,2.58099
0.117413,-0.467232,2.536,2.58135
0.125645,-0.467232,2.536,2.58174
0.133876,-0.467232,2.536,2.58215
0.142107,-0.467232,2.536,2.58259
0.150338,-0.467232,2.536,2.58306
0.15857,-0.467232,2.536,2.58355
0.166801,-0.467232,2.536,2.58407
0.175032,-0.467232,2.536,2.58462
0.184636,-0.470733,2.555,2.60455
0.192929,-0.470733,2.555,2.60516
0.201222,-0.470733,2.555,2.60578
0.209515,-0.470733,2.555,2.60644
0.217808,-0.470733,2.555,2.60712
0.226101,-0.470733,2.555,2.60782
0.234394,-0.470733,2.555,2.60855
0.242687,-0.470733,2.555,2.60931
0.252846,-0.474233,2.574,2.62951
0.2612,-0.474233,2.574,2.63032
0.269555,-0.474233,2.574,2.63117
0.27791,-0.474233,2.574,2.63203
0.286264,-0.474233,2.574,2.63293
0.294619,-0.474233,2.574,2.63385
0.302973,-0.474233,2.574,2.6348
0.311328,-0.474233,2.574,2.63577
0.317323,-0.470733,2.555,2.61731
0.325615,-0.470733,2.555,2.61833
0.333908,-0.470733,2.555,2.61937
0.342201,-0.470733,2.555,2.62044
0.350494,-0.470733,2.555,2.62154
0.358787,-0.470733,2.555,2.62266
0.36708,-0.470733,2.555,2.62381
0.375373,-0.470733,2.555,2.62498
0.383666,-0.470733,2.555,2.62618
0.391959,-0.470733,2.555,2.6274
0.400252,-0.470733,2.555,2.62865
0.408544,-0.470733,2.555,2.62993
0.416837,-0.470733,2.555,2.63123
0.42513,-0.470733,2.555,2.63256
0.433423,-0.470733,2.555,2.63391
0.441716,-0.470733,2.555,2.63529
0.450009,-0.470733,2.555,2.63669
0.458302,-0.470733,2.555,2.63812
0.466595,-0.470733,2.555,2.63957
0.474888,-0.470733,2.555,2.64105
0.48318,-0.470733,2.555,2.64255
0.491473,-0.470733,2.555,2.64408
0.499766,-0.470733,2.555,2.64563
0.508059,-0.470733,2.555,2.64721
0.512512,-0.467232,2.536,2.62912
0.520743,-0.467232,2.536,2.63074
0.528975,-0.467232,2.536,2.63238
0.537206,-0.467232,2.536,2.63404
0.545437,-0.467232,2.536,2.63574
0.553668,-0.467232,2.536,2.63745
0.5619,-0.467232,2.536,2.63919
0.570131,-0.467232,2.536,2.64096
0.574029,-0.463732,2.517,2.62295
0.582199,-0.463732,2.517,2.62475
0.590368,-0.463732,2.517,2.62657
0.598538,-0.463732,2.517,2.62842
0.606707,-0.463732,2.517,2.63029
0.619518,-0.467232,2.536,2.65206
0.627749,-0.467232,2.536,2.65399
0.635981,-0.467232,2.536,2.65595
0.644212,-0.467232,2.536,2.65793
0.652443,-0.467232,2.536,2.65994
0.660674,-0.467232,2.536,2.66197
0.668906,-0.467232,2.536,2.66403
0.677137,-0.467232,2.536,2.66611
0.685368,-0.467232,2.536,2.66821
0.693599,-0.467232,2.536,2.67033
0.70183,-0.467232,2.536,2.67248
0.710062,-0.467232,2.536,2.67466
0.718293,-0.467232,2.536,2.67685
0.726524,-0.467232,2.536,2.67907
0.734755,-0.467232,2.536,2.68132
0.742987,-0.467232,2.536,2.68359
0.751218,-0.467232,2.536,2.68588
0.759449,-0.467232,2.536,2.68819
0.761929,-0.463732,2.517,2.67037
0.770098,-0.463732,2.517,2.67271
0.778268,-0.463732,2.517,2.67508
0.786437,-0.463732,2.517,2.67747
0.794607,-0.463732,2.517,2.67988
0.797036,-0.460415,2.499,2.66313
0.805147,-0.460415,2.499,2.66557
0.813258,-0.460415,2.499,2.66803
0.821369,-0.460415,2.499,2.67051
0.82948,-0.460415,2.499,2.67302
0.831558,-0.457099,2.481,2.65627
0.839611,-0.457099,2.481,2.65881
0.847664,-0.457099,2.481,2.66136
0.855716,-0.457099,2.481,2.66394
0.857502,-0.453783,2.463,2.64719
0.865497,-0.453783,2.463,2.64979
0.873491,-0.453783,2.463,2.65241
0.881485,-0.453783,2.463,2.65505
0.889479,-0.453783,2.463,2.65772
0.897474,-0.453783,2.463,2.6604
0.905468,-0.453783,2.463,2.66311
0.906787,-0.450466,2.445,2.64636
0.914722,-0.450466,2.445,2.64909
0.922658,-0.450466,2.445,2.65184
0.937445,-0.453783,2.463,2.67415
0.945439,-0.453783,2.463,2.67697
0.953434,-0.453783,2.463,2.6798
0.961428,-0.453783,2.463,2.68265
nan,nan,nan,NaN
nan,nan,nan,NaN
nan,nan,nan,NaN
nan,nan,nan,NaN
nan,nan,nan,NaN
nan,nan,nan,NaN
nan,nan,nan,NaN
nan,nan,nan,NaN
nan,nan,nan,NaN
nan,nan,nan,NaN
nan,nan,nan,NaN
nan,nan,nan,NaN
nan,nan,nan,NaN
nan,nan,nan,NaN
nan,nan,nan,NaN
nan,nan,nan,NaN
nan,nan,nan,NaN
nan,nan,nan,NaN
nan,nan,nan,NaN
nan,nan,nan,NaN
nan,nan,nan,NaN
nan,nan,nan,NaN
nan,nan,nan,NaN
nan,nan,nan,NaN
nan,nan,nan,NaN
nan,nan,nan,NaN
nan,nan,nan,NaN
nan,nan,nan,NaN
nan,nan,nan,NaN
nan,nan,nan,NaN
nan,nan,nan,NaN
nan,nan,nan,NaN
nan,nan,nan,NaN
nan,nan,nan,NaN
nan,nan,nan,NaN
nan,nan,nan,NaN
nan,nan,nan,NaN
nan,nan,nan,NaN
nan,nan,nan,NaN
nan,nan,nan,NaN
nan,nan,nan,NaN
nan,nan,nan,NaN
nan,nan,nan,NaN
nan,nan,nan,NaN
nan,nan,nan,NaN
1.94491,-0.664,3.604,4.14878
1.93598,-0.656999,3.566,4.11048
1.94755,-0.656999,3.566,4.11594
1.9388,-0.650182,3.529,4.07867
1.95025,-0.650182,3.529,4.08412
1.94169,-0.64355,3.493,4.04789
1.95303,-0.64355,3.493,4.05334
1.94469,-0.637101,3.458,4.01814
1.93611,-0.630653,3.423,3.98286
1.94722,-0.630653,3.423,3.98827
1.93888,-0.624389,3.389,3.95404
1.9309,-0.618309,3.356,3.92089
1.94179,-0.618309,3.356,3.92627
1.95268,-0.618309,3.356,3.93167
1.96357,-0.618309,3.356,3.93709
1.97447,-0.618309,3.356,3.94253
1.96643,-0.612413,3.324,3.91035
1.93915,-0.600622,3.26,3.8404
1.94973,-0.600622,3.26,3.84575
1.94227,-0.595095,3.23,3.81569
1.93401,-0.589383,3.199,3.78436
1.9444,-0.589383,3.199,3.78968
1.95478,-0.589383,3.199,3.79501
1.92953,-0.578697,3.141,3.73147
1.92182,-0.573354,3.112,3.70225
1.93192,-0.573354,3.112,3.7075
1.89085,-0.558247,3.03,3.61495
1.85113,-0.543692,2.951,3.52572
1.86071,-0.543692,2.951,3.53075
1.8386,-0.53448,2.901,3.4759
1.83272,-0.530058,2.877,3.4521
1.84206,-0.530058,2.877,3.45706
1.8514,-0.530058,2.877,3.46205
1.81482,-0.516977,2.806,3.38149
1.82392,-0.516977,2.806,3.38638
1.81801,-0.512739,2.783,3.3635
1.8126,-0.508686,2.761,3.34176
1.82156,-0.508686,2.761,3.34663
1.80135,-0.50058,2.717,3.29811
1.81017,-0.50058,2.717,3.30293
1.81899,-0.50058,2.717,3.30778
1.8278,-0.50058,2.717,3.31263
1.82243,-0.496711,2.696,3.29187
1.80265,-0.488973,2.654,3.24536
-2.30597,-0.601627,3.324,4.09004
-2.31727,-0.607419,3.356,4.12328
-2.30638,-0.607419,3.356,4.11717
-2.29549,-0.607419,3.356,4.11108
-2.2846,-0.607419,3.356,4.10501
-2.2737,-0.607419,3.356,4.09895
-2.26281,-0.607419,3.356,4.09292
-2.25192,-0.607419,3.356,4.08691
-2.24102,-0.607419,3.356,4.08092
-2.23013,-0.607419,3.356,4.07495
-2.21924,-0.607419,3.356,4.06899
