-0.00614571,-0.0148618,2.574,2.57405
0.00219255,-0.0147521,2.555,2.55504
0.0104854,-0.0147521,2.555,2.55506
0.0187783,-0.0147521,2.555,2.55511
0.0270712,-0.0147521,2.555,2.55519
0.0353641,-0.0147521,2.555,2.55529
0.043657,-0.0147521,2.555,2.55542
0.0515636,-0.0146424,2.536,2.53657
0.0597948,-0.0146424,2.536,2.53675
0.0680261,-0.0146424,2.536,2.53695
0.0762573,-0.0146424,2.536,2.53719
0.0844885,-0.0146424,2.536,2.53745
0.0927197,-0.0146424,2.536,2.53774
0.100951,-0.0146424,2.536,2.53805
0.109182,-0.0146424,2.536,2.53839
0.117413,-0.0146424,2.536,2.53876
0.126586,-0.0147521,2.555,2.55818
0.134879,-0.0147521,2.555,2.5586
0.143172,-0.0147521,2.555,2.55905
0.152591,-0.0148618,2.574,2.57856
0.160946,-0.0148618,2.574,2.57907
0.1693,-0.0148618,2.574,2.5796
0.178966,-0.0149715,2.593,2.59921
0.187382,-0.0149715,2.593,2.59981
0.195799,-0.0149715,2.593,2.60043
0.202718,-0.0148618,2.574,2.58201
0.211073,-0.0148618,2.574,2.58268
0.219428,-0.0148618,2.574,2.58338
0.227782,-0.0148618,2.574,2.5841
0.236137,-0.0148618,2.574,2.58485
0.244491,-0.0148618,2.574,2.58563
0.250979,-0.0147521,2.555,2.56734
0.259272,-0.0147521,2.555,2.56816
0.267565,-0.0147521,2.555,2.56901
0.275858,-0.0147521,2.555,2.56989
0.284151,-0.0147521,2.555,2.57079
0.292444,-0.0147521,2.555,2.57172
0.300737,-0.0147521,2.555,2.57268
0.30903,-0.0147521,2.555,2.57366
nan,nan,nan,NaN
nan,nan,nan,NaN
nan,nan,nan,NaN
nan,nan,nan,NaN
nan,nan,nan,NaN
nan,nan,nan,NaN
nan,nan,nan,NaN
nan,nan,nan,NaN
nan,nan,nan,NaN
nan,nan,nan,NaN
nan,nan,nan,NaN
nan,nan,nan,NaN
nan,nan,nan,NaN
nan,nan,nan,NaN
nan,nan,nan,NaN
nan,nan,nan,NaN
nan,nan,nan,NaN
nan,nan,nan,NaN
nan,nan,nan,NaN
nan,nan,nan,NaN
nan,nan,nan,NaN
nan,nan,nan,NaN
nan,nan,nan,NaN
nan,nan,nan,NaN
nan,nan,nan,NaN
nan,nan,nan,NaN
nan,nan,nan,NaN
nan,nan,nan,NaN
nan,nan,nan,NaN
nan,nan,nan,NaN
nan,nan,nan,NaN
nan,nan,nan,NaN
nan,nan,nan,NaN
nan,nan,nan,NaN
nan,nan,nan,NaN
nan,nan,nan,NaN
nan,nan,nan,NaN
nan,nan,nan,NaN
0.627749,-0.0146424,2.536,2.61258
0.635981,-0.0146424,2.536,2.61457
0.639385,-0.0145327,2.517,2.59698
0.647555,-0.0145327,2.517,2.59901
0.655725,-0.0145327,2.517,2.60105
0.663894,-0.0145327,2.517,2.60312
0.677137,-0.0146424,2.536,2.62489
0.685368,-0.0146424,2.536,2.62702
0.693599,-0.0146424,2.536,2.62918
0.70183,-0.0146424,2.536,2.63136
0.710062,-0.0146424,2.536,2.63357
0.718293,-0.0146424,2.536,2.6358
0.726524,-0.0146424,2.536,2.63806
0.734755,-0.0146424,2.536,2.64034
0.742987,-0.0146424,2.536,2.64264
0.751218,-0.0146424,2.536,2.64496
0.759449,-0.0146424,2.536,2.64731
0.76768,-0.0146424,2.536,2.64969
0.775912,-0.0146424,2.536,2.65208
0.778268,-0.0145327,2.517,2.63462
0.786437,-0.0145327,2.517,2.63704
0.794607,-0.0145327,2.517,2.63949
0.808836,-0.0146424,2.536,2.6619
0.817068,-0.0146424,2.536,2.66442
0.825299,-0.0146424,2.536,2.66695
0.83353,-0.0146424,2.536,2.66951
0.841761,-0.0146424,2.536,2.67209
0.856361,-0.0147521,2.555,2.69474
0.858224,-0.0146424,2.536,2.67732
0.859963,-0.0145327,2.517,2.65989
0.868133,-0.0145327,2.517,2.66255
0.876303,-0.0145327,2.517,2.66522
0.878147,-0.0144288,2.499,2.64884
0.886258,-0.0144288,2.499,2.65154
0.887927,-0.0143249,2.481,2.63514
0.889479,-0.0142209,2.463,2.61873
0.890915,-0.014117,2.445,2.6023
0.898851,-0.014117,2.445,2.60503
0.906787,-0.014117,2.445,2.60777
0.908362,-0.0140188,2.428,2.59239
0.916243,-0.0140188,2.428,2.59517
0.917653,-0.0139207,2.411,2.57977
0.925479,-0.0139207,2.411,2.58256
0.933304,-0.0139207,2.411,2.58538
0.934494,-0.0138225,2.394,2.56996
0.942264,-0.0138225,2.394,2.5728
0.950035,-0.0138225,2.394,2.57565
0.957805,-0.0138225,2.394,2.57853
0.965575,-0.0138225,2.394,2.58143
0.980257,-0.0139207,2.411,2.60269
0.988083,-0.0139207,2.411,2.60565
0.995908,-0.0139207,2.411,2.60863
1.00373,-0.0139207,2.411,2.61163
1.01869,-0.0140188,2.428,2.63308
1.02657,-0.0140188,2.428,2.63614
1.03445,-0.0140188,2.428,2.63922
1.04963,-0.014117,2.445,2.66082
1.05757,-0.014117,2.445,2.66396
1.07335,-0.0142209,2.463,2.68675
1.08924,-0.0143249,2.481,2.70962
1.0973,-0.0143249,2.481,2.71286
1.11337,-0.0144288,2.499,2.73584
1.12956,-0.0145327,2.517,2.75888
1.14632,-0.0146424,2.536,2.78308
1.15455,-0.0146424,2.536,2.78648
1.1802,-0.0148618,2.574,2.83171
1.20657,-0.015087,2.613,2.87816
1.21505,-0.015087,2.613,2.88172
1.23289,-0.0152025,2.633,2.90739
1.25134,-0.0153237,2.654,2.93425
1.25995,-0.0153237,2.654,2.93793
1.26857,-0.0153237,2.654,2.94164
1.28729,-0.015445,2.675,2.96867
1.31632,-0.0156875,2.717,3.01911
1.32514,-0.0156875,2.717,3.02297
1.35556,-0.0159415,2.761,3.07586
1.37539,-0.0160686,2.783,3.10436
1.38443,-0.0160686,2.783,3.10837
1.39346,-0.0160686,2.783,3.11241
1.43777,-0.0164727,2.853,3.19485
1.44703,-0.0164727,2.853,3.19903
1.46854,-0.0166113,2.877,3.23017
1.50305,-0.0168942,2.926,3.28952
1.53891,-0.0171887,2.977,3.35128
1.54857,-0.0171887,2.977,3.35573
1.57184,-0.0173388,3.003,3.38954
1.59581,-0.0174947,3.03,3.42459
1.60564,-0.0174947,3.03,3.42918
1.61548,-0.0174947,3.03,3.4338
1.6398,-0.0176506,3.057,3.46908
1.64972,-0.0176506,3.057,3.47378
1.6743,-0.0178065,3.084,3.50922
1.68431,-0.0178065,3.084,3.51401
1.69432,-0.0178065,3.084,3.51882
1.70433,-0.0178065,3.084,3.52365
1.69933,-0.0176506,3.057,3.49761
1.70925,-0.0176506,3.057,3.50244
1.71917,-0.0176506,3.057,3.5073
1.71383,-0.0174947,3.03,3.48115
1.72366,-0.0174947,3.03,3.486
1.71805,-0.0173388,3.003,3.45977
1.72779,-0.0173388,3.003,3.46462
1.73754,-0.0173388,3.003,3.46949
1.73216,-0.0171887,2.977,3.4443
1.72661,-0.0170386,2.951,3.41905
1.73619,-0.0170386,2.951,3.42389
1.74577,-0.0170386,2.951,3.42876
1.75535,-0.0170386,2.951,3.43365
1.74997,-0.0168942,2.926,3.40942
1.75947,-0.0168942,2.926,3.41431
1.76897,-0.0168942,2.926,3.41921
1.76327,-0.0167499,2.901,3.39488
1.77268,-0.0167499,2.901,3.39978
1.7821,-0.0167499,2.901,3.4047
1.79152,-0.0167499,2.901,3.40963
1.80093,-0.0167499,2.901,3.41459
1.81035,-0.0167499,2.901,3.41957
1.80471,-0.0166113,2.877,3.39623
1.81405,-0.0166113,2.877,3.4012
1.80817,-0.0164727,2.853,3.37778
1.78749,-0.0162014,2.806,3.32702
1.78187,-0.0160686,2.783,3.30461
1.79091,-0.0160686,2.783,3.30949
1.77148,-0.0158145,2.739,3.26198
1.76607,-0.0156875,2.717,3.24058
1.77489,-0.0156875,2.717,3.24539
1.75614,-0.015445,2.675,3.19998
1.73711,-0.0152025,2.633,3.15444
1.74566,-0.0152025,2.633,3.15915
1.74088,-0.015087,2.613,3.13985
1.72325,-0.0148618,2.574,3.09763
1.7316,-0.0148618,2.574,3.10228
1.72711,-0.0147521,2.555,3.08402
1.7225,-0.0146424,2.536,3.0657
-1.93066,-0.00703817,2.783,3.38712
-1.89124,-0.0069269,2.739,3.32851
-1.88235,-0.0069269,2.739,3.32347
-1.85842,-0.00687126,2.717,3.29178
-1.8353,-0.00681815,2.696,3.26141
-1.82655,-0.00681815,2.696,3.25649
-1.80364,-0.00676504,2.675,3.22627
-1.78087,-0.00671193,2.654,3.19613
-1.77225,-0.00671193,2.654,3.19134
-1.74968,-0.00665883,2.633,3.16135
-1.74114,-0.00665883,2.633,3.15663
-1.73259,-0.00665883,2.633,3.15192
-1.72405,-0.00665883,2.633,3.14723
-1.70247,-0.00660825,2.613,3.11869
-1.69399,-0.00660825,2.613,3.11407
-1.68551,-0.00660825,2.613,3.10946
-1.67703,-0.00660825,2.613,3.10487
-1.66854,-0.00660825,2.613,3.1003
-1.67277,-0.00665883,2.633,3.11944
-1.66422,-0.00665883,2.633,3.11486
-1.65568,-0.00665883,2.633,3.11031
-1.66027,-0.00671193,2.654,3.13054
-1.66472,-0.00676504,2.675,3.15071
-1.65604,-0.00676504,2.675,3.14613
-1.66029,-0.00681815,2.696,3.16623
-1.65154,-0.00681815,2.696,3.16165
-1.64279,-0.00681815,2.696,3.15709
-1.64677,-0.00687126,2.717,3.1771
-1.66447,-0.00698254,2.761,3.22392
-1.65551,-0.00698254,2.761,3.2193
-1.64655,-0.00698254,2.761,3.2147
-1.63759,-0.00698254,2.761,3.21012
-1.62863,-0.00698254,2.761,3.20556
-1.60676,-0.0069269,2.739,3.17551
-1.58504,-0.00687126,2.717,3.14555
-1.57622,-0.00687126,2.717,3.14111
-1.55528,-0.00681815,2.696,3.11245
-1.54653,-0.00681815,2.696,3.10809
-1.53778,-0.00681815,2.696,3.10375
-1.52903,-0.00681815,2.696,3.09942
-1.50844,-0.00676504,2.675,3.071
-1.49976,-0.00676504,2.675,3.06675
-1.47937,-0.00671193,2.654,3.03847
-1.47075,-0.00671193,2.654,3.03428
-1.46214,-0.00671193,2.654,3.03012
-1.46503,-0.00676504,2.675,3.04991
-1.44491,-0.00671193,2.654,3.02184
-1.4363,-0.00671193,2.654,3.01773
-1.42768,-0.00671193,2.654,3.01364
-1.41907,-0.00671193,2.654,3.00957
-1.42162,-0.00676504,2.675,3.0293
-1.41293,-0.00676504,2.675,3.02524
-1.39323,-0.00671193,2.654,2.99747
-1.38461,-0.00671193,2.654,2.99348
-1.36511,-0.00665883,2.633,2.96585
-1.35656,-0.00665883,2.633,2.96193
-1.33778,-0.00660825,2.613,2.93555
-1.31912,-0.00655767,2.593,2.90926
-1.31071,-0.00655767,2.593,2.90545
-1.30229,-0.00655767,2.593,2.90166
-1.27491,-0.00646156,2.555,2.85543
-1.26662,-0.00646156,2.555,2.85174
-1.23961,-0.00636546,2.517,2.8057
-1.23144,-0.00636546,2.517,2.8021
-1.22327,-0.00636546,2.517,2.79852
-1.19772,-0.00627442,2.481,2.75499
-1.18104,-0.0062289,2.463,2.73153
-1.17305,-0.0062289,2.463,2.72808
-1.16505,-0.0062289,2.463,2.72466
-1.1486,-0.00618338,2.445,2.70136
-1.13274,-0.00614038,2.428,2.67924
-1.12485,-0.00614038,2.428,2.67591
-1.10915,-0.00609739,2.411,2.6539
-1.09356,-0.0060544,2.394,2.63195
-1.08579,-0.0060544,2.394,2.62873
-1.07037,-0.0060114,2.377,2.60689
-1.06265,-0.0060114,2.377,2.60373
-1.05494,-0.0060114,2.377,2.60059
-1.04722,-0.0060114,2.377,2.59747
-1.03951,-0.0060114,2.377,2.59437
-1.02485,-0.00597094,2.361,2.57384
-1.01718,-0.00597094,2.361,2.5708
-1.00952,-0.00597094,2.361,2.56778
-1.00186,-0.00597094,2.361,2.56478
-0.994193,-0.00597094,2.361,2.56179
-0.986529,-0.00597094,2.361,2.55883
-0.978866,-0.00597094,2.361,2.55588
-0.971203,-0.00597094,2.361,2.55296
-0.96354,-0.00597094,2.361,2.55005
-0.955876,-0.00597094,2.361,2.54717
-0.948213,-0.00597094,2.361,2.5443
-0.934176,-0.00593048,2.345,2.52423
-0.926565,-0.00593048,2.345,2.52142
-0.925224,-0.00597094,2.361,2.53582
-0.91756,-0.00597094,2.361,2.53304
-0.909897,-0.00597094,2.361,2.53027
-0.902234,-0.00597094,2.361,2.52752
-0.894571,-0.00597094,2.361,2.5248
-0.886907,-0.00597094,2.361,2.52209
-0.885203,-0.0060114,2.377,2.53648
-0.877488,-0.0060114,2.377,2.5338
-0.869772,-0.0060114,2.377,2.53114
-0.862057,-0.0060114,2.377,2.5285
-0.854342,-0.0060114,2.377,2.52588
-0.846627,-0.0060114,2.377,2.52328
-0.838912,-0.0060114,2.377,2.5207
-0.831197,-0.0060114,2.377,2.51814
-0.823481,-0.0060114,2.377,2.51561
-0.815766,-0.0060114,2.377,2.51309
-0.808051,-0.0060114,2.377,2.5106
-0.800336,-0.0060114,2.377,2.50813
-0.792621,-0.0060114,2.377,2.50568
-0.784906,-0.0060114,2.377,2.50325
-0.777191,-0.0060114,2.377,2.50084
-0.769475,-0.0060114,2.377,2.49845
-0.76176,-0.0060114,2.377,2.49609
-0.754045,-0.0060114,2.377,2.49374
-0.74633,-0.0060114,2.377,2.49142
-0.738615,-0.0060114,2.377,2.48912
-0.736127,-0.0060544,2.394,2.50463
-0.728357,-0.0060544,2.394,2.50235
-0.720586,-0.0060544,2.394,2.5001
-0.712816,-0.0060544,2.394,2.49787
-0.710052,-0.00609739,2.411,2.51339
-0.702227,-0.00609739,2.411,2.51119
-0.694401,-0.00609739,2.411,2.50901
-0.686576,-0.00609739,2.411,2.50686
-0.683536,-0.00614038,2.428,2.52239
-0.675655,-0.00614038,2.428,2.52026
-0.667775,-0.00614038,2.428,2.51816
-0.664514,-0.00618338,2.445,2.5337
-0.656578,-0.00618338,2.445,2.53163
-0.648643,-0.00618338,2.445,2.52959
-0.640707,-0.00618338,2.445,2.52756
-0.632771,-0.00618338,2.445,2.52556
-0.624835,-0.00618338,2.445,2.52359
-0.616899,-0.00618338,2.445,2.52163
-0.608963,-0.00618338,2.445,2.5197
-0.601027,-0.00618338,2.445,2.5178
-0.597458,-0.0062289,2.463,2.53444
-0.589464,-0.0062289,2.463,2.53256
-0.581469,-0.0062289,2.463,2.53071
-0.573475,-0.0062289,2.463,2.52889
-0.565481,-0.0062289,2.463,2.52709
-0.557486,-0.0062289,2.463,2.52531
-0.549492,-0.0062289,2.463,2.52356
-0.545455,-0.00627442,2.481,2.54026
-0.537403,-0.00627442,2.481,2.53854
-0.52935,-0.00627442,2.481,2.53685
-0.517515,-0.0062289,2.463,2.51679
-0.509521,-0.0062289,2.463,2.51516
-0.501526,-0.0062289,2.463,2.51355
-0.493532,-0.0062289,2.463,2.51197
-0.485538,-0.0062289,2.463,2.51041
-0.477544,-0.0062289,2.463,2.50888
-0.469549,-0.0062289,2.463,2.50737
-0.461555,-0.0062289,2.463,2.50588
-0.453561,-0.0062289,2.463,2.50442
-0.445566,-0.0062289,2.463,2.50299
-0.437572,-0.0062289,2.463,2.50157
-0.432717,-0.00627442,2.481,2.51846
-0.424665,-0.00627442,2.481,2.51709
-0.416612,-0.00627442,2.481,2.51574
-0.408559,-0.00627442,2.481,2.51442
-0.400506,-0.00627442,2.481,2.51313
-0.392454,-0.00627442,2.481,2.51186
-0.384401,-0.00627442,2.481,2.51061
-0.376348,-0.00627442,2.481,2.50939
-0.370968,-0.00631994,2.499,2.52639
-0.362857,-0.00631994,2.499,2.52521
-0.354745,-0.00631994,2.499,2.52406
-0.346634,-0.00631994,2.499,2.52293
-0.338523,-0.00631994,2.499,2.52183
-0.332792,-0.00636546,2.517,2.53891
-0.322301,-0.00631994,2.499,2.51971
-0.31419,-0.00631994,2.499,2.51868
-0.306079,-0.00631994,2.499,2.51768
-0.297967,-0.00631994,2.499,2.51671
-0.291944,-0.00636546,2.517,2.53388
-0.283775,-0.00636546,2.517,2.53295
-0.277685,-0.00641351,2.536,2.55117
-0.269454,-0.00641351,2.536,2.55028
-0.259266,-0.00636546,2.517,2.53033
-0.251096,-0.00636546,2.517,2.5295
-0.242927,-0.00636546,2.517,2.5287
-0.236529,-0.00641351,2.536,2.54701
-0.228298,-0.00641351,2.536,2.54626
-0.220067,-0.00641351,2.536,2.54554
-0.211836,-0.00641351,2.536,2.54484
-0.203604,-0.00641351,2.536,2.54417
-0.195373,-0.00641351,2.536,2.54352
-0.18574,-0.00636546,2.517,2.52385
-0.17757,-0.00636546,2.517,2.52326
-0.169401,-0.00636546,2.517,2.5227
-0.161231,-0.00636546,2.517,2.52217
-0.154217,-0.00641351,2.536,2.54069
-0.145986,-0.00641351,2.536,2.54021
-0.137755,-0.00641351,2.536,2.53975
-0.129523,-0.00641351,2.536,2.53931
-0.121292,-0.00641351,2.536,2.53891
-0.113061,-0.00641351,2.536,2.53853
-0.105615,-0.00646156,2.555,2.55719
-0.0973222,-0.00646156,2.555,2.55686
-0.0890293,-0.00646156,2.555,2.55656
-0.0807364,-0.00646156,2.555,2.55628
-0.0729822,-0.00650962,2.574,2.57504
-0.0646277,-0.00650962,2.574,2.57482
-0.0562731,-0.00650962,2.574,2.57462
-0.0479185,-0.00650962,2.574,2.57445
-0.039564,-0.00650962,2.574,2.57431
-0.0312094,-0.00650962,2.574,2.5742
-0.0226861,-0.00646156,2.555,2.55511
-0.0143932,-0.00646156,2.555,2.55505
-0.00610034,-0.00646156,2.555,2.55502
0.00219255,-0.00646156,2.555,2.55501
0.0104854,-0.00646156,2.555,2.55503
0.0187783,-0.00646156,2.555,2.55508
0.0268699,-0.00641351,2.536,2.53615
0.0351011,-0.00641351,2.536,2.53625
0.0433324,-0.00641351,2.536,2.53638
0.0515636,-0.00641351,2.536,2.53653
0.0597948,-0.00641351,2.536,2.53671
0.0680261,-0.00641351,2.536,2.53692
0.0762573,-0.00641351,2.536,2.53715
0.0844885,-0.00641351,2.536,2.53742
0.0927197,-0.00641351,2.536,2.5377
0.100951,-0.00641351,2.536,2.53802
0.109182,-0.00641351,2.536,2.53836
0.117413,-0.00641351,2.536,2.53872
0.126586,-0.00646156,2.555,2.55814
0.134879,-0.00646156,2.555,2.55857
0.143172,-0.00646156,2.555,2.55902
0.151465,-0.00646156,2.555,2.55949
0.159758,-0.00646156,2.555,2.56
0.16805,-0.00646156,2.555,2.56053
nan,nan,nan,NaN
0.187382,-0.00655767,2.593,2.59977
0.192929,-0.00646156,2.555,2.56228
0.201222,-0.00646156,2.555,2.56292
0.209515,-0.00646156,2.555,2.56358
0.217808,-0.00646156,2.555,2.56428
0.226101,-0.00646156,2.555,2.56499
0.234394,-0.00646156,2.555,2.56574
0.242687,-0.00646156,2.555,2.56651
0.250979,-0.00646156,2.555,2.56731
0.259272,-0.00646156,2.555,2.56813
0.267565,-0.00646156,2.555,2.56898
0.275858,-0.00646156,2.555,2.56986
0.284151,-0.00646156,2.555,2.57076
0.292444,-0.00646156,2.555,2.57169
0.302973,-0.00650962,2.574,2.59178
nan,nan,nan,NaN
nan,nan,nan,NaN
nan,nan,nan,NaN
nan,nan,nan,NaN
nan,nan,nan,NaN
nan,nan,nan,NaN
nan,nan,nan,NaN
nan,nan,nan,NaN
nan,nan,nan,NaN
nan,nan,nan,NaN
nan,nan,nan,NaN
nan,nan,nan,NaN
nan,nan,nan,NaN
nan,nan,nan,NaN
nan,nan,nan,NaN
nan,nan,nan,NaN
nan,nan,nan,NaN
nan,nan,nan,NaN
nan,nan,nan,NaN
nan,nan,nan,NaN
nan,nan,nan,NaN
nan,nan,nan,NaN
nan,nan,nan,NaN
nan,nan,nan,NaN
nan,nan,nan,NaN
nan,nan,nan,NaN
nan,nan,nan,NaN
nan,nan,nan,NaN
nan,nan,nan,NaN
nan,nan,nan,NaN
nan,nan,nan,NaN
nan,nan,nan,NaN
nan,nan,nan,NaN
nan,nan,nan,NaN
nan,nan,nan,NaN
nan,nan,nan,NaN
nan,nan,nan,NaN
nan,nan,nan,NaN
nan,nan,nan,NaN
nan,nan,nan,NaN
nan,nan,nan,NaN
0.639385,-0.00636546,2.517,2.59695
0.647555,-0.00636546,2.517,2.59897
0.655725,-0.00636546,2.517,2.60102
0.663894,-0.00636546,2.517,2.60309
0.677137,-0.00641351,2.536,2.62485
0.685368,-0.00641351,2.536,2.62699
0.693599,-0.00641351,2.536,2.62915
0.70183,-0.00641351,2.536,2.63133
0.710062,-0.00641351,2.536,2.63354
0.718293,-0.00641351,2.536,2.63577
0.726524,-0.00641351,2.536,2.63802
0.734755,-0.00641351,2.536,2.6403
0.742987,-0.00641351,2.536,2.64261
0.751218,-0.00641351,2.536,2.64493
0.759449,-0.00641351,2.536,2.64728
0.76768,-0.00641351,2.536,2.64965
0.775912,-0.00641351,2.536,2.65205
0.778268,-0.00636546,2.517,2.63458
0.786437,-0.00636546,2.517,2.63701
0.794607,-0.00636546,2.517,2.63946
0.808836,-0.00641351,2.536,2.66187
0.817068,-0.00641351,2.536,2.66438
0.825299,-0.00641351,2.536,2.66692
0.83353,-0.00641351,2.536,2.66948
0.841761,-0.00641351,2.536,2.67206
0.856361,-0.00646156,2.555,2.6947
0.858224,-0.00641351,2.536,2.67729
0.859963,-0.00636546,2.517,2.65986
0.868133,-0.00636546,2.517,2.66251
0.876303,-0.00636546,2.517,2.66519
0.878147,-0.00631994,2.499,2.64881
0.886258,-0.00631994,2.499,2.65151
0.887927,-0.00627442,2.481,2.63511
0.889479,-0.0062289,2.463,2.6187
0.890915,-0.00618338,2.445,2.60227
0.898851,-0.00618338,2.445,2.60499
0.906787,-0.00618338,2.445,2.60774
0.908362,-0.00614038,2.428,2.59236
0.916243,-0.00614038,2.428,2.59513
0.917653,-0.00609739,2.411,2.57974
0.925479,-0.00609739,2.411,2.58253
0.933304,-0.00609739,2.411,2.58535
0.934494,-0.0060544,2.394,2.56993
0.942264,-0.0060544,2.394,2.57277
0.950035,-0.0060544,2.394,2.57562
0.957805,-0.0060544,2.394,2.5785
0.965575,-0.0060544,2.394,2.5814
0.980257,-0.00609739,2.411,2.60266
0.988083,-0.00609739,2.411,2.60562
0.995908,-0.00609739,2.411,2.6086
1.00373,-0.00609739,2.411,2.6116
1.01869,-0.00614038,2.428,2.63305
1.02657,-0.00614038,2.428,2.63611
1.03445,-0.00614038,2.428,2.63919
1.04963,-0.00618338,2.445,2.66079
1.05757,-0.00618338,2.445,2.66393
1.07335,-0.0062289,2.463,2.68672
1.08924,-0.00627442,2.481,2.70959
1.0973,-0.00627442,2.481,2.71283
1.11337,-0.00631994,2.499,2.73581
1.12956,-0.00636546,2.517,2.75885
1.14632,-0.00641351,2.536,2.78305
1.15455,-0.00641351,2.536,2.78645
1.1802,-0.00650962,2.574,2.83168
1.20657,-0.00660825,2.613,2.87813
1.21505,-0.00660825,2.613,2.88169
1.23289,-0.00665883,2.633,2.90736
1.24144,-0.00665883,2.633,2.911
1.24998,-0.00665883,2.633,2.91465
1.26857,-0.00671193,2.654,2.9416
1.27718,-0.00671193,2.654,2.94533
1.30614,-0.00681815,2.696,2.99574
1.3149,-0.00681815,2.696,2.99957
1.34476,-0.0069269,2.739,3.05132
1.36452,-0.00698254,2.761,3.07979
1.37348,-0.00698254,2.761,3.08377
1.39346,-0.00703817,2.783,3.11237
1.42567,-0.00715451,2.829,3.16794
1.43486,-0.00715451,2.829,3.17208
1.45629,-0.0072152,2.853,3.20319
1.49021,-0.00733659,2.901,3.26138
1.52547,-0.00746304,2.951,3.32197
1.53505,-0.00746304,2.951,3.32638
1.55823,-0.0075288,2.977,3.36016
1.58159,-0.00759455,3.003,3.39404
1.59134,-0.00759455,3.003,3.39859
1.60108,-0.00759455,3.003,3.40317
1.6398,-0.00773112,3.057,3.46904
1.64972,-0.00773112,3.057,3.47374
1.65964,-0.00773112,3.057,3.47847
1.66956,-0.00773112,3.057,3.48321
1.67949,-0.00773112,3.057,3.48798
1.68941,-0.00773112,3.057,3.49277
1.69933,-0.00773112,3.057,3.49758
1.70925,-0.00773112,3.057,3.50241
1.71917,-0.00773112,3.057,3.50726
1.71383,-0.00766283,3.03,3.48111
1.72366,-0.00766283,3.03,3.48597
1.71805,-0.00759455,3.003,3.45973
1.71284,-0.0075288,2.977,3.43459
1.7225,-0.0075288,2.977,3.43942
1.71703,-0.00746304,2.951,3.41419
1.72661,-0.00746304,2.951,3.41901
1.73619,-0.00746304,2.951,3.42386
1.74577,-0.00746304,2.951,3.42873
1.74047,-0.00739982,2.926,3.40452
1.74997,-0.00739982,2.926,3.40939
1.75947,-0.00739982,2.926,3.41427
1.75385,-0.00733659,2.901,3.38996
1.76327,-0.00733659,2.901,3.39484
1.77268,-0.00733659,2.901,3.39974
1.7821,-0.00733659,2.901,3.40466
1.79152,-0.00733659,2.901,3.4096
1.80093,-0.00733659,2.901,3.41456
1.81035,-0.00733659,2.901,3.41953
1.78965,-0.0072152,2.853,3.36787
1.79891,-0.0072152,2.853,3.3728
1.79296,-0.00715451,2.829,3.34933
1.78749,-0.00709634,2.806,3.32698
1.76779,-0.00698254,2.761,3.27845
1.77675,-0.00698254,2.761,3.28329
1.77148,-0.0069269,2.739,3.26195
1.75242,-0.00681815,2.696,3.2155
1.76117,-0.00681815,2.696,3.22028
1.74235,-0.00671193,2.654,3.17483
1.73711,-0.00665883,2.633,3.15441
1.74566,-0.00665883,2.633,3.15912
1.74088,-0.00660825,2.613,3.13982
1.72325,-0.00650962,2.574,3.0976
1.7316,-0.00650962,2.574,3.10225
1.72711,-0.00646156,2.555,3.08399
1.7096,-0.00636546,2.517,3.0427
-1.93066,0.00199221,2.783,3.38711
-1.89124,0.00196071,2.739,3.3285
-1.88235,0.00196071,2.739,3.32346
-1.85842,0.00194496,2.717,3.29178
-1.8353,0.00192993,2.696,3.2614
-1.82655,0.00192993,2.696,3.25649
-1.80364,0.00191489,2.675,3.22626
-1.78087,0.00189986,2.654,3.19612
-1.77225,0.00189986,2.654,3.19133
-1.76364,0.00189986,2.654,3.18656
-1.74114,0.00188483,2.633,3.15662
-1.73259,0.00188483,2.633,3.15191
-1.72405,0.00188483,2.633,3.14723
-1.7155,0.00188483,2.633,3.14255
-1.69399,0.00187051,2.613,3.11406
-1.68551,0.00187051,2.613,3.10945
-1.67703,0.00187051,2.613,3.10486
-1.66854,0.00187051,2.613,3.10029
-1.66006,0.00187051,2.613,3.09574
-1.65158,0.00187051,2.613,3.0912
-1.6431,0.00187051,2.613,3.08667
-1.66027,0.00189986,2.654,3.13053
-1.66472,0.00191489,2.675,3.1507
-1.65604,0.00191489,2.675,3.14612
-1.66029,0.00192993,2.696,3.16623
-1.65154,0.00192993,2.696,3.16165
-1.64279,0.00192993,2.696,3.15708
-1.64677,0.00194496,2.717,3.1771
-1.66447,0.00197646,2.761,3.22391
-1.65551,0.00197646,2.761,3.21929
-1.64655,0.00197646,2.761,3.21469
-1.63759,0.00197646,2.761,3.21011
-1.62863,0.00197646,2.761,3.20555
-1.60676,0.00196071,2.739,3.1755
-1.58504,0.00194496,2.717,3.14554
-1.57622,0.00194496,2.717,3.14111
-1.55528,0.00192993,2.696,3.11245
-1.54653,0.00192993,2.696,3.10808
-1.53778,0.00192993,2.696,3.10374
-1.52903,0.00192993,2.696,3.09941
-1.50844,0.00191489,2.675,3.071
-1.49976,0.00191489,2.675,3.06674
-1.47937,0.00189986,2.654,3.03846
-1.47075,0.00189986,2.654,3.03428
-1.46214,0.00189986,2.654,3.03011
-1.46503,0.00191489,2.675,3.04991
-1.44491,0.00189986,2.654,3.02184
-1.4363,0.00189986,2.654,3.01773
-1.42768,0.00189986,2.654,3.01364
-1.41907,0.00189986,2.654,3.00956
-1.42162,0.00191489,2.675,3.02929
-1.41293,0.00191489,2.675,3.02523
-1.39323,0.00189986,2.654,2.99747
-1.38461,0.00189986,2.654,2.99347
-1.36511,0.00188483,2.633,2.96584
-1.35656,0.00188483,2.633,2.96192
-1.33778,0.00187051,2.613,2.93555
-1.31912,0.0018562,2.593,2.90925
-1.31071,0.0018562,2.593,2.90544
-1.30229,0.0018562,2.593,2.90166
-1.27491,0.00182899,2.555,2.85542
-1.26662,0.00182899,2.555,2.85173
-1.23961,0.00180179,2.517,2.8057
-1.23144,0.00180179,2.517,2.8021
-1.22327,0.00180179,2.517,2.79852
-1.19772,0.00177602,2.481,2.75498
-1.18104,0.00176313,2.463,2.73153
-1.17305,0.00176313,2.463,2.72808
-1.16505,0.00176313,2.463,2.72465
-1.1486,0.00175025,2.445,2.70135
-1.13274,0.00173808,2.428,2.67923
-1.12485,0.00173808,2.428,2.67591
-1.10915,0.00172591,2.411,2.65389
-1.09356,0.00171374,2.394,2.63194
-1.08579,0.00171374,2.394,2.62872
-1.07037,0.00170157,2.377,2.60688
-1.06265,0.00170157,2.377,2.60372
-1.05494,0.00170157,2.377,2.60058
-1.04722,0.00170157,2.377,2.59746
-1.03951,0.00170157,2.377,2.59436
-1.02485,0.00169012,2.361,2.57384
-1.01718,0.00169012,2.361,2.57079
-1.00952,0.00169012,2.361,2.56777
-1.00186,0.00169012,2.361,2.56477
-0.994193,0.00169012,2.361,2.56179
-0.986529,0.00169012,2.361,2.55882
-0.978866,0.00169012,2.361,2.55588
-0.971203,0.00169012,2.361,2.55295
-0.96354,0.00169012,2.361,2.55005
-0.955876,0.00169012,2.361,2.54716
-0.948213,0.00169012,2.361,2.54429
-0.934176,0.00167866,2.345,2.52423
-0.926565,0.00167866,2.345,2.52142
-0.925224,0.00169012,2.361,2.53582
-0.91756,0.00169012,2.361,2.53303
-0.909897,0.00169012,2.361,2.53026
-0.902234,0.00169012,2.361,2.52752
-0.894571,0.00169012,2.361,2.52479
-0.886907,0.00169012,2.361,2.52209
-0.885203,0.00170157,2.377,2.53648
-0.877488,0.00170157,2.377,2.53379
-0.869772,0.00170157,2.377,2.53113
-0.862057,0.00170157,2.377,2.52849
-0.854342,0.00170157,2.377,2.52587
-0.846627,0.00170157,2.377,2.52327
-0.838912,0.00170157,2.377,2.5207
-0.831197,0.00170157,2.377,2.51814
-0.823481,0.00170157,2.377,2.5156
-0.815766,0.00170157,2.377,2.51309
-0.808051,0.00170157,2.377,2.51059
-0.800336,0.00170157,2.377,2.50812
-0.792621,0.00170157,2.377,2.50567
-0.784906,0.00170157,2.377,2.50324
-0.777191,0.00170157,2.377,2.50083
-0.769475,0.00170157,2.377,2.49844
-0.76176,0.00170157,2.377,2.49608
-0.754045,0.00170157,2.377,2.49374
-0.74633,0.00170157,2.377,2.49141
-0.738615,0.00170157,2.377,2.48911
-0.736127,0.00171374,2.394,2.50462
-0.728357,0.00171374,2.394,2.50235
-0.720586,0.00171374,2.394,2.5001
-0.712816,0.00171374,2.394,2.49787
-0.710052,0.00172591,2.411,2.51338
-0.702227,0.00172591,2.411,2.51118
-0.694401,0.00172591,2.411,2.50901
-0.686576,0.00172591,2.411,2.50685
-0.683536,0.00173808,2.428,2.52238
-0.675655,0.00173808,2.428,2.52026
-0.667775,0.00173808,2.428,2.51816
-0.664514,0.00175025,2.445,2.53369
-0.656578,0.00175025,2.445,2.53162
-0.648643,0.00175025,2.445,2.52958
-0.640707,0.00175025,2.445,2.52755
-0.632771,0.00175025,2.445,2.52555
-0.629435,0.00176313,2.463,2.54216
-0.621441,0.00176313,2.463,2.54019
-0.613446,0.00176313,2.463,2.53825
-0.605452,0.00176313,2.463,2.53632
-0.597458,0.00176313,2.463,2.53443
-0.589464,0.00176313,2.463,2.53256
-0.581469,0.00176313,2.463,2.53071
-0.577666,0.00177602,2.481,2.54736
-0.569613,0.00177602,2.481,2.54555
-0.561561,0.00177602,2.481,2.54376
-0.553508,0.00177602,2.481,2.54199
-0.545455,0.00177602,2.481,2.54025
-0.537403,0.00177602,2.481,2.53854
-0.52935,0.00177602,2.481,2.53684
-0.521297,0.00177602,2.481,2.53518
-0.513244,0.00177602,2.481,2.53353
-0.505192,0.00177602,2.481,2.53191
-0.493532,0.00176313,2.463,2.51196
-0.485538,0.00176313,2.463,2.5104
-0.477544,0.00176313,2.463,2.50887
-0.469549,0.00176313,2.463,2.50736
-0.461555,0.00176313,2.463,2.50587
-0.453561,0.00176313,2.463,2.50441
-0.445566,0.00176313,2.463,2.50298
-0.44077,0.00177602,2.481,2.51985
-0.432717,0.00177602,2.481,2.51845
-0.424665,0.00177602,2.481,2.51708
-0.416612,0.00177602,2.481,2.51574
-0.408559,0.00177602,2.481,2.51442
-0.400506,0.00177602,2.481,2.51312
-0.392454,0.00177602,2.481,2.51185
-0.38719,0.00178891,2.499,2.52882
-0.379079,0.00178891,2.499,2.52759
-0.370968,0.00178891,2.499,2.52639
-0.362857,0.00178891,2.499,2.52521
-0.357301,0.00180179,2.517,2.54223
-0.349131,0.00180179,2.517,2.5411
-0.340961,0.00180179,2.517,2.53999
-0.332792,0.00180179,2.517,2.53891
-0.322301,0.00178891,2.499,2.5197
-0.31419,0.00178891,2.499,2.51867
-0.306079,0.00178891,2.499,2.51768
-0.297967,0.00178891,2.499,2.5167
-0.291944,0.00180179,2.517,2.53388
-0.283775,0.00180179,2.517,2.53295
-0.277685,0.00181539,2.536,2.55116
-0.269454,0.00181539,2.536,2.55028
-0.261223,0.00181539,2.536,2.54942
-0.252992,0.00181539,2.536,2.54859
-0.244761,0.00181539,2.536,2.54778
-0.236529,0.00181539,2.536,2.54701
-0.228298,0.00181539,2.536,2.54626
-0.220067,0.00181539,2.536,2.54553
-0.211836,0.00181539,2.536,2.54483
-0.203604,0.00181539,2.536,2.54416
-0.195373,0.00181539,2.536,2.54352
-0.187142,0.00181539,2.536,2.5429
-0.178911,0.00181539,2.536,2.5423
-0.170679,0.00181539,2.536,2.54174
-0.162448,0.00181539,2.536,2.5412
-0.154217,0.00181539,2.536,2.54069
-0.145986,0.00181539,2.536,2.5402
-0.137755,0.00181539,2.536,2.53974
-0.129523,0.00181539,2.536,2.53931
-0.121292,0.00181539,2.536,2.5389
-0.113061,0.00181539,2.536,2.53852
-0.10483,0.00181539,2.536,2.53817
-0.0973222,0.00182899,2.555,2.55685
-0.0890293,0.00182899,2.555,2.55655
-0.0807364,0.00182899,2.555,2.55628
-0.0729822,0.00184259,2.574,2.57504
-0.0646277,0.00184259,2.574,2.57481
-0.0562731,0.00184259,2.574,2.57462
-0.0479185,0.00184259,2.574,2.57445
-0.039564,0.00184259,2.574,2.5743
-0.0312094,0.00184259,2.574,2.57419
-0.0226861,0.00182899,2.555,2.5551
-0.0143932,0.00182899,2.555,2.55504
-0.00610034,0.00182899,2.555,2.55501
0.00219255,0.00182899,2.555,2.555
0.0104854,0.00182899,2.555,2.55502
0.0187783,0.00182899,2.555,2.55507
0.0268699,0.00181539,2.536,2.53614
0.0351011,0.00181539,2.536,2.53624
0.0433324,0.00181539,2.536,2.53637
0.0515636,0.00181539,2.536,2.53652
0.0597948,0.00181539,2.536,2.53671
0.0680261,0.00181539,2.536,2.53691
0.0762573,0.00181539,2.536,2.53715
0.0844885,0.00181539,2.536,2.53741
0.0927197,0.00181539,2.536,2.53769
0.100951,0.00181539,2.536,2.53801
0.109182,0.00181539,2.536,2.53835
0.117413,0.00181539,2.536,2.53872
0.126586,0.00182899,2.555,2.55813
0.134879,0.00182899,2.555,2.55856
0.143172,0.00182899,2.555,2.55901
0.151465,0.00182899,2.555,2.55949
0.159758,0.00182899,2.555,2.55999
0.16805,0.00182899,2.555,2.56052
nan,nan,nan,NaN
nan,nan,nan,NaN
0.192929,0.00182899,2.555,2.56227
0.201222,0.00182899,2.555,2.56291
0.209515,0.00182899,2.555,2.56358
0.217808,0.00182899,2.555,2.56427
0.226101,0.00182899,2.555,2.56499
0.234394,0.00182899,2.555,2.56573
0.242687,0.00182899,2.555,2.5665
0.250979,0.00182899,2.555,2.5673
0.259272,0.00182899,2.555,2.56812
0.267565,0.00182899,2.555,2.56897
0.275858,0.00182899,2.555,2.56985
0.284151,0.00182899,2.555,2.57075
0.292444,0.00182899,2.555,2.57168
nan,nan,nan,NaN
nan,nan,nan,NaN
nan,nan,nan,NaN
nan,nan,nan,NaN
nan,nan,nan,NaN
nan,nan,nan,NaN
nan,nan,nan,NaN
nan,nan,nan,NaN
nan,nan,nan,NaN
nan,nan,nan,NaN
nan,nan,nan,NaN
nan,nan,nan,NaN
nan,nan,nan,NaN
nan,nan,nan,NaN
nan,nan,nan,NaN
nan,nan,nan,NaN
nan,nan,nan,NaN
nan,nan,nan,NaN
nan,nan,nan,NaN
nan,nan,nan,NaN
nan,nan,nan,NaN
nan,nan,nan,NaN
nan,nan,nan,NaN
nan,nan,nan,NaN
nan,nan,nan,NaN
nan,nan,nan,NaN
nan,nan,nan,NaN
nan,nan,nan,NaN
nan,nan,nan,NaN
nan,nan,nan,NaN
nan,nan,nan,NaN
nan,nan,nan,NaN
nan,nan,nan,NaN
nan,nan,nan,NaN
nan,nan,nan,NaN
nan,nan,nan,NaN
nan,nan,nan,NaN
nan,nan,nan,NaN
nan,nan,nan,NaN
nan,nan,nan,NaN
nan,nan,nan,NaN
nan,nan,nan,NaN
0.639385,0.00180179,2.517,2.59694
0.647555,0.00180179,2.517,2.59897
0.655725,0.00180179,2.517,2.60101
0.663894,0.00180179,2.517,2.60308
0.672064,0.00180179,2.517,2.60518
0.680233,0.00180179,2.517,2.6073
0.688403,0.00180179,2.517,2.60944
0.696572,0.00180179,2.517,2.61161
0.704742,0.00180179,2.517,2.6138
0.712911,0.00180179,2.517,2.61602
0.721081,0.00180179,2.517,2.61825
0.729251,0.00180179,2.517,2.62052
0.73742,0.00180179,2.517,2.6228
0.74559,0.00180179,2.517,2.62511
0.753759,0.00180179,2.517,2.62744
0.761929,0.00180179,2.517,2.6298
0.770098,0.00180179,2.517,2.63217
0.778268,0.00180179,2.517,2.63458
0.786437,0.00180179,2.517,2.637
0.794607,0.00180179,2.517,2.63945
0.802777,0.00180179,2.517,2.64192
0.810946,0.00180179,2.517,2.64441
0.825299,0.00181539,2.536,2.66691
0.83353,0.00181539,2.536,2.66947
0.841761,0.00181539,2.536,2.67205
0.849993,0.00181539,2.536,2.67466
0.858224,0.00181539,2.536,2.67728
0.859963,0.00180179,2.517,2.65986
0.868133,0.00180179,2.517,2.66251
0.876303,0.00180179,2.517,2.66518
0.878147,0.00178891,2.499,2.6488
0.886258,0.00178891,2.499,2.6515
0.887927,0.00177602,2.481,2.63511
0.889479,0.00176313,2.463,2.61869
0.897474,0.00176313,2.463,2.62142
0.905468,0.00176313,2.463,2.62417
0.906787,0.00175025,2.445,2.60774
0.908362,0.00173808,2.428,2.59236
0.916243,0.00173808,2.428,2.59513
0.924124,0.00173808,2.428,2.59792
0.925479,0.00172591,2.411,2.58253
0.933304,0.00172591,2.411,2.58534
0.94113,0.00172591,2.411,2.58817
0.942264,0.00171374,2.394,2.57276
0.950035,0.00171374,2.394,2.57562
0.957805,0.00171374,2.394,2.57849
0.965575,0.00171374,2.394,2.58139
0.980257,0.00172591,2.411,2.60266
0.988083,0.00172591,2.411,2.60562
0.995908,0.00172591,2.411,2.60859
1.00373,0.00172591,2.411,2.61159
1.01869,0.00173808,2.428,2.63304
1.02657,0.00173808,2.428,2.6361
1.03445,0.00173808,2.428,2.63918
1.04963,0.00175025,2.445,2.66078
1.05757,0.00175025,2.445,2.66392
1.07335,0.00176313,2.463,2.68672
1.08924,0.00177602,2.481,2.70958
1.0973,0.00177602,2.481,2.71283
1.11337,0.00178891,2.499,2.7358
1.12956,0.00180179,2.517,2.75884
1.1549,0.00182899,2.555,2.8039
1.1632,0.00182899,2.555,2.80732
1.1802,0.00184259,2.574,2.83167
1.20657,0.00187051,2.613,2.87812
1.21505,0.00187051,2.613,2.88169
1.23289,0.00188483,2.633,2.90736
1.24144,0.00188483,2.633,2.91099
1.24998,0.00188483,2.633,2.91464
1.26857,0.00189986,2.654,2.9416
1.27718,0.00189986,2.654,2.94532
1.30614,0.00192993,2.696,2.99574
1.3149,0.00192993,2.696,2.99956
1.33396,0.00194496,2.717,3.0268
1.35365,0.00196071,2.739,3.05524
1.36254,0.00196071,2.739,3.05919
1.38244,0.00197646,2.761,3.08776
1.40249,0.00199221,2.783,3.11642
1.41152,0.00199221,2.783,3.1205
1.44404,0.00202514,2.829,3.17624
1.47788,0.0020595,2.877,3.23439
1.51254,0.00209457,2.926,3.29382
1.52204,0.00209457,2.926,3.2982
1.54462,0.00211247,2.951,3.33081
1.5679,0.00213108,2.977,3.36464
1.57756,0.00213108,2.977,3.36916
1.58722,0.00213108,2.977,3.37369
1.62531,0.00216902,3.03,3.43839
1.63515,0.00216902,3.03,3.44305
1.64498,0.00216902,3.03,3.44773
1.65482,0.00216902,3.03,3.45244
1.66465,0.00216902,3.03,3.45716
1.67449,0.00216902,3.03,3.46191
1.68432,0.00216902,3.03,3.46668
1.69416,0.00216902,3.03,3.47147
1.70399,0.00216902,3.03,3.47628
1.69855,0.00214969,3.003,3.45009
1.7083,0.00214969,3.003,3.4549
1.70317,0.00213108,2.977,3.42977
1.71284,0.00213108,2.977,3.43458
1.7225,0.00213108,2.977,3.43941
1.71703,0.00211247,2.951,3.41418
1.72661,0.00211247,2.951,3.419
1.72148,0.00209457,2.926,3.39485
1.73098,0.00209457,2.926,3.39967
1.74047,0.00209457,2.926,3.40452
1.74997,0.00209457,2.926,3.40938
1.75947,0.00209457,2.926,3.41427
1.75385,0.00207668,2.901,3.38996
1.76327,0.00207668,2.901,3.39484
1.77268,0.00207668,2.901,3.39974
1.7821,0.00207668,2.901,3.40466
1.79152,0.00207668,2.901,3.40959
1.80093,0.00207668,2.901,3.41455
1.81035,0.00207668,2.901,3.41953
1.78965,0.00204232,2.853,3.36786
1.79891,0.00204232,2.853,3.37279
1.79296,0.00202514,2.829,3.34932
1.78749,0.00200867,2.806,3.32698
1.76779,0.00197646,2.761,3.27845
1.77675,0.00197646,2.761,3.28329
1.77148,0.00196071,2.739,3.26194
1.75242,0.00192993,2.696,3.21549
1.76117,0.00192993,2.696,3.22027
1.74235,0.00189986,2.654,3.17482
1.73711,0.00188483,2.633,3.1544
1.74566,0.00188483,2.633,3.15912
1.74088,0.00187051,2.613,3.13981
1.72325,0.00184259,2.574,3.09759
1.7316,0.00184259,2.574,3.10225
1.72711,0.00182899,2.555,3.08398
1.7096,0.00180179,2.517,3.0427
-1.93066,0.0110226,2.783,3.38713
-1.90643,0.0109355,2.761,3.35525
-1.89747,0.0109355,2.761,3.35017
-1.85842,0.0107612,2.717,3.2918
-1.8496,0.0107612,2.717,3.28682
-1.84078,0.0107612,2.717,3.28187
-1.8178,0.010678,2.696,3.2516
-1.79496,0.0105948,2.675,3.22143
-1.78628,0.0105948,2.675,3.2166
-1.77759,0.0105948,2.675,3.21179
-1.75502,0.0105117,2.654,3.18181
-1.73259,0.0104285,2.633,3.15193
-1.72405,0.0104285,2.633,3.14724
-1.7155,0.0104285,2.633,3.14257
-1.70695,0.0104285,2.633,3.13791
-1.69841,0.0104285,2.633,3.13327
-1.67703,0.0103493,2.613,3.10488
-1.66854,0.0103493,2.613,3.10031
-1.66006,0.0103493,2.613,3.09575
-1.65158,0.0103493,2.613,3.09121
-1.6431,0.0103493,2.613,3.08669
-1.64713,0.0104285,2.633,3.10578
-1.65165,0.0105117,2.654,3.12599
-1.64304,0.0105117,2.654,3.12144
-1.64736,0.0105948,2.675,3.14158
-1.65154,0.010678,2.696,3.16166
-1.64279,0.010678,2.696,3.1571
-1.63404,0.010678,2.696,3.15256
-1.63795,0.0107612,2.717,3.17255
-1.62913,0.0107612,2.717,3.16801
-1.63343,0.0108483,2.739,3.1891
-1.62454,0.0108483,2.739,3.18455
-1.61565,0.0108483,2.739,3.18003
-1.59385,0.0107612,2.717,3.15001
-1.57278,0.010678,2.696,3.12125
-1.56403,0.010678,2.696,3.11685
-1.55528,0.010678,2.696,3.11246
-1.54653,0.010678,2.696,3.1081
-1.53778,0.010678,2.696,3.10376
-1.51712,0.0105948,2.675,3.07529
-1.4966,0.0105117,2.654,3.04691
-1.48798,0.0105117,2.654,3.04268
-1.47937,0.0105117,2.654,3.03848
-1.45912,0.0104285,2.633,3.01029
-1.45057,0.0104285,2.633,3.00615
-1.45353,0.0105117,2.654,3.02598
-1.44491,0.0105117,2.654,3.02185
-1.4363,0.0105117,2.654,3.01774
-1.42768,0.0105117,2.654,3.01365
-1.41907,0.0105117,2.654,3.00958
-1.3993,0.0104285,2.633,2.98175
-1.39075,0.0104285,2.633,2.97775
-1.3822,0.0104285,2.633,2.97377
-1.36322,0.0103493,2.613,2.94724
-1.34437,0.0102701,2.593,2.9208
-1.33596,0.0102701,2.593,2.91694
-1.32754,0.0102701,2.593,2.91309
-1.30946,0.0101948,2.574,2.88795
-1.3011,0.0101948,2.574,2.88417
-1.28321,0.0101195,2.555,2.85915
-1.26543,0.0100443,2.536,2.8342
-1.2572,0.0100443,2.536,2.83054
-1.23961,0.00996904,2.517,2.80571
-1.22264,0.00989775,2.499,2.78207
-1.21453,0.00989775,2.499,2.77852
-1.19772,0.00982646,2.481,2.755
-1.18104,0.00975517,2.463,2.73154
-1.16447,0.00968387,2.445,2.70816
-1.15654,0.00968387,2.445,2.70476
-1.14062,0.00961654,2.428,2.68259
-1.1248,0.00954921,2.411,2.66049
-1.11698,0.00954921,2.411,2.65719
-1.10915,0.00954921,2.411,2.65391
-1.09356,0.00948188,2.394,2.63196
-1.08579,0.00948188,2.394,2.62874
-1.07037,0.00941455,2.377,2.6069
-1.06265,0.00941455,2.377,2.60374
-1.05494,0.00941455,2.377,2.6006
-1.04722,0.00941455,2.377,2.59748
-1.03951,0.00941455,2.377,2.59438
-1.02485,0.00935118,2.361,2.57385
-1.01718,0.00935118,2.361,2.57081
-1.00952,0.00935118,2.361,2.56779
-1.00186,0.00935118,2.361,2.56479
-0.994193,0.00935118,2.361,2.5618
-0.986529,0.00935118,2.361,2.55884
-0.978866,0.00935118,2.361,2.55589
-0.971203,0.00935118,2.361,2.55297
-0.96354,0.00935118,2.361,2.55006
-0.955876,0.00935118,2.361,2.54718
-0.948213,0.00935118,2.361,2.54431
-0.94055,0.00935118,2.361,2.54146
-0.932887,0.00935118,2.361,2.53864
-0.925224,0.00935118,2.361,2.53583
-0.91756,0.00935118,2.361,2.53305
-0.909897,0.00935118,2.361,2.53028
-0.902234,0.00935118,2.361,2.52754
-0.900633,0.00941455,2.377,2.54192
-0.892918,0.00941455,2.377,2.5392
-0.885203,0.00941455,2.377,2.53649
-0.877488,0.00941455,2.377,2.53381
-0.869772,0.00941455,2.377,2.53115
-0.862057,0.00941455,2.377,2.52851
-0.854342,0.00941455,2.377,2.52589
-0.852682,0.00948188,2.394,2.54134
-0.844912,0.00948188,2.394,2.53874
-0.837141,0.00948188,2.394,2.53616
-0.829371,0.00948188,2.394,2.53361
-0.821601,0.00948188,2.394,2.53108
-0.81383,0.00948188,2.394,2.52857
-0.80606,0.00948188,2.394,2.52608
-0.79829,0.00948188,2.394,2.52361
-0.790519,0.00948188,2.394,2.52116
-0.777191,0.00941455,2.377,2.50085
-0.769475,0.00941455,2.377,2.49846
-0.76176,0.00941455,2.377,2.4961
-0.759438,0.00948188,2.394,2.51159
-0.751668,0.00948188,2.394,2.50925
-0.743897,0.00948188,2.394,2.50693
-0.736127,0.00948188,2.394,2.50464
-0.728357,0.00948188,2.394,2.50236
-0.720586,0.00948188,2.394,2.50011
-0.712816,0.00948188,2.394,2.49789
-0.710052,0.00954921,2.411,2.5134
-0.702227,0.00954921,2.411,2.5112
-0.694401,0.00954921,2.411,2.50902
-0.691417,0.00961654,2.428,2.52455
-0.683536,0.00961654,2.428,2.5224
-0.675655,0.00961654,2.428,2.52028
-0.667775,0.00961654,2.428,2.51817
-0.664514,0.00968387,2.445,2.53371
-0.656578,0.00968387,2.445,2.53164
-0.648643,0.00968387,2.445,2.5296
-0.645424,0.00975517,2.463,2.54618
-0.637429,0.00975517,2.463,2.54417
-0.629435,0.00975517,2.463,2.54217
-0.621441,0.00975517,2.463,2.54021
-0.613446,0.00975517,2.463,2.53826
-0.605452,0.00975517,2.463,2.53634
-0.597458,0.00975517,2.463,2.53445
-0.593771,0.00982646,2.481,2.55108
-0.585719,0.00982646,2.481,2.54922
-0.577666,0.00982646,2.481,2.54738
-0.569613,0.00982646,2.481,2.54557
-0.561561,0.00982646,2.481,2.54378
-0.553508,0.00982646,2.481,2.54201
-0.545455,0.00982646,2.481,2.54027
-0.537403,0.00982646,2.481,2.53855
-0.52935,0.00982646,2.481,2.53686
-0.521297,0.00982646,2.481,2.53519
-0.513244,0.00982646,2.481,2.53355
-0.505192,0.00982646,2.481,2.53193
-0.493532,0.00975517,2.463,2.51198
-0.485538,0.00975517,2.463,2.51042
-0.477544,0.00975517,2.463,2.50889
-0.469549,0.00975517,2.463,2.50738
-0.464928,0.00982646,2.481,2.52421
-0.456875,0.00982646,2.481,2.52274
-0.448823,0.00982646,2.481,2.52129
-0.44077,0.00982646,2.481,2.51987
-0.432717,0.00982646,2.481,2.51847
-0.424665,0.00982646,2.481,2.5171
-0.416612,0.00982646,2.481,2.51576
-0.411523,0.00989775,2.499,2.53268
-0.403412,0.00989775,2.499,2.53137
-0.395301,0.00989775,2.499,2.53009
-0.38719,0.00989775,2.499,2.52884
-0.379079,0.00989775,2.499,2.52761
-0.370968,0.00989775,2.499,2.5264
-0.36547,0.00996904,2.517,2.54341
-0.357301,0.00996904,2.517,2.54225
-0.349131,0.00996904,2.517,2.54112
-0.340961,0.00996904,2.517,2.54001
-0.332792,0.00996904,2.517,2.53892
-0.324622,0.00996904,2.517,2.53787
-0.31419,0.00989775,2.499,2.51869
-0.306079,0.00989775,2.499,2.51769
-0.297967,0.00989775,2.499,2.51672
-0.291944,0.00996904,2.517,2.53389
-0.283775,0.00996904,2.517,2.53297
-0.277685,0.0100443,2.536,2.55118
-0.269454,0.0100443,2.536,2.55029
-0.261223,0.0100443,2.536,2.54944
-0.252992,0.0100443,2.536,2.54861
-0.244761,0.0100443,2.536,2.5478
-0.236529,0.0100443,2.536,2.54703
-0.228298,0.0100443,2.536,2.54628
-0.220067,0.0100443,2.536,2.54555
-0.211836,0.0100443,2.536,2.54485
-0.203604,0.0100443,2.536,2.54418
-0.195373,0.0100443,2.536,2.54353
-0.187142,0.0100443,2.536,2.54292
-0.178911,0.0100443,2.536,2.54232
-0.170679,0.0100443,2.536,2.54176
-0.162448,0.0100443,2.536,2.54122
-0.154217,0.0100443,2.536,2.5407
-0.145986,0.0100443,2.536,2.54022
-0.137755,0.0100443,2.536,2.53976
-0.129523,0.0100443,2.536,2.53933
-0.121292,0.0100443,2.536,2.53892
-0.113061,0.0100443,2.536,2.53854
-0.10483,0.0100443,2.536,2.53819
-0.0973222,0.0101195,2.555,2.55687
-0.0890293,0.0101195,2.555,2.55657
-0.0807364,0.0101195,2.555,2.5563
-0.0729822,0.0101948,2.574,2.57505
-0.0646277,0.0101948,2.574,2.57483
-0.0562731,0.0101948,2.574,2.57464
-0.0475648,0.0101195,2.555,2.55546
-0.0392719,0.0101195,2.555,2.55532
-0.030979,0.0101195,2.555,2.55521
-0.0226861,0.0101195,2.555,2.55512
-0.0143932,0.0101195,2.555,2.55506
-0.00610034,0.0101195,2.555,2.55503
0.00219255,0.0101195,2.555,2.55502
0.0104854,0.0101195,2.555,2.55504
0.0187783,0.0101195,2.555,2.55509
0.0268699,0.0100443,2.536,2.53616
0.0351011,0.0100443,2.536,2.53626
0.0433324,0.0100443,2.536,2.53639
0.0511773,0.00996904,2.517,2.51754
0.0593468,0.00996904,2.517,2.51772
0.0680261,0.0100443,2.536,2.53693
0.075686,0.00996904,2.517,2.51816
0.0838555,0.00996904,2.517,2.51842
0.0927197,0.0100443,2.536,2.53771
0.100951,0.0100443,2.536,2.53803
0.109182,0.0100443,2.536,2.53837
0.117413,0.0100443,2.536,2.53874
0.125645,0.0100443,2.536,2.53913
0.133876,0.0100443,2.536,2.53955
0.143172,0.0101195,2.555,2.55903
0.151465,0.0101195,2.555,2.55951
0.159758,0.0101195,2.555,2.56001
0.16805,0.0101195,2.555,2.56054
nan,nan,nan,NaN
nan,nan,nan,NaN
0.191494,0.0100443,2.536,2.54324
0.199726,0.0100443,2.536,2.54387
0.207957,0.0100443,2.536,2.54453
0.216188,0.0100443,2.536,2.54522
0.226101,0.0101195,2.555,2.565
0.234394,0.0101195,2.555,2.56575
0.242687,0.0101195,2.555,2.56652
0.249113,0.0100443,2.536,2.54823
0.257344,0.0100443,2.536,2.54904
0.265575,0.0100443,2.536,2.54989
0.275858,0.0101195,2.555,2.56987
0.284151,0.0101195,2.555,2.57077
0.292444,0.0101195,2.555,2.5717
nan,nan,nan,NaN
nan,nan,nan,NaN
nan,nan,nan,NaN
nan,nan,nan,NaN
nan,nan,nan,NaN
nan,nan,nan,NaN
nan,nan,nan,NaN
nan,nan,nan,NaN
nan,nan,nan,NaN
nan,nan,nan,NaN
nan,nan,nan,NaN
nan,nan,nan,NaN
nan,nan,nan,NaN
nan,nan,nan,NaN
nan,nan,nan,NaN
nan,nan,nan,NaN
nan,nan,nan,NaN
nan,nan,nan,NaN
nan,nan,nan,NaN
nan,nan,nan,NaN
nan,nan,nan,NaN
nan,nan,nan,NaN
nan,nan,nan,NaN
nan,nan,nan,NaN
nan,nan,nan,NaN
nan,nan,nan,NaN
nan,nan,nan,NaN
nan,nan,nan,NaN
nan,nan,nan,NaN
nan,nan,nan,NaN
nan,nan,nan,NaN
nan,nan,nan,NaN
nan,nan,nan,NaN
nan,nan,nan,NaN
nan,nan,nan,NaN
nan,nan,nan,NaN
nan,nan,nan,NaN
nan,nan,nan,NaN
nan,nan,nan,NaN
nan,nan,nan,NaN
0.618591,0.00989775,2.499,2.57444
0.626702,0.00989775,2.499,2.5764
0.634813,0.00989775,2.499,2.57839
0.647555,0.00996904,2.517,2.59898
nan,nan,nan,NaN
0.663894,0.00996904,2.517,2.6031
0.672064,0.00996904,2.517,2.6052
0.680233,0.00996904,2.517,2.60732
0.688403,0.00996904,2.517,2.60946
0.696572,0.00996904,2.517,2.61163
0.704742,0.00996904,2.517,2.61382
0.712911,0.00996904,2.517,2.61603
0.715924,0.00989775,2.499,2.59955
0.724035,0.00989775,2.499,2.60179
0.732147,0.00989775,2.499,2.60406
0.740258,0.00989775,2.499,2.60635
0.753759,0.00996904,2.517,2.62746
0.761929,0.00996904,2.517,2.62981
0.770098,0.00996904,2.517,2.63219
0.778268,0.00996904,2.517,2.63459
0.786437,0.00996904,2.517,2.63702
0.794607,0.00996904,2.517,2.63947
0.802777,0.00996904,2.517,2.64194
0.810946,0.00996904,2.517,2.64443
0.825299,0.0100443,2.536,2.66693
0.83353,0.0100443,2.536,2.66949
0.841761,0.0100443,2.536,2.67207
0.849993,0.0100443,2.536,2.67467
0.858224,0.0100443,2.536,2.6773
0.859963,0.00996904,2.517,2.65987
0.868133,0.00996904,2.517,2.66253
0.876303,0.00996904,2.517,2.6652
0.878147,0.00989775,2.499,2.64882
0.886258,0.00989775,2.499,2.65152
0.894369,0.00989775,2.499,2.65424
0.89598,0.00982646,2.481,2.63785
0.897474,0.00975517,2.463,2.62144
0.905468,0.00975517,2.463,2.62418
0.913462,0.00975517,2.463,2.62695
0.914722,0.00968387,2.445,2.61052
0.922658,0.00968387,2.445,2.61332
0.924124,0.00961654,2.428,2.59794
0.932004,0.00961654,2.428,2.60075
0.939885,0.00961654,2.428,2.60359
0.94113,0.00954921,2.411,2.58819
0.948955,0.00954921,2.411,2.59105
0.956781,0.00954921,2.411,2.59392
0.964606,0.00954921,2.411,2.59682
0.972432,0.00954921,2.411,2.59974
0.980257,0.00954921,2.411,2.60267
0.99505,0.00961654,2.428,2.624
1.00293,0.00961654,2.428,2.627
1.01081,0.00961654,2.428,2.63002
1.01869,0.00961654,2.428,2.63306
1.02657,0.00961654,2.428,2.63612
1.03445,0.00961654,2.428,2.6392
1.04963,0.00968387,2.445,2.6608
1.05757,0.00968387,2.445,2.66394
1.07335,0.00975517,2.463,2.68673
1.08924,0.00982646,2.481,2.7096
1.0973,0.00982646,2.481,2.71284
1.11337,0.00989775,2.499,2.73582
1.13809,0.0100443,2.536,2.77968
1.1549,0.0101195,2.555,2.80391
1.1632,0.0101195,2.555,2.80734
1.18891,0.0102701,2.593,2.85259
1.20657,0.0103493,2.613,2.87814
1.21505,0.0103493,2.613,2.8817
1.23289,0.0104285,2.633,2.90737
1.24144,0.0104285,2.633,2.91101
1.24998,0.0104285,2.633,2.91466
1.26857,0.0105117,2.654,2.94161
1.28729,0.0105948,2.675,2.96864
1.30614,0.010678,2.696,2.99575
1.3149,0.010678,2.696,2.99958
1.33396,0.0107612,2.717,3.02682
1.35365,0.0108483,2.739,3.05526
1.36254,0.0108483,2.739,3.05921
1.38244,0.0109355,2.761,3.08778
1.40249,0.0110226,2.783,3.11644
1.41152,0.0110226,2.783,3.12051
1.44404,0.0112048,2.829,3.17626
1.47788,0.0113949,2.877,3.23441
1.51254,0.011589,2.926,3.29384
1.52204,0.011589,2.926,3.29822
1.54462,0.011688,2.951,3.33083
1.5679,0.011791,2.977,3.36466
1.57756,0.011791,2.977,3.36918
1.58722,0.011791,2.977,3.37371
1.62531,0.0120009,3.03,3.43841
1.63515,0.0120009,3.03,3.44307
1.64498,0.0120009,3.03,3.44775
1.65482,0.0120009,3.03,3.45246
1.66465,0.0120009,3.03,3.45718
1.67449,0.0120009,3.03,3.46193
1.68432,0.0120009,3.03,3.4667
1.69416,0.0120009,3.03,3.47149
1.70399,0.0120009,3.03,3.4763
1.69855,0.0118939,3.003,3.45011
1.7083,0.0118939,3.003,3.45492
1.70317,0.011791,2.977,3.42979
1.71284,0.011791,2.977,3.4346
1.7225,0.011791,2.977,3.43943
1.71703,0.011688,2.951,3.4142
1.72661,0.011688,2.951,3.41902
1.72148,0.011589,2.926,3.39486
1.73098,0.011589,2.926,3.39969
1.74047,0.011589,2.926,3.40454
1.73502,0.0114899,2.901,3.38027
1.74444,0.0114899,2.901,3.38511
1.75385,0.0114899,2.901,3.38997
1.76327,0.0114899,2.901,3.39486
1.77268,0.0114899,2.901,3.39976
1.7821,0.0114899,2.901,3.40468
1.77669,0.0113949,2.877,3.38141
1.78603,0.0113949,2.877,3.38632
1.79537,0.0113949,2.877,3.39126
1.78965,0.0112998,2.853,3.36788
1.79891,0.0112998,2.853,3.37281
1.77839,0.0111137,2.806,3.32211
1.77284,0.0110226,2.783,3.29972
1.7537,0.0108483,2.739,3.25234
1.76259,0.0108483,2.739,3.25714
1.75725,0.0107612,2.717,3.23576
1.73877,0.0105948,2.675,3.19047
1.74746,0.0105948,2.675,3.19521
1.74235,0.0105117,2.654,3.17484
1.72392,0.0103493,2.613,3.13046
1.7324,0.0103493,2.613,3.13514
1.72755,0.0102701,2.593,3.1158
1.71053,0.0101195,2.555,3.07474
1.71882,0.0101195,2.555,3.07936
1.71427,0.0100443,2.536,3.06107
1.7096,0.00996904,2.517,3.04271
-1.93066,0.020053,2.783,3.38717
-1.90643,0.0198944,2.761,3.3553
-1.89747,0.0198944,2.761,3.35021
-1.85842,0.0195774,2.717,3.29184
-1.8496,0.0195774,2.717,3.28686
-1.84078,0.0195774,2.717,3.28191
-1.8178,0.0194261,2.696,3.25164
-1.79496,0.0192748,2.675,3.22147
-1.78628,0.0192748,2.675,3.21664
-1.77759,0.0192748,2.675,3.21183
-1.75502,0.0191235,2.654,3.18185
-1.73259,0.0189721,2.633,3.15197
-1.72405,0.0189721,2.633,3.14728
-1.7155,0.0189721,2.633,3.14261
-1.70695,0.0189721,2.633,3.13795
-1.69841,0.0189721,2.633,3.13331
-1.67703,0.018828,2.613,3.10492
-1.66854,0.018828,2.613,3.10035
-1.66006,0.018828,2.613,3.09579
