-1.7231,0.136478,2.593,3.11631
-1.71469,0.136478,2.593,3.11166
-1.69377,0.135478,2.574,3.08426
-1.68541,0.135478,2.574,3.07968
-1.67706,0.135478,2.574,3.07512
-1.6687,0.135478,2.574,3.07057
-1.66035,0.135478,2.574,3.06604
-1.652,0.135478,2.574,3.06152
-1.64364,0.135478,2.574,3.05702
-1.63529,0.135478,2.574,3.05254
-1.62693,0.135478,2.574,3.04807
-1.60663,0.134478,2.555,3.02115
-1.59834,0.134478,2.555,3.01675
-1.59004,0.134478,2.555,3.01237
-1.58175,0.134478,2.555,3.008
-1.57346,0.134478,2.555,3.00364
-1.56516,0.134478,2.555,2.99931
-1.55687,0.134478,2.555,2.99499
-1.54858,0.134478,2.555,2.99069
-1.54029,0.134478,2.555,2.9864
-1.5206,0.133478,2.536,2.95996
-1.51237,0.133478,2.536,2.95574
-1.50414,0.133478,2.536,2.95153
-1.49591,0.133478,2.536,2.94735
-1.47653,0.132478,2.517,2.92113
-1.46836,0.132478,2.517,2.91701
-1.46019,0.132478,2.517,2.9129
-1.45202,0.132478,2.517,2.90882
-1.44385,0.132478,2.517,2.90475
-1.43568,0.132478,2.517,2.90069
-1.42751,0.132478,2.517,2.89666
-1.41934,0.132478,2.517,2.89264
-1.41117,0.132478,2.517,2.88864
-1.403,0.132478,2.517,2.88466
-1.39483,0.132478,2.517,2.88069
-1.39713,0.133478,2.536,2.89846
-1.40971,0.135478,2.574,2.93788
-1.40136,0.135478,2.574,2.93388
-1.393,0.135478,2.574,2.9299
-1.38465,0.135478,2.574,2.92593
-1.37629,0.135478,2.574,2.92199
-1.36794,0.135478,2.574,2.91806
-1.35959,0.135478,2.574,2.91416
-1.35123,0.135478,2.574,2.91027
-1.34288,0.135478,2.574,2.9064
-1.33452,0.135478,2.574,2.90255
-1.32617,0.135478,2.574,2.89872
-1.31781,0.135478,2.574,2.8949
-1.30946,0.135478,2.574,2.89111
-1.3011,0.135478,2.574,2.88733
-1.29275,0.135478,2.574,2.88358
-1.28439,0.135478,2.574,2.87984
-1.28546,0.136478,2.593,2.89736
-1.26769,0.135478,2.574,2.87243
-1.25003,0.134478,2.555,2.84758
-1.24174,0.134478,2.555,2.84395
-1.23345,0.134478,2.555,2.84034
-1.21605,0.133478,2.536,2.81565
-1.20781,0.133478,2.536,2.8121
-1.19958,0.133478,2.536,2.80858
-1.18243,0.132478,2.517,2.78406
-1.16586,0.13153,2.499,2.76071
-1.15775,0.13153,2.499,2.7573
-1.14964,0.13153,2.499,2.7539
-1.1333,0.130583,2.481,2.73071
-1.12525,0.130583,2.481,2.72738
-1.10909,0.129636,2.463,2.7043
-1.09305,0.128688,2.445,2.6813
-1.08512,0.128688,2.445,2.67807
-1.07718,0.128688,2.445,2.67486
-1.06181,0.127793,2.428,2.6531
-1.04655,0.126899,2.411,2.6314
-1.03872,0.126899,2.411,2.6283
-1.0309,0.126899,2.411,2.62522
-1.02307,0.126899,2.411,2.62216
-1.01525,0.126899,2.411,2.61911
-1.00742,0.126899,2.411,2.61609
-0.999596,0.126899,2.411,2.61309
-0.99177,0.126899,2.411,2.6101
-0.983945,0.126899,2.411,2.60714
-0.976119,0.126899,2.411,2.6042
-0.961466,0.126004,2.394,2.58293
-0.953696,0.126004,2.394,2.58005
-0.945926,0.126004,2.394,2.57719
-0.938156,0.126004,2.394,2.57434
-0.930385,0.126004,2.394,2.57152
-0.922615,0.126004,2.394,2.56872
-0.914845,0.126004,2.394,2.56594
-0.913515,0.126899,2.411,2.58138
-0.90569,0.126899,2.411,2.57862
-0.897864,0.126899,2.411,2.57589
-0.890039,0.126899,2.411,2.57317
-0.882213,0.126899,2.411,2.57047
-0.874388,0.126899,2.411,2.5678
-0.866562,0.126899,2.411,2.56514
-0.858737,0.126899,2.411,2.56251
-0.850911,0.126899,2.411,2.5599
-0.84903,0.127793,2.428,2.57534
-0.84115,0.127793,2.428,2.57275
-0.833269,0.127793,2.428,2.57019
-0.825388,0.127793,2.428,2.56764
-0.823232,0.128688,2.445,2.58308
-0.815296,0.128688,2.445,2.58056
-0.80736,0.128688,2.445,2.57806
-0.799424,0.128688,2.445,2.57559
-0.791488,0.128688,2.445,2.57314
-0.783552,0.128688,2.445,2.57071
-0.781326,0.129636,2.463,2.58721
-0.773332,0.129636,2.463,2.58481
-0.765338,0.129636,2.463,2.58242
-0.757344,0.129636,2.463,2.58007
-0.749349,0.129636,2.463,2.57773
-0.741355,0.129636,2.463,2.57542
-0.733361,0.129636,2.463,2.57313
-0.725366,0.129636,2.463,2.57086
-0.717372,0.129636,2.463,2.56862
-0.709378,0.129636,2.463,2.5664
-0.701384,0.129636,2.463,2.5642
-0.698457,0.130583,2.481,2.58075
-0.690404,0.130583,2.481,2.57858
-0.682351,0.130583,2.481,2.57644
-0.674299,0.130583,2.481,2.57431
-0.661412,0.129636,2.463,2.55355
-0.653418,0.129636,2.463,2.5515
-0.645424,0.129636,2.463,2.54946
-0.637429,0.129636,2.463,2.54745
-0.629435,0.129636,2.463,2.54546
-0.621441,0.129636,2.463,2.54349
-0.61793,0.130583,2.481,2.56013
-0.609877,0.130583,2.481,2.5582
-0.601824,0.130583,2.481,2.55629
-0.593771,0.130583,2.481,2.5544
-0.585719,0.130583,2.481,2.55254
-0.577666,0.130583,2.481,2.55071
-0.569613,0.130583,2.481,2.5489
-0.561561,0.130583,2.481,2.54711
-0.553508,0.130583,2.481,2.54535
-0.545455,0.130583,2.481,2.54361
-0.541301,0.13153,2.499,2.56033
-0.53319,0.13153,2.499,2.55863
-0.525079,0.13153,2.499,2.55695
-0.516968,0.13153,2.499,2.5553
-0.508857,0.13153,2.499,2.55367
-0.500746,0.13153,2.499,2.55207
-0.492635,0.13153,2.499,2.55049
-0.484524,0.13153,2.499,2.54893
-0.476412,0.13153,2.499,2.5474
-0.471674,0.132478,2.517,2.56424
-0.463505,0.132478,2.517,2.56275
-0.452079,0.13153,2.499,2.54297
-0.443968,0.13153,2.499,2.54154
-0.435857,0.13153,2.499,2.54013
-0.427746,0.13153,2.499,2.53875
-0.422657,0.132478,2.517,2.55568
-0.414487,0.132478,2.517,2.55434
-0.406318,0.132478,2.517,2.55302
-0.398148,0.132478,2.517,2.55174
-0.389979,0.132478,2.517,2.55048
-0.384691,0.133478,2.536,2.56848
-0.37364,0.132478,2.517,2.54803
-0.36547,0.132478,2.517,2.54684
-0.359998,0.133478,2.536,2.5649
-0.351766,0.133478,2.536,2.56376
-0.346109,0.134478,2.555,2.58184
-0.337816,0.134478,2.555,2.58074
-0.329523,0.134478,2.555,2.57967
-0.32123,0.134478,2.555,2.57862
-0.312937,0.134478,2.555,2.5776
-0.304645,0.134478,2.555,2.57661
-0.296352,0.134478,2.555,2.57564
-0.288059,0.134478,2.555,2.5747
-0.279766,0.134478,2.555,2.57379
-0.271473,0.134478,2.555,2.5729
-0.26318,0.134478,2.555,2.57204
-0.254887,0.134478,2.555,2.5712
-0.246594,0.134478,2.555,2.57039
-0.238301,0.134478,2.555,2.56961
-0.231719,0.135478,2.574,2.58796
-0.223364,0.135478,2.574,2.58722
-0.21501,0.135478,2.574,2.58651
-0.206655,0.135478,2.574,2.58583
-0.198301,0.135478,2.574,2.58518
-0.189946,0.135478,2.574,2.58455
-0.181592,0.135478,2.574,2.58395
-0.173237,0.135478,2.574,2.58338
-0.164882,0.135478,2.574,2.58283
-0.155372,0.134478,2.555,2.56325
-0.14708,0.134478,2.555,2.56276
-0.137755,0.133478,2.536,2.54324
-0.129523,0.133478,2.536,2.54281
-0.121292,0.133478,2.536,2.54241
-0.113061,0.133478,2.536,2.54203
-0.10483,0.133478,2.536,2.54167
-0.0965985,0.133478,2.536,2.54135
-0.0883672,0.133478,2.536,2.54105
-0.080136,0.133478,2.536,2.54077
-0.0719048,0.133478,2.536,2.54053
-0.0636736,0.133478,2.536,2.54031
-0.0554423,0.133478,2.536,2.54012
-0.0468574,0.132478,2.517,2.52092
-0.0386878,0.132478,2.517,2.52078
-0.0305183,0.132478,2.517,2.52067
-0.0223487,0.132478,2.517,2.52058
-0.0141792,0.132478,2.517,2.52052
-0.00600962,0.132478,2.517,2.52049
0.00215994,0.132478,2.517,2.52049
0.0103295,0.132478,2.517,2.52051
0.0184991,0.132478,2.517,2.52055
0.0266686,0.132478,2.517,2.52063
0.0348382,0.132478,2.517,2.52072
0.0430077,0.132478,2.517,2.52085
0.0511773,0.132478,2.517,2.521
0.0593468,0.132478,2.517,2.52118
0.0675164,0.132478,2.517,2.52139
0.075686,0.132478,2.517,2.52162
0.0838555,0.132478,2.517,2.52188
0.0927197,0.133478,2.536,2.5412
0.100951,0.133478,2.536,2.54152
0.109182,0.133478,2.536,2.54186
0.116534,0.132478,2.517,2.52318
0.124703,0.132478,2.517,2.52357
0.132873,0.132478,2.517,2.52398
0.141042,0.132478,2.517,2.52443
nan,nan,nan,NaN
0.15857,0.133478,2.536,2.54446
0.166801,0.133478,2.536,2.54498
0.173721,0.132478,2.517,2.52646
0.18189,0.132478,2.517,2.52704
0.188701,0.13153,2.499,2.50956
0.196812,0.13153,2.499,2.51019
0.204923,0.13153,2.499,2.51084
0.2115,0.130583,2.481,2.49342
0.219552,0.130583,2.481,2.49412
nan,nan,nan,NaN
nan,nan,nan,NaN
nan,nan,nan,NaN
nan,nan,nan,NaN
nan,nan,nan,NaN
nan,nan,nan,NaN
nan,nan,nan,NaN
nan,nan,nan,NaN
nan,nan,nan,NaN
nan,nan,nan,NaN
nan,nan,nan,NaN
nan,nan,nan,NaN
nan,nan,nan,NaN
nan,nan,nan,NaN
nan,nan,nan,NaN
nan,nan,nan,NaN
nan,nan,nan,NaN
nan,nan,nan,NaN
nan,nan,nan,NaN
nan,nan,nan,NaN
nan,nan,nan,NaN
nan,nan,nan,NaN
nan,nan,nan,NaN
nan,nan,nan,NaN
nan,nan,nan,NaN
nan,nan,nan,NaN
nan,nan,nan,NaN
0.432472,0.126899,2.411,2.45276
0.440297,0.126899,2.411,2.45416
0.448123,0.126899,2.411,2.45557
0.455948,0.126899,2.411,2.45701
0.463774,0.126899,2.411,2.45848
0.468274,0.126004,2.394,2.44262
0.476045,0.126004,2.394,2.44412
0.483815,0.126004,2.394,2.44565
0.491585,0.126004,2.394,2.4472
0.499355,0.126004,2.394,2.44877
0.503525,0.125109,2.377,2.43297
0.51124,0.125109,2.377,2.43457
0.518955,0.125109,2.377,2.43621
0.52667,0.125109,2.377,2.43786
0.534385,0.125109,2.377,2.43954
0.5421,0.125109,2.377,2.44124
0.546115,0.124267,2.361,2.42652
0.553778,0.124267,2.361,2.42826
0.553832,0.122583,2.329,2.39708
0.561391,0.122583,2.329,2.39884
0.561377,0.120951,2.298,2.36867
0.564875,0.120109,2.282,2.35394
0.572282,0.120109,2.282,2.35573
0.575879,0.11932,2.267,2.34204
0.579378,0.11853,2.252,2.32835
0.586687,0.11853,2.252,2.33018
0.593997,0.11853,2.252,2.33203
0.601306,0.11853,2.252,2.33391
0.608615,0.11853,2.252,2.3358
0.615925,0.11853,2.252,2.33772
0.623234,0.11853,2.252,2.33965
0.638943,0.120109,2.282,2.3728
0.64635,0.120109,2.282,2.37481
0.662638,0.121741,2.313,2.40912
0.684053,0.124267,2.361,2.46124
0.691716,0.124267,2.361,2.46338
0.699379,0.124267,2.361,2.46554
0.722016,0.126899,2.411,2.51999
0.734987,0.127793,2.428,2.54002
0.742868,0.127793,2.428,2.54232
0.756005,0.128688,2.445,2.56245
0.769565,0.129636,2.463,2.58368
0.777559,0.129636,2.463,2.58607
0.785554,0.129636,2.463,2.58849
0.799347,0.130583,2.481,2.60986
0.8074,0.130583,2.481,2.61234
0.815453,0.130583,2.481,2.61484
0.82948,0.13153,2.499,2.63635
0.837591,0.13153,2.499,2.63891
0.845702,0.13153,2.499,2.6415
0.853814,0.13153,2.499,2.64411
0.861925,0.13153,2.499,2.64674
0.863769,0.130583,2.481,2.63031
0.871822,0.130583,2.481,2.63296
0.879874,0.130583,2.481,2.63564
0.887927,0.130583,2.481,2.63834
0.889479,0.129636,2.463,2.6219
0.897474,0.129636,2.463,2.62462
0.905468,0.129636,2.463,2.62736
0.913462,0.129636,2.463,2.63013
0.914722,0.128688,2.445,2.61368
0.922658,0.128688,2.445,2.61646
0.930594,0.128688,2.445,2.61927
0.93853,0.128688,2.445,2.6221
0.946466,0.128688,2.445,2.62495
0.954402,0.128688,2.445,2.62783
0.955646,0.127793,2.428,2.61243
0.963527,0.127793,2.428,2.61532
0.971408,0.127793,2.428,2.61823
0.979289,0.127793,2.428,2.62117
0.987169,0.127793,2.428,2.62412
0.99505,0.127793,2.428,2.6271
1.00293,0.127793,2.428,2.63009
1.01081,0.127793,2.428,2.63311
1.02582,0.128688,2.445,2.6546
1.03376,0.128688,2.445,2.65768
1.0417,0.128688,2.445,2.66077
1.05736,0.129636,2.463,2.6835
1.06535,0.129636,2.463,2.68666
1.08119,0.130583,2.481,2.7095
1.09715,0.13153,2.499,2.7324
1.10526,0.13153,2.499,2.73567
1.11337,0.13153,2.499,2.73896
1.12148,0.13153,2.499,2.74227
1.13773,0.132478,2.517,2.76537
1.1459,0.132478,2.517,2.76874
1.15407,0.132478,2.517,2.77213
1.17101,0.133478,2.536,2.79649
1.17924,0.133478,2.536,2.79995
1.19637,0.134478,2.555,2.82443
1.20466,0.134478,2.555,2.82795
1.21296,0.134478,2.555,2.8315
1.22125,0.134478,2.555,2.83506
1.22954,0.134478,2.555,2.83864
1.23783,0.134478,2.555,2.84224
1.23686,0.133478,2.536,2.8247
1.24509,0.133478,2.536,2.82831
1.25332,0.133478,2.536,2.83195
1.26155,0.133478,2.536,2.8356
1.26979,0.133478,2.536,2.83927
1.28759,0.134478,2.555,2.86426
1.29588,0.134478,2.555,2.868
1.31388,0.135478,2.574,2.89311
1.33199,0.136478,2.593,2.9183
1.35075,0.137531,2.613,2.94469
1.35923,0.137531,2.613,2.94859
1.38917,0.139689,2.654,2.99884
1.4199,0.141899,2.696,3.05036
1.42865,0.141899,2.696,3.05444
1.47206,0.14532,2.761,3.13228
1.50516,0.147689,2.806,3.18762
1.51427,0.147689,2.806,3.19194
1.54889,0.150163,2.853,3.2498
1.57126,0.151426,2.877,3.2816
1.60752,0.154005,2.926,3.34205
1.61701,0.154005,2.926,3.34663
1.65486,0.156689,2.977,3.40964
1.67906,0.158058,3.003,3.44416
1.68881,0.158058,3.003,3.44892
1.69855,0.158058,3.003,3.4537
1.7083,0.158058,3.003,3.45851
1.71805,0.158058,3.003,3.46333
1.72779,0.158058,3.003,3.46818
1.7225,0.156689,2.977,3.44298
1.73216,0.156689,2.977,3.44782
1.72661,0.155321,2.951,3.42253
1.72148,0.154005,2.926,3.39834
1.73098,0.154005,2.926,3.40316
1.7256,0.152689,2.901,3.37888
1.72067,0.151426,2.877,3.3557
1.73,0.151426,2.877,3.3605
1.72483,0.150163,2.853,3.33725
1.7195,0.148899,2.829,3.31393
1.72869,0.148899,2.829,3.3187
1.70961,0.146478,2.783,3.26945
1.69147,0.144162,2.739,3.22242
1.70036,0.144162,2.739,3.22709
1.69552,0.143004,2.717,3.20583
1.69117,0.141899,2.696,3.18569
1.69992,0.141899,2.696,3.19034
1.68205,0.139689,2.654,3.14524
1.66455,0.137531,2.613,3.10119
1.66022,0.136478,2.593,3.08198
1.66864,0.136478,2.593,3.08652
1.66477,0.135478,2.574,3.06843
1.66077,0.134478,2.555,3.05029
1.66906,0.134478,2.555,3.05481
1.66488,0.133478,2.536,3.0366
1.66058,0.132478,2.517,3.01834
1.66875,0.132478,2.517,3.02284
1.66493,0.13153,2.499,3.00571
1.66099,0.130583,2.481,2.98853
1.66904,0.130583,2.481,2.99301
1.66493,0.129636,2.463,2.97576
1.66069,0.128688,2.445,2.95846
-1.81272,0.146009,2.613,3.18356
-1.80424,0.146009,2.613,3.17874
-1.79576,0.146009,2.613,3.17393
-1.7736,0.144892,2.593,3.14489
-1.76518,0.144892,2.593,3.14015
-1.75677,0.144892,2.593,3.13542
-1.74835,0.144892,2.593,3.13071
-1.73994,0.144892,2.593,3.12602
-1.73152,0.144892,2.593,3.12135
-1.7231,0.144892,2.593,3.11669
-1.71469,0.144892,2.593,3.11204
-1.70627,0.144892,2.593,3.10741
-1.69785,0.144892,2.593,3.1028
-1.68944,0.144892,2.593,3.0982
-1.68102,0.144892,2.593,3.09362
-1.67261,0.144892,2.593,3.08905
-1.652,0.14383,2.574,3.0619
-1.64364,0.14383,2.574,3.0574
-1.63529,0.14383,2.574,3.05292
-1.62693,0.14383,2.574,3.04845
-1.61858,0.14383,2.574,3.044
-1.61022,0.14383,2.574,3.03957
-1.60187,0.14383,2.574,3.03515
-1.58175,0.142768,2.555,3.00838
-1.57346,0.142768,2.555,3.00403
-1.56516,0.142768,2.555,2.99969
-1.55687,0.142768,2.555,2.99537
-1.54858,0.142768,2.555,2.99107
-1.54029,0.142768,2.555,2.98679
-1.5206,0.141707,2.536,2.96034
-1.51237,0.141707,2.536,2.95612
-1.50414,0.141707,2.536,2.95192
-1.49591,0.141707,2.536,2.94773
-1.47653,0.140645,2.517,2.92151
-1.46836,0.140645,2.517,2.91739
-1.46019,0.140645,2.517,2.91328
-1.45202,0.140645,2.517,2.9092
-1.44385,0.140645,2.517,2.90513
-1.43568,0.140645,2.517,2.90108
-1.42751,0.140645,2.517,2.89704
-1.41934,0.140645,2.517,2.89303
-1.41117,0.140645,2.517,2.88903
-1.403,0.140645,2.517,2.88505
-1.39483,0.140645,2.517,2.88108
-1.39713,0.141707,2.536,2.89885
-1.3889,0.141707,2.536,2.8949
-1.38067,0.141707,2.536,2.89096
-1.38272,0.142768,2.555,2.90866
-1.37443,0.142768,2.555,2.90473
-1.36614,0.142768,2.555,2.90082
-1.35784,0.142768,2.555,2.89692
-1.35959,0.14383,2.574,2.91456
-1.35123,0.14383,2.574,2.91067
-1.34288,0.14383,2.574,2.9068
-1.33452,0.14383,2.574,2.90295
-1.32617,0.14383,2.574,2.89912
-1.31781,0.14383,2.574,2.89531
-1.30946,0.14383,2.574,2.89151
-1.3011,0.14383,2.574,2.88774
-1.29275,0.14383,2.574,2.88398
-1.28439,0.14383,2.574,2.88025
-1.28546,0.144892,2.593,2.89777
-1.26769,0.14383,2.574,2.87284
-1.25003,0.142768,2.555,2.84798
-1.24174,0.142768,2.555,2.84435
-1.23345,0.142768,2.555,2.84074
-1.21605,0.141707,2.536,2.81605
-1.20781,0.141707,2.536,2.81251
-1.19958,0.141707,2.536,2.80898
-1.18243,0.140645,2.517,2.78446
-1.16586,0.139639,2.499,2.76111
-1.15775,0.139639,2.499,2.75769
-1.14964,0.139639,2.499,2.7543
-1.1333,0.138633,2.481,2.73111
-1.12525,0.138633,2.481,2.72778
-1.10909,0.137628,2.463,2.7047
-1.09305,0.136622,2.445,2.68169
-1.08512,0.136622,2.445,2.67846
-1.07718,0.136622,2.445,2.67526
-1.06181,0.135672,2.428,2.65349
-1.04655,0.134722,2.411,2.63179
-1.03872,0.134722,2.411,2.62869
-1.0309,0.134722,2.411,2.62561
-1.02307,0.134722,2.411,2.62255
-1.01525,0.134722,2.411,2.6195
-1.00742,0.134722,2.411,2.61648
-0.999596,0.134722,2.411,2.61348
-0.99177,0.134722,2.411,2.61049
-0.983945,0.134722,2.411,2.60753
-0.976119,0.134722,2.411,2.60459
-0.961466,0.133772,2.394,2.58332
-0.953696,0.133772,2.394,2.58044
-0.945926,0.133772,2.394,2.57758
-0.938156,0.133772,2.394,2.57474
-0.930385,0.133772,2.394,2.57192
-0.922615,0.133772,2.394,2.56911
-0.914845,0.133772,2.394,2.56633
-0.913515,0.134722,2.411,2.58178
-0.90569,0.134722,2.411,2.57902
-0.897864,0.134722,2.411,2.57628
-0.890039,0.134722,2.411,2.57357
-0.882213,0.134722,2.411,2.57087
-0.874388,0.134722,2.411,2.56819
-0.872672,0.135672,2.428,2.58363
-0.864792,0.135672,2.428,2.58098
-0.856911,0.135672,2.428,2.57835
-0.84903,0.135672,2.428,2.57574
-0.84115,0.135672,2.428,2.57315
-0.833269,0.135672,2.428,2.57059
-0.831167,0.136622,2.445,2.58603
-0.823232,0.136622,2.445,2.58349
-0.821298,0.137628,2.463,2.59997
-0.813304,0.137628,2.463,2.59746
-0.805309,0.137628,2.463,2.59496
-0.797315,0.137628,2.463,2.59249
-0.789321,0.137628,2.463,2.59005
-0.781326,0.137628,2.463,2.58762
-0.773332,0.137628,2.463,2.58522
-0.765338,0.137628,2.463,2.58284
-0.762878,0.138633,2.481,2.59934
-0.754826,0.138633,2.481,2.59699
-0.746773,0.138633,2.481,2.59466
-0.73872,0.138633,2.481,2.59235
-0.730668,0.138633,2.481,2.59007
-0.722615,0.138633,2.481,2.58781
-0.714562,0.138633,2.481,2.58557
-0.706509,0.138633,2.481,2.58336
-0.698457,0.138633,2.481,2.58117
-0.690404,0.138633,2.481,2.579
-0.682351,0.138633,2.481,2.57686
-0.674299,0.138633,2.481,2.57473
-0.666246,0.138633,2.481,2.57264
-0.658193,0.138633,2.481,2.57056
-0.65014,0.138633,2.481,2.56851
-0.642088,0.138633,2.481,2.56649
-0.634035,0.138633,2.481,2.56448
-0.625982,0.138633,2.481,2.56251
-0.61793,0.138633,2.481,2.56055
-0.609877,0.138633,2.481,2.55862
-0.601824,0.138633,2.481,2.55671
-0.593771,0.138633,2.481,2.55483
-0.585719,0.138633,2.481,2.55297
-0.577666,0.138633,2.481,2.55113
-0.569613,0.138633,2.481,2.54932
-0.565635,0.139639,2.499,2.56602
-0.557524,0.139639,2.499,2.56424
-0.549413,0.139639,2.499,2.56249
-0.541301,0.139639,2.499,2.56076
-0.53319,0.139639,2.499,2.55906
-0.525079,0.139639,2.499,2.55738
-0.516968,0.139639,2.499,2.55573
-0.508857,0.139639,2.499,2.5541
-0.500746,0.139639,2.499,2.5525
-0.492635,0.139639,2.499,2.55092
-0.484524,0.139639,2.499,2.54937
-0.476412,0.139639,2.499,2.54784
-0.471674,0.140645,2.517,2.56467
-0.463505,0.140645,2.517,2.56318
-0.455335,0.140645,2.517,2.56172
-0.443968,0.139639,2.499,2.54197
-0.435857,0.139639,2.499,2.54057
-0.427746,0.139639,2.499,2.53919
-0.422657,0.140645,2.517,2.55611
-0.414487,0.140645,2.517,2.55477
-0.406318,0.140645,2.517,2.55346
-0.398148,0.140645,2.517,2.55217
-0.389979,0.140645,2.517,2.55091
-0.384691,0.141707,2.536,2.56892
-0.37364,0.140645,2.517,2.54847
-0.36547,0.140645,2.517,2.54728
-0.359998,0.141707,2.536,2.56534
-0.351766,0.141707,2.536,2.5642
-0.343535,0.141707,2.536,2.56308
-0.337816,0.142768,2.555,2.58119
-0.329523,0.142768,2.555,2.58012
-0.32123,0.142768,2.555,2.57907
-0.312937,0.142768,2.555,2.57805
-0.304645,0.142768,2.555,2.57706
-0.296352,0.142768,2.555,2.57609
-0.288059,0.142768,2.555,2.57515
-0.279766,0.142768,2.555,2.57423
-0.271473,0.142768,2.555,2.57335
-0.26318,0.142768,2.555,2.57248
-0.256783,0.14383,2.574,2.59077
-0.246594,0.142768,2.555,2.57084
-0.238301,0.142768,2.555,2.57006
-0.231719,0.14383,2.574,2.58841
-0.223364,0.14383,2.574,2.58767
-0.21501,0.14383,2.574,2.58697
-0.206655,0.14383,2.574,2.58629
-0.198301,0.14383,2.574,2.58563
-0.189946,0.14383,2.574,2.585
-0.181592,0.14383,2.574,2.5844
-0.173237,0.14383,2.574,2.58383
-0.164882,0.14383,2.574,2.58328
-0.155372,0.142768,2.555,2.5637
-0.14708,0.142768,2.555,2.56321
-0.138787,0.142768,2.555,2.56275
-0.130494,0.142768,2.555,2.56231
-0.122201,0.142768,2.555,2.5619
-0.113908,0.142768,2.555,2.56152
-0.105615,0.142768,2.555,2.56116
-0.0973222,0.142768,2.555,2.56084
-0.0890293,0.142768,2.555,2.56053
-0.0807364,0.142768,2.555,2.56026
-0.0719048,0.141707,2.536,2.54097
-0.0636736,0.141707,2.536,2.54075
-0.0554423,0.141707,2.536,2.54056
-0.0472111,0.141707,2.536,2.54039
-0.0389799,0.141707,2.536,2.54026
-0.0307487,0.141707,2.536,2.54014
-0.0225174,0.141707,2.536,2.54006
-0.0141792,0.140645,2.517,2.52097
-0.00600962,0.140645,2.517,2.52093
0.00215994,0.140645,2.517,2.52093
0.0103295,0.140645,2.517,2.52095
0.0184991,0.140645,2.517,2.52099
0.0266686,0.140645,2.517,2.52107
0.0348382,0.140645,2.517,2.52117
0.0430077,0.140645,2.517,2.52129
0.0511773,0.140645,2.517,2.52145
0.0593468,0.140645,2.517,2.52163
0.0675164,0.140645,2.517,2.52183
0.075686,0.140645,2.517,2.52206
0.0838555,0.140645,2.517,2.52232
0.0927197,0.141707,2.536,2.54165
0.100951,0.141707,2.536,2.54196
0.109182,0.141707,2.536,2.5423
0.116534,0.140645,2.517,2.52362
0.124703,0.140645,2.517,2.52401
0.132873,0.140645,2.517,2.52443
0.141042,0.140645,2.517,2.52487
0.150338,0.141707,2.536,2.5444
0.157382,0.140645,2.517,2.52583
0.165551,0.140645,2.517,2.52636
0.173721,0.140645,2.517,2.52691
0.18189,0.140645,2.517,2.52748
0.188701,0.139639,2.499,2.51
0.195394,0.138633,2.481,2.49254
0.203447,0.138633,2.481,2.49319
0.2115,0.138633,2.481,2.49386
0.219552,0.138633,2.481,2.49455
nan,nan,nan,NaN
nan,nan,nan,NaN
nan,nan,nan,NaN
nan,nan,nan,NaN
nan,nan,nan,NaN
nan,nan,nan,NaN
nan,nan,nan,NaN
nan,nan,nan,NaN
nan,nan,nan,NaN
nan,nan,nan,NaN
nan,nan,nan,NaN
nan,nan,nan,NaN
nan,nan,nan,NaN
nan,nan,nan,NaN
nan,nan,nan,NaN
nan,nan,nan,NaN
nan,nan,nan,NaN
nan,nan,nan,NaN
nan,nan,nan,NaN
nan,nan,nan,NaN
nan,nan,nan,NaN
nan,nan,nan,NaN
nan,nan,nan,NaN
nan,nan,nan,NaN
nan,nan,nan,NaN
nan,nan,nan,NaN
nan,nan,nan,NaN
0.432472,0.134722,2.411,2.45318
0.437193,0.133772,2.394,2.43727
0.444963,0.133772,2.394,2.43867
0.452734,0.133772,2.394,2.4401
0.460504,0.133772,2.394,2.44156
0.468274,0.133772,2.394,2.44303
0.476045,0.133772,2.394,2.44453
0.483815,0.133772,2.394,2.44606
0.488094,0.132822,2.377,2.43023
0.49581,0.132822,2.377,2.43179
0.503525,0.132822,2.377,2.43337
0.507799,0.131928,2.361,2.41859
0.515462,0.131928,2.361,2.42021
0.523125,0.131928,2.361,2.42186
0.534385,0.132822,2.377,2.43995
0.5421,0.132822,2.377,2.44165
0.546115,0.131928,2.361,2.42693
0.550025,0.131034,2.345,2.4122
0.553832,0.13014,2.329,2.39748
0.561391,0.13014,2.329,2.39924
0.561377,0.128408,2.298,2.36906
0.564875,0.127514,2.282,2.35433
0.572282,0.127514,2.282,2.35612
0.572068,0.125837,2.252,2.32693
0.575519,0.124999,2.237,2.31323
0.582779,0.124999,2.237,2.31504
0.586347,0.124217,2.223,2.30238
0.593563,0.124217,2.223,2.30423
0.600778,0.124217,2.223,2.3061
0.607993,0.124217,2.223,2.30799
0.615209,0.124217,2.223,2.3099
0.626344,0.124999,2.237,2.32639
0.633605,0.124999,2.237,2.32836
0.64946,0.126676,2.267,2.3616
0.6658,0.128408,2.298,2.39595
0.682341,0.13014,2.329,2.43038
0.6899,0.13014,2.329,2.43252
0.707042,0.131928,2.361,2.46812
0.724695,0.133772,2.394,2.50486
0.732465,0.133772,2.394,2.50712
0.745492,0.134722,2.411,2.52722
0.758629,0.135672,2.428,2.54737
0.771877,0.136622,2.445,2.56758
0.779813,0.136622,2.445,2.56998
0.793548,0.137628,2.463,2.59134
0.801542,0.137628,2.463,2.5938
0.809537,0.137628,2.463,2.59628
0.823505,0.138633,2.481,2.61777
0.837591,0.139639,2.499,2.63933
0.845702,0.139639,2.499,2.64191
0.847664,0.138633,2.481,2.62547
0.855716,0.138633,2.481,2.62809
0.863769,0.138633,2.481,2.63072
0.871822,0.138633,2.481,2.63337
0.873491,0.137628,2.463,2.61693
0.881485,0.137628,2.463,2.6196
0.889479,0.137628,2.463,2.62231
0.897474,0.137628,2.463,2.62503
0.905468,0.137628,2.463,2.62777
0.913462,0.137628,2.463,2.63054
0.914722,0.136622,2.445,2.61408
0.922658,0.136622,2.445,2.61687
0.930594,0.136622,2.445,2.61967
0.93853,0.136622,2.445,2.6225
0.946466,0.136622,2.445,2.62536
0.954402,0.136622,2.445,2.62823
0.955646,0.135672,2.428,2.61282
0.963527,0.135672,2.428,2.61572
0.971408,0.135672,2.428,2.61863
0.979289,0.135672,2.428,2.62156
0.987169,0.135672,2.428,2.62452
0.99505,0.135672,2.428,2.62749
1.00293,0.135672,2.428,2.63049
1.01081,0.135672,2.428,2.6335
1.02582,0.136622,2.445,2.655
1.03376,0.136622,2.445,2.65807
1.0417,0.136622,2.445,2.66117
1.05736,0.137628,2.463,2.6839
1.06535,0.137628,2.463,2.68706
1.07335,0.137628,2.463,2.69024
1.08924,0.138633,2.481,2.71312
1.10526,0.139639,2.499,2.73607
1.11337,0.139639,2.499,2.73936
1.12148,0.139639,2.499,2.74267
1.12959,0.139639,2.499,2.74599
1.1377,0.139639,2.499,2.74934
1.14581,0.139639,2.499,2.75271
1.16224,0.140645,2.517,2.77594
1.17041,0.140645,2.517,2.77937
1.19637,0.142768,2.555,2.82484
1.20466,0.142768,2.555,2.82836
1.21296,0.142768,2.555,2.8319
1.22125,0.142768,2.555,2.83546
1.22954,0.142768,2.555,2.83905
1.23783,0.142768,2.555,2.84265
1.23686,0.141707,2.536,2.8251
1.24509,0.141707,2.536,2.82872
1.25332,0.141707,2.536,2.83235
1.26155,0.141707,2.536,2.836
1.26979,0.141707,2.536,2.83967
1.28759,0.142768,2.555,2.86466
1.29588,0.142768,2.555,2.8684
1.31388,0.14383,2.574,2.89352
1.33199,0.144892,2.593,2.91871
1.35075,0.146009,2.613,2.9451
1.35923,0.146009,2.613,2.949
1.38917,0.1483,2.654,2.99925
1.4199,0.150647,2.696,3.05078
1.42865,0.150647,2.696,3.05486
1.47206,0.154279,2.761,3.13271
1.50516,0.156794,2.806,3.18806
1.51427,0.156794,2.806,3.19237
1.54889,0.15942,2.853,3.25024
1.57126,0.160761,2.877,3.28205
1.60752,0.163499,2.926,3.3425
1.61701,0.163499,2.926,3.34708
1.65486,0.166349,2.977,3.4101
1.67906,0.167802,3.003,3.44462
1.68881,0.167802,3.003,3.44938
1.69855,0.167802,3.003,3.45416
1.7083,0.167802,3.003,3.45897
1.71805,0.167802,3.003,3.46379
1.72779,0.167802,3.003,3.46864
1.7225,0.166349,2.977,3.44343
1.73216,0.166349,2.977,3.44827
1.72661,0.164896,2.951,3.42298
1.72148,0.163499,2.926,3.39878
1.73098,0.163499,2.926,3.4036
1.7256,0.162102,2.901,3.37932
1.72067,0.160761,2.877,3.35614
1.73,0.160761,2.877,3.36094
1.72483,0.15942,2.853,3.33767
1.7195,0.158079,2.829,3.31435
1.72869,0.158079,2.829,3.31912
1.70961,0.155509,2.783,3.26987
1.69147,0.15305,2.739,3.22283
1.70036,0.15305,2.739,3.2275
1.69552,0.151821,2.717,3.20623
1.69117,0.150647,2.696,3.18609
1.69992,0.150647,2.696,3.19074
1.68205,0.1483,2.654,3.14563
1.67729,0.147127,2.633,3.12532
1.66022,0.144892,2.593,3.08237
1.66864,0.144892,2.593,3.08691
1.66477,0.14383,2.574,3.06881
1.66077,0.142768,2.555,3.05067
1.66906,0.142768,2.555,3.05519
1.66488,0.141707,2.536,3.03697
1.66058,0.140645,2.517,3.01871
1.66875,0.140645,2.517,3.02321
1.66493,0.139639,2.499,3.00607
1.66099,0.138633,2.481,2.98889
1.66904,0.138633,2.481,2.99337
1.66493,0.137628,2.463,2.97612
1.66069,0.136622,2.445,2.95882
-1.81272,0.154488,2.613,3.18396
-1.79043,0.153306,2.593,3.15481
-1.78202,0.153306,2.593,3.15004
-1.7736,0.153306,2.593,3.14528
-1.76518,0.153306,2.593,3.14055
-1.75677,0.153306,2.593,3.13582
-1.74835,0.153306,2.593,3.13112
-1.73994,0.153306,2.593,3.12642
-1.73152,0.153306,2.593,3.12175
-1.7231,0.153306,2.593,3.11709
-1.71469,0.153306,2.593,3.11244
-1.70627,0.153306,2.593,3.10781
-1.69785,0.153306,2.593,3.1032
-1.68944,0.153306,2.593,3.0986
-1.68102,0.153306,2.593,3.09402
-1.67261,0.153306,2.593,3.08946
-1.652,0.152182,2.574,3.06231
-1.64364,0.152182,2.574,3.05781
-1.63529,0.152182,2.574,3.05333
-1.62693,0.152182,2.574,3.04886
-1.61858,0.152182,2.574,3.04441
-1.59834,0.151059,2.555,3.01754
-1.59004,0.151059,2.555,3.01315
-1.58175,0.151059,2.555,3.00878
-1.57346,0.151059,2.555,3.00443
-1.56516,0.151059,2.555,3.0001
-1.54529,0.149936,2.536,2.9735
-1.53706,0.149936,2.536,2.96923
-1.52883,0.149936,2.536,2.96498
-1.50921,0.148812,2.517,2.93856
-1.50104,0.148812,2.517,2.93437
-1.48219,0.147748,2.499,2.90925
-1.47408,0.147748,2.499,2.90512
-1.45541,0.146684,2.481,2.88012
-1.44736,0.146684,2.481,2.87606
-1.43931,0.146684,2.481,2.87202
-1.43125,0.146684,2.481,2.86799
-1.41288,0.14562,2.463,2.8432
-1.40488,0.14562,2.463,2.83924
-1.39689,0.14562,2.463,2.83529
-1.38889,0.14562,2.463,2.83136
-1.3809,0.14562,2.463,2.82745
-1.38294,0.146684,2.481,2.84419
-1.37488,0.146684,2.481,2.84028
-1.37675,0.147748,2.499,2.85697
-1.36864,0.147748,2.499,2.85307
-1.36053,0.147748,2.499,2.84919
-1.36216,0.148812,2.517,2.86582
-1.35399,0.148812,2.517,2.86194
-1.34582,0.148812,2.517,2.85809
-1.34774,0.149936,2.536,2.87579
-1.34955,0.151059,2.555,2.89346
-1.34126,0.151059,2.555,2.8896
-1.33296,0.151059,2.555,2.88576
-1.33452,0.152182,2.574,2.90337
-1.32617,0.152182,2.574,2.89954
-1.31781,0.152182,2.574,2.89573
-1.30946,0.152182,2.574,2.89194
-1.31071,0.153306,2.593,2.90949
-1.30229,0.153306,2.593,2.9057
-1.29387,0.153306,2.593,2.90194
-1.28546,0.153306,2.593,2.8982
-1.26769,0.152182,2.574,2.87327
-1.25933,0.152182,2.574,2.86959
-1.24174,0.151059,2.555,2.84478
-1.23345,0.151059,2.555,2.84117
-1.22516,0.151059,2.555,2.83758
-1.20781,0.149936,2.536,2.81293
-1.19958,0.149936,2.536,2.80941
-1.19135,0.149936,2.536,2.8059
-1.17426,0.148812,2.517,2.78142
-1.16609,0.148812,2.517,2.77798
-1.14964,0.147748,2.499,2.75472
-1.1333,0.146684,2.481,2.73153
-1.12525,0.146684,2.481,2.7282
-1.10909,0.14562,2.463,2.70512
-1.1011,0.14562,2.463,2.70185
-1.08512,0.144556,2.445,2.67888
-1.07718,0.144556,2.445,2.67568
-1.06181,0.14355,2.428,2.65391
-1.05393,0.14355,2.428,2.65077
-1.04605,0.14355,2.428,2.64764
-1.0309,0.142545,2.411,2.62602
-1.02307,0.142545,2.411,2.62296
-1.01525,0.142545,2.411,2.61992
-1.00742,0.142545,2.411,2.61689
-0.999596,0.142545,2.411,2.61389
-0.99177,0.142545,2.411,2.61091
-0.983945,0.142545,2.411,2.60795
-0.976119,0.142545,2.411,2.605
-0.968294,0.142545,2.411,2.60208
-0.960468,0.142545,2.411,2.59918
-0.952643,0.142545,2.411,2.5963
-0.944817,0.142545,2.411,2.59344
-0.936992,0.142545,2.411,2.5906
-0.929166,0.142545,2.411,2.58778
-0.921341,0.142545,2.411,2.58498
-0.913515,0.142545,2.411,2.5822
-0.90569,0.142545,2.411,2.57944
-0.897864,0.142545,2.411,2.5767
-0.890039,0.142545,2.411,2.57399
-0.888434,0.14355,2.428,2.58942
-0.880553,0.14355,2.428,2.58673
-0.872672,0.14355,2.428,2.58406
-0.864792,0.14355,2.428,2.58141
-0.856911,0.14355,2.428,2.57878
-0.84903,0.14355,2.428,2.57617
-0.847039,0.144556,2.445,2.5916
-0.839103,0.144556,2.445,2.58902
-0.831167,0.144556,2.445,2.58646
-0.829292,0.14562,2.463,2.60294
-0.821298,0.14562,2.463,2.6004
-0.813304,0.14562,2.463,2.59789
-0.805309,0.14562,2.463,2.5954
-0.797315,0.14562,2.463,2.59293
-0.789321,0.14562,2.463,2.59048
-0.781326,0.14562,2.463,2.58806
-0.778984,0.146684,2.481,2.60455
-0.770931,0.146684,2.481,2.60216
-0.762878,0.146684,2.481,2.59978
-0.754826,0.146684,2.481,2.59743
-0.746773,0.146684,2.481,2.5951
-0.73872,0.146684,2.481,2.59279
-0.730668,0.146684,2.481,2.59051
-0.722615,0.146684,2.481,2.58825
-0.714562,0.146684,2.481,2.58602
-0.706509,0.146684,2.481,2.5838
-0.698457,0.146684,2.481,2.58161
-0.690404,0.146684,2.481,2.57944
-0.682351,0.146684,2.481,2.5773
-0.674299,0.146684,2.481,2.57518
-0.666246,0.146684,2.481,2.57308
-0.658193,0.146684,2.481,2.57101
-0.65014,0.146684,2.481,2.56896
-0.642088,0.146684,2.481,2.56694
-0.634035,0.146684,2.481,2.56493
-0.625982,0.146684,2.481,2.56295
-0.61793,0.146684,2.481,2.561
-0.609877,0.146684,2.481,2.55907
-0.601824,0.146684,2.481,2.55716
-0.593771,0.146684,2.481,2.55528
-0.585719,0.146684,2.481,2.55342
-0.577666,0.146684,2.481,2.55158
-0.573746,0.147748,2.499,2.56827
-0.565635,0.147748,2.499,2.56647
-0.557524,0.147748,2.499,2.5647
-0.549413,0.147748,2.499,2.56294
-0.541301,0.147748,2.499,2.56122
-0.53319,0.147748,2.499,2.55952
-0.525079,0.147748,2.499,2.55784
-0.516968,0.147748,2.499,2.55619
-0.508857,0.147748,2.499,2.55456
-0.504353,0.148812,2.517,2.57134
-0.496183,0.148812,2.517,2.56975
-0.488013,0.148812,2.517,2.56819
-0.479844,0.148812,2.517,2.56665
-0.471674,0.148812,2.517,2.56513
-0.463505,0.148812,2.517,2.56364
-0.455335,0.148812,2.517,2.56218
-0.447166,0.148812,2.517,2.56074
-0.438996,0.148812,2.517,2.55933
-0.430827,0.148812,2.517,2.55794
-0.425848,0.149936,2.536,2.57587
-0.417616,0.149936,2.536,2.57453
-0.406318,0.148812,2.517,2.55392
-0.398148,0.148812,2.517,2.55264
-0.389979,0.148812,2.517,2.55138
-0.384691,0.149936,2.536,2.56939
-0.37646,0.149936,2.536,2.56817
-0.368229,0.149936,2.536,2.56698
-0.359998,0.149936,2.536,2.56581
-0.351766,0.149936,2.536,2.56467
-0.343535,0.149936,2.536,2.56355
-0.337816,0.151059,2.555,2.58166
-0.329523,0.151059,2.555,2.58059
-0.32123,0.151059,2.555,2.57954
-0.312937,0.151059,2.555,2.57852
-0.304645,0.151059,2.555,2.57753
-0.296352,0.151059,2.555,2.57656
-0.288059,0.151059,2.555,2.57562
-0.279766,0.151059,2.555,2.57471
-0.271473,0.151059,2.555,2.57382
-0.26318,0.151059,2.555,2.57296
-0.256783,0.152182,2.574,2.59125
-0.246594,0.151059,2.555,2.57131
-0.238301,0.151059,2.555,2.57053
-0.231719,0.152182,2.574,2.58889
-0.223364,0.152182,2.574,2.58815
-0.21501,0.152182,2.574,2.58744
-0.206655,0.152182,2.574,2.58676
-0.198301,0.152182,2.574,2.58611
-0.189946,0.152182,2.574,2.58548
-0.181592,0.152182,2.574,2.58488
-0.173237,0.152182,2.574,2.58431
-0.163665,0.151059,2.555,2.56469
-0.155372,0.151059,2.555,2.56417
-0.14708,0.151059,2.555,2.56368
-0.138787,0.151059,2.555,2.56322
-0.130494,0.151059,2.555,2.56279
-0.122201,0.151059,2.555,2.56238
-0.113908,0.151059,2.555,2.562
-0.105615,0.151059,2.555,2.56164
-0.0965985,0.149936,2.536,2.54226
-0.0883672,0.149936,2.536,2.54197
-0.080136,0.149936,2.536,2.54169
-0.0719048,0.149936,2.536,2.54145
-0.0636736,0.149936,2.536,2.54123
-0.0554423,0.149936,2.536,2.54103
-0.0468574,0.148812,2.517,2.52183
-0.0386878,0.148812,2.517,2.52169
-0.0305183,0.148812,2.517,2.52158
-0.0223487,0.148812,2.517,2.52149
-0.0141792,0.148812,2.517,2.52144
-0.00600962,0.148812,2.517,2.5214
0.00215994,0.148812,2.517,2.5214
0.0103295,0.148812,2.517,2.52142
0.0184991,0.148812,2.517,2.52146
0.0266686,0.148812,2.517,2.52154
0.0348382,0.148812,2.517,2.52164
0.0430077,0.148812,2.517,2.52176
0.0511773,0.148812,2.517,2.52191
0.0593468,0.148812,2.517,2.52209
0.0675164,0.148812,2.517,2.5223
0.075686,0.148812,2.517,2.52253
0.0838555,0.148812,2.517,2.52279
0.0920251,0.148812,2.517,2.52307
0.100195,0.148812,2.517,2.52339
0.108364,0.148812,2.517,2.52372
0.116534,0.148812,2.517,2.52409
nan,nan,nan,NaN
nan,nan,nan,NaN
0.141042,0.148812,2.517,2.52534
0.149212,0.148812,2.517,2.52581
0.157382,0.148812,2.517,2.5263
0.165551,0.148812,2.517,2.52682
0.173721,0.148812,2.517,2.52737
nan,nan,nan,NaN
0.188701,0.147748,2.499,2.51047
0.195394,0.146684,2.481,2.493
0.203447,0.146684,2.481,2.49365
0.209965,0.14562,2.463,2.47622
0.217959,0.14562,2.463,2.47691
nan,nan,nan,NaN
nan,nan,nan,NaN
nan,nan,nan,NaN
nan,nan,nan,NaN
nan,nan,nan,NaN
nan,nan,nan,NaN
nan,nan,nan,NaN
nan,nan,nan,NaN
nan,nan,nan,NaN
nan,nan,nan,NaN
nan,nan,nan,NaN
nan,nan,nan,NaN
nan,nan,nan,NaN
nan,nan,nan,NaN
nan,nan,nan,NaN
nan,nan,nan,NaN
nan,nan,nan,NaN
nan,nan,nan,NaN
nan,nan,nan,NaN
nan,nan,nan,NaN
nan,nan,nan,NaN
nan,nan,nan,NaN
nan,nan,nan,NaN
nan,nan,nan,NaN
nan,nan,nan,NaN
nan,nan,nan,NaN
nan,nan,nan,NaN
0.432472,0.142545,2.411,2.45362
0.437193,0.14154,2.394,2.43771
0.444963,0.14154,2.394,2.43911
0.452734,0.14154,2.394,2.44054
0.457234,0.140535,2.377,2.42465
0.464949,0.140535,2.377,2.42612
0.472664,0.140535,2.377,2.42761
0.480379,0.140535,2.377,2.42912
0.484809,0.139589,2.361,2.4143
0.492472,0.139589,2.361,2.41585
0.500135,0.139589,2.361,2.41742
0.507799,0.139589,2.361,2.41902
0.515462,0.139589,2.361,2.42064
0.523125,0.139589,2.361,2.42229
0.530788,0.139589,2.361,2.42395
0.538451,0.139589,2.361,2.42564
0.546115,0.139589,2.361,2.42735
0.550025,0.138643,2.345,2.41263
0.550027,0.136751,2.313,2.38143
0.557534,0.136751,2.313,2.38317
0.561377,0.135864,2.298,2.36947
0.561162,0.134032,2.267,2.33926
0.568521,0.134032,2.267,2.34104
0.568258,0.132258,2.237,2.31183
0.571917,0.13143,2.223,2.29915
0.579132,0.13143,2.223,2.30096
0.582655,0.130603,2.209,2.28828
0.585819,0.129716,2.194,2.27457
0.592941,0.129716,2.194,2.27641
0.600062,0.129716,2.194,2.27827
0.611334,0.130603,2.209,2.29575
0.626344,0.132258,2.237,2.32679
0.633605,0.132258,2.237,2.32876
0.64946,0.134032,2.267,2.362
0.6658,0.135864,2.298,2.39636
0.682341,0.137697,2.329,2.4308
0.6899,0.137697,2.329,2.43293
0.707042,0.139589,2.361,2.46855
0.724695,0.14154,2.394,2.50529
0.732465,0.14154,2.394,2.50754
0.745492,0.142545,2.411,2.52765
0.758629,0.14355,2.428,2.54781
0.771877,0.144556,2.445,2.56802
0.779813,0.144556,2.445,2.57041
0.793548,0.14562,2.463,2.59177
0.801542,0.14562,2.463,2.59423
0.809537,0.14562,2.463,2.59671
0.823505,0.146684,2.481,2.61821
0.837591,0.147748,2.499,2.63977
0.845702,0.147748,2.499,2.64236
0.847664,0.146684,2.481,2.62591
0.855716,0.146684,2.481,2.62852
0.863769,0.146684,2.481,2.63115
0.871822,0.146684,2.481,2.63381
0.873491,0.14562,2.463,2.61736
0.881485,0.14562,2.463,2.62004
0.889479,0.14562,2.463,2.62274
0.897474,0.14562,2.463,2.62546
0.905468,0.14562,2.463,2.6282
0.913462,0.14562,2.463,2.63097
0.914722,0.144556,2.445,2.61451
0.922658,0.144556,2.445,2.61729
0.930594,0.144556,2.445,2.6201
0.93853,0.144556,2.445,2.62293
0.946466,0.144556,2.445,2.62578
0.954402,0.144556,2.445,2.62865
0.955646,0.14355,2.428,2.61325
0.963527,0.14355,2.428,2.61614
0.971408,0.14355,2.428,2.61905
0.979289,0.14355,2.428,2.62198
0.987169,0.14355,2.428,2.62494
0.99505,0.14355,2.428,2.62791
1.00293,0.14355,2.428,2.63091
1.01081,0.14355,2.428,2.63392
1.02582,0.144556,2.445,2.65542
1.03376,0.144556,2.445,2.65849
1.0417,0.144556,2.445,2.66159
1.05736,0.14562,2.463,2.68432
1.06535,0.14562,2.463,2.68748
1.07335,0.14562,2.463,2.69066
1.08924,0.146684,2.481,2.71355
1.10526,0.147748,2.499,2.7365
1.11337,0.147748,2.499,2.73979
1.12148,0.147748,2.499,2.74309
1.12959,0.147748,2.499,2.74642
1.1377,0.147748,2.499,2.74976
1.14581,0.147748,2.499,2.75313
1.16224,0.148812,2.517,2.77637
1.17041,0.148812,2.517,2.7798
1.17858,0.148812,2.517,2.78325
1.1957,0.149936,2.536,2.80775
1.20394,0.149936,2.536,2.81127
1.20308,0.148812,2.517,2.79372
1.21125,0.148812,2.517,2.79724
1.21942,0.148812,2.517,2.80079
1.22759,0.148812,2.517,2.80436
1.23576,0.148812,2.517,2.80794
1.24393,0.148812,2.517,2.81155
1.2521,0.148812,2.517,2.81517
1.26027,0.148812,2.517,2.81882
1.26844,0.148812,2.517,2.82248
1.27661,0.148812,2.517,2.82616
1.29448,0.149936,2.536,2.85122
1.31247,0.151059,2.555,2.87636
1.34041,0.153306,2.593,2.92299
1.34882,0.153306,2.593,2.92685
1.36771,0.154488,2.613,2.95335
1.40884,0.158154,2.675,3.02745
1.41752,0.158154,2.675,3.0315
1.4486,0.160637,2.717,3.08323
1.48102,0.163238,2.761,3.13739
1.48998,0.163238,2.761,3.14163
1.52337,0.165899,2.806,3.19716
1.55815,0.168678,2.853,3.25513
1.5806,0.170097,2.877,3.287
1.58993,0.170097,2.877,3.2915
1.62651,0.172994,2.926,3.35215
1.66452,0.176009,2.977,3.41528
1.67419,0.176009,2.977,3.42
1.69855,0.177546,3.003,3.45465
1.7083,0.177546,3.003,3.45945
1.70317,0.176009,2.977,3.43428
1.71284,0.176009,2.977,3.43909
1.7225,0.176009,2.977,3.44391
1.73216,0.176009,2.977,3.44875
1.72661,0.174472,2.951,3.42345
1.72148,0.172994,2.926,3.39925
1.73098,0.172994,2.926,3.40407
1.7256,0.171516,2.901,3.37978
1.72067,0.170097,2.877,3.3566
1.73,0.170097,2.877,3.36139
1.72483,0.168678,2.853,3.33813
1.7195,0.167259,2.829,3.3148
1.72869,0.167259,2.829,3.31957
1.70961,0.164539,2.783,3.27031
1.69147,0.161938,2.739,3.22326
1.70036,0.161938,2.739,3.22794
1.69552,0.160637,2.717,3.20666
1.69117,0.159395,2.696,3.18651
1.69992,0.159395,2.696,3.19117
1.68205,0.156912,2.654,3.14605
1.67729,0.155671,2.633,3.12573
1.66022,0.153306,2.593,3.08277
1.66864,0.153306,2.593,3.08731
1.66477,0.152182,2.574,3.06922
1.66077,0.151059,2.555,3.05107
1.66906,0.151059,2.555,3.05559
1.66488,0.149936,2.536,3.03737
1.66058,0.148812,2.517,3.0191
1.66875,0.148812,2.517,3.0236
1.66493,0.147748,2.499,3.00646
1.66099,0.146684,2.481,2.98927
1.66904,0.146684,2.481,2.99376
1.66493,0.14562,2.463,2.9765
1.66069,0.144556,2.445,2.95919
-1.79885,0.16172,2.593,3.16001
-1.79043,0.16172,2.593,3.15523
-1.78202,0.16172,2.593,3.15046
-1.7736,0.16172,2.593,3.14571
-1.76518,0.16172,2.593,3.14097
-1.75677,0.16172,2.593,3.13625
-1.74835,0.16172,2.593,3.13154
-1.73994,0.16172,2.593,3.12685
-1.73152,0.16172,2.593,3.12217
-1.7231,0.16172,2.593,3.11751
-1.71469,0.16172,2.593,3.11287
-1.70627,0.16172,2.593,3.10824
-1.69785,0.16172,2.593,3.10363
-1.68944,0.16172,2.593,3.09903
-1.68102,0.16172,2.593,3.09445
-1.67261,0.16172,2.593,3.08989
-1.652,0.160535,2.574,3.06273
-1.64364,0.160535,2.574,3.05824
-1.63529,0.160535,2.574,3.05375
-1.62693,0.160535,2.574,3.04929
-1.61858,0.160535,2.574,3.04484
-1.59834,0.15935,2.555,3.01796
-1.59004,0.15935,2.555,3.01358
-1.58175,0.15935,2.555,3.00921
-1.57346,0.15935,2.555,3.00486
-1.56516,0.15935,2.555,3.00053
-1.53372,0.15698,2.517,2.95165
-1.52555,0.15698,2.517,2.94741
-1.51738,0.15698,2.517,2.94319
-1.49842,0.155857,2.499,2.91797
-1.4903,0.155857,2.499,2.91381
-1.46084,0.153612,2.463,2.86776
-1.45285,0.153612,2.463,2.86369
-1.44485,0.153612,2.463,2.85964
-1.43686,0.153612,2.463,2.85561
-1.42886,0.153612,2.463,2.8516
-1.40068,0.151429,2.428,2.80714
-1.3928,0.151429,2.428,2.80321
-1.38492,0.151429,2.428,2.79931
-1.37704,0.151429,2.428,2.79541
-1.36916,0.151429,2.428,2.79154
-1.37081,0.152489,2.445,2.8072
-1.36287,0.152489,2.445,2.80334
-1.35493,0.152489,2.445,2.79949
-1.347,0.152489,2.445,2.79565
-1.34892,0.153612,2.463,2.81239
-1.34093,0.153612,2.463,2.80857
-1.34267,0.154734,2.481,2.82526
-1.3443,0.155857,2.499,2.84191
-1.33619,0.155857,2.499,2.83808
-1.33765,0.15698,2.517,2.85469
-1.33951,0.158165,2.536,2.87239
-1.34126,0.15935,2.555,2.89005
-1.33296,0.15935,2.555,2.88621
-1.32467,0.15935,2.555,2.88239
-1.32617,0.160535,2.574,2.89999
-1.31781,0.160535,2.574,2.89618
-1.31912,0.16172,2.593,2.91374
-1.31071,0.16172,2.593,2.90994
-1.30229,0.16172,2.593,2.90616
-1.29387,0.16172,2.593,2.9024
-1.28546,0.16172,2.593,2.89866
-1.27704,0.16172,2.593,2.89493
-1.25933,0.160535,2.574,2.87005
-1.24174,0.15935,2.555,2.84523
-1.23345,0.15935,2.555,2.84162
-1.22516,0.15935,2.555,2.83803
-1.21686,0.15935,2.555,2.83446
-1.20857,0.15935,2.555,2.83091
-1.19135,0.158165,2.536,2.80636
-1.17426,0.15698,2.517,2.78187
-1.16609,0.15698,2.517,2.77843
-1.14964,0.155857,2.499,2.75517
-1.1333,0.154734,2.481,2.73197
-1.12525,0.154734,2.481,2.72864
-1.1172,0.154734,2.481,2.72533
-1.1011,0.153612,2.463,2.70229
-1.08512,0.152489,2.445,2.67932
-1.07718,0.152489,2.445,2.67612
-1.06181,0.151429,2.428,2.65435
-1.05393,0.151429,2.428,2.6512
-1.04605,0.151429,2.428,2.64808
-1.0309,0.150369,2.411,2.62646
-1.02307,0.150369,2.411,2.6234
-1.01525,0.150369,2.411,2.62035
-1.00742,0.150369,2.411,2.61733
-0.999596,0.150369,2.411,2.61433
-0.99177,0.150369,2.411,2.61135
-0.983945,0.150369,2.411,2.60839
-0.976119,0.150369,2.411,2.60544
-0.968294,0.150369,2.411,2.60252
-0.960468,0.150369,2.411,2.59962
-0.952643,0.150369,2.411,2.59674
-0.944817,0.150369,2.411,2.59388
-0.936992,0.150369,2.411,2.59104
-0.929166,0.150369,2.411,2.58822
-0.921341,0.150369,2.411,2.58542
-0.913515,0.150369,2.411,2.58264
-0.90569,0.150369,2.411,2.57989
-0.897864,0.150369,2.411,2.57715
-0.890039,0.150369,2.411,2.57443
-0.888434,0.151429,2.428,2.58987
-0.880553,0.151429,2.428,2.58718
-0.872672,0.151429,2.428,2.58451
-0.864792,0.151429,2.428,2.58186
-0.856911,0.151429,2.428,2.57923
-0.854975,0.152489,2.445,2.59466
-0.847039,0.152489,2.445,2.59206
-0.839103,0.152489,2.445,2.58947
-0.831167,0.152489,2.445,2.58691
-0.829292,0.153612,2.463,2.6034
-0.821298,0.153612,2.463,2.60086
-0.813304,0.153612,2.463,2.59835
-0.805309,0.153612,2.463,2.59586
-0.797315,0.153612,2.463,2.59339
-0.789321,0.153612,2.463,2.59094
-0.781326,0.153612,2.463,2.58852
-0.778984,0.154734,2.481,2.60502
-0.770931,0.154734,2.481,2.60262
-0.762878,0.154734,2.481,2.60025
-0.754826,0.154734,2.481,2.5979
-0.746773,0.154734,2.481,2.59557
-0.73872,0.154734,2.481,2.59326
-0.730668,0.154734,2.481,2.59098
-0.722615,0.154734,2.481,2.58872
-0.714562,0.154734,2.481,2.58648
-0.706509,0.154734,2.481,2.58427
-0.698457,0.154734,2.481,2.58208
-0.690404,0.154734,2.481,2.57992
-0.682351,0.154734,2.481,2.57777
-0.674299,0.154734,2.481,2.57565
-0.666246,0.154734,2.481,2.57356
-0.658193,0.154734,2.481,2.57148
-0.65014,0.154734,2.481,2.56943
-0.642088,0.154734,2.481,2.56741
-0.634035,0.154734,2.481,2.56541
-0.625982,0.154734,2.481,2.56343
-0.61793,0.154734,2.481,2.56147
-0.609877,0.154734,2.481,2.55954
-0.601824,0.154734,2.481,2.55764
-0.593771,0.154734,2.481,2.55575
-0.585719,0.154734,2.481,2.55389
-0.577666,0.154734,2.481,2.55206
-0.573746,0.155857,2.499,2.56875
-0.565635,0.155857,2.499,2.56695
-0.557524,0.155857,2.499,2.56518
-0.549413,0.155857,2.499,2.56342
-0.541301,0.155857,2.499,2.5617
-0.53319,0.155857,2.499,2.56
-0.525079,0.155857,2.499,2.55832
-0.516968,0.155857,2.499,2.55667
-0.508857,0.155857,2.499,2.55504
-0.504353,0.15698,2.517,2.57183
-0.496183,0.15698,2.517,2.57024
-0.488013,0.15698,2.517,2.56867
-0.479844,0.15698,2.517,2.56714
-0.471674,0.15698,2.517,2.56562
-0.463505,0.15698,2.517,2.56413
-0.455335,0.15698,2.517,2.56267
-0.447166,0.15698,2.517,2.56123
-0.438996,0.15698,2.517,2.55981
-0.430827,0.15698,2.517,2.55843
-0.425848,0.158165,2.536,2.57637
-0.417616,0.158165,2.536,2.57502
-0.406318,0.15698,2.517,2.55441
-0.398148,0.15698,2.517,2.55313
-0.389979,0.15698,2.517,2.55187
-0.384691,0.158165,2.536,2.56988
-0.37646,0.158165,2.536,2.56866
-0.368229,0.158165,2.536,2.56747
-0.359998,0.158165,2.536,2.5663
-0.351766,0.158165,2.536,2.56516
-0.343535,0.158165,2.536,2.56405
-0.337816,0.15935,2.555,2.58216
-0.329523,0.15935,2.555,2.58109
-0.32123,0.15935,2.555,2.58004
-0.312937,0.15935,2.555,2.57902
-0.304645,0.15935,2.555,2.57803
-0.296352,0.15935,2.555,2.57706
-0.288059,0.15935,2.555,2.57612
-0.279766,0.15935,2.555,2.57521
-0.271473,0.15935,2.555,2.57432
-0.265137,0.160535,2.574,2.59259
-0.256783,0.160535,2.574,2.59175
-0.248428,0.160535,2.574,2.59094
-0.240074,0.160535,2.574,2.59015
-0.231719,0.160535,2.574,2.58939
-0.223364,0.160535,2.574,2.58866
-0.21501,0.160535,2.574,2.58795
-0.206655,0.160535,2.574,2.58727
-0.198301,0.160535,2.574,2.58661
-0.189946,0.160535,2.574,2.58599
-0.180251,0.15935,2.555,2.5663
-0.171958,0.15935,2.555,2.56573
-0.163665,0.15935,2.555,2.56519
-0.155372,0.15935,2.555,2.56468
-0.14708,0.15935,2.555,2.56419
-0.138787,0.15935,2.555,2.56372
-0.130494,0.15935,2.555,2.56329
-0.122201,0.15935,2.555,2.56288
-0.113908,0.15935,2.555,2.5625
-0.105615,0.15935,2.555,2.56214
-0.0965985,0.158165,2.536,2.54276
-0.0883672,0.158165,2.536,2.54246
-0.080136,0.158165,2.536,2.54219
-0.0719048,0.158165,2.536,2.54194
-0.0636736,0.158165,2.536,2.54173
-0.0554423,0.158165,2.536,2.54153
-0.0468574,0.15698,2.517,2.52233
-0.0386878,0.15698,2.517,2.52219
-0.0305183,0.15698,2.517,2.52208
-0.0223487,0.15698,2.517,2.52199
-0.0141792,0.15698,2.517,2.52193
-0.00600962,0.15698,2.517,2.5219
0.00215994,0.15698,2.517,2.52189
0.0103295,0.15698,2.517,2.52191
0.0184991,0.15698,2.517,2.52196
0.0266686,0.15698,2.517,2.52203
0.0348382,0.15698,2.517,2.52213
0.0430077,0.15698,2.517,2.52226
0.0511773,0.15698,2.517,2.52241
0.0593468,0.15698,2.517,2.52259
0.0675164,0.15698,2.517,2.52279
0.075686,0.15698,2.517,2.52303
0.0838555,0.15698,2.517,2.52328
0.0920251,0.15698,2.517,2.52357
0.100195,0.15698,2.517,2.52388
0.108364,0.15698,2.517,2.52422
0.116534,0.15698,2.517,2.52458
nan,nan,nan,NaN
nan,nan,nan,NaN
0.141042,0.15698,2.517,2.52583
0.149212,0.15698,2.517,2.5263
0.157382,0.15698,2.517,2.5268
0.164367,0.155857,2.499,2.50924
0.172478,0.155857,2.499,2.50979
nan,nan,nan,NaN
nan,nan,nan,NaN
0.193976,0.153612,2.463,2.4754
0.201971,0.153612,2.463,2.47604
0.209965,0.153612,2.463,2.4767
0.217959,0.153612,2.463,2.47739
nan,nan,nan,NaN
nan,nan,nan,NaN
nan,nan,nan,NaN
nan,nan,nan,NaN
nan,nan,nan,NaN
nan,nan,nan,NaN
nan,nan,nan,NaN
nan,nan,nan,NaN
nan,nan,nan,NaN
nan,nan,nan,NaN
nan,nan,nan,NaN
nan,nan,nan,NaN
nan,nan,nan,NaN
nan,nan,nan,NaN
nan,nan,nan,NaN
nan,nan,nan,NaN
nan,nan,nan,NaN
nan,nan,nan,NaN
nan,nan,nan,NaN
nan,nan,nan,NaN
nan,nan,nan,NaN
nan,nan,nan,NaN
nan,nan,nan,NaN
nan,nan,nan,NaN
nan,nan,nan,NaN
nan,nan,nan,NaN
nan,nan,nan,NaN
0.432472,0.150369,2.411,2.45409
0.437193,0.149308,2.394,2.43817
0.444963,0.149308,2.394,2.43957
0.452734,0.149308,2.394,2.441
0.457234,0.148248,2.377,2.42511
0.464949,0.148248,2.377,2.42658
0.472664,0.148248,2.377,2.42807
0.480379,0.148248,2.377,2.42958
0.484809,0.14725,2.361,2.41476
0.492472,0.14725,2.361,2.41631
0.500135,0.14725,2.361,2.41788
0.507799,0.14725,2.361,2.41948
0.515462,0.14725,2.361,2.4211
0.523125,0.14725,2.361,2.42274
0.530788,0.14725,2.361,2.42441
0.538451,0.14725,2.361,2.42609
0.546115,0.14725,2.361,2.42781
0.550025,0.146252,2.345,2.41308
0.550027,0.144257,2.313,2.38187
0.557534,0.144257,2.313,2.38362
0.561377,0.143321,2.298,2.36991
0.561162,0.141388,2.267,2.3397
0.568521,0.141388,2.267,2.34147
0.568258,0.139517,2.237,2.31226
0.571917,0.138643,2.223,2.29957
0.579132,0.138643,2.223,2.30138
0.582655,0.13777,2.209,2.2887
0.585819,0.136835,2.194,2.27498
0.592941,0.136835,2.194,2.27683
0.600062,0.136835,2.194,2.27869
0.611334,0.13777,2.209,2.29617
0.622424,0.138643,2.223,2.31265
0.629639,0.138643,2.223,2.3146
