0.944602,-0.182175,2.361,2.54947
0.952265,-0.182175,2.361,2.55232
0.966434,-0.18341,2.377,2.5725
0.974149,-0.18341,2.377,2.57541
nan,nan,nan,NaN
nan,nan,nan,NaN
nan,nan,nan,NaN
nan,nan,nan,NaN
nan,nan,nan,NaN
nan,nan,nan,NaN
nan,nan,nan,NaN
nan,nan,nan,NaN
nan,nan,nan,NaN
nan,nan,nan,NaN
nan,nan,nan,NaN
nan,nan,nan,NaN
nan,nan,nan,NaN
nan,nan,nan,NaN
nan,nan,nan,NaN
nan,nan,nan,NaN
nan,nan,nan,NaN
nan,nan,nan,NaN
1.75442,-0.287113,3.721,4.12387
1.7665,-0.287113,3.721,4.12902
1.77858,-0.287113,3.721,4.1342
1.77141,-0.284027,3.681,4.09491
1.78335,-0.284027,3.681,4.1001
1.7953,-0.284027,3.681,4.10531
1.80725,-0.284027,3.681,4.11055
nan,nan,nan,NaN
nan,nan,nan,NaN
nan,nan,nan,NaN
nan,nan,nan,NaN
nan,nan,nan,NaN
nan,nan,nan,NaN
nan,nan,nan,NaN
nan,nan,nan,NaN
nan,nan,nan,NaN
nan,nan,nan,NaN
nan,nan,nan,NaN
nan,nan,nan,NaN
2.02815,-0.293518,3.804,4.32087
2.04049,-0.293518,3.804,4.32668
2.05284,-0.293518,3.804,4.33252
2.06519,-0.293518,3.804,4.33838
2.0546,-0.290277,3.762,4.29631
2.06681,-0.290277,3.762,4.30216
2.07902,-0.290277,3.762,4.30804
2.09123,-0.290277,3.762,4.31395
2.12692,-0.293518,3.804,4.36811
2.13927,-0.293518,3.804,4.37413
2.12786,-0.290277,3.762,4.33182
2.14007,-0.290277,3.762,4.33783
2.15228,-0.290277,3.762,4.34387
2.1409,-0.287113,3.721,4.30253
2.12983,-0.284027,3.681,4.26223
2.14178,-0.284027,3.681,4.26822
2.13091,-0.281018,3.642,4.22894
2.12037,-0.278085,3.604,4.19072
2.13207,-0.278085,3.604,4.19665
2.12117,-0.275153,3.566,4.15829
2.08908,-0.269521,3.493,4.07896
2.10042,-0.269521,3.493,4.08478
2.04888,-0.261496,3.389,3.96883
2.02037,-0.256481,3.324,3.89829
2.03116,-0.256481,3.324,3.90389
1.98421,-0.249228,3.23,3.79896
1.95764,-0.244598,3.17,3.73377
1.96793,-0.244598,3.17,3.73918
1.94202,-0.240123,3.112,3.67609
1.90068,-0.233795,3.03,3.58443
1.91052,-0.233795,3.03,3.58966
1.90324,-0.231712,3.003,3.56287
1.87986,-0.2277,2.951,3.5063
1.87343,-0.225771,2.926,3.4817
1.86684,-0.223842,2.901,3.45702
1.86074,-0.22199,2.877,3.43347
1.83887,-0.218286,2.829,3.38118
1.84806,-0.218286,2.829,3.38618
1.84214,-0.216512,2.806,3.36363
1.82156,-0.213039,2.761,3.3146
1.83052,-0.213039,2.761,3.31953
1.81017,-0.209644,2.717,3.27151
1.80493,-0.208024,2.696,3.25107
1.81368,-0.208024,2.696,3.25594
1.79404,-0.204783,2.654,3.21002
1.78839,-0.203163,2.633,3.1894
-2.02986,-0.216276,2.926,3.56772
-2.02036,-0.216276,2.926,3.56232
-1.97719,-0.212655,2.877,3.49738
-1.93502,-0.209107,2.829,3.43384
-1.91018,-0.207407,2.806,3.4008
-1.90108,-0.207407,2.806,3.39569
-1.87646,-0.205707,2.783,3.36281
-1.85267,-0.20408,2.761,3.33124
-1.8437,-0.20408,2.761,3.32626
-1.82012,-0.202454,2.739,3.29484
-1.81123,-0.202454,2.739,3.28994
-1.81682,-0.20408,2.761,3.31144
-1.80786,-0.20408,2.761,3.30653
-1.81323,-0.205707,2.783,3.32794
-1.81911,-0.207407,2.806,3.35049
-1.82484,-0.209107,2.829,3.37298
-1.81565,-0.209107,2.829,3.36802
-1.85245,-0.214429,2.901,3.44867
-1.8748,-0.218124,2.951,3.50298
-1.86522,-0.218124,2.951,3.49786
-1.87199,-0.220046,2.977,3.52354
-1.87859,-0.221968,3.003,3.54914
-1.86885,-0.221968,3.003,3.54399
-1.87581,-0.223964,3.03,3.57068
-1.86598,-0.223964,3.03,3.56552
-1.85614,-0.223964,3.03,3.56038
-1.84631,-0.223964,3.03,3.55527
-1.83648,-0.223964,3.03,3.55017
-1.82664,-0.223964,3.03,3.54509
-1.80062,-0.221968,3.003,3.50849
-1.79087,-0.221968,3.003,3.5035
-1.78112,-0.221968,3.003,3.49853
-1.77138,-0.221968,3.003,3.49357
nan,nan,nan,NaN
nan,nan,nan,NaN
nan,nan,nan,NaN
nan,nan,nan,NaN
nan,nan,nan,NaN
nan,nan,nan,NaN
nan,nan,nan,NaN
nan,nan,nan,NaN
nan,nan,nan,NaN
nan,nan,nan,NaN
nan,nan,nan,NaN
nan,nan,nan,NaN
nan,nan,nan,NaN
nan,nan,nan,NaN
nan,nan,nan,NaN
nan,nan,nan,NaN
nan,nan,nan,NaN
nan,nan,nan,NaN
nan,nan,nan,NaN
nan,nan,nan,NaN
nan,nan,nan,NaN
nan,nan,nan,NaN
nan,nan,nan,NaN
nan,nan,nan,NaN
nan,nan,nan,NaN
nan,nan,nan,NaN
nan,nan,nan,NaN
nan,nan,nan,NaN
nan,nan,nan,NaN
nan,nan,nan,NaN
-1.22264,-0.184715,2.499,2.78818
-1.21453,-0.184715,2.499,2.78464
-1.20641,-0.184715,2.499,2.78111
-1.1983,-0.184715,2.499,2.7776
-1.19019,-0.184715,2.499,2.77411
-1.17357,-0.183384,2.481,2.75068
-1.16551,-0.183384,2.481,2.74726
-1.15746,-0.183384,2.481,2.74385
-1.14107,-0.182054,2.463,2.72058
-1.13308,-0.182054,2.463,2.71724
-1.11686,-0.180723,2.445,2.69408
-1.10892,-0.180723,2.445,2.6908
-1.09333,-0.179467,2.428,2.66885
-1.07785,-0.17821,2.411,2.64697
-1.07003,-0.17821,2.411,2.64379
-1.0622,-0.17821,2.411,2.64063
-1.05437,-0.17821,2.411,2.6375
-1.04655,-0.17821,2.411,2.63438
-1.03872,-0.17821,2.411,2.63128
-1.02363,-0.176953,2.394,2.60967
-1.01586,-0.176953,2.394,2.60663
-1.00809,-0.176953,2.394,2.60361
-1.00032,-0.176953,2.394,2.60061
-0.992548,-0.176953,2.394,2.59763
-0.984778,-0.176953,2.394,2.59467
-0.977007,-0.176953,2.394,2.59174
-0.969237,-0.176953,2.394,2.58882
-0.961466,-0.176953,2.394,2.58592
-0.953696,-0.176953,2.394,2.58304
-0.945926,-0.176953,2.394,2.58018
-0.938156,-0.176953,2.394,2.57734
-0.923778,-0.175697,2.377,2.55624
-0.916063,-0.175697,2.377,2.55346
-0.908348,-0.175697,2.377,2.5507
-0.900633,-0.175697,2.377,2.54797
-0.892918,-0.175697,2.377,2.54525
-0.885203,-0.175697,2.377,2.54255
-0.877488,-0.175697,2.377,2.53988
-0.863918,-0.174514,2.361,2.52014
-0.856255,-0.174514,2.361,2.51753
-0.854342,-0.175697,2.377,2.53198
-0.846627,-0.175697,2.377,2.52938
-0.838912,-0.175697,2.377,2.52681
-0.831197,-0.175697,2.377,2.52426
-0.823481,-0.175697,2.377,2.52173
-0.815766,-0.175697,2.377,2.51922
-0.808051,-0.175697,2.377,2.51673
-0.80606,-0.176953,2.394,2.53225
-0.79829,-0.176953,2.394,2.52979
-0.790519,-0.176953,2.394,2.52734
-0.788307,-0.17821,2.411,2.54285
-0.780482,-0.17821,2.411,2.54044
-0.772656,-0.17821,2.411,2.53805
-0.770224,-0.179467,2.428,2.55355
-0.762343,-0.179467,2.428,2.55119
-0.754462,-0.179467,2.428,2.54884
-0.751809,-0.180723,2.445,2.56435
-0.749349,-0.182054,2.463,2.5809
-0.741355,-0.182054,2.463,2.57859
-0.733361,-0.182054,2.463,2.5763
-0.725366,-0.182054,2.463,2.57404
-0.717372,-0.182054,2.463,2.5718
-0.714562,-0.183384,2.481,2.58836
-0.706509,-0.183384,2.481,2.58615
-0.698457,-0.183384,2.481,2.58396
-0.690404,-0.183384,2.481,2.58179
-0.687302,-0.184715,2.499,2.59837
-0.679191,-0.184715,2.499,2.59623
-0.67108,-0.184715,2.499,2.59412
-0.662968,-0.184715,2.499,2.59204
-0.654857,-0.184715,2.499,2.58997
-0.646746,-0.184715,2.499,2.58793
-0.638635,-0.184715,2.499,2.58592
-0.630524,-0.184715,2.499,2.58393
-0.622413,-0.184715,2.499,2.58196
-0.614302,-0.184715,2.499,2.58002
-0.606191,-0.184715,2.499,2.5781
-0.602387,-0.186045,2.517,2.59476
-0.594218,-0.186045,2.517,2.59287
-0.586048,-0.186045,2.517,2.59101
-0.577879,-0.186045,2.517,2.58918
-0.569709,-0.186045,2.517,2.58737
-0.561539,-0.186045,2.517,2.58558
-0.55337,-0.186045,2.517,2.58382
-0.5452,-0.186045,2.517,2.58208
-0.537031,-0.186045,2.517,2.58037
-0.532853,-0.187449,2.536,2.59815
-0.524622,-0.187449,2.536,2.59647
-0.516391,-0.187449,2.536,2.59482
-0.50816,-0.187449,2.536,2.59319
-0.499929,-0.187449,2.536,2.59159
-0.491697,-0.187449,2.536,2.59002
-0.487088,-0.188854,2.555,2.60786
-0.482356,-0.190258,2.574,2.62571
-0.474001,-0.190258,2.574,2.62419
-0.465647,-0.190258,2.574,2.62269
-0.460668,-0.191663,2.593,2.64057
-0.452251,-0.191663,2.593,2.63911
-0.443835,-0.191663,2.593,2.63768
-0.438777,-0.193141,2.613,2.65661
-0.430296,-0.193141,2.613,2.65523
-0.421815,-0.193141,2.613,2.65387
-0.413334,-0.193141,2.613,2.65253
-0.407952,-0.194619,2.633,2.67151
-0.399406,-0.194619,2.633,2.67022
-0.390859,-0.194619,2.633,2.66896
-0.382313,-0.194619,2.633,2.66772
-0.370928,-0.193141,2.613,2.64625
-0.362447,-0.193141,2.613,2.64508
-0.353966,-0.193141,2.613,2.64393
-0.345485,-0.193141,2.613,2.64281
-0.334424,-0.191663,2.593,2.62149
-0.326008,-0.191663,2.593,2.62043
-0.320041,-0.193141,2.613,2.6396
-0.309175,-0.191663,2.593,2.61839
-0.300759,-0.191663,2.593,2.61741
-0.292343,-0.191663,2.593,2.61646
-0.283927,-0.191663,2.593,2.61553
-0.275511,-0.191663,2.593,2.61463
-0.267094,-0.191663,2.593,2.61376
-0.258678,-0.191663,2.593,2.61291
-0.250262,-0.191663,2.593,2.61209
-0.241846,-0.191663,2.593,2.6113
-0.23523,-0.193141,2.613,2.63067
-0.226749,-0.193141,2.613,2.62992
-0.218268,-0.193141,2.613,2.6292
-0.209786,-0.193141,2.613,2.62851
-0.199764,-0.191663,2.593,2.60774
-0.191348,-0.191663,2.593,2.60711
-0.182932,-0.191663,2.593,2.6065
-0.173237,-0.190258,2.574,2.58683
-0.164882,-0.190258,2.574,2.58628
-0.156528,-0.190258,2.574,2.58576
-0.148173,-0.190258,2.574,2.58527
-0.138787,-0.188854,2.555,2.56573
-0.130494,-0.188854,2.555,2.56529
-0.122201,-0.188854,2.555,2.56488
-0.113908,-0.188854,2.555,2.5645
-0.105615,-0.188854,2.555,2.56415
-0.0973222,-0.188854,2.555,2.56382
-0.0890293,-0.188854,2.555,2.56352
-0.0807364,-0.188854,2.555,2.56324
-0.0724435,-0.188854,2.555,2.56299
-0.0641506,-0.188854,2.555,2.56277
-0.0558577,-0.188854,2.555,2.56258
-0.0479185,-0.190258,2.574,2.58147
-0.039564,-0.190258,2.574,2.58133
-0.0312094,-0.190258,2.574,2.58121
-0.0228548,-0.190258,2.574,2.58112
-0.0145003,-0.190258,2.574,2.58106
-0.00614571,-0.190258,2.574,2.58103
0.00222516,-0.191663,2.593,2.60007
0.0106414,-0.191663,2.593,2.6001
0.0190576,-0.191663,2.593,2.60014
0.0274739,-0.191663,2.593,2.60022
0.0356271,-0.190258,2.574,2.58127
0.0439817,-0.190258,2.574,2.5814
0.0523362,-0.190258,2.574,2.58155
0.0606908,-0.190258,2.574,2.58174
0.0690454,-0.190258,2.574,2.58195
0.0773999,-0.190258,2.574,2.58218
0.0857545,-0.190258,2.574,2.58245
0.0941091,-0.190258,2.574,2.58274
0.102464,-0.190258,2.574,2.58306
0.11,-0.188854,2.555,2.56433
0.118293,-0.188854,2.555,2.5647
0.126586,-0.188854,2.555,2.5651
0.135882,-0.190258,2.574,2.5846
0.144236,-0.190258,2.574,2.58505
0.152591,-0.190258,2.574,2.58553
0.160946,-0.190258,2.574,2.58604
0.17055,-0.191663,2.593,2.60566
0.178966,-0.191663,2.593,2.60623
0.187382,-0.191663,2.593,2.60682
0.197309,-0.193141,2.613,2.62755
0.20579,-0.193141,2.613,2.6282
0.214271,-0.193141,2.613,2.62888
0.224457,-0.194619,2.633,2.64971
0.233003,-0.194619,2.633,2.65044
0.241549,-0.194619,2.633,2.65121
0.250095,-0.194619,2.633,2.652
0.258641,-0.194619,2.633,2.65282
0.267187,-0.194619,2.633,2.65367
0.275734,-0.194619,2.633,2.65454
0.28212,-0.193141,2.613,2.63527
0.290601,-0.193141,2.613,2.63619
0.299083,-0.193141,2.613,2.63714
0.307564,-0.193141,2.613,2.63812
0.316045,-0.193141,2.613,2.63912
0.324526,-0.193141,2.613,2.64015
0.330458,-0.191663,2.593,2.62099
0.338875,-0.191663,2.593,2.62206
0.347291,-0.191663,2.593,2.62317
0.355707,-0.191663,2.593,2.62429
0.364123,-0.191663,2.593,2.62545
0.372539,-0.191663,2.593,2.62663
0.380956,-0.191663,2.593,2.62783
0.389372,-0.191663,2.593,2.62907
0.397788,-0.191663,2.593,2.63033
0.406204,-0.191663,2.593,2.63161
0.417819,-0.193141,2.613,2.65323
0.4263,-0.193141,2.613,2.65458
0.434781,-0.193141,2.613,2.65596
0.443262,-0.193141,2.613,2.65736
0.451743,-0.193141,2.613,2.65879
0.460224,-0.193141,2.613,2.66024
0.465118,-0.191663,2.593,2.64135
0.473534,-0.191663,2.593,2.64284
0.481951,-0.191663,2.593,2.64436
0.490367,-0.191663,2.593,2.64591
0.495128,-0.190258,2.574,2.62808
0.503483,-0.190258,2.574,2.62967
0.508059,-0.188854,2.555,2.61186
0.516352,-0.188854,2.555,2.61349
0.524645,-0.188854,2.555,2.61514
0.532938,-0.188854,2.555,2.61681
0.541231,-0.188854,2.555,2.61852
0.549524,-0.188854,2.555,2.62024
0.557817,-0.188854,2.555,2.62199
0.566109,-0.188854,2.555,2.62377
0.574402,-0.188854,2.555,2.62557
0.582695,-0.188854,2.555,2.6274
0.590988,-0.188854,2.555,2.62925
0.599281,-0.188854,2.555,2.63113
0.612092,-0.190258,2.574,2.65261
0.615867,-0.188854,2.555,2.63495
0.62416,-0.188854,2.555,2.6369
0.627749,-0.187449,2.536,2.61926
0.635981,-0.187449,2.536,2.62124
0.644212,-0.187449,2.536,2.62325
0.647555,-0.186045,2.517,2.60562
0.655725,-0.186045,2.517,2.60766
0.659146,-0.184715,2.499,2.59106
0.662451,-0.183384,2.481,2.57446
0.670504,-0.183384,2.481,2.57654
0.678557,-0.183384,2.481,2.57865
0.681628,-0.182054,2.463,2.56206
0.689622,-0.182054,2.463,2.56419
0.692518,-0.180723,2.445,2.5476
0.700454,-0.180723,2.445,2.54977
0.70839,-0.180723,2.445,2.55196
0.716326,-0.180723,2.445,2.55417
0.724262,-0.180723,2.445,2.55641
0.727107,-0.179467,2.428,2.54088
0.734987,-0.179467,2.428,2.54315
0.742868,-0.179467,2.428,2.54544
0.750749,-0.179467,2.428,2.54775
0.758629,-0.179467,2.428,2.55008
0.76651,-0.179467,2.428,2.55244
0.774391,-0.179467,2.428,2.55481
0.782271,-0.179467,2.428,2.55721
0.78462,-0.17821,2.411,2.54171
0.792445,-0.17821,2.411,2.54414
0.800271,-0.17821,2.411,2.54659
0.802398,-0.176953,2.394,2.53109
0.810169,-0.176953,2.394,2.53356
0.817939,-0.176953,2.394,2.53605
0.825709,-0.176953,2.394,2.53857
0.827561,-0.175697,2.377,2.52306
0.835276,-0.175697,2.377,2.52561
0.842991,-0.175697,2.377,2.52817
0.850707,-0.175697,2.377,2.53075
0.852643,-0.174514,2.361,2.5163
0.860307,-0.174514,2.361,2.51891
0.86797,-0.174514,2.361,2.52154
0.875633,-0.174514,2.361,2.52418
0.883296,-0.174514,2.361,2.52685
0.89096,-0.174514,2.361,2.52954
0.898623,-0.174514,2.361,2.53225
0.906286,-0.174514,2.361,2.53498
0.913949,-0.174514,2.361,2.53773
0.921612,-0.174514,2.361,2.5405
0.935573,-0.175697,2.377,2.56053
0.943288,-0.175697,2.377,2.56336
0.944602,-0.174514,2.361,2.54893
0.952265,-0.174514,2.361,2.55178
0.966434,-0.175697,2.377,2.57196
0.974149,-0.175697,2.377,2.57487
nan,nan,nan,NaN
nan,nan,nan,NaN
nan,nan,nan,NaN
nan,nan,nan,NaN
nan,nan,nan,NaN
nan,nan,nan,NaN
nan,nan,nan,NaN
nan,nan,nan,NaN
nan,nan,nan,NaN
nan,nan,nan,NaN
nan,nan,nan,NaN
nan,nan,nan,NaN
nan,nan,nan,NaN
nan,nan,nan,NaN
nan,nan,nan,NaN
nan,nan,nan,NaN
nan,nan,nan,NaN
1.74234,-0.275039,3.721,4.11792
1.75442,-0.275039,3.721,4.12304
1.7665,-0.275039,3.721,4.1282
1.77858,-0.275039,3.721,4.13338
1.77141,-0.272083,3.681,4.0941
1.78335,-0.272083,3.681,4.09929
1.7953,-0.272083,3.681,4.1045
1.80725,-0.272083,3.681,4.10974
nan,nan,nan,NaN
nan,nan,nan,NaN
nan,nan,nan,NaN
nan,nan,nan,NaN
nan,nan,nan,NaN
nan,nan,nan,NaN
nan,nan,nan,NaN
nan,nan,nan,NaN
nan,nan,nan,NaN
nan,nan,nan,NaN
nan,nan,nan,NaN
nan,nan,nan,NaN
1.98389,-0.275039,3.721,4.22579
1.99597,-0.275039,3.721,4.23148
2.03017,-0.27807,3.762,4.28387
2.04238,-0.27807,3.762,4.28967
2.0546,-0.27807,3.762,4.2955
2.06681,-0.27807,3.762,4.30135
2.07902,-0.27807,3.762,4.30724
2.09123,-0.27807,3.762,4.31314
2.10344,-0.27807,3.762,4.31908
2.09259,-0.275039,3.721,4.2779
2.10467,-0.275039,3.721,4.28382
2.11675,-0.275039,3.721,4.28977
2.12882,-0.275039,3.721,4.29574
2.1409,-0.275039,3.721,4.30174
2.12983,-0.272083,3.681,4.26145
2.14178,-0.272083,3.681,4.26744
2.13091,-0.2692,3.642,4.22817
2.12037,-0.266391,3.604,4.18996
2.13207,-0.266391,3.604,4.19589
2.12117,-0.263582,3.566,4.15754
2.06815,-0.255599,3.458,4.03737
2.07937,-0.255599,3.458,4.04313
2.04888,-0.250499,3.389,3.96812
2.02037,-0.245695,3.324,3.8976
2.03116,-0.245695,3.324,3.9032
2.00264,-0.240964,3.26,3.83356
1.97555,-0.236455,3.199,3.76727
1.98593,-0.236455,3.199,3.77272
1.94202,-0.230025,3.112,3.67545
1.91762,-0.225959,3.057,3.61574
1.92754,-0.225959,3.057,3.62101
1.90324,-0.221968,3.003,3.56225
1.87986,-0.218124,2.951,3.50569
1.87343,-0.216276,2.926,3.48109
1.88293,-0.216276,2.926,3.48621
1.86074,-0.212655,2.877,3.43288
1.83887,-0.209107,2.829,3.3806
1.84806,-0.209107,2.829,3.3856
1.84214,-0.207407,2.806,3.36305
1.82156,-0.20408,2.761,3.31404
1.83052,-0.20408,2.761,3.31897
1.82482,-0.202454,2.739,3.29744
1.80493,-0.199276,2.696,3.25052
1.81368,-0.199276,2.696,3.25539
1.80823,-0.197724,2.675,3.23488
1.80265,-0.196171,2.654,3.2143
-2.02986,-0.206782,2.926,3.56715
-2.02036,-0.206782,2.926,3.56176
-1.99369,-0.205015,2.901,3.52599
-1.95144,-0.201623,2.853,3.46242
-1.91018,-0.198302,2.806,3.40026
-1.90108,-0.198302,2.806,3.39515
-1.87646,-0.196676,2.783,3.36227
-1.85267,-0.195121,2.761,3.3307
-1.8437,-0.195121,2.761,3.32572
-1.82012,-0.193567,2.739,3.2943
-1.81123,-0.193567,2.739,3.2894
-1.81682,-0.195121,2.761,3.3109
-1.80786,-0.195121,2.761,3.30599
-1.81323,-0.196676,2.783,3.3274
-1.81911,-0.198302,2.806,3.34994
-1.82484,-0.199927,2.829,3.37242
-1.81565,-0.199927,2.829,3.36746
-1.83712,-0.203319,2.877,3.41957
-1.85891,-0.206782,2.926,3.47272
-1.84942,-0.206782,2.926,3.46765
-1.85564,-0.208549,2.951,3.49218
-1.86233,-0.210386,2.977,3.51782
-1.85267,-0.210386,2.977,3.51271
-1.843,-0.210386,2.977,3.50763
-1.84935,-0.212224,3.003,3.53315
-1.8396,-0.212224,3.003,3.52806
-1.82986,-0.212224,3.003,3.52299
-1.82011,-0.212224,3.003,3.51793
-1.81036,-0.212224,3.003,3.5129
-1.78503,-0.210386,2.977,3.47752
-1.77536,-0.210386,2.977,3.47257
-1.7657,-0.210386,2.977,3.46764
-1.75604,-0.210386,2.977,3.46273
nan,nan,nan,NaN
nan,nan,nan,NaN
nan,nan,nan,NaN
nan,nan,nan,NaN
nan,nan,nan,NaN
nan,nan,nan,NaN
nan,nan,nan,NaN
nan,nan,nan,NaN
nan,nan,nan,NaN
nan,nan,nan,NaN
nan,nan,nan,NaN
nan,nan,nan,NaN
nan,nan,nan,NaN
nan,nan,nan,NaN
nan,nan,nan,NaN
nan,nan,nan,NaN
nan,nan,nan,NaN
nan,nan,nan,NaN
nan,nan,nan,NaN
nan,nan,nan,NaN
nan,nan,nan,NaN
nan,nan,nan,NaN
nan,nan,nan,NaN
nan,nan,nan,NaN
nan,nan,nan,NaN
nan,nan,nan,NaN
nan,nan,nan,NaN
nan,nan,nan,NaN
nan,nan,nan,NaN
nan,nan,nan,NaN
-1.22264,-0.176606,2.499,2.78766
-1.21453,-0.176606,2.499,2.78411
-1.20641,-0.176606,2.499,2.78058
-1.1983,-0.176606,2.499,2.77707
-1.19019,-0.176606,2.499,2.77358
-1.17357,-0.175334,2.481,2.75016
-1.16551,-0.175334,2.481,2.74673
-1.15746,-0.175334,2.481,2.74332
-1.14107,-0.174062,2.463,2.72006
-1.13308,-0.174062,2.463,2.71671
-1.11686,-0.17279,2.445,2.69356
-1.10892,-0.17279,2.445,2.69028
-1.09333,-0.171588,2.428,2.66833
-1.08545,-0.171588,2.428,2.66511
-1.07757,-0.171588,2.428,2.66191
-1.06969,-0.171588,2.428,2.65873
-1.05437,-0.170387,2.411,2.63698
-1.04655,-0.170387,2.411,2.63386
-1.03872,-0.170387,2.411,2.63076
-1.0309,-0.170387,2.411,2.62768
-1.02307,-0.170387,2.411,2.62462
-1.00809,-0.169185,2.394,2.60309
-1.00032,-0.169185,2.394,2.6001
-0.992548,-0.169185,2.394,2.59712
-0.984778,-0.169185,2.394,2.59416
-0.977007,-0.169185,2.394,2.59122
-0.969237,-0.169185,2.394,2.5883
-0.961466,-0.169185,2.394,2.5854
-0.953696,-0.169185,2.394,2.58252
-0.945926,-0.169185,2.394,2.57966
-0.938156,-0.169185,2.394,2.57682
-0.923778,-0.167984,2.377,2.55572
-0.916063,-0.167984,2.377,2.55294
-0.908348,-0.167984,2.377,2.55019
-0.900633,-0.167984,2.377,2.54745
-0.892918,-0.167984,2.377,2.54473
-0.885203,-0.167984,2.377,2.54203
-0.877488,-0.167984,2.377,2.53936
-0.869772,-0.167984,2.377,2.5367
-0.856255,-0.166853,2.361,2.51701
-0.848591,-0.166853,2.361,2.51441
-0.840928,-0.166853,2.361,2.51184
-0.833265,-0.166853,2.361,2.50928
-0.825602,-0.166853,2.361,2.50675
-0.823481,-0.167984,2.377,2.5212
-0.815766,-0.167984,2.377,2.51869
-0.808051,-0.167984,2.377,2.51621
-0.80606,-0.169185,2.394,2.53172
-0.79829,-0.169185,2.394,2.52925
-0.790519,-0.169185,2.394,2.52681
-0.788307,-0.170387,2.411,2.54232
-0.780482,-0.170387,2.411,2.5399
-0.772656,-0.170387,2.411,2.53751
-0.764831,-0.170387,2.411,2.53514
-0.757005,-0.170387,2.411,2.53279
-0.754462,-0.171588,2.428,2.5483
-0.751809,-0.17279,2.445,2.56381
-0.743873,-0.17279,2.445,2.56149
-0.735937,-0.17279,2.445,2.5592
-0.733361,-0.174062,2.463,2.57575
-0.725366,-0.174062,2.463,2.57348
-0.717372,-0.174062,2.463,2.57124
-0.714562,-0.175334,2.481,2.5878
-0.706509,-0.175334,2.481,2.58559
-0.698457,-0.175334,2.481,2.5834
-0.690404,-0.175334,2.481,2.58123
-0.687302,-0.176606,2.499,2.5978
-0.679191,-0.176606,2.499,2.59567
-0.67108,-0.176606,2.499,2.59356
-0.662968,-0.176606,2.499,2.59147
-0.654857,-0.176606,2.499,2.58941
-0.646746,-0.176606,2.499,2.58737
-0.638635,-0.176606,2.499,2.58535
-0.630524,-0.176606,2.499,2.58336
-0.622413,-0.176606,2.499,2.58139
-0.614302,-0.176606,2.499,2.57945
-0.610557,-0.177878,2.517,2.5961
-0.602387,-0.177878,2.517,2.59419
-0.594218,-0.177878,2.517,2.5923
-0.586048,-0.177878,2.517,2.59044
-0.577879,-0.177878,2.517,2.5886
-0.569709,-0.177878,2.517,2.58679
-0.561539,-0.177878,2.517,2.58501
-0.55337,-0.177878,2.517,2.58324
-0.5452,-0.177878,2.517,2.58151
-0.537031,-0.177878,2.517,2.57979
-0.528861,-0.177878,2.517,2.5781
-0.524622,-0.179221,2.536,2.59589
-0.516391,-0.179221,2.536,2.59424
-0.50816,-0.179221,2.536,2.59261
-0.499929,-0.179221,2.536,2.59101
-0.491697,-0.179221,2.536,2.58944
-0.487088,-0.180563,2.555,2.60728
-0.482356,-0.181906,2.574,2.62512
-0.474001,-0.181906,2.574,2.62359
-0.465647,-0.181906,2.574,2.6221
-0.460668,-0.183249,2.593,2.63997
-0.45574,-0.184662,2.613,2.65887
-0.447259,-0.184662,2.613,2.65743
-0.438777,-0.184662,2.613,2.65601
-0.430296,-0.184662,2.613,2.65462
-0.421815,-0.184662,2.613,2.65326
-0.413334,-0.184662,2.613,2.65193
-0.407952,-0.186076,2.633,2.67091
-0.399406,-0.186076,2.633,2.66961
-0.390859,-0.186076,2.633,2.66835
-0.382313,-0.186076,2.633,2.66711
-0.373767,-0.186076,2.633,2.6659
-0.362447,-0.184662,2.613,2.64447
-0.353966,-0.184662,2.613,2.64332
-0.345485,-0.184662,2.613,2.6422
-0.334424,-0.183249,2.593,2.62089
-0.326008,-0.183249,2.593,2.61983
-0.320041,-0.184662,2.613,2.639
-0.31156,-0.184662,2.613,2.63798
-0.300759,-0.183249,2.593,2.61681
-0.292343,-0.183249,2.593,2.61585
-0.283927,-0.183249,2.593,2.61493
-0.275511,-0.183249,2.593,2.61403
-0.267094,-0.183249,2.593,2.61315
-0.258678,-0.183249,2.593,2.61231
-0.250262,-0.183249,2.593,2.61149
-0.241846,-0.183249,2.593,2.61069
-0.23523,-0.184662,2.613,2.63006
-0.226749,-0.184662,2.613,2.62931
-0.218268,-0.184662,2.613,2.62859
-0.209786,-0.184662,2.613,2.6279
-0.199764,-0.183249,2.593,2.60713
-0.191348,-0.183249,2.593,2.6065
-0.182932,-0.183249,2.593,2.6059
-0.173237,-0.181906,2.574,2.58623
-0.164882,-0.181906,2.574,2.58568
-0.156528,-0.181906,2.574,2.58516
-0.148173,-0.181906,2.574,2.58467
-0.138787,-0.180563,2.555,2.56513
-0.130494,-0.180563,2.555,2.56469
-0.122201,-0.180563,2.555,2.56429
-0.113908,-0.180563,2.555,2.5639
-0.105615,-0.180563,2.555,2.56355
-0.0973222,-0.180563,2.555,2.56322
-0.0890293,-0.180563,2.555,2.56292
-0.0807364,-0.180563,2.555,2.56264
-0.0724435,-0.180563,2.555,2.5624
-0.0641506,-0.180563,2.555,2.56218
-0.0558577,-0.180563,2.555,2.56198
-0.0479185,-0.181906,2.574,2.58086
-0.039564,-0.181906,2.574,2.58072
-0.0312094,-0.181906,2.574,2.58061
-0.0228548,-0.181906,2.574,2.58052
-0.0145003,-0.181906,2.574,2.58046
-0.00614571,-0.181906,2.574,2.58043
0.00222516,-0.183249,2.593,2.59947
0.0106414,-0.183249,2.593,2.59949
0.0190576,-0.183249,2.593,2.59954
0.0274739,-0.183249,2.593,2.59961
0.0356271,-0.181906,2.574,2.58067
0.0439817,-0.181906,2.574,2.58079
0.0523362,-0.181906,2.574,2.58095
0.0606908,-0.181906,2.574,2.58113
0.0690454,-0.181906,2.574,2.58134
0.0773999,-0.181906,2.574,2.58158
0.0857545,-0.181906,2.574,2.58184
0.0941091,-0.181906,2.574,2.58214
0.101707,-0.180563,2.555,2.56339
0.11,-0.180563,2.555,2.56373
0.118293,-0.180563,2.555,2.5641
0.126586,-0.180563,2.555,2.5645
0.135882,-0.181906,2.574,2.584
0.144236,-0.181906,2.574,2.58445
0.152591,-0.181906,2.574,2.58493
0.160946,-0.181906,2.574,2.58543
0.1693,-0.181906,2.574,2.58597
0.178966,-0.183249,2.593,2.60562
0.187382,-0.183249,2.593,2.60621
0.195799,-0.183249,2.593,2.60683
0.20579,-0.184662,2.613,2.62759
0.214271,-0.184662,2.613,2.62827
0.224457,-0.186076,2.633,2.64909
0.231233,-0.184662,2.613,2.6297
0.239715,-0.184662,2.613,2.63046
0.248196,-0.184662,2.613,2.63125
0.256677,-0.184662,2.613,2.63206
0.265158,-0.184662,2.613,2.6329
0.273639,-0.184662,2.613,2.63377
0.28212,-0.184662,2.613,2.63467
0.290601,-0.184662,2.613,2.63559
0.299083,-0.184662,2.613,2.63654
0.307564,-0.184662,2.613,2.63751
0.316045,-0.184662,2.613,2.63851
0.324526,-0.184662,2.613,2.63954
0.330458,-0.183249,2.593,2.62039
0.338875,-0.183249,2.593,2.62146
0.347291,-0.183249,2.593,2.62256
0.355707,-0.183249,2.593,2.62369
0.361455,-0.181906,2.574,2.60561
0.36981,-0.181906,2.574,2.60678
0.378164,-0.181906,2.574,2.60798
0.386519,-0.181906,2.574,2.60921
0.394873,-0.181906,2.574,2.61046
0.403228,-0.181906,2.574,2.61173
0.411583,-0.181906,2.574,2.61304
0.419937,-0.181906,2.574,2.61437
0.428292,-0.181906,2.574,2.61572
0.436646,-0.181906,2.574,2.6171
0.445001,-0.181906,2.574,2.61851
0.456702,-0.183249,2.593,2.63928
0.46171,-0.181906,2.574,2.6214
0.466595,-0.180563,2.555,2.60352
0.474888,-0.180563,2.555,2.60502
0.48318,-0.180563,2.555,2.60655
0.491473,-0.180563,2.555,2.6081
0.499766,-0.180563,2.555,2.60967
0.504281,-0.179221,2.536,2.59186
0.512512,-0.179221,2.536,2.59347
0.520743,-0.179221,2.536,2.59511
0.528975,-0.179221,2.536,2.59677
0.537206,-0.179221,2.536,2.59846
0.545437,-0.179221,2.536,2.60018
0.553668,-0.179221,2.536,2.60192
0.5619,-0.179221,2.536,2.60368
0.574402,-0.180563,2.555,2.62499
0.582695,-0.180563,2.555,2.62682
0.590988,-0.180563,2.555,2.62867
0.599281,-0.180563,2.555,2.63054
0.612092,-0.181906,2.574,2.65202
0.615867,-0.180563,2.555,2.63437
0.62416,-0.180563,2.555,2.63632
0.627749,-0.179221,2.536,2.61868
0.635981,-0.179221,2.536,2.62067
0.644212,-0.179221,2.536,2.62268
0.647555,-0.177878,2.517,2.60504
0.655725,-0.177878,2.517,2.60709
0.659146,-0.176606,2.499,2.5905
0.662451,-0.175334,2.481,2.5739
0.670504,-0.175334,2.481,2.57598
0.678557,-0.175334,2.481,2.57809
0.681628,-0.174062,2.463,2.5615
0.689622,-0.174062,2.463,2.56364
0.692518,-0.17279,2.445,2.54705
0.700454,-0.17279,2.445,2.54922
0.70839,-0.17279,2.445,2.55141
0.716326,-0.17279,2.445,2.55363
0.724262,-0.17279,2.445,2.55586
0.727107,-0.171588,2.428,2.54034
0.734987,-0.171588,2.428,2.5426
0.742868,-0.171588,2.428,2.54489
0.750749,-0.171588,2.428,2.5472
0.758629,-0.171588,2.428,2.54954
0.76651,-0.171588,2.428,2.55189
0.774391,-0.171588,2.428,2.55427
0.782271,-0.171588,2.428,2.55667
0.790152,-0.171588,2.428,2.5591
0.792445,-0.170387,2.411,2.5436
0.800271,-0.170387,2.411,2.54605
0.802398,-0.169185,2.394,2.53055
0.810169,-0.169185,2.394,2.53303
0.817939,-0.169185,2.394,2.53552
0.825709,-0.169185,2.394,2.53804
0.827561,-0.167984,2.377,2.52254
0.835276,-0.167984,2.377,2.52508
0.842991,-0.167984,2.377,2.52764
0.850707,-0.167984,2.377,2.53023
0.858422,-0.167984,2.377,2.53283
0.866137,-0.167984,2.377,2.53546
0.86797,-0.166853,2.361,2.52102
0.875633,-0.166853,2.361,2.52367
0.883296,-0.166853,2.361,2.52634
0.89096,-0.166853,2.361,2.52903
0.898623,-0.166853,2.361,2.53174
0.906286,-0.166853,2.361,2.53447
0.913949,-0.166853,2.361,2.53722
0.921612,-0.166853,2.361,2.53999
0.935573,-0.167984,2.377,2.56001
0.943288,-0.167984,2.377,2.56284
0.951003,-0.167984,2.377,2.56569
0.958719,-0.167984,2.377,2.56856
0.966434,-0.167984,2.377,2.57145
0.974149,-0.167984,2.377,2.57436
nan,nan,nan,NaN
nan,nan,nan,NaN
nan,nan,nan,NaN
nan,nan,nan,NaN
nan,nan,nan,NaN
nan,nan,nan,NaN
nan,nan,nan,NaN
nan,nan,nan,NaN
nan,nan,nan,NaN
nan,nan,nan,NaN
nan,nan,nan,NaN
nan,nan,nan,NaN
nan,nan,nan,NaN
nan,nan,nan,NaN
nan,nan,nan,NaN
nan,nan,nan,NaN
nan,nan,nan,NaN
1.74234,-0.262965,3.721,4.11713
1.75442,-0.262965,3.721,4.12226
1.7665,-0.262965,3.721,4.12741
1.77858,-0.262965,3.721,4.13259
1.77141,-0.260138,3.681,4.09333
1.78335,-0.260138,3.681,4.09851
1.7953,-0.260138,3.681,4.10372
1.80725,-0.260138,3.681,4.10896
nan,nan,nan,NaN
nan,nan,nan,NaN
nan,nan,nan,NaN
nan,nan,nan,NaN
nan,nan,nan,NaN
nan,nan,nan,NaN
nan,nan,nan,NaN
nan,nan,nan,NaN
nan,nan,nan,NaN
nan,nan,nan,NaN
nan,nan,nan,NaN
nan,nan,nan,NaN
1.98389,-0.262965,3.721,4.22502
1.99597,-0.262965,3.721,4.23071
2.03017,-0.265863,3.762,4.2831
2.04238,-0.265863,3.762,4.2889
2.0546,-0.265863,3.762,4.29473
2.06681,-0.265863,3.762,4.30058
2.07902,-0.265863,3.762,4.30646
2.09123,-0.265863,3.762,4.31237
2.10344,-0.265863,3.762,4.31831
2.09259,-0.262965,3.721,4.27714
2.10467,-0.262965,3.721,4.28306
2.11675,-0.262965,3.721,4.28901
2.12882,-0.262965,3.721,4.29498
2.1409,-0.262965,3.721,4.30098
2.12983,-0.260138,3.681,4.26071
2.14178,-0.260138,3.681,4.26669
2.13091,-0.257382,3.642,4.22743
2.12037,-0.254697,3.604,4.18923
2.13207,-0.254697,3.604,4.19517
2.12117,-0.252011,3.566,4.15683
2.06815,-0.244379,3.458,4.03667
2.07937,-0.244379,3.458,4.04243
2.04888,-0.239503,3.389,3.96744
2.03982,-0.23717,3.356,3.93445
2.05072,-0.23717,3.356,3.9401
2.00264,-0.230386,3.26,3.83291
1.97555,-0.226075,3.199,3.76663
1.98593,-0.226075,3.199,3.77208
1.94202,-0.219927,3.112,3.67483
1.91762,-0.21604,3.057,3.61513
1.92754,-0.21604,3.057,3.62041
1.90324,-0.212224,3.003,3.56165
1.87986,-0.208549,2.951,3.50511
1.87343,-0.206782,2.926,3.48052
1.88293,-0.206782,2.926,3.48564
1.86074,-0.203319,2.877,3.43232
1.83887,-0.199927,2.829,3.38004
1.84806,-0.199927,2.829,3.38504
1.84214,-0.198302,2.806,3.3625
1.82156,-0.195121,2.761,3.3135
1.83052,-0.195121,2.761,3.31843
1.82482,-0.193567,2.739,3.2969
1.80493,-0.190528,2.696,3.25
1.81368,-0.190528,2.696,3.25486
1.80823,-0.189044,2.675,3.23436
1.80265,-0.18756,2.654,3.21379
-2.01252,-0.195602,2.901,3.53614
-2.0031,-0.195602,2.901,3.53079
-1.97719,-0.193984,2.877,3.49629
-1.95144,-0.192366,2.853,3.4619
-1.91018,-0.189197,2.806,3.39974
-1.90108,-0.189197,2.806,3.39463
-1.87646,-0.187646,2.783,3.36176
-1.8379,-0.184679,2.739,3.30365
-1.82901,-0.184679,2.739,3.29871
-1.82012,-0.184679,2.739,3.29379
-1.81123,-0.184679,2.739,3.28889
-1.80234,-0.184679,2.739,3.284
-1.79345,-0.184679,2.739,3.27913
-1.78456,-0.184679,2.739,3.27428
-1.8042,-0.187646,2.783,3.32196
-1.81,-0.189197,2.806,3.34448
-1.80089,-0.189197,2.806,3.33956
-1.8218,-0.192366,2.853,3.39051
-1.82778,-0.193984,2.877,3.41402
-1.81845,-0.193984,2.877,3.40903
-1.83992,-0.197288,2.926,3.46204
-1.83042,-0.197288,2.926,3.457
-1.82093,-0.197288,2.926,3.45198
-1.82691,-0.198973,2.951,3.47643
-1.83334,-0.200726,2.977,3.50199
-1.82368,-0.200726,2.977,3.49694
-1.81401,-0.200726,2.977,3.49191
-1.80435,-0.200726,2.977,3.48691
-1.79469,-0.200726,2.977,3.48191
-1.78503,-0.200726,2.977,3.47694
-1.75986,-0.198973,2.951,3.44167
-1.75028,-0.198973,2.951,3.43678
-1.72596,-0.197288,2.926,3.40284
-1.71646,-0.197288,2.926,3.39803
nan,nan,nan,NaN
nan,nan,nan,NaN
nan,nan,nan,NaN
nan,nan,nan,NaN
nan,nan,nan,NaN
nan,nan,nan,NaN
nan,nan,nan,NaN
nan,nan,nan,NaN
nan,nan,nan,NaN
nan,nan,nan,NaN
nan,nan,nan,NaN
nan,nan,nan,NaN
nan,nan,nan,NaN
nan,nan,nan,NaN
nan,nan,nan,NaN
nan,nan,nan,NaN
nan,nan,nan,NaN
nan,nan,nan,NaN
nan,nan,nan,NaN
nan,nan,nan,NaN
nan,nan,nan,NaN
nan,nan,nan,NaN
nan,nan,nan,NaN
nan,nan,nan,NaN
nan,nan,nan,NaN
nan,nan,nan,NaN
nan,nan,nan,NaN
nan,nan,nan,NaN
nan,nan,nan,NaN
nan,nan,nan,NaN
nan,nan,nan,NaN
-1.20641,-0.168497,2.499,2.78008
-1.1983,-0.168497,2.499,2.77657
-1.19019,-0.168497,2.499,2.77308
-1.18208,-0.168497,2.499,2.7696
-1.16551,-0.167283,2.481,2.74623
-1.15746,-0.167283,2.481,2.74282
-1.14941,-0.167283,2.481,2.73943
-1.13308,-0.16607,2.463,2.71621
-1.11686,-0.164856,2.445,2.69306
-1.10892,-0.164856,2.445,2.68978
-1.10099,-0.164856,2.445,2.68652
-1.08545,-0.16371,2.428,2.66462
-1.07757,-0.16371,2.428,2.66142
-1.06969,-0.16371,2.428,2.65824
-1.06181,-0.16371,2.428,2.65508
-1.05393,-0.16371,2.428,2.65193
-1.04605,-0.16371,2.428,2.64881
-1.0309,-0.162563,2.411,2.62718
-1.02307,-0.162563,2.411,2.62412
-1.01525,-0.162563,2.411,2.62108
-1.00032,-0.161417,2.394,2.5996
-0.992548,-0.161417,2.394,2.59662
-0.984778,-0.161417,2.394,2.59366
-0.977007,-0.161417,2.394,2.59072
-0.969237,-0.161417,2.394,2.5878
-0.961466,-0.161417,2.394,2.5849
-0.953696,-0.161417,2.394,2.58202
-0.945926,-0.161417,2.394,2.57916
-0.938156,-0.161417,2.394,2.57632
-0.923778,-0.160271,2.377,2.55523
-0.916063,-0.160271,2.377,2.55245
-0.908348,-0.160271,2.377,2.54969
-0.900633,-0.160271,2.377,2.54695
-0.892918,-0.160271,2.377,2.54423
-0.885203,-0.160271,2.377,2.54153
-0.877488,-0.160271,2.377,2.53886
-0.869772,-0.160271,2.377,2.5362
-0.856255,-0.159192,2.361,2.51651
-0.848591,-0.159192,2.361,2.51392
-0.840928,-0.159192,2.361,2.51134
-0.833265,-0.159192,2.361,2.50878
-0.825602,-0.159192,2.361,2.50625
-0.823481,-0.160271,2.377,2.5207
-0.815766,-0.160271,2.377,2.51819
-0.808051,-0.160271,2.377,2.5157
-0.80606,-0.161417,2.394,2.53121
-0.79829,-0.161417,2.394,2.52875
-0.790519,-0.161417,2.394,2.5263
-0.788307,-0.162563,2.411,2.54181
-0.780482,-0.162563,2.411,2.53939
-0.772656,-0.162563,2.411,2.537
-0.764831,-0.162563,2.411,2.53462
-0.757005,-0.162563,2.411,2.53227
-0.754462,-0.16371,2.428,2.54778
-0.751809,-0.164856,2.445,2.56328
-0.743873,-0.164856,2.445,2.56097
-0.735937,-0.164856,2.445,2.55867
-0.733361,-0.16607,2.463,2.57522
-0.725366,-0.16607,2.463,2.57296
-0.717372,-0.16607,2.463,2.57071
-0.714562,-0.167283,2.481,2.58727
-0.706509,-0.167283,2.481,2.58505
-0.698457,-0.167283,2.481,2.58286
-0.690404,-0.167283,2.481,2.5807
-0.687302,-0.168497,2.499,2.59726
-0.679191,-0.168497,2.499,2.59513
-0.67108,-0.168497,2.499,2.59302
-0.662968,-0.168497,2.499,2.59093
-0.654857,-0.168497,2.499,2.58887
-0.646746,-0.168497,2.499,2.58683
-0.638635,-0.168497,2.499,2.58481
-0.630524,-0.168497,2.499,2.58282
-0.622413,-0.168497,2.499,2.58085
-0.614302,-0.168497,2.499,2.57891
-0.610557,-0.169711,2.517,2.59555
-0.602387,-0.169711,2.517,2.59364
-0.594218,-0.169711,2.517,2.59175
-0.586048,-0.169711,2.517,2.58989
-0.577879,-0.169711,2.517,2.58806
-0.569709,-0.169711,2.517,2.58624
-0.561539,-0.169711,2.517,2.58446
-0.55337,-0.169711,2.517,2.58269
-0.5452,-0.169711,2.517,2.58096
-0.537031,-0.169711,2.517,2.57924
-0.528861,-0.169711,2.517,2.57755
-0.524622,-0.170992,2.536,2.59533
-0.516391,-0.170992,2.536,2.59368
-0.50816,-0.170992,2.536,2.59206
-0.499929,-0.170992,2.536,2.59046
-0.491697,-0.170992,2.536,2.58888
-0.483466,-0.170992,2.536,2.58733
-0.482356,-0.173554,2.574,2.62455
-0.474001,-0.173554,2.574,2.62303
-0.465647,-0.173554,2.574,2.62153
-0.457292,-0.173554,2.574,2.62006
-0.448938,-0.173554,2.574,2.61861
-0.440583,-0.173554,2.574,2.6172
-0.435419,-0.174835,2.593,2.63511
-0.430296,-0.176183,2.613,2.65405
-0.421815,-0.176183,2.613,2.65269
-0.413334,-0.176183,2.613,2.65135
-0.404853,-0.176183,2.613,2.65004
-0.396372,-0.176183,2.613,2.64876
-0.390859,-0.177532,2.633,2.66777
-0.382313,-0.177532,2.633,2.66653
-0.373767,-0.177532,2.633,2.66532
-0.362447,-0.176183,2.613,2.64389
-0.353966,-0.176183,2.613,2.64275
-0.345485,-0.176183,2.613,2.64162
-0.334424,-0.174835,2.593,2.62032
-0.326008,-0.174835,2.593,2.61926
-0.320041,-0.176183,2.613,2.63842
-0.31156,-0.176183,2.613,2.6374
-0.300759,-0.174835,2.593,2.61623
-0.292343,-0.174835,2.593,2.61528
-0.283927,-0.174835,2.593,2.61435
-0.275511,-0.174835,2.593,2.61345
-0.267094,-0.174835,2.593,2.61258
-0.258678,-0.174835,2.593,2.61173
-0.250262,-0.174835,2.593,2.61091
-0.241846,-0.174835,2.593,2.61012
-0.23523,-0.176183,2.613,2.62948
-0.226749,-0.176183,2.613,2.62873
-0.218268,-0.176183,2.613,2.62801
-0.209786,-0.176183,2.613,2.62732
-0.199764,-0.174835,2.593,2.60655
-0.191348,-0.174835,2.593,2.60592
-0.182932,-0.174835,2.593,2.60532
-0.173237,-0.173554,2.574,2.58565
-0.164882,-0.173554,2.574,2.58511
-0.156528,-0.173554,2.574,2.58459
-0.148173,-0.173554,2.574,2.5841
-0.138787,-0.172273,2.555,2.56456
-0.130494,-0.172273,2.555,2.56412
-0.122201,-0.172273,2.555,2.56372
-0.113908,-0.172273,2.555,2.56333
-0.105615,-0.172273,2.555,2.56298
-0.0973222,-0.172273,2.555,2.56265
-0.0890293,-0.172273,2.555,2.56235
-0.0807364,-0.172273,2.555,2.56207
-0.0724435,-0.172273,2.555,2.56183
-0.0641506,-0.172273,2.555,2.5616
-0.0558577,-0.172273,2.555,2.56141
-0.0479185,-0.173554,2.574,2.58029
-0.039564,-0.173554,2.574,2.58015
-0.0312094,-0.173554,2.574,2.58003
-0.0228548,-0.173554,2.574,2.57995
-0.0146073,-0.174835,2.593,2.59893
-0.00619107,-0.174835,2.593,2.5989
0.00222516,-0.174835,2.593,2.59889
0.0106414,-0.174835,2.593,2.59891
0.0190576,-0.174835,2.593,2.59896
0.0274739,-0.174835,2.593,2.59903
0.0358901,-0.174835,2.593,2.59914
0.0443063,-0.174835,2.593,2.59927
0.0523362,-0.173554,2.574,2.58038
0.0606908,-0.173554,2.574,2.58056
0.0690454,-0.173554,2.574,2.58077
0.0773999,-0.173554,2.574,2.58101
0.0857545,-0.173554,2.574,2.58127
0.0941091,-0.173554,2.574,2.58156
0.101707,-0.172273,2.555,2.56282
0.11,-0.172273,2.555,2.56316
0.118293,-0.172273,2.555,2.56353
0.126586,-0.172273,2.555,2.56393
0.135882,-0.173554,2.574,2.58342
0.144236,-0.173554,2.574,2.58387
0.152591,-0.173554,2.574,2.58435
0.160946,-0.173554,2.574,2.58486
0.1693,-0.173554,2.574,2.58539
0.177655,-0.173554,2.574,2.58595
0.186009,-0.173554,2.574,2.58654
0.194364,-0.173554,2.574,2.58716
0.204215,-0.174835,2.593,2.6069
0.212631,-0.174835,2.593,2.60757
0.221047,-0.174835,2.593,2.60827
0.231233,-0.176183,2.613,2.62912
0.239715,-0.176183,2.613,2.62988
0.248196,-0.176183,2.613,2.63067
0.256677,-0.176183,2.613,2.63148
0.265158,-0.176183,2.613,2.63232
0.273639,-0.176183,2.613,2.63319
0.28212,-0.176183,2.613,2.63408
0.290601,-0.176183,2.613,2.63501
0.299083,-0.176183,2.613,2.63596
0.307564,-0.176183,2.613,2.63693
0.316045,-0.176183,2.613,2.63793
0.324526,-0.176183,2.613,2.63896
0.330458,-0.174835,2.593,2.61981
0.338875,-0.174835,2.593,2.62089
0.347291,-0.174835,2.593,2.62199
0.355707,-0.174835,2.593,2.62312
0.361455,-0.173554,2.574,2.60504
0.36981,-0.173554,2.574,2.60622
0.378164,-0.173554,2.574,2.60741
0.386519,-0.173554,2.574,2.60864
0.394873,-0.173554,2.574,2.60989
0.403228,-0.173554,2.574,2.61117
0.411583,-0.173554,2.574,2.61247
0.419937,-0.173554,2.574,2.6138
0.428292,-0.173554,2.574,2.61515
0.436646,-0.173554,2.574,2.61654
0.445001,-0.173554,2.574,2.61794
0.453355,-0.173554,2.574,2.61938
0.458302,-0.172273,2.555,2.60149
0.466595,-0.172273,2.555,2.60296
0.474888,-0.172273,2.555,2.60446
0.48318,-0.172273,2.555,2.60599
0.487819,-0.170992,2.536,2.58815
0.49605,-0.170992,2.536,2.58971
0.500503,-0.169711,2.517,2.57189
0.508672,-0.169711,2.517,2.57349
0.516842,-0.169711,2.517,2.57511
0.525012,-0.169711,2.517,2.57677
0.533181,-0.169711,2.517,2.57844
0.545437,-0.170992,2.536,2.59962
0.553668,-0.170992,2.536,2.60136
0.5619,-0.170992,2.536,2.60313
0.574402,-0.172273,2.555,2.62443
0.582695,-0.172273,2.555,2.62626
0.590988,-0.172273,2.555,2.62811
0.603738,-0.173554,2.574,2.64955
0.612092,-0.173554,2.574,2.65146
0.620447,-0.173554,2.574,2.6534
0.62416,-0.172273,2.555,2.63577
0.632453,-0.172273,2.555,2.63775
0.640746,-0.172273,2.555,2.63975
0.644212,-0.170992,2.536,2.62213
0.647555,-0.169711,2.517,2.6045
0.655725,-0.169711,2.517,2.60654
0.659146,-0.168497,2.499,2.58995
0.662451,-0.167283,2.481,2.57336
0.670504,-0.167283,2.481,2.57545
0.678557,-0.167283,2.481,2.57755
0.681628,-0.16607,2.463,2.56097
0.689622,-0.16607,2.463,2.56311
0.692518,-0.164856,2.445,2.54652
0.700454,-0.164856,2.445,2.54869
0.70839,-0.164856,2.445,2.55089
0.716326,-0.164856,2.445,2.5531
0.724262,-0.164856,2.445,2.55534
0.732198,-0.164856,2.445,2.5576
0.740133,-0.164856,2.445,2.55988
0.748069,-0.164856,2.445,2.56219
0.756005,-0.164856,2.445,2.56452
0.763941,-0.164856,2.445,2.56687
0.76651,-0.16371,2.428,2.55138
0.774391,-0.16371,2.428,2.55376
0.782271,-0.16371,2.428,2.55616
0.790152,-0.16371,2.428,2.55858
0.792445,-0.162563,2.411,2.54309
0.800271,-0.162563,2.411,2.54554
0.808096,-0.162563,2.411,2.54801
0.810169,-0.161417,2.394,2.53252
0.817939,-0.161417,2.394,2.53502
0.825709,-0.161417,2.394,2.53754
0.83348,-0.161417,2.394,2.54007
0.84125,-0.161417,2.394,2.54264
0.84902,-0.161417,2.394,2.54522
0.850707,-0.160271,2.377,2.52973
0.858422,-0.160271,2.377,2.53233
0.866137,-0.160271,2.377,2.53496
0.873852,-0.160271,2.377,2.5376
0.881567,-0.160271,2.377,2.54027
0.889282,-0.160271,2.377,2.54296
0.896997,-0.160271,2.377,2.54567
0.904712,-0.160271,2.377,2.5484
0.912428,-0.160271,2.377,2.55114
0.920143,-0.160271,2.377,2.55391
0.927858,-0.160271,2.377,2.5567
0.935573,-0.160271,2.377,2.55951
0.943288,-0.160271,2.377,2.56234
0.951003,-0.160271,2.377,2.56519
nan,nan,nan,NaN
nan,nan,nan,NaN
nan,nan,nan,NaN
nan,nan,nan,NaN
nan,nan,nan,NaN
nan,nan,nan,NaN
nan,nan,nan,NaN
nan,nan,nan,NaN
nan,nan,nan,NaN
nan,nan,nan,NaN
nan,nan,nan,NaN
nan,nan,nan,NaN
nan,nan,nan,NaN
nan,nan,nan,NaN
nan,nan,nan,NaN
nan,nan,nan,NaN
nan,nan,nan,NaN
nan,nan,nan,NaN
1.62953,-0.237945,3.529,3.89433
1.64099,-0.237945,3.529,3.89914
1.65244,-0.237945,3.529,3.90398
1.68134,-0.24044,3.566,3.94982
1.69292,-0.24044,3.566,3.95476
1.70449,-0.24044,3.566,3.95973
1.71606,-0.24044,3.566,3.96473
1.78335,-0.248194,3.681,4.09777
1.72117,-0.237945,3.529,3.93356
1.73262,-0.237945,3.529,3.93858
nan,nan,nan,NaN
nan,nan,nan,NaN
nan,nan,nan,NaN
nan,nan,nan,NaN
nan,nan,nan,NaN
nan,nan,nan,NaN
nan,nan,nan,NaN
nan,nan,nan,NaN
nan,nan,nan,NaN
nan,nan,nan,NaN
nan,nan,nan,NaN
nan,nan,nan,NaN
1.92151,-0.243002,3.604,4.09146
1.93321,-0.243002,3.604,4.09697
1.96542,-0.245564,3.642,4.14576
1.97724,-0.245564,3.642,4.15138
1.98906,-0.245564,3.642,4.15702
2.02231,-0.248194,3.681,4.20727
2.03425,-0.248194,3.681,4.21302
2.0462,-0.248194,3.681,4.2188
2.05815,-0.248194,3.681,4.22461
2.0701,-0.248194,3.681,4.23044
2.08204,-0.248194,3.681,4.2363
2.09399,-0.248194,3.681,4.24219
2.10594,-0.248194,3.681,4.2481
2.09545,-0.245564,3.642,4.20896
2.08528,-0.243002,3.604,4.17088
2.09698,-0.243002,3.604,4.17674
2.10868,-0.243002,3.604,4.18263
2.09802,-0.24044,3.566,4.14438
2.10959,-0.24044,3.566,4.15025
2.09916,-0.237945,3.529,4.11302
2.06815,-0.233158,3.458,4.03601
2.07937,-0.233158,3.458,4.04177
2.04888,-0.228506,3.389,3.96679
2.03982,-0.226281,3.356,3.9338
2.05072,-0.226281,3.356,3.93946
2.00264,-0.219808,3.26,3.83229
1.97555,-0.215695,3.199,3.76602
1.98593,-0.215695,3.199,3.77148
1.96012,-0.211784,3.141,3.70848
1.93456,-0.207941,3.084,3.64648
1.94457,-0.207941,3.084,3.6518
1.92035,-0.2043,3.03,3.5931
1.89642,-0.200726,2.977,3.53543
1.87343,-0.197288,2.926,3.47996
1.88293,-0.197288,2.926,3.48509
1.86074,-0.193984,2.877,3.43178
1.85447,-0.192366,2.853,3.40818
1.86373,-0.192366,2.853,3.41323
1.84214,-0.189197,2.806,3.36198
1.83607,-0.187646,2.783,3.33938
1.84511,-0.187646,2.783,3.34436
1.82482,-0.184679,2.739,3.29639
1.80493,-0.18178,2.696,3.2495
1.81368,-0.18178,2.696,3.25436
1.80823,-0.180364,2.675,3.23386
1.80265,-0.178948,2.654,3.2133
-2.01252,-0.186189,2.901,3.53563
-1.98653,-0.184648,2.877,3.50108
-1.97719,-0.184648,2.877,3.49579
-1.95144,-0.183108,2.853,3.46139
-1.91018,-0.180092,2.806,3.39925
-1.90108,-0.180092,2.806,3.39414
-1.86163,-0.177203,2.761,3.33469
-1.8379,-0.175791,2.739,3.30317
-1.82901,-0.175791,2.739,3.29823
-1.8055,-0.174379,2.717,3.26686
-1.79668,-0.174379,2.717,3.26199
-1.78787,-0.174379,2.717,3.25714
-1.77905,-0.174379,2.717,3.25231
-1.77023,-0.174379,2.717,3.24749
-1.77567,-0.175791,2.739,3.26895
-1.79516,-0.178615,2.783,3.31657
-1.78613,-0.178615,2.783,3.31169
-1.79179,-0.180092,2.806,3.33415
-1.81254,-0.183108,2.853,3.38503
-1.80328,-0.183108,2.853,3.38008
-1.8242,-0.186189,2.901,3.43193
-1.81478,-0.186189,2.901,3.42694
-1.80537,-0.186189,2.901,3.42196
-1.82691,-0.189398,2.951,3.4759
-1.81733,-0.189398,2.951,3.47087
-1.82368,-0.191066,2.977,3.4964
-1.81401,-0.191066,2.977,3.49137
-1.80435,-0.191066,2.977,3.48636
-1.79469,-0.191066,2.977,3.48137
-1.78503,-0.191066,2.977,3.4764
-1.75986,-0.189398,2.951,3.44113
-1.75028,-0.189398,2.951,3.43624
-1.72596,-0.187793,2.926,3.4023
-1.71646,-0.187793,2.926,3.3975
nan,nan,nan,NaN
nan,nan,nan,NaN
nan,nan,nan,NaN
nan,nan,nan,NaN
nan,nan,nan,NaN
nan,nan,nan,NaN
nan,nan,nan,NaN
nan,nan,nan,NaN
nan,nan,nan,NaN
nan,nan,nan,NaN
nan,nan,nan,NaN
nan,nan,nan,NaN
nan,nan,nan,NaN
nan,nan,nan,NaN
nan,nan,nan,NaN
nan,nan,nan,NaN
nan,nan,nan,NaN
nan,nan,nan,NaN
nan,nan,nan,NaN
nan,nan,nan,NaN
nan,nan,nan,NaN
nan,nan,nan,NaN
nan,nan,nan,NaN
nan,nan,nan,NaN
nan,nan,nan,NaN
nan,nan,nan,NaN
nan,nan,nan,NaN
nan,nan,nan,NaN
nan,nan,nan,NaN
nan,nan,nan,NaN
nan,nan,nan,NaN
-1.2151,-0.161543,2.517,2.79962
-1.20693,-0.161543,2.517,2.79608
-1.19876,-0.161543,2.517,2.79257
-1.18208,-0.160388,2.499,2.76912
-1.16551,-0.159233,2.481,2.74575
-1.15746,-0.159233,2.481,2.74234
-1.14941,-0.159233,2.481,2.73895
-1.13308,-0.158078,2.463,2.71573
-1.12508,-0.158078,2.463,2.71241
-1.11709,-0.158078,2.463,2.7091
-1.10099,-0.156922,2.445,2.68604
-1.09305,-0.156922,2.445,2.6828
-1.08512,-0.156922,2.445,2.67958
-1.06969,-0.155831,2.428,2.65776
-1.06181,-0.155831,2.428,2.6546
-1.05393,-0.155831,2.428,2.65146
-1.04605,-0.155831,2.428,2.64834
-1.0309,-0.15474,2.411,2.62671
-1.02307,-0.15474,2.411,2.62365
-1.01525,-0.15474,2.411,2.62061
-1.00742,-0.15474,2.411,2.61759
-0.992548,-0.153649,2.394,2.59615
-0.984778,-0.153649,2.394,2.59319
-0.977007,-0.153649,2.394,2.59025
-0.969237,-0.153649,2.394,2.58733
-0.961466,-0.153649,2.394,2.58443
-0.953696,-0.153649,2.394,2.58155
-0.939209,-0.152558,2.377,2.56037
-0.931494,-0.152558,2.377,2.55755
-0.923778,-0.152558,2.377,2.55475
-0.916063,-0.152558,2.377,2.55197
-0.908348,-0.152558,2.377,2.54922
-0.900633,-0.152558,2.377,2.54648
-0.892918,-0.152558,2.377,2.54376
-0.885203,-0.152558,2.377,2.54106
-0.877488,-0.152558,2.377,2.53838
-0.863918,-0.151531,2.361,2.51866
-0.856255,-0.151531,2.361,2.51604
-0.848591,-0.151531,2.361,2.51344
-0.840928,-0.151531,2.361,2.51086
-0.833265,-0.151531,2.361,2.50831
-0.825602,-0.151531,2.361,2.50577
-0.823481,-0.152558,2.377,2.52022
-0.815766,-0.152558,2.377,2.51771
-0.808051,-0.152558,2.377,2.51522
-0.80606,-0.153649,2.394,2.53073
-0.79829,-0.153649,2.394,2.52826
-0.790519,-0.153649,2.394,2.52582
-0.782749,-0.153649,2.394,2.5234
-0.774979,-0.153649,2.394,2.521
-0.772656,-0.15474,2.411,2.53651
-0.764831,-0.15474,2.411,2.53413
-0.757005,-0.15474,2.411,2.53178
-0.754462,-0.155831,2.428,2.54729
-0.751809,-0.156922,2.445,2.56278
-0.743873,-0.156922,2.445,2.56047
-0.735937,-0.156922,2.445,2.55817
-0.728001,-0.156922,2.445,2.5559
-0.725366,-0.158078,2.463,2.57245
-0.717372,-0.158078,2.463,2.57021
-0.709378,-0.158078,2.463,2.56799
-0.706509,-0.159233,2.481,2.58454
-0.698457,-0.159233,2.481,2.58236
-0.690404,-0.159233,2.481,2.58019
-0.682351,-0.159233,2.481,2.57805
-0.674299,-0.159233,2.481,2.57593
-0.666246,-0.159233,2.481,2.57383
-0.658193,-0.159233,2.481,2.57176
-0.654857,-0.160388,2.499,2.58835
-0.646746,-0.160388,2.499,2.58631
-0.638635,-0.160388,2.499,2.5843
-0.630524,-0.160388,2.499,2.5823
-0.622413,-0.160388,2.499,2.58033
-0.614302,-0.160388,2.499,2.57839
-0.606191,-0.160388,2.499,2.57647
-0.602387,-0.161543,2.517,2.59312
-0.594218,-0.161543,2.517,2.59123
-0.581857,-0.160388,2.499,2.57085
-0.573746,-0.160388,2.499,2.56903
-0.565635,-0.160388,2.499,2.56723
-0.557524,-0.160388,2.499,2.56545
-0.549413,-0.160388,2.499,2.5637
-0.541301,-0.160388,2.499,2.56198
-0.53319,-0.160388,2.499,2.56028
-0.525079,-0.160388,2.499,2.5586
-0.520692,-0.161543,2.517,2.57537
-0.512522,-0.161543,2.517,2.57373
-0.50816,-0.162763,2.536,2.59153
-0.499929,-0.162763,2.536,2.58993
-0.491697,-0.162763,2.536,2.58835
-0.483466,-0.162763,2.536,2.5868
-0.475235,-0.162763,2.536,2.58527
-0.467004,-0.162763,2.536,2.58377
-0.46221,-0.163982,2.555,2.60164
-0.457292,-0.165202,2.574,2.61952
-0.448938,-0.165202,2.574,2.61807
-0.440583,-0.165202,2.574,2.61665
-0.432229,-0.165202,2.574,2.61526
-0.427003,-0.166421,2.593,2.63319
-0.418587,-0.166421,2.593,2.63184
-0.41017,-0.166421,2.593,2.63051
-0.401754,-0.166421,2.593,2.62921
-0.393338,-0.166421,2.593,2.62794
-0.384922,-0.166421,2.593,2.62669
-0.376505,-0.166421,2.593,2.62547
-0.368089,-0.166421,2.593,2.62428
-0.362447,-0.167705,2.613,2.64334
-0.353966,-0.167705,2.613,2.64219
-0.345485,-0.167705,2.613,2.64107
-0.337004,-0.167705,2.613,2.63997
-0.328522,-0.167705,2.613,2.63891
-0.320041,-0.167705,2.613,2.63786
-0.31156,-0.167705,2.613,2.63685
-0.300759,-0.166421,2.593,2.61568
-0.292343,-0.166421,2.593,2.61473
-0.283927,-0.166421,2.593,2.6138
-0.275511,-0.166421,2.593,2.6129
-0.267094,-0.166421,2.593,2.61203
-0.258678,-0.166421,2.593,2.61118
-0.250262,-0.166421,2.593,2.61036
-0.241846,-0.166421,2.593,2.60957
-0.233429,-0.166421,2.593,2.6088
-0.225013,-0.166421,2.593,2.60806
-0.216597,-0.166421,2.593,2.60735
-0.208181,-0.166421,2.593,2.60666
-0.199764,-0.166421,2.593,2.606
-0.191348,-0.166421,2.593,2.60537
-0.182932,-0.166421,2.593,2.60477
-0.174516,-0.166421,2.593,2.60419
-0.1661,-0.166421,2.593,2.60364
-0.156528,-0.165202,2.574,2.58404
-0.148173,-0.165202,2.574,2.58355
-0.138787,-0.163982,2.555,2.56402
-0.130494,-0.163982,2.555,2.56358
-0.12311,-0.165202,2.574,2.58223
-0.114755,-0.165202,2.574,2.58185
-0.1064,-0.165202,2.574,2.58149
-0.0980459,-0.165202,2.574,2.58116
-0.0896914,-0.165202,2.574,2.58086
-0.0813368,-0.165202,2.574,2.58058
-0.0729822,-0.165202,2.574,2.58033
-0.0646277,-0.165202,2.574,2.58011
-0.0562731,-0.165202,2.574,2.57991
-0.0479185,-0.165202,2.574,2.57974
-0.039564,-0.165202,2.574,2.5796
-0.0312094,-0.165202,2.574,2.57948
-0.0228548,-0.165202,2.574,2.5794
-0.0146073,-0.166421,2.593,2.59838
-0.00619107,-0.166421,2.593,2.59834
0.00222516,-0.166421,2.593,2.59834
0.0106414,-0.166421,2.593,2.59836
0.0190576,-0.166421,2.593,2.59841
0.0274739,-0.166421,2.593,2.59848
0.0358901,-0.166421,2.593,2.59858
