-0.886907,-0.0902426,2.361,2.5237
-0.879244,-0.0902426,2.361,2.52102
-0.871581,-0.0902426,2.361,2.51836
-0.863918,-0.0902426,2.361,2.51571
-0.856255,-0.0902426,2.361,2.51309
-0.848591,-0.0902426,2.361,2.51049
-0.840928,-0.0902426,2.361,2.50791
-0.833265,-0.0902426,2.361,2.50535
-0.825602,-0.0902426,2.361,2.50282
-0.817938,-0.0902426,2.361,2.5003
-0.810275,-0.0902426,2.361,2.4978
-0.802612,-0.0902426,2.361,2.49533
-0.794949,-0.0902426,2.361,2.49287
-0.787286,-0.0902426,2.361,2.49044
-0.784906,-0.0908541,2.377,2.50489
-0.777191,-0.0908541,2.377,2.50248
-0.769475,-0.0908541,2.377,2.5001
-0.76176,-0.0908541,2.377,2.49773
-0.754045,-0.0908541,2.377,2.49539
-0.74633,-0.0908541,2.377,2.49307
-0.738615,-0.0908541,2.377,2.49077
-0.7309,-0.0908541,2.377,2.48849
-0.728357,-0.0915039,2.394,2.50402
-0.720586,-0.0915039,2.394,2.50177
-0.712816,-0.0915039,2.394,2.49954
-0.705046,-0.0915039,2.394,2.49734
-0.697275,-0.0915039,2.394,2.49516
-0.689505,-0.0915039,2.394,2.493
-0.686576,-0.0921537,2.411,2.50855
-0.67875,-0.0921537,2.411,2.50641
-0.670925,-0.0921537,2.411,2.50431
-0.663099,-0.0921537,2.411,2.50222
-0.659894,-0.0928035,2.428,2.51779
-0.652013,-0.0928035,2.428,2.51573
-0.648643,-0.0934533,2.445,2.5313
-0.640707,-0.0934533,2.445,2.52928
-0.632771,-0.0934533,2.445,2.52728
-0.629435,-0.0941413,2.463,2.5439
-0.625982,-0.0948293,2.481,2.56051
-0.61793,-0.0948293,2.481,2.55855
-0.609877,-0.0948293,2.481,2.55662
-0.606191,-0.0955173,2.499,2.57325
-0.598079,-0.0955173,2.499,2.57135
-0.589968,-0.0955173,2.499,2.56947
-0.581857,-0.0955173,2.499,2.56762
-0.573746,-0.0955173,2.499,2.5658
-0.565635,-0.0955173,2.499,2.56399
-0.561539,-0.0962052,2.517,2.58067
-0.55337,-0.0962052,2.517,2.57891
-0.5452,-0.0962052,2.517,2.57717
-0.537031,-0.0962052,2.517,2.57545
-0.528861,-0.0962052,2.517,2.57376
-0.520692,-0.0962052,2.517,2.57209
-0.512522,-0.0962052,2.517,2.57045
-0.50816,-0.0969315,2.536,2.58823
-0.499929,-0.0969315,2.536,2.58662
-0.491697,-0.0969315,2.536,2.58505
-0.479844,-0.0962052,2.517,2.56414
-0.471674,-0.0962052,2.517,2.56262
-0.463505,-0.0962052,2.517,2.56113
-0.455335,-0.0962052,2.517,2.55966
-0.447166,-0.0962052,2.517,2.55822
-0.438996,-0.0962052,2.517,2.55681
-0.430827,-0.0962052,2.517,2.55542
-0.422657,-0.0962052,2.517,2.55405
-0.414487,-0.0962052,2.517,2.55271
-0.406318,-0.0962052,2.517,2.5514
-0.398148,-0.0962052,2.517,2.55011
-0.389979,-0.0962052,2.517,2.54885
-0.381809,-0.0962052,2.517,2.54761
-0.37646,-0.0969315,2.536,2.56562
-0.368229,-0.0969315,2.536,2.56443
-0.359998,-0.0969315,2.536,2.56326
-0.351766,-0.0969315,2.536,2.56211
-0.346109,-0.0976577,2.555,2.58018
-0.337816,-0.0976577,2.555,2.57909
-0.329523,-0.0976577,2.555,2.57801
-0.323619,-0.0983839,2.574,2.59613
-0.315265,-0.0983839,2.574,2.5951
-0.30691,-0.0983839,2.574,2.5941
-0.300759,-0.0991101,2.593,2.61227
-0.292343,-0.0991101,2.593,2.61131
-0.283927,-0.0991101,2.593,2.61038
-0.273492,-0.0983839,2.574,2.59036
-0.265137,-0.0983839,2.574,2.58949
-0.256783,-0.0983839,2.574,2.58865
-0.248428,-0.0983839,2.574,2.58783
-0.240074,-0.0983839,2.574,2.58704
-0.231719,-0.0983839,2.574,2.58628
-0.221716,-0.0976577,2.555,2.56646
-0.211836,-0.0969315,2.536,2.54668
-0.203604,-0.0969315,2.536,2.54601
-0.195373,-0.0969315,2.536,2.54536
-0.187142,-0.0969315,2.536,2.54474
-0.178911,-0.0969315,2.536,2.54415
-0.170679,-0.0969315,2.536,2.54358
-0.162448,-0.0969315,2.536,2.54305
-0.153062,-0.0962052,2.517,2.52348
-0.144892,-0.0962052,2.517,2.523
-0.136723,-0.0962052,2.517,2.52255
-0.128553,-0.0962052,2.517,2.52212
-0.120383,-0.0962052,2.517,2.52171
-0.112214,-0.0962052,2.517,2.52134
-0.104044,-0.0962052,2.517,2.52099
-0.0965985,-0.0969315,2.536,2.53969
-0.0883672,-0.0969315,2.536,2.53939
-0.080136,-0.0969315,2.536,2.53912
-0.0719048,-0.0969315,2.536,2.53887
-0.0641506,-0.0976577,2.555,2.55767
-0.0558577,-0.0976577,2.555,2.55748
-0.0475648,-0.0976577,2.555,2.55731
-0.039564,-0.0983839,2.574,2.57618
-0.0312094,-0.0983839,2.574,2.57607
-0.0230235,-0.0991101,2.593,2.595
-0.0148326,-0.100639,2.633,2.63496
-0.00628658,-0.100639,2.633,2.63493
0.00224232,-0.0998746,2.613,2.61491
0.0107235,-0.0998746,2.613,2.61493
0.0192046,-0.0998746,2.613,2.61498
0.0274739,-0.0991101,2.593,2.59504
0.0358901,-0.0991101,2.593,2.59514
0.0443063,-0.0991101,2.593,2.59527
0.0527226,-0.0991101,2.593,2.59543
0.0606908,-0.0983839,2.574,2.57659
0.0690454,-0.0983839,2.574,2.5768
0.0773999,-0.0983839,2.574,2.57704
0.0857545,-0.0983839,2.574,2.57731
0.0941091,-0.0983839,2.574,2.5776
0.101707,-0.0976577,2.555,2.55889
0.11,-0.0976577,2.555,2.55923
0.119173,-0.0983839,2.574,2.57863
0.127527,-0.0983839,2.574,2.57903
0.135882,-0.0983839,2.574,2.57946
0.144236,-0.0983839,2.574,2.57991
0.152591,-0.0983839,2.574,2.5804
0.160946,-0.0983839,2.574,2.5809
0.17055,-0.0991101,2.593,2.60049
0.178966,-0.0991101,2.593,2.60106
0.187382,-0.0991101,2.593,2.60165
0.197309,-0.0998746,2.613,2.62234
0.207365,-0.100639,2.633,2.64307
0.215911,-0.100639,2.633,2.64375
0.224457,-0.100639,2.633,2.64447
0.233003,-0.100639,2.633,2.6452
0.241549,-0.100639,2.633,2.64597
0.250095,-0.100639,2.633,2.64676
0.258641,-0.100639,2.633,2.64759
0.267187,-0.100639,2.633,2.64843
0.275734,-0.100639,2.633,2.64931
0.28212,-0.0998746,2.613,2.63008
0.290601,-0.0998746,2.613,2.63101
0.299083,-0.0998746,2.613,2.63196
0.30521,-0.0991101,2.593,2.61278
0.313626,-0.0991101,2.593,2.61378
0.322042,-0.0991101,2.593,2.6148
0.328037,-0.0983839,2.574,2.59668
0.336391,-0.0983839,2.574,2.59775
0.344746,-0.0983839,2.574,2.59885
0.350494,-0.0976577,2.555,2.58078
0.358787,-0.0976577,2.555,2.58192
0.36708,-0.0976577,2.555,2.58308
0.375373,-0.0976577,2.555,2.58427
0.380813,-0.0969315,2.536,2.56626
0.389044,-0.0969315,2.536,2.5675
0.397275,-0.0969315,2.536,2.56876
0.408544,-0.0976577,2.555,2.5893
0.416837,-0.0976577,2.555,2.59062
0.42513,-0.0976577,2.555,2.59197
0.433423,-0.0976577,2.555,2.59334
0.441716,-0.0976577,2.555,2.59474
0.450009,-0.0976577,2.555,2.59616
0.458302,-0.0976577,2.555,2.59761
0.466595,-0.0976577,2.555,2.59909
0.474888,-0.0976577,2.555,2.60059
0.48318,-0.0976577,2.555,2.60212
0.491473,-0.0976577,2.555,2.60367
0.499766,-0.0976577,2.555,2.60525
0.504281,-0.0969315,2.536,2.58747
0.512512,-0.0969315,2.536,2.58908
0.520743,-0.0969315,2.536,2.59073
0.528975,-0.0969315,2.536,2.59239
0.537206,-0.0969315,2.536,2.59409
0.549524,-0.0976577,2.555,2.61525
0.557817,-0.0976577,2.555,2.61701
0.566109,-0.0976577,2.555,2.61879
0.578674,-0.0983839,2.574,2.64008
0.587028,-0.0983839,2.574,2.64192
0.595383,-0.0983839,2.574,2.64379
0.603738,-0.0983839,2.574,2.64569
0.61661,-0.0991101,2.593,2.66715
0.629847,-0.0998746,2.613,2.68969
0.638328,-0.0998746,2.613,2.69169
0.64681,-0.0998746,2.613,2.69372
0.655291,-0.0998746,2.613,2.69577
0.663772,-0.0998746,2.613,2.69784
0.672253,-0.0998746,2.613,2.69994
0.680734,-0.0998746,2.613,2.70206
0.689215,-0.0998746,2.613,2.70421
0.692356,-0.0991101,2.593,2.68567
0.700773,-0.0991101,2.593,2.68785
0.709189,-0.0991101,2.593,2.69006
0.717605,-0.0991101,2.593,2.69229
0.720701,-0.0983839,2.574,2.6748
0.729056,-0.0983839,2.574,2.67707
0.737411,-0.0983839,2.574,2.67935
0.745765,-0.0983839,2.574,2.68166
0.75412,-0.0983839,2.574,2.684
0.756846,-0.0976577,2.555,2.66653
0.765139,-0.0976577,2.555,2.66889
0.773432,-0.0976577,2.555,2.67128
0.781725,-0.0976577,2.555,2.6737
0.795892,-0.0983839,2.574,2.69603
0.804247,-0.0983839,2.574,2.69851
0.812602,-0.0983839,2.574,2.70101
0.820956,-0.0983839,2.574,2.70354
0.835432,-0.0991101,2.593,2.72606
0.843849,-0.0991101,2.593,2.72865
0.84602,-0.0983839,2.574,2.71126
0.854374,-0.0983839,2.574,2.71387
0.862729,-0.0983839,2.574,2.71652
0.871084,-0.0983839,2.574,2.71918
0.879438,-0.0983839,2.574,2.72187
0.887793,-0.0983839,2.574,2.72458
0.889532,-0.0976577,2.555,2.70718
0.897825,-0.0976577,2.555,2.70992
0.906118,-0.0976577,2.555,2.71268
0.907611,-0.0969315,2.536,2.69526
0.908981,-0.0962052,2.517,2.67783
0.910591,-0.0955173,2.499,2.66145
0.918703,-0.0955173,2.499,2.66423
0.920138,-0.0948293,2.481,2.64783
0.928191,-0.0948293,2.481,2.65064
0.936243,-0.0948293,2.481,2.65347
0.937445,-0.0941413,2.463,2.63705
0.93853,-0.0934533,2.445,2.62061
0.946466,-0.0934533,2.445,2.62346
0.954402,-0.0934533,2.445,2.62634
0.962338,-0.0934533,2.445,2.62923
0.970273,-0.0934533,2.445,2.63215
0.971408,-0.0928035,2.428,2.61676
0.979289,-0.0928035,2.428,2.6197
0.987169,-0.0928035,2.428,2.62265
0.99505,-0.0928035,2.428,2.62563
1.00293,-0.0928035,2.428,2.62862
1.02538,-0.0941413,2.463,2.66958
1.03338,-0.0941413,2.463,2.67266
1.04137,-0.0941413,2.463,2.67576
1.05703,-0.0948293,2.481,2.69846
1.0887,-0.0969315,2.536,2.76151
1.09693,-0.0969315,2.536,2.76477
1.13,-0.0991101,2.593,2.83026
1.15598,-0.100639,2.633,2.87734
1.1831,-0.102244,2.675,2.92674
1.19178,-0.102244,2.675,2.93026
1.21931,-0.10385,2.717,2.97987
1.24802,-0.105531,2.761,3.0318
1.25698,-0.105531,2.761,3.0355
1.27603,-0.106372,2.783,3.06344
1.29568,-0.107251,2.806,3.09256
1.30479,-0.107251,2.806,3.09639
1.3139,-0.107251,2.806,3.10024
1.32301,-0.107251,2.806,3.10411
1.33211,-0.107251,2.806,3.108
1.33023,-0.106372,2.783,3.08641
1.33926,-0.106372,2.783,3.09031
1.37058,-0.108131,2.829,3.14538
1.37976,-0.108131,2.829,3.14939
1.38894,-0.108131,2.829,3.15343
1.40999,-0.109048,2.853,3.18427
1.41925,-0.109048,2.853,3.18838
1.44053,-0.109965,2.877,3.21937
1.44986,-0.109965,2.877,3.22356
1.4592,-0.109965,2.877,3.22777
1.46854,-0.109965,2.877,3.232
1.50305,-0.111838,2.926,3.29137
1.53891,-0.113787,2.977,3.35317
1.54857,-0.113787,2.977,3.35761
1.60011,-0.116845,3.057,3.45243
1.639,-0.118947,3.112,3.51923
1.6491,-0.118947,3.112,3.52395
1.69012,-0.121164,3.17,3.59445
1.71597,-0.122273,3.199,3.63223
1.72635,-0.122273,3.199,3.63715
1.76985,-0.124604,3.26,3.71154
1.79791,-0.125827,3.292,3.75307
1.82617,-0.127051,3.324,3.79474
1.83696,-0.127051,3.324,3.79994
1.82996,-0.125827,3.292,3.76854
1.84065,-0.125827,3.292,3.77374
1.83334,-0.124604,3.26,3.74223
1.82695,-0.123458,3.23,3.71293
1.83743,-0.123458,3.23,3.7181
1.83018,-0.122273,3.199,3.68756
1.82388,-0.121164,3.17,3.65925
1.83417,-0.121164,3.17,3.66439
1.82758,-0.120056,3.141,3.63598
1.83778,-0.120056,3.141,3.64112
1.84797,-0.120056,3.141,3.64627
1.85817,-0.120056,3.141,3.65145
1.85111,-0.118947,3.112,3.62289
1.86121,-0.118947,3.112,3.62806
1.87131,-0.118947,3.112,3.63325
1.88142,-0.118947,3.112,3.63846
1.8745,-0.117877,3.084,3.61091
1.88451,-0.117877,3.084,3.61612
1.87793,-0.116845,3.057,3.58964
1.88785,-0.116845,3.057,3.59484
1.89778,-0.116845,3.057,3.60006
1.89085,-0.115813,3.03,3.57346
1.86744,-0.113787,2.977,3.51608
1.8771,-0.113787,2.977,3.52122
1.87028,-0.112794,2.951,3.49558
1.84801,-0.110883,2.901,3.4414
1.82669,-0.109048,2.853,3.38944
1.83595,-0.109048,2.853,3.39444
1.81482,-0.107251,2.806,3.34346
1.79467,-0.105531,2.761,3.29471
1.80364,-0.105531,2.761,3.2996
1.78371,-0.10385,2.717,3.25185
1.76482,-0.102244,2.675,3.20635
1.7735,-0.102244,2.675,3.21114
1.7542,-0.100639,2.633,3.16545
1.72325,-0.0983839,2.574,3.09915
1.7316,-0.0983839,2.574,3.10381
1.71427,-0.0969315,2.536,3.06258
1.69737,-0.0955173,2.499,3.02245
-2.06524,-0.104128,2.977,3.62472
-2.02036,-0.102344,2.926,3.55722
-2.01087,-0.102344,2.926,3.55184
-1.98427,-0.101469,2.901,3.51617
-1.94218,-0.0997904,2.853,3.45277
-1.93292,-0.0997904,2.853,3.44757
-1.90748,-0.0989509,2.829,3.41343
-1.86743,-0.097342,2.783,3.35289
-1.85839,-0.097342,2.783,3.34786
-1.84936,-0.097342,2.783,3.34286
-1.82578,-0.0965725,2.761,3.31148
-1.81682,-0.0965725,2.761,3.30655
-1.80786,-0.0965725,2.761,3.30164
-1.7989,-0.0965725,2.761,3.29674
-1.8042,-0.097342,2.783,3.31809
nan,nan,nan,NaN
nan,nan,nan,NaN
nan,nan,nan,NaN
nan,nan,nan,NaN
nan,nan,nan,NaN
nan,nan,nan,NaN
-1.81478,-0.101469,2.901,3.42338
-1.80537,-0.101469,2.901,3.4184
-1.79595,-0.101469,2.901,3.41344
-1.78654,-0.101469,2.901,3.40849
-1.79244,-0.102344,2.926,3.4329
-1.78294,-0.102344,2.926,3.42795
-1.77344,-0.102344,2.926,3.42302
-1.76394,-0.102344,2.926,3.41811
-1.75445,-0.102344,2.926,3.41321
-1.73004,-0.101469,2.901,3.37922
-1.70639,-0.10063,2.877,3.34649
-1.69705,-0.10063,2.877,3.34174
-1.68771,-0.10063,2.877,3.33701
-1.65037,-0.0989509,2.829,3.2767
-1.64119,-0.0989509,2.829,3.27209
-1.61874,-0.0981465,2.806,3.24092
-1.60963,-0.0981465,2.806,3.23639
-1.60053,-0.0981465,2.806,3.23187
-1.59142,-0.0981465,2.806,3.22736
nan,nan,nan,NaN
nan,nan,nan,NaN
nan,nan,nan,NaN
nan,nan,nan,NaN
nan,nan,nan,NaN
nan,nan,nan,NaN
nan,nan,nan,NaN
nan,nan,nan,NaN
nan,nan,nan,NaN
nan,nan,nan,NaN
nan,nan,nan,NaN
nan,nan,nan,NaN
nan,nan,nan,NaN
nan,nan,nan,NaN
nan,nan,nan,NaN
nan,nan,nan,NaN
nan,nan,nan,NaN
nan,nan,nan,NaN
nan,nan,nan,NaN
nan,nan,nan,NaN
nan,nan,nan,NaN
nan,nan,nan,NaN
-1.27704,-0.0906963,2.593,2.89184
-1.25933,-0.0900317,2.574,2.86697
-1.25098,-0.0900317,2.574,2.86331
-1.23345,-0.0893671,2.555,2.83856
-1.21605,-0.0887026,2.536,2.81388
-1.20781,-0.0887026,2.536,2.81033
-1.1906,-0.088038,2.517,2.78578
-1.17397,-0.0874084,2.499,2.7624
-1.16586,-0.0874084,2.499,2.75896
-1.15775,-0.0874084,2.499,2.75554
-1.14136,-0.0867788,2.481,2.73232
-1.12508,-0.0861492,2.463,2.70917
-1.11709,-0.0861492,2.463,2.70586
-1.10099,-0.0855196,2.445,2.68282
-1.08545,-0.084925,2.428,2.66094
-1.07757,-0.084925,2.428,2.65773
-1.0622,-0.0843304,2.411,2.63596
-1.04694,-0.0837358,2.394,2.61426
-1.03917,-0.0837358,2.394,2.61115
-1.0314,-0.0837358,2.394,2.60807
-1.01636,-0.0831412,2.377,2.58651
-1.00865,-0.0831412,2.377,2.58349
-1.00093,-0.0831412,2.377,2.58048
-0.993215,-0.0831412,2.377,2.5775
-0.9855,-0.0831412,2.377,2.57454
-0.977785,-0.0831412,2.377,2.5716
-0.970069,-0.0831412,2.377,2.56867
-0.955876,-0.0825815,2.361,2.5485
-0.948213,-0.0825815,2.361,2.54563
-0.94055,-0.0825815,2.361,2.54279
-0.932887,-0.0825815,2.361,2.53996
-0.925224,-0.0825815,2.361,2.53716
-0.923778,-0.0831412,2.377,2.55155
-0.916063,-0.0831412,2.377,2.54877
-0.902234,-0.0825815,2.361,2.52887
-0.894571,-0.0825815,2.361,2.52614
-0.886907,-0.0825815,2.361,2.52344
-0.879244,-0.0825815,2.361,2.52076
-0.871581,-0.0825815,2.361,2.51809
-0.863918,-0.0825815,2.361,2.51545
-0.856255,-0.0825815,2.361,2.51283
-0.848591,-0.0825815,2.361,2.51023
-0.840928,-0.0825815,2.361,2.50765
-0.833265,-0.0825815,2.361,2.50509
-0.825602,-0.0825815,2.361,2.50255
-0.817938,-0.0825815,2.361,2.50003
-0.810275,-0.0825815,2.361,2.49754
-0.802612,-0.0825815,2.361,2.49506
-0.794949,-0.0825815,2.361,2.49261
-0.787286,-0.0825815,2.361,2.49017
-0.784906,-0.0831412,2.377,2.50462
-0.777191,-0.0831412,2.377,2.50221
-0.769475,-0.0831412,2.377,2.49983
-0.76176,-0.0831412,2.377,2.49746
-0.754045,-0.0831412,2.377,2.49512
-0.74633,-0.0831412,2.377,2.4928
-0.738615,-0.0831412,2.377,2.4905
-0.7309,-0.0831412,2.377,2.48822
-0.728357,-0.0837358,2.394,2.50375
-0.720586,-0.0837358,2.394,2.5015
-0.712816,-0.0837358,2.394,2.49927
-0.705046,-0.0837358,2.394,2.49707
-0.697275,-0.0837358,2.394,2.49488
-0.689505,-0.0837358,2.394,2.49272
-0.686576,-0.0843304,2.411,2.50827
-0.67875,-0.0843304,2.411,2.50614
-0.670925,-0.0843304,2.411,2.50403
-0.663099,-0.0843304,2.411,2.50195
-0.659894,-0.084925,2.428,2.51751
-0.652013,-0.084925,2.428,2.51546
-0.648643,-0.0855196,2.445,2.53102
-0.640707,-0.0855196,2.445,2.529
-0.632771,-0.0855196,2.445,2.527
-0.629435,-0.0861492,2.463,2.54362
-0.625982,-0.0867788,2.481,2.56022
-0.61793,-0.0867788,2.481,2.55827
-0.609877,-0.0867788,2.481,2.55633
-0.606191,-0.0874084,2.499,2.57296
-0.598079,-0.0874084,2.499,2.57106
-0.589968,-0.0874084,2.499,2.56918
-0.581857,-0.0874084,2.499,2.56733
-0.573746,-0.0874084,2.499,2.56551
-0.565635,-0.0874084,2.499,2.56371
-0.557524,-0.0874084,2.499,2.56193
-0.55337,-0.088038,2.517,2.57862
-0.5452,-0.088038,2.517,2.57687
-0.537031,-0.088038,2.517,2.57516
-0.528861,-0.088038,2.517,2.57347
-0.520692,-0.088038,2.517,2.5718
-0.512522,-0.088038,2.517,2.57016
-0.50816,-0.0887026,2.536,2.58793
-0.499929,-0.0887026,2.536,2.58633
-0.488013,-0.088038,2.517,2.56538
-0.479844,-0.088038,2.517,2.56384
-0.471674,-0.088038,2.517,2.56233
-0.463505,-0.088038,2.517,2.56084
-0.455335,-0.088038,2.517,2.55937
-0.447166,-0.088038,2.517,2.55793
-0.438996,-0.088038,2.517,2.55651
-0.430827,-0.088038,2.517,2.55512
-0.422657,-0.088038,2.517,2.55376
-0.414487,-0.088038,2.517,2.55242
-0.406318,-0.088038,2.517,2.5511
-0.398148,-0.088038,2.517,2.54982
-0.389979,-0.088038,2.517,2.54855
-0.381809,-0.088038,2.517,2.54732
-0.37646,-0.0887026,2.536,2.56532
-0.368229,-0.0887026,2.536,2.56413
-0.359998,-0.0887026,2.536,2.56296
-0.351766,-0.0887026,2.536,2.56182
-0.346109,-0.0893671,2.555,2.57988
-0.337816,-0.0893671,2.555,2.57878
-0.329523,-0.0893671,2.555,2.57771
-0.32123,-0.0893671,2.555,2.57666
-0.312937,-0.0893671,2.555,2.57564
-0.304645,-0.0893671,2.555,2.57465
-0.298555,-0.0900317,2.574,2.59282
-0.290201,-0.0900317,2.574,2.59187
-0.281846,-0.0900317,2.574,2.59095
-0.273492,-0.0900317,2.574,2.59005
-0.26318,-0.0893671,2.555,2.57007
-0.254887,-0.0893671,2.555,2.56924
-0.246594,-0.0893671,2.555,2.56843
-0.238301,-0.0893671,2.555,2.56764
-0.230009,-0.0893671,2.555,2.56689
-0.221716,-0.0893671,2.555,2.56616
-0.211836,-0.0887026,2.536,2.54638
-0.203604,-0.0887026,2.536,2.54571
-0.195373,-0.0887026,2.536,2.54506
-0.187142,-0.0887026,2.536,2.54444
-0.178911,-0.0887026,2.536,2.54385
-0.170679,-0.0887026,2.536,2.54328
-0.162448,-0.0887026,2.536,2.54275
-0.153062,-0.088038,2.517,2.52319
-0.144892,-0.088038,2.517,2.5227
-0.136723,-0.088038,2.517,2.52225
-0.128553,-0.088038,2.517,2.52182
-0.120383,-0.088038,2.517,2.52141
-0.112214,-0.088038,2.517,2.52104
-0.104044,-0.088038,2.517,2.52069
-0.0958747,-0.088038,2.517,2.52036
-0.0877052,-0.088038,2.517,2.52007
-0.080136,-0.0887026,2.536,2.53882
-0.0719048,-0.0887026,2.536,2.53857
-0.0636736,-0.0887026,2.536,2.53835
-0.0554423,-0.0887026,2.536,2.53816
-0.0475648,-0.0893671,2.555,2.557
-0.0392719,-0.0893671,2.555,2.55686
-0.030979,-0.0893671,2.555,2.55675
-0.0228548,-0.0900317,2.574,2.57568
-0.01472,-0.0913958,2.613,2.61464
-0.00623883,-0.0913958,2.613,2.61461
0.00224232,-0.0913958,2.613,2.6146
0.0107235,-0.0913958,2.613,2.61462
0.0192046,-0.0913958,2.613,2.61467
0.0274739,-0.0906963,2.593,2.59473
0.0358901,-0.0906963,2.593,2.59483
0.0443063,-0.0906963,2.593,2.59496
0.0527226,-0.0906963,2.593,2.59512
0.0606908,-0.0900317,2.574,2.57629
0.0690454,-0.0900317,2.574,2.5765
0.0773999,-0.0900317,2.574,2.57674
0.0851215,-0.0893671,2.555,2.55798
0.0934144,-0.0893671,2.555,2.55827
0.101707,-0.0893671,2.555,2.55858
0.11,-0.0893671,2.555,2.55893
0.118293,-0.0893671,2.555,2.5593
0.126586,-0.0893671,2.555,2.55969
0.134879,-0.0893671,2.555,2.56012
0.143172,-0.0893671,2.555,2.56057
0.152591,-0.0900317,2.574,2.58009
0.160946,-0.0900317,2.574,2.5806
0.1693,-0.0900317,2.574,2.58113
0.178966,-0.0906963,2.593,2.60075
0.187382,-0.0906963,2.593,2.60134
0.197309,-0.0913958,2.613,2.62203
0.20579,-0.0913958,2.613,2.62268
0.215911,-0.0920954,2.633,2.64344
0.224457,-0.0920954,2.633,2.64415
0.233003,-0.0920954,2.633,2.64489
0.241549,-0.0920954,2.633,2.64566
0.250095,-0.0920954,2.633,2.64645
0.256677,-0.0913958,2.613,2.62717
0.265158,-0.0913958,2.613,2.62801
0.273639,-0.0913958,2.613,2.62888
0.28212,-0.0913958,2.613,2.62977
0.290601,-0.0913958,2.613,2.6307
0.299083,-0.0913958,2.613,2.63165
0.307564,-0.0913958,2.613,2.63263
0.313626,-0.0906963,2.593,2.61347
0.322042,-0.0906963,2.593,2.6145
0.328037,-0.0900317,2.574,2.59638
0.336391,-0.0900317,2.574,2.59745
0.344746,-0.0900317,2.574,2.59854
0.350494,-0.0893671,2.555,2.58048
0.358787,-0.0893671,2.555,2.58162
0.36708,-0.0893671,2.555,2.58278
0.375373,-0.0893671,2.555,2.58397
0.380813,-0.0887026,2.536,2.56597
0.389044,-0.0887026,2.536,2.5672
0.397275,-0.0887026,2.536,2.56846
0.408544,-0.0893671,2.555,2.589
0.416837,-0.0893671,2.555,2.59032
nan,nan,nan,NaN
0.433423,-0.0893671,2.555,2.59304
0.441716,-0.0893671,2.555,2.59444
0.450009,-0.0893671,2.555,2.59587
0.458302,-0.0893671,2.555,2.59732
0.466595,-0.0893671,2.555,2.59879
0.474888,-0.0893671,2.555,2.60029
0.48318,-0.0893671,2.555,2.60182
0.491473,-0.0893671,2.555,2.60337
0.499766,-0.0893671,2.555,2.60495
0.504281,-0.0887026,2.536,2.58717
0.512512,-0.0887026,2.536,2.58879
0.520743,-0.0887026,2.536,2.59043
0.528975,-0.0887026,2.536,2.5921
0.537206,-0.0887026,2.536,2.59379
0.549524,-0.0893671,2.555,2.61495
0.557817,-0.0893671,2.555,2.61671
0.566109,-0.0893671,2.555,2.61849
0.582945,-0.0906963,2.593,2.65927
0.591362,-0.0906963,2.593,2.66112
0.599778,-0.0906963,2.593,2.66301
0.608194,-0.0906963,2.593,2.66492
0.61661,-0.0906963,2.593,2.66685
0.629847,-0.0913958,2.613,2.68939
0.638328,-0.0913958,2.613,2.69139
0.64681,-0.0913958,2.613,2.69342
0.660306,-0.0920954,2.633,2.7161
0.668853,-0.0920954,2.633,2.71819
0.677399,-0.0920954,2.633,2.7203
0.685945,-0.0920954,2.633,2.72244
0.694491,-0.0920954,2.633,2.72461
0.697697,-0.0913958,2.613,2.70609
0.706178,-0.0913958,2.613,2.70829
0.714659,-0.0913958,2.613,2.71051
0.717605,-0.0906963,2.593,2.69199
0.726021,-0.0906963,2.593,2.69425
0.734438,-0.0906963,2.593,2.69653
0.742854,-0.0906963,2.593,2.69883
0.745765,-0.0900317,2.574,2.68137
0.75412,-0.0900317,2.574,2.68371
0.762474,-0.0900317,2.574,2.68607
0.770829,-0.0900317,2.574,2.68845
0.779183,-0.0900317,2.574,2.69086
0.787538,-0.0900317,2.574,2.69329
0.795892,-0.0900317,2.574,2.69574
0.804247,-0.0900317,2.574,2.69822
0.812602,-0.0900317,2.574,2.70072
0.820956,-0.0900317,2.574,2.70325
0.835432,-0.0906963,2.593,2.72577
0.843849,-0.0906963,2.593,2.72836
0.852265,-0.0906963,2.593,2.73098
0.854374,-0.0900317,2.574,2.71358
0.862729,-0.0900317,2.574,2.71623
0.871084,-0.0900317,2.574,2.71889
0.879438,-0.0900317,2.574,2.72158
0.887793,-0.0900317,2.574,2.72429
0.889532,-0.0893671,2.555,2.70689
0.897825,-0.0893671,2.555,2.70963
0.906118,-0.0893671,2.555,2.71239
0.907611,-0.0887026,2.536,2.69498
0.908981,-0.088038,2.517,2.67755
0.910591,-0.0874084,2.499,2.66117
0.918703,-0.0874084,2.499,2.66395
0.920138,-0.0867788,2.481,2.64755
0.928191,-0.0867788,2.481,2.65036
0.936243,-0.0867788,2.481,2.6532
0.937445,-0.0861492,2.463,2.63678
0.945439,-0.0861492,2.463,2.63963
0.953434,-0.0861492,2.463,2.6425
0.954402,-0.0855196,2.445,2.62607
0.955646,-0.084925,2.428,2.61068
0.963527,-0.084925,2.428,2.61358
0.971408,-0.084925,2.428,2.61649
0.979289,-0.084925,2.428,2.61943
0.987169,-0.084925,2.428,2.62238
0.99505,-0.084925,2.428,2.62536
1.00293,-0.084925,2.428,2.62836
1.02538,-0.0861492,2.463,2.66931
1.03338,-0.0861492,2.463,2.67239
1.04137,-0.0861492,2.463,2.67549
1.05703,-0.0867788,2.481,2.69819
1.0887,-0.0887026,2.536,2.76124
1.09693,-0.0887026,2.536,2.76449
1.13,-0.0906963,2.593,2.82998
1.15598,-0.0920954,2.633,2.87706
1.1831,-0.0935644,2.675,2.92645
1.19178,-0.0935644,2.675,2.92997
1.21931,-0.0950335,2.717,2.97957
1.23808,-0.095803,2.739,3.00735
1.24697,-0.095803,2.739,3.01102
1.26594,-0.0965725,2.761,3.03892
1.28506,-0.097342,2.783,3.06691
1.2941,-0.097342,2.783,3.07071
1.3139,-0.0981465,2.806,3.09994
1.31216,-0.097342,2.783,3.07837
1.3212,-0.097342,2.783,3.08223
1.33023,-0.097342,2.783,3.08611
1.33926,-0.097342,2.783,3.09001
1.35944,-0.0981465,2.806,3.11951
1.36854,-0.0981465,2.806,3.12349
1.38894,-0.0989509,2.829,3.15313
1.40999,-0.0997904,2.853,3.18397
1.41925,-0.0997904,2.853,3.18808
1.42851,-0.0997904,2.853,3.19221
1.43777,-0.0997904,2.853,3.19636
1.44703,-0.0997904,2.853,3.20054
1.46854,-0.10063,2.877,3.2317
1.50305,-0.102344,2.926,3.29106
1.53891,-0.104128,2.977,3.35285
1.54857,-0.104128,2.977,3.3573
1.58598,-0.105981,3.03,3.42162
1.61003,-0.106926,3.057,3.45672
1.61995,-0.106926,3.057,3.46135
1.6592,-0.10885,3.112,3.52836
1.70041,-0.110878,3.17,3.59897
1.7107,-0.110878,3.17,3.60384
1.75356,-0.112977,3.23,3.67704
1.78043,-0.114026,3.26,3.71625
1.79101,-0.114026,3.26,3.72133
1.80159,-0.114026,3.26,3.72644
1.81217,-0.114026,3.26,3.73157
1.82276,-0.114026,3.26,3.73672
1.81647,-0.112977,3.23,3.70745
1.80941,-0.111893,3.199,3.67697
1.8198,-0.111893,3.199,3.68209
1.81359,-0.110878,3.17,3.65381
1.80719,-0.109864,3.141,3.62545
1.81739,-0.109864,3.141,3.63054
1.79442,-0.10787,3.084,3.56968
1.80443,-0.10787,3.084,3.57472
1.81444,-0.10787,3.084,3.57979
1.82445,-0.10787,3.084,3.58487
1.83446,-0.10787,3.084,3.58998
1.82832,-0.106926,3.057,3.56363
1.83824,-0.106926,3.057,3.56873
1.84816,-0.106926,3.057,3.57385
1.84168,-0.105981,3.03,3.54738
1.85151,-0.105981,3.03,3.5525
1.86134,-0.105981,3.03,3.55763
1.85451,-0.105037,3.003,3.53104
1.86425,-0.105037,3.003,3.53617
1.874,-0.105037,3.003,3.54132
1.86744,-0.104128,2.977,3.51578
1.8771,-0.104128,2.977,3.52092
1.85444,-0.102344,2.926,3.46567
1.83272,-0.10063,2.877,3.41264
1.82669,-0.0997904,2.853,3.38916
1.83595,-0.0997904,2.853,3.39416
1.81482,-0.0981465,2.806,3.34318
1.79467,-0.0965725,2.761,3.29443
1.80364,-0.0965725,2.761,3.29933
1.78371,-0.0950335,2.717,3.25158
1.76482,-0.0935644,2.675,3.20608
1.7735,-0.0935644,2.675,3.21087
1.74088,-0.0913958,2.613,3.14114
1.72325,-0.0900317,2.574,3.0989
1.7316,-0.0900317,2.574,3.10355
1.71427,-0.0887026,2.536,3.06233
1.69737,-0.0874084,2.499,3.0222
-2.04721,-0.0936427,2.951,3.5928
-2.02036,-0.0928493,2.926,3.55696
-2.01087,-0.0928493,2.926,3.55158
-1.95144,-0.0905329,2.853,3.45773
-1.94218,-0.0905329,2.853,3.45252
-1.93292,-0.0905329,2.853,3.44732
-1.89197,-0.0890414,2.806,3.38543
-1.86743,-0.0883116,2.783,3.35264
-1.85839,-0.0883116,2.783,3.34761
-1.83474,-0.0876135,2.761,3.31618
-1.81123,-0.0869154,2.739,3.28485
-1.80234,-0.0869154,2.739,3.27996
-1.79345,-0.0869154,2.739,3.27508
-1.78456,-0.0869154,2.739,3.27022
-1.77567,-0.0869154,2.739,3.26538
-1.78097,-0.0876135,2.761,3.28674
-1.77201,-0.0876135,2.761,3.28189
-1.7771,-0.0883116,2.783,3.30318
-1.78268,-0.0890414,2.806,3.32558
-1.77357,-0.0890414,2.806,3.32071
-1.79402,-0.0905329,2.853,3.37139
-1.78476,-0.0905329,2.853,3.36648
-1.79043,-0.0912945,2.877,3.38985
-1.78109,-0.0912945,2.877,3.38493
-1.77176,-0.0912945,2.877,3.38003
-1.77712,-0.092056,2.901,3.4033
-1.7677,-0.092056,2.901,3.39839
-1.75829,-0.092056,2.901,3.3935
-1.76394,-0.0928493,2.926,3.41783
-1.75445,-0.0928493,2.926,3.41294
-1.73004,-0.092056,2.901,3.37895
-1.70639,-0.0912945,2.877,3.34623
-1.69705,-0.0912945,2.877,3.34147
-1.68771,-0.0912945,2.877,3.33674
-1.65037,-0.0897713,2.829,3.27644
-1.64119,-0.0897713,2.829,3.27182
-1.61874,-0.0890414,2.806,3.24066
-1.60963,-0.0890414,2.806,3.23612
-1.60053,-0.0890414,2.806,3.2316
-1.59142,-0.0890414,2.806,3.2271
nan,nan,nan,NaN
nan,nan,nan,NaN
nan,nan,nan,NaN
nan,nan,nan,NaN
nan,nan,nan,NaN
nan,nan,nan,NaN
nan,nan,nan,NaN
nan,nan,nan,NaN
nan,nan,nan,NaN
nan,nan,nan,NaN
nan,nan,nan,NaN
nan,nan,nan,NaN
nan,nan,nan,NaN
nan,nan,nan,NaN
nan,nan,nan,NaN
nan,nan,nan,NaN
nan,nan,nan,NaN
nan,nan,nan,NaN
nan,nan,nan,NaN
nan,nan,nan,NaN
nan,nan,nan,NaN
nan,nan,nan,NaN
nan,nan,nan,NaN
-1.25933,-0.0816795,2.574,2.86672
-1.25098,-0.0816795,2.574,2.86306
-1.23345,-0.0810766,2.555,2.83831
-1.21605,-0.0804737,2.536,2.81363
-1.20781,-0.0804737,2.536,2.81009
-1.1906,-0.0798707,2.517,2.78553
-1.18243,-0.0798707,2.517,2.78205
-1.16586,-0.0792996,2.499,2.75872
-1.15775,-0.0792996,2.499,2.7553
-1.14136,-0.0787284,2.481,2.73208
-1.12508,-0.0781572,2.463,2.70893
-1.11709,-0.0781572,2.463,2.70562
-1.10099,-0.077586,2.445,2.68258
-1.08545,-0.0770466,2.428,2.6607
-1.07757,-0.0770466,2.428,2.65749
-1.0622,-0.0765071,2.411,2.63572
-1.04694,-0.0759676,2.394,2.61402
-1.03917,-0.0759676,2.394,2.61092
-1.0314,-0.0759676,2.394,2.60783
-1.01636,-0.0754282,2.377,2.58627
-1.00865,-0.0754282,2.377,2.58325
-1.00093,-0.0754282,2.377,2.58025
-0.993215,-0.0754282,2.377,2.57727
-0.978866,-0.0749205,2.361,2.55697
-0.971203,-0.0749205,2.361,2.55405
-0.96354,-0.0749205,2.361,2.55115
-0.955876,-0.0749205,2.361,2.54826
-0.948213,-0.0749205,2.361,2.5454
-0.94055,-0.0749205,2.361,2.54255
-0.932887,-0.0749205,2.361,2.53973
-0.925224,-0.0749205,2.361,2.53692
-0.91756,-0.0749205,2.361,2.53414
-0.909897,-0.0749205,2.361,2.53137
-0.902234,-0.0749205,2.361,2.52863
-0.894571,-0.0749205,2.361,2.5259
-0.886907,-0.0749205,2.361,2.5232
-0.879244,-0.0749205,2.361,2.52052
-0.871581,-0.0749205,2.361,2.51785
-0.863918,-0.0749205,2.361,2.51521
-0.856255,-0.0749205,2.361,2.51259
-0.848591,-0.0749205,2.361,2.50999
-0.840928,-0.0749205,2.361,2.50741
-0.833265,-0.0749205,2.361,2.50485
-0.825602,-0.0749205,2.361,2.50231
-0.817938,-0.0749205,2.361,2.49979
-0.810275,-0.0749205,2.361,2.49729
-0.802612,-0.0749205,2.361,2.49482
-0.794949,-0.0749205,2.361,2.49236
-0.787286,-0.0749205,2.361,2.48993
-0.784906,-0.0754282,2.377,2.50438
-0.777191,-0.0754282,2.377,2.50197
-0.769475,-0.0754282,2.377,2.49958
-0.76176,-0.0754282,2.377,2.49722
-0.754045,-0.0754282,2.377,2.49488
-0.74633,-0.0754282,2.377,2.49255
-0.738615,-0.0754282,2.377,2.49026
-0.7309,-0.0754282,2.377,2.48798
-0.723184,-0.0754282,2.377,2.48572
-0.715469,-0.0754282,2.377,2.48349
-0.712816,-0.0759676,2.394,2.49902
-0.705046,-0.0759676,2.394,2.49682
-0.697275,-0.0759676,2.394,2.49463
-0.689505,-0.0759676,2.394,2.49247
-0.686576,-0.0765071,2.411,2.50802
-0.67875,-0.0765071,2.411,2.50589
-0.670925,-0.0765071,2.411,2.50378
-0.663099,-0.0765071,2.411,2.50169
-0.659894,-0.0770466,2.428,2.51726
-0.652013,-0.0770466,2.428,2.5152
-0.648643,-0.077586,2.445,2.53077
-0.640707,-0.077586,2.445,2.52874
-0.632771,-0.077586,2.445,2.52675
-0.629435,-0.0781572,2.463,2.54336
-0.621441,-0.0781572,2.463,2.54139
-0.61793,-0.0787284,2.481,2.55801
-0.609877,-0.0787284,2.481,2.55607
-0.606191,-0.0792996,2.499,2.57269
-0.598079,-0.0792996,2.499,2.5708
-0.589968,-0.0792996,2.499,2.56892
-0.581857,-0.0792996,2.499,2.56707
-0.573746,-0.0792996,2.499,2.56524
-0.565635,-0.0792996,2.499,2.56344
-0.557524,-0.0792996,2.499,2.56166
-0.55337,-0.0798707,2.517,2.57835
-0.5452,-0.0798707,2.517,2.57661
-0.537031,-0.0798707,2.517,2.57489
-0.528861,-0.0798707,2.517,2.5732
-0.520692,-0.0798707,2.517,2.57153
-0.512522,-0.0798707,2.517,2.56989
-0.504353,-0.0798707,2.517,2.56828
-0.496183,-0.0798707,2.517,2.56668
-0.488013,-0.0798707,2.517,2.56512
-0.479844,-0.0798707,2.517,2.56358
-0.471674,-0.0798707,2.517,2.56206
-0.463505,-0.0798707,2.517,2.56057
-0.455335,-0.0798707,2.517,2.5591
-0.447166,-0.0798707,2.517,2.55766
-0.438996,-0.0798707,2.517,2.55624
-0.430827,-0.0798707,2.517,2.55485
-0.422657,-0.0798707,2.517,2.55349
-0.414487,-0.0798707,2.517,2.55215
-0.406318,-0.0798707,2.517,2.55084
-0.398148,-0.0798707,2.517,2.54955
-0.389979,-0.0798707,2.517,2.54828
-0.381809,-0.0798707,2.517,2.54705
-0.37646,-0.0804737,2.536,2.56505
-0.368229,-0.0804737,2.536,2.56386
-0.359998,-0.0804737,2.536,2.56269
-0.351766,-0.0804737,2.536,2.56154
-0.346109,-0.0810766,2.555,2.57961
-0.337816,-0.0810766,2.555,2.57851
-0.329523,-0.0810766,2.555,2.57744
-0.32123,-0.0810766,2.555,2.57639
-0.312937,-0.0810766,2.555,2.57537
-0.304645,-0.0810766,2.555,2.57438
-0.298555,-0.0816795,2.574,2.59254
-0.290201,-0.0816795,2.574,2.59159
-0.281846,-0.0816795,2.574,2.59067
-0.271473,-0.0810766,2.555,2.57066
-0.26318,-0.0810766,2.555,2.5698
-0.254887,-0.0810766,2.555,2.56896
-0.246594,-0.0810766,2.555,2.56815
-0.238301,-0.0810766,2.555,2.56737
-0.230009,-0.0810766,2.555,2.56661
-0.221716,-0.0810766,2.555,2.56588
-0.211836,-0.0804737,2.536,2.5461
-0.203604,-0.0804737,2.536,2.54543
-0.195373,-0.0804737,2.536,2.54479
-0.187142,-0.0804737,2.536,2.54417
-0.178911,-0.0804737,2.536,2.54358
-0.170679,-0.0804737,2.536,2.54301
-0.162448,-0.0804737,2.536,2.54247
-0.154217,-0.0804737,2.536,2.54196
-0.145986,-0.0804737,2.536,2.54147
-0.136723,-0.0798707,2.517,2.52198
-0.128553,-0.0798707,2.517,2.52155
-0.120383,-0.0798707,2.517,2.52114
-0.112214,-0.0798707,2.517,2.52077
-0.104044,-0.0798707,2.517,2.52042
-0.0958747,-0.0798707,2.517,2.52009
-0.0877052,-0.0798707,2.517,2.51979
-0.080136,-0.0804737,2.536,2.53854
-0.0719048,-0.0804737,2.536,2.5383
-0.0636736,-0.0804737,2.536,2.53808
-0.0554423,-0.0804737,2.536,2.53788
-0.0475648,-0.0810766,2.555,2.55673
-0.0392719,-0.0810766,2.555,2.55659
-0.030979,-0.0810766,2.555,2.55647
-0.0228548,-0.0816795,2.574,2.5754
-0.01472,-0.0829171,2.613,2.61436
-0.00619107,-0.0822824,2.593,2.59431
0.00222516,-0.0822824,2.593,2.59431
0.0106414,-0.0822824,2.593,2.59433
0.0190576,-0.0822824,2.593,2.59438
0.0274739,-0.0822824,2.593,2.59445
0.0358901,-0.0822824,2.593,2.59455
0.0443063,-0.0822824,2.593,2.59468
0.0527226,-0.0822824,2.593,2.59484
0.0606908,-0.0816795,2.574,2.57601
0.0690454,-0.0816795,2.574,2.57622
0.0773999,-0.0816795,2.574,2.57646
0.0851215,-0.0810766,2.555,2.5577
0.0934144,-0.0810766,2.555,2.55799
0.101707,-0.0810766,2.555,2.55831
0.11,-0.0810766,2.555,2.55865
0.118293,-0.0810766,2.555,2.55902
0.126586,-0.0810766,2.555,2.55942
0.134879,-0.0810766,2.555,2.55984
0.143172,-0.0810766,2.555,2.56029
0.152591,-0.0816795,2.574,2.57981
0.160946,-0.0816795,2.574,2.58032
0.1693,-0.0816795,2.574,2.58085
0.178966,-0.0822824,2.593,2.60047
0.187382,-0.0822824,2.593,2.60106
0.197309,-0.0829171,2.613,2.62175
0.20579,-0.0829171,2.613,2.6224
0.215911,-0.0835517,2.633,2.64316
0.224457,-0.0835517,2.633,2.64387
0.233003,-0.0835517,2.633,2.64461
0.241549,-0.0835517,2.633,2.64538
0.250095,-0.0835517,2.633,2.64617
0.256677,-0.0829171,2.613,2.62689
0.265158,-0.0829171,2.613,2.62773
0.273639,-0.0829171,2.613,2.6286
0.28212,-0.0829171,2.613,2.62949
0.290601,-0.0829171,2.613,2.63042
0.299083,-0.0829171,2.613,2.63137
0.307564,-0.0829171,2.613,2.63234
0.313626,-0.0822824,2.593,2.61319
0.322042,-0.0822824,2.593,2.61422
0.328037,-0.0816795,2.574,2.5961
0.336391,-0.0816795,2.574,2.59717
0.344746,-0.0816795,2.574,2.59827
0.350494,-0.0810766,2.555,2.5802
0.358787,-0.0810766,2.555,2.58134
0.36708,-0.0810766,2.555,2.58251
0.375373,-0.0810766,2.555,2.5837
0.383666,-0.0810766,2.555,2.58492
0.391959,-0.0810766,2.555,2.58616
0.400252,-0.0810766,2.555,2.58743
0.408544,-0.0810766,2.555,2.58873
nan,nan,nan,NaN
nan,nan,nan,NaN
0.436646,-0.0816795,2.574,2.61205
0.445001,-0.0816795,2.574,2.61346
0.453355,-0.0816795,2.574,2.6149
0.46171,-0.0816795,2.574,2.61636
0.466595,-0.0810766,2.555,2.59852
0.474888,-0.0810766,2.555,2.60002
0.48318,-0.0810766,2.555,2.60155
0.491473,-0.0810766,2.555,2.6031
0.499766,-0.0810766,2.555,2.60468
0.504281,-0.0804737,2.536,2.5869
0.512512,-0.0804737,2.536,2.58852
0.520743,-0.0804737,2.536,2.59016
0.528975,-0.0804737,2.536,2.59183
0.537206,-0.0804737,2.536,2.59352
0.549524,-0.0810766,2.555,2.61468
0.557817,-0.0810766,2.555,2.61644
0.566109,-0.0810766,2.555,2.61822
0.578674,-0.0816795,2.574,2.63951
0.591362,-0.0822824,2.593,2.66085
0.599778,-0.0822824,2.593,2.66273
0.608194,-0.0822824,2.593,2.66464
0.61661,-0.0822824,2.593,2.66658
0.629847,-0.0829171,2.613,2.68912
0.638328,-0.0829171,2.613,2.69112
0.64681,-0.0829171,2.613,2.69314
0.660306,-0.0835517,2.633,2.71582
0.668853,-0.0835517,2.633,2.71791
0.677399,-0.0835517,2.633,2.72003
0.685945,-0.0835517,2.633,2.72217
0.694491,-0.0835517,2.633,2.72433
0.697697,-0.0829171,2.613,2.70581
0.706178,-0.0829171,2.613,2.70801
0.714659,-0.0829171,2.613,2.71024
0.717605,-0.0822824,2.593,2.69172
0.726021,-0.0822824,2.593,2.69398
0.734438,-0.0822824,2.593,2.69626
0.742854,-0.0822824,2.593,2.69856
0.745765,-0.0816795,2.574,2.6811
0.75412,-0.0816795,2.574,2.68344
0.762474,-0.0816795,2.574,2.6858
0.770829,-0.0816795,2.574,2.68818
0.779183,-0.0816795,2.574,2.69059
0.787538,-0.0816795,2.574,2.69302
0.795892,-0.0816795,2.574,2.69548
0.804247,-0.0816795,2.574,2.69796
0.812602,-0.0816795,2.574,2.70046
0.820956,-0.0816795,2.574,2.70298
0.829311,-0.0816795,2.574,2.70553
0.843849,-0.0822824,2.593,2.72809
0.852265,-0.0822824,2.593,2.73071
0.854374,-0.0816795,2.574,2.71332
0.862729,-0.0816795,2.574,2.71596
0.871084,-0.0816795,2.574,2.71863
0.879438,-0.0816795,2.574,2.72132
0.887793,-0.0816795,2.574,2.72403
0.889532,-0.0810766,2.555,2.70663
0.897825,-0.0810766,2.555,2.70937
0.906118,-0.0810766,2.555,2.71213
0.907611,-0.0804737,2.536,2.69472
0.908981,-0.0798707,2.517,2.6773
0.910591,-0.0792996,2.499,2.66091
0.918703,-0.0792996,2.499,2.6637
0.920138,-0.0787284,2.481,2.6473
0.928191,-0.0787284,2.481,2.65011
0.936243,-0.0787284,2.481,2.65294
0.937445,-0.0781572,2.463,2.63653
0.945439,-0.0781572,2.463,2.63938
0.953434,-0.0781572,2.463,2.64226
0.954402,-0.077586,2.445,2.62582
0.955646,-0.0770466,2.428,2.61044
0.963527,-0.0770466,2.428,2.61333
0.971408,-0.0770466,2.428,2.61625
0.979289,-0.0770466,2.428,2.61918
0.987169,-0.0770466,2.428,2.62214
0.99505,-0.0770466,2.428,2.62512
1.00293,-0.0770466,2.428,2.62812
1.02538,-0.0781572,2.463,2.66906
1.04093,-0.0787284,2.481,2.69167
1.04898,-0.0787284,2.481,2.6948
1.0647,-0.0792996,2.499,2.71751
1.0887,-0.0804737,2.536,2.76098
1.09693,-0.0804737,2.536,2.76424
1.13,-0.0822824,2.593,2.82972
1.15598,-0.0835517,2.633,2.8768
1.1831,-0.0848845,2.675,2.92618
1.19178,-0.0848845,2.675,2.92971
1.21931,-0.0862172,2.717,2.9793
1.23808,-0.0869154,2.739,3.00708
1.24697,-0.0869154,2.739,3.01075
1.26594,-0.0876135,2.761,3.03865
1.28506,-0.0883116,2.783,3.06664
1.2941,-0.0883116,2.783,3.07044
1.30313,-0.0883116,2.783,3.07425
1.31216,-0.0883116,2.783,3.07809
1.3212,-0.0883116,2.783,3.08196
1.33023,-0.0883116,2.783,3.08584
1.33926,-0.0883116,2.783,3.08974
1.34829,-0.0883116,2.783,3.09367
1.35733,-0.0883116,2.783,3.09762
1.37765,-0.0890414,2.806,3.12722
1.39813,-0.0897713,2.829,3.15691
1.40731,-0.0897713,2.829,3.16098
1.41649,-0.0897713,2.829,3.16508
1.43777,-0.0905329,2.853,3.19609
1.44703,-0.0905329,2.853,3.20027
1.46854,-0.0912945,2.877,3.23142
1.49021,-0.092056,2.901,3.26267
1.52547,-0.0936427,2.951,3.32329
1.53505,-0.0936427,2.951,3.32769
1.57184,-0.0952927,3.003,3.39084
1.59581,-0.0961495,3.03,3.42589
1.60564,-0.0961495,3.03,3.43049
1.62987,-0.0970063,3.057,3.46571
1.6693,-0.0987516,3.112,3.53283
1.6794,-0.0987516,3.112,3.53761
1.72099,-0.100592,3.17,3.60844
1.74712,-0.101512,3.199,3.64641
1.77453,-0.102496,3.23,3.68678
1.78501,-0.102496,3.23,3.69184
1.77827,-0.101512,3.199,3.66144
1.78865,-0.101512,3.199,3.66649
1.78272,-0.100592,3.17,3.63829
1.77661,-0.0996718,3.141,3.61001
1.7868,-0.0996718,3.141,3.61504
1.78041,-0.0987516,3.112,3.58666
1.7744,-0.0978631,3.084,3.55937
1.78441,-0.0978631,3.084,3.56437
1.77871,-0.0970063,3.057,3.53814
1.78863,-0.0970063,3.057,3.54314
1.79855,-0.0970063,3.057,3.54816
1.80848,-0.0970063,3.057,3.5532
1.8184,-0.0970063,3.057,3.55826
1.81217,-0.0961495,3.03,3.53187
1.82201,-0.0961495,3.03,3.53693
1.83184,-0.0961495,3.03,3.542
1.84168,-0.0961495,3.03,3.5471
1.85151,-0.0961495,3.03,3.55222
1.84476,-0.0952927,3.003,3.52565
1.85451,-0.0952927,3.003,3.53076
1.86425,-0.0952927,3.003,3.53589
1.85777,-0.0944677,2.977,3.51038
1.85113,-0.0936427,2.951,3.4848
1.86071,-0.0936427,2.951,3.4899
1.85444,-0.0928493,2.926,3.46541
1.83272,-0.0912945,2.877,3.41238
1.82669,-0.0905329,2.853,3.3889
1.83595,-0.0905329,2.853,3.3939
1.81482,-0.0890414,2.806,3.34292
1.79467,-0.0876135,2.761,3.29418
1.80364,-0.0876135,2.761,3.29908
1.78371,-0.0862172,2.717,3.25133
1.76482,-0.0848845,2.675,3.20584
1.7735,-0.0848845,2.675,3.21063
1.74088,-0.0829171,2.613,3.14091
1.72325,-0.0816795,2.574,3.09867
1.7316,-0.0816795,2.574,3.10332
1.71427,-0.0804737,2.536,3.06211
1.69737,-0.0792996,2.499,3.02198
-2.04721,-0.0840671,2.951,3.59256
-2.02036,-0.0833549,2.926,3.55673
-2.01087,-0.0833549,2.926,3.55134
-1.95144,-0.0812754,2.853,3.4575
-1.94218,-0.0812754,2.853,3.45229
-1.93292,-0.0812754,2.853,3.44708
-1.89197,-0.0799364,2.806,3.3852
-1.86743,-0.0792812,2.783,3.35241
-1.85839,-0.0792812,2.783,3.34739
-1.83474,-0.0786545,2.761,3.31596
-1.81123,-0.0780278,2.739,3.28463
-1.80234,-0.0780278,2.739,3.27973
-1.79345,-0.0780278,2.739,3.27486
-1.78456,-0.0780278,2.739,3.27
-1.77567,-0.0780278,2.739,3.26515
-1.78097,-0.0786545,2.761,3.28651
-1.77201,-0.0786545,2.761,3.28167
-1.7771,-0.0792812,2.783,3.30295
-1.78268,-0.0799364,2.806,3.32535
-1.77357,-0.0799364,2.806,3.32048
-1.79402,-0.0812754,2.853,3.37116
-1.78476,-0.0812754,2.853,3.36624
-1.79043,-0.0819591,2.877,3.38962
-1.78109,-0.0819591,2.877,3.38469
-1.77176,-0.0819591,2.877,3.37979
-1.77712,-0.0826428,2.901,3.40306
-1.7677,-0.0826428,2.901,3.39815
-1.75829,-0.0826428,2.901,3.39326
-1.74887,-0.0826428,2.901,3.38839
-1.73946,-0.0826428,2.901,3.38354
-1.71573,-0.0819591,2.877,3.35076
-1.69216,-0.0812754,2.853,3.31807
-1.6829,-0.0812754,2.853,3.31336
-1.65956,-0.0805916,2.829,3.28083
-1.63696,-0.0799364,2.806,3.24956
-1.62785,-0.0799364,2.806,3.24498
-1.60547,-0.0792812,2.783,3.21386
-1.58382,-0.0786545,2.761,3.18399
-1.57486,-0.0786545,2.761,3.17954
-1.55342,-0.0780278,2.739,3.14981
-1.53212,-0.077401,2.717,3.12017
-1.5233,-0.077401,2.717,3.11585
-1.51449,-0.077401,2.717,3.11155
-1.49403,-0.0768028,2.696,3.08325
-1.48528,-0.0768028,2.696,3.07902
nan,nan,nan,NaN
nan,nan,nan,NaN
-1.4823,-0.0780278,2.739,3.11535
-1.47341,-0.0780278,2.739,3.11113
-1.46452,-0.0780278,2.739,3.10693
nan,nan,nan,NaN
nan,nan,nan,NaN
nan,nan,nan,NaN
nan,nan,nan,NaN
nan,nan,nan,NaN
nan,nan,nan,NaN
nan,nan,nan,NaN
nan,nan,nan,NaN
nan,nan,nan,NaN
nan,nan,nan,NaN
nan,nan,nan,NaN
nan,nan,nan,NaN
-1.27704,-0.0738686,2.593,2.89136
-1.25933,-0.0733273,2.574,2.86649
-1.25098,-0.0733273,2.574,2.86283
-1.23345,-0.072786,2.555,2.83808
-1.21605,-0.0722448,2.536,2.81341
-1.20781,-0.0722448,2.536,2.80986
-1.1906,-0.0717035,2.517,2.78531
-1.17397,-0.0711907,2.499,2.76193
-1.15746,-0.0706779,2.481,2.73863
-1.14941,-0.0706779,2.481,2.73523
-1.13308,-0.0701652,2.463,2.71204
-1.12508,-0.0701652,2.463,2.70871
-1.11709,-0.0701652,2.463,2.7054
-1.10099,-0.0696524,2.445,2.68236
-1.08545,-0.0691681,2.428,2.66048
-1.07757,-0.0691681,2.428,2.65728
-1.0622,-0.0686838,2.411,2.63551
-1.04694,-0.0681995,2.394,2.6138
-1.03917,-0.0681995,2.394,2.6107
-1.0314,-0.0681995,2.394,2.60762
-1.01636,-0.0677152,2.377,2.58606
-1.00186,-0.0672594,2.361,2.56565
-0.994193,-0.0672594,2.361,2.56267
-0.986529,-0.0672594,2.361,2.5597
-0.978866,-0.0672594,2.361,2.55676
-0.971203,-0.0672594,2.361,2.55384
-0.96354,-0.0672594,2.361,2.55093
-0.955876,-0.0672594,2.361,2.54805
-0.948213,-0.0672594,2.361,2.54518
-0.94055,-0.0672594,2.361,2.54234
-0.932887,-0.0672594,2.361,2.53951
-0.925224,-0.0672594,2.361,2.53671
-0.91756,-0.0672594,2.361,2.53392
-0.909897,-0.0672594,2.361,2.53116
-0.902234,-0.0672594,2.361,2.52841
-0.894571,-0.0672594,2.361,2.52569
-0.886907,-0.0672594,2.361,2.52298
-0.879244,-0.0672594,2.361,2.5203
-0.871581,-0.0672594,2.361,2.51764
-0.863918,-0.0672594,2.361,2.51499
-0.856255,-0.0672594,2.361,2.51237
-0.848591,-0.0672594,2.361,2.50977
-0.840928,-0.0672594,2.361,2.50719
-0.833265,-0.0672594,2.361,2.50463
-0.825602,-0.0672594,2.361,2.50209
-0.817938,-0.0672594,2.361,2.49957
-0.810275,-0.0672594,2.361,2.49708
-0.802612,-0.0672594,2.361,2.4946
-0.794949,-0.0672594,2.361,2.49215
-0.787286,-0.0672594,2.361,2.48971
-0.779622,-0.0672594,2.361,2.4873
-0.771959,-0.0672594,2.361,2.48491
-0.764296,-0.0672594,2.361,2.48254
-0.756633,-0.0672594,2.361,2.48019
-0.754045,-0.0677152,2.377,2.49465
-0.74633,-0.0677152,2.377,2.49233
-0.738615,-0.0677152,2.377,2.49003
-0.7309,-0.0677152,2.377,2.48776
-0.723184,-0.0677152,2.377,2.4855
-0.715469,-0.0677152,2.377,2.48327
-0.707754,-0.0677152,2.377,2.48105
-0.705046,-0.0681995,2.394,2.49659
-0.697275,-0.0681995,2.394,2.49441
-0.689505,-0.0681995,2.394,2.49225
-0.686576,-0.0686838,2.411,2.50779
-0.67875,-0.0686838,2.411,2.50566
-0.670925,-0.0686838,2.411,2.50355
-0.667775,-0.0691681,2.428,2.51911
-0.659894,-0.0691681,2.428,2.51703
-0.652013,-0.0691681,2.428,2.51497
-0.648643,-0.0696524,2.445,2.53054
-0.640707,-0.0696524,2.445,2.52851
-0.632771,-0.0696524,2.445,2.52651
-0.629435,-0.0701652,2.463,2.54312
-0.621441,-0.0701652,2.463,2.54116
-0.61793,-0.0706779,2.481,2.55777
-0.609877,-0.0706779,2.481,2.55584
-0.601824,-0.0706779,2.481,2.55393
-0.593771,-0.0706779,2.481,2.55204
-0.585719,-0.0706779,2.481,2.55018
-0.581857,-0.0711907,2.499,2.56683
-0.573746,-0.0711907,2.499,2.56501
-0.565635,-0.0711907,2.499,2.5632
-0.557524,-0.0711907,2.499,2.56143
-0.549413,-0.0711907,2.499,2.55967
-0.5452,-0.0717035,2.517,2.57637
-0.537031,-0.0717035,2.517,2.57465
-0.528861,-0.0717035,2.517,2.57296
-0.520692,-0.0717035,2.517,2.57129
-0.512522,-0.0717035,2.517,2.56965
-0.504353,-0.0717035,2.517,2.56803
-0.496183,-0.0717035,2.517,2.56644
-0.488013,-0.0717035,2.517,2.56488
-0.479844,-0.0717035,2.517,2.56333
-0.471674,-0.0717035,2.517,2.56182
-0.463505,-0.0717035,2.517,2.56033
-0.455335,-0.0717035,2.517,2.55886
-0.447166,-0.0717035,2.517,2.55742
-0.438996,-0.0717035,2.517,2.556
-0.430827,-0.0717035,2.517,2.55461
-0.422657,-0.0717035,2.517,2.55325
-0.414487,-0.0717035,2.517,2.55191
-0.406318,-0.0717035,2.517,2.55059
-0.398148,-0.0717035,2.517,2.5493
-0.392923,-0.0722448,2.536,2.56728
-0.384691,-0.0722448,2.536,2.56603
-0.37646,-0.0722448,2.536,2.56481
-0.368229,-0.0722448,2.536,2.56361
-0.362695,-0.072786,2.555,2.58164
-0.354402,-0.072786,2.555,2.58049
-0.346109,-0.072786,2.555,2.57936
-0.337816,-0.072786,2.555,2.57826
-0.329523,-0.072786,2.555,2.57719
-0.32123,-0.072786,2.555,2.57614
-0.312937,-0.072786,2.555,2.57512
-0.304645,-0.072786,2.555,2.57413
-0.298555,-0.0733273,2.574,2.59229
-0.290201,-0.0733273,2.574,2.59135
-0.281846,-0.0733273,2.574,2.59042
-0.271473,-0.072786,2.555,2.57041
-0.26318,-0.072786,2.555,2.56955
-0.254887,-0.072786,2.555,2.56871
-0.246594,-0.072786,2.555,2.5679
-0.238301,-0.072786,2.555,2.56712
-0.230009,-0.072786,2.555,2.56636
-0.221716,-0.072786,2.555,2.56563
-0.211836,-0.0722448,2.536,2.54586
-0.203604,-0.0722448,2.536,2.54519
-0.195373,-0.0722448,2.536,2.54454
-0.187142,-0.0722448,2.536,2.54392
-0.178911,-0.0722448,2.536,2.54333
-0.170679,-0.0722448,2.536,2.54276
-0.162448,-0.0722448,2.536,2.54222
-0.154217,-0.0722448,2.536,2.54171
-0.145986,-0.0722448,2.536,2.54123
-0.137755,-0.0722448,2.536,2.54077
-0.128553,-0.0717035,2.517,2.5213
-0.120383,-0.0717035,2.517,2.5209
-0.112214,-0.0717035,2.517,2.52052
-0.10483,-0.0722448,2.536,2.53919
-0.0965985,-0.0722448,2.536,2.53887
-0.0883672,-0.0722448,2.536,2.53857
-0.080136,-0.0722448,2.536,2.53829
-0.0719048,-0.0722448,2.536,2.53805
-0.0641506,-0.072786,2.555,2.55684
-0.0558577,-0.072786,2.555,2.55665
-0.0475648,-0.072786,2.555,2.55648
-0.0392719,-0.072786,2.555,2.55634
-0.030979,-0.072786,2.555,2.55622
-0.0228548,-0.0733273,2.574,2.57515
-0.01472,-0.0744383,2.613,2.6141
-0.00619107,-0.0738686,2.593,2.59406
0.00222516,-0.0738686,2.593,2.59405
0.0106414,-0.0738686,2.593,2.59407
0.0190576,-0.0738686,2.593,2.59412
0.0274739,-0.0738686,2.593,2.5942
0.0358901,-0.0738686,2.593,2.5943
0.0443063,-0.0738686,2.593,2.59443
0.0523362,-0.0733273,2.574,2.57558
0.0606908,-0.0733273,2.574,2.57576
0.0690454,-0.0733273,2.574,2.57597
0.0768286,-0.072786,2.555,2.55719
0.0851215,-0.072786,2.555,2.55745
0.0934144,-0.072786,2.555,2.55774
0.101707,-0.072786,2.555,2.55806
0.11,-0.072786,2.555,2.5584
0.118293,-0.072786,2.555,2.55877
0.126586,-0.072786,2.555,2.55917
0.134879,-0.072786,2.555,2.55959
0.143172,-0.072786,2.555,2.56004
0.152591,-0.0733273,2.574,2.57956
0.160946,-0.0733273,2.574,2.58007
0.1693,-0.0733273,2.574,2.5806
0.178966,-0.0738686,2.593,2.60022
0.187382,-0.0738686,2.593,2.60081
0.197309,-0.0744383,2.613,2.6215
0.20579,-0.0744383,2.613,2.62215
0.215911,-0.0750081,2.633,2.6429
0.224457,-0.0750081,2.633,2.64361
0.233003,-0.0750081,2.633,2.64435
0.241549,-0.0750081,2.633,2.64512
0.248196,-0.0744383,2.613,2.62582
0.256677,-0.0744383,2.613,2.62663
0.265158,-0.0744383,2.613,2.62747
0.273639,-0.0744383,2.613,2.62834
0.279961,-0.0738686,2.593,2.60912
0.288377,-0.0738686,2.593,2.61003
0.296793,-0.0738686,2.593,2.61098
0.302973,-0.0733273,2.574,2.59281
0.311328,-0.0733273,2.574,2.5938
0.319682,-0.0733273,2.574,2.59481
0.328037,-0.0733273,2.574,2.59585
0.333908,-0.072786,2.555,2.57775
0.342201,-0.072786,2.555,2.57884
0.350494,-0.072786,2.555,2.57996
0.358787,-0.072786,2.555,2.58109
0.36708,-0.072786,2.555,2.58226
0.372581,-0.0722448,2.536,2.56424
0.380813,-0.0722448,2.536,2.56545
0.391959,-0.072786,2.555,2.58591
0.400252,-0.072786,2.555,2.58718
0.408544,-0.072786,2.555,2.58848
0.416837,-0.072786,2.555,2.5898
0.428292,-0.0733273,2.574,2.61042
0.433423,-0.072786,2.555,2.59252
0.441716,-0.072786,2.555,2.59392
0.450009,-0.072786,2.555,2.59535
0.458302,-0.072786,2.555,2.5968
0.466595,-0.072786,2.555,2.59828
0.474888,-0.072786,2.555,2.59978
0.48318,-0.072786,2.555,2.6013
0.491473,-0.072786,2.555,2.60286
0.499766,-0.072786,2.555,2.60444
0.504281,-0.0722448,2.536,2.58666
0.512512,-0.0722448,2.536,2.58828
0.520743,-0.0722448,2.536,2.58992
0.528975,-0.0722448,2.536,2.59159
0.537206,-0.0722448,2.536,2.59328
0.549524,-0.072786,2.555,2.61444
0.561965,-0.0733273,2.574,2.63565
