0.227782,-0.223667,2.574,2.59372
0.236137,-0.223667,2.574,2.59447
0.244491,-0.223667,2.574,2.59524
0.254712,-0.225318,2.593,2.6152
0.263128,-0.225318,2.593,2.61604
0.271545,-0.225318,2.593,2.6169
0.28212,-0.227056,2.613,2.63798
0.290601,-0.227056,2.613,2.6389
0.299083,-0.227056,2.613,2.63984
0.30521,-0.225318,2.593,2.6206
0.313626,-0.225318,2.593,2.6216
0.322042,-0.225318,2.593,2.62262
0.330458,-0.225318,2.593,2.62367
0.338875,-0.225318,2.593,2.62474
0.347291,-0.225318,2.593,2.62584
0.355707,-0.225318,2.593,2.62697
0.364123,-0.225318,2.593,2.62812
0.372539,-0.225318,2.593,2.6293
0.380956,-0.225318,2.593,2.6305
0.389372,-0.225318,2.593,2.63173
0.397788,-0.225318,2.593,2.63299
0.406204,-0.225318,2.593,2.63428
0.414621,-0.225318,2.593,2.63559
0.423037,-0.225318,2.593,2.63693
0.431453,-0.225318,2.593,2.63829
0.439869,-0.225318,2.593,2.63968
0.448286,-0.225318,2.593,2.64109
0.456702,-0.225318,2.593,2.64254
0.465118,-0.225318,2.593,2.644
0.473534,-0.225318,2.593,2.6455
0.485668,-0.227056,2.613,2.66743
0.494149,-0.227056,2.613,2.66899
0.498783,-0.225318,2.593,2.65013
0.507199,-0.225318,2.593,2.65173
0.515615,-0.225318,2.593,2.65335
0.524032,-0.225318,2.593,2.655
0.532448,-0.225318,2.593,2.65667
0.540864,-0.225318,2.593,2.65837
0.54928,-0.225318,2.593,2.6601
0.55361,-0.223667,2.574,2.64235
0.561965,-0.223667,2.574,2.64411
0.570319,-0.223667,2.574,2.6459
0.582945,-0.225318,2.593,2.66725
0.591362,-0.225318,2.593,2.66911
0.599778,-0.225318,2.593,2.67098
0.608194,-0.225318,2.593,2.67289
0.61661,-0.225318,2.593,2.67481
0.625027,-0.225318,2.593,2.67677
0.633443,-0.225318,2.593,2.67874
0.64681,-0.227056,2.613,2.70142
0.655291,-0.227056,2.613,2.70347
0.663772,-0.227056,2.613,2.70553
0.672253,-0.227056,2.613,2.70763
0.680734,-0.227056,2.613,2.70975
0.68394,-0.225318,2.593,2.69113
0.692356,-0.225318,2.593,2.69328
0.700773,-0.225318,2.593,2.69546
0.703992,-0.223667,2.574,2.67789
0.712347,-0.223667,2.574,2.6801
0.720701,-0.223667,2.574,2.68233
0.729056,-0.223667,2.574,2.68459
0.731967,-0.222016,2.555,2.66704
0.74026,-0.222016,2.555,2.66933
0.748553,-0.222016,2.555,2.67164
0.756846,-0.222016,2.555,2.67397
0.765139,-0.222016,2.555,2.67633
0.773432,-0.222016,2.555,2.67871
0.781725,-0.222016,2.555,2.68112
0.790018,-0.222016,2.555,2.68355
0.798311,-0.222016,2.555,2.686
0.800605,-0.220365,2.536,2.66849
0.808836,-0.220365,2.536,2.67097
0.817068,-0.220365,2.536,2.67347
0.825299,-0.220365,2.536,2.676
0.83353,-0.220365,2.536,2.67855
0.835455,-0.218714,2.517,2.66104
0.843624,-0.218714,2.517,2.66361
0.851794,-0.218714,2.517,2.66621
0.853814,-0.21715,2.499,2.64975
0.861925,-0.21715,2.499,2.65237
0.870036,-0.21715,2.499,2.65502
0.878147,-0.21715,2.499,2.65769
0.886258,-0.21715,2.499,2.66038
0.894369,-0.21715,2.499,2.66309
0.90248,-0.21715,2.499,2.66583
0.910591,-0.21715,2.499,2.66858
0.912085,-0.215586,2.481,2.65212
0.920138,-0.215586,2.481,2.6549
0.928191,-0.215586,2.481,2.6577
0.929451,-0.214022,2.463,2.64122
0.937445,-0.214022,2.463,2.64405
0.93853,-0.212458,2.445,2.62755
0.946466,-0.212458,2.445,2.63039
0.954402,-0.212458,2.445,2.63326
0.962338,-0.212458,2.445,2.63614
0.970273,-0.212458,2.445,2.63905
0.978209,-0.212458,2.445,2.64198
0.986145,-0.212458,2.445,2.64493
0.994081,-0.212458,2.445,2.6479
1.00202,-0.212458,2.445,2.65089
nan,nan,nan,NaN
nan,nan,nan,NaN
nan,nan,nan,NaN
nan,nan,nan,NaN
nan,nan,nan,NaN
nan,nan,nan,NaN
nan,nan,nan,NaN
nan,nan,nan,NaN
nan,nan,nan,NaN
nan,nan,nan,NaN
nan,nan,nan,NaN
nan,nan,nan,NaN
nan,nan,nan,NaN
nan,nan,nan,NaN
nan,nan,nan,NaN
1.73712,-0.326898,3.762,4.15657
1.74933,-0.326898,3.762,4.16169
1.76154,-0.326898,3.762,4.16684
1.77375,-0.326898,3.762,4.17201
1.78596,-0.326898,3.762,4.17722
1.79817,-0.326898,3.762,4.18246
1.81038,-0.326898,3.762,4.18772
1.84294,-0.330548,3.804,4.23983
1.83481,-0.326898,3.762,4.19834
1.84702,-0.326898,3.762,4.20369
1.85923,-0.326898,3.762,4.20907
1.89233,-0.330548,3.804,4.26153
1.90468,-0.330548,3.804,4.26702
1.91702,-0.330548,3.804,4.27255
nan,nan,nan,NaN
nan,nan,nan,NaN
nan,nan,nan,NaN
nan,nan,nan,NaN
nan,nan,nan,NaN
nan,nan,nan,NaN
nan,nan,nan,NaN
nan,nan,nan,NaN
2.00575,-0.326898,3.762,4.27581
1.99597,-0.323335,3.721,4.23489
2.00805,-0.323335,3.721,4.2406
2.02013,-0.323335,3.721,4.24633
2.0322,-0.323335,3.721,4.25209
2.04428,-0.323335,3.721,4.25787
2.03425,-0.31986,3.681,4.21785
2.0462,-0.31986,3.681,4.22363
2.05815,-0.31986,3.681,4.22943
2.04816,-0.316471,3.642,4.19038
2.03849,-0.313169,3.604,4.15239
2.05019,-0.313169,3.604,4.15814
2.06189,-0.313169,3.604,4.16392
2.05172,-0.309867,3.566,4.12576
2.04189,-0.306652,3.529,4.08866
2.05334,-0.306652,3.529,4.0944
2.04373,-0.303523,3.493,4.05833
2.03448,-0.300482,3.458,4.02333
2.0457,-0.300482,3.458,4.02901
2.03611,-0.297441,3.423,3.99389
2.00714,-0.291619,3.356,3.92128
2.01804,-0.291619,3.356,3.92686
2.00958,-0.288838,3.324,3.89498
1.98147,-0.283277,3.26,3.82545
1.99205,-0.283277,3.26,3.83094
1.96516,-0.277976,3.199,3.76467
1.95764,-0.275456,3.17,3.73592
1.96793,-0.275456,3.17,3.74132
1.94202,-0.270416,3.112,3.67819
1.93456,-0.267983,3.084,3.65039
1.94457,-0.267983,3.084,3.65571
1.92035,-0.263291,3.03,3.59694
1.91299,-0.260945,3.003,3.5701
1.90609,-0.258686,2.977,3.54438
1.91575,-0.258686,2.977,3.54958
1.9086,-0.256426,2.951,3.52376
1.90192,-0.254254,2.926,3.49906
1.91142,-0.254254,2.926,3.50423
1.90451,-0.252082,2.901,3.47944
1.86642,-0.245825,2.829,3.39812
1.8756,-0.245825,2.829,3.40317
1.86946,-0.243827,2.806,3.38053
1.84844,-0.239916,2.761,3.33128
1.8574,-0.239916,2.761,3.33626
1.83662,-0.236093,2.717,3.28801
1.81691,-0.232443,2.675,3.24204
-2.01252,-0.242668,2.901,3.53906
-2.0031,-0.242668,2.901,3.53371
-1.97719,-0.240661,2.877,3.49919
-1.95144,-0.238653,2.853,3.46478
-1.92584,-0.236646,2.829,3.43047
-1.91666,-0.236646,2.829,3.42532
-1.89197,-0.234722,2.806,3.39239
-1.88286,-0.234722,2.806,3.38731
-1.87375,-0.234722,2.806,3.38226
-1.86465,-0.234722,2.806,3.37722
-1.85554,-0.234722,2.806,3.3722
-1.86157,-0.236646,2.829,3.3948
-1.85238,-0.236646,2.829,3.38977
-1.85884,-0.238653,2.853,3.41348
-1.86514,-0.240661,2.877,3.43712
-1.87128,-0.242668,2.901,3.46069
-1.86186,-0.242668,2.901,3.45561
-1.88438,-0.246851,2.951,3.51002
-1.90783,-0.251201,3.003,3.56664
-1.89809,-0.251201,3.003,3.56144
-1.9223,-0.255718,3.057,3.6202
-1.91237,-0.255718,3.057,3.61494
-1.90245,-0.255718,3.057,3.6097
-1.90924,-0.257976,3.084,3.63632
-1.89923,-0.257976,3.084,3.63107
-1.88922,-0.257976,3.084,3.62585
-1.87921,-0.257976,3.084,3.62064
-1.88618,-0.260318,3.112,3.64828
-1.87607,-0.260318,3.112,3.64307
-1.86597,-0.260318,3.112,3.63788
-1.87317,-0.262744,3.141,3.66656
nan,nan,nan,NaN
nan,nan,nan,NaN
nan,nan,nan,NaN
nan,nan,nan,NaN
nan,nan,nan,NaN
nan,nan,nan,NaN
nan,nan,nan,NaN
nan,nan,nan,NaN
nan,nan,nan,NaN
nan,nan,nan,NaN
nan,nan,nan,NaN
nan,nan,nan,NaN
nan,nan,nan,NaN
nan,nan,nan,NaN
nan,nan,nan,NaN
nan,nan,nan,NaN
nan,nan,nan,NaN
nan,nan,nan,NaN
nan,nan,nan,NaN
nan,nan,nan,NaN
nan,nan,nan,NaN
nan,nan,nan,NaN
nan,nan,nan,NaN
nan,nan,nan,NaN
nan,nan,nan,NaN
nan,nan,nan,NaN
nan,nan,nan,NaN
nan,nan,nan,NaN
nan,nan,nan,NaN
nan,nan,nan,NaN
nan,nan,nan,NaN
nan,nan,nan,NaN
-1.17958,-0.20168,2.411,2.69166
-1.17176,-0.20168,2.411,2.68824
-1.15572,-0.200258,2.394,2.6659
-1.14795,-0.200258,2.394,2.66254
-1.14018,-0.200258,2.394,2.6592
-1.12437,-0.198836,2.377,2.63702
-1.11666,-0.198836,2.377,2.63374
-1.10894,-0.198836,2.377,2.63048
-1.09381,-0.197497,2.361,2.60955
-1.08615,-0.197497,2.361,2.60635
-1.07849,-0.197497,2.361,2.60316
-1.07082,-0.197497,2.361,2.6
-1.05596,-0.196159,2.345,2.57925
-1.04835,-0.196159,2.345,2.57615
-1.04784,-0.197497,2.361,2.59061
-1.04017,-0.197497,2.361,2.58752
-1.03251,-0.197497,2.361,2.58445
-1.02485,-0.197497,2.361,2.5814
-1.01718,-0.197497,2.361,2.57837
-1.00952,-0.197497,2.361,2.57536
-1.00186,-0.197497,2.361,2.57236
-0.994193,-0.197497,2.361,2.56939
-0.986529,-0.197497,2.361,2.56643
-0.978866,-0.197497,2.361,2.56349
-0.977785,-0.198836,2.377,2.57793
-0.970069,-0.198836,2.377,2.57501
-0.962354,-0.198836,2.377,2.57212
-0.954639,-0.198836,2.377,2.56924
-0.946924,-0.198836,2.377,2.56638
-0.939209,-0.198836,2.377,2.56355
-0.931494,-0.198836,2.377,2.56073
-0.923778,-0.198836,2.377,2.55793
-0.916063,-0.198836,2.377,2.55516
-0.908348,-0.198836,2.377,2.5524
-0.900633,-0.198836,2.377,2.54967
-0.892918,-0.198836,2.377,2.54695
-0.885203,-0.198836,2.377,2.54426
-0.877488,-0.198836,2.377,2.54158
-0.869772,-0.198836,2.377,2.53893
-0.862057,-0.198836,2.377,2.5363
-0.854342,-0.198836,2.377,2.53369
-0.846627,-0.198836,2.377,2.5311
-0.838912,-0.198836,2.377,2.52852
-0.831197,-0.198836,2.377,2.52598
-0.823481,-0.198836,2.377,2.52345
-0.821601,-0.200258,2.394,2.53897
-0.81383,-0.200258,2.394,2.53647
-0.811784,-0.20168,2.411,2.55198
-0.803958,-0.20168,2.411,2.5495
-0.796133,-0.20168,2.411,2.54704
-0.788307,-0.20168,2.411,2.54461
-0.780482,-0.20168,2.411,2.54219
-0.778104,-0.203102,2.428,2.55771
-0.770224,-0.203102,2.428,2.55532
-0.762343,-0.203102,2.428,2.55296
-0.754462,-0.203102,2.428,2.55062
-0.751809,-0.204524,2.445,2.56614
-0.743873,-0.204524,2.445,2.56383
-0.735937,-0.204524,2.445,2.56153
-0.728001,-0.204524,2.445,2.55927
-0.725366,-0.20603,2.463,2.57584
-0.717372,-0.20603,2.463,2.5736
-0.709378,-0.20603,2.463,2.57139
-0.701384,-0.20603,2.463,2.56919
-0.693389,-0.20603,2.463,2.56702
-0.685395,-0.20603,2.463,2.56487
-0.677401,-0.20603,2.463,2.56275
-0.669406,-0.20603,2.463,2.56065
-0.661412,-0.20603,2.463,2.55857
-0.653418,-0.20603,2.463,2.55652
-0.645424,-0.20603,2.463,2.55448
-0.637429,-0.20603,2.463,2.55248
-0.629435,-0.20603,2.463,2.55049
-0.621441,-0.20603,2.463,2.54853
-0.613446,-0.20603,2.463,2.54659
-0.605452,-0.20603,2.463,2.54468
-0.597458,-0.20603,2.463,2.54279
-0.589464,-0.20603,2.463,2.54092
-0.581469,-0.20603,2.463,2.53908
-0.573475,-0.20603,2.463,2.53726
-0.565481,-0.20603,2.463,2.53547
-0.557486,-0.20603,2.463,2.53369
-0.549492,-0.20603,2.463,2.53195
-0.541498,-0.20603,2.463,2.53022
-0.533504,-0.20603,2.463,2.52853
-0.52935,-0.207535,2.481,2.54532
-0.521297,-0.207535,2.481,2.54366
-0.509521,-0.20603,2.463,2.52357
-0.501526,-0.20603,2.463,2.52197
-0.493532,-0.20603,2.463,2.5204
-0.489086,-0.207535,2.481,2.53725
-0.481034,-0.207535,2.481,2.53571
-0.472981,-0.207535,2.481,2.53419
-0.464928,-0.207535,2.481,2.5327
-0.456875,-0.207535,2.481,2.53124
-0.452079,-0.209041,2.499,2.54815
-0.443968,-0.209041,2.499,2.54672
-0.435857,-0.209041,2.499,2.54532
-0.427746,-0.209041,2.499,2.54395
-0.419634,-0.209041,2.499,2.5426
-0.414487,-0.210547,2.517,2.55957
-0.406318,-0.210547,2.517,2.55826
-0.401154,-0.212136,2.536,2.57628
-0.392923,-0.212136,2.536,2.57501
-0.384691,-0.212136,2.536,2.57377
-0.37646,-0.212136,2.536,2.57255
-0.368229,-0.212136,2.536,2.57136
-0.359998,-0.212136,2.536,2.57019
-0.351766,-0.212136,2.536,2.56905
-0.346109,-0.213725,2.555,2.58718
-0.337816,-0.213725,2.555,2.58608
-0.329523,-0.213725,2.555,2.58501
-0.32123,-0.213725,2.555,2.58397
-0.315265,-0.215315,2.574,2.60216
-0.30691,-0.215315,2.574,2.60116
-0.298555,-0.215315,2.574,2.60019
-0.290201,-0.215315,2.574,2.59924
-0.281846,-0.215315,2.574,2.59832
-0.275511,-0.216904,2.593,2.6166
-0.267094,-0.216904,2.593,2.61573
-0.258678,-0.216904,2.593,2.61488
-0.250262,-0.216904,2.593,2.61406
-0.241846,-0.216904,2.593,2.61327
-0.233429,-0.216904,2.593,2.61251
-0.225013,-0.216904,2.593,2.61177
-0.21501,-0.215315,2.574,2.59192
-0.206655,-0.215315,2.574,2.59124
-0.198301,-0.215315,2.574,2.59059
-0.189946,-0.215315,2.574,2.58996
-0.181592,-0.215315,2.574,2.58937
-0.173237,-0.215315,2.574,2.58879
-0.164882,-0.215315,2.574,2.58825
-0.156528,-0.215315,2.574,2.58773
-0.148173,-0.215315,2.574,2.58724
-0.139819,-0.215315,2.574,2.58677
-0.131464,-0.215315,2.574,2.58633
-0.124018,-0.216904,2.593,2.60501
-0.115602,-0.216904,2.593,2.60462
-0.107186,-0.216904,2.593,2.60426
-0.0987696,-0.216904,2.593,2.60393
-0.0903534,-0.216904,2.593,2.60362
-0.0819372,-0.216904,2.593,2.60335
-0.073521,-0.216904,2.593,2.60309
-0.0651047,-0.216904,2.593,2.60287
-0.0566885,-0.216904,2.593,2.60267
-0.0482722,-0.216904,2.593,2.6025
-0.039856,-0.216904,2.593,2.60236
-0.0314398,-0.216904,2.593,2.60225
-0.0228548,-0.215315,2.574,2.58309
-0.0145003,-0.215315,2.574,2.58303
-0.00614571,-0.215315,2.574,2.583
0.00220886,-0.215315,2.574,2.58299
0.0105634,-0.215315,2.574,2.58301
0.018918,-0.215315,2.574,2.58306
0.0272725,-0.215315,2.574,2.58313
0.0356271,-0.215315,2.574,2.58324
0.0439817,-0.215315,2.574,2.58336
0.0523362,-0.215315,2.574,2.58352
0.0602428,-0.213725,2.555,2.56463
0.0685357,-0.213725,2.555,2.56484
0.0768286,-0.213725,2.555,2.56507
0.0844885,-0.212136,2.536,2.54626
0.0927197,-0.212136,2.536,2.54655
0.100951,-0.212136,2.536,2.54686
0.109182,-0.212136,2.536,2.5472
0.117413,-0.212136,2.536,2.54756
0.125645,-0.212136,2.536,2.54796
0.134879,-0.213725,2.555,2.56747
0.142107,-0.212136,2.536,2.54882
0.150338,-0.212136,2.536,2.54929
0.15857,-0.212136,2.536,2.54979
0.166801,-0.212136,2.536,2.55032
0.176343,-0.213725,2.555,2.56998
0.184636,-0.213725,2.555,2.57056
0.194364,-0.215315,2.574,2.59029
0.202718,-0.215315,2.574,2.59093
0.211073,-0.215315,2.574,2.5916
0.221047,-0.216904,2.593,2.61143
0.229463,-0.216904,2.593,2.61215
0.23788,-0.216904,2.593,2.61291
0.246296,-0.216904,2.593,2.61369
0.254712,-0.216904,2.593,2.61449
0.265158,-0.218577,2.613,2.6355
0.273639,-0.218577,2.613,2.63637
0.28212,-0.218577,2.613,2.63726
0.290601,-0.218577,2.613,2.63818
0.299083,-0.218577,2.613,2.63913
0.309918,-0.22025,2.633,2.66031
0.318464,-0.22025,2.633,2.66132
0.324526,-0.218577,2.613,2.64213
0.330458,-0.216904,2.593,2.62296
0.338875,-0.216904,2.593,2.62403
0.347291,-0.216904,2.593,2.62513
0.355707,-0.216904,2.593,2.62626
0.364123,-0.216904,2.593,2.62741
0.372539,-0.216904,2.593,2.62859
0.380956,-0.216904,2.593,2.6298
0.389372,-0.216904,2.593,2.63103
0.397788,-0.216904,2.593,2.63229
0.406204,-0.216904,2.593,2.63357
0.414621,-0.216904,2.593,2.63488
0.423037,-0.216904,2.593,2.63622
0.431453,-0.216904,2.593,2.63758
0.439869,-0.216904,2.593,2.63897
0.448286,-0.216904,2.593,2.64039
0.456702,-0.216904,2.593,2.64183
0.465118,-0.216904,2.593,2.6433
0.473534,-0.216904,2.593,2.64479
0.485668,-0.218577,2.613,2.66672
0.494149,-0.218577,2.613,2.66828
0.498783,-0.216904,2.593,2.64943
0.507199,-0.216904,2.593,2.65103
0.515615,-0.216904,2.593,2.65265
0.524032,-0.216904,2.593,2.6543
0.532448,-0.216904,2.593,2.65597
0.540864,-0.216904,2.593,2.65767
0.545256,-0.215315,2.574,2.63991
0.55361,-0.215315,2.574,2.64165
0.561965,-0.215315,2.574,2.64341
0.570319,-0.215315,2.574,2.6452
0.578674,-0.215315,2.574,2.64702
0.587028,-0.215315,2.574,2.64886
0.595383,-0.215315,2.574,2.65072
0.608194,-0.216904,2.593,2.67219
0.61661,-0.216904,2.593,2.67412
0.625027,-0.216904,2.593,2.67607
0.633443,-0.216904,2.593,2.67805
0.641859,-0.216904,2.593,2.68005
0.655291,-0.218577,2.613,2.70277
0.663772,-0.218577,2.613,2.70484
0.672253,-0.218577,2.613,2.70693
0.680734,-0.218577,2.613,2.70905
0.68394,-0.216904,2.593,2.69044
0.692356,-0.216904,2.593,2.69259
0.700773,-0.216904,2.593,2.69477
0.703992,-0.215315,2.574,2.67721
0.712347,-0.215315,2.574,2.67942
0.720701,-0.215315,2.574,2.68165
0.729056,-0.215315,2.574,2.68391
0.731967,-0.213725,2.555,2.66636
0.74026,-0.213725,2.555,2.66865
0.748553,-0.213725,2.555,2.67096
0.756846,-0.213725,2.555,2.6733
0.765139,-0.213725,2.555,2.67566
0.773432,-0.213725,2.555,2.67804
0.775912,-0.212136,2.536,2.66051
0.784143,-0.212136,2.536,2.66293
0.792374,-0.212136,2.536,2.66536
0.800605,-0.212136,2.536,2.66782
0.808836,-0.212136,2.536,2.6703
0.817068,-0.212136,2.536,2.67281
0.819116,-0.210547,2.517,2.65529
0.827285,-0.210547,2.517,2.65782
0.835455,-0.210547,2.517,2.66038
0.843624,-0.210547,2.517,2.66295
0.845702,-0.209041,2.499,2.64649
0.853814,-0.209041,2.499,2.64909
0.861925,-0.209041,2.499,2.65172
0.870036,-0.209041,2.499,2.65437
0.871822,-0.207535,2.481,2.6379
0.879874,-0.207535,2.481,2.64057
0.887927,-0.207535,2.481,2.64326
0.89598,-0.207535,2.481,2.64598
0.904033,-0.207535,2.481,2.64872
0.905468,-0.20603,2.463,2.63224
0.913462,-0.20603,2.463,2.635
0.921457,-0.20603,2.463,2.63778
0.929451,-0.20603,2.463,2.64059
0.930594,-0.204524,2.445,2.62409
0.93853,-0.204524,2.445,2.62692
0.946466,-0.204524,2.445,2.62976
0.954402,-0.204524,2.445,2.63263
0.955646,-0.203102,2.428,2.61719
0.963527,-0.203102,2.428,2.62008
0.964606,-0.20168,2.411,2.60462
0.972432,-0.20168,2.411,2.60753
0.980257,-0.20168,2.411,2.61046
0.988083,-0.20168,2.411,2.61341
nan,nan,nan,NaN
nan,nan,nan,NaN
nan,nan,nan,NaN
nan,nan,nan,NaN
nan,nan,nan,NaN
nan,nan,nan,NaN
nan,nan,nan,NaN
nan,nan,nan,NaN
nan,nan,nan,NaN
nan,nan,nan,NaN
nan,nan,nan,NaN
nan,nan,nan,NaN
nan,nan,nan,NaN
nan,nan,nan,NaN
nan,nan,nan,NaN
nan,nan,nan,NaN
nan,nan,nan,NaN
1.76154,-0.314691,3.762,4.1659
1.77375,-0.314691,3.762,4.17108
1.78596,-0.314691,3.762,4.17628
1.79817,-0.314691,3.762,4.18152
1.81038,-0.314691,3.762,4.18679
1.8226,-0.314691,3.762,4.19208
1.83481,-0.314691,3.762,4.1974
1.84702,-0.314691,3.762,4.20275
1.85923,-0.314691,3.762,4.20814
nan,nan,nan,NaN
nan,nan,nan,NaN
nan,nan,nan,NaN
nan,nan,nan,NaN
nan,nan,nan,NaN
nan,nan,nan,NaN
nan,nan,nan,NaN
nan,nan,nan,NaN
nan,nan,nan,NaN
nan,nan,nan,NaN
nan,nan,nan,NaN
1.98389,-0.311261,3.721,4.2283
1.99597,-0.311261,3.721,4.23398
2.00805,-0.311261,3.721,4.23969
1.99841,-0.307915,3.681,4.19979
1.98906,-0.304653,3.642,4.16093
2.00088,-0.304653,3.642,4.16659
2.0127,-0.304653,3.642,4.17228
2.0034,-0.301474,3.604,4.13441
2.0151,-0.301474,3.604,4.14009
2.00542,-0.298296,3.566,4.10208
2.017,-0.298296,3.566,4.10775
2.02857,-0.298296,3.566,4.11345
2.01898,-0.2952,3.529,4.07643
2.03043,-0.2952,3.529,4.08211
2.04189,-0.2952,3.529,4.08782
2.05334,-0.2952,3.529,4.09356
2.04373,-0.292189,3.493,4.05749
2.03448,-0.289261,3.458,4.0225
2.0457,-0.289261,3.458,4.02819
2.03611,-0.286334,3.423,3.99307
2.00714,-0.280729,3.356,3.92048
2.01804,-0.280729,3.356,3.92607
2.00958,-0.278052,3.324,3.89419
1.98147,-0.272699,3.26,3.82468
1.99205,-0.272699,3.26,3.83018
1.96516,-0.267596,3.199,3.76392
1.95764,-0.26517,3.17,3.73518
1.96793,-0.26517,3.17,3.74058
1.94202,-0.260318,3.112,3.67747
1.93456,-0.257976,3.084,3.64967
1.94457,-0.257976,3.084,3.65499
1.92035,-0.253459,3.03,3.59623
1.91299,-0.251201,3.003,3.5694
1.90609,-0.249026,2.977,3.54369
1.91575,-0.249026,2.977,3.54889
1.9086,-0.246851,2.951,3.52308
1.90192,-0.24476,2.926,3.49839
1.91142,-0.24476,2.926,3.50356
1.90451,-0.242668,2.901,3.47877
1.88225,-0.238653,2.853,3.42629
1.89151,-0.238653,2.853,3.43138
1.88479,-0.236646,2.829,3.40759
1.84844,-0.230957,2.761,3.33065
1.8574,-0.230957,2.761,3.33563
1.83662,-0.227277,2.717,3.28739
1.83118,-0.22552,2.696,3.26688
-2.01252,-0.233255,2.901,3.53842
-2.0031,-0.233255,2.901,3.53308
-1.9607,-0.229396,2.853,3.46938
-1.93502,-0.227466,2.829,3.43501
-1.91018,-0.225617,2.806,3.40196
-1.90108,-0.225617,2.806,3.39686
-1.86163,-0.221998,2.761,3.33737
-1.85267,-0.221998,2.761,3.33238
-1.8437,-0.221998,2.761,3.32741
-1.83474,-0.221998,2.761,3.32245
-1.82578,-0.221998,2.761,3.31751
-1.81682,-0.221998,2.761,3.31259
-1.80786,-0.221998,2.761,3.30768
-1.81323,-0.223767,2.783,3.32911
-1.81911,-0.225617,2.806,3.35167
-1.84032,-0.229396,2.853,3.40279
-1.83106,-0.229396,2.853,3.39779
-1.85245,-0.233255,2.901,3.44989
-1.8748,-0.237275,2.951,3.50422
-1.86522,-0.237275,2.951,3.49911
-1.88834,-0.241456,3.003,3.55558
-1.87859,-0.241456,3.003,3.55041
-1.86885,-0.241456,3.003,3.54526
-1.87581,-0.243627,3.03,3.57196
-1.88261,-0.245798,3.057,3.59859
-1.87268,-0.245798,3.057,3.59341
-1.86276,-0.245798,3.057,3.58825
-1.8692,-0.247969,3.084,3.61476
-1.85919,-0.247969,3.084,3.60959
-1.84918,-0.247969,3.084,3.60445
-1.83917,-0.247969,3.084,3.59932
nan,nan,nan,NaN
nan,nan,nan,NaN
nan,nan,nan,NaN
nan,nan,nan,NaN
nan,nan,nan,NaN
nan,nan,nan,NaN
nan,nan,nan,NaN
nan,nan,nan,NaN
nan,nan,nan,NaN
nan,nan,nan,NaN
nan,nan,nan,NaN
nan,nan,nan,NaN
nan,nan,nan,NaN
nan,nan,nan,NaN
nan,nan,nan,NaN
nan,nan,nan,NaN
nan,nan,nan,NaN
nan,nan,nan,NaN
nan,nan,nan,NaN
nan,nan,nan,NaN
nan,nan,nan,NaN
nan,nan,nan,NaN
nan,nan,nan,NaN
nan,nan,nan,NaN
nan,nan,nan,NaN
nan,nan,nan,NaN
nan,nan,nan,NaN
nan,nan,nan,NaN
nan,nan,nan,NaN
nan,nan,nan,NaN
nan,nan,nan,NaN
nan,nan,nan,NaN
-1.17127,-0.19249,2.394,2.67211
-1.1635,-0.19249,2.394,2.66871
-1.15572,-0.19249,2.394,2.66533
-1.14795,-0.19249,2.394,2.66197
-1.14018,-0.19249,2.394,2.65863
-1.12437,-0.191123,2.377,2.63645
-1.11666,-0.191123,2.377,2.63317
-1.10894,-0.191123,2.377,2.62991
-1.09381,-0.189836,2.361,2.60898
-1.07879,-0.18855,2.345,2.58812
-1.07118,-0.18855,2.345,2.58496
-1.06357,-0.18855,2.345,2.58181
-1.05596,-0.18855,2.345,2.57869
-1.04835,-0.18855,2.345,2.57558
-1.04073,-0.18855,2.345,2.57249
-1.03312,-0.18855,2.345,2.56942
-1.03251,-0.189836,2.361,2.58388
-1.02485,-0.189836,2.361,2.58083
-1.01718,-0.189836,2.361,2.57779
-1.00952,-0.189836,2.361,2.57478
-1.00186,-0.189836,2.361,2.57178
-0.994193,-0.189836,2.361,2.56881
-0.986529,-0.189836,2.361,2.56585
-0.9855,-0.191123,2.377,2.58028
-0.977785,-0.191123,2.377,2.57735
-0.970069,-0.191123,2.377,2.57443
-0.969237,-0.19249,2.394,2.58992
-0.961466,-0.19249,2.394,2.58703
-0.953696,-0.19249,2.394,2.58415
-0.945926,-0.19249,2.394,2.58129
-0.938156,-0.19249,2.394,2.57845
-0.930385,-0.19249,2.394,2.57564
-0.922615,-0.19249,2.394,2.57284
-0.914845,-0.19249,2.394,2.57006
-0.907074,-0.19249,2.394,2.56731
-0.899304,-0.19249,2.394,2.56457
-0.891534,-0.19249,2.394,2.56186
-0.883763,-0.19249,2.394,2.55917
-0.875993,-0.19249,2.394,2.55649
-0.868223,-0.19249,2.394,2.55384
-0.860452,-0.19249,2.394,2.55121
-0.852682,-0.19249,2.394,2.5486
-0.844912,-0.19249,2.394,2.54601
-0.837141,-0.19249,2.394,2.54344
-0.829371,-0.19249,2.394,2.54089
-0.821601,-0.19249,2.394,2.53837
-0.81383,-0.19249,2.394,2.53586
-0.811784,-0.193857,2.411,2.55137
-0.803958,-0.193857,2.411,2.54889
-0.796133,-0.193857,2.411,2.54643
-0.793866,-0.195223,2.428,2.56194
-0.785985,-0.195223,2.428,2.55951
-0.778104,-0.195223,2.428,2.5571
-0.770224,-0.195223,2.428,2.55471
-0.762343,-0.195223,2.428,2.55234
-0.754462,-0.195223,2.428,2.55
-0.751809,-0.19659,2.445,2.56552
-0.743873,-0.19659,2.445,2.56321
-0.735937,-0.19659,2.445,2.56091
-0.733361,-0.198038,2.463,2.57748
-0.725366,-0.198038,2.463,2.57522
-0.717372,-0.198038,2.463,2.57298
-0.709378,-0.198038,2.463,2.57076
-0.706509,-0.199485,2.481,2.58734
-0.693389,-0.198038,2.463,2.56639
-0.685395,-0.198038,2.463,2.56425
-0.677401,-0.198038,2.463,2.56212
-0.669406,-0.198038,2.463,2.56002
-0.661412,-0.198038,2.463,2.55794
-0.653418,-0.198038,2.463,2.55588
-0.645424,-0.198038,2.463,2.55385
-0.637429,-0.198038,2.463,2.55184
-0.629435,-0.198038,2.463,2.54986
-0.621441,-0.198038,2.463,2.5479
-0.613446,-0.198038,2.463,2.54596
-0.605452,-0.198038,2.463,2.54404
-0.597458,-0.198038,2.463,2.54215
-0.589464,-0.198038,2.463,2.54029
-0.581469,-0.198038,2.463,2.53844
-0.573475,-0.198038,2.463,2.53662
-0.565481,-0.198038,2.463,2.53483
-0.557486,-0.198038,2.463,2.53306
-0.549492,-0.198038,2.463,2.53131
-0.545455,-0.199485,2.481,2.54807
-0.537403,-0.199485,2.481,2.54636
-0.52935,-0.199485,2.481,2.54467
-0.521297,-0.199485,2.481,2.54301
-0.513244,-0.199485,2.481,2.54137
-0.505192,-0.199485,2.481,2.53976
-0.497139,-0.199485,2.481,2.53817
-0.489086,-0.199485,2.481,2.5366
-0.481034,-0.199485,2.481,2.53506
-0.476412,-0.200932,2.499,2.55193
-0.468301,-0.200932,2.499,2.55043
-0.46019,-0.200932,2.499,2.54895
-0.452079,-0.200932,2.499,2.5475
-0.447166,-0.20238,2.517,2.56441
-0.438996,-0.20238,2.517,2.563
-0.430827,-0.20238,2.517,2.56161
-0.422657,-0.20238,2.517,2.56025
-0.417616,-0.203907,2.536,2.57823
-0.409385,-0.203907,2.536,2.57691
-0.404159,-0.205435,2.555,2.59491
-0.395866,-0.205435,2.555,2.59363
-0.387574,-0.205435,2.555,2.59238
-0.379281,-0.205435,2.555,2.59115
-0.370988,-0.205435,2.555,2.58995
-0.362695,-0.205435,2.555,2.58878
-0.354402,-0.205435,2.555,2.58763
-0.346109,-0.205435,2.555,2.58651
-0.340328,-0.206963,2.574,2.60464
-0.331974,-0.206963,2.574,2.60356
-0.323619,-0.206963,2.574,2.60251
-0.315265,-0.206963,2.574,2.60148
-0.30691,-0.206963,2.574,2.60048
-0.298555,-0.206963,2.574,2.59951
-0.290201,-0.206963,2.574,2.59856
-0.281846,-0.206963,2.574,2.59764
-0.275511,-0.20849,2.593,2.61592
-0.267094,-0.20849,2.593,2.61504
-0.258678,-0.20849,2.593,2.6142
-0.250262,-0.20849,2.593,2.61338
-0.241846,-0.20849,2.593,2.61259
-0.233429,-0.20849,2.593,2.61182
-0.225013,-0.20849,2.593,2.61108
-0.216597,-0.20849,2.593,2.61037
-0.208181,-0.20849,2.593,2.60969
-0.199764,-0.20849,2.593,2.60903
-0.191348,-0.20849,2.593,2.6084
-0.182932,-0.20849,2.593,2.60779
-0.173237,-0.206963,2.574,2.58811
-0.164882,-0.206963,2.574,2.58757
-0.156528,-0.206963,2.574,2.58705
-0.148173,-0.206963,2.574,2.58655
-0.139819,-0.206963,2.574,2.58609
-0.131464,-0.206963,2.574,2.58565
-0.124018,-0.20849,2.593,2.60432
-0.115602,-0.20849,2.593,2.60394
-0.107186,-0.20849,2.593,2.60358
-0.0987696,-0.20849,2.593,2.60324
-0.0903534,-0.20849,2.593,2.60294
-0.0819372,-0.20849,2.593,2.60266
-0.073521,-0.20849,2.593,2.60241
-0.0651047,-0.20849,2.593,2.60218
-0.0566885,-0.20849,2.593,2.60199
-0.0482722,-0.20849,2.593,2.60182
-0.039856,-0.20849,2.593,2.60167
-0.0314398,-0.20849,2.593,2.60156
-0.0228548,-0.206963,2.574,2.58241
-0.0145003,-0.206963,2.574,2.58235
-0.00614571,-0.206963,2.574,2.58231
0.00220886,-0.206963,2.574,2.58231
0.0105634,-0.206963,2.574,2.58233
0.018918,-0.206963,2.574,2.58238
0.0272725,-0.206963,2.574,2.58245
0.0356271,-0.206963,2.574,2.58255
0.0439817,-0.206963,2.574,2.58268
0.0523362,-0.206963,2.574,2.58284
0.0602428,-0.205435,2.555,2.56395
0.0685357,-0.205435,2.555,2.56416
0.0768286,-0.205435,2.555,2.5644
0.0844885,-0.203907,2.536,2.54559
0.0927197,-0.203907,2.536,2.54587
0.100951,-0.203907,2.536,2.54619
0.109182,-0.203907,2.536,2.54653
0.117413,-0.203907,2.536,2.54689
0.125645,-0.203907,2.536,2.54729
0.134879,-0.205435,2.555,2.56679
0.142107,-0.203907,2.536,2.54815
0.150338,-0.203907,2.536,2.54862
0.15857,-0.203907,2.536,2.54912
0.166801,-0.203907,2.536,2.54965
0.176343,-0.205435,2.555,2.5693
0.184636,-0.205435,2.555,2.56989
0.194364,-0.206963,2.574,2.58961
0.202718,-0.206963,2.574,2.59025
0.211073,-0.206963,2.574,2.59092
0.221047,-0.20849,2.593,2.61074
0.229463,-0.20849,2.593,2.61147
0.23788,-0.20849,2.593,2.61222
0.246296,-0.20849,2.593,2.613
0.254712,-0.20849,2.593,2.61381
0.265158,-0.210098,2.613,2.63481
0.273639,-0.210098,2.613,2.63568
0.28212,-0.210098,2.613,2.63657
0.290601,-0.210098,2.613,2.63749
0.299083,-0.210098,2.613,2.63844
0.309918,-0.211707,2.633,2.65962
0.318464,-0.211707,2.633,2.66063
0.324526,-0.210098,2.613,2.64144
0.333007,-0.210098,2.613,2.6425
0.338875,-0.20849,2.593,2.62335
0.347291,-0.20849,2.593,2.62445
0.355707,-0.20849,2.593,2.62558
0.364123,-0.20849,2.593,2.62673
0.372539,-0.20849,2.593,2.62791
0.380956,-0.20849,2.593,2.62911
0.389372,-0.20849,2.593,2.63035
0.397788,-0.20849,2.593,2.63161
0.403228,-0.206963,2.574,2.6136
0.411583,-0.206963,2.574,2.6149
0.419937,-0.206963,2.574,2.61623
0.428292,-0.206963,2.574,2.61758
0.436646,-0.206963,2.574,2.61896
0.448286,-0.20849,2.593,2.63971
0.456702,-0.20849,2.593,2.64115
0.46171,-0.206963,2.574,2.62326
0.470064,-0.206963,2.574,2.62474
0.481951,-0.20849,2.593,2.64564
0.486774,-0.206963,2.574,2.62779
0.495128,-0.206963,2.574,2.62935
0.503483,-0.206963,2.574,2.63093
0.511837,-0.206963,2.574,2.63254
0.520192,-0.206963,2.574,2.63418
0.528546,-0.206963,2.574,2.63584
0.532938,-0.205435,2.555,2.61806
0.541231,-0.205435,2.555,2.61976
0.549524,-0.205435,2.555,2.62149
0.557817,-0.205435,2.555,2.62324
0.566109,-0.205435,2.555,2.62502
0.574402,-0.205435,2.555,2.62682
0.582695,-0.205435,2.555,2.62864
0.590988,-0.205435,2.555,2.63049
0.603738,-0.206963,2.574,2.65194
0.612092,-0.206963,2.574,2.65386
0.620447,-0.206963,2.574,2.6558
0.628801,-0.206963,2.574,2.65776
0.641859,-0.20849,2.593,2.67938
0.650275,-0.20849,2.593,2.68141
0.658691,-0.20849,2.593,2.68347
0.667108,-0.20849,2.593,2.68554
0.675524,-0.20849,2.593,2.68765
0.68394,-0.20849,2.593,2.68978
0.692356,-0.20849,2.593,2.69193
0.700773,-0.20849,2.593,2.6941
0.703992,-0.206963,2.574,2.67655
0.712347,-0.206963,2.574,2.67876
0.720701,-0.206963,2.574,2.68099
0.723674,-0.205435,2.555,2.66344
0.731967,-0.205435,2.555,2.66571
0.74026,-0.205435,2.555,2.668
0.748553,-0.205435,2.555,2.67031
0.756846,-0.205435,2.555,2.67265
0.759449,-0.203907,2.536,2.65512
0.76768,-0.203907,2.536,2.65748
0.775912,-0.203907,2.536,2.65987
0.784143,-0.203907,2.536,2.66228
0.792374,-0.203907,2.536,2.66472
0.800605,-0.203907,2.536,2.66718
0.802777,-0.20238,2.517,2.64966
0.810946,-0.20238,2.517,2.65215
0.819116,-0.20238,2.517,2.65466
0.827285,-0.20238,2.517,2.65719
0.835455,-0.20238,2.517,2.65974
0.843624,-0.20238,2.517,2.66232
0.845702,-0.200932,2.499,2.64586
0.853814,-0.200932,2.499,2.64847
0.861925,-0.200932,2.499,2.65109
0.863769,-0.199485,2.481,2.63463
0.871822,-0.199485,2.481,2.63728
0.879874,-0.199485,2.481,2.63995
0.887927,-0.199485,2.481,2.64264
0.89598,-0.199485,2.481,2.64536
0.904033,-0.199485,2.481,2.6481
0.905468,-0.198038,2.463,2.63163
0.906787,-0.19659,2.445,2.61514
0.914722,-0.19659,2.445,2.6179
0.922658,-0.19659,2.445,2.62068
0.930594,-0.19659,2.445,2.62349
0.93853,-0.19659,2.445,2.62631
0.946466,-0.19659,2.445,2.62916
0.954402,-0.19659,2.445,2.63203
0.955646,-0.195223,2.428,2.61659
0.963527,-0.195223,2.428,2.61948
0.964606,-0.193857,2.411,2.60403
0.972432,-0.193857,2.411,2.60694
0.980257,-0.193857,2.411,2.60987
0.988083,-0.193857,2.411,2.61282
nan,nan,nan,NaN
nan,nan,nan,NaN
nan,nan,nan,NaN
nan,nan,nan,NaN
nan,nan,nan,NaN
nan,nan,nan,NaN
nan,nan,nan,NaN
nan,nan,nan,NaN
nan,nan,nan,NaN
nan,nan,nan,NaN
nan,nan,nan,NaN
nan,nan,nan,NaN
nan,nan,nan,NaN
nan,nan,nan,NaN
nan,nan,nan,NaN
nan,nan,nan,NaN
nan,nan,nan,NaN
nan,nan,nan,NaN
1.77375,-0.302484,3.762,4.17017
1.78596,-0.302484,3.762,4.17538
1.79817,-0.302484,3.762,4.18062
1.81038,-0.302484,3.762,4.18589
1.8226,-0.302484,3.762,4.19118
1.83481,-0.302484,3.762,4.19651
1.84702,-0.302484,3.762,4.20186
nan,nan,nan,NaN
nan,nan,nan,NaN
nan,nan,nan,NaN
nan,nan,nan,NaN
nan,nan,nan,NaN
nan,nan,nan,NaN
nan,nan,nan,NaN
nan,nan,nan,NaN
nan,nan,nan,NaN
nan,nan,nan,NaN
nan,nan,nan,NaN
nan,nan,nan,NaN
1.98389,-0.299187,3.721,4.22743
1.99597,-0.299187,3.721,4.23311
2.00805,-0.299187,3.721,4.23882
1.99841,-0.295971,3.681,4.19893
1.98906,-0.292835,3.642,4.16008
2.00088,-0.292835,3.642,4.16575
2.0127,-0.292835,3.642,4.17144
2.0034,-0.28978,3.604,4.13357
2.0151,-0.28978,3.604,4.13925
2.00542,-0.286724,3.566,4.10125
2.017,-0.286724,3.566,4.10693
2.02857,-0.286724,3.566,4.11262
2.01898,-0.283749,3.529,4.07561
2.03043,-0.283749,3.529,4.0813
2.02106,-0.280855,3.493,4.04532
2.03239,-0.280855,3.493,4.05099
2.02325,-0.278041,3.458,4.01605
2.03448,-0.278041,3.458,4.02171
2.0457,-0.278041,3.458,4.0274
2.01588,-0.272493,3.389,3.95264
2.00714,-0.269839,3.356,3.91972
2.01804,-0.269839,3.356,3.92531
2.00958,-0.267266,3.324,3.89344
1.98147,-0.262121,3.26,3.82394
1.99205,-0.262121,3.26,3.82944
1.96516,-0.257216,3.199,3.76319
1.95764,-0.254884,3.17,3.73446
1.96793,-0.254884,3.17,3.73987
1.94202,-0.250221,3.112,3.67676
1.93456,-0.247969,3.084,3.64898
1.94457,-0.247969,3.084,3.6543
1.92035,-0.243627,3.03,3.59555
1.91299,-0.241456,3.003,3.56873
1.90609,-0.239366,2.977,3.54302
1.91575,-0.239366,2.977,3.54823
1.9086,-0.237275,2.951,3.52242
1.90192,-0.235265,2.926,3.49773
1.91142,-0.235265,2.926,3.50291
1.90451,-0.233255,2.901,3.47813
1.88225,-0.229396,2.853,3.42566
1.89151,-0.229396,2.853,3.43075
1.88479,-0.227466,2.829,3.40696
1.84844,-0.221998,2.761,3.33004
1.8574,-0.221998,2.761,3.33502
1.83662,-0.218461,2.717,3.28679
1.83118,-0.216772,2.696,3.26629
-1.99587,-0.22199,2.877,3.50855
-1.98653,-0.22199,2.877,3.50324
-1.9607,-0.220138,2.853,3.46878
-1.93502,-0.218286,2.829,3.43441
-1.89453,-0.214737,2.783,3.37349
-1.88549,-0.214737,2.783,3.36843
-1.86163,-0.213039,2.761,3.33679
-1.8379,-0.211342,2.739,3.30525
-1.82901,-0.211342,2.739,3.30031
-1.82012,-0.211342,2.739,3.2954
-1.81123,-0.211342,2.739,3.29049
-1.80234,-0.211342,2.739,3.28561
-1.79345,-0.211342,2.739,3.28074
-1.78456,-0.211342,2.739,3.27589
-1.78993,-0.213039,2.761,3.29733
-1.81,-0.216512,2.806,3.34613
-1.80089,-0.216512,2.806,3.34122
-1.80647,-0.218286,2.829,3.36366
-1.82778,-0.22199,2.877,3.41573
-1.81845,-0.22199,2.877,3.41074
-1.83992,-0.225771,2.926,3.46378
-1.84606,-0.2277,2.951,3.48829
-1.83648,-0.2277,2.951,3.48323
-1.8591,-0.231712,3.003,3.53948
-1.84935,-0.231712,3.003,3.53437
-1.85614,-0.233795,3.03,3.56102
-1.84631,-0.233795,3.03,3.5559
-1.85284,-0.235879,3.057,3.58244
-1.84292,-0.235879,3.057,3.57732
-1.833,-0.235879,3.057,3.57222
-1.82307,-0.235879,3.057,3.56714
-1.81315,-0.235879,3.057,3.56208
-1.80323,-0.235879,3.057,3.55704
nan,nan,nan,NaN
nan,nan,nan,NaN
nan,nan,nan,NaN
nan,nan,nan,NaN
nan,nan,nan,NaN
nan,nan,nan,NaN
nan,nan,nan,NaN
nan,nan,nan,NaN
nan,nan,nan,NaN
nan,nan,nan,NaN
nan,nan,nan,NaN
nan,nan,nan,NaN
nan,nan,nan,NaN
nan,nan,nan,NaN
nan,nan,nan,NaN
nan,nan,nan,NaN
nan,nan,nan,NaN
nan,nan,nan,NaN
nan,nan,nan,NaN
nan,nan,nan,NaN
nan,nan,nan,NaN
nan,nan,nan,NaN
nan,nan,nan,NaN
nan,nan,nan,NaN
nan,nan,nan,NaN
nan,nan,nan,NaN
nan,nan,nan,NaN
nan,nan,nan,NaN
nan,nan,nan,NaN
nan,nan,nan,NaN
-1.17127,-0.184722,2.394,2.67156
-1.1635,-0.184722,2.394,2.66816
-1.15572,-0.184722,2.394,2.66478
-1.1398,-0.18341,2.377,2.64252
-1.13209,-0.18341,2.377,2.6392
-1.12437,-0.18341,2.377,2.6359
-1.10914,-0.182175,2.361,2.6149
-1.10148,-0.182175,2.361,2.61166
-1.09381,-0.182175,2.361,2.60844
-1.07879,-0.180941,2.345,2.58758
-1.07118,-0.180941,2.345,2.58441
-1.06357,-0.180941,2.345,2.58127
-1.05596,-0.180941,2.345,2.57814
-1.04835,-0.180941,2.345,2.57503
-1.04073,-0.180941,2.345,2.57194
-1.03312,-0.180941,2.345,2.56887
-1.03251,-0.182175,2.361,2.58333
-1.02485,-0.182175,2.361,2.58027
-1.01718,-0.182175,2.361,2.57724
-1.00952,-0.182175,2.361,2.57423
-1.00865,-0.18341,2.377,2.58865
-1.00093,-0.18341,2.377,2.58566
-0.993215,-0.18341,2.377,2.58268
-0.9855,-0.18341,2.377,2.57972
-0.977785,-0.18341,2.377,2.57679
-0.970069,-0.18341,2.377,2.57387
-0.969237,-0.184722,2.394,2.58936
-0.961466,-0.184722,2.394,2.58646
-0.953696,-0.184722,2.394,2.58358
-0.945926,-0.184722,2.394,2.58072
-0.938156,-0.184722,2.394,2.57789
-0.930385,-0.184722,2.394,2.57507
-0.922615,-0.184722,2.394,2.57227
-0.914845,-0.184722,2.394,2.56949
-0.907074,-0.184722,2.394,2.56674
-0.899304,-0.184722,2.394,2.564
-0.891534,-0.184722,2.394,2.56129
-0.883763,-0.184722,2.394,2.55859
-0.875993,-0.184722,2.394,2.55592
-0.868223,-0.184722,2.394,2.55327
-0.860452,-0.184722,2.394,2.55063
-0.852682,-0.184722,2.394,2.54802
-0.844912,-0.184722,2.394,2.54543
-0.837141,-0.184722,2.394,2.54287
-0.829371,-0.184722,2.394,2.54032
-0.821601,-0.184722,2.394,2.53779
-0.819609,-0.186033,2.411,2.55329
-0.811784,-0.186033,2.411,2.55079
-0.803958,-0.186033,2.411,2.54831
-0.801746,-0.187345,2.428,2.5638
-0.793866,-0.187345,2.428,2.56135
-0.785985,-0.187345,2.428,2.55892
-0.778104,-0.187345,2.428,2.55651
-0.770224,-0.187345,2.428,2.55412
-0.762343,-0.187345,2.428,2.55175
-0.759745,-0.188657,2.445,2.56726
-0.751809,-0.188657,2.445,2.56492
-0.743873,-0.188657,2.445,2.56261
-0.735937,-0.188657,2.445,2.56032
-0.733361,-0.190046,2.463,2.57688
-0.725366,-0.190046,2.463,2.57462
-0.717372,-0.190046,2.463,2.57237
-0.709378,-0.190046,2.463,2.57016
-0.706509,-0.191435,2.481,2.58673
-0.698457,-0.191435,2.481,2.58454
-0.685395,-0.190046,2.463,2.56364
-0.677401,-0.190046,2.463,2.56151
-0.669406,-0.190046,2.463,2.55941
-0.661412,-0.190046,2.463,2.55733
-0.658193,-0.191435,2.481,2.57395
-0.65014,-0.191435,2.481,2.5719
-0.637429,-0.190046,2.463,2.55124
-0.629435,-0.190046,2.463,2.54925
-0.621441,-0.190046,2.463,2.54729
-0.613446,-0.190046,2.463,2.54535
-0.605452,-0.190046,2.463,2.54343
-0.597458,-0.190046,2.463,2.54154
-0.589464,-0.190046,2.463,2.53968
-0.581469,-0.190046,2.463,2.53783
-0.573475,-0.190046,2.463,2.53601
-0.565481,-0.190046,2.463,2.53422
-0.557486,-0.190046,2.463,2.53244
-0.549492,-0.190046,2.463,2.5307
-0.545455,-0.191435,2.481,2.54746
-0.537403,-0.191435,2.481,2.54574
-0.52935,-0.191435,2.481,2.54406
-0.521297,-0.191435,2.481,2.54239
-0.513244,-0.191435,2.481,2.54075
-0.505192,-0.191435,2.481,2.53914
-0.497139,-0.191435,2.481,2.53755
-0.489086,-0.191435,2.481,2.53598
-0.481034,-0.191435,2.481,2.53444
-0.476412,-0.192823,2.499,2.5513
-0.468301,-0.192823,2.499,2.5498
-0.46019,-0.192823,2.499,2.54832
-0.452079,-0.192823,2.499,2.54687
-0.447166,-0.194212,2.517,2.56378
-0.438996,-0.194212,2.517,2.56237
-0.430827,-0.194212,2.517,2.56098
-0.422657,-0.194212,2.517,2.55962
-0.417616,-0.195678,2.536,2.57759
-0.409385,-0.195678,2.536,2.57627
-0.404159,-0.197144,2.555,2.59427
-0.395866,-0.197144,2.555,2.59299
-0.387574,-0.197144,2.555,2.59174
-0.379281,-0.197144,2.555,2.59051
-0.370988,-0.197144,2.555,2.58931
-0.362695,-0.197144,2.555,2.58813
-0.354402,-0.197144,2.555,2.58699
-0.346109,-0.197144,2.555,2.58586
-0.340328,-0.19861,2.574,2.60399
-0.331974,-0.19861,2.574,2.60291
-0.323619,-0.19861,2.574,2.60186
-0.315265,-0.19861,2.574,2.60083
-0.30691,-0.19861,2.574,2.59983
-0.298555,-0.19861,2.574,2.59886
-0.290201,-0.19861,2.574,2.59791
-0.281846,-0.19861,2.574,2.59699
-0.275511,-0.200076,2.593,2.61526
-0.267094,-0.200076,2.593,2.61439
-0.258678,-0.200076,2.593,2.61354
-0.250262,-0.200076,2.593,2.61272
-0.241846,-0.200076,2.593,2.61193
-0.233429,-0.200076,2.593,2.61116
-0.225013,-0.200076,2.593,2.61042
-0.216597,-0.200076,2.593,2.60971
-0.208181,-0.200076,2.593,2.60903
-0.199764,-0.200076,2.593,2.60837
-0.191348,-0.200076,2.593,2.60774
-0.182932,-0.200076,2.593,2.60713
-0.174516,-0.200076,2.593,2.60656
-0.1661,-0.200076,2.593,2.60601
-0.157683,-0.200076,2.593,2.60548
-0.149267,-0.200076,2.593,2.60499
-0.140851,-0.200076,2.593,2.60452
-0.132435,-0.200076,2.593,2.60408
-0.124018,-0.200076,2.593,2.60366
-0.115602,-0.200076,2.593,2.60328
-0.108013,-0.20162,2.613,2.62299
-0.0995315,-0.20162,2.613,2.62266
-0.0910503,-0.20162,2.613,2.62235
-0.0825692,-0.20162,2.613,2.62207
-0.074088,-0.20162,2.613,2.62181
-0.0656069,-0.20162,2.613,2.62159
-0.0566885,-0.200076,2.593,2.60133
-0.0482722,-0.200076,2.593,2.60116
-0.039856,-0.200076,2.593,2.60101
-0.0314398,-0.200076,2.593,2.6009
-0.0230235,-0.200076,2.593,2.60081
-0.0146073,-0.200076,2.593,2.60075
-0.00619107,-0.200076,2.593,2.60072
0.00222516,-0.200076,2.593,2.60071
0.0106414,-0.200076,2.593,2.60073
0.0190576,-0.200076,2.593,2.60078
0.0272725,-0.19861,2.574,2.5818
0.0356271,-0.19861,2.574,2.5819
0.0439817,-0.19861,2.574,2.58203
0.0523362,-0.19861,2.574,2.58218
0.0606908,-0.19861,2.574,2.58236
0.0690454,-0.19861,2.574,2.58257
0.0773999,-0.19861,2.574,2.58281
0.0851215,-0.197144,2.555,2.56401
0.0934144,-0.197144,2.555,2.5643
0.101707,-0.197144,2.555,2.56461
0.11,-0.197144,2.555,2.56495
0.118293,-0.197144,2.555,2.56532
0.126586,-0.197144,2.555,2.56572
0.134879,-0.197144,2.555,2.56614
0.143172,-0.197144,2.555,2.56659
0.151465,-0.197144,2.555,2.56707
0.159758,-0.197144,2.555,2.56757
0.16805,-0.197144,2.555,2.5681
0.177655,-0.19861,2.574,2.58776
0.186009,-0.19861,2.574,2.58834
0.194364,-0.19861,2.574,2.58896
0.204215,-0.200076,2.593,2.60871
0.212631,-0.200076,2.593,2.60939
0.221047,-0.200076,2.593,2.61008
0.229463,-0.200076,2.593,2.61081
0.239715,-0.20162,2.613,2.63171
0.248196,-0.20162,2.613,2.63249
0.256677,-0.20162,2.613,2.63331
0.267187,-0.203163,2.633,2.65431
0.275734,-0.203163,2.633,2.65518
0.28428,-0.203163,2.633,2.65608
0.292826,-0.203163,2.633,2.65701
0.301372,-0.203163,2.633,2.65797
0.309918,-0.203163,2.633,2.65895
0.318464,-0.203163,2.633,2.65996
0.324526,-0.20162,2.613,2.64078
0.333007,-0.20162,2.613,2.64184
0.338875,-0.200076,2.593,2.62269
0.347291,-0.200076,2.593,2.62379
0.355707,-0.200076,2.593,2.62492
0.364123,-0.200076,2.593,2.62607
0.372539,-0.200076,2.593,2.62725
0.378164,-0.19861,2.574,2.6092
0.386519,-0.19861,2.574,2.61043
0.394873,-0.19861,2.574,2.61168
0.403228,-0.19861,2.574,2.61295
0.411583,-0.19861,2.574,2.61425
0.419937,-0.19861,2.574,2.61558
0.428292,-0.19861,2.574,2.61694
0.436646,-0.19861,2.574,2.61832
0.445001,-0.19861,2.574,2.61972
0.453355,-0.19861,2.574,2.62116
0.46171,-0.19861,2.574,2.62261
0.470064,-0.19861,2.574,2.6241
0.481951,-0.200076,2.593,2.64499
0.486774,-0.19861,2.574,2.62714
0.495128,-0.19861,2.574,2.6287
0.503483,-0.19861,2.574,2.63029
0.511837,-0.19861,2.574,2.6319
0.520192,-0.19861,2.574,2.63354
0.528546,-0.19861,2.574,2.6352
0.532938,-0.197144,2.555,2.61742
0.541231,-0.197144,2.555,2.61913
0.549524,-0.197144,2.555,2.62085
0.557817,-0.197144,2.555,2.6226
0.566109,-0.197144,2.555,2.62438
0.574402,-0.197144,2.555,2.62618
0.582695,-0.197144,2.555,2.62801
0.590988,-0.197144,2.555,2.62986
0.603738,-0.19861,2.574,2.65131
0.612092,-0.19861,2.574,2.65322
0.620447,-0.19861,2.574,2.65516
0.628801,-0.19861,2.574,2.65713
0.641859,-0.200076,2.593,2.67874
0.650275,-0.200076,2.593,2.68077
0.658691,-0.200076,2.593,2.68283
0.667108,-0.200076,2.593,2.6849
0.675524,-0.200076,2.593,2.68701
0.68394,-0.200076,2.593,2.68914
0.692356,-0.200076,2.593,2.69129
0.700773,-0.200076,2.593,2.69347
0.703992,-0.19861,2.574,2.67592
0.712347,-0.19861,2.574,2.67813
0.720701,-0.19861,2.574,2.68036
0.723674,-0.197144,2.555,2.66282
0.731967,-0.197144,2.555,2.66508
0.74026,-0.197144,2.555,2.66737
0.748553,-0.197144,2.555,2.66969
0.756846,-0.197144,2.555,2.67202
0.759449,-0.195678,2.536,2.6545
0.76768,-0.195678,2.536,2.65686
0.775912,-0.195678,2.536,2.65925
0.784143,-0.195678,2.536,2.66167
0.792374,-0.195678,2.536,2.6641
0.800605,-0.195678,2.536,2.66656
0.802777,-0.194212,2.517,2.64905
0.810946,-0.194212,2.517,2.65154
0.819116,-0.194212,2.517,2.65405
0.827285,-0.194212,2.517,2.65658
0.835455,-0.194212,2.517,2.65913
0.843624,-0.194212,2.517,2.66171
0.845702,-0.192823,2.499,2.64526
0.853814,-0.192823,2.499,2.64786
0.861925,-0.192823,2.499,2.65049
0.863769,-0.191435,2.481,2.63403
0.871822,-0.191435,2.481,2.63668
0.879874,-0.191435,2.481,2.63935
0.887927,-0.191435,2.481,2.64205
0.89598,-0.191435,2.481,2.64477
0.904033,-0.191435,2.481,2.64751
0.905468,-0.190046,2.463,2.63104
0.906787,-0.188657,2.445,2.61455
0.914722,-0.188657,2.445,2.61731
0.922658,-0.188657,2.445,2.6201
0.930594,-0.188657,2.445,2.6229
0.932004,-0.187345,2.428,2.60747
0.939885,-0.187345,2.428,2.6103
0.947766,-0.187345,2.428,2.61315
0.948955,-0.186033,2.411,2.5977
0.956781,-0.186033,2.411,2.60057
0.964606,-0.186033,2.411,2.60346
0.965575,-0.184722,2.394,2.58799
0.973346,-0.184722,2.394,2.5909
0.981116,-0.184722,2.394,2.59383
nan,nan,nan,NaN
nan,nan,nan,NaN
nan,nan,nan,NaN
nan,nan,nan,NaN
nan,nan,nan,NaN
nan,nan,nan,NaN
nan,nan,nan,NaN
nan,nan,nan,NaN
nan,nan,nan,NaN
nan,nan,nan,NaN
nan,nan,nan,NaN
nan,nan,nan,NaN
nan,nan,nan,NaN
nan,nan,nan,NaN
nan,nan,nan,NaN
nan,nan,nan,NaN
nan,nan,nan,NaN
nan,nan,nan,NaN
1.77375,-0.290277,3.762,4.16931
1.78596,-0.290277,3.762,4.17451
1.79817,-0.290277,3.762,4.17975
1.81038,-0.290277,3.762,4.18502
1.8226,-0.290277,3.762,4.19032
1.83481,-0.290277,3.762,4.19564
1.84702,-0.290277,3.762,4.201
nan,nan,nan,NaN
nan,nan,nan,NaN
nan,nan,nan,NaN
nan,nan,nan,NaN
nan,nan,nan,NaN
nan,nan,nan,NaN
nan,nan,nan,NaN
nan,nan,nan,NaN
nan,nan,nan,NaN
nan,nan,nan,NaN
nan,nan,nan,NaN
nan,nan,nan,NaN
1.96257,-0.284027,3.681,4.18116
1.95359,-0.281018,3.642,4.14242
1.96542,-0.281018,3.642,4.14801
1.97724,-0.281018,3.642,4.15363
1.9683,-0.278085,3.604,4.11587
1.98,-0.278085,3.604,4.12148
1.9917,-0.278085,3.604,4.12711
1.98227,-0.275153,3.566,4.08919
1.99385,-0.275153,3.566,4.09481
1.98461,-0.272298,3.529,4.05792
1.99607,-0.272298,3.529,4.06353
2.00752,-0.272298,3.529,4.06917
2.01898,-0.272298,3.529,4.07483
2.00972,-0.269521,3.493,4.03889
2.00081,-0.26682,3.458,4.00402
2.01203,-0.26682,3.458,4.00964
2.00277,-0.264119,3.423,3.97464
2.01389,-0.264119,3.423,3.98025
2.025,-0.264119,3.423,3.98589
2.01588,-0.261496,3.389,3.9519
2.00714,-0.25895,3.356,3.91898
2.01804,-0.25895,3.356,3.92457
1.99024,-0.254011,3.292,3.85523
1.98147,-0.251542,3.26,3.82323
1.99205,-0.251542,3.26,3.82873
1.96516,-0.246836,3.199,3.7625
1.95764,-0.244598,3.17,3.73377
1.96793,-0.244598,3.17,3.73918
1.94202,-0.240123,3.112,3.67609
1.93456,-0.237962,3.084,3.64831
1.94457,-0.237962,3.084,3.65363
1.92035,-0.233795,3.03,3.5949
1.91299,-0.231712,3.003,3.56808
1.90609,-0.229706,2.977,3.54238
1.91575,-0.229706,2.977,3.54759
1.9086,-0.2277,2.951,3.52179
1.91817,-0.2277,2.951,3.52699
1.92775,-0.2277,2.951,3.53221
1.90451,-0.223842,2.901,3.47751
1.88225,-0.220138,2.853,3.42505
1.89151,-0.220138,2.853,3.43015
1.88479,-0.218286,2.829,3.40636
1.86317,-0.214737,2.783,3.35598
1.8722,-0.214737,2.783,3.361
1.85149,-0.211342,2.739,3.31283
1.83118,-0.208024,2.696,3.26572
-1.99587,-0.212655,2.877,3.50797
-1.98653,-0.212655,2.877,3.50266
-1.9607,-0.210881,2.853,3.4682
-1.91929,-0.207407,2.806,3.40593
-1.87955,-0.20408,2.761,3.34626
-1.87059,-0.20408,2.761,3.34124
-1.84679,-0.202454,2.739,3.30965
-1.82314,-0.200828,2.717,3.27815
-1.81432,-0.200828,2.717,3.27325
-1.8055,-0.200828,2.717,3.26837
-1.7828,-0.199276,2.696,3.23829
-1.77405,-0.199276,2.696,3.23348
-1.7653,-0.199276,2.696,3.22868
-1.77023,-0.200828,2.717,3.24902
-1.76141,-0.200828,2.717,3.24422
-1.78097,-0.20408,2.761,3.2919
-1.77201,-0.20408,2.761,3.28707
-1.80647,-0.209107,2.829,3.36308
-1.82778,-0.212655,2.877,3.41514
-1.81845,-0.212655,2.877,3.41015
-1.83992,-0.216276,2.926,3.46317
-1.84606,-0.218124,2.951,3.48768
-1.83648,-0.218124,2.951,3.48262
-1.8591,-0.221968,3.003,3.53886
-1.84935,-0.221968,3.003,3.53375
-1.85614,-0.223964,3.03,3.56038
-1.84631,-0.223964,3.03,3.55527
-1.85284,-0.225959,3.057,3.5818
-1.84292,-0.225959,3.057,3.57668
-1.833,-0.225959,3.057,3.57158
-1.82307,-0.225959,3.057,3.5665
-1.81315,-0.225959,3.057,3.56144
-1.80323,-0.225959,3.057,3.55639
nan,nan,nan,NaN
nan,nan,nan,NaN
nan,nan,nan,NaN
nan,nan,nan,NaN
nan,nan,nan,NaN
nan,nan,nan,NaN
nan,nan,nan,NaN
nan,nan,nan,NaN
nan,nan,nan,NaN
nan,nan,nan,NaN
nan,nan,nan,NaN
nan,nan,nan,NaN
nan,nan,nan,NaN
nan,nan,nan,NaN
nan,nan,nan,NaN
nan,nan,nan,NaN
nan,nan,nan,NaN
nan,nan,nan,NaN
nan,nan,nan,NaN
nan,nan,nan,NaN
nan,nan,nan,NaN
nan,nan,nan,NaN
nan,nan,nan,NaN
nan,nan,nan,NaN
nan,nan,nan,NaN
nan,nan,nan,NaN
nan,nan,nan,NaN
nan,nan,nan,NaN
nan,nan,nan,NaN
nan,nan,nan,NaN
-1.17127,-0.176953,2.394,2.67103
-1.1635,-0.176953,2.394,2.66763
-1.15572,-0.176953,2.394,2.66425
-1.1398,-0.175697,2.377,2.642
-1.13209,-0.175697,2.377,2.63868
-1.12437,-0.175697,2.377,2.63538
-1.10914,-0.174514,2.361,2.61438
-1.10148,-0.174514,2.361,2.61114
-1.09381,-0.174514,2.361,2.60791
-1.07879,-0.173332,2.345,2.58706
-1.07118,-0.173332,2.345,2.58389
-1.06357,-0.173332,2.345,2.58075
-1.05596,-0.173332,2.345,2.57762
-1.04835,-0.173332,2.345,2.57451
-1.04073,-0.173332,2.345,2.57142
-1.03312,-0.173332,2.345,2.56835
-1.02551,-0.173332,2.345,2.5653
-1.02485,-0.174514,2.361,2.57975
-1.01718,-0.174514,2.361,2.57671
-1.00952,-0.174514,2.361,2.57369
-1.00865,-0.175697,2.377,2.58812
-1.00093,-0.175697,2.377,2.58512
-0.993215,-0.175697,2.377,2.58215
-0.9855,-0.175697,2.377,2.57919
-0.977785,-0.175697,2.377,2.57625
-0.970069,-0.175697,2.377,2.57333
-0.969237,-0.176953,2.394,2.58882
-0.961466,-0.176953,2.394,2.58592
-0.953696,-0.176953,2.394,2.58304
-0.945926,-0.176953,2.394,2.58018
-0.938156,-0.176953,2.394,2.57734
-0.930385,-0.176953,2.394,2.57452
-0.922615,-0.176953,2.394,2.57172
-0.914845,-0.176953,2.394,2.56895
-0.907074,-0.176953,2.394,2.56619
-0.899304,-0.176953,2.394,2.56345
-0.891534,-0.176953,2.394,2.56074
-0.883763,-0.176953,2.394,2.55804
-0.875993,-0.176953,2.394,2.55537
-0.868223,-0.176953,2.394,2.55272
-0.860452,-0.176953,2.394,2.55008
-0.852682,-0.176953,2.394,2.54747
-0.844912,-0.176953,2.394,2.54488
-0.837141,-0.176953,2.394,2.54231
-0.829371,-0.176953,2.394,2.53976
-0.821601,-0.176953,2.394,2.53724
-0.819609,-0.17821,2.411,2.55273
-0.811784,-0.17821,2.411,2.55023
-0.803958,-0.17821,2.411,2.54775
-0.801746,-0.179467,2.428,2.56324
-0.793866,-0.179467,2.428,2.56078
-0.785985,-0.179467,2.428,2.55835
-0.778104,-0.179467,2.428,2.55594
-0.770224,-0.179467,2.428,2.55355
-0.762343,-0.179467,2.428,2.55119
-0.759745,-0.180723,2.445,2.56669
-0.751809,-0.180723,2.445,2.56435
-0.743873,-0.180723,2.445,2.56204
-0.735937,-0.180723,2.445,2.55974
-0.733361,-0.182054,2.463,2.5763
-0.725366,-0.182054,2.463,2.57404
-0.717372,-0.182054,2.463,2.5718
-0.709378,-0.182054,2.463,2.56958
-0.706509,-0.183384,2.481,2.58615
-0.698457,-0.183384,2.481,2.58396
