nan,nan,nan,NaN
nan,nan,nan,NaN
nan,nan,nan,NaN
nan,nan,nan,NaN
nan,nan,nan,NaN
nan,nan,nan,NaN
nan,nan,nan,NaN
nan,nan,nan,NaN
nan,nan,nan,NaN
nan,nan,nan,NaN
nan,nan,nan,NaN
nan,nan,nan,NaN
nan,nan,nan,NaN
nan,nan,nan,NaN
nan,nan,nan,NaN
nan,nan,nan,NaN
nan,nan,nan,NaN
nan,nan,nan,NaN
nan,nan,nan,NaN
nan,nan,nan,NaN
nan,nan,nan,NaN
nan,nan,nan,NaN
-1.17904,-0.31678,2.394,2.68732
-1.17127,-0.31678,2.394,2.68392
-1.1635,-0.31678,2.394,2.68054
-1.15572,-0.31678,2.394,2.67718
-1.14795,-0.31678,2.394,2.67383
-1.14018,-0.31678,2.394,2.67051
-1.13241,-0.31678,2.394,2.6672
-1.12464,-0.31678,2.394,2.66391
-1.11687,-0.31678,2.394,2.66064
-1.1091,-0.31678,2.394,2.65739
-1.09351,-0.31453,2.377,2.6353
-1.0858,-0.31453,2.377,2.63211
-1.07808,-0.31453,2.377,2.62894
-1.07037,-0.31453,2.377,2.62578
-1.06265,-0.31453,2.377,2.62265
-1.05494,-0.31453,2.377,2.61953
-1.04722,-0.31453,2.377,2.61643
-1.03951,-0.31453,2.377,2.61336
-1.03179,-0.31453,2.377,2.6103
-1.01718,-0.312413,2.361,2.58971
-1.00952,-0.312413,2.361,2.58671
-1.00865,-0.31453,2.377,2.60124
-0.994193,-0.312413,2.361,2.58076
-0.986529,-0.312413,2.361,2.57782
-0.978866,-0.312413,2.361,2.5749
-0.971203,-0.312413,2.361,2.572
-0.95701,-0.310296,2.345,2.5517
-0.949399,-0.310296,2.345,2.54886
-0.941787,-0.310296,2.345,2.54603
-0.934176,-0.310296,2.345,2.54323
-0.926565,-0.310296,2.345,2.54044
-0.918953,-0.310296,2.345,2.53767
-0.911342,-0.310296,2.345,2.53493
-0.903731,-0.310296,2.345,2.5322
-0.89612,-0.310296,2.345,2.52949
-0.882446,-0.308179,2.329,2.50957
-0.874887,-0.308179,2.329,2.50692
-0.873286,-0.310296,2.345,2.52149
-0.865674,-0.310296,2.345,2.51887
-0.858063,-0.310296,2.345,2.51626
-0.850452,-0.310296,2.345,2.51368
-0.842841,-0.310296,2.345,2.51111
-0.835229,-0.310296,2.345,2.50857
-0.827618,-0.310296,2.345,2.50604
-0.820007,-0.310296,2.345,2.50354
-0.812395,-0.310296,2.345,2.50106
-0.810275,-0.312413,2.361,2.51564
-0.808051,-0.31453,2.377,2.53022
-0.800336,-0.31453,2.377,2.52777
-0.792621,-0.31453,2.377,2.52533
-0.790519,-0.31678,2.394,2.54097
-0.782749,-0.31678,2.394,2.53856
-0.774979,-0.31678,2.394,2.53617
-0.772656,-0.319029,2.411,2.5518
-0.770224,-0.321279,2.428,2.56742
-0.762343,-0.321279,2.428,2.56507
-0.754462,-0.321279,2.428,2.56274
-0.751809,-0.323528,2.445,2.57835
-0.743873,-0.323528,2.445,2.57605
-0.741355,-0.32591,2.463,2.59272
-0.733361,-0.32591,2.463,2.59044
-0.730668,-0.328292,2.481,2.60711
-0.722615,-0.328292,2.481,2.60486
-0.714562,-0.328292,2.481,2.60264
-0.711635,-0.330674,2.499,2.61931
-0.703524,-0.330674,2.499,2.61712
-0.695413,-0.330674,2.499,2.61495
-0.687302,-0.330674,2.499,2.6128
-0.679191,-0.330674,2.499,2.61068
-0.67108,-0.330674,2.499,2.60858
-0.667744,-0.333056,2.517,2.62528
-0.659574,-0.333056,2.517,2.62321
-0.651405,-0.333056,2.517,2.62117
-0.643235,-0.333056,2.517,2.61915
-0.635065,-0.333056,2.517,2.61716
-0.626896,-0.333056,2.517,2.61519
-0.618726,-0.333056,2.517,2.61324
-0.610557,-0.333056,2.517,2.61132
-0.602387,-0.333056,2.517,2.60942
-0.594218,-0.333056,2.517,2.60755
-0.586048,-0.333056,2.517,2.6057
-0.577879,-0.333056,2.517,2.60387
-0.569709,-0.333056,2.517,2.60207
-0.561539,-0.333056,2.517,2.6003
-0.55337,-0.333056,2.517,2.59854
-0.5452,-0.333056,2.517,2.59682
-0.541085,-0.33557,2.536,2.6147
-0.532853,-0.33557,2.536,2.61301
-0.524622,-0.33557,2.536,2.61135
-0.516391,-0.33557,2.536,2.60971
-0.50816,-0.33557,2.536,2.60809
-0.499929,-0.33557,2.536,2.6065
-0.491697,-0.33557,2.536,2.60493
-0.487088,-0.338084,2.555,2.6229
-0.478795,-0.338084,2.555,2.62137
-0.470502,-0.338084,2.555,2.61987
-0.46221,-0.338084,2.555,2.61839
-0.453917,-0.338084,2.555,2.61694
-0.445624,-0.338084,2.555,2.61551
-0.437331,-0.338084,2.555,2.61411
-0.432229,-0.340598,2.574,2.63217
-0.423874,-0.340598,2.574,2.63081
-0.415519,-0.340598,2.574,2.62948
-0.407165,-0.340598,2.574,2.62817
-0.39881,-0.340598,2.574,2.62689
-0.390456,-0.340598,2.574,2.62563
-0.382101,-0.340598,2.574,2.6244
-0.373747,-0.340598,2.574,2.6232
-0.365392,-0.340598,2.574,2.62202
-0.357037,-0.340598,2.574,2.62087
-0.348683,-0.340598,2.574,2.61975
-0.340328,-0.340598,2.574,2.61865
-0.331974,-0.340598,2.574,2.61757
-0.323619,-0.340598,2.574,2.61653
-0.315265,-0.340598,2.574,2.61551
-0.30691,-0.340598,2.574,2.61451
-0.298555,-0.340598,2.574,2.61355
-0.290201,-0.340598,2.574,2.6126
-0.281846,-0.340598,2.574,2.61169
-0.275511,-0.343112,2.593,2.63007
-0.267094,-0.343112,2.593,2.6292
-0.258678,-0.343112,2.593,2.62836
-0.250262,-0.343112,2.593,2.62755
-0.241846,-0.343112,2.593,2.62676
-0.233429,-0.343112,2.593,2.626
-0.223364,-0.340598,2.574,2.60603
-0.213423,-0.338084,2.555,2.58609
-0.20513,-0.338084,2.555,2.58542
-0.196837,-0.338084,2.555,2.58478
-0.188544,-0.338084,2.555,2.58416
-0.180251,-0.338084,2.555,2.58357
-0.170679,-0.33557,2.536,2.56379
-0.162448,-0.33557,2.536,2.56326
-0.154217,-0.33557,2.536,2.56275
-0.145986,-0.33557,2.536,2.56227
-0.136723,-0.333056,2.517,2.54262
-0.128553,-0.333056,2.517,2.54219
-0.120383,-0.333056,2.517,2.54179
-0.112214,-0.333056,2.517,2.54142
-0.104044,-0.333056,2.517,2.54107
-0.0958747,-0.333056,2.517,2.54075
-0.0877052,-0.333056,2.517,2.54045
-0.0795356,-0.333056,2.517,2.54019
-0.0713661,-0.333056,2.517,2.53994
-0.0631965,-0.333056,2.517,2.53973
-0.055027,-0.333056,2.517,2.53954
-0.0472111,-0.33557,2.536,2.55854
-0.0389799,-0.33557,2.536,2.5584
-0.0307487,-0.33557,2.536,2.55829
-0.0225174,-0.33557,2.536,2.5582
-0.0142862,-0.33557,2.536,2.55815
-0.00605498,-0.33557,2.536,2.55811
0.00219255,-0.338084,2.555,2.57727
0.0104854,-0.338084,2.555,2.57729
0.0187783,-0.338084,2.555,2.57734
0.0270712,-0.338084,2.555,2.57741
0.0356271,-0.340598,2.574,2.59668
0.0439817,-0.340598,2.574,2.59681
0.0523362,-0.340598,2.574,2.59696
0.0606908,-0.340598,2.574,2.59715
0.069555,-0.343112,2.593,2.61653
0.0779713,-0.343112,2.593,2.61676
0.0863875,-0.343112,2.593,2.61703
0.0948037,-0.343112,2.593,2.61732
0.10322,-0.343112,2.593,2.61764
0.111636,-0.343112,2.593,2.61798
0.120052,-0.343112,2.593,2.61836
0.128469,-0.343112,2.593,2.61876
0.136885,-0.343112,2.593,2.61918
0.145301,-0.343112,2.593,2.61964
0.153717,-0.343112,2.593,2.62012
0.160946,-0.340598,2.574,2.60142
0.1693,-0.340598,2.574,2.60195
0.177655,-0.340598,2.574,2.60251
0.184636,-0.338084,2.555,2.58388
0.192929,-0.338084,2.555,2.58448
0.201222,-0.338084,2.555,2.58511
0.209515,-0.338084,2.555,2.58577
0.217808,-0.338084,2.555,2.58646
0.226101,-0.338084,2.555,2.58717
0.234394,-0.338084,2.555,2.58791
0.242687,-0.338084,2.555,2.58867
0.250979,-0.338084,2.555,2.58946
0.259272,-0.338084,2.555,2.59028
0.269555,-0.340598,2.574,2.61039
0.27791,-0.340598,2.574,2.61127
0.286264,-0.340598,2.574,2.61217
0.294619,-0.340598,2.574,2.6131
0.302973,-0.340598,2.574,2.61405
0.311328,-0.340598,2.574,2.61504
0.319682,-0.340598,2.574,2.61604
0.328037,-0.340598,2.574,2.61708
0.336391,-0.340598,2.574,2.61814
0.342201,-0.338084,2.555,2.59989
0.350494,-0.338084,2.555,2.60099
0.358787,-0.338084,2.555,2.60212
0.36708,-0.338084,2.555,2.60328
0.375373,-0.338084,2.555,2.60446
0.383666,-0.338084,2.555,2.60567
0.391959,-0.338084,2.555,2.60691
0.400252,-0.338084,2.555,2.60817
0.408544,-0.338084,2.555,2.60945
0.416837,-0.338084,2.555,2.61076
0.42513,-0.338084,2.555,2.6121
0.433423,-0.338084,2.555,2.61346
0.441716,-0.338084,2.555,2.61485
0.450009,-0.338084,2.555,2.61626
0.458302,-0.338084,2.555,2.6177
0.470064,-0.340598,2.574,2.63864
0.478419,-0.340598,2.574,2.64015
0.486774,-0.340598,2.574,2.64167
0.495128,-0.340598,2.574,2.64322
0.503483,-0.340598,2.574,2.6448
0.511837,-0.340598,2.574,2.64641
0.520192,-0.340598,2.574,2.64803
0.528546,-0.340598,2.574,2.64969
0.536901,-0.340598,2.574,2.65137
0.545256,-0.340598,2.574,2.65307
0.55361,-0.340598,2.574,2.6548
0.566113,-0.343112,2.593,2.67617
0.570319,-0.340598,2.574,2.65834
0.578674,-0.340598,2.574,2.66014
0.587028,-0.340598,2.574,2.66197
0.595383,-0.340598,2.574,2.66383
0.603738,-0.340598,2.574,2.6657
0.612092,-0.340598,2.574,2.66761
0.620447,-0.340598,2.574,2.66954
0.628801,-0.340598,2.574,2.67149
0.637156,-0.340598,2.574,2.67347
0.64551,-0.340598,2.574,2.67548
0.653865,-0.340598,2.574,2.6775
0.662219,-0.340598,2.574,2.67956
0.670574,-0.340598,2.574,2.68163
0.678929,-0.340598,2.574,2.68373
0.68221,-0.338084,2.555,2.66603
0.690503,-0.338084,2.555,2.66817
0.698796,-0.338084,2.555,2.67033
0.707089,-0.338084,2.555,2.67251
0.715382,-0.338084,2.555,2.67471
0.723674,-0.338084,2.555,2.67694
0.731967,-0.338084,2.555,2.6792
0.74026,-0.338084,2.555,2.68148
0.742987,-0.33557,2.536,2.66382
0.751218,-0.33557,2.536,2.66613
0.759449,-0.33557,2.536,2.66846
0.76768,-0.33557,2.536,2.67081
0.775912,-0.33557,2.536,2.67319
0.784143,-0.33557,2.536,2.67559
0.792374,-0.33557,2.536,2.67801
0.800605,-0.33557,2.536,2.68046
0.808836,-0.33557,2.536,2.68293
0.817068,-0.33557,2.536,2.68542
0.825299,-0.33557,2.536,2.68794
0.83353,-0.33557,2.536,2.69048
0.841761,-0.33557,2.536,2.69304
0.843624,-0.333056,2.517,2.67543
0.851794,-0.333056,2.517,2.67802
0.859963,-0.333056,2.517,2.68063
0.868133,-0.333056,2.517,2.68326
0.870036,-0.330674,2.499,2.6667
0.878147,-0.330674,2.499,2.66936
0.886258,-0.330674,2.499,2.67204
0.887927,-0.328292,2.481,2.65548
0.89598,-0.328292,2.481,2.65818
0.904033,-0.328292,2.481,2.6609
0.905468,-0.32591,2.463,2.64433
0.913462,-0.32591,2.463,2.64707
0.921457,-0.32591,2.463,2.64984
0.922658,-0.323528,2.445,2.63325
0.930594,-0.323528,2.445,2.63604
0.93853,-0.323528,2.445,2.63885
0.946466,-0.323528,2.445,2.64168
0.947766,-0.321279,2.428,2.62615
0.955646,-0.321279,2.428,2.629
0.963527,-0.321279,2.428,2.63188
0.971408,-0.321279,2.428,2.63477
nan,nan,nan,NaN
nan,nan,nan,NaN
0.988083,-0.319029,2.411,2.62507
0.995908,-0.319029,2.411,2.62803
1.00373,-0.319029,2.411,2.631
1.01156,-0.319029,2.411,2.634
nan,nan,nan,NaN
nan,nan,nan,NaN
nan,nan,nan,NaN
nan,nan,nan,NaN
1.11344,-0.338084,2.555,2.8075
1.12173,-0.338084,2.555,2.8108
1.13003,-0.338084,2.555,2.81412
1.19178,-0.353963,2.675,2.94979
1.20046,-0.353963,2.675,2.95331
1.20915,-0.353963,2.675,2.95685
1.23695,-0.35952,2.717,3.00689
1.26594,-0.365342,2.761,3.05928
1.28506,-0.368253,2.783,3.08741
1.2941,-0.368253,2.783,3.09118
1.3139,-0.371297,2.806,3.12055
1.33385,-0.37434,2.829,3.15001
1.34303,-0.37434,2.829,3.1539
1.36369,-0.377516,2.853,3.18461
1.37295,-0.377516,2.853,3.18859
1.37058,-0.37434,2.829,3.16573
1.36854,-0.371297,2.806,3.14395
1.37765,-0.371297,2.806,3.14792
1.39813,-0.37434,2.829,3.17776
1.40731,-0.37434,2.829,3.18181
1.42851,-0.377516,2.853,3.21291
1.44986,-0.380692,2.877,3.2441
1.4592,-0.380692,2.877,3.24828
1.46854,-0.380692,2.877,3.25249
1.55647,-0.400937,3.03,3.42991
1.56631,-0.400937,3.03,3.43438
1.60423,-0.408082,3.084,3.50016
1.70636,-0.431371,3.26,3.70477
1.78488,-0.448441,3.389,3.85645
1.79588,-0.448441,3.389,3.86156
1.82501,-0.45294,3.423,3.90548
1.87367,-0.462202,3.493,3.99065
1.88501,-0.462202,3.493,3.99599
1.93598,-0.471862,3.566,4.08497
1.98906,-0.481918,3.642,4.17765
2.00088,-0.481918,3.642,4.18329
1.9917,-0.47689,3.604,4.14525
2.0034,-0.47689,3.604,4.15088
2.0151,-0.47689,3.604,4.15654
2.02679,-0.47689,3.604,4.16223
2.03849,-0.47689,3.604,4.16794
2.05019,-0.47689,3.604,4.17367
2.04015,-0.471862,3.566,4.13536
2.05172,-0.471862,3.566,4.14108
2.06329,-0.471862,3.566,4.14683
2.05334,-0.466966,3.529,4.10951
2.06479,-0.466966,3.529,4.11525
2.05507,-0.462202,3.493,4.07897
2.06641,-0.462202,3.493,4.08469
2.05692,-0.457571,3.458,4.04945
2.04722,-0.45294,3.423,4.01412
2.05833,-0.45294,3.423,4.0198
2.04888,-0.448441,3.389,3.98552
2.02037,-0.43984,3.324,3.91463
2.03116,-0.43984,3.324,3.92021
2.02229,-0.435606,3.292,3.88802
2.01322,-0.431371,3.26,3.85574
2.0238,-0.431371,3.26,3.86127
1.97821,-0.419462,3.17,3.76008
1.95212,-0.411787,3.112,3.69661
1.96222,-0.411787,3.112,3.70195
1.93746,-0.40451,3.057,3.64179
1.89642,-0.393924,2.977,3.55164
1.90609,-0.393924,2.977,3.55681
1.89902,-0.390484,2.951,3.53089
1.87626,-0.383867,2.901,3.47613
1.88567,-0.383867,2.901,3.48122
1.87941,-0.380692,2.877,3.45749
1.85724,-0.37434,2.829,3.40481
1.83607,-0.368253,2.783,3.35438
1.84511,-0.368253,2.783,3.35933
1.82482,-0.362431,2.739,3.31111
1.81899,-0.35952,2.717,3.28938
1.8278,-0.35952,2.717,3.29427
1.80823,-0.353963,2.675,3.24817
1.80265,-0.351184,2.654,3.22748
-2.26157,-0.420793,3.26,3.98991
-2.25099,-0.420793,3.26,3.98392
-2.24041,-0.420793,3.26,3.97795
-2.22983,-0.420793,3.26,3.972
-2.21924,-0.420793,3.26,3.96607
-2.23034,-0.424924,3.292,3.99903
-2.21966,-0.424924,3.292,3.99308
-2.1875,-0.420793,3.26,3.9484
-2.17692,-0.420793,3.26,3.94254
-2.1464,-0.416921,3.23,3.90048
-2.13592,-0.416921,3.23,3.89472
-2.12544,-0.416921,3.23,3.88898
-2.11495,-0.416921,3.23,3.88326
-2.10447,-0.416921,3.23,3.87756
-2.09398,-0.416921,3.23,3.87188
-2.0835,-0.416921,3.23,3.86623
-2.07302,-0.416921,3.23,3.86059
-2.06253,-0.416921,3.23,3.85497
-2.05205,-0.416921,3.23,3.84937
-2.04156,-0.416921,3.23,3.84379
-2.03108,-0.416921,3.23,3.83823
-2.0206,-0.416921,3.23,3.83269
-2.01011,-0.416921,3.23,3.82718
-1.99963,-0.416921,3.23,3.82168
-1.98915,-0.416921,3.23,3.81621
-1.97866,-0.416921,3.23,3.81075
-1.96818,-0.416921,3.23,3.80532
-1.95769,-0.416921,3.23,3.79991
-1.94721,-0.416921,3.23,3.79452
-1.93673,-0.416921,3.23,3.78915
-1.92624,-0.416921,3.23,3.7838
nan,nan,nan,NaN
nan,nan,nan,NaN
nan,nan,nan,NaN
nan,nan,nan,NaN
nan,nan,nan,NaN
nan,nan,nan,NaN
nan,nan,nan,NaN
nan,nan,nan,NaN
nan,nan,nan,NaN
nan,nan,nan,NaN
nan,nan,nan,NaN
nan,nan,nan,NaN
nan,nan,nan,NaN
nan,nan,nan,NaN
nan,nan,nan,NaN
nan,nan,nan,NaN
nan,nan,nan,NaN
nan,nan,nan,NaN
nan,nan,nan,NaN
nan,nan,nan,NaN
nan,nan,nan,NaN
nan,nan,nan,NaN
nan,nan,nan,NaN
nan,nan,nan,NaN
nan,nan,nan,NaN
nan,nan,nan,NaN
nan,nan,nan,NaN
nan,nan,nan,NaN
nan,nan,nan,NaN
nan,nan,nan,NaN
nan,nan,nan,NaN
-1.18741,-0.311206,2.411,2.7055
-1.17958,-0.311206,2.411,2.70207
-1.1635,-0.309012,2.394,2.67964
-1.15572,-0.309012,2.394,2.67627
-1.15611,-0.311206,2.411,2.6919
-1.14828,-0.311206,2.411,2.68855
-1.14046,-0.311206,2.411,2.68522
-1.13263,-0.311206,2.411,2.68191
-1.1248,-0.311206,2.411,2.67861
-1.1091,-0.309012,2.394,2.65647
-1.10133,-0.309012,2.394,2.65324
-1.09356,-0.309012,2.394,2.65002
-1.08579,-0.309012,2.394,2.64682
-1.07037,-0.306818,2.377,2.62487
-1.06265,-0.306818,2.377,2.62173
-1.05494,-0.306818,2.377,2.61862
-1.04722,-0.306818,2.377,2.61552
-1.03951,-0.306818,2.377,2.61244
-1.03179,-0.306818,2.377,2.60938
-1.01718,-0.304752,2.361,2.58879
-1.00952,-0.304752,2.361,2.58579
-1.00865,-0.306818,2.377,2.60031
-0.994193,-0.304752,2.361,2.57985
-0.986529,-0.304752,2.361,2.5769
-0.978866,-0.304752,2.361,2.57398
-0.971203,-0.304752,2.361,2.57108
-0.95701,-0.302687,2.345,2.55079
-0.949399,-0.302687,2.345,2.54794
-0.941787,-0.302687,2.345,2.54511
-0.934176,-0.302687,2.345,2.54231
-0.926565,-0.302687,2.345,2.53952
-0.918953,-0.302687,2.345,2.53675
-0.911342,-0.302687,2.345,2.53401
-0.903731,-0.302687,2.345,2.53128
-0.89612,-0.302687,2.345,2.52857
-0.882446,-0.300622,2.329,2.50865
-0.874887,-0.300622,2.329,2.506
-0.873286,-0.302687,2.345,2.52057
-0.865674,-0.302687,2.345,2.51794
-0.858063,-0.302687,2.345,2.51534
-0.850452,-0.302687,2.345,2.51275
-0.842841,-0.302687,2.345,2.51018
-0.835229,-0.302687,2.345,2.50764
-0.827618,-0.302687,2.345,2.50511
-0.820007,-0.302687,2.345,2.50261
-0.812395,-0.302687,2.345,2.50013
-0.810275,-0.304752,2.361,2.5147
-0.802612,-0.304752,2.361,2.51225
-0.794949,-0.304752,2.361,2.50981
-0.787286,-0.304752,2.361,2.50739
-0.784906,-0.306818,2.377,2.52197
-0.782749,-0.309012,2.394,2.5376
-0.774979,-0.309012,2.394,2.53522
-0.767208,-0.309012,2.394,2.53285
-0.764831,-0.311206,2.411,2.54848
-0.757005,-0.311206,2.411,2.54614
-0.754462,-0.3134,2.428,2.56176
-0.751809,-0.315595,2.445,2.57737
-0.743873,-0.315595,2.445,2.57507
-0.735937,-0.315595,2.445,2.57279
-0.733361,-0.317918,2.463,2.58945
-0.725366,-0.317918,2.463,2.5872
-0.717372,-0.317918,2.463,2.58497
-0.714562,-0.320242,2.481,2.60164
-0.706509,-0.320242,2.481,2.59944
-0.698457,-0.320242,2.481,2.59726
-0.690404,-0.320242,2.481,2.59511
-0.687302,-0.322565,2.499,2.61179
-0.679191,-0.322565,2.499,2.60966
-0.67108,-0.322565,2.499,2.60757
-0.662968,-0.322565,2.499,2.60549
-0.654857,-0.322565,2.499,2.60344
-0.646746,-0.322565,2.499,2.60141
-0.643235,-0.324888,2.517,2.61813
-0.635065,-0.324888,2.517,2.61613
-0.626896,-0.324888,2.517,2.61416
-0.618726,-0.324888,2.517,2.61221
-0.610557,-0.324888,2.517,2.61029
-0.602387,-0.324888,2.517,2.60839
-0.594218,-0.324888,2.517,2.60652
-0.586048,-0.324888,2.517,2.60467
-0.577879,-0.324888,2.517,2.60284
-0.569709,-0.324888,2.517,2.60104
-0.561539,-0.324888,2.517,2.59926
-0.55337,-0.324888,2.517,2.59751
-0.5452,-0.324888,2.517,2.59578
-0.537031,-0.324888,2.517,2.59408
-0.532853,-0.327341,2.536,2.61197
-0.524622,-0.327341,2.536,2.6103
-0.516391,-0.327341,2.536,2.60866
-0.50816,-0.327341,2.536,2.60704
-0.499929,-0.327341,2.536,2.60545
-0.491697,-0.327341,2.536,2.60388
-0.487088,-0.329793,2.555,2.62184
-0.478795,-0.329793,2.555,2.62031
-0.470502,-0.329793,2.555,2.61881
-0.46221,-0.329793,2.555,2.61733
-0.453917,-0.329793,2.555,2.61588
-0.445624,-0.329793,2.555,2.61445
-0.437331,-0.329793,2.555,2.61305
-0.429038,-0.329793,2.555,2.61168
-0.420745,-0.329793,2.555,2.61033
-0.415519,-0.332246,2.574,2.62841
-0.407165,-0.332246,2.574,2.6271
-0.39881,-0.332246,2.574,2.62582
-0.390456,-0.332246,2.574,2.62456
-0.382101,-0.332246,2.574,2.62333
-0.373747,-0.332246,2.574,2.62213
-0.365392,-0.332246,2.574,2.62095
-0.357037,-0.332246,2.574,2.6198
-0.348683,-0.332246,2.574,2.61867
-0.340328,-0.332246,2.574,2.61757
-0.334424,-0.334698,2.593,2.63581
-0.326008,-0.334698,2.593,2.63476
-0.317592,-0.334698,2.593,2.63373
-0.309175,-0.334698,2.593,2.63273
-0.300759,-0.334698,2.593,2.63175
-0.292343,-0.334698,2.593,2.63081
-0.283927,-0.334698,2.593,2.62988
-0.275511,-0.334698,2.593,2.62899
-0.267094,-0.334698,2.593,2.62812
-0.258678,-0.334698,2.593,2.62728
-0.250262,-0.334698,2.593,2.62646
-0.241846,-0.334698,2.593,2.62567
-0.233429,-0.334698,2.593,2.62491
-0.225013,-0.334698,2.593,2.62418
-0.21501,-0.332246,2.574,2.60425
-0.206655,-0.332246,2.574,2.60357
-0.198301,-0.332246,2.574,2.60292
-0.188544,-0.329793,2.555,2.58309
-0.180251,-0.329793,2.555,2.58249
-0.171958,-0.329793,2.555,2.58193
-0.162448,-0.327341,2.536,2.56219
-0.154217,-0.327341,2.536,2.56169
-0.145986,-0.327341,2.536,2.5612
-0.137755,-0.327341,2.536,2.56075
-0.129523,-0.327341,2.536,2.56032
-0.121292,-0.327341,2.536,2.55991
-0.113061,-0.327341,2.536,2.55954
-0.10483,-0.327341,2.536,2.55919
-0.0965985,-0.327341,2.536,2.55886
-0.0883672,-0.327341,2.536,2.55857
-0.080136,-0.327341,2.536,2.55829
-0.0719048,-0.327341,2.536,2.55805
-0.0636736,-0.327341,2.536,2.55783
-0.0554423,-0.327341,2.536,2.55764
-0.0472111,-0.327341,2.536,2.55747
-0.0389799,-0.327341,2.536,2.55734
-0.0307487,-0.327341,2.536,2.55722
-0.0225174,-0.327341,2.536,2.55714
-0.0142862,-0.327341,2.536,2.55708
-0.00605498,-0.327341,2.536,2.55705
0.00219255,-0.329793,2.555,2.5762
0.0104854,-0.329793,2.555,2.57622
0.0187783,-0.329793,2.555,2.57626
0.0270712,-0.329793,2.555,2.57634
0.0356271,-0.332246,2.574,2.5956
0.0439817,-0.332246,2.574,2.59573
0.0523362,-0.332246,2.574,2.59588
0.0606908,-0.332246,2.574,2.59606
0.069555,-0.334698,2.593,2.61544
0.0779713,-0.334698,2.593,2.61567
0.0863875,-0.334698,2.593,2.61594
0.0948037,-0.334698,2.593,2.61623
0.10322,-0.334698,2.593,2.61655
0.111636,-0.334698,2.593,2.61689
0.120052,-0.334698,2.593,2.61727
0.128469,-0.334698,2.593,2.61767
0.136885,-0.334698,2.593,2.61809
0.145301,-0.334698,2.593,2.61855
0.153717,-0.334698,2.593,2.61903
0.160946,-0.332246,2.574,2.60034
0.1693,-0.332246,2.574,2.60087
0.177655,-0.332246,2.574,2.60143
0.184636,-0.329793,2.555,2.5828
0.192929,-0.329793,2.555,2.58341
0.201222,-0.329793,2.555,2.58404
0.209515,-0.329793,2.555,2.5847
0.217808,-0.329793,2.555,2.58539
0.226101,-0.329793,2.555,2.5861
0.234394,-0.329793,2.555,2.58684
0.242687,-0.329793,2.555,2.5876
0.250979,-0.329793,2.555,2.58839
0.259272,-0.329793,2.555,2.58921
0.267565,-0.329793,2.555,2.59005
0.27791,-0.332246,2.574,2.61019
0.286264,-0.332246,2.574,2.61109
0.294619,-0.332246,2.574,2.61202
0.302973,-0.332246,2.574,2.61298
0.311328,-0.332246,2.574,2.61396
0.319682,-0.332246,2.574,2.61497
0.328037,-0.332246,2.574,2.616
0.336391,-0.332246,2.574,2.61706
0.342201,-0.329793,2.555,2.59882
0.350494,-0.329793,2.555,2.59993
0.358787,-0.329793,2.555,2.60106
0.36708,-0.329793,2.555,2.60222
0.375373,-0.329793,2.555,2.6034
0.383666,-0.329793,2.555,2.60461
0.391959,-0.329793,2.555,2.60584
0.400252,-0.329793,2.555,2.6071
0.408544,-0.329793,2.555,2.60839
0.416837,-0.329793,2.555,2.6097
0.42513,-0.329793,2.555,2.61104
0.433423,-0.329793,2.555,2.6124
0.441716,-0.329793,2.555,2.61379
0.450009,-0.329793,2.555,2.6152
0.458302,-0.329793,2.555,2.61664
0.470064,-0.332246,2.574,2.63758
0.478419,-0.332246,2.574,2.63908
0.486774,-0.332246,2.574,2.64061
0.495128,-0.332246,2.574,2.64216
0.503483,-0.332246,2.574,2.64374
0.511837,-0.332246,2.574,2.64534
0.520192,-0.332246,2.574,2.64697
0.528546,-0.332246,2.574,2.64863
0.536901,-0.332246,2.574,2.65031
0.545256,-0.332246,2.574,2.65201
0.557697,-0.334698,2.593,2.67333
0.566113,-0.334698,2.593,2.6751
0.570319,-0.332246,2.574,2.65728
0.578674,-0.332246,2.574,2.65908
0.587028,-0.332246,2.574,2.66091
0.595383,-0.332246,2.574,2.66277
0.603738,-0.332246,2.574,2.66465
0.612092,-0.332246,2.574,2.66656
0.620447,-0.332246,2.574,2.66849
0.628801,-0.332246,2.574,2.67044
0.637156,-0.332246,2.574,2.67242
0.64551,-0.332246,2.574,2.67442
0.653865,-0.332246,2.574,2.67645
0.662219,-0.332246,2.574,2.67851
0.670574,-0.332246,2.574,2.68058
0.678929,-0.332246,2.574,2.68269
0.68221,-0.329793,2.555,2.665
0.690503,-0.329793,2.555,2.66713
0.698796,-0.329793,2.555,2.66929
0.707089,-0.329793,2.555,2.67147
0.715382,-0.329793,2.555,2.67368
0.723674,-0.329793,2.555,2.67591
0.731967,-0.329793,2.555,2.67816
0.74026,-0.329793,2.555,2.68044
0.748553,-0.329793,2.555,2.68274
0.751218,-0.327341,2.536,2.6651
0.759449,-0.327341,2.536,2.66744
0.76768,-0.327341,2.536,2.66979
0.775912,-0.327341,2.536,2.67217
0.784143,-0.327341,2.536,2.67457
0.792374,-0.327341,2.536,2.677
0.800605,-0.327341,2.536,2.67944
0.808836,-0.327341,2.536,2.68191
0.817068,-0.327341,2.536,2.68441
0.825299,-0.327341,2.536,2.68693
0.827285,-0.324888,2.517,2.66932
0.835455,-0.324888,2.517,2.67186
0.843624,-0.324888,2.517,2.67442
0.851794,-0.324888,2.517,2.67701
0.853814,-0.322565,2.499,2.66046
0.861925,-0.322565,2.499,2.66307
0.870036,-0.322565,2.499,2.66571
0.871822,-0.320242,2.481,2.64915
0.879874,-0.320242,2.481,2.65181
0.887927,-0.320242,2.481,2.65449
0.889479,-0.317918,2.463,2.63792
0.897474,-0.317918,2.463,2.64062
0.905468,-0.317918,2.463,2.64335
0.913462,-0.317918,2.463,2.6461
0.921457,-0.317918,2.463,2.64887
0.922658,-0.315595,2.445,2.63228
0.930594,-0.315595,2.445,2.63508
0.932004,-0.3134,2.428,2.61955
0.939885,-0.3134,2.428,2.62236
0.947766,-0.3134,2.428,2.6252
0.948955,-0.311206,2.411,2.60965
0.956781,-0.311206,2.411,2.61251
0.964606,-0.311206,2.411,2.61538
nan,nan,nan,NaN
nan,nan,nan,NaN
0.988083,-0.311206,2.411,2.62413
0.995908,-0.311206,2.411,2.62709
1.00373,-0.311206,2.411,2.63007
1.01156,-0.311206,2.411,2.63306
nan,nan,nan,NaN
nan,nan,nan,NaN
nan,nan,nan,NaN
nan,nan,nan,NaN
1.11344,-0.329793,2.555,2.80652
1.12173,-0.329793,2.555,2.80982
1.13003,-0.329793,2.555,2.81314
1.19178,-0.345283,2.675,2.94876
1.20046,-0.345283,2.675,2.95228
1.20915,-0.345283,2.675,2.95582
1.23695,-0.350704,2.717,3.00585
1.26594,-0.356383,2.761,3.05823
1.28506,-0.359223,2.783,3.08634
1.2941,-0.359223,2.783,3.09012
1.3139,-0.362192,2.806,3.11948
1.33385,-0.365161,2.829,3.14893
1.34303,-0.365161,2.829,3.15283
1.36369,-0.368258,2.853,3.18353
1.37295,-0.368258,2.853,3.18751
1.37058,-0.365161,2.829,3.16466
1.36854,-0.362192,2.806,3.14289
1.37765,-0.362192,2.806,3.14686
1.39813,-0.365161,2.829,3.17669
1.40731,-0.365161,2.829,3.18074
1.42851,-0.368258,2.853,3.21183
1.44986,-0.371356,2.877,3.24301
1.4592,-0.371356,2.877,3.2472
1.50631,-0.380908,2.951,3.33504
1.55647,-0.391105,3.03,3.42877
1.56631,-0.391105,3.03,3.43325
1.63388,-0.405433,3.141,3.56368
1.70636,-0.420793,3.26,3.70356
1.78488,-0.437444,3.389,3.85519
1.79588,-0.437444,3.389,3.8603
1.84367,-0.44635,3.458,3.94412
1.87367,-0.450868,3.493,3.98936
1.88501,-0.450868,3.493,3.99469
1.93598,-0.460291,3.566,4.08365
1.98906,-0.470101,3.642,4.1763
2.00088,-0.470101,3.642,4.18195
1.9917,-0.465196,3.604,4.14392
2.0034,-0.465196,3.604,4.14956
2.0151,-0.465196,3.604,4.15522
2.02679,-0.465196,3.604,4.1609
2.03849,-0.465196,3.604,4.16661
2.05019,-0.465196,3.604,4.17235
2.06189,-0.465196,3.604,4.17811
2.05172,-0.460291,3.566,4.13978
2.06329,-0.460291,3.566,4.14553
2.05334,-0.455515,3.529,4.10823
2.06479,-0.455515,3.529,4.11397
2.05507,-0.450868,3.493,4.0777
2.06641,-0.450868,3.493,4.08343
2.05692,-0.44635,3.458,4.0482
2.04722,-0.441833,3.423,4.01288
2.05833,-0.441833,3.423,4.01856
2.04888,-0.437444,3.389,3.98429
2.03982,-0.433184,3.356,3.95111
2.05072,-0.433184,3.356,3.95674
2.02229,-0.424924,3.292,3.88684
2.01322,-0.420793,3.26,3.85457
2.0238,-0.420793,3.26,3.86011
1.99631,-0.412919,3.199,3.79333
1.97031,-0.405433,3.141,3.72993
1.98051,-0.405433,3.141,3.73533
1.95458,-0.398075,3.084,3.67286
1.91299,-0.38762,3.003,3.58159
1.92273,-0.38762,3.003,3.5868
1.89902,-0.380908,2.951,3.52984
1.89243,-0.377681,2.926,3.50505
1.88567,-0.374454,2.901,3.4802
1.87941,-0.371356,2.877,3.45648
1.87299,-0.368258,2.853,3.43269
1.83607,-0.359223,2.783,3.3534
1.84511,-0.359223,2.783,3.35835
1.83948,-0.356383,2.761,3.33674
1.81899,-0.350704,2.717,3.28843
1.8278,-0.350704,2.717,3.29332
1.82243,-0.347993,2.696,3.27273
1.80265,-0.342572,2.654,3.22655
-2.26157,-0.410215,3.26,3.98881
-2.25099,-0.410215,3.26,3.98282
-2.24041,-0.410215,3.26,3.97685
-2.22983,-0.410215,3.26,3.97089
-2.21924,-0.410215,3.26,3.96496
-2.23034,-0.414242,3.292,3.99791
-2.21966,-0.414242,3.292,3.99196
-2.1875,-0.410215,3.26,3.94728
-2.17692,-0.410215,3.26,3.94143
-2.1464,-0.40644,3.23,3.89938
-2.13592,-0.40644,3.23,3.89362
-2.12544,-0.40644,3.23,3.88787
-2.11495,-0.40644,3.23,3.88215
-2.10447,-0.40644,3.23,3.87645
-2.09398,-0.40644,3.23,3.87077
-2.0835,-0.40644,3.23,3.86511
-2.07302,-0.40644,3.23,3.85947
-2.06253,-0.40644,3.23,3.85385
-2.05205,-0.40644,3.23,3.84825
-2.04156,-0.40644,3.23,3.84267
-2.03108,-0.40644,3.23,3.83711
-2.0206,-0.40644,3.23,3.83157
-2.01011,-0.40644,3.23,3.82605
-1.99963,-0.40644,3.23,3.82055
-1.98915,-0.40644,3.23,3.81507
-1.97866,-0.40644,3.23,3.80962
-1.96818,-0.40644,3.23,3.80418
-1.95769,-0.40644,3.23,3.79877
-1.94721,-0.40644,3.23,3.79338
-1.93673,-0.40644,3.23,3.78801
nan,nan,nan,NaN
nan,nan,nan,NaN
nan,nan,nan,NaN
nan,nan,nan,NaN
nan,nan,nan,NaN
nan,nan,nan,NaN
nan,nan,nan,NaN
nan,nan,nan,NaN
nan,nan,nan,NaN
nan,nan,nan,NaN
nan,nan,nan,NaN
nan,nan,nan,NaN
nan,nan,nan,NaN
nan,nan,nan,NaN
nan,nan,nan,NaN
nan,nan,nan,NaN
nan,nan,nan,NaN
nan,nan,nan,NaN
nan,nan,nan,NaN
nan,nan,nan,NaN
nan,nan,nan,NaN
nan,nan,nan,NaN
nan,nan,nan,NaN
nan,nan,nan,NaN
nan,nan,nan,NaN
nan,nan,nan,NaN
nan,nan,nan,NaN
nan,nan,nan,NaN
nan,nan,nan,NaN
nan,nan,nan,NaN
nan,nan,nan,NaN
nan,nan,nan,NaN
-1.18741,-0.303383,2.411,2.70461
-1.17958,-0.303383,2.411,2.70118
-1.1635,-0.301244,2.394,2.67875
-1.15572,-0.301244,2.394,2.67538
-1.15611,-0.303383,2.411,2.69101
-1.14828,-0.303383,2.411,2.68766
-1.14046,-0.303383,2.411,2.68432
-1.13263,-0.303383,2.411,2.68101
-1.1248,-0.303383,2.411,2.67771
-1.1091,-0.301244,2.394,2.65558
-1.10133,-0.301244,2.394,2.65234
-1.09356,-0.301244,2.394,2.64912
-1.08579,-0.301244,2.394,2.64593
-1.07037,-0.299105,2.377,2.62398
-1.06265,-0.299105,2.377,2.62084
-1.05494,-0.299105,2.377,2.61772
-1.04722,-0.299105,2.377,2.61463
-1.03251,-0.297091,2.361,2.59397
-1.02485,-0.297091,2.361,2.59092
-1.01718,-0.297091,2.361,2.5879
-1.00952,-0.297091,2.361,2.5849
-1.00186,-0.297091,2.361,2.58192
-0.994193,-0.297091,2.361,2.57895
-0.986529,-0.297091,2.361,2.57601
-0.978866,-0.297091,2.361,2.57308
-0.964621,-0.295078,2.345,2.55276
-0.95701,-0.295078,2.345,2.5499
-0.949399,-0.295078,2.345,2.54705
-0.941787,-0.295078,2.345,2.54422
-0.934176,-0.295078,2.345,2.54141
-0.926565,-0.295078,2.345,2.53863
-0.918953,-0.295078,2.345,2.53586
-0.911342,-0.295078,2.345,2.53311
-0.897565,-0.293065,2.329,2.51312
-0.890005,-0.293065,2.329,2.51043
-0.882446,-0.293065,2.329,2.50776
-0.874887,-0.293065,2.329,2.50511
-0.867327,-0.293065,2.329,2.50248
-0.859768,-0.293065,2.329,2.49987
-0.852209,-0.293065,2.329,2.49728
-0.844649,-0.293065,2.329,2.49471
-0.83709,-0.293065,2.329,2.49216
-0.829531,-0.293065,2.329,2.48963
-0.821971,-0.293065,2.329,2.48712
-0.820007,-0.295078,2.345,2.5017
-0.812395,-0.295078,2.345,2.49922
-0.804784,-0.295078,2.345,2.49675
-0.797173,-0.295078,2.345,2.49431
-0.789562,-0.295078,2.345,2.49189
-0.787286,-0.297091,2.361,2.50647
-0.779622,-0.297091,2.361,2.50408
-0.777191,-0.299105,2.377,2.51865
-0.769475,-0.299105,2.377,2.51628
-0.767208,-0.301244,2.394,2.53191
-0.764831,-0.303383,2.411,2.54753
-0.757005,-0.303383,2.411,2.5452
-0.754462,-0.305522,2.428,2.56081
-0.746581,-0.305522,2.428,2.5585
-0.738701,-0.305522,2.428,2.55621
-0.73082,-0.305522,2.428,2.55394
-0.728001,-0.307661,2.445,2.56957
-0.725366,-0.309926,2.463,2.58623
-0.717372,-0.309926,2.463,2.584
-0.709378,-0.309926,2.463,2.58179
-0.706509,-0.312191,2.481,2.59846
-0.698457,-0.312191,2.481,2.59628
-0.690404,-0.312191,2.481,2.59412
-0.682351,-0.312191,2.481,2.59199
-0.674299,-0.312191,2.481,2.58988
-0.666246,-0.312191,2.481,2.5878
-0.662968,-0.314456,2.499,2.6045
-0.654857,-0.314456,2.499,2.60245
-0.646746,-0.314456,2.499,2.60042
-0.638635,-0.314456,2.499,2.59841
-0.630524,-0.314456,2.499,2.59643
-0.622413,-0.314456,2.499,2.59447
-0.614302,-0.314456,2.499,2.59254
-0.610557,-0.316721,2.517,2.60929
-0.602387,-0.316721,2.517,2.60739
-0.594218,-0.316721,2.517,2.60551
-0.581857,-0.314456,2.499,2.58504
-0.573746,-0.314456,2.499,2.58323
-0.565635,-0.314456,2.499,2.58144
-0.561539,-0.316721,2.517,2.59825
-0.55337,-0.316721,2.517,2.5965
-0.5452,-0.316721,2.517,2.59477
-0.537031,-0.316721,2.517,2.59307
-0.528861,-0.316721,2.517,2.59139
-0.520692,-0.316721,2.517,2.58973
-0.516391,-0.319112,2.536,2.60764
-0.50816,-0.319112,2.536,2.60602
-0.499929,-0.319112,2.536,2.60443
-0.491697,-0.319112,2.536,2.60286
-0.483466,-0.319112,2.536,2.60132
-0.478795,-0.321503,2.555,2.61928
-0.470502,-0.321503,2.555,2.61778
-0.46221,-0.321503,2.555,2.6163
-0.453917,-0.321503,2.555,2.61485
-0.445624,-0.321503,2.555,2.61342
-0.437331,-0.321503,2.555,2.61202
-0.429038,-0.321503,2.555,2.61064
-0.420745,-0.321503,2.555,2.60929
-0.415519,-0.323894,2.574,2.62736
-0.407165,-0.323894,2.574,2.62606
-0.39881,-0.323894,2.574,2.62477
-0.390456,-0.323894,2.574,2.62352
-0.382101,-0.323894,2.574,2.62229
-0.373747,-0.323894,2.574,2.62108
-0.365392,-0.323894,2.574,2.6199
-0.357037,-0.323894,2.574,2.61875
-0.351257,-0.326284,2.593,2.63695
-0.34284,-0.326284,2.593,2.63584
-0.334424,-0.326284,2.593,2.63476
-0.326008,-0.326284,2.593,2.6337
-0.317592,-0.326284,2.593,2.63267
-0.309175,-0.326284,2.593,2.63167
-0.300759,-0.326284,2.593,2.6307
-0.292343,-0.326284,2.593,2.62975
-0.283927,-0.326284,2.593,2.62883
-0.275511,-0.326284,2.593,2.62793
-0.269154,-0.328801,2.613,2.64732
-0.260673,-0.328801,2.613,2.64648
-0.250262,-0.326284,2.593,2.6254
-0.241846,-0.326284,2.593,2.62461
-0.233429,-0.326284,2.593,2.62385
-0.225013,-0.326284,2.593,2.62312
-0.21501,-0.323894,2.574,2.60319
-0.206655,-0.323894,2.574,2.60252
-0.198301,-0.323894,2.574,2.60187
-0.189946,-0.323894,2.574,2.60124
-0.181592,-0.323894,2.574,2.60065
-0.171958,-0.321503,2.555,2.58088
-0.163665,-0.321503,2.555,2.58034
-0.155372,-0.321503,2.555,2.57983
-0.145986,-0.319112,2.536,2.56016
-0.137755,-0.319112,2.536,2.55971
-0.129523,-0.319112,2.536,2.55928
-0.121292,-0.319112,2.536,2.55887
-0.113061,-0.319112,2.536,2.5585
-0.105615,-0.321503,2.555,2.57731
-0.0973222,-0.321503,2.555,2.57699
-0.0883672,-0.319112,2.536,2.55753
-0.080136,-0.319112,2.536,2.55725
-0.0719048,-0.319112,2.536,2.55701
-0.0636736,-0.319112,2.536,2.55679
-0.0554423,-0.319112,2.536,2.5566
-0.0475648,-0.321503,2.555,2.57559
-0.0389799,-0.319112,2.536,2.5563
-0.0307487,-0.319112,2.536,2.55618
-0.0226861,-0.321503,2.555,2.57525
-0.0143932,-0.321503,2.555,2.57519
-0.00610034,-0.321503,2.555,2.57516
0.00219255,-0.321503,2.555,2.57515
0.0104854,-0.321503,2.555,2.57517
0.0187783,-0.321503,2.555,2.57522
0.0272725,-0.323894,2.574,2.59444
0.0356271,-0.323894,2.574,2.59454
0.0439817,-0.323894,2.574,2.59467
0.0523362,-0.323894,2.574,2.59483
0.0606908,-0.323894,2.574,2.59501
0.069555,-0.326284,2.593,2.61437
0.0779713,-0.326284,2.593,2.61461
0.0863875,-0.326284,2.593,2.61488
0.0948037,-0.326284,2.593,2.61517
0.10322,-0.326284,2.593,2.61549
0.111636,-0.326284,2.593,2.61583
0.120052,-0.326284,2.593,2.6162
0.128469,-0.326284,2.593,2.6166
0.136885,-0.326284,2.593,2.61703
0.146422,-0.328801,2.613,2.63767
0.153717,-0.326284,2.593,2.61796
0.160946,-0.323894,2.574,2.59929
0.1693,-0.323894,2.574,2.59982
0.177655,-0.323894,2.574,2.60037
0.186009,-0.323894,2.574,2.60096
0.192929,-0.321503,2.555,2.58237
0.201222,-0.321503,2.555,2.583
0.209515,-0.321503,2.555,2.58366
0.217808,-0.321503,2.555,2.58434
0.226101,-0.321503,2.555,2.58506
0.234394,-0.321503,2.555,2.58579
0.242687,-0.321503,2.555,2.58656
0.250979,-0.321503,2.555,2.58735
0.259272,-0.321503,2.555,2.58817
0.267565,-0.321503,2.555,2.58901
0.27791,-0.323894,2.574,2.60914
0.286264,-0.323894,2.574,2.61004
0.294619,-0.323894,2.574,2.61097
0.302973,-0.323894,2.574,2.61193
0.311328,-0.323894,2.574,2.61291
0.319682,-0.323894,2.574,2.61392
0.325615,-0.321503,2.555,2.59565
0.333908,-0.321503,2.555,2.59671
0.342201,-0.321503,2.555,2.59779
0.350494,-0.321503,2.555,2.59889
0.358787,-0.321503,2.555,2.60002
0.36708,-0.321503,2.555,2.60118
0.375373,-0.321503,2.555,2.60236
0.383666,-0.321503,2.555,2.60357
0.391959,-0.321503,2.555,2.60481
0.400252,-0.321503,2.555,2.60607
0.408544,-0.321503,2.555,2.60735
0.416837,-0.321503,2.555,2.60867
0.42513,-0.321503,2.555,2.61
0.433423,-0.321503,2.555,2.61137
0.441716,-0.321503,2.555,2.61276
0.450009,-0.321503,2.555,2.61417
0.458302,-0.321503,2.555,2.61561
0.470064,-0.323894,2.574,2.63654
0.478419,-0.323894,2.574,2.63804
0.486774,-0.323894,2.574,2.63957
0.495128,-0.323894,2.574,2.64112
0.503483,-0.323894,2.574,2.6427
0.511837,-0.323894,2.574,2.64431
0.520192,-0.323894,2.574,2.64594
0.528546,-0.323894,2.574,2.64759
0.536901,-0.323894,2.574,2.64927
0.545256,-0.323894,2.574,2.65098
0.557697,-0.326284,2.593,2.67229
0.566113,-0.326284,2.593,2.67406
0.570319,-0.323894,2.574,2.65625
0.578674,-0.323894,2.574,2.65805
0.587028,-0.323894,2.574,2.65988
0.595383,-0.323894,2.574,2.66174
0.603738,-0.323894,2.574,2.66362
0.612092,-0.323894,2.574,2.66553
0.620447,-0.323894,2.574,2.66746
0.628801,-0.323894,2.574,2.66941
0.637156,-0.323894,2.574,2.6714
0.64551,-0.323894,2.574,2.6734
0.649038,-0.321503,2.555,2.65568
0.657331,-0.321503,2.555,2.65772
0.670574,-0.323894,2.574,2.67956
0.678929,-0.323894,2.574,2.68167
0.68221,-0.321503,2.555,2.66398
0.690503,-0.321503,2.555,2.66612
0.698796,-0.321503,2.555,2.66828
0.707089,-0.321503,2.555,2.67046
0.715382,-0.321503,2.555,2.67267
0.723674,-0.321503,2.555,2.6749
0.731967,-0.321503,2.555,2.67716
0.74026,-0.321503,2.555,2.67944
0.748553,-0.321503,2.555,2.68174
0.751218,-0.319112,2.536,2.66411
0.759449,-0.319112,2.536,2.66644
0.76768,-0.319112,2.536,2.66879
0.775912,-0.319112,2.536,2.67117
0.784143,-0.319112,2.536,2.67358
0.792374,-0.319112,2.536,2.676
0.794607,-0.316721,2.517,2.65838
0.802777,-0.316721,2.517,2.66084
0.817068,-0.319112,2.536,2.68342
0.825299,-0.319112,2.536,2.68593
0.827285,-0.316721,2.517,2.66833
0.835455,-0.316721,2.517,2.67088
0.843624,-0.316721,2.517,2.67344
0.851794,-0.316721,2.517,2.67603
0.853814,-0.314456,2.499,2.65949
0.861925,-0.314456,2.499,2.6621
0.870036,-0.314456,2.499,2.66474
0.871822,-0.312191,2.481,2.64819
0.879874,-0.312191,2.481,2.65085
0.887927,-0.312191,2.481,2.65353
0.889479,-0.309926,2.463,2.63697
0.897474,-0.309926,2.463,2.63967
0.905468,-0.309926,2.463,2.6424
0.906787,-0.307661,2.445,2.62582
0.914722,-0.307661,2.445,2.62857
0.922658,-0.307661,2.445,2.63135
0.930594,-0.307661,2.445,2.63414
0.932004,-0.305522,2.428,2.61862
0.939885,-0.305522,2.428,2.62143
0.947766,-0.305522,2.428,2.62427
0.948955,-0.303383,2.411,2.60873
0.956781,-0.303383,2.411,2.61159
0.964606,-0.303383,2.411,2.61446
0.972432,-0.303383,2.411,2.61736
0.980257,-0.303383,2.411,2.62028
0.988083,-0.303383,2.411,2.62322
0.995908,-0.303383,2.411,2.62618
1.00373,-0.303383,2.411,2.62915
1.01156,-0.303383,2.411,2.63215
nan,nan,nan,NaN
nan,nan,nan,NaN
nan,nan,nan,NaN
nan,nan,nan,NaN
nan,nan,nan,NaN
nan,nan,nan,NaN
nan,nan,nan,NaN
nan,nan,nan,NaN
nan,nan,nan,NaN
nan,nan,nan,NaN
1.3321,-0.368187,2.926,3.23597
1.3416,-0.368187,2.926,3.2399
1.36264,-0.371333,2.951,3.27156
1.37222,-0.371333,2.951,3.27556
1.39397,-0.374604,2.977,3.30848
1.41589,-0.377876,3.003,3.34149
1.42564,-0.377876,3.003,3.34563
1.43538,-0.377876,3.003,3.3498
1.44513,-0.377876,3.003,3.35398
1.45488,-0.377876,3.003,3.3582
1.45195,-0.374604,2.977,3.33332
1.46161,-0.374604,2.977,3.33754
1.48412,-0.377876,3.003,3.37097
1.49387,-0.377876,3.003,3.37527
1.50361,-0.377876,3.003,3.37959
1.52697,-0.381273,3.03,3.41437
1.5368,-0.381273,3.03,3.41878
1.56042,-0.384671,3.057,3.45371
1.61349,-0.395241,3.141,3.55323
1.66969,-0.40644,3.23,3.65868
1.68018,-0.40644,3.23,3.66348
1.73986,-0.418268,3.324,3.77506
1.78488,-0.426447,3.389,3.85396
1.79588,-0.426447,3.389,3.85906
1.84367,-0.43513,3.458,3.94287
1.89298,-0.444064,3.529,4.0292
1.90444,-0.444064,3.529,4.03459
1.93598,-0.44872,3.566,4.08237
1.98906,-0.458283,3.642,4.17499
2.00088,-0.458283,3.642,4.18063
1.9917,-0.453501,3.604,4.14263
2.0034,-0.453501,3.604,4.14826
2.0151,-0.453501,3.604,4.15392
2.02679,-0.453501,3.604,4.15961
2.03849,-0.453501,3.604,4.16532
2.05019,-0.453501,3.604,4.17106
2.06189,-0.453501,3.604,4.17682
2.05172,-0.44872,3.566,4.13851
2.06329,-0.44872,3.566,4.14426
2.05334,-0.444064,3.529,4.10698
2.06479,-0.444064,3.529,4.11271
2.05507,-0.439534,3.493,4.07646
2.06641,-0.439534,3.493,4.08219
2.07774,-0.439534,3.493,4.08794
2.04722,-0.430726,3.423,4.01168
2.05833,-0.430726,3.423,4.01736
2.04888,-0.426447,3.389,3.9831
2.03982,-0.422295,3.356,3.94993
2.05072,-0.422295,3.356,3.95557
2.02229,-0.414242,3.292,3.88568
2.01322,-0.410215,3.26,3.85343
2.0238,-0.410215,3.26,3.85897
2.01566,-0.40644,3.23,3.82896
1.97031,-0.395241,3.141,3.72884
1.98051,-0.395241,3.141,3.73423
1.95458,-0.388068,3.084,3.67179
1.93019,-0.381273,3.03,3.61274
1.94002,-0.381273,3.03,3.618
1.91575,-0.374604,2.977,3.55991
1.89243,-0.368187,2.926,3.50404
1.88567,-0.365041,2.901,3.4792
1.89509,-0.365041,2.901,3.48431
1.87299,-0.359001,2.853,3.43171
1.85125,-0.353087,2.806,3.38015
1.86035,-0.353087,2.806,3.38515
1.83948,-0.347424,2.761,3.33579
1.81899,-0.341888,2.717,3.2875
1.8278,-0.341888,2.717,3.29239
1.82243,-0.339245,2.696,3.27181
1.80265,-0.33396,2.654,3.22565
-2.24076,-0.395959,3.23,3.95103
-2.25099,-0.399637,3.26,3.98174
-2.24041,-0.399637,3.26,3.97577
-2.20931,-0.395959,3.23,3.93328
-2.19882,-0.395959,3.23,3.9274
-2.20866,-0.399637,3.26,3.95797
-2.19808,-0.399637,3.26,3.95207
-2.16737,-0.395959,3.23,3.90988
-2.15689,-0.395959,3.23,3.90408
-2.1464,-0.395959,3.23,3.8983
-2.11542,-0.392159,3.199,3.85518
-2.10504,-0.392159,3.199,3.84949
-2.09465,-0.392159,3.199,3.84382
-2.08427,-0.392159,3.199,3.83817
-2.07389,-0.392159,3.199,3.83254
-2.0635,-0.392159,3.199,3.82694
-2.05312,-0.392159,3.199,3.82135
-2.04274,-0.392159,3.199,3.81578
-2.03235,-0.392159,3.199,3.81023
-2.02197,-0.392159,3.199,3.8047
-2.01159,-0.392159,3.199,3.79919
-2.0206,-0.395959,3.23,3.83047
-2.01011,-0.395959,3.23,3.82495
-1.98044,-0.392159,3.199,3.78279
-1.97006,-0.392159,3.199,3.77737
-1.95967,-0.392159,3.199,3.77196
-1.94929,-0.392159,3.199,3.76658
-1.93891,-0.392159,3.199,3.76122
-1.92852,-0.392159,3.199,3.75587
-1.91814,-0.392159,3.199,3.75055
-1.90776,-0.392159,3.199,3.74525
nan,nan,nan,NaN
nan,nan,nan,NaN
nan,nan,nan,NaN
nan,nan,nan,NaN
nan,nan,nan,NaN
nan,nan,nan,NaN
nan,nan,nan,NaN
nan,nan,nan,NaN
nan,nan,nan,NaN
nan,nan,nan,NaN
nan,nan,nan,NaN
nan,nan,nan,NaN
nan,nan,nan,NaN
nan,nan,nan,NaN
nan,nan,nan,NaN
nan,nan,nan,NaN
nan,nan,nan,NaN
nan,nan,nan,NaN
nan,nan,nan,NaN
nan,nan,nan,NaN
nan,nan,nan,NaN
nan,nan,nan,NaN
nan,nan,nan,NaN
nan,nan,nan,NaN
nan,nan,nan,NaN
nan,nan,nan,NaN
nan,nan,nan,NaN
nan,nan,nan,NaN
nan,nan,nan,NaN
nan,nan,nan,NaN
nan,nan,nan,NaN
-1.18741,-0.29556,2.411,2.70374
-1.17958,-0.29556,2.411,2.70031
-1.17176,-0.29556,2.411,2.6969
-1.16393,-0.29556,2.411,2.69351
-1.15611,-0.29556,2.411,2.69014
-1.14828,-0.29556,2.411,2.68679
-1.14046,-0.29556,2.411,2.68345
-1.13263,-0.29556,2.411,2.68014
-1.1248,-0.29556,2.411,2.67684
-1.11698,-0.29556,2.411,2.67356
-1.10133,-0.293476,2.394,2.65147
-1.09356,-0.293476,2.394,2.64825
-1.08579,-0.293476,2.394,2.64505
-1.07037,-0.291392,2.377,2.62311
-1.06265,-0.291392,2.377,2.61997
-1.05494,-0.291392,2.377,2.61685
-1.04017,-0.28943,2.361,2.59616
-1.03251,-0.28943,2.361,2.5931
-1.02485,-0.28943,2.361,2.59006
-1.01718,-0.28943,2.361,2.58704
-1.00952,-0.28943,2.361,2.58403
-1.00186,-0.28943,2.361,2.58105
-0.994193,-0.28943,2.361,2.57808
-0.986529,-0.28943,2.361,2.57514
-0.978866,-0.28943,2.361,2.57221
-0.964621,-0.287469,2.345,2.55189
-0.95701,-0.287469,2.345,2.54903
-0.949399,-0.287469,2.345,2.54618
-0.941787,-0.287469,2.345,2.54335
-0.934176,-0.287469,2.345,2.54054
-0.926565,-0.287469,2.345,2.53775
-0.918953,-0.287469,2.345,2.53498
-0.911342,-0.287469,2.345,2.53223
-0.897565,-0.285507,2.329,2.51225
-0.890005,-0.285507,2.329,2.50955
-0.882446,-0.285507,2.329,2.50688
-0.874887,-0.285507,2.329,2.50423
-0.867327,-0.285507,2.329,2.5016
-0.859768,-0.285507,2.329,2.49899
-0.852209,-0.285507,2.329,2.4964
-0.844649,-0.285507,2.329,2.49383
-0.83709,-0.285507,2.329,2.49128
-0.829531,-0.285507,2.329,2.48875
-0.821971,-0.285507,2.329,2.48624
-0.814412,-0.285507,2.329,2.48375
-0.806852,-0.285507,2.329,2.48128
-0.804784,-0.287469,2.345,2.49586
-0.797173,-0.287469,2.345,2.49342
-0.789562,-0.287469,2.345,2.491
-0.78195,-0.287469,2.345,2.4886
-0.779622,-0.28943,2.361,2.50318
-0.777191,-0.291392,2.377,2.51775
-0.769475,-0.291392,2.377,2.51538
-0.76176,-0.291392,2.377,2.51303
-0.759438,-0.293476,2.394,2.52866
-0.751668,-0.293476,2.394,2.52634
-0.74918,-0.29556,2.411,2.54196
-0.746581,-0.297644,2.428,2.55757
-0.738701,-0.297644,2.428,2.55528
-0.73082,-0.297644,2.428,2.55301
-0.728001,-0.299727,2.445,2.56863
-0.720065,-0.299727,2.445,2.56639
-0.712129,-0.299727,2.445,2.56417
-0.709378,-0.301934,2.463,2.58084
-0.706509,-0.304141,2.481,2.5975
-0.698457,-0.304141,2.481,2.59532
-0.690404,-0.304141,2.481,2.59317
-0.682351,-0.304141,2.481,2.59104
-0.674299,-0.304141,2.481,2.58893
-0.666246,-0.304141,2.481,2.58684
-0.662968,-0.306347,2.499,2.60353
-0.654857,-0.306347,2.499,2.60148
-0.646746,-0.306347,2.499,2.59945
-0.638635,-0.306347,2.499,2.59744
-0.630524,-0.306347,2.499,2.59546
-0.622413,-0.306347,2.499,2.5935
-0.614302,-0.306347,2.499,2.59157
-0.610557,-0.308554,2.517,2.60831
-0.602387,-0.308554,2.517,2.60641
-0.594218,-0.308554,2.517,2.60453
-0.581857,-0.306347,2.499,2.58407
-0.573746,-0.306347,2.499,2.58225
-0.565635,-0.306347,2.499,2.58046
-0.561539,-0.308554,2.517,2.59727
-0.55337,-0.308554,2.517,2.59552
-0.5452,-0.308554,2.517,2.59379
-0.537031,-0.308554,2.517,2.59208
-0.528861,-0.308554,2.517,2.5904
-0.520692,-0.308554,2.517,2.58875
-0.516391,-0.310883,2.536,2.60665
-0.50816,-0.310883,2.536,2.60503
-0.499929,-0.310883,2.536,2.60343
-0.491697,-0.310883,2.536,2.60187
-0.483466,-0.310883,2.536,2.60032
-0.478795,-0.313212,2.555,2.61828
-0.470502,-0.313212,2.555,2.61677
-0.46221,-0.313212,2.555,2.61529
-0.453917,-0.313212,2.555,2.61384
-0.445624,-0.313212,2.555,2.61241
-0.437331,-0.313212,2.555,2.61101
-0.429038,-0.313212,2.555,2.60964
-0.423874,-0.315541,2.574,2.62768
-0.415519,-0.315541,2.574,2.62635
-0.407165,-0.315541,2.574,2.62504
-0.39881,-0.315541,2.574,2.62376
-0.390456,-0.315541,2.574,2.6225
-0.382101,-0.315541,2.574,2.62127
-0.373747,-0.315541,2.574,2.62006
-0.365392,-0.315541,2.574,2.61888
-0.359673,-0.317871,2.593,2.63705
-0.351257,-0.317871,2.593,2.63592
-0.34284,-0.317871,2.593,2.63481
-0.334424,-0.317871,2.593,2.63373
-0.326008,-0.317871,2.593,2.63267
-0.320041,-0.320322,2.613,2.65194
-0.31156,-0.320322,2.613,2.65093
-0.300759,-0.317871,2.593,2.62967
-0.292343,-0.317871,2.593,2.62872
-0.283927,-0.317871,2.593,2.62779
-0.277636,-0.320322,2.613,2.64716
-0.269154,-0.320322,2.613,2.64628
-0.260673,-0.320322,2.613,2.64544
-0.252192,-0.320322,2.613,2.64461
-0.241846,-0.317871,2.593,2.62358
-0.233429,-0.317871,2.593,2.62282
-0.225013,-0.317871,2.593,2.62208
-0.21501,-0.315541,2.574,2.60217
-0.206655,-0.315541,2.574,2.60149
-0.198301,-0.315541,2.574,2.60084
-0.189946,-0.315541,2.574,2.60022
-0.181592,-0.315541,2.574,2.59962
-0.171958,-0.313212,2.555,2.57986
-0.163665,-0.313212,2.555,2.57932
-0.155372,-0.313212,2.555,2.57881
-0.145986,-0.310883,2.536,2.55915
-0.137755,-0.310883,2.536,2.5587
-0.129523,-0.310883,2.536,2.55827
-0.121292,-0.310883,2.536,2.55786
-0.113061,-0.310883,2.536,2.55748
-0.10483,-0.310883,2.536,2.55713
-0.0965985,-0.310883,2.536,2.55681
-0.0883672,-0.310883,2.536,2.55651
-0.080136,-0.310883,2.536,2.55624
-0.0719048,-0.310883,2.536,2.556
-0.0636736,-0.310883,2.536,2.55578
-0.0554423,-0.310883,2.536,2.55559
-0.0475648,-0.313212,2.555,2.57457
-0.0389799,-0.310883,2.536,2.55528
-0.0307487,-0.310883,2.536,2.55517
-0.0226861,-0.313212,2.555,2.57423
-0.0143932,-0.313212,2.555,2.57417
-0.00610034,-0.313212,2.555,2.57413
0.00219255,-0.313212,2.555,2.57413
0.0104854,-0.313212,2.555,2.57415
0.0187783,-0.313212,2.555,2.57419
0.0272725,-0.315541,2.574,2.59341
0.0356271,-0.315541,2.574,2.59351
0.0439817,-0.315541,2.574,2.59364
0.0523362,-0.315541,2.574,2.5938
0.0606908,-0.315541,2.574,2.59398
0.069555,-0.317871,2.593,2.61334
0.0779713,-0.317871,2.593,2.61357
0.0863875,-0.317871,2.593,2.61384
0.0948037,-0.317871,2.593,2.61413
0.10322,-0.317871,2.593,2.61445
0.111636,-0.317871,2.593,2.6148
0.120052,-0.317871,2.593,2.61517
0.128469,-0.317871,2.593,2.61557
0.136885,-0.317871,2.593,2.61599
0.145301,-0.317871,2.593,2.61645
0.153717,-0.317871,2.593,2.61693
0.160946,-0.315541,2.574,2.59826
0.1693,-0.315541,2.574,2.59879
0.177655,-0.315541,2.574,2.59935
0.186009,-0.315541,2.574,2.59993
0.192929,-0.313212,2.555,2.58135
0.201222,-0.313212,2.555,2.58198
0.209515,-0.313212,2.555,2.58264
0.217808,-0.313212,2.555,2.58332
0.226101,-0.313212,2.555,2.58404
0.234394,-0.313212,2.555,2.58478
0.242687,-0.313212,2.555,2.58554
0.250979,-0.313212,2.555,2.58633
0.259272,-0.313212,2.555,2.58715
0.267565,-0.313212,2.555,2.588
0.27791,-0.315541,2.574,2.60812
0.286264,-0.315541,2.574,2.60902
0.294619,-0.315541,2.574,2.60995
0.302973,-0.315541,2.574,2.61091
0.311328,-0.315541,2.574,2.61189
0.319682,-0.315541,2.574,2.6129
0.325615,-0.313212,2.555,2.59464
0.333908,-0.313212,2.555,2.59569
0.342201,-0.313212,2.555,2.59677
0.350494,-0.313212,2.555,2.59788
0.358787,-0.313212,2.555,2.59901
0.36708,-0.313212,2.555,2.60017
0.375373,-0.313212,2.555,2.60135
0.383666,-0.313212,2.555,2.60256
0.391959,-0.313212,2.555,2.6038
0.400252,-0.313212,2.555,2.60506
0.408544,-0.313212,2.555,2.60635
0.416837,-0.313212,2.555,2.60766
0.42513,-0.313212,2.555,2.609
0.433423,-0.313212,2.555,2.61036
0.441716,-0.313212,2.555,2.61175
0.450009,-0.313212,2.555,2.61317
0.458302,-0.313212,2.555,2.61461
0.470064,-0.315541,2.574,2.63553
0.478419,-0.315541,2.574,2.63703
0.486774,-0.315541,2.574,2.63856
0.495128,-0.315541,2.574,2.64011
0.503483,-0.315541,2.574,2.64169
0.511837,-0.315541,2.574,2.6433
0.520192,-0.315541,2.574,2.64493
0.532448,-0.317871,2.593,2.66612
0.540864,-0.317871,2.593,2.66781
0.54928,-0.317871,2.593,2.66953
0.557697,-0.317871,2.593,2.67128
0.566113,-0.317871,2.593,2.67305
0.570319,-0.315541,2.574,2.65524
0.578674,-0.315541,2.574,2.65705
0.587028,-0.315541,2.574,2.65888
0.595383,-0.315541,2.574,2.66074
0.603738,-0.315541,2.574,2.66262
0.612092,-0.315541,2.574,2.66453
0.620447,-0.315541,2.574,2.66646
0.628801,-0.315541,2.574,2.66841
0.637156,-0.315541,2.574,2.6704
0.64551,-0.315541,2.574,2.6724
0.649038,-0.313212,2.555,2.65469
0.657331,-0.313212,2.555,2.65673
0.670574,-0.315541,2.574,2.67857
0.678929,-0.315541,2.574,2.68067
0.68221,-0.313212,2.555,2.66299
