-0.39881,-0.156849,2.574,2.60943
-0.390456,-0.156849,2.574,2.60817
-0.379281,-0.155692,2.555,2.58769
-0.370988,-0.155692,2.555,2.58648
-0.362695,-0.155692,2.555,2.58531
-0.354402,-0.155692,2.555,2.58416
-0.343535,-0.154534,2.536,2.56382
-0.335304,-0.154534,2.536,2.56273
-0.327073,-0.154534,2.536,2.56167
-0.318842,-0.154534,2.536,2.56063
-0.31061,-0.154534,2.536,2.55962
-0.302379,-0.154534,2.536,2.55863
-0.294148,-0.154534,2.536,2.55767
-0.285917,-0.154534,2.536,2.55674
-0.277685,-0.154534,2.536,2.55583
-0.269454,-0.154534,2.536,2.55495
-0.261223,-0.154534,2.536,2.5541
-0.252992,-0.154534,2.536,2.55327
-0.244761,-0.154534,2.536,2.55247
-0.238301,-0.155692,2.555,2.57081
-0.230009,-0.155692,2.555,2.57005
-0.221716,-0.155692,2.555,2.56932
-0.213423,-0.155692,2.555,2.56862
-0.20513,-0.155692,2.555,2.56795
-0.196837,-0.155692,2.555,2.5673
-0.188544,-0.155692,2.555,2.56667
-0.180251,-0.155692,2.555,2.56608
-0.171958,-0.155692,2.555,2.56551
-0.163665,-0.155692,2.555,2.56497
-0.155372,-0.155692,2.555,2.56445
-0.14708,-0.155692,2.555,2.56396
-0.137755,-0.154534,2.536,2.54444
-0.129523,-0.154534,2.536,2.544
-0.121292,-0.154534,2.536,2.5436
-0.113061,-0.154534,2.536,2.54322
-0.10483,-0.154534,2.536,2.54287
-0.0973222,-0.155692,2.555,2.56159
-0.0890293,-0.155692,2.555,2.56129
-0.0807364,-0.155692,2.555,2.56101
-0.0724435,-0.155692,2.555,2.56076
-0.0641506,-0.155692,2.555,2.56054
-0.0558577,-0.155692,2.555,2.56035
-0.0475648,-0.155692,2.555,2.56018
-0.039564,-0.156849,2.574,2.57908
-0.0312094,-0.156849,2.574,2.57896
-0.0228548,-0.156849,2.574,2.57888
-0.0145003,-0.156849,2.574,2.57882
-0.00614571,-0.156849,2.574,2.57878
0.00222516,-0.158007,2.593,2.59781
0.0106414,-0.158007,2.593,2.59783
0.0190576,-0.158007,2.593,2.59788
0.0274739,-0.158007,2.593,2.59796
0.0358901,-0.158007,2.593,2.59806
0.0443063,-0.158007,2.593,2.59819
0.0527226,-0.158007,2.593,2.59834
0.0611388,-0.158007,2.593,2.59853
0.069555,-0.158007,2.593,2.59874
0.0768286,-0.155692,2.555,2.56089
0.0851215,-0.155692,2.555,2.56115
0.0934144,-0.155692,2.555,2.56144
0.101707,-0.155692,2.555,2.56176
0.11,-0.155692,2.555,2.5621
0.118293,-0.155692,2.555,2.56247
0.126586,-0.155692,2.555,2.56287
0.134879,-0.155692,2.555,2.56329
0.144236,-0.156849,2.574,2.58281
0.152591,-0.156849,2.574,2.58329
0.160946,-0.156849,2.574,2.58379
0.1693,-0.156849,2.574,2.58433
0.177655,-0.156849,2.574,2.58489
0.186009,-0.156849,2.574,2.58547
0.195799,-0.158007,2.593,2.60518
0.204215,-0.158007,2.593,2.60582
0.212631,-0.158007,2.593,2.6065
0.222752,-0.159226,2.613,2.62731
0.231233,-0.159226,2.613,2.62804
0.239715,-0.159226,2.613,2.6288
0.248196,-0.159226,2.613,2.62959
0.256677,-0.159226,2.613,2.6304
0.265158,-0.159226,2.613,2.63124
0.273639,-0.159226,2.613,2.63211
0.28212,-0.159226,2.613,2.633
0.290601,-0.159226,2.613,2.63393
0.296793,-0.158007,2.593,2.61471
0.30521,-0.158007,2.593,2.61568
0.313626,-0.158007,2.593,2.61667
0.317323,-0.155692,2.555,2.57933
0.325615,-0.155692,2.555,2.58037
0.331425,-0.154534,2.536,2.56223
0.339657,-0.154534,2.536,2.56331
0.347888,-0.154534,2.536,2.56441
0.353451,-0.153376,2.517,2.54632
0.36162,-0.153376,2.517,2.54747
0.36979,-0.153376,2.517,2.54864
0.375257,-0.152279,2.499,2.5316
0.383368,-0.152279,2.499,2.53282
0.391479,-0.152279,2.499,2.53406
0.39959,-0.152279,2.499,2.53532
0.407701,-0.152279,2.499,2.53661
0.415812,-0.152279,2.499,2.53793
0.423923,-0.152279,2.499,2.53927
0.432035,-0.152279,2.499,2.54064
0.440146,-0.152279,2.499,2.54203
0.445028,-0.151182,2.481,2.52513
0.453081,-0.151182,2.481,2.52656
0.461134,-0.151182,2.481,2.52802
0.469186,-0.151182,2.481,2.5295
0.477239,-0.151182,2.481,2.531
0.485292,-0.151182,2.481,2.53253
0.493344,-0.151182,2.481,2.53409
0.501397,-0.151182,2.481,2.53567
0.50945,-0.151182,2.481,2.53727
0.517502,-0.151182,2.481,2.5389
0.525555,-0.151182,2.481,2.54056
0.533608,-0.151182,2.481,2.54223
0.54559,-0.152279,2.499,2.56239
0.553702,-0.152279,2.499,2.56413
0.565859,-0.153376,2.517,2.58438
0.578362,-0.154534,2.536,2.6057
0.586593,-0.154534,2.536,2.60754
0.594824,-0.154534,2.536,2.6094
0.603056,-0.154534,2.536,2.61129
0.611287,-0.154534,2.536,2.61321
0.62416,-0.155692,2.555,2.63474
0.632453,-0.155692,2.555,2.63671
0.640746,-0.155692,2.555,2.63872
0.649038,-0.155692,2.555,2.64074
0.652443,-0.154534,2.536,2.62314
0.660674,-0.154534,2.536,2.6252
0.668906,-0.154534,2.536,2.62728
0.672064,-0.153376,2.517,2.60969
0.680233,-0.153376,2.517,2.61181
0.688403,-0.153376,2.517,2.61395
0.696572,-0.153376,2.517,2.61611
0.704742,-0.153376,2.517,2.6183
0.712911,-0.153376,2.517,2.62051
0.721081,-0.153376,2.517,2.62274
0.729251,-0.153376,2.517,2.625
0.73742,-0.153376,2.517,2.62728
0.74559,-0.153376,2.517,2.62959
0.748369,-0.152279,2.499,2.61309
0.75648,-0.152279,2.499,2.61543
0.764591,-0.152279,2.499,2.61778
0.772702,-0.152279,2.499,2.62016
0.780813,-0.152279,2.499,2.62257
0.788924,-0.152279,2.499,2.62499
0.791295,-0.151182,2.481,2.60852
0.799347,-0.151182,2.481,2.61097
0.8074,-0.151182,2.481,2.61345
0.815453,-0.151182,2.481,2.61595
0.817531,-0.150085,2.463,2.59947
0.825525,-0.150085,2.463,2.602
0.833519,-0.150085,2.463,2.60454
0.841514,-0.150085,2.463,2.60711
0.849508,-0.150085,2.463,2.6097
0.851236,-0.148989,2.445,2.59323
0.859171,-0.148989,2.445,2.59584
0.867107,-0.148989,2.445,2.59848
0.875043,-0.148989,2.445,2.60114
0.87684,-0.147953,2.428,2.58572
0.88472,-0.147953,2.428,2.5884
0.892601,-0.147953,2.428,2.5911
0.900482,-0.147953,2.428,2.59383
0.902002,-0.146917,2.411,2.57839
0.909828,-0.146917,2.411,2.58114
0.917653,-0.146917,2.411,2.58391
0.918953,-0.145881,2.394,2.56846
0.926724,-0.145881,2.394,2.57125
0.934494,-0.145881,2.394,2.57406
0.935573,-0.144845,2.377,2.55859
0.943288,-0.144845,2.377,2.56143
0.951003,-0.144845,2.377,2.56428
nan,nan,nan,NaN
nan,nan,nan,NaN
0.967592,-0.14387,2.361,2.55563
0.975255,-0.14387,2.361,2.55854
0.982918,-0.14387,2.361,2.56147
0.990581,-0.14387,2.361,2.56442
nan,nan,nan,NaN
nan,nan,nan,NaN
nan,nan,nan,NaN
nan,nan,nan,NaN
nan,nan,nan,NaN
nan,nan,nan,NaN
nan,nan,nan,NaN
nan,nan,nan,NaN
nan,nan,nan,NaN
nan,nan,nan,NaN
nan,nan,nan,NaN
nan,nan,nan,NaN
nan,nan,nan,NaN
nan,nan,nan,NaN
nan,nan,nan,NaN
nan,nan,nan,NaN
nan,nan,nan,NaN
nan,nan,nan,NaN
nan,nan,nan,NaN
nan,nan,nan,NaN
nan,nan,nan,NaN
nan,nan,nan,NaN
nan,nan,nan,NaN
nan,nan,nan,NaN
nan,nan,nan,NaN
nan,nan,nan,NaN
nan,nan,nan,NaN
nan,nan,nan,NaN
nan,nan,nan,NaN
nan,nan,nan,NaN
nan,nan,nan,NaN
nan,nan,nan,NaN
nan,nan,nan,NaN
1.851,-0.21285,3.493,3.95886
1.86233,-0.21285,3.493,3.96417
1.89298,-0.215043,3.529,4.01042
1.90444,-0.215043,3.529,4.01584
1.91589,-0.215043,3.529,4.02128
1.92734,-0.215043,3.529,4.02675
1.9388,-0.215043,3.529,4.03225
1.95025,-0.215043,3.529,4.03777
1.98227,-0.217298,3.566,4.0857
1.99385,-0.217298,3.566,4.09133
1.98461,-0.215043,3.529,4.05448
1.99607,-0.215043,3.529,4.0601
2.02857,-0.217298,3.566,4.10837
2.01898,-0.215043,3.529,4.07141
2.03043,-0.215043,3.529,4.0771
2.02106,-0.21285,3.493,4.04117
2.03239,-0.21285,3.493,4.04685
2.02325,-0.210717,3.458,4.01195
2.03448,-0.210717,3.458,4.01762
2.0457,-0.210717,3.458,4.02331
2.01588,-0.206512,3.389,3.94864
1.98801,-0.202551,3.324,3.87842
1.99879,-0.202551,3.324,3.88397
1.97089,-0.198652,3.26,3.81464
1.96324,-0.196823,3.23,3.78496
1.97372,-0.196823,3.23,3.79041
1.94735,-0.193167,3.17,3.72537
1.90453,-0.187927,3.084,3.62954
1.91454,-0.187927,3.084,3.63481
1.9077,-0.186281,3.057,3.60822
1.88375,-0.182991,3.003,3.54965
1.89349,-0.182991,3.003,3.55483
1.87028,-0.179822,2.951,3.49839
1.84801,-0.176775,2.901,3.44415
1.85743,-0.176775,2.901,3.44922
1.83595,-0.173851,2.853,3.39714
1.81482,-0.170987,2.806,3.34611
1.79467,-0.168244,2.761,3.29731
1.80364,-0.168244,2.761,3.3022
1.79815,-0.166904,2.739,3.28075
1.77867,-0.164284,2.696,3.23405
1.78743,-0.164284,2.696,3.23887
1.76819,-0.161724,2.654,3.19318
1.76275,-0.160445,2.633,3.17265
1.77129,-0.160445,2.633,3.17741
1.7528,-0.158007,2.593,3.13384
1.74831,-0.156849,2.574,3.11555
-2.04721,-0.170247,2.951,3.59561
-2.02036,-0.168804,2.926,3.55975
-2.01087,-0.168804,2.926,3.55437
-1.98427,-0.167362,2.901,3.51868
-1.95852,-0.165978,2.877,3.48432
-1.94918,-0.165978,2.877,3.47908
-1.90748,-0.163208,2.829,3.4159
-1.88286,-0.161882,2.806,3.38305
-1.87375,-0.161882,2.806,3.37799
-1.84936,-0.160555,2.783,3.3453
-1.82578,-0.159285,2.761,3.31391
-1.81682,-0.159285,2.761,3.30898
-1.80786,-0.159285,2.761,3.30406
-1.7989,-0.159285,2.761,3.29917
-1.78993,-0.159285,2.761,3.29429
-1.79516,-0.160555,2.783,3.31564
-1.78613,-0.160555,2.783,3.31076
-1.79179,-0.161882,2.806,3.33322
-1.81254,-0.164593,2.853,3.38408
-1.80328,-0.164593,2.853,3.37913
-1.80911,-0.165978,2.877,3.40258
-1.83042,-0.168804,2.926,3.45549
-1.85267,-0.171747,2.977,3.51061
-1.843,-0.171747,2.977,3.50552
-1.84935,-0.173247,3.003,3.53102
-1.8396,-0.173247,3.003,3.52593
-1.82986,-0.173247,3.003,3.52085
-1.82011,-0.173247,3.003,3.5158
-1.81036,-0.173247,3.003,3.51076
-1.80062,-0.173247,3.003,3.50574
-1.79087,-0.173247,3.003,3.50075
-1.78112,-0.173247,3.003,3.49577
-1.77138,-0.173247,3.003,3.49082
-1.76163,-0.173247,3.003,3.48588
nan,nan,nan,NaN
nan,nan,nan,NaN
nan,nan,nan,NaN
nan,nan,nan,NaN
nan,nan,nan,NaN
nan,nan,nan,NaN
nan,nan,nan,NaN
nan,nan,nan,NaN
nan,nan,nan,NaN
nan,nan,nan,NaN
nan,nan,nan,NaN
nan,nan,nan,NaN
nan,nan,nan,NaN
nan,nan,nan,NaN
nan,nan,nan,NaN
nan,nan,nan,NaN
nan,nan,nan,NaN
nan,nan,nan,NaN
nan,nan,nan,NaN
nan,nan,nan,NaN
nan,nan,nan,NaN
nan,nan,nan,NaN
nan,nan,nan,NaN
nan,nan,nan,NaN
nan,nan,nan,NaN
nan,nan,nan,NaN
nan,nan,nan,NaN
nan,nan,nan,NaN
nan,nan,nan,NaN
-1.20502,-0.142093,2.463,2.74566
-1.19703,-0.142093,2.463,2.74216
-1.18035,-0.141055,2.445,2.71866
-1.17241,-0.141055,2.445,2.71523
-1.16447,-0.141055,2.445,2.71181
-1.15654,-0.141055,2.445,2.70841
-1.14062,-0.140074,2.428,2.68623
-1.13274,-0.140074,2.428,2.68289
-1.12485,-0.140074,2.428,2.67957
-1.10915,-0.139094,2.411,2.65753
-1.10133,-0.139094,2.411,2.65428
-1.0935,-0.139094,2.411,2.65104
-1.07802,-0.138113,2.394,2.62915
-1.07025,-0.138113,2.394,2.62598
-1.06248,-0.138113,2.394,2.62282
-1.05471,-0.138113,2.394,2.61968
-1.04694,-0.138113,2.394,2.61656
-1.03917,-0.138113,2.394,2.61346
-1.02408,-0.137132,2.377,2.59185
-1.01636,-0.137132,2.377,2.58881
-1.00865,-0.137132,2.377,2.58579
-1.00093,-0.137132,2.377,2.58279
-0.986529,-0.136209,2.361,2.56244
-0.978866,-0.136209,2.361,2.5595
-0.971203,-0.136209,2.361,2.55658
-0.96354,-0.136209,2.361,2.55368
-0.949399,-0.135286,2.345,2.53351
-0.941787,-0.135286,2.345,2.53067
-0.934176,-0.135286,2.345,2.52785
-0.926565,-0.135286,2.345,2.52504
-0.918953,-0.135286,2.345,2.52226
-0.911342,-0.135286,2.345,2.5195
-0.903731,-0.135286,2.345,2.51676
-0.890005,-0.134363,2.329,2.49688
-0.882446,-0.134363,2.329,2.49419
-0.874887,-0.134363,2.329,2.49153
-0.867327,-0.134363,2.329,2.48889
-0.859768,-0.134363,2.329,2.48626
-0.852209,-0.134363,2.329,2.48366
-0.844649,-0.134363,2.329,2.48107
-0.83709,-0.134363,2.329,2.47851
-0.829531,-0.134363,2.329,2.47597
-0.821971,-0.134363,2.329,2.47345
-0.814412,-0.134363,2.329,2.47094
-0.812395,-0.135286,2.345,2.48542
-0.804784,-0.135286,2.345,2.48294
-0.797173,-0.135286,2.345,2.48049
-0.789562,-0.135286,2.345,2.47805
-0.78195,-0.135286,2.345,2.47564
-0.779622,-0.136209,2.361,2.49012
-0.771959,-0.136209,2.361,2.48773
-0.764296,-0.136209,2.361,2.48536
-0.76176,-0.137132,2.377,2.49984
-0.759438,-0.138113,2.394,2.51536
-0.751668,-0.138113,2.394,2.51303
-0.743897,-0.138113,2.394,2.51072
-0.736127,-0.138113,2.394,2.50842
-0.733529,-0.139094,2.411,2.52395
-0.725703,-0.139094,2.411,2.52169
-0.717878,-0.139094,2.411,2.51945
-0.710052,-0.139094,2.411,2.51723
-0.702227,-0.139094,2.411,2.51503
-0.694401,-0.139094,2.411,2.51286
-0.691417,-0.140074,2.428,2.52841
-0.683536,-0.140074,2.428,2.52627
-0.675655,-0.140074,2.428,2.52415
-0.667775,-0.140074,2.428,2.52205
-0.659894,-0.140074,2.428,2.51997
-0.652013,-0.140074,2.428,2.51792
-0.648643,-0.141055,2.445,2.53351
-0.640707,-0.141055,2.445,2.53149
-0.632771,-0.141055,2.445,2.52949
-0.624835,-0.141055,2.445,2.52752
-0.621441,-0.142093,2.463,2.54416
-0.613446,-0.142093,2.463,2.54222
-0.605452,-0.142093,2.463,2.5403
-0.597458,-0.142093,2.463,2.53841
-0.589464,-0.142093,2.463,2.53654
-0.581469,-0.142093,2.463,2.53469
-0.573475,-0.142093,2.463,2.53287
-0.565481,-0.142093,2.463,2.53107
-0.557486,-0.142093,2.463,2.5293
-0.549492,-0.142093,2.463,2.52755
-0.541498,-0.142093,2.463,2.52582
-0.533504,-0.142093,2.463,2.52412
-0.525509,-0.142093,2.463,2.52244
-0.517515,-0.142093,2.463,2.52079
-0.509521,-0.142093,2.463,2.51916
-0.501526,-0.142093,2.463,2.51756
-0.497139,-0.143132,2.481,2.53436
-0.489086,-0.143132,2.481,2.5328
-0.481034,-0.143132,2.481,2.53125
-0.476412,-0.14417,2.499,2.54809
-0.468301,-0.14417,2.499,2.54658
-0.46019,-0.14417,2.499,2.54511
-0.455335,-0.145209,2.517,2.56197
-0.447166,-0.145209,2.517,2.56053
-0.44231,-0.146305,2.536,2.57844
-0.434079,-0.146305,2.536,2.57704
-0.429038,-0.147401,2.555,2.59496
-0.420745,-0.147401,2.555,2.5936
-0.412452,-0.147401,2.555,2.59227
-0.404159,-0.147401,2.555,2.59096
-0.39881,-0.148497,2.574,2.60894
-0.390456,-0.148497,2.574,2.60768
-0.379281,-0.147401,2.555,2.5872
-0.370988,-0.147401,2.555,2.586
-0.362695,-0.147401,2.555,2.58482
-0.354402,-0.147401,2.555,2.58367
-0.343535,-0.146305,2.536,2.56334
-0.335304,-0.146305,2.536,2.56225
-0.327073,-0.146305,2.536,2.56119
-0.318842,-0.146305,2.536,2.56015
-0.31061,-0.146305,2.536,2.55914
-0.302379,-0.146305,2.536,2.55815
-0.294148,-0.146305,2.536,2.55719
-0.285917,-0.146305,2.536,2.55626
-0.277685,-0.146305,2.536,2.55535
-0.269454,-0.146305,2.536,2.55447
-0.261223,-0.146305,2.536,2.55361
-0.252992,-0.146305,2.536,2.55278
-0.244761,-0.146305,2.536,2.55198
-0.238301,-0.147401,2.555,2.57032
-0.230009,-0.147401,2.555,2.56956
-0.221716,-0.147401,2.555,2.56883
-0.213423,-0.147401,2.555,2.56813
-0.20513,-0.147401,2.555,2.56746
-0.196837,-0.147401,2.555,2.56681
-0.188544,-0.147401,2.555,2.56618
-0.180251,-0.147401,2.555,2.56559
-0.170679,-0.146305,2.536,2.54594
-0.162448,-0.146305,2.536,2.54541
-0.154217,-0.146305,2.536,2.54489
-0.145986,-0.146305,2.536,2.54441
-0.136723,-0.145209,2.517,2.52489
-0.128553,-0.145209,2.517,2.52446
-0.121292,-0.146305,2.536,2.54311
-0.113061,-0.146305,2.536,2.54273
-0.10483,-0.146305,2.536,2.54238
-0.0965985,-0.146305,2.536,2.54205
-0.0883672,-0.146305,2.536,2.54175
-0.0807364,-0.147401,2.555,2.56052
-0.0724435,-0.147401,2.555,2.56027
-0.0641506,-0.147401,2.555,2.56005
-0.0558577,-0.147401,2.555,2.55986
-0.0475648,-0.147401,2.555,2.55969
-0.0392719,-0.147401,2.555,2.55955
-0.030979,-0.147401,2.555,2.55944
-0.0228548,-0.148497,2.574,2.57838
-0.0145003,-0.148497,2.574,2.57832
-0.00614571,-0.148497,2.574,2.57829
0.00222516,-0.149593,2.593,2.59731
0.0106414,-0.149593,2.593,2.59733
0.0190576,-0.149593,2.593,2.59738
0.0274739,-0.149593,2.593,2.59746
0.0356271,-0.148497,2.574,2.57853
0.0439817,-0.148497,2.574,2.57866
0.0523362,-0.148497,2.574,2.57881
0.0606908,-0.148497,2.574,2.57899
0.0690454,-0.148497,2.574,2.5792
0.0768286,-0.147401,2.555,2.5604
0.0851215,-0.147401,2.555,2.56066
0.0934144,-0.147401,2.555,2.56095
0.101707,-0.147401,2.555,2.56127
0.11,-0.147401,2.555,2.56161
0.118293,-0.147401,2.555,2.56198
0.126586,-0.147401,2.555,2.56238
0.134879,-0.147401,2.555,2.5628
0.143172,-0.147401,2.555,2.56325
0.152591,-0.148497,2.574,2.58279
0.160946,-0.148497,2.574,2.5833
0.1693,-0.148497,2.574,2.58383
0.177655,-0.148497,2.574,2.58439
0.186009,-0.148497,2.574,2.58498
0.195799,-0.149593,2.593,2.60468
0.204215,-0.149593,2.593,2.60533
0.212631,-0.149593,2.593,2.606
0.222752,-0.150747,2.613,2.62681
0.231233,-0.150747,2.613,2.62754
0.239715,-0.150747,2.613,2.6283
0.248196,-0.150747,2.613,2.62909
0.256677,-0.150747,2.613,2.6299
0.265158,-0.150747,2.613,2.63074
0.271545,-0.149593,2.593,2.61147
0.279961,-0.149593,2.593,2.61236
0.288377,-0.149593,2.593,2.61327
0.296793,-0.149593,2.593,2.61421
0.302973,-0.148497,2.574,2.59602
0.311328,-0.148497,2.574,2.59701
0.317323,-0.147401,2.555,2.57885
0.325615,-0.147401,2.555,2.57988
0.328942,-0.145209,2.517,2.54255
0.337112,-0.145209,2.517,2.54362
0.345281,-0.145209,2.517,2.54472
0.353451,-0.145209,2.517,2.54584
0.36162,-0.145209,2.517,2.54699
0.367146,-0.14417,2.499,2.52994
0.375257,-0.14417,2.499,2.53113
0.383368,-0.14417,2.499,2.53234
0.388659,-0.143132,2.481,2.51533
0.396712,-0.143132,2.481,2.51659
0.404765,-0.143132,2.481,2.51787
0.412817,-0.143132,2.481,2.51918
0.42087,-0.143132,2.481,2.52051
0.428923,-0.143132,2.481,2.52187
0.436975,-0.143132,2.481,2.52325
0.445028,-0.143132,2.481,2.52466
0.449794,-0.142093,2.463,2.50776
0.457788,-0.142093,2.463,2.50921
0.465782,-0.142093,2.463,2.51068
0.473776,-0.142093,2.463,2.51218
0.481771,-0.142093,2.463,2.5137
0.489765,-0.142093,2.463,2.51524
0.497759,-0.142093,2.463,2.51681
0.505754,-0.142093,2.463,2.5184
0.513748,-0.142093,2.463,2.52002
0.525555,-0.143132,2.481,2.54009
0.533608,-0.143132,2.481,2.54177
0.54559,-0.14417,2.499,2.56192
0.553702,-0.14417,2.499,2.56366
0.565859,-0.145209,2.517,2.58391
0.578362,-0.146305,2.536,2.60523
0.586593,-0.146305,2.536,2.60707
0.594824,-0.146305,2.536,2.60893
0.607574,-0.147401,2.555,2.63038
0.615867,-0.147401,2.555,2.63231
0.62416,-0.147401,2.555,2.63426
0.632453,-0.147401,2.555,2.63624
0.64551,-0.148497,2.574,2.65786
0.649038,-0.147401,2.555,2.64027
0.652443,-0.146305,2.536,2.62267
0.660674,-0.146305,2.536,2.62473
0.668906,-0.146305,2.536,2.62681
0.677137,-0.146305,2.536,2.62892
0.685368,-0.146305,2.536,2.63105
0.688403,-0.145209,2.517,2.61348
0.696572,-0.145209,2.517,2.61564
0.704742,-0.145209,2.517,2.61783
0.712911,-0.145209,2.517,2.62004
0.721081,-0.145209,2.517,2.62228
0.729251,-0.145209,2.517,2.62453
0.73742,-0.145209,2.517,2.62682
0.74559,-0.145209,2.517,2.62912
0.753759,-0.145209,2.517,2.63145
0.761929,-0.145209,2.517,2.6338
0.764591,-0.14417,2.499,2.61732
0.772702,-0.14417,2.499,2.61971
0.786437,-0.145209,2.517,2.641
0.788924,-0.14417,2.499,2.62454
0.797036,-0.14417,2.499,2.62699
0.805147,-0.14417,2.499,2.62946
0.8074,-0.143132,2.481,2.613
0.815453,-0.143132,2.481,2.61549
0.817531,-0.142093,2.463,2.59902
0.825525,-0.142093,2.463,2.60155
0.833519,-0.142093,2.463,2.6041
0.841514,-0.142093,2.463,2.60667
0.849508,-0.142093,2.463,2.60926
0.857502,-0.142093,2.463,2.61187
0.859171,-0.141055,2.445,2.5954
0.867107,-0.141055,2.445,2.59804
0.875043,-0.141055,2.445,2.6007
0.882979,-0.141055,2.445,2.60338
0.890915,-0.141055,2.445,2.60608
0.892601,-0.140074,2.428,2.59066
0.900482,-0.140074,2.428,2.59339
0.902002,-0.139094,2.411,2.57796
0.909828,-0.139094,2.411,2.58071
0.917653,-0.139094,2.411,2.58348
0.918953,-0.138113,2.394,2.56803
0.926724,-0.138113,2.394,2.57082
0.934494,-0.138113,2.394,2.57363
0.935573,-0.137132,2.377,2.55817
0.943288,-0.137132,2.377,2.561
0.951003,-0.137132,2.377,2.56385
nan,nan,nan,NaN
nan,nan,nan,NaN
0.967592,-0.136209,2.361,2.55521
0.975255,-0.136209,2.361,2.55812
nan,nan,nan,NaN
nan,nan,nan,NaN
nan,nan,nan,NaN
nan,nan,nan,NaN
nan,nan,nan,NaN
nan,nan,nan,NaN
nan,nan,nan,NaN
nan,nan,nan,NaN
nan,nan,nan,NaN
nan,nan,nan,NaN
nan,nan,nan,NaN
nan,nan,nan,NaN
nan,nan,nan,NaN
nan,nan,nan,NaN
nan,nan,nan,NaN
nan,nan,nan,NaN
nan,nan,nan,NaN
nan,nan,nan,NaN
nan,nan,nan,NaN
nan,nan,nan,NaN
nan,nan,nan,NaN
nan,nan,nan,NaN
nan,nan,nan,NaN
nan,nan,nan,NaN
nan,nan,nan,NaN
nan,nan,nan,NaN
nan,nan,nan,NaN
nan,nan,nan,NaN
nan,nan,nan,NaN
nan,nan,nan,NaN
nan,nan,nan,NaN
nan,nan,nan,NaN
nan,nan,nan,NaN
nan,nan,nan,NaN
nan,nan,nan,NaN
1.8139,-0.197477,3.423,3.87894
1.82501,-0.197477,3.423,3.88415
1.8549,-0.199496,3.458,3.92915
1.88501,-0.201515,3.493,3.97428
1.89635,-0.201515,3.493,3.97967
1.90768,-0.201515,3.493,3.98509
1.91902,-0.201515,3.493,3.99053
1.93036,-0.201515,3.493,3.99599
1.94169,-0.201515,3.493,4.00148
1.95303,-0.201515,3.493,4.00699
1.96437,-0.201515,3.493,4.01253
1.97571,-0.201515,3.493,4.01809
1.98704,-0.201515,3.493,4.02368
1.99838,-0.201515,3.493,4.02929
2.00972,-0.201515,3.493,4.03493
2.00081,-0.199496,3.458,4.0001
2.01203,-0.199496,3.458,4.00572
2.02325,-0.199496,3.458,4.01137
2.01389,-0.197477,3.423,3.97639
2.025,-0.197477,3.423,3.98203
2.01588,-0.195516,3.389,3.94808
1.98801,-0.191766,3.324,3.87788
1.99879,-0.191766,3.324,3.88342
1.97089,-0.188073,3.26,3.8141
1.96324,-0.186343,3.23,3.78443
1.97372,-0.186343,3.23,3.78988
1.94735,-0.182881,3.17,3.72485
1.90453,-0.17792,3.084,3.62904
1.91454,-0.17792,3.084,3.6343
1.9077,-0.176362,3.057,3.60772
1.88375,-0.173247,3.003,3.54916
1.89349,-0.173247,3.003,3.55434
1.87028,-0.170247,2.951,3.49791
1.84801,-0.167362,2.901,3.44368
1.85743,-0.167362,2.901,3.44875
1.83595,-0.164593,2.853,3.39668
1.81482,-0.161882,2.806,3.34565
1.79467,-0.159285,2.761,3.29687
1.80364,-0.159285,2.761,3.30176
1.79815,-0.158016,2.739,3.28031
1.77867,-0.155536,2.696,3.23362
1.78743,-0.155536,2.696,3.23844
1.76819,-0.153112,2.654,3.19275
1.76275,-0.151901,2.633,3.17223
1.77129,-0.151901,2.633,3.17699
1.7528,-0.149593,2.593,3.13342
1.73541,-0.147401,2.555,3.09215
-2.04721,-0.160671,2.951,3.59517
-2.02036,-0.15931,2.926,3.55932
-2.01087,-0.15931,2.926,3.55393
-1.98427,-0.157949,2.901,3.51825
-1.95852,-0.156642,2.877,3.48389
-1.94918,-0.156642,2.877,3.47864
-1.92366,-0.155336,2.853,3.44445
-1.88286,-0.152777,2.806,3.38262
-1.87375,-0.152777,2.806,3.37756
-1.84936,-0.151524,2.783,3.34488
-1.82578,-0.150326,2.761,3.31349
-1.81682,-0.150326,2.761,3.30856
-1.80786,-0.150326,2.761,3.30364
-1.78456,-0.149129,2.739,3.27246
-1.77567,-0.149129,2.739,3.26762
-1.78097,-0.150326,2.761,3.28901
-1.77201,-0.150326,2.761,3.28417
-1.79179,-0.152777,2.806,3.33279
-1.79729,-0.154029,2.829,3.35518
-1.78811,-0.154029,2.829,3.35027
-1.80911,-0.156642,2.877,3.40214
-1.81478,-0.157949,2.901,3.42552
-1.83648,-0.160671,2.951,3.4795
-1.82691,-0.160671,2.951,3.47445
-1.83334,-0.162087,2.977,3.49999
-1.8396,-0.163502,3.003,3.52546
-1.82986,-0.163502,3.003,3.52039
-1.82011,-0.163502,3.003,3.51533
-1.81036,-0.163502,3.003,3.51029
-1.80062,-0.163502,3.003,3.50528
-1.79087,-0.163502,3.003,3.50028
-1.78112,-0.163502,3.003,3.4953
-1.77138,-0.163502,3.003,3.49035
-1.74638,-0.162087,2.977,3.45523
-1.73671,-0.162087,2.977,3.45036
nan,nan,nan,NaN
nan,nan,nan,NaN
nan,nan,nan,NaN
nan,nan,nan,NaN
nan,nan,nan,NaN
nan,nan,nan,NaN
nan,nan,nan,NaN
nan,nan,nan,NaN
nan,nan,nan,NaN
nan,nan,nan,NaN
nan,nan,nan,NaN
nan,nan,nan,NaN
nan,nan,nan,NaN
nan,nan,nan,NaN
nan,nan,nan,NaN
nan,nan,nan,NaN
nan,nan,nan,NaN
nan,nan,nan,NaN
nan,nan,nan,NaN
nan,nan,nan,NaN
nan,nan,nan,NaN
nan,nan,nan,NaN
nan,nan,nan,NaN
nan,nan,nan,NaN
nan,nan,nan,NaN
nan,nan,nan,NaN
nan,nan,nan,NaN
nan,nan,nan,NaN
-1.20502,-0.134101,2.463,2.74526
-1.19703,-0.134101,2.463,2.74176
-1.18035,-0.133121,2.445,2.71826
-1.17241,-0.133121,2.445,2.71483
-1.16447,-0.133121,2.445,2.71141
-1.15654,-0.133121,2.445,2.70801
-1.14062,-0.132196,2.428,2.68583
-1.13274,-0.132196,2.428,2.68249
-1.12485,-0.132196,2.428,2.67917
-1.10915,-0.13127,2.411,2.65714
-1.10133,-0.13127,2.411,2.65388
-1.0935,-0.13127,2.411,2.65064
-1.07802,-0.130345,2.394,2.62876
-1.07025,-0.130345,2.394,2.62558
-1.06248,-0.130345,2.394,2.62242
-1.05471,-0.130345,2.394,2.61928
-1.04694,-0.130345,2.394,2.61616
-1.03917,-0.130345,2.394,2.61306
-1.02408,-0.129419,2.377,2.59145
-1.01636,-0.129419,2.377,2.58841
-1.00865,-0.129419,2.377,2.58539
-1.00093,-0.129419,2.377,2.58239
-0.993215,-0.129419,2.377,2.57941
-0.978866,-0.128548,2.361,2.55911
-0.971203,-0.128548,2.361,2.55618
-0.96354,-0.128548,2.361,2.55328
-0.949399,-0.127677,2.345,2.53312
-0.941787,-0.127677,2.345,2.53027
-0.934176,-0.127677,2.345,2.52745
-0.926565,-0.127677,2.345,2.52465
-0.918953,-0.127677,2.345,2.52186
-0.911342,-0.127677,2.345,2.5191
-0.903731,-0.127677,2.345,2.51636
-0.890005,-0.126806,2.329,2.49648
-0.882446,-0.126806,2.329,2.4938
-0.874887,-0.126806,2.329,2.49113
-0.867327,-0.126806,2.329,2.48849
-0.859768,-0.126806,2.329,2.48586
-0.852209,-0.126806,2.329,2.48326
-0.844649,-0.126806,2.329,2.48068
-0.83709,-0.126806,2.329,2.47811
-0.829531,-0.126806,2.329,2.47557
-0.821971,-0.126806,2.329,2.47305
-0.814412,-0.126806,2.329,2.47054
-0.812395,-0.127677,2.345,2.48502
-0.804784,-0.127677,2.345,2.48254
-0.797173,-0.127677,2.345,2.48008
-0.789562,-0.127677,2.345,2.47765
-0.78195,-0.127677,2.345,2.47523
-0.779622,-0.128548,2.361,2.48971
-0.771959,-0.128548,2.361,2.48732
-0.764296,-0.128548,2.361,2.48495
-0.76176,-0.129419,2.377,2.49943
-0.759438,-0.130345,2.394,2.51495
-0.751668,-0.130345,2.394,2.51261
-0.743897,-0.130345,2.394,2.5103
-0.736127,-0.130345,2.394,2.50801
-0.733529,-0.13127,2.411,2.52353
-0.725703,-0.13127,2.411,2.52127
-0.717878,-0.13127,2.411,2.51903
-0.710052,-0.13127,2.411,2.51681
-0.702227,-0.13127,2.411,2.51461
-0.694401,-0.13127,2.411,2.51244
-0.691417,-0.132196,2.428,2.52799
-0.683536,-0.132196,2.428,2.52584
-0.675655,-0.132196,2.428,2.52372
-0.667775,-0.132196,2.428,2.52162
-0.659894,-0.132196,2.428,2.51955
-0.652013,-0.132196,2.428,2.5175
-0.648643,-0.133121,2.445,2.53308
-0.640707,-0.133121,2.445,2.53106
-0.632771,-0.133121,2.445,2.52906
-0.624835,-0.133121,2.445,2.52709
-0.621441,-0.134101,2.463,2.54373
-0.613446,-0.134101,2.463,2.54178
-0.605452,-0.134101,2.463,2.53987
-0.597458,-0.134101,2.463,2.53797
-0.589464,-0.134101,2.463,2.5361
-0.581469,-0.134101,2.463,2.53426
-0.573475,-0.134101,2.463,2.53243
-0.565481,-0.134101,2.463,2.53064
-0.557486,-0.134101,2.463,2.52886
-0.549492,-0.134101,2.463,2.52711
-0.541498,-0.134101,2.463,2.52539
-0.533504,-0.134101,2.463,2.52368
-0.525509,-0.134101,2.463,2.52201
-0.517515,-0.134101,2.463,2.52035
-0.509521,-0.134101,2.463,2.51872
-0.501526,-0.134101,2.463,2.51712
-0.497139,-0.135081,2.481,2.53392
-0.489086,-0.135081,2.481,2.53235
-0.481034,-0.135081,2.481,2.53081
-0.472981,-0.135081,2.481,2.52929
-0.468301,-0.136061,2.499,2.54614
-0.46019,-0.136061,2.499,2.54466
-0.452079,-0.136061,2.499,2.5432
-0.447166,-0.137042,2.517,2.56008
-0.438996,-0.137042,2.517,2.55867
-0.430827,-0.137042,2.517,2.55728
-0.425848,-0.138076,2.536,2.57521
-0.417616,-0.138076,2.536,2.57386
-0.409385,-0.138076,2.536,2.57254
-0.401154,-0.138076,2.536,2.57124
-0.395866,-0.13911,2.555,2.58923
-0.387574,-0.13911,2.555,2.58797
-0.379281,-0.13911,2.555,2.58674
-0.373747,-0.140145,2.574,2.60477
-0.362695,-0.13911,2.555,2.58436
-0.354402,-0.13911,2.555,2.58321
-0.346109,-0.13911,2.555,2.58209
-0.337816,-0.13911,2.555,2.58099
-0.327073,-0.138076,2.536,2.56073
-0.318842,-0.138076,2.536,2.55969
-0.31061,-0.138076,2.536,2.55868
-0.302379,-0.138076,2.536,2.55769
-0.294148,-0.138076,2.536,2.55673
-0.285917,-0.138076,2.536,2.5558
-0.277685,-0.138076,2.536,2.55489
-0.269454,-0.138076,2.536,2.55401
-0.261223,-0.138076,2.536,2.55315
-0.252992,-0.138076,2.536,2.55233
-0.244761,-0.138076,2.536,2.55152
-0.236529,-0.138076,2.536,2.55075
-0.228298,-0.138076,2.536,2.55
-0.220067,-0.138076,2.536,2.54927
-0.211836,-0.138076,2.536,2.54858
-0.203604,-0.138076,2.536,2.5479
-0.195373,-0.138076,2.536,2.54726
-0.187142,-0.138076,2.536,2.54664
-0.178911,-0.138076,2.536,2.54605
-0.170679,-0.138076,2.536,2.54548
-0.162448,-0.138076,2.536,2.54495
-0.153062,-0.137042,2.517,2.52537
-0.144892,-0.137042,2.517,2.52489
-0.136723,-0.137042,2.517,2.52443
-0.128553,-0.137042,2.517,2.524
-0.120383,-0.137042,2.517,2.5236
-0.112214,-0.137042,2.517,2.52322
-0.104044,-0.137042,2.517,2.52287
-0.0958747,-0.137042,2.517,2.52255
-0.0877052,-0.137042,2.517,2.52225
-0.0795356,-0.137042,2.517,2.52198
-0.0713661,-0.137042,2.517,2.52174
-0.0631965,-0.137042,2.517,2.52152
-0.055027,-0.137042,2.517,2.52133
-0.0468574,-0.137042,2.517,2.52116
-0.0389799,-0.138076,2.536,2.54006
-0.0307487,-0.138076,2.536,2.53994
-0.0226861,-0.13911,2.555,2.55888
-0.0143932,-0.13911,2.555,2.55882
-0.00610034,-0.13911,2.555,2.55879
0.00219255,-0.13911,2.555,2.55879
0.0104854,-0.13911,2.555,2.55881
0.0187783,-0.13911,2.555,2.55885
0.0270712,-0.13911,2.555,2.55893
0.0353641,-0.13911,2.555,2.55903
0.0439817,-0.140145,2.574,2.57819
0.0519499,-0.13911,2.555,2.55931
0.0602428,-0.13911,2.555,2.55949
0.0685357,-0.13911,2.555,2.5597
0.0762573,-0.138076,2.536,2.5409
0.0844885,-0.138076,2.536,2.54116
0.0927197,-0.138076,2.536,2.54145
0.100951,-0.138076,2.536,2.54176
0.109182,-0.138076,2.536,2.5421
0.117413,-0.138076,2.536,2.54247
0.125645,-0.138076,2.536,2.54286
0.133876,-0.138076,2.536,2.54328
0.142107,-0.138076,2.536,2.54373
0.151465,-0.13911,2.555,2.56326
0.159758,-0.13911,2.555,2.56377
0.16805,-0.13911,2.555,2.5643
0.177655,-0.140145,2.574,2.58393
0.186009,-0.140145,2.574,2.58451
0.194364,-0.140145,2.574,2.58513
0.204215,-0.141179,2.593,2.60486
0.212631,-0.141179,2.593,2.60553
0.221047,-0.141179,2.593,2.60623
0.229463,-0.141179,2.593,2.60696
0.23788,-0.141179,2.593,2.60771
0.246296,-0.141179,2.593,2.60849
0.254712,-0.141179,2.593,2.6093
0.265158,-0.142268,2.613,2.63027
0.271545,-0.141179,2.593,2.611
0.279961,-0.141179,2.593,2.61189
0.288377,-0.141179,2.593,2.6128
0.296793,-0.141179,2.593,2.61375
0.302973,-0.140145,2.574,2.59556
0.311328,-0.140145,2.574,2.59654
0.317323,-0.13911,2.555,2.57839
0.325615,-0.13911,2.555,2.57942
0.328942,-0.137042,2.517,2.5421
0.337112,-0.137042,2.517,2.54317
0.345281,-0.137042,2.517,2.54427
0.353451,-0.137042,2.517,2.54539
0.36162,-0.137042,2.517,2.54653
0.367146,-0.136061,2.499,2.52949
0.375257,-0.136061,2.499,2.53068
0.383368,-0.136061,2.499,2.53189
0.388659,-0.135081,2.481,2.51489
0.396712,-0.135081,2.481,2.51615
0.404765,-0.135081,2.481,2.51743
0.412817,-0.135081,2.481,2.51874
0.42087,-0.135081,2.481,2.52007
0.428923,-0.135081,2.481,2.52143
0.436975,-0.135081,2.481,2.52281
0.445028,-0.135081,2.481,2.52421
0.449794,-0.134101,2.463,2.50732
0.457788,-0.134101,2.463,2.50877
0.465782,-0.134101,2.463,2.51024
0.473776,-0.134101,2.463,2.51174
0.481771,-0.134101,2.463,2.51326
0.489765,-0.134101,2.463,2.5148
0.497759,-0.134101,2.463,2.51637
0.505754,-0.134101,2.463,2.51796
0.513748,-0.134101,2.463,2.51958
0.525555,-0.135081,2.481,2.53965
0.537479,-0.136061,2.499,2.55977
0.54952,-0.137042,2.517,2.57993
0.55769,-0.137042,2.517,2.58168
0.565859,-0.137042,2.517,2.58346
0.578362,-0.138076,2.536,2.60478
0.586593,-0.138076,2.536,2.60662
0.594824,-0.138076,2.536,2.60848
0.607574,-0.13911,2.555,2.62993
0.615867,-0.13911,2.555,2.63186
0.628801,-0.140145,2.574,2.6534
0.637156,-0.140145,2.574,2.65539
0.64551,-0.140145,2.574,2.6574
0.653865,-0.140145,2.574,2.65945
0.657331,-0.13911,2.555,2.64187
0.665624,-0.13911,2.555,2.64394
0.668906,-0.138076,2.536,2.62637
0.677137,-0.138076,2.536,2.62847
0.685368,-0.138076,2.536,2.63061
0.693599,-0.138076,2.536,2.63276
0.696572,-0.137042,2.517,2.6152
0.704742,-0.137042,2.517,2.61739
0.712911,-0.137042,2.517,2.6196
0.721081,-0.137042,2.517,2.62184
0.729251,-0.137042,2.517,2.6241
0.73742,-0.137042,2.517,2.62638
0.74559,-0.137042,2.517,2.62868
0.753759,-0.137042,2.517,2.63101
0.761929,-0.137042,2.517,2.63336
0.764591,-0.136061,2.499,2.61689
0.772702,-0.136061,2.499,2.61927
0.786437,-0.137042,2.517,2.64056
0.788924,-0.136061,2.499,2.6241
0.797036,-0.136061,2.499,2.62655
0.805147,-0.136061,2.499,2.62903
0.8074,-0.135081,2.481,2.61257
0.815453,-0.135081,2.481,2.61507
0.817531,-0.134101,2.463,2.5986
0.825525,-0.134101,2.463,2.60112
0.833519,-0.134101,2.463,2.60367
0.841514,-0.134101,2.463,2.60624
0.849508,-0.134101,2.463,2.60883
0.857502,-0.134101,2.463,2.61145
0.859171,-0.133121,2.445,2.59498
0.867107,-0.133121,2.445,2.59762
0.875043,-0.133121,2.445,2.60028
0.882979,-0.133121,2.445,2.60296
0.890915,-0.133121,2.445,2.60566
0.892601,-0.132196,2.428,2.59025
0.900482,-0.132196,2.428,2.59298
0.902002,-0.13127,2.411,2.57755
0.909828,-0.13127,2.411,2.5803
0.917653,-0.13127,2.411,2.58307
0.918953,-0.130345,2.394,2.56763
0.926724,-0.130345,2.394,2.57042
0.934494,-0.130345,2.394,2.57323
0.935573,-0.129419,2.377,2.55777
0.943288,-0.129419,2.377,2.5606
0.951003,-0.129419,2.377,2.56345
0.952265,-0.128548,2.361,2.54905
0.959929,-0.128548,2.361,2.55192
0.967592,-0.128548,2.361,2.55482
0.975255,-0.128548,2.361,2.55773
0.989579,-0.129419,2.377,2.57801
nan,nan,nan,NaN
nan,nan,nan,NaN
nan,nan,nan,NaN
nan,nan,nan,NaN
nan,nan,nan,NaN
nan,nan,nan,NaN
nan,nan,nan,NaN
nan,nan,nan,NaN
nan,nan,nan,NaN
nan,nan,nan,NaN
nan,nan,nan,NaN
nan,nan,nan,NaN
nan,nan,nan,NaN
nan,nan,nan,NaN
nan,nan,nan,NaN
nan,nan,nan,NaN
nan,nan,nan,NaN
nan,nan,nan,NaN
nan,nan,nan,NaN
nan,nan,nan,NaN
nan,nan,nan,NaN
nan,nan,nan,NaN
nan,nan,nan,NaN
nan,nan,nan,NaN
nan,nan,nan,NaN
nan,nan,nan,NaN
nan,nan,nan,NaN
nan,nan,nan,NaN
nan,nan,nan,NaN
nan,nan,nan,NaN
nan,nan,nan,NaN
nan,nan,nan,NaN
1.73986,-0.18098,3.324,3.75617
1.75065,-0.18098,3.324,3.76118
1.76144,-0.18098,3.324,3.76622
1.78929,-0.182722,3.356,3.80758
1.81788,-0.184519,3.389,3.8502
1.84723,-0.18637,3.423,3.89409
1.85834,-0.18637,3.423,3.89937
1.86945,-0.18637,3.423,3.90468
1.88056,-0.18637,3.423,3.91001
1.89167,-0.18637,3.423,3.91537
1.92224,-0.188276,3.458,3.96084
1.93346,-0.188276,3.458,3.96629
1.925,-0.18637,3.423,3.93158
1.93611,-0.18637,3.423,3.93703
1.96713,-0.188276,3.458,3.98282
1.97836,-0.188276,3.458,3.98837
1.98958,-0.188276,3.458,3.99395
1.98055,-0.18637,3.423,3.95907
1.99166,-0.18637,3.423,3.96464
2.00277,-0.18637,3.423,3.97024
1.99388,-0.184519,3.389,3.93636
2.00488,-0.184519,3.389,3.94194
1.99625,-0.182722,3.356,3.90911
1.96887,-0.179237,3.292,3.84003
1.97955,-0.179237,3.292,3.84552
1.97089,-0.177495,3.26,3.8136
1.9444,-0.174174,3.199,3.74761
1.95478,-0.174174,3.199,3.75301
1.92953,-0.171016,3.141,3.69029
1.90453,-0.167913,3.084,3.62856
1.91454,-0.167913,3.084,3.63383
1.9077,-0.166443,3.057,3.60725
1.88375,-0.163502,3.003,3.5487
1.89349,-0.163502,3.003,3.55388
1.87028,-0.160671,2.951,3.49745
1.84801,-0.157949,2.901,3.44324
1.82669,-0.155336,2.853,3.39125
1.83595,-0.155336,2.853,3.39624
1.81482,-0.152777,2.806,3.34523
1.79467,-0.150326,2.761,3.29645
1.80364,-0.150326,2.761,3.30134
1.78371,-0.147931,2.717,3.25355
1.77867,-0.146787,2.696,3.23321
1.78743,-0.146787,2.696,3.23803
1.76819,-0.144501,2.654,3.19235
1.74936,-0.142268,2.613,3.14774
1.75784,-0.142268,2.613,3.15246
1.73996,-0.140145,2.574,3.11008
1.73541,-0.13911,2.555,3.09177
-2.04721,-0.151096,2.951,3.59476
-2.03763,-0.151096,2.951,3.58931
-2.02805,-0.151096,2.951,3.58388
-2.00137,-0.149816,2.926,3.54816
-1.95852,-0.147307,2.877,3.48348
-1.94918,-0.147307,2.877,3.47824
-1.92366,-0.146078,2.853,3.44404
-1.88286,-0.143672,2.806,3.38222
-1.87375,-0.143672,2.806,3.37716
-1.84936,-0.142494,2.783,3.34448
-1.82578,-0.141367,2.761,3.31309
-1.81682,-0.141367,2.761,3.30816
-1.80786,-0.141367,2.761,3.30325
-1.78456,-0.140241,2.739,3.27207
-1.77567,-0.140241,2.739,3.26723
-1.78097,-0.141367,2.761,3.28861
-1.77201,-0.141367,2.761,3.28377
-1.79179,-0.143672,2.806,3.33238
-1.79729,-0.144849,2.829,3.35477
-1.78811,-0.144849,2.829,3.34986
-1.8242,-0.148536,2.901,3.4301
-1.81478,-0.148536,2.901,3.4251
-1.83648,-0.151096,2.951,3.47907
-1.82691,-0.151096,2.951,3.47402
-1.83334,-0.152427,2.977,3.49956
-1.8396,-0.153758,3.003,3.52502
-1.82986,-0.153758,3.003,3.51995
-1.82011,-0.153758,3.003,3.51489
-1.81036,-0.153758,3.003,3.50985
-1.80062,-0.153758,3.003,3.50484
-1.79087,-0.153758,3.003,3.49984
-1.78112,-0.153758,3.003,3.49486
-1.77138,-0.153758,3.003,3.4899
-1.74638,-0.152427,2.977,3.45479
-1.73671,-0.152427,2.977,3.44992
nan,nan,nan,NaN
nan,nan,nan,NaN
nan,nan,nan,NaN
nan,nan,nan,NaN
nan,nan,nan,NaN
nan,nan,nan,NaN
nan,nan,nan,NaN
nan,nan,nan,NaN
nan,nan,nan,NaN
nan,nan,nan,NaN
nan,nan,nan,NaN
nan,nan,nan,NaN
nan,nan,nan,NaN
nan,nan,nan,NaN
nan,nan,nan,NaN
nan,nan,nan,NaN
nan,nan,nan,NaN
nan,nan,nan,NaN
nan,nan,nan,NaN
nan,nan,nan,NaN
nan,nan,nan,NaN
nan,nan,nan,NaN
nan,nan,nan,NaN
nan,nan,nan,NaN
nan,nan,nan,NaN
nan,nan,nan,NaN
nan,nan,nan,NaN
-1.22188,-0.127031,2.481,2.76848
-1.20502,-0.126109,2.463,2.74488
-1.19703,-0.126109,2.463,2.74138
-1.18035,-0.125188,2.445,2.71789
-1.17241,-0.125188,2.445,2.71445
-1.16447,-0.125188,2.445,2.71103
-1.15654,-0.125188,2.445,2.70763
-1.14062,-0.124317,2.428,2.68545
-1.13274,-0.124317,2.428,2.68211
-1.12485,-0.124317,2.428,2.67879
-1.10915,-0.123447,2.411,2.65676
-1.10133,-0.123447,2.411,2.6535
-1.0935,-0.123447,2.411,2.65027
-1.07802,-0.122576,2.394,2.62838
-1.07025,-0.122576,2.394,2.6252
-1.06248,-0.122576,2.394,2.62205
-1.05471,-0.122576,2.394,2.61891
-1.03951,-0.121706,2.377,2.59721
-1.03179,-0.121706,2.377,2.59413
-1.02408,-0.121706,2.377,2.59108
-1.01636,-0.121706,2.377,2.58804
-1.00865,-0.121706,2.377,2.58502
-1.00093,-0.121706,2.377,2.58202
-0.993215,-0.121706,2.377,2.57903
-0.978866,-0.120887,2.361,2.55873
-0.971203,-0.120887,2.361,2.55581
-0.96354,-0.120887,2.361,2.55291
-0.949399,-0.120068,2.345,2.53275
-0.941787,-0.120068,2.345,2.5299
-0.934176,-0.120068,2.345,2.52708
-0.926565,-0.120068,2.345,2.52427
-0.918953,-0.120068,2.345,2.52149
-0.911342,-0.120068,2.345,2.51873
-0.903731,-0.120068,2.345,2.51598
-0.890005,-0.119248,2.329,2.49611
-0.882446,-0.119248,2.329,2.49343
-0.874887,-0.119248,2.329,2.49076
-0.867327,-0.119248,2.329,2.48812
-0.859768,-0.119248,2.329,2.48549
-0.852209,-0.119248,2.329,2.48289
-0.844649,-0.119248,2.329,2.4803
-0.83709,-0.119248,2.329,2.47774
-0.829531,-0.119248,2.329,2.47519
-0.821971,-0.119248,2.329,2.47267
-0.814412,-0.119248,2.329,2.47017
-0.812395,-0.120068,2.345,2.48464
-0.804784,-0.120068,2.345,2.48216
-0.797173,-0.120068,2.345,2.4797
-0.789562,-0.120068,2.345,2.47727
-0.78195,-0.120068,2.345,2.47485
-0.779622,-0.120887,2.361,2.48933
-0.771959,-0.120887,2.361,2.48694
-0.764296,-0.120887,2.361,2.48457
-0.76176,-0.121706,2.377,2.49904
-0.754045,-0.121706,2.377,2.4967
-0.751668,-0.122576,2.394,2.51222
-0.743897,-0.122576,2.394,2.50991
-0.736127,-0.122576,2.394,2.50762
-0.733529,-0.123447,2.411,2.52314
-0.725703,-0.123447,2.411,2.52087
-0.717878,-0.123447,2.411,2.51863
-0.710052,-0.123447,2.411,2.51641
-0.702227,-0.123447,2.411,2.51422
-0.699297,-0.124317,2.428,2.52975
-0.691417,-0.124317,2.428,2.52759
-0.683536,-0.124317,2.428,2.52544
-0.675655,-0.124317,2.428,2.52332
-0.667775,-0.124317,2.428,2.52122
-0.664514,-0.125188,2.445,2.53678
-0.656578,-0.125188,2.445,2.53472
-0.648643,-0.125188,2.445,2.53267
-0.640707,-0.125188,2.445,2.53065
-0.632771,-0.125188,2.445,2.52866
-0.629435,-0.126109,2.463,2.54528
-0.621441,-0.126109,2.463,2.54332
-0.613446,-0.126109,2.463,2.54138
-0.605452,-0.126109,2.463,2.53946
-0.597458,-0.126109,2.463,2.53756
-0.589464,-0.126109,2.463,2.53569
-0.581469,-0.126109,2.463,2.53385
-0.573475,-0.126109,2.463,2.53202
-0.565481,-0.126109,2.463,2.53023
-0.557486,-0.126109,2.463,2.52845
-0.549492,-0.126109,2.463,2.5267
-0.541498,-0.126109,2.463,2.52497
-0.533504,-0.126109,2.463,2.52327
-0.525509,-0.126109,2.463,2.52159
-0.517515,-0.126109,2.463,2.51994
-0.513244,-0.127031,2.481,2.53671
-0.505192,-0.127031,2.481,2.5351
-0.497139,-0.127031,2.481,2.5335
-0.489086,-0.127031,2.481,2.53194
-0.481034,-0.127031,2.481,2.53039
-0.472981,-0.127031,2.481,2.52888
-0.464928,-0.127031,2.481,2.52738
-0.456875,-0.127031,2.481,2.52591
-0.452079,-0.127953,2.499,2.54278
-0.447166,-0.128874,2.517,2.55966
-0.438996,-0.128874,2.517,2.55824
-0.430827,-0.128874,2.517,2.55686
-0.422657,-0.128874,2.517,2.55549
-0.417616,-0.129847,2.536,2.57343
-0.409385,-0.129847,2.536,2.57211
-0.401154,-0.129847,2.536,2.57081
-0.395866,-0.13082,2.555,2.58879
-0.387574,-0.13082,2.555,2.58754
-0.379281,-0.13082,2.555,2.58631
-0.370988,-0.13082,2.555,2.58511
-0.362695,-0.13082,2.555,2.58393
-0.354402,-0.13082,2.555,2.58278
-0.346109,-0.13082,2.555,2.58165
-0.337816,-0.13082,2.555,2.58055
-0.327073,-0.129847,2.536,2.5603
-0.318842,-0.129847,2.536,2.55926
-0.31061,-0.129847,2.536,2.55825
-0.302379,-0.129847,2.536,2.55726
-0.294148,-0.129847,2.536,2.5563
-0.285917,-0.129847,2.536,2.55537
-0.275605,-0.128874,2.517,2.53532
-0.267435,-0.128874,2.517,2.53445
-0.259266,-0.128874,2.517,2.5336
-0.251096,-0.128874,2.517,2.53277
-0.242927,-0.128874,2.517,2.53198
-0.236529,-0.129847,2.536,2.55031
-0.228298,-0.129847,2.536,2.54956
-0.220067,-0.129847,2.536,2.54884
-0.211836,-0.129847,2.536,2.54814
-0.203604,-0.129847,2.536,2.54747
-0.195373,-0.129847,2.536,2.54683
-0.187142,-0.129847,2.536,2.54621
-0.178911,-0.129847,2.536,2.54562
-0.170679,-0.129847,2.536,2.54505
-0.162448,-0.129847,2.536,2.54451
-0.153062,-0.128874,2.517,2.52494
-0.144892,-0.128874,2.517,2.52446
-0.136723,-0.128874,2.517,2.524
-0.128553,-0.128874,2.517,2.52357
-0.120383,-0.128874,2.517,2.52317
-0.112214,-0.128874,2.517,2.52279
-0.104044,-0.128874,2.517,2.52244
-0.0958747,-0.128874,2.517,2.52212
-0.0877052,-0.128874,2.517,2.52182
-0.0795356,-0.128874,2.517,2.52155
-0.0713661,-0.128874,2.517,2.52131
-0.0631965,-0.128874,2.517,2.52109
-0.055027,-0.128874,2.517,2.5209
-0.0468574,-0.128874,2.517,2.52073
-0.0389799,-0.129847,2.536,2.53962
-0.0307487,-0.129847,2.536,2.53951
-0.0226861,-0.13082,2.555,2.55845
-0.0143932,-0.13082,2.555,2.55839
-0.00610034,-0.13082,2.555,2.55835
0.00219255,-0.13082,2.555,2.55835
0.0104854,-0.13082,2.555,2.55837
0.0187783,-0.13082,2.555,2.55842
0.0270712,-0.13082,2.555,2.55849
0.0353641,-0.13082,2.555,2.55859
0.0439817,-0.131793,2.574,2.57775
0.0519499,-0.13082,2.555,2.55887
0.0602428,-0.13082,2.555,2.55906
0.0685357,-0.13082,2.555,2.55926
0.0762573,-0.129847,2.536,2.54047
0.0844885,-0.129847,2.536,2.54073
0.0927197,-0.129847,2.536,2.54101
0.100951,-0.129847,2.536,2.54133
0.109182,-0.129847,2.536,2.54167
0.117413,-0.129847,2.536,2.54204
0.125645,-0.129847,2.536,2.54243
0.133876,-0.129847,2.536,2.54285
0.142107,-0.129847,2.536,2.5433
0.151465,-0.13082,2.555,2.56283
0.159758,-0.13082,2.555,2.56333
0.16805,-0.13082,2.555,2.56386
0.177655,-0.131793,2.574,2.58349
0.186009,-0.131793,2.574,2.58408
0.194364,-0.131793,2.574,2.58469
0.204215,-0.132766,2.593,2.60442
0.212631,-0.132766,2.593,2.60509
0.221047,-0.132766,2.593,2.60579
0.229463,-0.132766,2.593,2.60652
0.23788,-0.132766,2.593,2.60727
0.246296,-0.132766,2.593,2.60805
0.254712,-0.132766,2.593,2.60886
0.263128,-0.132766,2.593,2.6097
0.271545,-0.132766,2.593,2.61056
0.279961,-0.132766,2.593,2.61145
0.288377,-0.132766,2.593,2.61236
0.296793,-0.132766,2.593,2.6133
0.302973,-0.131793,2.574,2.59512
0.311328,-0.131793,2.574,2.59611
0.317323,-0.13082,2.555,2.57795
0.323194,-0.129847,2.536,2.55981
0.328942,-0.128874,2.517,2.54167
0.337112,-0.128874,2.517,2.54274
0.345281,-0.128874,2.517,2.54384
0.353451,-0.128874,2.517,2.54496
0.36162,-0.128874,2.517,2.54611
0.364501,-0.127031,2.481,2.51085
0.372554,-0.127031,2.481,2.51203
0.380606,-0.127031,2.481,2.51324
0.388659,-0.127031,2.481,2.51447
0.396712,-0.127031,2.481,2.51573
0.404765,-0.127031,2.481,2.51701
0.409822,-0.126109,2.463,2.50005
0.417816,-0.126109,2.463,2.50137
0.425811,-0.126109,2.463,2.50272
0.433805,-0.126109,2.463,2.50409
0.441799,-0.126109,2.463,2.50549
0.446507,-0.125188,2.445,2.48859
0.454442,-0.125188,2.445,2.49002
0.462378,-0.125188,2.445,2.49148
0.470314,-0.125188,2.445,2.49297
0.47825,-0.125188,2.445,2.49448
0.486186,-0.125188,2.445,2.49601
0.497759,-0.126109,2.463,2.51596
0.505754,-0.126109,2.463,2.51755
0.513748,-0.126109,2.463,2.51917
0.525555,-0.127031,2.481,2.53923
0.537479,-0.127953,2.499,2.55935
0.54952,-0.128874,2.517,2.57951
0.55769,-0.128874,2.517,2.58126
0.565859,-0.128874,2.517,2.58304
0.578362,-0.129847,2.536,2.60435
0.586593,-0.129847,2.536,2.60619
0.594824,-0.129847,2.536,2.60806
0.607574,-0.13082,2.555,2.6295
0.615867,-0.13082,2.555,2.63143
0.628801,-0.131793,2.574,2.65297
0.637156,-0.131793,2.574,2.65496
0.64551,-0.131793,2.574,2.65698
0.653865,-0.131793,2.574,2.65902
0.657331,-0.13082,2.555,2.64144
0.665624,-0.13082,2.555,2.64352
0.668906,-0.129847,2.536,2.62595
0.677137,-0.129847,2.536,2.62805
0.685368,-0.129847,2.536,2.63019
0.693599,-0.129847,2.536,2.63234
0.696572,-0.128874,2.517,2.61479
0.704742,-0.128874,2.517,2.61698
0.712911,-0.128874,2.517,2.61919
0.721081,-0.128874,2.517,2.62142
0.729251,-0.128874,2.517,2.62368
0.73742,-0.128874,2.517,2.62596
0.74559,-0.128874,2.517,2.62827
0.753759,-0.128874,2.517,2.6306
0.761929,-0.128874,2.517,2.63295
0.764591,-0.127953,2.499,2.61648
0.772702,-0.127953,2.499,2.61886
0.786437,-0.128874,2.517,2.64015
0.788924,-0.127953,2.499,2.62369
0.797036,-0.127953,2.499,2.62615
0.805147,-0.127953,2.499,2.62862
0.813258,-0.127953,2.499,2.63111
0.815453,-0.127031,2.481,2.61466
0.823505,-0.127031,2.481,2.61719
0.831558,-0.127031,2.481,2.61973
0.839611,-0.127031,2.481,2.6223
0.841514,-0.126109,2.463,2.60584
0.849508,-0.126109,2.463,2.60844
0.857502,-0.126109,2.463,2.61105
0.865497,-0.126109,2.463,2.61369
0.873491,-0.126109,2.463,2.61634
0.875043,-0.125188,2.445,2.59988
0.882979,-0.125188,2.445,2.60257
0.890915,-0.125188,2.445,2.60527
0.898851,-0.125188,2.445,2.60799
0.900482,-0.124317,2.428,2.59259
0.902002,-0.123447,2.411,2.57716
0.909828,-0.123447,2.411,2.57991
0.917653,-0.123447,2.411,2.58268
0.918953,-0.122576,2.394,2.56724
0.926724,-0.122576,2.394,2.57003
0.934494,-0.122576,2.394,2.57285
0.935573,-0.121706,2.377,2.55739
0.943288,-0.121706,2.377,2.56022
0.944602,-0.120887,2.361,2.54582
0.952265,-0.120887,2.361,2.54868
0.959929,-0.120887,2.361,2.55155
0.967592,-0.120887,2.361,2.55444
0.975255,-0.120887,2.361,2.55735
0.989579,-0.121706,2.377,2.57764
1.00443,-0.122576,2.394,2.59906
1.0122,-0.122576,2.394,2.60208
1.03445,-0.124317,2.428,2.64211
nan,nan,nan,NaN
nan,nan,nan,NaN
nan,nan,nan,NaN
1.21217,-0.141367,2.761,3.01869
1.22114,-0.141367,2.761,3.0223
1.2301,-0.141367,2.761,3.02593
1.29112,-0.147307,2.877,3.15687
1.3113,-0.148536,2.901,3.18706
1.32072,-0.148536,2.901,3.19095
1.35306,-0.151096,2.951,3.24992
1.38665,-0.153758,3.003,3.31126
1.3964,-0.153758,3.003,3.31535
1.41879,-0.155141,3.03,3.34932
1.42862,-0.155141,3.03,3.3535
1.43846,-0.155141,3.03,3.3577
1.44829,-0.155141,3.03,3.36192
1.47112,-0.156523,3.057,3.39617
1.49412,-0.157906,3.084,3.43051
1.50413,-0.157906,3.084,3.43488
1.52789,-0.159339,3.112,3.4705
1.53799,-0.159339,3.112,3.47496
1.54809,-0.159339,3.112,3.47944
1.55819,-0.159339,3.112,3.48395
1.58291,-0.160824,3.141,3.52099
1.60781,-0.162309,3.17,3.55813
1.6181,-0.162309,3.17,3.56279
1.64328,-0.163794,3.199,3.60011
1.66969,-0.165381,3.23,3.6398
1.68018,-0.165381,3.23,3.64462
1.70636,-0.166917,3.26,3.68336
1.7338,-0.168555,3.292,3.72448
1.74448,-0.168555,3.292,3.72946
1.77223,-0.170194,3.324,3.77077
1.80018,-0.171832,3.356,3.81221
1.84723,-0.175263,3.423,3.89357
1.85834,-0.175263,3.423,3.89886
1.86945,-0.175263,3.423,3.90416
1.88056,-0.175263,3.423,3.9095
1.89167,-0.175263,3.423,3.91485
1.92224,-0.177055,3.458,3.96032
1.93346,-0.177055,3.458,3.96578
1.925,-0.175263,3.423,3.93107
1.93611,-0.175263,3.423,3.93652
1.96713,-0.177055,3.458,3.9823
1.97836,-0.177055,3.458,3.98786
1.98958,-0.177055,3.458,3.99344
1.98055,-0.175263,3.423,3.95857
1.99166,-0.175263,3.423,3.96414
2.00277,-0.175263,3.423,3.96973
1.99388,-0.173522,3.389,3.93586
2.00488,-0.173522,3.389,3.94144
1.99625,-0.171832,3.356,3.90862
1.96887,-0.168555,3.292,3.83955
1.97955,-0.168555,3.292,3.84504
1.99024,-0.168555,3.292,3.85055
1.9444,-0.163794,3.199,3.74715
1.95478,-0.163794,3.199,3.75254
1.92953,-0.160824,3.141,3.68983
1.90453,-0.157906,3.084,3.62811
1.91454,-0.157906,3.084,3.63338
1.9077,-0.156523,3.057,3.60681
1.91762,-0.156523,3.057,3.61207
nan,nan,nan,NaN
1.87028,-0.151096,2.951,3.49703
1.86394,-0.149816,2.926,3.47249
1.82669,-0.146078,2.853,3.39083
1.83595,-0.146078,2.853,3.39583
1.82969,-0.144849,2.829,3.37224
1.79467,-0.141367,2.761,3.29605
1.80364,-0.141367,2.761,3.30094
1.78371,-0.139115,2.717,3.25316
1.77867,-0.138039,2.696,3.23282
1.78743,-0.138039,2.696,3.23765
1.76819,-0.135889,2.654,3.19197
1.74936,-0.13379,2.613,3.14737
1.75784,-0.13379,2.613,3.15209
1.73996,-0.131793,2.574,3.10971
1.73541,-0.13082,2.555,3.0914
-2.04721,-0.14152,2.951,3.59437
-2.02036,-0.140321,2.926,3.55852
-2.01087,-0.140321,2.926,3.55313
-1.98427,-0.139122,2.901,3.51745
-1.95852,-0.137971,2.877,3.4831
-1.94918,-0.137971,2.877,3.47785
-1.92366,-0.13682,2.853,3.44366
-1.88286,-0.134567,2.806,3.38185
-1.87375,-0.134567,2.806,3.37679
-1.84936,-0.133464,2.783,3.34411
-1.82578,-0.132408,2.761,3.31272
-1.81682,-0.132408,2.761,3.30779
-1.80786,-0.132408,2.761,3.30288
-1.78456,-0.131353,2.739,3.2717
-1.77567,-0.131353,2.739,3.26686
-1.78097,-0.132408,2.761,3.28824
-1.77201,-0.132408,2.761,3.28339
-1.79179,-0.134567,2.806,3.332
-1.78268,-0.134567,2.806,3.32711
-1.77357,-0.134567,2.806,3.32224
-1.79402,-0.13682,2.853,3.37296
-1.81478,-0.139122,2.901,3.4247
-1.82093,-0.140321,2.926,3.44919
-1.81143,-0.140321,2.926,3.44419
-1.81733,-0.14152,2.951,3.46859
