-0.309175,-0.258974,2.593,2.62418
-0.303079,-0.260971,2.613,2.64343
-0.294598,-0.260971,2.613,2.64247
-0.286117,-0.260971,2.613,2.64154
-0.277636,-0.260971,2.613,2.64064
-0.269154,-0.260971,2.613,2.63976
-0.260673,-0.260971,2.613,2.63891
-0.252192,-0.260971,2.613,2.63808
-0.243711,-0.260971,2.613,2.63728
-0.23523,-0.260971,2.613,2.63651
-0.226749,-0.260971,2.613,2.63577
-0.216597,-0.258974,2.593,2.61489
-0.208181,-0.258974,2.593,2.6142
-0.199764,-0.258974,2.593,2.61355
-0.191348,-0.258974,2.593,2.61292
-0.182932,-0.258974,2.593,2.61231
-0.173237,-0.257076,2.574,2.5926
-0.164882,-0.257076,2.574,2.59206
-0.157683,-0.258974,2.593,2.61067
-0.149267,-0.258974,2.593,2.61017
-0.139819,-0.257076,2.574,2.59058
-0.131464,-0.257076,2.574,2.59014
-0.12311,-0.257076,2.574,2.58973
-0.114755,-0.257076,2.574,2.58935
-0.107186,-0.258974,2.593,2.6081
-0.0987696,-0.258974,2.593,2.60777
-0.0903534,-0.258974,2.593,2.60747
-0.0819372,-0.258974,2.593,2.60719
-0.073521,-0.258974,2.593,2.60694
-0.0651047,-0.258974,2.593,2.60671
-0.0566885,-0.258974,2.593,2.60652
-0.0482722,-0.258974,2.593,2.60635
-0.039856,-0.258974,2.593,2.60621
-0.0314398,-0.258974,2.593,2.60609
-0.0232011,-0.260971,2.613,2.6261
-0.01472,-0.260971,2.613,2.62604
-0.00623883,-0.260971,2.613,2.62601
0.00224232,-0.260971,2.613,2.626
0.0107235,-0.260971,2.613,2.62602
0.0192046,-0.260971,2.613,2.62607
0.0276858,-0.260971,2.613,2.62615
0.0358901,-0.258974,2.593,2.60615
0.0443063,-0.258974,2.593,2.60628
0.0527226,-0.258974,2.593,2.60643
0.0611388,-0.258974,2.593,2.60662
0.0700915,-0.260971,2.613,2.62694
0.0779713,-0.258974,2.593,2.60707
0.0863875,-0.258974,2.593,2.60733
0.0948037,-0.258974,2.593,2.60762
0.10322,-0.258974,2.593,2.60794
0.111636,-0.258974,2.593,2.60829
0.120052,-0.258974,2.593,2.60866
0.128469,-0.258974,2.593,2.60907
0.136885,-0.258974,2.593,2.60949
0.146422,-0.260971,2.613,2.63008
0.154903,-0.260971,2.613,2.63056
0.163384,-0.260971,2.613,2.63108
0.171865,-0.260971,2.613,2.63162
0.180346,-0.260971,2.613,2.63219
0.188828,-0.260971,2.613,2.63278
0.197309,-0.260971,2.613,2.6334
0.207365,-0.262968,2.633,2.65421
0.215911,-0.262968,2.633,2.65489
0.224457,-0.262968,2.633,2.6556
0.233003,-0.262968,2.633,2.65634
0.241549,-0.262968,2.633,2.6571
0.250095,-0.262968,2.633,2.65789
0.258641,-0.262968,2.633,2.65871
0.267187,-0.262968,2.633,2.65955
0.275734,-0.262968,2.633,2.66043
0.28428,-0.262968,2.633,2.66133
0.292826,-0.262968,2.633,2.66225
0.299083,-0.260971,2.613,2.64298
0.307564,-0.260971,2.613,2.64395
0.316045,-0.260971,2.613,2.64495
0.324526,-0.260971,2.613,2.64598
0.330458,-0.258974,2.593,2.62677
0.338875,-0.258974,2.593,2.62784
0.347291,-0.258974,2.593,2.62894
0.355707,-0.258974,2.593,2.63007
0.364123,-0.258974,2.593,2.63122
0.372539,-0.258974,2.593,2.6324
0.380956,-0.258974,2.593,2.6336
0.389372,-0.258974,2.593,2.63483
0.397788,-0.258974,2.593,2.63609
0.406204,-0.258974,2.593,2.63737
0.414621,-0.258974,2.593,2.63868
0.423037,-0.258974,2.593,2.64001
0.431453,-0.258974,2.593,2.64138
0.439869,-0.258974,2.593,2.64276
0.448286,-0.258974,2.593,2.64418
0.460224,-0.260971,2.613,2.66602
0.468706,-0.260971,2.613,2.6675
0.477187,-0.260971,2.613,2.669
0.485668,-0.260971,2.613,2.67053
0.494149,-0.260971,2.613,2.67209
0.498783,-0.258974,2.593,2.65321
0.507199,-0.258974,2.593,2.6548
0.515615,-0.258974,2.593,2.65642
0.524032,-0.258974,2.593,2.65807
0.532448,-0.258974,2.593,2.65974
0.536901,-0.257076,2.574,2.64194
0.545256,-0.257076,2.574,2.64365
0.549524,-0.255178,2.555,2.62586
0.557817,-0.255178,2.555,2.6276
0.566109,-0.255178,2.555,2.62938
0.574402,-0.255178,2.555,2.63117
0.582695,-0.255178,2.555,2.633
0.590988,-0.255178,2.555,2.63485
0.599281,-0.255178,2.555,2.63672
0.607574,-0.255178,2.555,2.63861
0.615867,-0.255178,2.555,2.64054
0.619518,-0.253281,2.536,2.62283
0.627749,-0.253281,2.536,2.62479
0.635981,-0.253281,2.536,2.62677
0.644212,-0.253281,2.536,2.62877
0.652443,-0.253281,2.536,2.6308
0.660674,-0.253281,2.536,2.63286
0.668906,-0.253281,2.536,2.63493
0.677137,-0.253281,2.536,2.63704
0.685368,-0.253281,2.536,2.63916
0.693599,-0.253281,2.536,2.64131
0.696572,-0.251383,2.517,2.62368
0.704742,-0.251383,2.517,2.62586
0.712911,-0.251383,2.517,2.62807
0.715924,-0.249585,2.499,2.61148
0.724035,-0.249585,2.499,2.61372
0.732147,-0.249585,2.499,2.61598
0.740258,-0.249585,2.499,2.61826
0.748369,-0.249585,2.499,2.62056
0.75648,-0.249585,2.499,2.62289
0.759084,-0.247788,2.481,2.60633
0.767137,-0.247788,2.481,2.60869
0.775189,-0.247788,2.481,2.61107
0.783242,-0.247788,2.481,2.61347
0.791295,-0.247788,2.481,2.6159
0.799347,-0.247788,2.481,2.61834
0.801542,-0.24599,2.463,2.6018
0.809537,-0.24599,2.463,2.60427
0.817531,-0.24599,2.463,2.60677
0.825525,-0.24599,2.463,2.60929
0.833519,-0.24599,2.463,2.61183
0.835364,-0.244192,2.445,2.59528
0.8433,-0.244192,2.445,2.59785
0.851236,-0.244192,2.445,2.60043
0.859171,-0.244192,2.445,2.60304
0.867107,-0.244192,2.445,2.60567
0.868959,-0.242494,2.428,2.59019
0.87684,-0.242494,2.428,2.59284
0.88472,-0.242494,2.428,2.59552
0.886351,-0.240796,2.411,2.58002
0.894177,-0.240796,2.411,2.58272
0.902002,-0.240796,2.411,2.58544
0.909828,-0.240796,2.411,2.58818
0.917653,-0.240796,2.411,2.59094
0.925479,-0.240796,2.411,2.59373
0.933304,-0.240796,2.411,2.59653
0.94113,-0.240796,2.411,2.59935
0.948955,-0.240796,2.411,2.6022
0.956781,-0.240796,2.411,2.60506
0.957805,-0.239099,2.394,2.58956
0.965575,-0.239099,2.394,2.59244
0.980257,-0.240796,2.411,2.61377
0.988083,-0.240796,2.411,2.61672
nan,nan,nan,NaN
nan,nan,nan,NaN
nan,nan,nan,NaN
nan,nan,nan,NaN
nan,nan,nan,NaN
nan,nan,nan,NaN
nan,nan,nan,NaN
nan,nan,nan,NaN
nan,nan,nan,NaN
nan,nan,nan,NaN
nan,nan,nan,NaN
nan,nan,nan,NaN
nan,nan,nan,NaN
nan,nan,nan,NaN
1.74417,-0.379921,3.804,4.20201
1.75652,-0.379921,3.804,4.20715
1.76886,-0.379921,3.804,4.21232
1.76154,-0.375726,3.762,4.17095
1.77375,-0.375726,3.762,4.17612
1.78596,-0.375726,3.762,4.18133
1.79817,-0.375726,3.762,4.18656
1.81038,-0.375726,3.762,4.19181
1.8226,-0.375726,3.762,4.1971
1.83481,-0.375726,3.762,4.20242
1.82689,-0.371631,3.721,4.16191
1.83896,-0.371631,3.721,4.16722
1.85104,-0.371631,3.721,4.17257
1.84309,-0.367637,3.681,4.13303
1.85504,-0.367637,3.681,4.13837
nan,nan,nan,NaN
nan,nan,nan,NaN
nan,nan,nan,NaN
nan,nan,nan,NaN
nan,nan,nan,NaN
nan,nan,nan,NaN
nan,nan,nan,NaN
1.88968,-0.356151,3.566,4.05143
1.88153,-0.352456,3.529,4.01475
1.89298,-0.352456,3.529,4.02013
1.90444,-0.352456,3.529,4.02554
1.91589,-0.352456,3.529,4.03097
1.92734,-0.352456,3.529,4.03642
1.9388,-0.352456,3.529,4.04191
1.93036,-0.34886,3.493,4.00612
1.94169,-0.34886,3.493,4.0116
1.95303,-0.34886,3.493,4.0171
1.94469,-0.345365,3.458,3.98232
1.95591,-0.345365,3.458,3.98781
1.96713,-0.345365,3.458,3.99333
1.97836,-0.345365,3.458,3.99887
1.96944,-0.341869,3.423,3.9639
1.98055,-0.341869,3.423,3.96943
1.99166,-0.341869,3.423,3.97499
2.00277,-0.341869,3.423,3.98057
1.99388,-0.338473,3.389,3.94657
2.00488,-0.338473,3.389,3.95214
1.99625,-0.335177,3.356,3.9192
1.98801,-0.331981,3.324,3.88733
1.99879,-0.331981,3.324,3.89286
1.99024,-0.328786,3.292,3.86088
1.98147,-0.32559,3.26,3.82882
1.99205,-0.32559,3.26,3.8343
1.98421,-0.322593,3.23,3.80448
1.95764,-0.316601,3.17,3.73918
1.96793,-0.316601,3.17,3.74458
1.94202,-0.310808,3.112,3.68138
1.91762,-0.305315,3.057,3.62157
1.92754,-0.305315,3.057,3.62683
1.92035,-0.302618,3.03,3.60003
1.93019,-0.302618,3.03,3.60529
1.94002,-0.302618,3.03,3.61056
1.91575,-0.297325,2.977,3.55261
1.9086,-0.294728,2.951,3.52676
1.90192,-0.292232,2.926,3.50203
1.91142,-0.292232,2.926,3.50719
1.88875,-0.287338,2.877,3.45356
1.86642,-0.282544,2.829,3.40097
1.8756,-0.282544,2.829,3.40602
1.86946,-0.280247,2.806,3.38335
1.84844,-0.275752,2.761,3.33405
1.8574,-0.275752,2.761,3.33903
1.85149,-0.273555,2.739,3.31738
1.83118,-0.269261,2.696,3.27019
-2.08328,-0.290178,3.003,3.66637
-2.07353,-0.290178,3.003,3.66084
-2.06379,-0.290178,3.003,3.65533
-2.05404,-0.290178,3.003,3.64983
-2.04429,-0.290178,3.003,3.64436
-2.03454,-0.290178,3.003,3.6389
-2.0248,-0.290178,3.003,3.63346
-2.03317,-0.292787,3.03,3.66066
-2.02333,-0.292787,3.03,3.6552
-2.0135,-0.292787,3.03,3.64977
-2.03937,-0.298005,3.084,3.7093
-2.04779,-0.30071,3.112,3.73743
-2.05668,-0.303512,3.141,3.76669
-2.04648,-0.303512,3.141,3.76113
-2.07389,-0.309117,3.199,3.82494
-2.0835,-0.312112,3.23,3.85633
-2.07302,-0.312112,3.23,3.85068
-2.08169,-0.315011,3.26,3.88076
-2.07111,-0.315011,3.26,3.87509
-2.06053,-0.315011,3.26,3.86945
-2.07007,-0.318103,3.292,3.90175
-2.05938,-0.318103,3.292,3.89609
-2.06861,-0.321196,3.324,3.92827
-2.05782,-0.321196,3.324,3.9226
-2.06674,-0.324288,3.356,3.95466
-2.05585,-0.324288,3.356,3.94898
-2.04496,-0.324288,3.356,3.94332
-2.03406,-0.324288,3.356,3.93768
-2.02317,-0.324288,3.356,3.93206
-2.01228,-0.324288,3.356,3.92647
-2.02106,-0.327477,3.389,3.95945
nan,nan,nan,NaN
nan,nan,nan,NaN
nan,nan,nan,NaN
nan,nan,nan,NaN
nan,nan,nan,NaN
nan,nan,nan,NaN
nan,nan,nan,NaN
nan,nan,nan,NaN
nan,nan,nan,NaN
nan,nan,nan,NaN
nan,nan,nan,NaN
nan,nan,nan,NaN
nan,nan,nan,NaN
nan,nan,nan,NaN
nan,nan,nan,NaN
nan,nan,nan,NaN
nan,nan,nan,NaN
nan,nan,nan,NaN
nan,nan,nan,NaN
nan,nan,nan,NaN
nan,nan,nan,NaN
nan,nan,nan,NaN
nan,nan,nan,NaN
nan,nan,nan,NaN
nan,nan,nan,NaN
nan,nan,nan,NaN
nan,nan,nan,NaN
nan,nan,nan,NaN
nan,nan,nan,NaN
nan,nan,nan,NaN
nan,nan,nan,NaN
nan,nan,nan,NaN
-1.21383,-0.239737,2.481,2.7724
-1.20578,-0.239737,2.481,2.76889
-1.18904,-0.237998,2.463,2.74533
-1.18104,-0.237998,2.463,2.74187
-1.17305,-0.237998,2.463,2.73844
-1.15654,-0.236259,2.445,2.71504
-1.14062,-0.234616,2.428,2.69281
-1.13274,-0.234616,2.428,2.68948
-1.11698,-0.232973,2.411,2.66737
-1.10133,-0.23133,2.394,2.64531
-1.09356,-0.23133,2.394,2.64209
-1.08579,-0.23133,2.394,2.63888
-1.07802,-0.23133,2.394,2.63569
-1.06265,-0.229688,2.377,2.61383
-1.05494,-0.229688,2.377,2.6107
-1.04017,-0.228142,2.361,2.59004
-1.03251,-0.228142,2.361,2.58698
-1.02485,-0.228142,2.361,2.58393
-1.01029,-0.226596,2.345,2.56341
-1.00268,-0.226596,2.345,2.56042
-0.995066,-0.226596,2.345,2.55745
-0.987455,-0.226596,2.345,2.55449
-0.979844,-0.226596,2.345,2.55156
-0.972232,-0.226596,2.345,2.54865
-0.964621,-0.226596,2.345,2.54575
-0.95701,-0.226596,2.345,2.54288
-0.949399,-0.226596,2.345,2.54003
-0.941787,-0.226596,2.345,2.53719
-0.934176,-0.226596,2.345,2.53437
-0.926565,-0.226596,2.345,2.53158
-0.918953,-0.226596,2.345,2.5288
-0.911342,-0.226596,2.345,2.52605
-0.903731,-0.226596,2.345,2.52331
-0.89612,-0.226596,2.345,2.5206
-0.888508,-0.226596,2.345,2.5179
-0.886907,-0.228142,2.361,2.53239
-0.873286,-0.226596,2.345,2.51257
-0.865674,-0.226596,2.345,2.50993
-0.858063,-0.226596,2.345,2.50732
-0.850452,-0.226596,2.345,2.50472
-0.842841,-0.226596,2.345,2.50215
-0.835229,-0.226596,2.345,2.4996
-0.833265,-0.228142,2.361,2.5141
-0.825602,-0.228142,2.361,2.51157
-0.817938,-0.228142,2.361,2.50906
-0.810275,-0.228142,2.361,2.50657
-0.802612,-0.228142,2.361,2.50411
-0.794949,-0.228142,2.361,2.50166
-0.787286,-0.228142,2.361,2.49924
-0.779622,-0.228142,2.361,2.49683
-0.771959,-0.228142,2.361,2.49445
-0.764296,-0.228142,2.361,2.49209
-0.756633,-0.228142,2.361,2.48975
-0.748969,-0.228142,2.361,2.48743
-0.741306,-0.228142,2.361,2.48514
-0.738615,-0.229688,2.377,2.49969
-0.7309,-0.229688,2.377,2.49742
-0.728357,-0.23133,2.394,2.51302
-0.720586,-0.23133,2.394,2.51078
-0.712816,-0.23133,2.394,2.50856
-0.710052,-0.232973,2.411,2.52416
-0.702227,-0.232973,2.411,2.52197
-0.699297,-0.234616,2.428,2.53757
-0.691417,-0.234616,2.428,2.53541
-0.683536,-0.234616,2.428,2.53327
-0.680386,-0.236259,2.445,2.54888
-0.67245,-0.236259,2.445,2.54677
-0.664514,-0.236259,2.445,2.54469
-0.656578,-0.236259,2.445,2.54262
-0.648643,-0.236259,2.445,2.54059
-0.640707,-0.236259,2.445,2.53857
-0.632771,-0.236259,2.445,2.53658
-0.624835,-0.236259,2.445,2.53461
-0.621441,-0.237998,2.463,2.55131
-0.613446,-0.237998,2.463,2.54938
-0.605452,-0.237998,2.463,2.54747
-0.597458,-0.237998,2.463,2.54558
-0.589464,-0.237998,2.463,2.54371
-0.581469,-0.237998,2.463,2.54187
-0.573475,-0.237998,2.463,2.54006
-0.569613,-0.239737,2.481,2.55681
-0.561561,-0.239737,2.481,2.55503
-0.553508,-0.239737,2.481,2.55327
-0.549413,-0.241477,2.499,2.57005
-0.541301,-0.241477,2.499,2.56833
-0.53319,-0.241477,2.499,2.56663
-0.528861,-0.243216,2.517,2.58344
-0.520692,-0.243216,2.517,2.58178
-0.512522,-0.243216,2.517,2.58014
-0.50816,-0.245052,2.536,2.59799
-0.499929,-0.245052,2.536,2.5964
-0.491697,-0.245052,2.536,2.59482
-0.487088,-0.246888,2.555,2.61271
-0.478795,-0.246888,2.555,2.61117
-0.470502,-0.246888,2.555,2.60966
-0.46221,-0.246888,2.555,2.60818
-0.457292,-0.248724,2.574,2.62611
-0.448938,-0.248724,2.574,2.62467
-0.440583,-0.248724,2.574,2.62325
-0.432229,-0.248724,2.574,2.62186
-0.423874,-0.248724,2.574,2.6205
-0.415519,-0.248724,2.574,2.61916
-0.407165,-0.248724,2.574,2.61785
-0.39881,-0.248724,2.574,2.61656
-0.390456,-0.248724,2.574,2.6153
-0.382101,-0.248724,2.574,2.61407
-0.373747,-0.248724,2.574,2.61286
-0.365392,-0.248724,2.574,2.61168
-0.357037,-0.248724,2.574,2.61052
-0.348683,-0.248724,2.574,2.60939
-0.34284,-0.25056,2.593,2.62754
-0.334424,-0.25056,2.593,2.62646
-0.326008,-0.25056,2.593,2.6254
-0.317592,-0.25056,2.593,2.62437
-0.309175,-0.25056,2.593,2.62336
-0.303079,-0.252492,2.613,2.64261
-0.294598,-0.252492,2.613,2.64165
-0.286117,-0.252492,2.613,2.64072
-0.277636,-0.252492,2.613,2.63981
-0.271215,-0.254425,2.633,2.65913
-0.262669,-0.254425,2.633,2.65827
-0.254122,-0.254425,2.633,2.65744
-0.243711,-0.252492,2.613,2.63646
-0.23523,-0.252492,2.613,2.63569
-0.226749,-0.252492,2.613,2.63495
-0.218268,-0.252492,2.613,2.63423
-0.209786,-0.252492,2.613,2.63354
-0.199764,-0.25056,2.593,2.61273
-0.191348,-0.25056,2.593,2.6121
-0.182932,-0.25056,2.593,2.61149
-0.174516,-0.25056,2.593,2.61092
-0.1661,-0.25056,2.593,2.61037
-0.157683,-0.25056,2.593,2.60985
-0.149267,-0.25056,2.593,2.60935
-0.139819,-0.248724,2.574,2.58977
-0.131464,-0.248724,2.574,2.58933
-0.12311,-0.248724,2.574,2.58892
-0.114755,-0.248724,2.574,2.58853
-0.107186,-0.25056,2.593,2.60728
-0.0987696,-0.25056,2.593,2.60695
-0.0903534,-0.25056,2.593,2.60664
-0.0819372,-0.25056,2.593,2.60637
-0.073521,-0.25056,2.593,2.60612
-0.0651047,-0.25056,2.593,2.60589
-0.0566885,-0.25056,2.593,2.60569
-0.0482722,-0.25056,2.593,2.60553
-0.039856,-0.25056,2.593,2.60538
-0.0314398,-0.25056,2.593,2.60527
-0.0232011,-0.252492,2.613,2.62527
-0.01472,-0.252492,2.613,2.62521
-0.00623883,-0.252492,2.613,2.62518
0.00224232,-0.252492,2.613,2.62517
0.0107235,-0.252492,2.613,2.62519
0.0192046,-0.252492,2.613,2.62524
0.0276858,-0.252492,2.613,2.62532
0.0358901,-0.25056,2.593,2.60532
0.0443063,-0.25056,2.593,2.60545
0.0527226,-0.25056,2.593,2.60561
0.0611388,-0.25056,2.593,2.6058
0.0700915,-0.252492,2.613,2.62611
0.0779713,-0.25056,2.593,2.60624
0.0863875,-0.25056,2.593,2.60651
0.0948037,-0.25056,2.593,2.6068
0.10322,-0.25056,2.593,2.60712
0.111636,-0.25056,2.593,2.60747
0.120052,-0.25056,2.593,2.60784
0.128469,-0.25056,2.593,2.60824
0.136885,-0.25056,2.593,2.60867
0.146422,-0.252492,2.613,2.62925
0.154903,-0.252492,2.613,2.62974
0.163384,-0.252492,2.613,2.63025
0.171865,-0.252492,2.613,2.63079
0.181727,-0.254425,2.633,2.6515
0.190273,-0.254425,2.633,2.6521
0.198819,-0.254425,2.633,2.65273
0.207365,-0.254425,2.633,2.65338
0.215911,-0.254425,2.633,2.65406
0.224457,-0.254425,2.633,2.65477
0.233003,-0.254425,2.633,2.65551
0.241549,-0.254425,2.633,2.65627
0.250095,-0.254425,2.633,2.65706
0.258641,-0.254425,2.633,2.65788
0.267187,-0.254425,2.633,2.65872
0.275734,-0.254425,2.633,2.6596
0.28428,-0.254425,2.633,2.6605
0.292826,-0.254425,2.633,2.66142
0.299083,-0.252492,2.613,2.64215
0.307564,-0.252492,2.613,2.64313
0.316045,-0.252492,2.613,2.64413
0.324526,-0.252492,2.613,2.64515
0.330458,-0.25056,2.593,2.62595
0.338875,-0.25056,2.593,2.62703
0.347291,-0.25056,2.593,2.62812
0.355707,-0.25056,2.593,2.62925
0.364123,-0.25056,2.593,2.6304
0.372539,-0.25056,2.593,2.63158
0.380956,-0.25056,2.593,2.63279
0.389372,-0.25056,2.593,2.63402
0.397788,-0.25056,2.593,2.63527
0.406204,-0.25056,2.593,2.63656
0.414621,-0.25056,2.593,2.63787
0.4263,-0.252492,2.613,2.65956
0.434781,-0.252492,2.613,2.66093
0.443262,-0.252492,2.613,2.66233
0.451743,-0.252492,2.613,2.66376
0.460224,-0.252492,2.613,2.66521
0.468706,-0.252492,2.613,2.66668
0.477187,-0.252492,2.613,2.66819
0.485668,-0.252492,2.613,2.66972
0.494149,-0.252492,2.613,2.67127
0.498783,-0.25056,2.593,2.6524
0.507199,-0.25056,2.593,2.65399
0.515615,-0.25056,2.593,2.65561
0.524032,-0.25056,2.593,2.65726
0.532448,-0.25056,2.593,2.65893
0.536901,-0.248724,2.574,2.64114
0.545256,-0.248724,2.574,2.64285
0.549524,-0.246888,2.555,2.62506
0.557817,-0.246888,2.555,2.62681
0.566109,-0.246888,2.555,2.62858
0.574402,-0.246888,2.555,2.63038
0.582695,-0.246888,2.555,2.63221
0.590988,-0.246888,2.555,2.63405
0.599281,-0.246888,2.555,2.63593
0.607574,-0.246888,2.555,2.63783
0.615867,-0.246888,2.555,2.63975
0.619518,-0.245052,2.536,2.62205
0.627749,-0.245052,2.536,2.62401
0.635981,-0.245052,2.536,2.62599
0.644212,-0.245052,2.536,2.62799
0.657331,-0.246888,2.555,2.64973
0.665624,-0.246888,2.555,2.6518
0.668906,-0.245052,2.536,2.63416
0.677137,-0.245052,2.536,2.63626
0.685368,-0.245052,2.536,2.63839
0.688403,-0.243216,2.517,2.62075
0.696572,-0.243216,2.517,2.62291
0.704742,-0.243216,2.517,2.62509
0.707813,-0.241477,2.499,2.60851
0.715924,-0.241477,2.499,2.61072
0.724035,-0.241477,2.499,2.61296
0.732147,-0.241477,2.499,2.61522
0.740258,-0.241477,2.499,2.6175
0.748369,-0.241477,2.499,2.6198
0.75648,-0.241477,2.499,2.62213
0.759084,-0.239737,2.481,2.60558
0.767137,-0.239737,2.481,2.60794
0.775189,-0.239737,2.481,2.61032
0.783242,-0.239737,2.481,2.61272
0.785554,-0.237998,2.463,2.59617
0.793548,-0.237998,2.463,2.5986
0.801542,-0.237998,2.463,2.60105
0.809537,-0.237998,2.463,2.60353
0.817531,-0.237998,2.463,2.60603
0.825525,-0.237998,2.463,2.60854
0.833519,-0.237998,2.463,2.61109
0.835364,-0.236259,2.445,2.59455
0.8433,-0.236259,2.445,2.59711
0.851236,-0.236259,2.445,2.5997
0.859171,-0.236259,2.445,2.60231
0.867107,-0.236259,2.445,2.60494
0.868959,-0.234616,2.428,2.58946
0.87684,-0.234616,2.428,2.59212
0.88472,-0.234616,2.428,2.59479
0.886351,-0.232973,2.411,2.57931
0.894177,-0.232973,2.411,2.58201
0.902002,-0.232973,2.411,2.58473
0.909828,-0.232973,2.411,2.58747
0.917653,-0.232973,2.411,2.59023
0.925479,-0.232973,2.411,2.59301
0.933304,-0.232973,2.411,2.59581
0.94113,-0.232973,2.411,2.59864
0.948955,-0.232973,2.411,2.60148
0.956781,-0.232973,2.411,2.60435
0.957805,-0.23133,2.394,2.58885
0.965575,-0.23133,2.394,2.59173
0.980257,-0.232973,2.411,2.61306
0.988083,-0.232973,2.411,2.61601
nan,nan,nan,NaN
nan,nan,nan,NaN
nan,nan,nan,NaN
nan,nan,nan,NaN
nan,nan,nan,NaN
nan,nan,nan,NaN
nan,nan,nan,NaN
nan,nan,nan,NaN
nan,nan,nan,NaN
nan,nan,nan,NaN
nan,nan,nan,NaN
nan,nan,nan,NaN
nan,nan,nan,NaN
nan,nan,nan,NaN
1.74417,-0.367578,3.804,4.20091
1.75652,-0.367578,3.804,4.20605
1.76886,-0.367578,3.804,4.21122
1.78121,-0.367578,3.804,4.21642
1.79356,-0.367578,3.804,4.22166
1.8059,-0.367578,3.804,4.22692
1.81825,-0.367578,3.804,4.23221
1.81038,-0.363519,3.762,4.19074
1.8226,-0.363519,3.762,4.19603
1.83481,-0.363519,3.762,4.20135
1.84702,-0.363519,3.762,4.20669
1.85923,-0.363519,3.762,4.21207
1.87144,-0.363519,3.762,4.21747
1.88365,-0.363519,3.762,4.2229
1.89586,-0.363519,3.762,4.22836
nan,nan,nan,NaN
nan,nan,nan,NaN
nan,nan,nan,NaN
nan,nan,nan,NaN
nan,nan,nan,NaN
nan,nan,nan,NaN
nan,nan,nan,NaN
1.90982,-0.348252,3.604,4.09359
1.90125,-0.34458,3.566,4.05584
1.91283,-0.34458,3.566,4.06128
1.9244,-0.34458,3.566,4.06675
1.91589,-0.341005,3.529,4.02998
1.92734,-0.341005,3.529,4.03544
1.9388,-0.341005,3.529,4.04092
1.93036,-0.337526,3.493,4.00515
1.94169,-0.337526,3.493,4.01063
1.95303,-0.337526,3.493,4.01613
1.94469,-0.334144,3.458,3.98136
1.95591,-0.334144,3.458,3.98685
1.96713,-0.334144,3.458,3.99237
1.97836,-0.334144,3.458,3.99791
1.96944,-0.330762,3.423,3.96296
1.98055,-0.330762,3.423,3.96849
1.99166,-0.330762,3.423,3.97405
2.00277,-0.330762,3.423,3.97963
1.99388,-0.327477,3.389,3.94565
2.00488,-0.327477,3.389,3.95122
1.99625,-0.324288,3.356,3.91828
1.98801,-0.321196,3.324,3.88643
1.99879,-0.321196,3.324,3.89196
1.99024,-0.318103,3.292,3.85999
1.96324,-0.312112,3.23,3.79271
1.97372,-0.312112,3.23,3.79814
1.98421,-0.312112,3.23,3.8036
nan,nan,nan,NaN
nan,nan,nan,NaN
1.94202,-0.30071,3.112,3.68055
1.91762,-0.295396,3.057,3.62074
1.92754,-0.295396,3.057,3.62601
1.92035,-0.292787,3.03,3.59922
1.91299,-0.290178,3.003,3.57236
1.92273,-0.290178,3.003,3.57759
1.91575,-0.287665,2.977,3.55181
1.89243,-0.282737,2.926,3.4961
1.88567,-0.280321,2.901,3.47133
1.89509,-0.280321,2.901,3.47646
1.87299,-0.275683,2.853,3.42399
1.86642,-0.273364,2.829,3.40022
1.8756,-0.273364,2.829,3.40527
1.85414,-0.268919,2.783,3.35488
1.84844,-0.266793,2.761,3.33332
1.8574,-0.266793,2.761,3.3383
1.85149,-0.264668,2.739,3.31666
1.83118,-0.260512,2.696,3.26948
-2.08328,-0.280433,3.003,3.66561
-2.07353,-0.280433,3.003,3.66008
-2.06379,-0.280433,3.003,3.65457
-2.05404,-0.280433,3.003,3.64907
-2.04429,-0.280433,3.003,3.64359
-2.03454,-0.280433,3.003,3.63813
-2.0248,-0.280433,3.003,3.63269
-2.03317,-0.282955,3.03,3.65988
-2.02333,-0.282955,3.03,3.65443
-2.0135,-0.282955,3.03,3.64899
-2.03937,-0.287998,3.084,3.70851
-2.04779,-0.290612,3.112,3.73663
-2.05668,-0.29332,3.141,3.76588
-2.04648,-0.29332,3.141,3.76032
-2.07389,-0.298737,3.199,3.82411
-2.0835,-0.301632,3.23,3.8555
-2.07302,-0.301632,3.23,3.84984
-2.08169,-0.304433,3.26,3.87991
-2.07111,-0.304433,3.26,3.87424
-2.06053,-0.304433,3.26,3.8686
-2.07007,-0.307422,3.292,3.90089
-2.05938,-0.307422,3.292,3.89523
-2.06861,-0.31041,3.324,3.9274
-2.05782,-0.31041,3.324,3.92173
-2.06674,-0.313398,3.356,3.95378
-2.05585,-0.313398,3.356,3.9481
-2.04496,-0.313398,3.356,3.94244
-2.03406,-0.313398,3.356,3.9368
-2.02317,-0.313398,3.356,3.93118
-2.01228,-0.313398,3.356,3.92558
-2.02106,-0.31648,3.389,3.95856
nan,nan,nan,NaN
nan,nan,nan,NaN
nan,nan,nan,NaN
nan,nan,nan,NaN
nan,nan,nan,NaN
nan,nan,nan,NaN
nan,nan,nan,NaN
nan,nan,nan,NaN
nan,nan,nan,NaN
nan,nan,nan,NaN
nan,nan,nan,NaN
nan,nan,nan,NaN
nan,nan,nan,NaN
nan,nan,nan,NaN
nan,nan,nan,NaN
nan,nan,nan,NaN
nan,nan,nan,NaN
nan,nan,nan,NaN
nan,nan,nan,NaN
nan,nan,nan,NaN
nan,nan,nan,NaN
nan,nan,nan,NaN
nan,nan,nan,NaN
nan,nan,nan,NaN
nan,nan,nan,NaN
nan,nan,nan,NaN
nan,nan,nan,NaN
nan,nan,nan,NaN
nan,nan,nan,NaN
nan,nan,nan,NaN
nan,nan,nan,NaN
nan,nan,nan,NaN
-1.21383,-0.231687,2.481,2.77172
-1.20578,-0.231687,2.481,2.7682
-1.18904,-0.230006,2.463,2.74465
-1.18104,-0.230006,2.463,2.74119
-1.17305,-0.230006,2.463,2.73776
-1.15654,-0.228325,2.445,2.71436
-1.14062,-0.226737,2.428,2.69214
-1.13274,-0.226737,2.428,2.68881
-1.11698,-0.22515,2.411,2.66669
-1.10133,-0.223562,2.394,2.64465
-1.09356,-0.223562,2.394,2.64142
-1.08579,-0.223562,2.394,2.63821
-1.07802,-0.223562,2.394,2.63502
-1.06265,-0.221975,2.377,2.61316
-1.05494,-0.221975,2.377,2.61004
-1.04017,-0.220481,2.361,2.58938
-1.03251,-0.220481,2.361,2.58631
-1.02485,-0.220481,2.361,2.58326
-1.01029,-0.218986,2.345,2.56275
-1.00268,-0.218986,2.345,2.55975
-0.995066,-0.218986,2.345,2.55678
-0.987455,-0.218986,2.345,2.55383
-0.979844,-0.218986,2.345,2.5509
-0.972232,-0.218986,2.345,2.54798
-0.964621,-0.218986,2.345,2.54509
-0.95701,-0.218986,2.345,2.54221
-0.949399,-0.218986,2.345,2.53936
-0.941787,-0.218986,2.345,2.53652
-0.934176,-0.218986,2.345,2.53371
-0.926565,-0.218986,2.345,2.53091
-0.918953,-0.218986,2.345,2.52813
-0.911342,-0.218986,2.345,2.52538
-0.903731,-0.218986,2.345,2.52264
-0.89612,-0.218986,2.345,2.51992
-0.888508,-0.218986,2.345,2.51723
-0.886907,-0.220481,2.361,2.53171
-0.879244,-0.220481,2.361,2.52903
-0.871581,-0.220481,2.361,2.52638
-0.863918,-0.220481,2.361,2.52374
-0.856255,-0.220481,2.361,2.52113
-0.848591,-0.220481,2.361,2.51854
-0.840928,-0.220481,2.361,2.51597
-0.833265,-0.220481,2.361,2.51342
-0.825602,-0.220481,2.361,2.51089
-0.817938,-0.220481,2.361,2.50838
-0.810275,-0.220481,2.361,2.50589
-0.802612,-0.220481,2.361,2.50342
-0.794949,-0.220481,2.361,2.50098
-0.787286,-0.220481,2.361,2.49855
-0.784906,-0.221975,2.377,2.51306
-0.777191,-0.221975,2.377,2.51066
-0.769475,-0.221975,2.377,2.50829
-0.76176,-0.221975,2.377,2.50593
-0.754045,-0.221975,2.377,2.50359
-0.74633,-0.221975,2.377,2.50128
-0.738615,-0.221975,2.377,2.49899
-0.736127,-0.223562,2.394,2.51458
-0.728357,-0.223562,2.394,2.51231
-0.720586,-0.223562,2.394,2.51007
-0.717878,-0.22515,2.411,2.52566
-0.715059,-0.226737,2.428,2.54124
-0.707178,-0.226737,2.428,2.53903
-0.699297,-0.226737,2.428,2.53685
-0.691417,-0.226737,2.428,2.53469
-0.683536,-0.226737,2.428,2.53255
-0.680386,-0.228325,2.445,2.54815
-0.67245,-0.228325,2.445,2.54605
-0.664514,-0.228325,2.445,2.54396
-0.656578,-0.228325,2.445,2.5419
-0.653418,-0.230006,2.463,2.55856
-0.645424,-0.230006,2.463,2.55653
-0.637429,-0.230006,2.463,2.55452
-0.629435,-0.230006,2.463,2.55254
-0.621441,-0.230006,2.463,2.55058
-0.613446,-0.230006,2.463,2.54864
-0.605452,-0.230006,2.463,2.54673
-0.597458,-0.230006,2.463,2.54484
-0.589464,-0.230006,2.463,2.54298
-0.581469,-0.230006,2.463,2.54114
-0.577666,-0.231687,2.481,2.55788
-0.569613,-0.231687,2.481,2.55607
-0.561561,-0.231687,2.481,2.55429
-0.553508,-0.231687,2.481,2.55253
-0.549413,-0.233368,2.499,2.5693
-0.541301,-0.233368,2.499,2.56758
-0.53319,-0.233368,2.499,2.56588
-0.525079,-0.233368,2.499,2.56421
-0.516968,-0.233368,2.499,2.56256
-0.512522,-0.235049,2.517,2.57938
-0.50816,-0.236823,2.536,2.59723
-0.499929,-0.236823,2.536,2.59563
-0.491697,-0.236823,2.536,2.59406
-0.487088,-0.238597,2.555,2.61194
-0.478795,-0.238597,2.555,2.6104
-0.470502,-0.238597,2.555,2.60889
-0.465647,-0.240371,2.574,2.6268
-0.457292,-0.240371,2.574,2.62533
-0.448938,-0.240371,2.574,2.62389
-0.440583,-0.240371,2.574,2.62247
-0.432229,-0.240371,2.574,2.62108
-0.423874,-0.240371,2.574,2.61972
-0.415519,-0.240371,2.574,2.61838
-0.407165,-0.240371,2.574,2.61707
-0.39881,-0.240371,2.574,2.61578
-0.390456,-0.240371,2.574,2.61452
-0.382101,-0.240371,2.574,2.61328
-0.373747,-0.240371,2.574,2.61208
-0.365392,-0.240371,2.574,2.61089
-0.357037,-0.240371,2.574,2.60974
-0.348683,-0.240371,2.574,2.60861
-0.340328,-0.240371,2.574,2.6075
-0.331974,-0.240371,2.574,2.60643
-0.326008,-0.242146,2.593,2.62461
-0.317592,-0.242146,2.593,2.62358
-0.309175,-0.242146,2.593,2.62257
-0.303079,-0.244013,2.613,2.64181
-0.294598,-0.244013,2.613,2.64085
-0.286117,-0.244013,2.613,2.63992
-0.277636,-0.244013,2.613,2.63901
-0.271215,-0.245881,2.633,2.65833
-0.262669,-0.245881,2.633,2.65747
-0.254122,-0.245881,2.633,2.65664
-0.245576,-0.245881,2.633,2.65583
-0.23703,-0.245881,2.633,2.65506
-0.226749,-0.244013,2.613,2.63415
-0.218268,-0.244013,2.613,2.63343
-0.209786,-0.244013,2.613,2.63274
-0.201305,-0.244013,2.613,2.63208
-0.191348,-0.242146,2.593,2.6113
-0.182932,-0.242146,2.593,2.6107
-0.174516,-0.242146,2.593,2.61012
-0.1661,-0.242146,2.593,2.60957
-0.157683,-0.242146,2.593,2.60905
-0.149267,-0.242146,2.593,2.60856
-0.140851,-0.242146,2.593,2.60809
-0.131464,-0.240371,2.574,2.58854
-0.12311,-0.240371,2.574,2.58813
-0.114755,-0.240371,2.574,2.58774
-0.107186,-0.242146,2.593,2.60649
-0.0987696,-0.242146,2.593,2.60615
-0.0903534,-0.242146,2.593,2.60585
-0.0819372,-0.242146,2.593,2.60557
-0.073521,-0.242146,2.593,2.60532
-0.0651047,-0.242146,2.593,2.6051
-0.0566885,-0.242146,2.593,2.6049
-0.0482722,-0.242146,2.593,2.60473
-0.039856,-0.242146,2.593,2.60459
-0.0314398,-0.242146,2.593,2.60447
-0.0232011,-0.244013,2.613,2.62447
-0.01472,-0.244013,2.613,2.62441
-0.00623883,-0.244013,2.613,2.62438
0.00224232,-0.244013,2.613,2.62437
0.0107235,-0.244013,2.613,2.62439
0.0192046,-0.244013,2.613,2.62444
0.0276858,-0.244013,2.613,2.62452
0.0358901,-0.242146,2.593,2.60453
0.0443063,-0.242146,2.593,2.60466
0.0527226,-0.242146,2.593,2.60482
0.0616104,-0.244013,2.613,2.62509
0.0700915,-0.244013,2.613,2.6253
0.0779713,-0.242146,2.593,2.60545
0.0863875,-0.242146,2.593,2.60571
0.0948037,-0.242146,2.593,2.60601
0.10322,-0.242146,2.593,2.60633
0.111636,-0.242146,2.593,2.60667
0.120052,-0.242146,2.593,2.60705
0.128469,-0.242146,2.593,2.60745
0.136885,-0.242146,2.593,2.60788
0.146422,-0.244013,2.613,2.62845
0.154903,-0.244013,2.613,2.62894
0.163384,-0.244013,2.613,2.62945
0.171865,-0.244013,2.613,2.62999
0.181727,-0.245881,2.633,2.65069
0.190273,-0.245881,2.633,2.65129
0.198819,-0.245881,2.633,2.65192
0.207365,-0.245881,2.633,2.65257
0.215911,-0.245881,2.633,2.65326
0.224457,-0.245881,2.633,2.65396
0.233003,-0.245881,2.633,2.6547
0.241549,-0.245881,2.633,2.65546
0.250095,-0.245881,2.633,2.65626
0.258641,-0.245881,2.633,2.65707
0.267187,-0.245881,2.633,2.65792
0.275734,-0.245881,2.633,2.65879
0.28428,-0.245881,2.633,2.65969
0.292826,-0.245881,2.633,2.66062
0.299083,-0.244013,2.613,2.64136
0.307564,-0.244013,2.613,2.64233
0.316045,-0.244013,2.613,2.64333
0.324526,-0.244013,2.613,2.64436
0.330458,-0.242146,2.593,2.62516
0.338875,-0.242146,2.593,2.62624
0.347291,-0.242146,2.593,2.62734
0.355707,-0.242146,2.593,2.62846
0.364123,-0.242146,2.593,2.62961
0.372539,-0.242146,2.593,2.63079
0.380956,-0.242146,2.593,2.632
0.389372,-0.242146,2.593,2.63323
0.397788,-0.242146,2.593,2.63449
0.406204,-0.242146,2.593,2.63577
0.414621,-0.242146,2.593,2.63708
0.4263,-0.244013,2.613,2.65877
0.434781,-0.244013,2.613,2.66014
0.443262,-0.244013,2.613,2.66154
0.451743,-0.244013,2.613,2.66297
0.460224,-0.244013,2.613,2.66442
0.468706,-0.244013,2.613,2.6659
0.477187,-0.244013,2.613,2.6674
0.485668,-0.244013,2.613,2.66893
0.494149,-0.244013,2.613,2.67049
0.498783,-0.242146,2.593,2.65162
0.507199,-0.242146,2.593,2.65321
0.511837,-0.240371,2.574,2.63538
0.520192,-0.240371,2.574,2.63702
0.528546,-0.240371,2.574,2.63868
0.536901,-0.240371,2.574,2.64036
0.545256,-0.240371,2.574,2.64207
0.549524,-0.238597,2.555,2.6243
0.557817,-0.238597,2.555,2.62605
0.566109,-0.238597,2.555,2.62782
0.574402,-0.238597,2.555,2.62962
0.582695,-0.238597,2.555,2.63144
0.590988,-0.238597,2.555,2.63329
0.599281,-0.238597,2.555,2.63516
0.607574,-0.238597,2.555,2.63706
0.615867,-0.238597,2.555,2.63899
0.619518,-0.236823,2.536,2.62129
0.627749,-0.236823,2.536,2.62325
0.635981,-0.236823,2.536,2.62523
0.644212,-0.236823,2.536,2.62724
0.657331,-0.238597,2.555,2.64897
0.665624,-0.238597,2.555,2.65104
0.668906,-0.236823,2.536,2.6334
0.677137,-0.236823,2.536,2.63551
0.685368,-0.236823,2.536,2.63763
0.688403,-0.235049,2.517,2.62001
0.696572,-0.235049,2.517,2.62217
0.704742,-0.235049,2.517,2.62435
0.707813,-0.233368,2.499,2.60777
0.715924,-0.233368,2.499,2.60998
0.724035,-0.233368,2.499,2.61222
0.732147,-0.233368,2.499,2.61448
0.740258,-0.233368,2.499,2.61676
0.748369,-0.233368,2.499,2.61907
0.75648,-0.233368,2.499,2.6214
0.759084,-0.231687,2.481,2.60485
0.767137,-0.231687,2.481,2.60721
0.775189,-0.231687,2.481,2.60959
0.783242,-0.231687,2.481,2.61199
0.785554,-0.230006,2.463,2.59545
0.793548,-0.230006,2.463,2.59788
0.801542,-0.230006,2.463,2.60033
0.809537,-0.230006,2.463,2.60281
0.817531,-0.230006,2.463,2.60531
0.825525,-0.230006,2.463,2.60783
0.833519,-0.230006,2.463,2.61037
0.835364,-0.228325,2.445,2.59384
0.8433,-0.228325,2.445,2.5964
0.851236,-0.228325,2.445,2.59899
0.859171,-0.228325,2.445,2.6016
0.867107,-0.228325,2.445,2.60423
0.868959,-0.226737,2.428,2.58876
0.87684,-0.226737,2.428,2.59142
0.88472,-0.226737,2.428,2.59409
0.892601,-0.226737,2.428,2.59679
0.894177,-0.22515,2.411,2.58131
0.902002,-0.22515,2.411,2.58403
0.909828,-0.22515,2.411,2.58677
0.917653,-0.22515,2.411,2.58954
0.925479,-0.22515,2.411,2.59232
0.933304,-0.22515,2.411,2.59512
0.94113,-0.22515,2.411,2.59795
0.948955,-0.22515,2.411,2.60079
0.956781,-0.22515,2.411,2.60366
0.964606,-0.22515,2.411,2.60655
0.972432,-0.22515,2.411,2.60945
0.980257,-0.22515,2.411,2.61238
0.988083,-0.22515,2.411,2.61532
nan,nan,nan,NaN
nan,nan,nan,NaN
nan,nan,nan,NaN
nan,nan,nan,NaN
nan,nan,nan,NaN
nan,nan,nan,NaN
nan,nan,nan,NaN
nan,nan,nan,NaN
nan,nan,nan,NaN
nan,nan,nan,NaN
nan,nan,nan,NaN
nan,nan,nan,NaN
nan,nan,nan,NaN
nan,nan,nan,NaN
1.74417,-0.355234,3.804,4.19985
1.75652,-0.355234,3.804,4.20499
1.76886,-0.355234,3.804,4.21016
1.78121,-0.355234,3.804,4.21537
1.79356,-0.355234,3.804,4.2206
1.8059,-0.355234,3.804,4.22586
1.81825,-0.355234,3.804,4.23115
1.8306,-0.355234,3.804,4.23647
1.84294,-0.355234,3.804,4.24182
1.85529,-0.355234,3.804,4.2472
1.86764,-0.355234,3.804,4.25261
1.87998,-0.355234,3.804,4.25805
1.89233,-0.355234,3.804,4.26351
1.88365,-0.351312,3.762,4.22187
1.89586,-0.351312,3.762,4.22733
nan,nan,nan,NaN
1.92028,-0.351312,3.762,4.23834
1.93249,-0.351312,3.762,4.24389
nan,nan,nan,NaN
nan,nan,nan,NaN
nan,nan,nan,NaN
nan,nan,nan,NaN
1.92995,-0.340106,3.642,4.13577
1.92151,-0.336557,3.604,4.09808
1.91283,-0.333009,3.566,4.06032
1.9244,-0.333009,3.566,4.06578
1.93598,-0.333009,3.566,4.07127
1.92734,-0.329554,3.529,4.03449
1.9388,-0.329554,3.529,4.03997
1.93036,-0.326192,3.493,4.00421
1.94169,-0.326192,3.493,4.00969
1.95303,-0.326192,3.493,4.01519
1.96437,-0.326192,3.493,4.02072
1.95591,-0.322923,3.458,3.98593
1.96713,-0.322923,3.458,3.99145
1.97836,-0.322923,3.458,3.99699
1.96944,-0.319655,3.423,3.96205
1.98055,-0.319655,3.423,3.96758
1.99166,-0.319655,3.423,3.97314
2.00277,-0.319655,3.423,3.97872
1.99388,-0.31648,3.389,3.94475
2.00488,-0.31648,3.389,3.95032
1.99625,-0.313398,3.356,3.91739
1.98801,-0.31041,3.324,3.88555
1.99879,-0.31041,3.324,3.89108
1.99024,-0.307422,3.292,3.85912
1.96324,-0.301632,3.23,3.79186
1.97372,-0.301632,3.23,3.7973
1.98421,-0.301632,3.23,3.80276
nan,nan,nan,NaN
nan,nan,nan,NaN
nan,nan,nan,NaN
1.91762,-0.285476,3.057,3.61995
1.92754,-0.285476,3.057,3.62521
1.92035,-0.282955,3.03,3.59843
1.91299,-0.280433,3.003,3.57158
1.92273,-0.280433,3.003,3.57681
1.91575,-0.278005,2.977,3.55104
1.89243,-0.273243,2.926,3.49534
1.88567,-0.270908,2.901,3.47059
1.89509,-0.270908,2.901,3.47571
1.87299,-0.266426,2.853,3.42326
1.86642,-0.264185,2.829,3.39949
1.8756,-0.264185,2.829,3.40454
1.85414,-0.259889,2.783,3.35417
1.84844,-0.257834,2.761,3.33262
1.8574,-0.257834,2.761,3.3376
1.85149,-0.25578,2.739,3.31596
1.83118,-0.251764,2.696,3.26879
-2.04721,-0.266002,2.951,3.60142
-2.03763,-0.266002,2.951,3.59598
-2.01087,-0.263748,2.926,3.56014
-2.00137,-0.263748,2.926,3.55479
-1.99187,-0.263748,2.926,3.54945
-1.98238,-0.263748,2.926,3.54413
-1.97288,-0.263748,2.926,3.53883
-1.96338,-0.263748,2.926,3.53354
-1.97058,-0.266002,2.951,3.55842
-1.961,-0.266002,2.951,3.55312
-1.96862,-0.268346,2.977,3.5791
-1.99383,-0.273123,3.03,3.63742
-1.98399,-0.273123,3.03,3.63204
-1.99175,-0.275557,3.057,3.659
-1.99933,-0.27799,3.084,3.68587
-2.02609,-0.283128,3.141,3.74848
-2.0159,-0.283128,3.141,3.74298
-2.02422,-0.285742,3.17,3.772
-2.05205,-0.291151,3.23,3.83778
-2.04156,-0.291151,3.23,3.83219
-2.03108,-0.291151,3.23,3.82661
-2.03936,-0.293855,3.26,3.85655
-2.0487,-0.296739,3.292,3.88876
-2.03801,-0.296739,3.292,3.88314
-2.02733,-0.296739,3.292,3.87755
-2.03625,-0.299624,3.324,3.90961
-2.02546,-0.299624,3.324,3.904
-2.01467,-0.299624,3.324,3.89841
-2.00388,-0.299624,3.324,3.89285
-1.99309,-0.299624,3.324,3.88731
-2.00138,-0.302508,3.356,3.91916
nan,nan,nan,NaN
nan,nan,nan,NaN
nan,nan,nan,NaN
nan,nan,nan,NaN
nan,nan,nan,NaN
nan,nan,nan,NaN
nan,nan,nan,NaN
nan,nan,nan,NaN
nan,nan,nan,NaN
nan,nan,nan,NaN
nan,nan,nan,NaN
nan,nan,nan,NaN
nan,nan,nan,NaN
nan,nan,nan,NaN
nan,nan,nan,NaN
nan,nan,nan,NaN
nan,nan,nan,NaN
nan,nan,nan,NaN
nan,nan,nan,NaN
nan,nan,nan,NaN
nan,nan,nan,NaN
nan,nan,nan,NaN
nan,nan,nan,NaN
nan,nan,nan,NaN
nan,nan,nan,NaN
nan,nan,nan,NaN
nan,nan,nan,NaN
nan,nan,nan,NaN
nan,nan,nan,NaN
nan,nan,nan,NaN
nan,nan,nan,NaN
nan,nan,nan,NaN
-1.21383,-0.223636,2.481,2.77106
-1.20578,-0.223636,2.481,2.76754
-1.18904,-0.222014,2.463,2.74399
-1.18104,-0.222014,2.463,2.74053
-1.17305,-0.222014,2.463,2.7371
-1.15654,-0.220391,2.445,2.7137
-1.14062,-0.218859,2.428,2.69148
-1.13274,-0.218859,2.428,2.68815
-1.12485,-0.218859,2.428,2.68484
-1.10915,-0.217327,2.411,2.66278
-1.10133,-0.217327,2.411,2.65953
-1.0935,-0.217327,2.411,2.65629
-1.07802,-0.215794,2.394,2.63438
-1.07025,-0.215794,2.394,2.63121
-1.06248,-0.215794,2.394,2.62805
-1.04722,-0.214262,2.377,2.60628
-1.03951,-0.214262,2.377,2.60319
-1.03179,-0.214262,2.377,2.60012
-1.01718,-0.21282,2.361,2.57959
-1.00952,-0.21282,2.361,2.57658
-1.00186,-0.21282,2.361,2.57358
-0.994193,-0.21282,2.361,2.57061
-0.986529,-0.21282,2.361,2.56766
-0.978866,-0.21282,2.361,2.56472
-0.971203,-0.21282,2.361,2.56181
-0.96354,-0.21282,2.361,2.55891
-0.955876,-0.21282,2.361,2.55603
-0.948213,-0.21282,2.361,2.55318
-0.94055,-0.21282,2.361,2.55034
-0.932887,-0.21282,2.361,2.54753
-0.925224,-0.21282,2.361,2.54473
-0.91756,-0.21282,2.361,2.54195
-0.909897,-0.21282,2.361,2.5392
-0.902234,-0.21282,2.361,2.53646
-0.894571,-0.21282,2.361,2.53375
-0.886907,-0.21282,2.361,2.53105
-0.879244,-0.21282,2.361,2.52838
-0.877488,-0.214262,2.377,2.54284
-0.863918,-0.21282,2.361,2.52309
-0.856255,-0.21282,2.361,2.52047
-0.854342,-0.214262,2.377,2.53494
-0.846627,-0.214262,2.377,2.53235
-0.838912,-0.214262,2.377,2.52978
-0.831197,-0.214262,2.377,2.52724
-0.823481,-0.214262,2.377,2.52471
-0.815766,-0.214262,2.377,2.5222
-0.808051,-0.214262,2.377,2.51972
-0.800336,-0.214262,2.377,2.51726
-0.792621,-0.214262,2.377,2.51481
-0.784906,-0.214262,2.377,2.51239
-0.777191,-0.214262,2.377,2.50999
-0.769475,-0.214262,2.377,2.50761
-0.76176,-0.214262,2.377,2.50526
-0.759438,-0.215794,2.394,2.52082
-0.751668,-0.215794,2.394,2.51849
-0.743897,-0.215794,2.394,2.51619
-0.741354,-0.217327,2.411,2.53175
-0.733529,-0.217327,2.411,2.52947
-0.725703,-0.217327,2.411,2.52721
-0.717878,-0.217327,2.411,2.52498
-0.715059,-0.218859,2.428,2.54055
-0.707178,-0.218859,2.428,2.53834
-0.699297,-0.218859,2.428,2.53616
-0.696258,-0.220391,2.445,2.55174
-0.688322,-0.220391,2.445,2.54959
-0.685395,-0.222014,2.463,2.56621
-0.677401,-0.222014,2.463,2.56408
-0.669406,-0.222014,2.463,2.56198
-0.661412,-0.222014,2.463,2.55991
-0.653418,-0.222014,2.463,2.55785
-0.645424,-0.222014,2.463,2.55582
-0.637429,-0.222014,2.463,2.55382
-0.634035,-0.223636,2.481,2.57048
-0.625982,-0.223636,2.481,2.56851
-0.61793,-0.223636,2.481,2.56656
-0.609877,-0.223636,2.481,2.56463
-0.601824,-0.223636,2.481,2.56273
-0.593771,-0.223636,2.481,2.56085
-0.585719,-0.223636,2.481,2.55899
-0.577666,-0.223636,2.481,2.55716
-0.569613,-0.223636,2.481,2.55535
-0.561561,-0.223636,2.481,2.55357
-0.553508,-0.223636,2.481,2.55181
-0.549413,-0.225259,2.499,2.56858
-0.541301,-0.225259,2.499,2.56686
-0.53319,-0.225259,2.499,2.56516
-0.525079,-0.225259,2.499,2.56348
-0.516968,-0.225259,2.499,2.56184
-0.512522,-0.226881,2.517,2.57865
-0.50816,-0.228594,2.536,2.59649
-0.499929,-0.228594,2.536,2.59489
-0.491697,-0.228594,2.536,2.59332
-0.487088,-0.230307,2.555,2.61119
-0.478795,-0.230307,2.555,2.60966
-0.470502,-0.230307,2.555,2.60815
-0.465647,-0.232019,2.574,2.62605
-0.457292,-0.232019,2.574,2.62458
-0.448938,-0.232019,2.574,2.62314
-0.440583,-0.232019,2.574,2.62172
-0.432229,-0.232019,2.574,2.62033
-0.423874,-0.232019,2.574,2.61897
-0.415519,-0.232019,2.574,2.61763
-0.407165,-0.232019,2.574,2.61631
-0.39881,-0.232019,2.574,2.61503
-0.390456,-0.232019,2.574,2.61376
-0.382101,-0.232019,2.574,2.61253
-0.373747,-0.232019,2.574,2.61132
-0.365392,-0.232019,2.574,2.61014
-0.357037,-0.232019,2.574,2.60898
-0.348683,-0.232019,2.574,2.60785
-0.340328,-0.232019,2.574,2.60675
-0.331974,-0.232019,2.574,2.60567
-0.326008,-0.233732,2.593,2.62384
-0.317592,-0.233732,2.593,2.62281
-0.309175,-0.233732,2.593,2.62181
-0.303079,-0.235535,2.613,2.64104
-0.294598,-0.235535,2.613,2.64008
-0.286117,-0.235535,2.613,2.63915
-0.277636,-0.235535,2.613,2.63824
-0.271215,-0.237338,2.633,2.65755
-0.262669,-0.237338,2.633,2.65669
-0.254122,-0.237338,2.633,2.65586
-0.245576,-0.237338,2.633,2.65506
-0.23703,-0.237338,2.633,2.65428
-0.226749,-0.235535,2.613,2.63337
-0.218268,-0.235535,2.613,2.63266
-0.209786,-0.235535,2.613,2.63197
-0.201305,-0.235535,2.613,2.63131
-0.191348,-0.233732,2.593,2.61054
-0.182932,-0.233732,2.593,2.60993
-0.174516,-0.233732,2.593,2.60936
-0.1661,-0.233732,2.593,2.60881
-0.157683,-0.233732,2.593,2.60828
-0.149267,-0.233732,2.593,2.60779
-0.140851,-0.233732,2.593,2.60732
-0.131464,-0.232019,2.574,2.58778
-0.12311,-0.232019,2.574,2.58737
-0.114755,-0.232019,2.574,2.58698
-0.1064,-0.232019,2.574,2.58663
-0.0980459,-0.232019,2.574,2.5863
-0.0896914,-0.232019,2.574,2.58599
-0.0813368,-0.232019,2.574,2.58572
-0.073521,-0.233732,2.593,2.60455
-0.0651047,-0.233732,2.593,2.60433
-0.0566885,-0.233732,2.593,2.60413
-0.0482722,-0.233732,2.593,2.60396
-0.039856,-0.233732,2.593,2.60382
-0.0314398,-0.233732,2.593,2.6037
-0.0232011,-0.235535,2.613,2.6237
-0.01472,-0.235535,2.613,2.62364
-0.00623883,-0.235535,2.613,2.6236
0.00224232,-0.235535,2.613,2.62359
0.0107235,-0.235535,2.613,2.62362
0.0192046,-0.235535,2.613,2.62366
0.0276858,-0.235535,2.613,2.62374
0.0358901,-0.233732,2.593,2.60376
0.0443063,-0.233732,2.593,2.60389
0.0527226,-0.233732,2.593,2.60405
0.0616104,-0.235535,2.613,2.62432
0.0700915,-0.235535,2.613,2.62453
0.0779713,-0.233732,2.593,2.60468
0.0863875,-0.233732,2.593,2.60495
0.0948037,-0.233732,2.593,2.60524
0.10322,-0.233732,2.593,2.60556
0.111636,-0.233732,2.593,2.60591
0.120052,-0.233732,2.593,2.60628
0.128469,-0.233732,2.593,2.60668
0.136885,-0.233732,2.593,2.60711
0.145301,-0.233732,2.593,2.60756
0.154903,-0.235535,2.613,2.62816
0.163384,-0.235535,2.613,2.62868
0.171865,-0.235535,2.613,2.62922
0.181727,-0.237338,2.633,2.64991
0.190273,-0.237338,2.633,2.65051
0.198819,-0.237338,2.633,2.65114
0.207365,-0.237338,2.633,2.6518
0.215911,-0.237338,2.633,2.65248
0.224457,-0.237338,2.633,2.65319
0.233003,-0.237338,2.633,2.65392
0.241549,-0.237338,2.633,2.65469
0.250095,-0.237338,2.633,2.65548
0.258641,-0.237338,2.633,2.6563
0.267187,-0.237338,2.633,2.65714
0.275734,-0.237338,2.633,2.65802
0.28428,-0.237338,2.633,2.65892
0.292826,-0.237338,2.633,2.65984
0.299083,-0.235535,2.613,2.64059
0.307564,-0.235535,2.613,2.64156
0.316045,-0.235535,2.613,2.64256
0.324526,-0.235535,2.613,2.64359
0.333007,-0.235535,2.613,2.64464
0.338875,-0.233732,2.593,2.62547
0.347291,-0.233732,2.593,2.62657
0.355707,-0.233732,2.593,2.6277
0.364123,-0.233732,2.593,2.62885
0.372539,-0.233732,2.593,2.63003
0.380956,-0.233732,2.593,2.63124
0.389372,-0.233732,2.593,2.63247
0.397788,-0.233732,2.593,2.63373
0.406204,-0.233732,2.593,2.63501
0.417819,-0.235535,2.613,2.65666
0.4263,-0.235535,2.613,2.658
0.434781,-0.235535,2.613,2.65938
0.443262,-0.235535,2.613,2.66078
0.451743,-0.235535,2.613,2.6622
0.460224,-0.235535,2.613,2.66365
0.468706,-0.235535,2.613,2.66513
0.477187,-0.235535,2.613,2.66664
0.485668,-0.235535,2.613,2.66817
0.490367,-0.233732,2.593,2.64929
0.498783,-0.233732,2.593,2.65086
0.507199,-0.233732,2.593,2.65246
0.511837,-0.232019,2.574,2.63463
0.520192,-0.232019,2.574,2.63627
0.528546,-0.232019,2.574,2.63793
0.536901,-0.232019,2.574,2.63962
0.545256,-0.232019,2.574,2.64133
0.549524,-0.230307,2.555,2.62356
0.557817,-0.230307,2.555,2.6253
0.566109,-0.230307,2.555,2.62708
0.574402,-0.230307,2.555,2.62888
0.582695,-0.230307,2.555,2.6307
0.590988,-0.230307,2.555,2.63255
0.599281,-0.230307,2.555,2.63443
0.607574,-0.230307,2.555,2.63633
0.615867,-0.230307,2.555,2.63825
0.62416,-0.230307,2.555,2.6402
0.632453,-0.230307,2.555,2.64217
0.640746,-0.230307,2.555,2.64417
0.649038,-0.230307,2.555,2.64619
0.657331,-0.230307,2.555,2.64824
0.665624,-0.230307,2.555,2.65031
0.668906,-0.228594,2.536,2.63268
0.677137,-0.228594,2.536,2.63478
0.685368,-0.228594,2.536,2.63691
0.688403,-0.226881,2.517,2.61929
0.696572,-0.226881,2.517,2.62145
0.704742,-0.226881,2.517,2.62363
0.707813,-0.225259,2.499,2.60706
0.715924,-0.225259,2.499,2.60927
0.724035,-0.225259,2.499,2.61151
0.732147,-0.225259,2.499,2.61377
0.740258,-0.225259,2.499,2.61605
0.748369,-0.225259,2.499,2.61836
0.75648,-0.225259,2.499,2.62069
0.759084,-0.223636,2.481,2.60415
0.767137,-0.223636,2.481,2.60651
0.775189,-0.223636,2.481,2.60889
0.783242,-0.223636,2.481,2.61129
0.785554,-0.222014,2.463,2.59475
0.793548,-0.222014,2.463,2.59719
0.801542,-0.222014,2.463,2.59964
0.809537,-0.222014,2.463,2.60212
0.817531,-0.222014,2.463,2.60461
0.825525,-0.222014,2.463,2.60713
0.833519,-0.222014,2.463,2.60968
0.835364,-0.220391,2.445,2.59315
0.8433,-0.220391,2.445,2.59572
0.851236,-0.220391,2.445,2.59831
0.859171,-0.220391,2.445,2.60092
0.867107,-0.220391,2.445,2.60355
0.875043,-0.220391,2.445,2.6062
0.87684,-0.218859,2.428,2.59074
0.88472,-0.218859,2.428,2.59342
0.892601,-0.218859,2.428,2.59612
0.894177,-0.217327,2.411,2.58064
0.902002,-0.217327,2.411,2.58336
0.909828,-0.217327,2.411,2.5861
0.917653,-0.217327,2.411,2.58887
0.925479,-0.217327,2.411,2.59165
0.933304,-0.217327,2.411,2.59446
0.94113,-0.217327,2.411,2.59728
0.948955,-0.217327,2.411,2.60013
0.956781,-0.217327,2.411,2.60299
0.964606,-0.217327,2.411,2.60588
0.972432,-0.217327,2.411,2.60879
0.980257,-0.217327,2.411,2.61172
0.988083,-0.217327,2.411,2.61466
nan,nan,nan,NaN
nan,nan,nan,NaN
nan,nan,nan,NaN
nan,nan,nan,NaN
nan,nan,nan,NaN
nan,nan,nan,NaN
nan,nan,nan,NaN
nan,nan,nan,NaN
nan,nan,nan,NaN
nan,nan,nan,NaN
nan,nan,nan,NaN
nan,nan,nan,NaN
nan,nan,nan,NaN
nan,nan,nan,NaN
nan,nan,nan,NaN
1.75652,-0.342891,3.804,4.20397
1.76886,-0.342891,3.804,4.20914
1.78121,-0.342891,3.804,4.21434
1.79356,-0.342891,3.804,4.21958
1.8059,-0.342891,3.804,4.22484
1.81825,-0.342891,3.804,4.23013
1.8306,-0.342891,3.804,4.23545
1.84294,-0.342891,3.804,4.24081
1.85529,-0.342891,3.804,4.24619
1.86764,-0.342891,3.804,4.2516
1.87998,-0.342891,3.804,4.25703
1.89233,-0.342891,3.804,4.2625
1.90468,-0.342891,3.804,4.268
1.91702,-0.342891,3.804,4.27352
nan,nan,nan,NaN
1.92028,-0.339105,3.762,4.23735
1.93249,-0.339105,3.762,4.24289
nan,nan,nan,NaN
nan,nan,nan,NaN
nan,nan,nan,NaN
nan,nan,nan,NaN
1.90982,-0.324863,3.604,4.09167
1.92151,-0.324863,3.604,4.09714
1.91283,-0.321438,3.566,4.05938
1.9244,-0.321438,3.566,4.06485
1.91589,-0.318103,3.529,4.02811
1.92734,-0.318103,3.529,4.03357
1.9388,-0.318103,3.529,4.03906
1.93036,-0.314858,3.493,4.00331
1.94169,-0.314858,3.493,4.00879
1.95303,-0.314858,3.493,4.01429
1.94469,-0.311703,3.458,3.97954
1.95591,-0.311703,3.458,3.98504
1.96713,-0.311703,3.458,3.99056
1.97836,-0.311703,3.458,3.9961
1.96944,-0.308548,3.423,3.96117
1.98055,-0.308548,3.423,3.9667
1.99166,-0.308548,3.423,3.97226
2.00277,-0.308548,3.423,3.97784
1.99388,-0.305483,3.389,3.94388
2.00488,-0.305483,3.389,3.94945
1.99625,-0.302508,3.356,3.91654
1.98801,-0.299624,3.324,3.8847
1.99879,-0.299624,3.324,3.89024
1.99024,-0.296739,3.292,3.85829
1.96324,-0.291151,3.23,3.79104
1.97372,-0.291151,3.23,3.79648
1.98421,-0.291151,3.23,3.80194
nan,nan,nan,NaN
nan,nan,nan,NaN
1.94202,-0.280514,3.112,3.67895
1.91762,-0.275557,3.057,3.61918
1.92754,-0.275557,3.057,3.62444
1.92035,-0.273123,3.03,3.59767
1.91299,-0.270689,3.003,3.57083
1.90609,-0.268346,2.977,3.5451
1.91575,-0.268346,2.977,3.5503
1.89243,-0.263748,2.926,3.49461
1.88567,-0.261495,2.901,3.46986
1.89509,-0.261495,2.901,3.47499
1.87299,-0.257168,2.853,3.42255
1.86642,-0.255005,2.829,3.39879
1.8756,-0.255005,2.829,3.40384
1.85414,-0.250858,2.783,3.35348
1.84844,-0.248875,2.761,3.33194
1.8574,-0.248875,2.761,3.33692
1.83662,-0.244909,2.717,3.28866
1.83118,-0.243016,2.696,3.26813
-2.01252,-0.252082,2.901,3.53971
-2.0031,-0.252082,2.901,3.53437
-1.97719,-0.249996,2.877,3.49985
-1.96786,-0.249996,2.877,3.49458
-1.95852,-0.249996,2.877,3.48933
-1.94918,-0.249996,2.877,3.4841
-1.92366,-0.247911,2.853,3.44986
-1.9144,-0.247911,2.853,3.4447
-1.90514,-0.247911,2.853,3.43957
-1.89588,-0.247911,2.853,3.43445
-1.91836,-0.252082,2.901,3.48704
-1.92539,-0.254254,2.926,3.51187
-1.9159,-0.254254,2.926,3.50668
-1.93963,-0.258686,2.977,3.56253
-1.94682,-0.260945,3.003,3.58834
-1.97191,-0.265637,3.057,3.6475
-1.96198,-0.265637,3.057,3.64214
-1.98718,-0.270416,3.112,3.70224
-1.99551,-0.272936,3.141,3.73128
-1.98531,-0.272936,3.141,3.72583
-1.99335,-0.275456,3.17,3.75476
-2.0012,-0.277976,3.199,3.78361
-2.01011,-0.28067,3.23,3.81474
-1.99963,-0.28067,3.23,3.80923
-2.00762,-0.283277,3.26,3.83906
-1.99704,-0.283277,3.26,3.83354
-1.98646,-0.283277,3.26,3.82804
-1.97588,-0.283277,3.26,3.82256
-1.9653,-0.283277,3.26,3.8171
-1.95472,-0.283277,3.26,3.81166
-1.96322,-0.286058,3.292,3.84361
nan,nan,nan,NaN
nan,nan,nan,NaN
nan,nan,nan,NaN
nan,nan,nan,NaN
nan,nan,nan,NaN
nan,nan,nan,NaN
nan,nan,nan,NaN
nan,nan,nan,NaN
