-0.935718,0.0805227,2.428,2.60331
-0.927837,0.0805227,2.428,2.60049
-0.919957,0.0805227,2.428,2.59769
-0.912076,0.0805227,2.428,2.59491
-0.904195,0.0805227,2.428,2.59215
-0.90259,0.0810865,2.445,2.60754
-0.894654,0.0810865,2.445,2.6048
-0.886718,0.0810865,2.445,2.60209
-0.878783,0.0810865,2.445,2.5994
-0.870847,0.0810865,2.445,2.59672
-0.862911,0.0810865,2.445,2.59407
-0.854975,0.0810865,2.445,2.59144
-0.847039,0.0810865,2.445,2.58884
-0.839103,0.0810865,2.445,2.58625
-0.831167,0.0810865,2.445,2.58369
-0.823232,0.0810865,2.445,2.58115
-0.815296,0.0810865,2.445,2.57863
-0.80736,0.0810865,2.445,2.57613
-0.799424,0.0810865,2.445,2.57365
-0.791488,0.0810865,2.445,2.5712
-0.783552,0.0810865,2.445,2.56877
-0.775616,0.0810865,2.445,2.56636
-0.767681,0.0810865,2.445,2.56397
-0.759745,0.0810865,2.445,2.5616
-0.751809,0.0810865,2.445,2.55926
-0.743873,0.0810865,2.445,2.55694
-0.735937,0.0810865,2.445,2.55464
-0.728001,0.0810865,2.445,2.55237
-0.725366,0.0816835,2.463,2.56889
-0.717372,0.0816835,2.463,2.56664
-0.709378,0.0816835,2.463,2.56442
-0.701384,0.0816835,2.463,2.56222
-0.693389,0.0816835,2.463,2.56005
-0.685395,0.0816835,2.463,2.55789
-0.677401,0.0816835,2.463,2.55576
-0.669406,0.0816835,2.463,2.55365
-0.661412,0.0816835,2.463,2.55157
-0.658193,0.0822804,2.481,2.56814
-0.65014,0.0822804,2.481,2.56609
-0.642088,0.0822804,2.481,2.56406
-0.634035,0.0822804,2.481,2.56206
-0.625982,0.0822804,2.481,2.56008
-0.622413,0.0828774,2.499,2.57668
-0.614302,0.0828774,2.499,2.57473
-0.606191,0.0828774,2.499,2.57281
-0.598079,0.0828774,2.499,2.57091
-0.585719,0.0822804,2.481,2.55053
-0.577666,0.0822804,2.481,2.54869
-0.573746,0.0828774,2.499,2.56536
-0.565635,0.0828774,2.499,2.56355
-0.557524,0.0828774,2.499,2.56178
-0.549413,0.0828774,2.499,2.56002
-0.541301,0.0828774,2.499,2.5583
-0.53319,0.0828774,2.499,2.55659
-0.525079,0.0828774,2.499,2.55491
-0.516968,0.0828774,2.499,2.55326
-0.508857,0.0828774,2.499,2.55163
-0.500746,0.0828774,2.499,2.55002
-0.492635,0.0828774,2.499,2.54844
-0.484524,0.0828774,2.499,2.54689
-0.476412,0.0828774,2.499,2.54536
-0.471674,0.0834743,2.517,2.56217
-0.463505,0.0834743,2.517,2.56068
-0.455335,0.0834743,2.517,2.55922
-0.450541,0.0841044,2.536,2.57708
-0.44231,0.0841044,2.536,2.57566
-0.434079,0.0841044,2.536,2.57426
-0.425848,0.0841044,2.536,2.57288
-0.417616,0.0841044,2.536,2.57153
-0.409385,0.0841044,2.536,2.57021
-0.401154,0.0841044,2.536,2.56891
-0.395866,0.0847346,2.555,2.58687
-0.387574,0.0847346,2.555,2.58562
-0.379281,0.0847346,2.555,2.58439
-0.370988,0.0847346,2.555,2.58318
-0.362695,0.0847346,2.555,2.58201
-0.354402,0.0847346,2.555,2.58085
-0.346109,0.0847346,2.555,2.57973
-0.337816,0.0847346,2.555,2.57863
-0.329523,0.0847346,2.555,2.57756
-0.32123,0.0847346,2.555,2.57651
-0.312937,0.0847346,2.555,2.57549
-0.304645,0.0847346,2.555,2.57449
-0.296352,0.0847346,2.555,2.57352
-0.288059,0.0847346,2.555,2.57258
-0.279766,0.0847346,2.555,2.57167
-0.271473,0.0847346,2.555,2.57078
-0.26318,0.0847346,2.555,2.56992
-0.254887,0.0847346,2.555,2.56908
-0.246594,0.0847346,2.555,2.56827
-0.240074,0.0853647,2.574,2.58658
-0.231719,0.0853647,2.574,2.58582
-0.223364,0.0853647,2.574,2.58508
-0.21501,0.0853647,2.574,2.58437
-0.206655,0.0853647,2.574,2.58369
-0.198301,0.0853647,2.574,2.58304
-0.189946,0.0853647,2.574,2.58241
-0.181592,0.0853647,2.574,2.58181
-0.173237,0.0853647,2.574,2.58124
-0.163665,0.0847346,2.555,2.56164
-0.154217,0.0841044,2.536,2.54208
-0.145986,0.0841044,2.536,2.54159
-0.137755,0.0841044,2.536,2.54113
-0.129523,0.0841044,2.536,2.5407
-0.121292,0.0841044,2.536,2.54029
-0.112214,0.0834743,2.517,2.52088
-0.104044,0.0834743,2.517,2.52053
-0.0965985,0.0841044,2.536,2.53923
-0.0883672,0.0841044,2.536,2.53893
-0.080136,0.0841044,2.536,2.53866
-0.0719048,0.0841044,2.536,2.53841
-0.0636736,0.0841044,2.536,2.53819
-0.0554423,0.0841044,2.536,2.538
-0.0475648,0.0847346,2.555,2.55685
-0.0392719,0.0847346,2.555,2.55671
-0.0307487,0.0841044,2.536,2.53758
-0.0225174,0.0841044,2.536,2.53749
-0.0142862,0.0841044,2.536,2.53743
-0.00605498,0.0841044,2.536,2.5374
0.00217625,0.0841044,2.536,2.5374
0.0104075,0.0841044,2.536,2.53742
0.0186387,0.0841044,2.536,2.53746
0.0268699,0.0841044,2.536,2.53754
0.0351011,0.0841044,2.536,2.53764
0.0433324,0.0841044,2.536,2.53776
0.0515636,0.0841044,2.536,2.53792
0.0597948,0.0841044,2.536,2.5381
0.0680261,0.0841044,2.536,2.53831
0.0762573,0.0841044,2.536,2.53854
0.0844885,0.0841044,2.536,2.5388
0.0934144,0.0847346,2.555,2.55811
0.101707,0.0847346,2.555,2.55843
0.11,0.0847346,2.555,2.55877
0.117413,0.0841044,2.536,2.54011
0.125645,0.0841044,2.536,2.5405
0.133876,0.0841044,2.536,2.54092
0.143172,0.0847346,2.555,2.56041
0.151465,0.0847346,2.555,2.56089
0.159758,0.0847346,2.555,2.56139
0.16805,0.0847346,2.555,2.56192
0.176343,0.0847346,2.555,2.56248
0.184636,0.0847346,2.555,2.56306
0.191494,0.0841044,2.536,2.54461
0.199726,0.0841044,2.536,2.54524
0.207957,0.0841044,2.536,2.5459
0.216188,0.0841044,2.536,2.54659
nan,nan,nan,NaN
nan,nan,nan,NaN
nan,nan,nan,NaN
nan,nan,nan,NaN
nan,nan,nan,NaN
nan,nan,nan,NaN
nan,nan,nan,NaN
nan,nan,nan,NaN
nan,nan,nan,NaN
nan,nan,nan,NaN
nan,nan,nan,NaN
nan,nan,nan,NaN
nan,nan,nan,NaN
nan,nan,nan,NaN
nan,nan,nan,NaN
nan,nan,nan,NaN
nan,nan,nan,NaN
nan,nan,nan,NaN
nan,nan,nan,NaN
nan,nan,nan,NaN
nan,nan,nan,NaN
nan,nan,nan,NaN
nan,nan,nan,NaN
nan,nan,nan,NaN
nan,nan,nan,NaN
nan,nan,nan,NaN
nan,nan,nan,NaN
nan,nan,nan,NaN
nan,nan,nan,NaN
nan,nan,nan,NaN
nan,nan,nan,NaN
nan,nan,nan,NaN
nan,nan,nan,NaN
nan,nan,nan,NaN
0.476045,0.0793951,2.394,2.44216
0.483815,0.0793951,2.394,2.44369
0.491585,0.0793951,2.394,2.44524
0.499355,0.0793951,2.394,2.44681
0.507126,0.0793951,2.394,2.44841
0.514896,0.0793951,2.394,2.45003
0.522667,0.0793951,2.394,2.45168
0.52667,0.0788313,2.377,2.43592
0.530788,0.0783007,2.361,2.4212
0.538451,0.0783007,2.361,2.42289
0.542414,0.0777701,2.345,2.40817
0.550025,0.0777701,2.345,2.4099
nan,nan,nan,NaN
nan,nan,nan,NaN
nan,nan,nan,NaN
0.57651,0.0772395,2.329,2.40054
0.584069,0.0772395,2.329,2.40236
0.591628,0.0772395,2.329,2.40421
0.60742,0.0783007,2.361,2.43914
0.619252,0.0788313,2.377,2.4576
0.626967,0.0788313,2.377,2.45956
0.639221,0.0793951,2.394,2.47914
nan,nan,nan,NaN
0.668711,0.0810865,2.445,2.53609
0.676647,0.0810865,2.445,2.5382
0.694662,0.0822804,2.481,2.57773
0.707813,0.0828774,2.499,2.59863
0.715924,0.0828774,2.499,2.60085
0.729251,0.0834743,2.517,2.62184
0.73742,0.0834743,2.517,2.62413
0.74559,0.0834743,2.517,2.62644
0.753759,0.0834743,2.517,2.62877
0.76768,0.0841044,2.536,2.65098
0.775912,0.0841044,2.536,2.65338
0.778268,0.0834743,2.517,2.6359
0.786437,0.0834743,2.517,2.63832
0.794607,0.0834743,2.517,2.64077
0.802777,0.0834743,2.517,2.64324
0.805147,0.0828774,2.499,2.62681
0.813258,0.0828774,2.499,2.62931
0.821369,0.0828774,2.499,2.63183
0.82948,0.0828774,2.499,2.63437
0.837591,0.0828774,2.499,2.63694
0.845702,0.0828774,2.499,2.63952
0.847664,0.0822804,2.481,2.6231
0.855716,0.0822804,2.481,2.62572
0.863769,0.0822804,2.481,2.62835
0.871822,0.0822804,2.481,2.63101
0.879874,0.0822804,2.481,2.63369
0.887927,0.0822804,2.481,2.63639
0.89598,0.0822804,2.481,2.63911
0.897474,0.0816835,2.463,2.62269
0.905468,0.0816835,2.463,2.62544
0.913462,0.0816835,2.463,2.6282
0.921457,0.0816835,2.463,2.63099
0.929451,0.0816835,2.463,2.6338
0.937445,0.0816835,2.463,2.63664
0.93853,0.0810865,2.445,2.6202
0.946466,0.0810865,2.445,2.62305
0.954402,0.0810865,2.445,2.62593
0.962338,0.0810865,2.445,2.62882
0.970273,0.0810865,2.445,2.63174
0.978209,0.0810865,2.445,2.63467
0.986145,0.0810865,2.445,2.63763
0.994081,0.0810865,2.445,2.64061
1.00939,0.0816835,2.463,2.66307
1.01739,0.0816835,2.463,2.66611
1.02538,0.0816835,2.463,2.66917
1.04093,0.0822804,2.481,2.69178
1.04898,0.0822804,2.481,2.6949
1.0647,0.0828774,2.499,2.71762
1.08054,0.0834743,2.517,2.74041
1.08871,0.0834743,2.517,2.74364
1.10516,0.0841044,2.536,2.76763
1.12173,0.0847346,2.555,2.79168
1.13843,0.0853647,2.574,2.81581
1.14678,0.0853647,2.574,2.8192
1.16367,0.0859948,2.593,2.84344
1.17208,0.0859948,2.593,2.8469
1.1805,0.0859948,2.593,2.85037
1.19808,0.0866581,2.613,2.87588
1.2158,0.0873214,2.633,2.90146
1.22435,0.0873214,2.633,2.90505
1.23289,0.0873214,2.633,2.90867
1.25134,0.0880178,2.654,2.93553
1.25995,0.0880178,2.654,2.93921
1.26857,0.0880178,2.654,2.94291
1.27718,0.0880178,2.654,2.94664
1.2858,0.0880178,2.654,2.95038
1.29441,0.0880178,2.654,2.95414
1.30303,0.0880178,2.654,2.95793
1.31164,0.0880178,2.654,2.96173
1.32025,0.0880178,2.654,2.96556
1.33938,0.0887143,2.675,2.9929
1.35865,0.0894107,2.696,3.02032
1.3674,0.0894107,2.696,3.02427
1.3981,0.0908368,2.739,3.07653
1.42959,0.092296,2.783,3.13007
1.4624,0.0938216,2.829,3.18601
1.47158,0.0938216,2.829,3.19024
1.50589,0.0954134,2.877,3.24868
1.54104,0.0970385,2.926,3.30843
1.55053,0.0970385,2.926,3.31286
1.60108,0.0995921,3.003,3.40461
1.62531,0.100488,3.03,3.43986
1.66429,0.102278,3.084,3.50591
1.6743,0.102278,3.084,3.51067
1.6996,0.103207,3.112,3.54737
1.7097,0.103207,3.112,3.55222
1.7198,0.103207,3.112,3.55709
1.76214,0.105131,3.17,3.62838
1.77243,0.105131,3.17,3.63338
1.78272,0.105131,3.17,3.63841
1.77661,0.104169,3.141,3.61013
1.7868,0.104169,3.141,3.61516
1.797,0.104169,3.141,3.62021
1.80719,0.104169,3.141,3.62528
1.81739,0.104169,3.141,3.63038
1.82758,0.104169,3.141,3.63549
1.82081,0.103207,3.112,3.60701
1.81444,0.102278,3.084,3.57962
1.82445,0.102278,3.084,3.58471
1.8184,0.101383,3.057,3.55838
1.81217,0.100488,3.03,3.53199
1.82201,0.100488,3.03,3.53705
1.81552,0.0995921,3.003,3.51056
1.80946,0.0987299,2.977,3.48517
1.81912,0.0987299,2.977,3.4902
1.81281,0.0978676,2.951,3.46472
1.79152,0.0962094,2.901,3.41095
1.80093,0.0962094,2.901,3.41591
1.78039,0.0946175,2.853,3.36428
1.76017,0.0930588,2.806,3.31368
1.76928,0.0930588,2.806,3.31853
1.76381,0.092296,2.783,3.29615
1.74481,0.0908368,2.739,3.24881
1.72617,0.0894107,2.696,3.20251
1.73492,0.0894107,2.696,3.20724
1.71651,0.0880178,2.654,3.16194
1.69847,0.0866581,2.613,3.11771
1.70695,0.0866581,2.613,3.12233
1.7023,0.0859948,2.593,3.10304
1.69819,0.0853647,2.574,3.0849
1.70654,0.0853647,2.574,3.08951
1.70224,0.0847346,2.555,3.07129
1.68509,0.0834743,2.517,3.03015
1.69326,0.0834743,2.517,3.0347
1.68926,0.0828774,2.499,3.01753
1.68515,0.0822804,2.481,3.00031
-1.90013,0.0997244,2.739,3.33505
-1.89124,0.0997244,2.739,3.33
-1.89747,0.100525,2.761,3.35166
-1.87346,0.0997244,2.739,3.31993
-1.86457,0.0997244,2.739,3.31492
-1.85568,0.0997244,2.739,3.30993
-1.84679,0.0997244,2.739,3.30495
-1.8379,0.0997244,2.739,3.29999
-1.82901,0.0997244,2.739,3.29505
-1.82012,0.0997244,2.739,3.29012
-1.79668,0.0989234,2.717,3.25883
-1.78787,0.0989234,2.717,3.25397
-1.77905,0.0989234,2.717,3.24914
-1.75655,0.0981588,2.696,3.21924
-1.73418,0.0973942,2.675,3.18944
-1.7255,0.0973942,2.675,3.18472
-1.71682,0.0973942,2.675,3.18003
-1.69472,0.0966296,2.654,3.15042
-1.68611,0.0966296,2.654,3.14579
-1.6775,0.0966296,2.654,3.14119
-1.65568,0.095865,2.633,3.11178
-1.64713,0.095865,2.633,3.10724
-1.63858,0.095865,2.633,3.10272
-1.63004,0.095865,2.633,3.09821
-1.62149,0.095865,2.633,3.09372
-1.61295,0.095865,2.633,3.08925
-1.6044,0.095865,2.633,3.0848
-1.59585,0.095865,2.633,3.08036
-1.58731,0.095865,2.633,3.07594
-1.56677,0.0951369,2.613,3.04821
-1.55829,0.0951369,2.613,3.04386
-1.54981,0.0951369,2.613,3.03953
-1.54133,0.0951369,2.613,3.03521
-1.53285,0.0951369,2.613,3.03091
-1.52436,0.0951369,2.613,3.02663
-1.51588,0.0951369,2.613,3.02237
-1.5074,0.0951369,2.613,3.01813
-1.48745,0.0944087,2.593,2.99083
-1.47903,0.0944087,2.593,2.98665
-1.47062,0.0944087,2.593,2.98249
-1.45149,0.0937169,2.574,2.95653
-1.44313,0.0937169,2.574,2.95244
-1.43478,0.0937169,2.574,2.94836
-1.41589,0.0930251,2.555,2.92257
-1.4076,0.0930251,2.555,2.91856
-1.39931,0.0930251,2.555,2.91457
-1.39101,0.0930251,2.555,2.9106
-1.38272,0.0930251,2.555,2.90665
-1.37443,0.0930251,2.555,2.90271
-1.36614,0.0930251,2.555,2.89879
-1.35784,0.0930251,2.555,2.89489
-1.34955,0.0930251,2.555,2.89101
-1.34126,0.0930251,2.555,2.88715
-1.33296,0.0930251,2.555,2.88331
-1.33452,0.0937169,2.574,2.9009
-1.32617,0.0937169,2.574,2.89706
-1.31781,0.0937169,2.574,2.89325
-1.31912,0.0944087,2.593,2.91078
-1.32082,0.0951369,2.613,2.9294
-1.31234,0.0951369,2.613,2.92558
-1.28439,0.0937169,2.574,2.87818
-1.27604,0.0937169,2.574,2.87446
-1.26769,0.0937169,2.574,2.87076
-1.25933,0.0937169,2.574,2.86708
-1.24174,0.0930251,2.555,2.84229
-1.23345,0.0930251,2.555,2.83867
-1.22516,0.0930251,2.555,2.83508
-1.20781,0.0923334,2.536,2.81045
-1.19958,0.0923334,2.536,2.80692
-1.18243,0.0916416,2.517,2.78241
-1.16586,0.0909862,2.499,2.75908
-1.15775,0.0909862,2.499,2.75566
-1.14136,0.0903309,2.481,2.73244
-1.1333,0.0903309,2.481,2.72908
-1.12525,0.0903309,2.481,2.72575
-1.10909,0.0896755,2.463,2.70268
-1.1011,0.0896755,2.463,2.69941
-1.0931,0.0896755,2.463,2.69616
-1.08511,0.0896755,2.463,2.69293
-1.06924,0.0890201,2.445,2.67006
-1.06131,0.0890201,2.445,2.66689
-1.05337,0.0890201,2.445,2.66375
-1.04544,0.0890201,2.445,2.66062
-1.0375,0.0890201,2.445,2.65751
-1.02956,0.0890201,2.445,2.65442
-1.02163,0.0890201,2.445,2.65135
-1.01369,0.0890201,2.445,2.64831
-1.00576,0.0890201,2.445,2.64528
-0.990883,0.0884012,2.428,2.6239
-0.983002,0.0884012,2.428,2.62093
-0.975121,0.0884012,2.428,2.61799
-0.967241,0.0884012,2.428,2.61506
-0.95936,0.0884012,2.428,2.61216
-0.951479,0.0884012,2.428,2.60927
-0.943599,0.0884012,2.428,2.60641
-0.935718,0.0884012,2.428,2.60357
-0.927837,0.0884012,2.428,2.60075
-0.919957,0.0884012,2.428,2.59795
-0.912076,0.0884012,2.428,2.59517
-0.904195,0.0884012,2.428,2.59241
-0.896315,0.0884012,2.428,2.58967
-0.894654,0.0890201,2.445,2.60506
-0.886718,0.0890201,2.445,2.60235
-0.878783,0.0890201,2.445,2.59966
-0.870847,0.0890201,2.445,2.59698
-0.862911,0.0890201,2.445,2.59433
-0.854975,0.0890201,2.445,2.5917
-0.847039,0.0890201,2.445,2.5891
-0.839103,0.0890201,2.445,2.58651
-0.831167,0.0890201,2.445,2.58395
-0.823232,0.0890201,2.445,2.58141
-0.815296,0.0890201,2.445,2.57889
-0.80736,0.0890201,2.445,2.57639
-0.799424,0.0890201,2.445,2.57391
-0.791488,0.0890201,2.445,2.57146
-0.783552,0.0890201,2.445,2.56903
-0.775616,0.0890201,2.445,2.56662
-0.767681,0.0890201,2.445,2.56423
-0.759745,0.0890201,2.445,2.56187
-0.757344,0.0896755,2.463,2.57837
-0.749349,0.0896755,2.463,2.57603
-0.741355,0.0896755,2.463,2.57372
-0.733361,0.0896755,2.463,2.57143
-0.725366,0.0896755,2.463,2.56916
-0.717372,0.0896755,2.463,2.56691
-0.709378,0.0896755,2.463,2.56469
-0.701384,0.0896755,2.463,2.56249
-0.693389,0.0896755,2.463,2.56031
-0.685395,0.0896755,2.463,2.55816
-0.677401,0.0896755,2.463,2.55603
-0.669406,0.0896755,2.463,2.55392
-0.661412,0.0896755,2.463,2.55184
-0.658193,0.0903309,2.481,2.56841
-0.65014,0.0903309,2.481,2.56636
-0.642088,0.0903309,2.481,2.56433
-0.634035,0.0903309,2.481,2.56233
-0.625982,0.0903309,2.481,2.56035
-0.61793,0.0903309,2.481,2.55839
-0.609877,0.0903309,2.481,2.55646
-0.601824,0.0903309,2.481,2.55455
-0.593771,0.0903309,2.481,2.55266
-0.585719,0.0903309,2.481,2.5508
-0.577666,0.0903309,2.481,2.54896
-0.573746,0.0909862,2.499,2.56563
-0.565635,0.0909862,2.499,2.56383
-0.557524,0.0909862,2.499,2.56205
-0.549413,0.0909862,2.499,2.5603
-0.541301,0.0909862,2.499,2.55857
-0.53319,0.0909862,2.499,2.55687
-0.525079,0.0909862,2.499,2.55519
-0.516968,0.0909862,2.499,2.55353
-0.508857,0.0909862,2.499,2.5519
-0.500746,0.0909862,2.499,2.5503
-0.492635,0.0909862,2.499,2.54872
-0.484524,0.0909862,2.499,2.54716
-0.476412,0.0909862,2.499,2.54563
-0.471674,0.0916416,2.517,2.56245
-0.463505,0.0916416,2.517,2.56096
-0.455335,0.0916416,2.517,2.5595
-0.450541,0.0923334,2.536,2.57736
-0.44231,0.0923334,2.536,2.57594
-0.434079,0.0923334,2.536,2.57454
-0.425848,0.0923334,2.536,2.57316
-0.417616,0.0923334,2.536,2.57181
-0.409385,0.0923334,2.536,2.57049
-0.401154,0.0923334,2.536,2.56919
-0.395866,0.0930251,2.555,2.58716
-0.387574,0.0930251,2.555,2.5859
-0.379281,0.0930251,2.555,2.58467
-0.370988,0.0930251,2.555,2.58347
-0.362695,0.0930251,2.555,2.58229
-0.354402,0.0930251,2.555,2.58114
-0.346109,0.0930251,2.555,2.58001
-0.337816,0.0930251,2.555,2.57891
-0.329523,0.0930251,2.555,2.57784
-0.32123,0.0930251,2.555,2.57679
-0.312937,0.0930251,2.555,2.57577
-0.304645,0.0930251,2.555,2.57478
-0.296352,0.0930251,2.555,2.57381
-0.288059,0.0930251,2.555,2.57287
-0.279766,0.0930251,2.555,2.57195
-0.271473,0.0930251,2.555,2.57107
-0.26318,0.0930251,2.555,2.5702
-0.256783,0.0937169,2.574,2.58847
-0.248428,0.0937169,2.574,2.58766
-0.240074,0.0937169,2.574,2.58687
-0.231719,0.0937169,2.574,2.58611
-0.223364,0.0937169,2.574,2.58537
-0.21501,0.0937169,2.574,2.58466
-0.206655,0.0937169,2.574,2.58398
-0.198301,0.0937169,2.574,2.58333
-0.189946,0.0937169,2.574,2.5827
-0.181592,0.0937169,2.574,2.5821
-0.173237,0.0937169,2.574,2.58152
-0.164882,0.0937169,2.574,2.58098
-0.154217,0.0923334,2.536,2.54236
-0.145986,0.0923334,2.536,2.54188
-0.137755,0.0923334,2.536,2.54142
-0.129523,0.0923334,2.536,2.54098
-0.121292,0.0923334,2.536,2.54058
-0.112214,0.0916416,2.517,2.52117
-0.104044,0.0916416,2.517,2.52082
-0.0965985,0.0923334,2.536,2.53952
-0.0883672,0.0923334,2.536,2.53922
-0.080136,0.0923334,2.536,2.53895
-0.0719048,0.0923334,2.536,2.5387
-0.0636736,0.0923334,2.536,2.53848
-0.0554423,0.0923334,2.536,2.53829
-0.0472111,0.0923334,2.536,2.53812
-0.0389799,0.0923334,2.536,2.53798
-0.0307487,0.0923334,2.536,2.53787
-0.0225174,0.0923334,2.536,2.53778
-0.0142862,0.0923334,2.536,2.53772
-0.00605498,0.0923334,2.536,2.53769
0.00217625,0.0923334,2.536,2.53768
0.0104075,0.0923334,2.536,2.5377
0.0186387,0.0923334,2.536,2.53775
0.0268699,0.0923334,2.536,2.53782
0.0351011,0.0923334,2.536,2.53792
0.0433324,0.0923334,2.536,2.53805
0.0515636,0.0923334,2.536,2.5382
0.0597948,0.0923334,2.536,2.53838
0.0680261,0.0923334,2.536,2.53859
0.0762573,0.0923334,2.536,2.53883
0.0844885,0.0923334,2.536,2.53909
0.0934144,0.0930251,2.555,2.5584
0.101707,0.0930251,2.555,2.55872
0.11,0.0930251,2.555,2.55906
0.117413,0.0923334,2.536,2.5404
0.125645,0.0923334,2.536,2.54079
0.133876,0.0923334,2.536,2.54121
0.143172,0.0930251,2.555,2.5607
0.151465,0.0930251,2.555,2.56118
0.159758,0.0930251,2.555,2.56168
0.16805,0.0930251,2.555,2.56221
0.176343,0.0930251,2.555,2.56277
0.184636,0.0930251,2.555,2.56335
0.191494,0.0923334,2.536,2.5449
0.198229,0.0916416,2.517,2.52646
0.206399,0.0916416,2.517,2.52711
0.214568,0.0916416,2.517,2.52779
nan,nan,nan,NaN
nan,nan,nan,NaN
nan,nan,nan,NaN
nan,nan,nan,NaN
nan,nan,nan,NaN
nan,nan,nan,NaN
nan,nan,nan,NaN
nan,nan,nan,NaN
nan,nan,nan,NaN
nan,nan,nan,NaN
nan,nan,nan,NaN
nan,nan,nan,NaN
nan,nan,nan,NaN
nan,nan,nan,NaN
nan,nan,nan,NaN
nan,nan,nan,NaN
nan,nan,nan,NaN
nan,nan,nan,NaN
nan,nan,nan,NaN
nan,nan,nan,NaN
nan,nan,nan,NaN
nan,nan,nan,NaN
nan,nan,nan,NaN
nan,nan,nan,NaN
nan,nan,nan,NaN
nan,nan,nan,NaN
nan,nan,nan,NaN
nan,nan,nan,NaN
nan,nan,nan,NaN
nan,nan,nan,NaN
nan,nan,nan,NaN
nan,nan,nan,NaN
0.460504,0.0871633,2.394,2.43945
0.468274,0.0871633,2.394,2.44092
0.472664,0.0865443,2.377,2.42508
0.480379,0.0865443,2.377,2.4266
0.488094,0.0865443,2.377,2.42814
0.49581,0.0865443,2.377,2.4297
0.503525,0.0865443,2.377,2.43129
0.51124,0.0865443,2.377,2.4329
0.518955,0.0865443,2.377,2.43453
0.523125,0.0859618,2.361,2.41979
0.527191,0.0853792,2.345,2.40505
0.534802,0.0853792,2.345,2.40673
0.542414,0.0853792,2.345,2.40843
0.546272,0.0847967,2.329,2.39371
0.553832,0.0847967,2.329,2.39545
0.561391,0.0847967,2.329,2.3972
0.565042,0.0842141,2.313,2.38251
0.572549,0.0842141,2.313,2.3843
0.580056,0.0842141,2.313,2.38611
0.587564,0.0842141,2.313,2.38795
0.599188,0.0847967,2.329,2.40634
0.610915,0.0853792,2.345,2.42477
0.618527,0.0853792,2.345,2.4267
0.63041,0.0859618,2.361,2.44523
nan,nan,nan,NaN
0.668711,0.0890201,2.445,2.53636
0.676647,0.0890201,2.445,2.53846
0.689622,0.0896755,2.463,2.55929
0.702715,0.0903309,2.481,2.58018
0.710768,0.0903309,2.481,2.58239
0.71882,0.0903309,2.481,2.58461
0.732147,0.0909862,2.499,2.60563
0.740258,0.0909862,2.499,2.60792
0.748369,0.0909862,2.499,2.61024
0.761929,0.0916416,2.517,2.63139
0.770098,0.0916416,2.517,2.63377
0.778268,0.0916416,2.517,2.63617
0.786437,0.0916416,2.517,2.63859
0.794607,0.0916416,2.517,2.64104
0.797036,0.0909862,2.499,2.6246
0.805147,0.0909862,2.499,2.62708
0.813258,0.0909862,2.499,2.62958
0.815453,0.0903309,2.481,2.61314
0.823505,0.0903309,2.481,2.61566
0.831558,0.0903309,2.481,2.61821
0.839611,0.0903309,2.481,2.62078
0.847664,0.0903309,2.481,2.62337
0.855716,0.0903309,2.481,2.62598
0.857502,0.0896755,2.463,2.60954
0.865497,0.0896755,2.463,2.61218
0.879874,0.0903309,2.481,2.63395
0.887927,0.0903309,2.481,2.63665
0.889479,0.0896755,2.463,2.62023
0.897474,0.0896755,2.463,2.62295
0.905468,0.0896755,2.463,2.6257
0.913462,0.0896755,2.463,2.62846
0.921457,0.0896755,2.463,2.63125
0.929451,0.0896755,2.463,2.63406
0.937445,0.0896755,2.463,2.63689
0.945439,0.0896755,2.463,2.63975
0.953434,0.0896755,2.463,2.64262
0.961428,0.0896755,2.463,2.64552
0.962338,0.0890201,2.445,2.62908
0.970273,0.0890201,2.445,2.63199
0.978209,0.0890201,2.445,2.63493
0.986145,0.0890201,2.445,2.63788
0.994081,0.0890201,2.445,2.64086
1.00939,0.0896755,2.463,2.66332
1.01739,0.0896755,2.463,2.66636
1.02538,0.0896755,2.463,2.66942
1.04093,0.0903309,2.481,2.69204
1.04898,0.0903309,2.481,2.69516
1.0647,0.0909862,2.499,2.71788
1.08054,0.0916416,2.517,2.74067
1.08871,0.0916416,2.517,2.7439
1.10516,0.0923334,2.536,2.76789
1.12173,0.0930251,2.555,2.79195
1.13843,0.0937169,2.574,2.81608
1.14678,0.0937169,2.574,2.81946
1.16367,0.0944087,2.593,2.84371
1.17208,0.0944087,2.593,2.84716
1.1805,0.0944087,2.593,2.85064
1.19808,0.0951369,2.613,2.87615
1.2158,0.095865,2.633,2.90173
1.22435,0.095865,2.633,2.90532
1.23289,0.095865,2.633,2.90894
1.25134,0.0966296,2.654,2.9358
1.25995,0.0966296,2.654,2.93948
1.26857,0.0966296,2.654,2.94318
1.27718,0.0966296,2.654,2.94691
1.2858,0.0966296,2.654,2.95065
1.29441,0.0966296,2.654,2.95441
1.30303,0.0966296,2.654,2.9582
1.31164,0.0966296,2.654,2.962
1.32025,0.0966296,2.654,2.96583
1.33938,0.0973942,2.675,2.99317
1.35865,0.0981588,2.696,3.02059
1.3674,0.0981588,2.696,3.02454
1.3981,0.0997244,2.739,3.07681
1.42959,0.101326,2.783,3.13035
1.4624,0.103001,2.829,3.18629
1.47158,0.103001,2.829,3.19052
1.50589,0.104749,2.877,3.24897
1.54104,0.106533,2.926,3.30872
1.55053,0.106533,2.926,3.31315
1.60108,0.109336,3.003,3.40491
1.62531,0.110319,3.03,3.44016
1.66429,0.112286,3.084,3.50621
1.6743,0.112286,3.084,3.51097
1.6996,0.113305,3.112,3.54768
1.7097,0.113305,3.112,3.55253
1.7198,0.113305,3.112,3.5574
1.74602,0.114361,3.141,3.59549
1.75622,0.114361,3.141,3.60045
1.76641,0.114361,3.141,3.60544
1.77661,0.114361,3.141,3.61044
1.7868,0.114361,3.141,3.61547
1.797,0.114361,3.141,3.62052
1.79051,0.113305,3.112,3.59212
1.80061,0.113305,3.112,3.59716
1.81071,0.113305,3.112,3.60223
1.80443,0.112286,3.084,3.57486
1.79855,0.111302,3.057,3.54858
1.80848,0.111302,3.057,3.55362
1.80234,0.110319,3.03,3.52725
1.79602,0.109336,3.003,3.50081
1.80577,0.109336,3.003,3.50582
1.7998,0.10839,2.977,3.48045
1.79366,0.107443,2.951,3.45502
1.80324,0.107443,2.951,3.46
1.79746,0.106533,2.926,3.43565
1.77669,0.104749,2.877,3.38301
1.78603,0.104749,2.877,3.38792
1.76542,0.103001,2.829,3.33625
1.74574,0.101326,2.783,3.28679
1.75478,0.101326,2.783,3.29159
1.73592,0.0997244,2.739,3.2443
1.7308,0.0989234,2.717,3.22297
1.71273,0.0973942,2.675,3.17782
1.72141,0.0973942,2.675,3.18251
1.70293,0.095865,2.633,3.13717
1.68547,0.0944087,2.593,3.09409
1.69389,0.0944087,2.593,3.09868
1.68983,0.0937169,2.574,3.08055
1.68565,0.0930251,2.555,3.06237
1.69394,0.0930251,2.555,3.06694
1.68958,0.0923334,2.536,3.04869
1.68509,0.0916416,2.517,3.03038
1.69326,0.0916416,2.517,3.03493
1.68926,0.0909862,2.499,3.01776
1.68515,0.0903309,2.481,3.00054
-1.88487,0.10774,2.717,3.30854
-1.86155,0.106907,2.696,3.27799
-1.8528,0.106907,2.696,3.27303
-1.84405,0.106907,2.696,3.26808
-1.8353,0.106907,2.696,3.26315
-1.82655,0.106907,2.696,3.25824
-1.8178,0.106907,2.696,3.25334
-1.80905,0.106907,2.696,3.24846
-1.8003,0.106907,2.696,3.2436
-1.79155,0.106907,2.696,3.23875
-1.7828,0.106907,2.696,3.23392
-1.74641,0.105241,2.654,3.1788
-1.7378,0.105241,2.654,3.17407
-1.72918,0.105241,2.654,3.16936
-1.72057,0.105241,2.654,3.16467
-1.71195,0.105241,2.654,3.16
-1.68986,0.104409,2.633,3.13037
-1.66854,0.103616,2.613,3.10202
-1.66006,0.103616,2.613,3.09747
-1.65158,0.103616,2.613,3.09293
-1.6431,0.103616,2.613,3.08841
-1.62211,0.102823,2.593,3.0603
-1.61369,0.102823,2.593,3.05585
-1.60528,0.102823,2.593,3.05141
-1.60918,0.103616,2.613,3.0705
-1.60069,0.103616,2.613,3.06606
-1.58003,0.102823,2.593,3.03821
-1.57161,0.102823,2.593,3.03384
-1.56319,0.102823,2.593,3.02949
-1.55478,0.102823,2.593,3.02515
-1.54636,0.102823,2.593,3.02084
-1.53795,0.102823,2.593,3.01654
-1.54133,0.103616,2.613,3.03549
-1.52111,0.102823,2.593,3.00799
-1.5127,0.102823,2.593,3.00374
-1.50428,0.102823,2.593,2.99951
-1.4849,0.102069,2.574,2.97335
-1.46565,0.101316,2.555,2.94727
-1.45736,0.101316,2.555,2.94316
-1.44906,0.101316,2.555,2.93906
-1.44077,0.101316,2.555,2.93498
-1.43248,0.101316,2.555,2.93092
-1.41359,0.100562,2.536,2.90511
-1.39483,0.0998088,2.517,2.87938
-1.38666,0.0998088,2.517,2.87543
-1.3785,0.0998088,2.517,2.8715
-1.36053,0.0990951,2.499,2.84708
-1.35241,0.0990951,2.499,2.84321
-1.35399,0.0998088,2.517,2.85981
-1.34582,0.0998088,2.517,2.85595
-1.33765,0.0998088,2.517,2.85211
-1.33951,0.100562,2.536,2.86979
-1.33128,0.100562,2.536,2.86596
-1.32305,0.100562,2.536,2.86214
-1.32467,0.101316,2.555,2.87976
-1.31638,0.101316,2.555,2.87596
-1.30808,0.101316,2.555,2.87217
-1.31912,0.102823,2.593,2.91107
-1.31071,0.102823,2.593,2.90726
-1.30229,0.102823,2.593,2.90348
-1.28439,0.102069,2.574,2.87847
-1.27604,0.102069,2.574,2.87475
-1.26769,0.102069,2.574,2.87105
-1.25933,0.102069,2.574,2.86737
-1.24174,0.101316,2.555,2.84257
-1.23345,0.101316,2.555,2.83896
-1.22516,0.101316,2.555,2.83537
-1.20781,0.100562,2.536,2.81073
-1.19958,0.100562,2.536,2.80721
-1.18243,0.0998088,2.517,2.78269
-1.16586,0.0990951,2.499,2.75936
-1.15775,0.0990951,2.499,2.75594
-1.14136,0.0983813,2.481,2.73272
-1.1333,0.0983813,2.481,2.72936
-1.12525,0.0983813,2.481,2.72603
-1.1172,0.0983813,2.481,2.72271
-1.1011,0.0976675,2.463,2.69969
-1.0931,0.0976675,2.463,2.69644
-1.08511,0.0976675,2.463,2.69321
-1.07712,0.0976675,2.463,2.69
-1.06131,0.0969537,2.445,2.66717
-1.05337,0.0969537,2.445,2.66402
-1.04544,0.0969537,2.445,2.66089
-1.0375,0.0969537,2.445,2.65779
-1.02956,0.0969537,2.445,2.6547
-1.02163,0.0969537,2.445,2.65163
-1.01369,0.0969537,2.445,2.64858
-1.00576,0.0969537,2.445,2.64556
-0.990883,0.0962796,2.428,2.62418
-0.983002,0.0962796,2.428,2.62121
-0.975121,0.0962796,2.428,2.61827
-0.967241,0.0962796,2.428,2.61534
-0.95936,0.0962796,2.428,2.61244
-0.951479,0.0962796,2.428,2.60955
-0.943599,0.0962796,2.428,2.60669
-0.935718,0.0962796,2.428,2.60385
-0.927837,0.0962796,2.428,2.60103
-0.919957,0.0962796,2.428,2.59823
-0.912076,0.0962796,2.428,2.59545
-0.904195,0.0962796,2.428,2.59269
-0.896315,0.0962796,2.428,2.58995
-0.894654,0.0969537,2.445,2.60535
-0.886718,0.0969537,2.445,2.60263
-0.878783,0.0969537,2.445,2.59994
-0.870847,0.0969537,2.445,2.59727
-0.862911,0.0969537,2.445,2.59462
-0.854975,0.0969537,2.445,2.59199
-0.847039,0.0969537,2.445,2.58938
-0.839103,0.0969537,2.445,2.5868
-0.831167,0.0969537,2.445,2.58423
-0.823232,0.0969537,2.445,2.58169
-0.815296,0.0969537,2.445,2.57917
-0.80736,0.0969537,2.445,2.57668
-0.799424,0.0969537,2.445,2.5742
-0.791488,0.0969537,2.445,2.57175
-0.783552,0.0969537,2.445,2.56931
-0.775616,0.0969537,2.445,2.56691
-0.773332,0.0976675,2.463,2.5834
-0.765338,0.0976675,2.463,2.58102
-0.757344,0.0976675,2.463,2.57866
-0.749349,0.0976675,2.463,2.57632
-0.741355,0.0976675,2.463,2.57401
-0.733361,0.0976675,2.463,2.57172
-0.725366,0.0976675,2.463,2.56945
-0.722615,0.0983813,2.481,2.58596
-0.714562,0.0983813,2.481,2.58373
-0.706509,0.0983813,2.481,2.58151
-0.698457,0.0983813,2.481,2.57932
-0.690404,0.0983813,2.481,2.57715
-0.677401,0.0976675,2.463,2.55632
-0.669406,0.0976675,2.463,2.55421
-0.661412,0.0976675,2.463,2.55213
-0.658193,0.0983813,2.481,2.56871
-0.65014,0.0983813,2.481,2.56666
-0.642088,0.0983813,2.481,2.56463
-0.634035,0.0983813,2.481,2.56262
-0.625982,0.0983813,2.481,2.56064
-0.61793,0.0983813,2.481,2.55869
-0.609877,0.0983813,2.481,2.55675
-0.601824,0.0983813,2.481,2.55485
-0.593771,0.0983813,2.481,2.55296
-0.585719,0.0983813,2.481,2.5511
-0.577666,0.0983813,2.481,2.54926
-0.573746,0.0990951,2.499,2.56593
-0.565635,0.0990951,2.499,2.56413
-0.557524,0.0990951,2.499,2.56235
-0.545455,0.0983813,2.481,2.54216
-0.537403,0.0983813,2.481,2.54044
-0.52935,0.0983813,2.481,2.53875
-0.525079,0.0990951,2.499,2.55549
-0.516968,0.0990951,2.499,2.55384
-0.508857,0.0990951,2.499,2.55221
-0.500746,0.0990951,2.499,2.5506
-0.492635,0.0990951,2.499,2.54902
-0.484524,0.0990951,2.499,2.54747
-0.476412,0.0990951,2.499,2.54594
-0.468301,0.0990951,2.499,2.54443
-0.463505,0.0998088,2.517,2.56127
-0.455335,0.0998088,2.517,2.5598
-0.450541,0.100562,2.536,2.57767
-0.44231,0.100562,2.536,2.57625
-0.434079,0.100562,2.536,2.57485
-0.425848,0.100562,2.536,2.57347
-0.417616,0.100562,2.536,2.57212
-0.409385,0.100562,2.536,2.5708
-0.401154,0.100562,2.536,2.5695
-0.395866,0.101316,2.555,2.58747
-0.387574,0.101316,2.555,2.58621
-0.379281,0.101316,2.555,2.58498
-0.370988,0.101316,2.555,2.58378
-0.362695,0.101316,2.555,2.5826
-0.354402,0.101316,2.555,2.58145
-0.346109,0.101316,2.555,2.58033
-0.337816,0.101316,2.555,2.57923
-0.329523,0.101316,2.555,2.57815
-0.32123,0.101316,2.555,2.57711
-0.312937,0.101316,2.555,2.57609
-0.304645,0.101316,2.555,2.57509
-0.296352,0.101316,2.555,2.57412
-0.288059,0.101316,2.555,2.57318
-0.279766,0.101316,2.555,2.57227
-0.271473,0.101316,2.555,2.57138
-0.26318,0.101316,2.555,2.57052
-0.256783,0.102069,2.574,2.58879
-0.248428,0.102069,2.574,2.58797
-0.240074,0.102069,2.574,2.58719
-0.231719,0.102069,2.574,2.58642
-0.223364,0.102069,2.574,2.58569
-0.21501,0.102069,2.574,2.58498
-0.206655,0.102069,2.574,2.5843
-0.198301,0.102069,2.574,2.58364
-0.189946,0.102069,2.574,2.58302
-0.181592,0.102069,2.574,2.58242
-0.173237,0.102069,2.574,2.58184
-0.163665,0.101316,2.555,2.56224
-0.154217,0.100562,2.536,2.54267
-0.145986,0.100562,2.536,2.54219
-0.137755,0.100562,2.536,2.54173
-0.129523,0.100562,2.536,2.5413
-0.121292,0.100562,2.536,2.54089
-0.113061,0.100562,2.536,2.54051
-0.10483,0.100562,2.536,2.54016
-0.0965985,0.100562,2.536,2.53983
-0.0883672,0.100562,2.536,2.53953
-0.080136,0.100562,2.536,2.53926
-0.0719048,0.100562,2.536,2.53901
-0.0636736,0.100562,2.536,2.53879
-0.0554423,0.100562,2.536,2.5386
-0.0472111,0.100562,2.536,2.53843
-0.0389799,0.100562,2.536,2.53829
-0.0307487,0.100562,2.536,2.53818
-0.0225174,0.100562,2.536,2.53809
-0.0142862,0.100562,2.536,2.53803
-0.00605498,0.100562,2.536,2.538
0.00217625,0.100562,2.536,2.53799
0.0104854,0.101316,2.555,2.55703
0.0187783,0.101316,2.555,2.55708
0.0268699,0.100562,2.536,2.53814
0.0351011,0.100562,2.536,2.53824
0.0433324,0.100562,2.536,2.53836
0.0515636,0.100562,2.536,2.53852
0.0597948,0.100562,2.536,2.5387
0.0680261,0.100562,2.536,2.5389
0.0762573,0.100562,2.536,2.53914
0.0844885,0.100562,2.536,2.5394
0.0934144,0.101316,2.555,2.55871
0.101707,0.101316,2.555,2.55903
0.11,0.101316,2.555,2.55937
0.118293,0.101316,2.555,2.55974
0.126586,0.101316,2.555,2.56014
0.134879,0.101316,2.555,2.56056
0.143172,0.101316,2.555,2.56101
0.151465,0.101316,2.555,2.56149
0.159758,0.101316,2.555,2.56199
0.16805,0.101316,2.555,2.56252
0.176343,0.101316,2.555,2.56308
0.184636,0.101316,2.555,2.56367
0.191494,0.100562,2.536,2.54521
0.198229,0.0998088,2.517,2.52677
0.206399,0.0998088,2.517,2.52742
0.214568,0.0998088,2.517,2.5281
nan,nan,nan,NaN
nan,nan,nan,NaN
nan,nan,nan,NaN
nan,nan,nan,NaN
nan,nan,nan,NaN
nan,nan,nan,NaN
nan,nan,nan,NaN
nan,nan,nan,NaN
nan,nan,nan,NaN
nan,nan,nan,NaN
nan,nan,nan,NaN
nan,nan,nan,NaN
nan,nan,nan,NaN
nan,nan,nan,NaN
nan,nan,nan,NaN
nan,nan,nan,NaN
nan,nan,nan,NaN
nan,nan,nan,NaN
nan,nan,nan,NaN
nan,nan,nan,NaN
nan,nan,nan,NaN
nan,nan,nan,NaN
nan,nan,nan,NaN
nan,nan,nan,NaN
nan,nan,nan,NaN
nan,nan,nan,NaN
nan,nan,nan,NaN
nan,nan,nan,NaN
nan,nan,nan,NaN
nan,nan,nan,NaN
nan,nan,nan,NaN
nan,nan,nan,NaN
0.460504,0.0949314,2.394,2.43974
0.468274,0.0949314,2.394,2.44121
0.472664,0.0942573,2.377,2.42537
0.480379,0.0942573,2.377,2.42689
0.488094,0.0942573,2.377,2.42843
0.49581,0.0942573,2.377,2.42999
0.503525,0.0942573,2.377,2.43157
0.51124,0.0942573,2.377,2.43318
0.518955,0.0942573,2.377,2.43482
0.523125,0.0936228,2.361,2.42007
0.527191,0.0929884,2.345,2.40533
0.534802,0.0929884,2.345,2.40701
0.542414,0.0929884,2.345,2.40871
0.546272,0.0923539,2.329,2.39399
0.553832,0.0923539,2.329,2.39573
0.561391,0.0923539,2.329,2.39748
0.565042,0.0917194,2.313,2.38278
0.572549,0.0917194,2.313,2.38457
0.580056,0.0917194,2.313,2.38639
0.587564,0.0917194,2.313,2.38822
0.599188,0.0923539,2.329,2.40662
0.610915,0.0929884,2.345,2.42505
0.618527,0.0929884,2.345,2.42698
0.63041,0.0936228,2.361,2.44551
nan,nan,nan,NaN
nan,nan,nan,NaN
0.681628,0.0976675,2.463,2.55744
0.689622,0.0976675,2.463,2.55959
0.702715,0.0983813,2.481,2.58047
0.710768,0.0983813,2.481,2.58268
0.71882,0.0983813,2.481,2.58491
0.732147,0.0990951,2.499,2.60593
0.740258,0.0990951,2.499,2.60822
0.748369,0.0990951,2.499,2.61053
0.761929,0.0998088,2.517,2.63169
0.770098,0.0998088,2.517,2.63407
0.778268,0.0998088,2.517,2.63647
0.786437,0.0998088,2.517,2.63889
0.794607,0.0998088,2.517,2.64134
0.797036,0.0990951,2.499,2.6249
0.805147,0.0990951,2.499,2.62737
0.813258,0.0990951,2.499,2.62987
0.815453,0.0983813,2.481,2.61343
0.823505,0.0983813,2.481,2.61595
0.831558,0.0983813,2.481,2.6185
0.839611,0.0983813,2.481,2.62107
0.847664,0.0983813,2.481,2.62366
0.855716,0.0983813,2.481,2.62627
0.857502,0.0976675,2.463,2.60983
0.865497,0.0976675,2.463,2.61247
0.879874,0.0983813,2.481,2.63424
0.887927,0.0983813,2.481,2.63694
0.889479,0.0976675,2.463,2.62051
0.897474,0.0976675,2.463,2.62324
0.905468,0.0976675,2.463,2.62598
0.913462,0.0976675,2.463,2.62875
0.921457,0.0976675,2.463,2.63154
0.929451,0.0976675,2.463,2.63435
0.937445,0.0976675,2.463,2.63718
0.945439,0.0976675,2.463,2.64003
0.953434,0.0976675,2.463,2.6429
0.961428,0.0976675,2.463,2.6458
0.962338,0.0969537,2.445,2.62936
0.970273,0.0969537,2.445,2.63227
0.978209,0.0969537,2.445,2.63521
0.986145,0.0969537,2.445,2.63816
0.994081,0.0969537,2.445,2.64114
1.00939,0.0976675,2.463,2.6636
1.01739,0.0976675,2.463,2.66664
1.02538,0.0976675,2.463,2.6697
1.04093,0.0983813,2.481,2.69232
1.04898,0.0983813,2.481,2.69544
1.0647,0.0990951,2.499,2.71816
1.07281,0.0990951,2.499,2.72135
1.08093,0.0990951,2.499,2.72456
1.09688,0.0998088,2.517,2.74744
1.12173,0.101316,2.555,2.79223
1.13843,0.102069,2.574,2.81637
1.14678,0.102069,2.574,2.81975
1.15514,0.102069,2.574,2.82316
1.17208,0.102823,2.593,2.84745
1.1805,0.102823,2.593,2.85093
1.18891,0.102823,2.593,2.85442
1.20657,0.103616,2.613,2.87998
1.21505,0.103616,2.613,2.88355
1.22353,0.103616,2.613,2.88713
1.24144,0.104409,2.633,2.91286
1.24998,0.104409,2.633,2.91651
1.24897,0.103616,2.613,2.89801
1.25745,0.103616,2.613,2.90167
1.26593,0.103616,2.613,2.90536
1.27441,0.103616,2.613,2.90906
1.2829,0.103616,2.613,2.91279
1.29138,0.103616,2.613,2.91653
1.29986,0.103616,2.613,2.9203
1.31835,0.104409,2.633,2.94646
1.33748,0.105241,2.654,2.97383
1.3461,0.105241,2.654,2.97771
1.37615,0.106907,2.696,3.0288
1.39569,0.10774,2.717,3.05641
1.43862,0.110357,2.783,3.13479
1.44766,0.110357,2.783,3.13895
1.48077,0.112181,2.829,3.19507
1.51523,0.114084,2.877,3.25362
1.52457,0.114084,2.877,3.25798
1.56003,0.116027,2.926,3.31793
1.59688,0.11805,2.977,3.38031
1.63515,0.120151,3.03,3.44515
1.64498,0.120151,3.03,3.44983
1.66956,0.121222,3.057,3.48531
1.69432,0.122293,3.084,3.5209
1.70433,0.122293,3.084,3.52573
1.7299,0.123403,3.112,3.56263
1.74,0.123403,3.112,3.56755
1.75011,0.123403,3.112,3.57248
1.74437,0.122293,3.084,3.54526
1.75438,0.122293,3.084,3.55019
1.76439,0.122293,3.084,3.55515
1.7744,0.122293,3.084,3.56013
1.76879,0.121222,3.057,3.53391
1.77871,0.121222,3.057,3.53889
1.78863,0.121222,3.057,3.54389
1.78267,0.120151,3.03,3.51756
1.7925,0.120151,3.03,3.52256
1.78628,0.119081,3.003,3.49614
1.78047,0.11805,2.977,3.47081
1.79014,0.11805,2.977,3.47578
1.78408,0.117019,2.951,3.45037
1.77846,0.116027,2.926,3.42606
1.78796,0.116027,2.926,3.431
1.7821,0.115036,2.901,3.4066
1.76187,0.113133,2.853,3.35509
1.77113,0.113133,2.853,3.35996
1.75106,0.111269,2.806,3.30942
1.73194,0.109484,2.761,3.26109
1.7409,0.109484,2.761,3.26586
1.72198,0.10774,2.717,3.21853
1.71742,0.106907,2.696,3.19834
1.69928,0.105241,2.654,3.15315
1.70789,0.105241,2.654,3.1578
1.68999,0.103616,2.613,3.11361
1.67312,0.102069,2.574,3.07168
1.68148,0.102069,2.574,3.07624
1.67736,0.101316,2.555,3.05807
1.67312,0.100562,2.536,3.03986
1.68135,0.100562,2.536,3.04439
1.67692,0.0998088,2.517,3.0261
1.67304,0.0990951,2.499,3.00897
1.68115,0.0990951,2.499,3.01348
1.67709,0.0983813,2.481,2.99628
1.67292,0.0976675,2.463,2.97902
-1.85574,0.114754,2.675,3.25769
-1.84705,0.114754,2.675,3.25275
-1.83837,0.114754,2.675,3.24783
-1.82969,0.114754,2.675,3.24292
-1.80671,0.113853,2.654,3.21261
-1.7981,0.113853,2.654,3.20778
-1.78948,0.113853,2.654,3.20296
-1.78087,0.113853,2.654,3.19815
-1.75823,0.112952,2.633,3.16809
-1.74968,0.112952,2.633,3.16336
-1.74114,0.112952,2.633,3.15864
-1.73259,0.112952,2.633,3.15394
-1.72405,0.112952,2.633,3.14925
-1.70247,0.112094,2.613,3.12069
-1.68102,0.111236,2.593,3.09223
-1.67261,0.111236,2.593,3.08766
-1.66419,0.111236,2.593,3.08311
-1.64364,0.110421,2.574,3.05601
-1.63529,0.110421,2.574,3.05153
-1.61492,0.109606,2.555,3.02457
-1.60663,0.109606,2.555,3.02015
-1.59834,0.109606,2.555,3.01574
-1.59004,0.109606,2.555,3.01136
-1.58175,0.109606,2.555,3.00699
-1.57346,0.109606,2.555,3.00263
-1.56516,0.109606,2.555,2.9983
-1.55687,0.109606,2.555,2.99398
-1.54858,0.109606,2.555,2.98967
-1.54029,0.109606,2.555,2.98538
-1.53199,0.109606,2.555,2.98111
-1.54636,0.111236,2.593,3.02114
-1.53795,0.111236,2.593,3.01684
-1.54133,0.112094,2.613,3.03579
-1.52111,0.111236,2.593,3.00829
-1.5127,0.111236,2.593,3.00404
-1.50428,0.111236,2.593,2.99981
-1.4849,0.110421,2.574,2.97365
-1.46565,0.109606,2.555,2.94757
-1.45736,0.109606,2.555,2.94346
-1.44906,0.109606,2.555,2.93936
-1.44077,0.109606,2.555,2.93528
-1.43248,0.109606,2.555,2.93122
-1.41359,0.108791,2.536,2.90541
-1.39483,0.107976,2.517,2.87967
-1.38666,0.107976,2.517,2.87572
-1.3785,0.107976,2.517,2.87179
-1.36053,0.107204,2.499,2.84737
-1.35241,0.107204,2.499,2.8435
-1.35399,0.107976,2.517,2.86011
-1.34582,0.107976,2.517,2.85625
-1.33765,0.107976,2.517,2.85241
-1.33951,0.108791,2.536,2.87009
-1.33128,0.108791,2.536,2.86626
-1.32305,0.108791,2.536,2.86245
-1.32467,0.109606,2.555,2.88007
-1.31638,0.109606,2.555,2.87626
-1.30808,0.109606,2.555,2.87248
-1.31912,0.111236,2.593,2.91138
-1.31071,0.111236,2.593,2.90757
-1.30229,0.111236,2.593,2.90379
-1.28439,0.110421,2.574,2.87877
-1.27604,0.110421,2.574,2.87506
-1.26769,0.110421,2.574,2.87136
-1.25933,0.110421,2.574,2.86768
-1.24174,0.109606,2.555,2.84288
-1.23345,0.109606,2.555,2.83927
-1.22516,0.109606,2.555,2.83567
-1.21686,0.109606,2.555,2.8321
-1.20857,0.109606,2.555,2.82855
-1.19135,0.108791,2.536,2.80401
-1.16586,0.107204,2.499,2.75966
-1.15775,0.107204,2.499,2.75624
-1.14136,0.106432,2.481,2.73302
-1.1333,0.106432,2.481,2.72966
-1.12525,0.106432,2.481,2.72633
-1.1172,0.106432,2.481,2.72302
-1.1011,0.10566,2.463,2.69999
-1.0931,0.10566,2.463,2.69674
-1.08511,0.10566,2.463,2.69351
-1.07712,0.10566,2.463,2.6903
-1.06131,0.104887,2.445,2.66747
-1.05337,0.104887,2.445,2.66432
-1.04544,0.104887,2.445,2.6612
-1.0375,0.104887,2.445,2.65809
-1.02956,0.104887,2.445,2.655
-1.02163,0.104887,2.445,2.65193
-1.01369,0.104887,2.445,2.64889
-0.998763,0.104158,2.428,2.62746
-0.990883,0.104158,2.428,2.62448
-0.983002,0.104158,2.428,2.62151
-0.975121,0.104158,2.428,2.61857
-0.967241,0.104158,2.428,2.61564
-0.95936,0.104158,2.428,2.61274
-0.951479,0.104158,2.428,2.60986
-0.943599,0.104158,2.428,2.60699
-0.935718,0.104158,2.428,2.60415
-0.927837,0.104158,2.428,2.60133
-0.919957,0.104158,2.428,2.59853
-0.912076,0.104158,2.428,2.59575
-0.904195,0.104158,2.428,2.59299
-0.896315,0.104158,2.428,2.59025
-0.894654,0.104887,2.445,2.60565
-0.886718,0.104887,2.445,2.60294
-0.878783,0.104887,2.445,2.60025
-0.870847,0.104887,2.445,2.59758
-0.862911,0.104887,2.445,2.59493
-0.854975,0.104887,2.445,2.5923
-0.847039,0.104887,2.445,2.58969
-0.839103,0.104887,2.445,2.58711
-0.831167,0.104887,2.445,2.58454
-0.823232,0.104887,2.445,2.582
-0.815296,0.104887,2.445,2.57948
-0.80736,0.104887,2.445,2.57699
-0.799424,0.104887,2.445,2.57451
-0.791488,0.104887,2.445,2.57206
-0.783552,0.104887,2.445,2.56963
-0.775616,0.104887,2.445,2.56722
-0.773332,0.10566,2.463,2.58371
-0.765338,0.10566,2.463,2.58133
-0.757344,0.10566,2.463,2.57897
-0.749349,0.10566,2.463,2.57664
-0.741355,0.10566,2.463,2.57432
-0.733361,0.10566,2.463,2.57203
-0.725366,0.10566,2.463,2.56976
-0.722615,0.106432,2.481,2.58628
-0.714562,0.106432,2.481,2.58405
-0.706509,0.106432,2.481,2.58183
-0.698457,0.106432,2.481,2.57964
-0.690404,0.106432,2.481,2.57747
-0.677401,0.10566,2.463,2.55664
-0.669406,0.10566,2.463,2.55453
-0.661412,0.10566,2.463,2.55245
-0.658193,0.106432,2.481,2.56903
-0.65014,0.106432,2.481,2.56698
-0.642088,0.106432,2.481,2.56495
-0.634035,0.106432,2.481,2.56295
-0.625982,0.106432,2.481,2.56097
-0.61793,0.106432,2.481,2.55901
-0.609877,0.106432,2.481,2.55708
-0.601824,0.106432,2.481,2.55517
-0.593771,0.106432,2.481,2.55328
-0.585719,0.106432,2.481,2.55142
-0.577666,0.106432,2.481,2.54959
-0.569613,0.106432,2.481,2.54777
-0.565635,0.107204,2.499,2.56446
-0.553508,0.106432,2.481,2.54422
-0.545455,0.106432,2.481,2.54248
-0.537403,0.106432,2.481,2.54077
-0.52935,0.106432,2.481,2.53907
-0.521297,0.106432,2.481,2.53741
-0.516968,0.107204,2.499,2.55416
-0.508857,0.107204,2.499,2.55253
-0.500746,0.107204,2.499,2.55093
-0.492635,0.107204,2.499,2.54935
-0.484524,0.107204,2.499,2.54779
-0.476412,0.107204,2.499,2.54626
-0.468301,0.107204,2.499,2.54476
-0.46019,0.107204,2.499,2.54328
-0.452079,0.107204,2.499,2.54182
-0.450541,0.108791,2.536,2.57801
-0.44231,0.108791,2.536,2.57658
-0.434079,0.108791,2.536,2.57518
-0.425848,0.108791,2.536,2.57381
-0.417616,0.108791,2.536,2.57246
-0.409385,0.108791,2.536,2.57113
-0.401154,0.108791,2.536,2.56984
-0.395866,0.109606,2.555,2.58781
-0.387574,0.109606,2.555,2.58655
-0.379281,0.109606,2.555,2.58532
-0.370988,0.109606,2.555,2.58412
-0.362695,0.109606,2.555,2.58294
-0.354402,0.109606,2.555,2.58179
-0.346109,0.109606,2.555,2.58066
-0.337816,0.109606,2.555,2.57957
-0.329523,0.109606,2.555,2.57849
-0.32123,0.109606,2.555,2.57745
-0.312937,0.109606,2.555,2.57643
-0.304645,0.109606,2.555,2.57543
-0.296352,0.109606,2.555,2.57446
-0.288059,0.109606,2.555,2.57352
-0.279766,0.109606,2.555,2.57261
-0.271473,0.109606,2.555,2.57172
-0.26318,0.109606,2.555,2.57086
-0.256783,0.110421,2.574,2.58913
-0.248428,0.110421,2.574,2.58832
-0.240074,0.110421,2.574,2.58753
-0.231719,0.110421,2.574,2.58677
-0.223364,0.110421,2.574,2.58603
-0.21501,0.110421,2.574,2.58532
-0.206655,0.110421,2.574,2.58464
-0.198301,0.110421,2.574,2.58399
-0.189946,0.110421,2.574,2.58336
-0.181592,0.110421,2.574,2.58276
-0.173237,0.110421,2.574,2.58219
-0.163665,0.109606,2.555,2.56258
-0.155372,0.109606,2.555,2.56207
-0.14708,0.109606,2.555,2.56158
-0.137755,0.108791,2.536,2.54207
-0.129523,0.108791,2.536,2.54163
-0.121292,0.108791,2.536,2.54123
-0.113061,0.108791,2.536,2.54085
-0.10483,0.108791,2.536,2.5405
-0.0965985,0.108791,2.536,2.54017
-0.0883672,0.108791,2.536,2.53987
-0.080136,0.108791,2.536,2.5396
-0.0719048,0.108791,2.536,2.53935
-0.0636736,0.108791,2.536,2.53913
-0.0554423,0.108791,2.536,2.53894
-0.0472111,0.108791,2.536,2.53877
-0.0389799,0.108791,2.536,2.53863
-0.0307487,0.108791,2.536,2.53852
-0.0225174,0.108791,2.536,2.53843
-0.0142862,0.108791,2.536,2.53837
-0.00605498,0.108791,2.536,2.53834
0.00217625,0.108791,2.536,2.53833
0.0104854,0.109606,2.555,2.55737
0.0187783,0.109606,2.555,2.55742
0.0268699,0.108791,2.536,2.53847
0.0351011,0.108791,2.536,2.53858
0.0433324,0.108791,2.536,2.5387
0.0515636,0.108791,2.536,2.53886
0.0597948,0.108791,2.536,2.53904
0.0680261,0.108791,2.536,2.53924
0.0762573,0.108791,2.536,2.53948
0.0844885,0.108791,2.536,2.53974
0.0934144,0.109606,2.555,2.55906
0.101707,0.109606,2.555,2.55937
0.11,0.109606,2.555,2.55971
0.118293,0.109606,2.555,2.56008
0.126586,0.109606,2.555,2.56048
0.134879,0.109606,2.555,2.5609
0.143172,0.109606,2.555,2.56135
nan,nan,nan,NaN
0.160946,0.110421,2.574,2.58139
0.16805,0.109606,2.555,2.56287
0.176343,0.109606,2.555,2.56342
0.184636,0.109606,2.555,2.56401
0.191494,0.108791,2.536,2.54555
0.198229,0.107976,2.517,2.5271
0.206399,0.107976,2.517,2.52776
0.214568,0.107976,2.517,2.52844
nan,nan,nan,NaN
nan,nan,nan,NaN
nan,nan,nan,NaN
nan,nan,nan,NaN
nan,nan,nan,NaN
nan,nan,nan,NaN
nan,nan,nan,NaN
nan,nan,nan,NaN
nan,nan,nan,NaN
nan,nan,nan,NaN
nan,nan,nan,NaN
nan,nan,nan,NaN
nan,nan,nan,NaN
nan,nan,nan,NaN
nan,nan,nan,NaN
nan,nan,nan,NaN
nan,nan,nan,NaN
nan,nan,nan,NaN
nan,nan,nan,NaN
nan,nan,nan,NaN
nan,nan,nan,NaN
nan,nan,nan,NaN
nan,nan,nan,NaN
nan,nan,nan,NaN
nan,nan,nan,NaN
nan,nan,nan,NaN
nan,nan,nan,NaN
nan,nan,nan,NaN
nan,nan,nan,NaN
nan,nan,nan,NaN
nan,nan,nan,NaN
0.452734,0.1027,2.394,2.4386
0.460504,0.1027,2.394,2.44005
0.468274,0.1027,2.394,2.44153
0.472664,0.10197,2.377,2.42568
0.480379,0.10197,2.377,2.4272
0.488094,0.10197,2.377,2.42874
0.49581,0.10197,2.377,2.4303
0.503525,0.10197,2.377,2.43189
0.507799,0.101284,2.361,2.41711
0.515462,0.101284,2.361,2.41874
0.523125,0.101284,2.361,2.42038
0.527191,0.100598,2.345,2.40563
0.534802,0.100598,2.345,2.40731
0.542414,0.100598,2.345,2.40902
0.546272,0.0999111,2.329,2.39429
0.553832,0.0999111,2.329,2.39603
0.557534,0.0992248,2.313,2.38131
0.565042,0.0992248,2.313,2.38308
0.568836,0.0985813,2.298,2.36941
0.576295,0.0985813,2.298,2.37121
0.583754,0.0985813,2.298,2.37303
0.595071,0.0992248,2.313,2.39038
0.602579,0.0992248,2.313,2.39226
0.610086,0.0992248,2.313,2.39416
0.626138,0.100598,2.345,2.42924
0.638073,0.101284,2.361,2.4478
0.645737,0.101284,2.361,2.44981
0.657828,0.10197,2.377,2.46845
0.675063,0.103429,2.411,2.50586
0.692518,0.104887,2.445,2.54335
0.700454,0.104887,2.445,2.54552
0.713605,0.10566,2.463,2.56647
0.721599,0.10566,2.463,2.5687
0.729594,0.10566,2.463,2.57096
0.742978,0.106432,2.481,2.59205
0.75648,0.107204,2.499,2.61319
0.764591,0.107204,2.499,2.61555
0.778268,0.107976,2.517,2.63679
0.780813,0.107204,2.499,2.62034
0.788924,0.107204,2.499,2.62276
0.797036,0.107204,2.499,2.62522
0.805147,0.107204,2.499,2.62769
0.813258,0.107204,2.499,2.63019
0.815453,0.106432,2.481,2.61374
0.823505,0.106432,2.481,2.61627
0.831558,0.106432,2.481,2.61881
0.839611,0.106432,2.481,2.62138
0.847664,0.106432,2.481,2.62397
0.855716,0.106432,2.481,2.62658
0.857502,0.10566,2.463,2.61014
0.865497,0.10566,2.463,2.61278
0.873491,0.10566,2.463,2.61544
0.881485,0.10566,2.463,2.61812
0.889479,0.10566,2.463,2.62082
0.897474,0.10566,2.463,2.62355
0.905468,0.10566,2.463,2.62629
0.913462,0.10566,2.463,2.62906
0.921457,0.10566,2.463,2.63185
0.929451,0.10566,2.463,2.63466
0.937445,0.10566,2.463,2.63749
0.945439,0.10566,2.463,2.64034
0.953434,0.10566,2.463,2.64321
0.961428,0.10566,2.463,2.64611
0.969422,0.10566,2.463,2.64902
0.970273,0.104887,2.445,2.63258
0.978209,0.104887,2.445,2.63551
0.986145,0.104887,2.445,2.63847
0.994081,0.104887,2.445,2.64144
1.00939,0.10566,2.463,2.66391
1.01739,0.10566,2.463,2.66695
1.03288,0.106432,2.481,2.68952
1.04093,0.106432,2.481,2.69262
1.04898,0.106432,2.481,2.69575
1.0647,0.107204,2.499,2.71847
1.07281,0.107204,2.499,2.72166
1.08093,0.107204,2.499,2.72487
1.09688,0.107976,2.517,2.74774
1.11339,0.108791,2.536,2.77178
1.13003,0.109606,2.555,2.79589
1.13832,0.109606,2.555,2.79925
1.14661,0.109606,2.555,2.80263
1.16349,0.110421,2.574,2.8269
1.17185,0.110421,2.574,2.83035
1.1802,0.110421,2.574,2.83382
1.19733,0.111236,2.593,2.85826
1.20575,0.111236,2.593,2.86179
1.21416,0.111236,2.593,2.86535
1.22258,0.111236,2.593,2.86892
1.231,0.111236,2.593,2.87252
1.23941,0.111236,2.593,2.87614
1.24783,0.111236,2.593,2.87977
1.25624,0.111236,2.593,2.88343
1.26466,0.111236,2.593,2.88711
1.27308,0.111236,2.593,2.8908
1.28149,0.111236,2.593,2.89452
1.28991,0.111236,2.593,2.89826
