0.0358901,-0.149593,2.593,2.59756
0.0446481,-0.150747,2.613,2.61773
0.0531292,-0.150747,2.613,2.61788
0.0616104,-0.150747,2.613,2.61807
0.0700915,-0.150747,2.613,2.61828
0.0785727,-0.150747,2.613,2.61852
0.0870538,-0.150747,2.613,2.61879
0.095535,-0.150747,2.613,2.61909
0.104016,-0.150747,2.613,2.61941
0.113358,-0.151901,2.633,2.63981
0.121904,-0.151901,2.633,2.64019
0.13045,-0.151901,2.633,2.6406
0.138997,-0.151901,2.633,2.64104
0.147543,-0.151901,2.633,2.6415
0.156089,-0.151901,2.633,2.64199
0.164635,-0.151901,2.633,2.64251
0.173181,-0.151901,2.633,2.64306
0.183176,-0.153112,2.654,2.66472
0.19179,-0.153112,2.654,2.66532
0.200405,-0.153112,2.654,2.66596
0.209019,-0.153112,2.654,2.66662
0.217633,-0.153112,2.654,2.66731
0.224457,-0.151901,2.633,2.64691
0.233003,-0.151901,2.633,2.64765
0.241549,-0.151901,2.633,2.64842
0.250095,-0.151901,2.633,2.64921
0.258641,-0.151901,2.633,2.65003
0.267187,-0.151901,2.633,2.65088
0.275734,-0.151901,2.633,2.65175
0.28428,-0.151901,2.633,2.65266
0.292826,-0.151901,2.633,2.65358
0.299083,-0.150747,2.613,2.63438
0.307564,-0.150747,2.613,2.63535
0.316045,-0.150747,2.613,2.63636
0.322042,-0.149593,2.593,2.6172
0.328037,-0.148497,2.574,2.59906
0.336391,-0.148497,2.574,2.60013
0.344746,-0.148497,2.574,2.60123
0.350494,-0.147401,2.555,2.58314
0.358787,-0.147401,2.555,2.58428
0.36708,-0.147401,2.555,2.58544
0.375373,-0.147401,2.555,2.58663
0.380813,-0.146305,2.536,2.5686
0.389044,-0.146305,2.536,2.56984
0.397275,-0.146305,2.536,2.57109
0.408544,-0.147401,2.555,2.59165
0.416837,-0.147401,2.555,2.59297
0.42513,-0.147401,2.555,2.59432
0.433423,-0.147401,2.555,2.59569
0.441716,-0.147401,2.555,2.59709
0.450009,-0.147401,2.555,2.59851
0.458302,-0.147401,2.555,2.59996
0.466595,-0.147401,2.555,2.60143
0.474888,-0.147401,2.555,2.60294
0.48318,-0.147401,2.555,2.60446
0.491473,-0.147401,2.555,2.60601
0.499766,-0.147401,2.555,2.60759
0.508059,-0.147401,2.555,2.60919
0.516352,-0.147401,2.555,2.61082
0.520743,-0.146305,2.536,2.59304
0.528975,-0.146305,2.536,2.59471
0.537206,-0.146305,2.536,2.5964
0.545437,-0.146305,2.536,2.59812
0.557817,-0.147401,2.555,2.61933
0.566109,-0.147401,2.555,2.62111
0.574402,-0.147401,2.555,2.62292
0.582695,-0.147401,2.555,2.62474
0.590988,-0.147401,2.555,2.6266
0.603738,-0.148497,2.574,2.64802
0.612092,-0.148497,2.574,2.64994
0.620447,-0.148497,2.574,2.65188
0.633443,-0.149593,2.593,2.67344
0.641859,-0.149593,2.593,2.67545
0.650275,-0.149593,2.593,2.67748
0.658691,-0.149593,2.593,2.67953
0.662219,-0.148497,2.574,2.66197
0.670574,-0.148497,2.574,2.66406
0.678929,-0.148497,2.574,2.66617
0.68221,-0.147401,2.555,2.64862
0.690503,-0.147401,2.555,2.65076
0.693599,-0.146305,2.536,2.63321
0.70183,-0.146305,2.536,2.63539
0.710062,-0.146305,2.536,2.63759
0.712911,-0.145209,2.517,2.62004
0.721081,-0.145209,2.517,2.62228
0.729251,-0.145209,2.517,2.62453
0.73742,-0.145209,2.517,2.62682
0.740258,-0.14417,2.499,2.61032
0.748369,-0.14417,2.499,2.61263
0.75648,-0.14417,2.499,2.61497
0.764591,-0.14417,2.499,2.61732
0.772702,-0.14417,2.499,2.61971
0.780813,-0.14417,2.499,2.62211
0.788924,-0.14417,2.499,2.62454
0.797036,-0.14417,2.499,2.62699
0.805147,-0.14417,2.499,2.62946
0.813258,-0.14417,2.499,2.63195
0.821369,-0.14417,2.499,2.63447
0.823505,-0.143132,2.481,2.61802
0.831558,-0.143132,2.481,2.62056
0.839611,-0.143132,2.481,2.62313
0.841514,-0.142093,2.463,2.60667
0.849508,-0.142093,2.463,2.60926
0.857502,-0.142093,2.463,2.61187
0.859171,-0.141055,2.445,2.5954
0.867107,-0.141055,2.445,2.59804
0.868959,-0.140074,2.428,2.58261
0.87684,-0.140074,2.428,2.58528
0.88472,-0.140074,2.428,2.58796
0.886351,-0.139094,2.411,2.57253
0.887872,-0.138113,2.394,2.55707
0.895642,-0.138113,2.394,2.55978
0.903413,-0.138113,2.394,2.56251
0.904712,-0.137132,2.377,2.54705
0.906286,-0.136209,2.361,2.53263
0.913949,-0.136209,2.361,2.53539
0.921612,-0.136209,2.361,2.53816
0.929276,-0.136209,2.361,2.54095
0.936939,-0.136209,2.361,2.54376
0.944602,-0.136209,2.361,2.5466
nan,nan,nan,NaN
nan,nan,nan,NaN
nan,nan,nan,NaN
nan,nan,nan,NaN
nan,nan,nan,NaN
nan,nan,nan,NaN
nan,nan,nan,NaN
nan,nan,nan,NaN
nan,nan,nan,NaN
nan,nan,nan,NaN
nan,nan,nan,NaN
nan,nan,nan,NaN
nan,nan,nan,NaN
nan,nan,nan,NaN
nan,nan,nan,NaN
nan,nan,nan,NaN
nan,nan,nan,NaN
nan,nan,nan,NaN
nan,nan,nan,NaN
nan,nan,nan,NaN
nan,nan,nan,NaN
nan,nan,nan,NaN
nan,nan,nan,NaN
nan,nan,nan,NaN
nan,nan,nan,NaN
nan,nan,nan,NaN
nan,nan,nan,NaN
nan,nan,nan,NaN
nan,nan,nan,NaN
nan,nan,nan,NaN
nan,nan,nan,NaN
nan,nan,nan,NaN
nan,nan,nan,NaN
nan,nan,nan,NaN
nan,nan,nan,NaN
nan,nan,nan,NaN
nan,nan,nan,NaN
nan,nan,nan,NaN
nan,nan,nan,NaN
1.72753,-0.188073,3.26,3.69423
1.73811,-0.188073,3.26,3.69919
1.78302,-0.191766,3.324,3.77689
1.79381,-0.191766,3.324,3.782
1.8046,-0.191766,3.324,3.78712
1.81538,-0.191766,3.324,3.79228
1.82617,-0.191766,3.324,3.79745
1.81928,-0.189919,3.292,3.76605
1.82996,-0.189919,3.292,3.77122
1.84065,-0.189919,3.292,3.77642
1.85133,-0.189919,3.292,3.78164
1.86202,-0.189919,3.292,3.78688
1.8727,-0.189919,3.292,3.79214
1.88339,-0.189919,3.292,3.79743
1.87566,-0.188073,3.26,3.76578
1.88624,-0.188073,3.26,3.77106
1.89682,-0.188073,3.26,3.77636
1.9074,-0.188073,3.26,3.78169
1.90034,-0.186343,3.23,3.75219
1.91082,-0.186343,3.23,3.75751
1.90286,-0.184554,3.199,3.72673
1.91325,-0.184554,3.199,3.73205
1.92363,-0.184554,3.199,3.73738
1.91648,-0.182881,3.17,3.70881
1.89152,-0.179535,3.112,3.64618
1.90162,-0.179535,3.112,3.65143
1.87793,-0.176362,3.057,3.59207
1.87118,-0.174804,3.03,3.5655
1.88101,-0.174804,3.03,3.57067
1.874,-0.173247,3.003,3.54399
1.85113,-0.170247,2.951,3.4877
1.86071,-0.170247,2.951,3.49279
1.85444,-0.168804,2.926,3.46827
1.83272,-0.165978,2.877,3.41519
1.84206,-0.165978,2.877,3.42021
1.82051,-0.163208,2.829,3.36811
1.79994,-0.160555,2.783,3.31823
1.79467,-0.159285,2.761,3.29687
1.80364,-0.159285,2.761,3.30176
1.79815,-0.158016,2.739,3.28031
1.79253,-0.156747,2.717,3.25881
1.80135,-0.156747,2.717,3.26367
1.79618,-0.155536,2.696,3.24328
1.77681,-0.153112,2.654,3.19753
1.78542,-0.153112,2.654,3.20233
1.77984,-0.151901,2.633,3.18176
1.7748,-0.150747,2.613,3.16234
-2.02986,-0.15931,2.926,3.56472
-2.0031,-0.157949,2.901,3.5289
-1.99369,-0.157949,2.901,3.52357
-1.95144,-0.155336,2.853,3.46004
-1.92584,-0.154029,2.829,3.42576
-1.91666,-0.154029,2.829,3.42061
-1.87646,-0.151524,2.783,3.35993
-1.85267,-0.150326,2.761,3.32838
-1.8437,-0.150326,2.761,3.3234
-1.83474,-0.150326,2.761,3.31843
-1.81123,-0.149129,2.739,3.28708
-1.80234,-0.149129,2.739,3.28219
-1.7653,-0.146787,2.696,3.22587
-1.75655,-0.146787,2.696,3.22109
-1.76141,-0.147931,2.717,3.24138
-1.75259,-0.147931,2.717,3.2366
-1.74377,-0.147931,2.717,3.23183
-1.76305,-0.150326,2.761,3.27934
-1.76807,-0.151524,2.783,3.30062
-1.75903,-0.151524,2.783,3.29579
-1.79402,-0.155336,2.853,3.37376
-1.78476,-0.155336,2.853,3.36884
-1.7755,-0.155336,2.853,3.36395
-1.79595,-0.157949,2.901,3.41558
-1.78654,-0.157949,2.901,3.41064
-1.79244,-0.15931,2.926,3.43507
-1.78294,-0.15931,2.926,3.43012
-1.77344,-0.15931,2.926,3.42519
-1.76394,-0.15931,2.926,3.42029
-1.73946,-0.157949,2.901,3.38622
-1.73004,-0.157949,2.901,3.38139
-1.72062,-0.157949,2.901,3.37658
-1.69705,-0.156642,2.877,3.3439
-1.67364,-0.155336,2.853,3.31131
-1.66438,-0.155336,2.853,3.30664
nan,nan,nan,NaN
nan,nan,nan,NaN
nan,nan,nan,NaN
nan,nan,nan,NaN
nan,nan,nan,NaN
nan,nan,nan,NaN
nan,nan,nan,NaN
nan,nan,nan,NaN
nan,nan,nan,NaN
nan,nan,nan,NaN
nan,nan,nan,NaN
nan,nan,nan,NaN
nan,nan,nan,NaN
nan,nan,nan,NaN
nan,nan,nan,NaN
nan,nan,nan,NaN
nan,nan,nan,NaN
nan,nan,nan,NaN
nan,nan,nan,NaN
nan,nan,nan,NaN
nan,nan,nan,NaN
nan,nan,nan,NaN
nan,nan,nan,NaN
nan,nan,nan,NaN
nan,nan,nan,NaN
nan,nan,nan,NaN
nan,nan,nan,NaN
nan,nan,nan,NaN
-1.23144,-0.137042,2.517,2.80545
-1.22327,-0.137042,2.517,2.80187
-1.2151,-0.137042,2.517,2.79831
-1.20693,-0.137042,2.517,2.79477
-1.19876,-0.137042,2.517,2.79126
-1.17357,-0.135081,2.481,2.74788
-1.16551,-0.135081,2.481,2.74445
-1.15746,-0.135081,2.481,2.74104
-1.14941,-0.135081,2.481,2.73765
-1.13308,-0.134101,2.463,2.71445
-1.12508,-0.134101,2.463,2.71112
-1.11709,-0.134101,2.463,2.70781
-1.10909,-0.134101,2.463,2.70452
-1.09305,-0.133121,2.445,2.68151
-1.08512,-0.133121,2.445,2.67829
-1.07718,-0.133121,2.445,2.67508
-1.06924,-0.133121,2.445,2.6719
-1.06131,-0.133121,2.445,2.66873
-1.04605,-0.132196,2.428,2.64705
-1.03817,-0.132196,2.428,2.64395
-1.03029,-0.132196,2.428,2.64086
-1.02241,-0.132196,2.428,2.6378
-1.01452,-0.132196,2.428,2.63475
-1.00664,-0.132196,2.428,2.63173
-0.998763,-0.132196,2.428,2.62872
-0.983945,-0.13127,2.411,2.60736
-0.976119,-0.13127,2.411,2.60441
-0.968294,-0.13127,2.411,2.60149
-0.960468,-0.13127,2.411,2.59859
-0.945926,-0.130345,2.394,2.5774
-0.938156,-0.130345,2.394,2.57456
-0.930385,-0.130345,2.394,2.57174
-0.922615,-0.130345,2.394,2.56894
-0.914845,-0.130345,2.394,2.56616
-0.907074,-0.130345,2.394,2.5634
-0.899304,-0.130345,2.394,2.56066
-0.891534,-0.130345,2.394,2.55794
-0.883763,-0.130345,2.394,2.55524
-0.875993,-0.130345,2.394,2.55257
-0.868223,-0.130345,2.394,2.54991
-0.860452,-0.130345,2.394,2.54727
-0.852682,-0.130345,2.394,2.54466
-0.844912,-0.130345,2.394,2.54207
-0.843086,-0.13127,2.411,2.55753
-0.83526,-0.13127,2.411,2.55496
-0.827435,-0.13127,2.411,2.55241
-0.819609,-0.13127,2.411,2.54988
-0.811784,-0.13127,2.411,2.54738
-0.803958,-0.13127,2.411,2.5449
-0.796133,-0.13127,2.411,2.54244
-0.788307,-0.13127,2.411,2.54
-0.780482,-0.13127,2.411,2.53758
-0.772656,-0.13127,2.411,2.53518
-0.764831,-0.13127,2.411,2.53281
-0.762343,-0.132196,2.428,2.5483
-0.754462,-0.132196,2.428,2.54595
-0.746581,-0.132196,2.428,2.54363
-0.738701,-0.132196,2.428,2.54133
-0.73082,-0.132196,2.428,2.53905
-0.722939,-0.132196,2.428,2.53679
-0.720065,-0.133121,2.445,2.5523
-0.712129,-0.133121,2.445,2.55007
-0.704194,-0.133121,2.445,2.54787
-0.696258,-0.133121,2.445,2.54569
-0.688322,-0.133121,2.445,2.54353
-0.680386,-0.133121,2.445,2.54139
-0.67245,-0.133121,2.445,2.53928
-0.664514,-0.133121,2.445,2.53719
-0.656578,-0.133121,2.445,2.53512
-0.648643,-0.133121,2.445,2.53308
-0.640707,-0.133121,2.445,2.53106
-0.632771,-0.133121,2.445,2.52906
-0.624835,-0.133121,2.445,2.52709
-0.621441,-0.134101,2.463,2.54373
-0.613446,-0.134101,2.463,2.54178
-0.605452,-0.134101,2.463,2.53987
-0.597458,-0.134101,2.463,2.53797
-0.589464,-0.134101,2.463,2.5361
-0.581469,-0.134101,2.463,2.53426
-0.577666,-0.135081,2.481,2.55094
-0.569613,-0.135081,2.481,2.54913
-0.561561,-0.135081,2.481,2.54734
-0.553508,-0.135081,2.481,2.54558
-0.549413,-0.136061,2.499,2.5623
-0.541301,-0.136061,2.499,2.56057
-0.53319,-0.136061,2.499,2.55887
-0.525079,-0.136061,2.499,2.55719
-0.520692,-0.137042,2.517,2.57394
-0.512522,-0.137042,2.517,2.5723
-0.504353,-0.137042,2.517,2.57069
-0.499929,-0.138076,2.536,2.58849
-0.491697,-0.138076,2.536,2.58691
-0.483466,-0.138076,2.536,2.58536
-0.478795,-0.13911,2.555,2.60319
-0.470502,-0.13911,2.555,2.60168
-0.46221,-0.13911,2.555,2.6002
-0.453917,-0.13911,2.555,2.59873
-0.448938,-0.140145,2.574,2.61661
-0.437331,-0.13911,2.555,2.59589
-0.429038,-0.13911,2.555,2.5945
-0.423874,-0.140145,2.574,2.61243
-0.415519,-0.140145,2.574,2.61109
-0.41017,-0.141179,2.593,2.62903
-0.401754,-0.141179,2.593,2.62773
-0.393338,-0.141179,2.593,2.62646
-0.384922,-0.141179,2.593,2.62521
-0.376505,-0.141179,2.593,2.62399
-0.368089,-0.141179,2.593,2.6228
-0.359673,-0.141179,2.593,2.62163
-0.351257,-0.141179,2.593,2.62049
-0.34284,-0.141179,2.593,2.61937
-0.334424,-0.141179,2.593,2.61829
-0.328522,-0.142268,2.613,2.63741
-0.320041,-0.142268,2.613,2.63637
-0.31156,-0.142268,2.613,2.63535
-0.300759,-0.141179,2.593,2.6142
-0.292343,-0.141179,2.593,2.61324
-0.283927,-0.141179,2.593,2.61232
-0.275511,-0.141179,2.593,2.61141
-0.265137,-0.140145,2.574,2.59141
-0.256783,-0.140145,2.574,2.59057
-0.248428,-0.140145,2.574,2.58976
-0.240074,-0.140145,2.574,2.58897
-0.231719,-0.140145,2.574,2.58821
-0.223364,-0.140145,2.574,2.58747
-0.213423,-0.13911,2.555,2.56767
-0.20513,-0.13911,2.555,2.56699
-0.196837,-0.13911,2.555,2.56634
-0.188544,-0.13911,2.555,2.56572
-0.180251,-0.13911,2.555,2.56513
-0.171958,-0.13911,2.555,2.56456
-0.162448,-0.138076,2.536,2.54495
-0.153062,-0.137042,2.517,2.52537
-0.144892,-0.137042,2.517,2.52489
-0.136723,-0.137042,2.517,2.52443
-0.128553,-0.137042,2.517,2.524
-0.120383,-0.137042,2.517,2.5236
-0.112214,-0.137042,2.517,2.52322
-0.104044,-0.137042,2.517,2.52287
-0.0965985,-0.138076,2.536,2.54159
-0.0883672,-0.138076,2.536,2.54129
-0.080136,-0.138076,2.536,2.54102
-0.0719048,-0.138076,2.536,2.54077
-0.0641506,-0.13911,2.555,2.55959
-0.0558577,-0.13911,2.555,2.55939
-0.0479185,-0.140145,2.574,2.57826
-0.039564,-0.140145,2.574,2.57812
-0.0312094,-0.140145,2.574,2.578
-0.0228548,-0.140145,2.574,2.57791
-0.0146073,-0.141179,2.593,2.59688
-0.00619107,-0.141179,2.593,2.59685
0.00222516,-0.141179,2.593,2.59684
0.0106414,-0.141179,2.593,2.59686
0.0190576,-0.141179,2.593,2.59691
0.0276858,-0.142268,2.613,2.61702
0.0361669,-0.142268,2.613,2.61712
0.0446481,-0.142268,2.613,2.61725
0.0531292,-0.142268,2.613,2.61741
0.0616104,-0.142268,2.613,2.6176
0.0700915,-0.142268,2.613,2.61781
0.0785727,-0.142268,2.613,2.61805
0.0870538,-0.142268,2.613,2.61832
0.095535,-0.142268,2.613,2.61861
0.104016,-0.142268,2.613,2.61894
0.112497,-0.142268,2.613,2.61929
0.120978,-0.142268,2.613,2.61967
0.12946,-0.142268,2.613,2.62007
0.137941,-0.142268,2.613,2.6205
0.147543,-0.143357,2.633,2.64102
0.156089,-0.143357,2.633,2.64152
0.164635,-0.143357,2.633,2.64203
0.173181,-0.143357,2.633,2.64258
0.183176,-0.144501,2.654,2.66424
0.19179,-0.144501,2.654,2.66484
0.200405,-0.144501,2.654,2.66548
0.209019,-0.144501,2.654,2.66614
0.217633,-0.144501,2.654,2.66683
0.226247,-0.144501,2.654,2.66754
0.233003,-0.143357,2.633,2.64717
0.241549,-0.143357,2.633,2.64794
0.250095,-0.143357,2.633,2.64873
0.258641,-0.143357,2.633,2.64955
0.267187,-0.143357,2.633,2.6504
0.275734,-0.143357,2.633,2.65128
0.28428,-0.143357,2.633,2.65218
0.292826,-0.143357,2.633,2.65311
0.299083,-0.142268,2.613,2.63391
0.307564,-0.142268,2.613,2.63488
0.316045,-0.142268,2.613,2.63589
0.322042,-0.141179,2.593,2.61673
0.328037,-0.140145,2.574,2.5986
0.336391,-0.140145,2.574,2.59967
0.344746,-0.140145,2.574,2.60076
0.350494,-0.13911,2.555,2.58268
0.358787,-0.13911,2.555,2.58382
0.36708,-0.13911,2.555,2.58498
0.375373,-0.13911,2.555,2.58617
0.380813,-0.138076,2.536,2.56815
0.389044,-0.138076,2.536,2.56938
0.397275,-0.138076,2.536,2.57064
0.408544,-0.13911,2.555,2.59119
0.416837,-0.13911,2.555,2.59251
0.42513,-0.13911,2.555,2.59386
0.433423,-0.13911,2.555,2.59523
0.441716,-0.13911,2.555,2.59663
0.450009,-0.13911,2.555,2.59805
0.458302,-0.13911,2.555,2.5995
0.466595,-0.13911,2.555,2.60098
0.474888,-0.13911,2.555,2.60248
0.48318,-0.13911,2.555,2.604
0.491473,-0.13911,2.555,2.60556
0.499766,-0.13911,2.555,2.60713
0.508059,-0.13911,2.555,2.60874
0.516352,-0.13911,2.555,2.61036
0.520743,-0.138076,2.536,2.59259
0.528975,-0.138076,2.536,2.59426
0.537206,-0.138076,2.536,2.59595
0.549524,-0.13911,2.555,2.61713
0.557817,-0.13911,2.555,2.61888
0.566109,-0.13911,2.555,2.62066
0.574402,-0.13911,2.555,2.62246
0.587028,-0.140145,2.574,2.64381
0.595383,-0.140145,2.574,2.64568
0.608194,-0.141179,2.593,2.66711
0.61661,-0.141179,2.593,2.66904
0.625027,-0.141179,2.593,2.671
0.638328,-0.142268,2.613,2.6936
0.641859,-0.141179,2.593,2.67499
0.650275,-0.141179,2.593,2.67702
0.658691,-0.141179,2.593,2.67908
0.667108,-0.141179,2.593,2.68116
0.675524,-0.141179,2.593,2.68327
0.678929,-0.140145,2.574,2.66572
0.687283,-0.140145,2.574,2.66786
0.695638,-0.140145,2.574,2.67002
0.698796,-0.13911,2.555,2.65249
0.70183,-0.138076,2.536,2.63494
0.710062,-0.138076,2.536,2.63715
0.718293,-0.138076,2.536,2.63938
0.721081,-0.137042,2.517,2.62184
0.729251,-0.137042,2.517,2.6241
0.73742,-0.137042,2.517,2.62638
0.740258,-0.136061,2.499,2.60988
0.748369,-0.136061,2.499,2.6122
0.75648,-0.136061,2.499,2.61453
0.764591,-0.136061,2.499,2.61689
0.772702,-0.136061,2.499,2.61927
0.780813,-0.136061,2.499,2.62168
0.788924,-0.136061,2.499,2.6241
0.797036,-0.136061,2.499,2.62655
0.805147,-0.136061,2.499,2.62903
0.813258,-0.136061,2.499,2.63152
0.821369,-0.136061,2.499,2.63404
0.823505,-0.135081,2.481,2.61759
0.831558,-0.135081,2.481,2.62013
0.839611,-0.135081,2.481,2.6227
0.841514,-0.134101,2.463,2.60624
0.849508,-0.134101,2.463,2.60883
0.857502,-0.134101,2.463,2.61145
0.859171,-0.133121,2.445,2.59498
0.867107,-0.133121,2.445,2.59762
0.868959,-0.132196,2.428,2.5822
0.87684,-0.132196,2.428,2.58486
0.88472,-0.132196,2.428,2.58755
0.886351,-0.13127,2.411,2.57211
0.887872,-0.130345,2.394,2.55667
0.895642,-0.130345,2.394,2.55938
0.903413,-0.130345,2.394,2.5621
0.904712,-0.129419,2.377,2.54664
0.906286,-0.128548,2.361,2.53223
0.913949,-0.128548,2.361,2.53499
0.921612,-0.128548,2.361,2.53776
0.929276,-0.128548,2.361,2.54055
0.936939,-0.128548,2.361,2.54336
0.944602,-0.128548,2.361,2.5462
0.958719,-0.129419,2.377,2.56632
0.966434,-0.129419,2.377,2.56922
0.974149,-0.129419,2.377,2.57213
0.988886,-0.130345,2.394,2.59348
0.996657,-0.130345,2.394,2.59645
1.01869,-0.132196,2.428,2.63636
1.02657,-0.132196,2.428,2.63942
nan,nan,nan,NaN
nan,nan,nan,NaN
nan,nan,nan,NaN
nan,nan,nan,NaN
nan,nan,nan,NaN
nan,nan,nan,NaN
nan,nan,nan,NaN
nan,nan,nan,NaN
nan,nan,nan,NaN
nan,nan,nan,NaN
nan,nan,nan,NaN
nan,nan,nan,NaN
nan,nan,nan,NaN
nan,nan,nan,NaN
nan,nan,nan,NaN
nan,nan,nan,NaN
nan,nan,nan,NaN
nan,nan,nan,NaN
nan,nan,nan,NaN
nan,nan,nan,NaN
nan,nan,nan,NaN
nan,nan,nan,NaN
nan,nan,nan,NaN
nan,nan,nan,NaN
nan,nan,nan,NaN
nan,nan,nan,NaN
nan,nan,nan,NaN
nan,nan,nan,NaN
nan,nan,nan,NaN
nan,nan,nan,NaN
nan,nan,nan,NaN
nan,nan,nan,NaN
1.72753,-0.177495,3.26,3.6937
1.73811,-0.177495,3.26,3.69866
1.76585,-0.179237,3.292,3.74
1.77654,-0.179237,3.292,3.74506
1.78722,-0.179237,3.292,3.75014
1.79791,-0.179237,3.292,3.75524
1.80859,-0.179237,3.292,3.76037
1.80159,-0.177495,3.26,3.72892
1.81217,-0.177495,3.26,3.73404
1.82276,-0.177495,3.26,3.73919
1.83334,-0.177495,3.26,3.74436
1.84392,-0.177495,3.26,3.74955
1.8727,-0.179237,3.292,3.79162
1.86508,-0.177495,3.26,3.76
1.8584,-0.175862,3.23,3.73061
1.86888,-0.175862,3.23,3.73585
1.87937,-0.175862,3.23,3.7411
1.87171,-0.174174,3.199,3.71042
1.8821,-0.174174,3.199,3.71567
1.89248,-0.174174,3.199,3.72094
1.90286,-0.174174,3.199,3.72623
1.8959,-0.172595,3.17,3.69772
1.90619,-0.172595,3.17,3.70301
1.89895,-0.171016,3.141,3.67439
1.8745,-0.167913,3.084,3.61289
1.88451,-0.167913,3.084,3.6181
1.87793,-0.166443,3.057,3.5916
1.87118,-0.164973,3.03,3.56503
1.88101,-0.164973,3.03,3.5702
1.85777,-0.162087,2.977,3.51285
1.85113,-0.160671,2.951,3.48725
1.86071,-0.160671,2.951,3.49234
1.8386,-0.157949,2.901,3.43819
1.81743,-0.155336,2.853,3.38627
1.82669,-0.155336,2.853,3.39125
1.80571,-0.152777,2.806,3.34029
1.78571,-0.150326,2.761,3.29158
1.78037,-0.149129,2.739,3.27018
1.78926,-0.149129,2.739,3.27503
1.78371,-0.147931,2.717,3.25355
1.77867,-0.146787,2.696,3.23321
1.78743,-0.146787,2.696,3.23803
1.78218,-0.145644,2.675,3.21761
1.76275,-0.143357,2.633,3.17183
1.77129,-0.143357,2.633,3.17659
1.76632,-0.142268,2.613,3.1572
1.76122,-0.141179,2.593,3.13775
-2.02986,-0.149816,2.926,3.5643
-2.0031,-0.148536,2.901,3.5285
-1.99369,-0.148536,2.901,3.52316
-1.95144,-0.146078,2.853,3.45963
-1.92584,-0.144849,2.829,3.42536
-1.91666,-0.144849,2.829,3.42021
-1.87646,-0.142494,2.783,3.35954
-1.85267,-0.141367,2.761,3.32798
-1.8437,-0.141367,2.761,3.323
-1.83474,-0.141367,2.761,3.31804
-1.81123,-0.140241,2.739,3.28669
-1.80234,-0.140241,2.739,3.2818
-1.7653,-0.138039,2.696,3.22548
-1.75655,-0.138039,2.696,3.2207
-1.76141,-0.139115,2.717,3.24099
-1.75259,-0.139115,2.717,3.2362
-1.74377,-0.139115,2.717,3.23144
-1.76305,-0.141367,2.761,3.27894
-1.76807,-0.142494,2.783,3.30022
-1.75903,-0.142494,2.783,3.29539
-1.79402,-0.146078,2.853,3.37334
-1.78476,-0.146078,2.853,3.36843
-1.7755,-0.146078,2.853,3.36353
-1.79595,-0.148536,2.901,3.41516
-1.78654,-0.148536,2.901,3.41022
-1.79244,-0.149816,2.926,3.43464
-1.78294,-0.149816,2.926,3.42969
-1.77344,-0.149816,2.926,3.42476
-1.76394,-0.149816,2.926,3.41986
-1.73946,-0.148536,2.901,3.38579
-1.73004,-0.148536,2.901,3.38096
-1.72062,-0.148536,2.901,3.37615
-1.69705,-0.147307,2.877,3.34347
-1.67364,-0.146078,2.853,3.31089
-1.66438,-0.146078,2.853,3.30622
nan,nan,nan,NaN
nan,nan,nan,NaN
nan,nan,nan,NaN
nan,nan,nan,NaN
nan,nan,nan,NaN
nan,nan,nan,NaN
nan,nan,nan,NaN
nan,nan,nan,NaN
nan,nan,nan,NaN
nan,nan,nan,NaN
nan,nan,nan,NaN
nan,nan,nan,NaN
nan,nan,nan,NaN
nan,nan,nan,NaN
nan,nan,nan,NaN
nan,nan,nan,NaN
nan,nan,nan,NaN
nan,nan,nan,NaN
nan,nan,nan,NaN
nan,nan,nan,NaN
nan,nan,nan,NaN
nan,nan,nan,NaN
nan,nan,nan,NaN
nan,nan,nan,NaN
nan,nan,nan,NaN
nan,nan,nan,NaN
nan,nan,nan,NaN
-1.25833,-0.13082,2.555,2.85106
-1.23144,-0.128874,2.517,2.80506
-1.22327,-0.128874,2.517,2.80148
-1.2151,-0.128874,2.517,2.79792
-1.20693,-0.128874,2.517,2.79439
-1.19876,-0.128874,2.517,2.79087
-1.17357,-0.127031,2.481,2.7475
-1.16551,-0.127031,2.481,2.74407
-1.15746,-0.127031,2.481,2.74066
-1.14941,-0.127031,2.481,2.73727
-1.13308,-0.126109,2.463,2.71406
-1.12508,-0.126109,2.463,2.71073
-1.11709,-0.126109,2.463,2.70743
-1.10909,-0.126109,2.463,2.70414
-1.09305,-0.125188,2.445,2.68113
-1.08512,-0.125188,2.445,2.6779
-1.07718,-0.125188,2.445,2.6747
-1.06924,-0.125188,2.445,2.67151
-1.06131,-0.125188,2.445,2.66835
-1.04605,-0.124317,2.428,2.64667
-1.03817,-0.124317,2.428,2.64356
-1.03029,-0.124317,2.428,2.64048
-1.02241,-0.124317,2.428,2.63741
-1.01452,-0.124317,2.428,2.63437
-1.00664,-0.124317,2.428,2.63134
-0.998763,-0.124317,2.428,2.62834
-0.983945,-0.123447,2.411,2.60697
-0.976119,-0.123447,2.411,2.60403
-0.968294,-0.123447,2.411,2.60111
-0.960468,-0.123447,2.411,2.5982
-0.945926,-0.122576,2.394,2.57702
-0.938156,-0.122576,2.394,2.57418
-0.930385,-0.122576,2.394,2.57136
-0.922615,-0.122576,2.394,2.56856
-0.914845,-0.122576,2.394,2.56578
-0.907074,-0.122576,2.394,2.56301
-0.899304,-0.122576,2.394,2.56028
-0.891534,-0.122576,2.394,2.55756
-0.883763,-0.122576,2.394,2.55486
-0.875993,-0.122576,2.394,2.55218
-0.868223,-0.122576,2.394,2.54952
-0.860452,-0.122576,2.394,2.54689
-0.852682,-0.122576,2.394,2.54427
-0.844912,-0.122576,2.394,2.54168
-0.843086,-0.123447,2.411,2.55714
-0.83526,-0.123447,2.411,2.55457
-0.827435,-0.123447,2.411,2.55202
-0.819609,-0.123447,2.411,2.54949
-0.811784,-0.123447,2.411,2.54699
-0.803958,-0.123447,2.411,2.54451
-0.796133,-0.123447,2.411,2.54204
-0.788307,-0.123447,2.411,2.5396
-0.780482,-0.123447,2.411,2.53719
-0.772656,-0.123447,2.411,2.53479
-0.770224,-0.124317,2.428,2.55027
-0.762343,-0.124317,2.428,2.5479
-0.754462,-0.124317,2.428,2.54556
-0.746581,-0.124317,2.428,2.54323
-0.738701,-0.124317,2.428,2.54093
-0.73082,-0.124317,2.428,2.53865
-0.728001,-0.125188,2.445,2.55415
-0.720065,-0.125188,2.445,2.5519
-0.712129,-0.125188,2.445,2.54967
-0.704194,-0.125188,2.445,2.54747
-0.696258,-0.125188,2.445,2.54528
-0.688322,-0.125188,2.445,2.54313
-0.680386,-0.125188,2.445,2.54099
-0.67245,-0.125188,2.445,2.53888
-0.664514,-0.125188,2.445,2.53678
-0.656578,-0.125188,2.445,2.53472
-0.653418,-0.126109,2.463,2.55132
-0.645424,-0.126109,2.463,2.54928
-0.637429,-0.126109,2.463,2.54727
-0.629435,-0.126109,2.463,2.54528
-0.621441,-0.126109,2.463,2.54332
-0.613446,-0.126109,2.463,2.54138
-0.605452,-0.126109,2.463,2.53946
-0.601824,-0.127031,2.481,2.55611
-0.593771,-0.127031,2.481,2.55422
-0.585719,-0.127031,2.481,2.55236
-0.577666,-0.127031,2.481,2.55053
-0.569613,-0.127031,2.481,2.54872
-0.561561,-0.127031,2.481,2.54693
-0.553508,-0.127031,2.481,2.54517
-0.549413,-0.127953,2.499,2.56188
-0.541301,-0.127953,2.499,2.56015
-0.53319,-0.127953,2.499,2.55845
-0.528861,-0.128874,2.517,2.57519
-0.520692,-0.128874,2.517,2.57352
-0.512522,-0.128874,2.517,2.57188
-0.504353,-0.128874,2.517,2.57027
-0.499929,-0.129847,2.536,2.58807
-0.491697,-0.129847,2.536,2.58649
-0.483466,-0.129847,2.536,2.58494
-0.478795,-0.13082,2.555,2.60276
-0.467004,-0.129847,2.536,2.58191
-0.458772,-0.129847,2.536,2.58043
-0.453917,-0.13082,2.555,2.5983
-0.445624,-0.13082,2.555,2.59687
-0.437331,-0.13082,2.555,2.59546
-0.429038,-0.13082,2.555,2.59407
-0.423874,-0.131793,2.574,2.61199
-0.415519,-0.131793,2.574,2.61065
-0.41017,-0.132766,2.593,2.6286
-0.401754,-0.132766,2.593,2.6273
-0.393338,-0.132766,2.593,2.62602
-0.384922,-0.132766,2.593,2.62477
-0.379409,-0.13379,2.613,2.64379
-0.370928,-0.13379,2.613,2.64259
-0.362447,-0.13379,2.613,2.64141
-0.353966,-0.13379,2.613,2.64026
-0.345485,-0.13379,2.613,2.63913
-0.337004,-0.13379,2.613,2.63804
-0.326008,-0.132766,2.593,2.61678
-0.317592,-0.132766,2.593,2.61575
-0.309175,-0.132766,2.593,2.61474
-0.300759,-0.132766,2.593,2.61376
-0.292343,-0.132766,2.593,2.6128
-0.283927,-0.132766,2.593,2.61188
-0.275511,-0.132766,2.593,2.61097
-0.265137,-0.131793,2.574,2.59097
-0.256783,-0.131793,2.574,2.59013
-0.248428,-0.131793,2.574,2.58932
-0.240074,-0.131793,2.574,2.58853
-0.231719,-0.131793,2.574,2.58777
-0.223364,-0.131793,2.574,2.58703
-0.213423,-0.13082,2.555,2.56723
-0.20513,-0.13082,2.555,2.56656
-0.196837,-0.13082,2.555,2.56591
-0.188544,-0.13082,2.555,2.56529
-0.180251,-0.13082,2.555,2.56469
-0.171958,-0.13082,2.555,2.56412
-0.163665,-0.13082,2.555,2.56358
-0.154217,-0.129847,2.536,2.544
-0.145986,-0.129847,2.536,2.54351
-0.137755,-0.129847,2.536,2.54306
-0.129523,-0.129847,2.536,2.54262
-0.121292,-0.129847,2.536,2.54222
-0.113061,-0.129847,2.536,2.54184
-0.105615,-0.13082,2.555,2.56053
-0.0973222,-0.13082,2.555,2.5602
-0.0890293,-0.13082,2.555,2.5599
-0.0807364,-0.13082,2.555,2.55962
-0.0724435,-0.13082,2.555,2.55937
-0.0641506,-0.13082,2.555,2.55915
-0.0558577,-0.13082,2.555,2.55896
-0.0479185,-0.131793,2.574,2.57782
-0.039564,-0.131793,2.574,2.57768
-0.0312094,-0.131793,2.574,2.57756
-0.0230235,-0.132766,2.593,2.5965
-0.0146073,-0.132766,2.593,2.59644
-0.00619107,-0.132766,2.593,2.5964
0.00224232,-0.13379,2.613,2.61642
0.0107235,-0.13379,2.613,2.61645
0.0193516,-0.134814,2.633,2.63652
0.0276858,-0.13379,2.613,2.61657
0.0361669,-0.13379,2.613,2.61667
0.0446481,-0.13379,2.613,2.6168
0.0531292,-0.13379,2.613,2.61696
0.0616104,-0.13379,2.613,2.61715
0.0700915,-0.13379,2.613,2.61736
0.0785727,-0.13379,2.613,2.6176
0.0870538,-0.13379,2.613,2.61787
0.095535,-0.13379,2.613,2.61817
0.104016,-0.13379,2.613,2.61849
0.112497,-0.13379,2.613,2.61884
0.120978,-0.13379,2.613,2.61922
0.12946,-0.13379,2.613,2.61962
0.137941,-0.13379,2.613,2.62006
0.147543,-0.134814,2.633,2.64057
0.156089,-0.134814,2.633,2.64107
0.164635,-0.134814,2.633,2.64158
0.173181,-0.134814,2.633,2.64213
0.183176,-0.135889,2.654,2.66378
0.19179,-0.135889,2.654,2.66439
0.200405,-0.135889,2.654,2.66502
0.209019,-0.135889,2.654,2.66568
0.217633,-0.135889,2.654,2.66637
0.226247,-0.135889,2.654,2.66709
0.233003,-0.134814,2.633,2.64673
0.241549,-0.134814,2.633,2.64749
0.250095,-0.134814,2.633,2.64828
0.258641,-0.134814,2.633,2.64911
0.267187,-0.134814,2.633,2.64995
0.275734,-0.134814,2.633,2.65083
0.28428,-0.134814,2.633,2.65173
0.292826,-0.134814,2.633,2.65266
0.299083,-0.13379,2.613,2.63346
0.30521,-0.132766,2.593,2.61427
0.313626,-0.132766,2.593,2.61527
0.322042,-0.132766,2.593,2.61629
0.328037,-0.131793,2.574,2.59816
0.336391,-0.131793,2.574,2.59923
0.344746,-0.131793,2.574,2.60033
0.350494,-0.13082,2.555,2.58224
0.358787,-0.13082,2.555,2.58338
0.36708,-0.13082,2.555,2.58455
0.375373,-0.13082,2.555,2.58574
0.380813,-0.129847,2.536,2.56772
0.389044,-0.129847,2.536,2.56895
0.397275,-0.129847,2.536,2.57021
0.408544,-0.13082,2.555,2.59076
0.416837,-0.13082,2.555,2.59208
0.42513,-0.13082,2.555,2.59343
0.433423,-0.13082,2.555,2.5948
0.441716,-0.13082,2.555,2.5962
0.450009,-0.13082,2.555,2.59762
0.458302,-0.13082,2.555,2.59907
0.466595,-0.13082,2.555,2.60055
0.474888,-0.13082,2.555,2.60205
0.48318,-0.13082,2.555,2.60357
0.491473,-0.13082,2.555,2.60513
0.499766,-0.13082,2.555,2.6067
0.508059,-0.13082,2.555,2.60831
0.516352,-0.13082,2.555,2.60993
0.520743,-0.129847,2.536,2.59217
0.528975,-0.129847,2.536,2.59383
0.537206,-0.129847,2.536,2.59552
0.549524,-0.13082,2.555,2.6167
0.557817,-0.13082,2.555,2.61845
0.566109,-0.13082,2.555,2.62023
0.574402,-0.13082,2.555,2.62204
0.587028,-0.131793,2.574,2.64338
0.595383,-0.131793,2.574,2.64525
0.608194,-0.132766,2.593,2.66668
0.61661,-0.132766,2.593,2.66861
0.625027,-0.132766,2.593,2.67057
0.638328,-0.13379,2.613,2.69316
0.641859,-0.132766,2.593,2.67456
0.650275,-0.132766,2.593,2.67659
0.658691,-0.132766,2.593,2.67865
0.667108,-0.132766,2.593,2.68073
0.675524,-0.132766,2.593,2.68284
0.678929,-0.131793,2.574,2.66529
0.687283,-0.131793,2.574,2.66743
0.695638,-0.131793,2.574,2.6696
0.698796,-0.13082,2.555,2.65207
0.70183,-0.129847,2.536,2.63453
0.710062,-0.129847,2.536,2.63673
0.718293,-0.129847,2.536,2.63896
0.721081,-0.128874,2.517,2.62142
0.729251,-0.128874,2.517,2.62368
0.73742,-0.128874,2.517,2.62596
0.74559,-0.128874,2.517,2.62827
0.753759,-0.128874,2.517,2.6306
0.761929,-0.128874,2.517,2.63295
0.770098,-0.128874,2.517,2.63533
0.778268,-0.128874,2.517,2.63773
0.786437,-0.128874,2.517,2.64015
0.794607,-0.128874,2.517,2.64259
0.797036,-0.127953,2.499,2.62615
0.805147,-0.127953,2.499,2.62862
0.813258,-0.127953,2.499,2.63111
0.821369,-0.127953,2.499,2.63363
0.823505,-0.127031,2.481,2.61719
0.831558,-0.127031,2.481,2.61973
0.839611,-0.127031,2.481,2.6223
0.847664,-0.127031,2.481,2.62489
0.855716,-0.127031,2.481,2.6275
0.857502,-0.126109,2.463,2.61105
0.859171,-0.125188,2.445,2.59459
0.867107,-0.125188,2.445,2.59722
0.875043,-0.125188,2.445,2.59988
0.87684,-0.124317,2.428,2.58447
0.88472,-0.124317,2.428,2.58715
0.886351,-0.123447,2.411,2.57173
0.894177,-0.123447,2.411,2.57443
0.895642,-0.122576,2.394,2.55899
0.903413,-0.122576,2.394,2.56172
0.904712,-0.121706,2.377,2.54626
0.906286,-0.120887,2.361,2.53185
0.913949,-0.120887,2.361,2.53461
0.921612,-0.120887,2.361,2.53738
0.929276,-0.120887,2.361,2.54017
0.936939,-0.120887,2.361,2.54299
0.944602,-0.120887,2.361,2.54582
0.958719,-0.121706,2.377,2.56595
0.966434,-0.121706,2.377,2.56884
0.974149,-0.121706,2.377,2.57175
0.988886,-0.122576,2.394,2.5931
0.996657,-0.122576,2.394,2.59607
1.01869,-0.124317,2.428,2.63598
1.02657,-0.124317,2.428,2.63903
1.05703,-0.127031,2.481,2.69978
1.09685,-0.13082,2.555,2.78356
1.10515,-0.13082,2.555,2.78684
1.14743,-0.134814,2.633,2.87532
1.19286,-0.139115,2.717,2.97058
1.24104,-0.143672,2.806,3.07156
1.25015,-0.143672,2.806,3.07525
1.29112,-0.147307,2.877,3.15687
1.3339,-0.151096,2.951,3.242
1.34348,-0.151096,2.951,3.24595
1.38928,-0.155141,3.03,3.33693
1.43698,-0.159339,3.112,3.43145
1.44708,-0.159339,3.112,3.43569
1.45718,-0.159339,3.112,3.43996
1.46728,-0.159339,3.112,3.44425
1.49115,-0.160824,3.141,3.4807
1.50135,-0.160824,3.141,3.48508
1.51154,-0.160824,3.141,3.48948
1.52174,-0.160824,3.141,3.49391
1.53193,-0.160824,3.141,3.49837
1.54213,-0.160824,3.141,3.50284
1.55232,-0.160824,3.141,3.50734
1.54809,-0.159339,3.112,3.47944
1.54417,-0.157906,3.084,3.4526
1.55418,-0.157906,3.084,3.45709
1.56419,-0.157906,3.084,3.4616
1.5742,-0.157906,3.084,3.46614
1.59859,-0.159339,3.112,3.5022
1.62369,-0.160824,3.141,3.53951
1.63388,-0.160824,3.141,3.54419
1.65925,-0.162309,3.17,3.58167
1.66954,-0.162309,3.17,3.58645
1.67983,-0.162309,3.17,3.59125
1.72211,-0.165381,3.23,3.66414
1.74869,-0.166917,3.26,3.70316
1.77654,-0.168555,3.292,3.74456
1.78722,-0.168555,3.292,3.74965
1.79791,-0.168555,3.292,3.75475
1.80859,-0.168555,3.292,3.75988
1.80159,-0.166917,3.26,3.72843
1.81217,-0.166917,3.26,3.73356
1.82276,-0.166917,3.26,3.7387
1.83334,-0.166917,3.26,3.74387
1.84392,-0.166917,3.26,3.74907
1.8727,-0.168555,3.292,3.79113
1.86508,-0.166917,3.26,3.75952
1.8584,-0.165381,3.23,3.73013
1.86888,-0.165381,3.23,3.73537
1.87937,-0.165381,3.23,3.74063
1.87171,-0.163794,3.199,3.70995
1.8821,-0.163794,3.199,3.7152
1.89248,-0.163794,3.199,3.72047
1.90286,-0.163794,3.199,3.72576
1.8959,-0.162309,3.17,3.69725
1.90619,-0.162309,3.17,3.70254
1.89895,-0.160824,3.141,3.67393
1.8745,-0.157906,3.084,3.61244
1.88451,-0.157906,3.084,3.61765
1.87793,-0.156523,3.057,3.59115
1.87118,-0.155141,3.03,3.56459
1.88101,-0.155141,3.03,3.56976
1.85777,-0.152427,2.977,3.51242
1.85113,-0.151096,2.951,3.48682
1.86071,-0.151096,2.951,3.49191
1.8386,-0.148536,2.901,3.43777
1.81743,-0.146078,2.853,3.38585
1.82669,-0.146078,2.853,3.39083
1.80571,-0.143672,2.806,3.33989
1.78571,-0.141367,2.761,3.29118
1.78037,-0.140241,2.739,3.26979
1.78926,-0.140241,2.739,3.27464
1.78371,-0.139115,2.717,3.25316
1.77867,-0.138039,2.696,3.23282
1.78743,-0.138039,2.696,3.23765
1.78218,-0.136964,2.675,3.21723
1.76275,-0.134814,2.633,3.17146
1.77129,-0.134814,2.633,3.17622
1.76632,-0.13379,2.613,3.15683
1.76122,-0.132766,2.593,3.13738
-2.02986,-0.140321,2.926,3.56392
-1.98653,-0.137971,2.877,3.49892
-1.97719,-0.137971,2.877,3.49363
-1.95144,-0.13682,2.853,3.45925
-1.91018,-0.134567,2.806,3.39714
-1.90108,-0.134567,2.806,3.39203
-1.87646,-0.133464,2.783,3.35917
-1.85267,-0.132408,2.761,3.32762
-1.8437,-0.132408,2.761,3.32263
-1.82012,-0.131353,2.739,3.29123
-1.79668,-0.130298,2.717,3.25993
-1.78787,-0.130298,2.717,3.25508
-1.7653,-0.129291,2.696,3.22512
-1.75655,-0.129291,2.696,3.22034
-1.7478,-0.129291,2.696,3.21557
-1.75259,-0.130298,2.717,3.23584
-1.74377,-0.130298,2.717,3.23107
-1.749,-0.131353,2.739,3.25244
-1.76807,-0.133464,2.783,3.29984
-1.75903,-0.133464,2.783,3.29501
-1.76446,-0.134567,2.806,3.31739
-1.76974,-0.135669,2.829,3.33971
-1.76056,-0.135669,2.829,3.33485
-1.76624,-0.13682,2.853,3.35826
-1.77176,-0.137971,2.877,3.38161
-1.76242,-0.137971,2.877,3.37673
-1.75308,-0.137971,2.877,3.37186
-1.75829,-0.139122,2.901,3.3951
-1.74887,-0.139122,2.901,3.39024
-1.73946,-0.139122,2.901,3.38539
-1.71573,-0.137971,2.877,3.35259
-1.70639,-0.137971,2.877,3.34783
-1.69705,-0.137971,2.877,3.34308
-1.67364,-0.13682,2.853,3.3105
-1.66438,-0.13682,2.853,3.30582
-1.65511,-0.13682,2.853,3.30117
-1.64585,-0.13682,2.853,3.29654
nan,nan,nan,NaN
nan,nan,nan,NaN
nan,nan,nan,NaN
nan,nan,nan,NaN
nan,nan,nan,NaN
nan,nan,nan,NaN
nan,nan,nan,NaN
nan,nan,nan,NaN
nan,nan,nan,NaN
nan,nan,nan,NaN
nan,nan,nan,NaN
nan,nan,nan,NaN
nan,nan,nan,NaN
nan,nan,nan,NaN
nan,nan,nan,NaN
nan,nan,nan,NaN
nan,nan,nan,NaN
nan,nan,nan,NaN
nan,nan,nan,NaN
nan,nan,nan,NaN
nan,nan,nan,NaN
nan,nan,nan,NaN
nan,nan,nan,NaN
-1.29387,-0.124352,2.593,2.90056
-1.28546,-0.124352,2.593,2.89681
-1.25833,-0.122529,2.555,2.85069
-1.24074,-0.121618,2.536,2.82587
-1.23251,-0.121618,2.536,2.82226
-1.2151,-0.120707,2.517,2.79756
-1.20693,-0.120707,2.517,2.79402
-1.19876,-0.120707,2.517,2.7905
-1.18208,-0.119844,2.499,2.76707
-1.17397,-0.119844,2.499,2.76362
-1.15746,-0.118981,2.481,2.7403
-1.14941,-0.118981,2.481,2.73691
-1.14136,-0.118981,2.481,2.73353
-1.1333,-0.118981,2.481,2.73018
-1.12525,-0.118981,2.481,2.72685
-1.10909,-0.118117,2.463,2.70378
-1.1011,-0.118117,2.463,2.70051
-1.0931,-0.118117,2.463,2.69726
-1.08511,-0.118117,2.463,2.69403
-1.06924,-0.117254,2.445,2.67115
-1.06131,-0.117254,2.445,2.66799
-1.05337,-0.117254,2.445,2.66484
-1.04544,-0.117254,2.445,2.66171
-1.03029,-0.116439,2.428,2.64012
-1.02241,-0.116439,2.428,2.63705
-1.01452,-0.116439,2.428,2.63401
-1.00664,-0.116439,2.428,2.63098
-0.998763,-0.116439,2.428,2.62798
-0.983945,-0.115624,2.411,2.60661
-0.976119,-0.115624,2.411,2.60367
-0.968294,-0.115624,2.411,2.60075
-0.960468,-0.115624,2.411,2.59784
-0.952643,-0.115624,2.411,2.59496
-0.944817,-0.115624,2.411,2.5921
-0.936992,-0.115624,2.411,2.58926
-0.922615,-0.114808,2.394,2.5682
-0.914845,-0.114808,2.394,2.56542
-0.907074,-0.114808,2.394,2.56266
-0.899304,-0.114808,2.394,2.55992
-0.891534,-0.114808,2.394,2.5572
-0.890039,-0.115624,2.411,2.57264
-0.882213,-0.115624,2.411,2.56994
-0.874388,-0.115624,2.411,2.56726
-0.866562,-0.115624,2.411,2.56461
-0.858737,-0.115624,2.411,2.56198
-0.850911,-0.115624,2.411,2.55936
-0.843086,-0.115624,2.411,2.55677
-0.83526,-0.115624,2.411,2.5542
-0.827435,-0.115624,2.411,2.55165
-0.819609,-0.115624,2.411,2.54913
-0.811784,-0.115624,2.411,2.54662
-0.803958,-0.115624,2.411,2.54414
-0.796133,-0.115624,2.411,2.54168
-0.788307,-0.115624,2.411,2.53924
-0.780482,-0.115624,2.411,2.53682
-0.778104,-0.116439,2.428,2.55229
-0.770224,-0.116439,2.428,2.5499
-0.762343,-0.116439,2.428,2.54753
-0.754462,-0.116439,2.428,2.54518
-0.746581,-0.116439,2.428,2.54286
-0.743873,-0.117254,2.445,2.55834
-0.735937,-0.117254,2.445,2.55605
-0.728001,-0.117254,2.445,2.55377
-0.720065,-0.117254,2.445,2.55152
-0.712129,-0.117254,2.445,2.54929
-0.704194,-0.117254,2.445,2.54709
-0.696258,-0.117254,2.445,2.54491
-0.693389,-0.118117,2.463,2.56147
-0.685395,-0.118117,2.463,2.55931
-0.677401,-0.118117,2.463,2.55718
-0.669406,-0.118117,2.463,2.55508
-0.661412,-0.118117,2.463,2.553
-0.653418,-0.118117,2.463,2.55094
-0.645424,-0.118117,2.463,2.5489
-0.637429,-0.118117,2.463,2.54689
-0.634035,-0.118981,2.481,2.5635
-0.625982,-0.118981,2.481,2.56152
-0.61793,-0.118981,2.481,2.55956
-0.609877,-0.118981,2.481,2.55763
-0.601824,-0.118981,2.481,2.55572
-0.593771,-0.118981,2.481,2.55384
-0.585719,-0.118981,2.481,2.55198
-0.581857,-0.119844,2.499,2.56864
-0.573746,-0.119844,2.499,2.56682
-0.565635,-0.119844,2.499,2.56502
-0.557524,-0.119844,2.499,2.56324
-0.549413,-0.119844,2.499,2.56149
-0.541301,-0.119844,2.499,2.55976
-0.53319,-0.119844,2.499,2.55806
-0.528861,-0.120707,2.517,2.57479
-0.520692,-0.120707,2.517,2.57313
-0.512522,-0.120707,2.517,2.57149
-0.50816,-0.121618,2.536,2.58927
-0.499929,-0.121618,2.536,2.58767
-0.491697,-0.121618,2.536,2.58609
-0.483466,-0.121618,2.536,2.58454
-0.478795,-0.122529,2.555,2.60236
-0.467004,-0.121618,2.536,2.58151
-0.458772,-0.121618,2.536,2.58003
-0.453917,-0.122529,2.555,2.5979
-0.445624,-0.122529,2.555,2.59646
-0.437331,-0.122529,2.555,2.59505
-0.429038,-0.122529,2.555,2.59367
-0.423874,-0.123441,2.574,2.61159
-0.415519,-0.123441,2.574,2.61024
-0.41017,-0.124352,2.593,2.62818
-0.401754,-0.124352,2.593,2.62688
-0.393338,-0.124352,2.593,2.62561
-0.384922,-0.124352,2.593,2.62436
-0.379409,-0.125311,2.613,2.64337
-0.370928,-0.125311,2.613,2.64217
-0.362447,-0.125311,2.613,2.64099
-0.353966,-0.125311,2.613,2.63984
-0.345485,-0.125311,2.613,2.63872
-0.337004,-0.125311,2.613,2.63762
-0.326008,-0.124352,2.593,2.61637
-0.317592,-0.124352,2.593,2.61534
-0.309175,-0.124352,2.593,2.61433
-0.300759,-0.124352,2.593,2.61334
-0.292343,-0.124352,2.593,2.61239
-0.283927,-0.124352,2.593,2.61146
-0.275511,-0.124352,2.593,2.61056
-0.265137,-0.123441,2.574,2.59056
-0.256783,-0.123441,2.574,2.58972
-0.248428,-0.123441,2.574,2.58891
-0.240074,-0.123441,2.574,2.58812
-0.231719,-0.123441,2.574,2.58736
-0.223364,-0.123441,2.574,2.58662
-0.213423,-0.122529,2.555,2.56682
-0.20513,-0.122529,2.555,2.56615
-0.196837,-0.122529,2.555,2.5655
-0.188544,-0.122529,2.555,2.56488
-0.180251,-0.122529,2.555,2.56428
-0.171958,-0.122529,2.555,2.56371
-0.163665,-0.122529,2.555,2.56317
-0.154217,-0.121618,2.536,2.54359
-0.145986,-0.121618,2.536,2.54311
-0.137755,-0.121618,2.536,2.54265
-0.129523,-0.121618,2.536,2.54222
-0.121292,-0.121618,2.536,2.54181
-0.113061,-0.121618,2.536,2.54143
-0.105615,-0.122529,2.555,2.56012
-0.0973222,-0.122529,2.555,2.55979
-0.0890293,-0.122529,2.555,2.55949
-0.0807364,-0.122529,2.555,2.55921
-0.0724435,-0.122529,2.555,2.55896
-0.0641506,-0.122529,2.555,2.55874
-0.0558577,-0.122529,2.555,2.55855
-0.0479185,-0.123441,2.574,2.5774
-0.039564,-0.123441,2.574,2.57726
-0.0312094,-0.123441,2.574,2.57715
-0.0230235,-0.124352,2.593,2.59608
-0.0146073,-0.124352,2.593,2.59602
-0.00619107,-0.124352,2.593,2.59599
0.00224232,-0.125311,2.613,2.616
0.0107235,-0.125311,2.613,2.61603
0.0193516,-0.12627,2.633,2.6361
0.0276858,-0.125311,2.613,2.61615
0.0361669,-0.125311,2.613,2.61625
0.0446481,-0.125311,2.613,2.61638
0.0531292,-0.125311,2.613,2.61654
0.0616104,-0.125311,2.613,2.61673
0.0700915,-0.125311,2.613,2.61694
0.0785727,-0.125311,2.613,2.61718
0.0870538,-0.125311,2.613,2.61745
0.095535,-0.125311,2.613,2.61775
0.10322,-0.124352,2.593,2.59803
0.111636,-0.124352,2.593,2.59838
0.120052,-0.124352,2.593,2.59875
0.12946,-0.125311,2.613,2.6192
0.137941,-0.125311,2.613,2.61964
0.146422,-0.125311,2.613,2.6201
0.154903,-0.125311,2.613,2.62059
0.163384,-0.125311,2.613,2.6211
0.171865,-0.125311,2.613,2.62164
0.180346,-0.125311,2.613,2.62221
0.188828,-0.125311,2.613,2.62281
0.198819,-0.12627,2.633,2.64351
0.209019,-0.127277,2.654,2.66526
0.217633,-0.127277,2.654,2.66595
0.226247,-0.127277,2.654,2.66667
0.233003,-0.12627,2.633,2.6463
0.241549,-0.12627,2.633,2.64707
0.250095,-0.12627,2.633,2.64786
0.258641,-0.12627,2.633,2.64868
0.267187,-0.12627,2.633,2.64953
0.275734,-0.12627,2.633,2.65041
0.28428,-0.12627,2.633,2.65131
0.292826,-0.12627,2.633,2.65224
0.299083,-0.125311,2.613,2.63304
0.30521,-0.124352,2.593,2.61386
0.313626,-0.124352,2.593,2.61486
0.322042,-0.124352,2.593,2.61588
0.328037,-0.123441,2.574,2.59775
0.336391,-0.123441,2.574,2.59882
0.344746,-0.123441,2.574,2.59992
0.350494,-0.122529,2.555,2.58184
0.358787,-0.122529,2.555,2.58298
0.36708,-0.122529,2.555,2.58414
0.372581,-0.121618,2.536,2.56611
0.380813,-0.121618,2.536,2.56731
0.389044,-0.121618,2.536,2.56855
0.397275,-0.121618,2.536,2.56981
0.405506,-0.121618,2.536,2.57109
0.416837,-0.122529,2.555,2.59168
0.42513,-0.122529,2.555,2.59302
0.433423,-0.122529,2.555,2.5944
0.441716,-0.122529,2.555,2.59579
0.450009,-0.122529,2.555,2.59722
0.458302,-0.122529,2.555,2.59867
0.466595,-0.122529,2.555,2.60014
0.474888,-0.122529,2.555,2.60164
0.48318,-0.122529,2.555,2.60317
0.491473,-0.122529,2.555,2.60472
0.499766,-0.122529,2.555,2.6063
0.508059,-0.122529,2.555,2.6079
0.516352,-0.122529,2.555,2.60953
0.524645,-0.122529,2.555,2.61119
0.532938,-0.122529,2.555,2.61286
0.541231,-0.122529,2.555,2.61457
0.549524,-0.122529,2.555,2.6163
0.557817,-0.122529,2.555,2.61805
0.566109,-0.122529,2.555,2.61983
0.578674,-0.123441,2.574,2.64113
0.587028,-0.123441,2.574,2.64298
0.595383,-0.123441,2.574,2.64484
0.608194,-0.124352,2.593,2.66627
0.621366,-0.125311,2.613,2.68879
0.629847,-0.125311,2.613,2.69076
0.638328,-0.125311,2.613,2.69276
0.64681,-0.125311,2.613,2.69478
0.655291,-0.125311,2.613,2.69683
0.658691,-0.124352,2.593,2.67824
0.667108,-0.124352,2.593,2.68033
0.675524,-0.124352,2.593,2.68243
0.678929,-0.123441,2.574,2.66489
0.687283,-0.123441,2.574,2.66703
0.695638,-0.123441,2.574,2.6692
0.698796,-0.122529,2.555,2.65167
0.70183,-0.121618,2.536,2.63413
0.710062,-0.121618,2.536,2.63634
0.718293,-0.121618,2.536,2.63857
0.726524,-0.121618,2.536,2.64082
0.729251,-0.120707,2.517,2.62329
0.73742,-0.120707,2.517,2.62558
0.74559,-0.120707,2.517,2.62788
0.753759,-0.120707,2.517,2.63021
0.761929,-0.120707,2.517,2.63256
0.770098,-0.120707,2.517,2.63494
0.778268,-0.120707,2.517,2.63734
0.786437,-0.120707,2.517,2.63976
0.794607,-0.120707,2.517,2.64221
0.802777,-0.120707,2.517,2.64468
0.810946,-0.120707,2.517,2.64717
0.819116,-0.120707,2.517,2.64968
0.827285,-0.120707,2.517,2.65222
0.82948,-0.119844,2.499,2.63579
0.837591,-0.119844,2.499,2.63836
0.845702,-0.119844,2.499,2.64094
0.847664,-0.118981,2.481,2.62451
0.855716,-0.118981,2.481,2.62712
0.863769,-0.118981,2.481,2.62976
0.865497,-0.118117,2.463,2.61331
0.873491,-0.118117,2.463,2.61597
0.875043,-0.117254,2.445,2.59951
0.87684,-0.116439,2.428,2.5841
0.88472,-0.116439,2.428,2.58679
0.892601,-0.116439,2.428,2.58949
0.894177,-0.115624,2.411,2.57407
0.895642,-0.114808,2.394,2.55863
0.903413,-0.114808,2.394,2.56136
0.904712,-0.113993,2.377,2.5459
0.912428,-0.113993,2.377,2.54866
0.920143,-0.113993,2.377,2.55143
0.921612,-0.113226,2.361,2.53703
0.929276,-0.113226,2.361,2.53982
0.943288,-0.113993,2.377,2.55987
0.951003,-0.113993,2.377,2.56272
0.958719,-0.113993,2.377,2.56559
0.966434,-0.113993,2.377,2.56849
0.974149,-0.113993,2.377,2.5714
0.988886,-0.114808,2.394,2.59274
1.00373,-0.115624,2.411,2.61415
1.01869,-0.116439,2.428,2.63562
1.02657,-0.116439,2.428,2.63867
1.05703,-0.118981,2.481,2.69941
1.09685,-0.122529,2.555,2.78319
1.10515,-0.122529,2.555,2.78647
1.14743,-0.12627,2.633,2.87493
1.19286,-0.130298,2.717,2.97018
1.24104,-0.134567,2.806,3.07114
1.25015,-0.134567,2.806,3.07484
1.29112,-0.137971,2.877,3.15645
1.3339,-0.14152,2.951,3.24156
1.34348,-0.14152,2.951,3.24552
1.38928,-0.145309,3.03,3.33648
1.43698,-0.149241,3.112,3.431
1.44708,-0.149241,3.112,3.43524
1.45718,-0.149241,3.112,3.43951
1.46728,-0.149241,3.112,3.4438
1.49115,-0.150632,3.141,3.48024
1.50135,-0.150632,3.141,3.48463
1.51154,-0.150632,3.141,3.48903
1.52174,-0.150632,3.141,3.49346
1.53193,-0.150632,3.141,3.49791
1.54213,-0.150632,3.141,3.50239
1.55232,-0.150632,3.141,3.50689
1.54809,-0.149241,3.112,3.47899
1.54417,-0.147898,3.084,3.45216
1.55418,-0.147898,3.084,3.45665
1.56419,-0.147898,3.084,3.46116
1.5742,-0.147898,3.084,3.46569
1.59859,-0.149241,3.112,3.50176
1.62369,-0.150632,3.141,3.53906
1.63388,-0.150632,3.141,3.54375
1.65925,-0.152023,3.17,3.58122
1.66954,-0.152023,3.17,3.586
1.67983,-0.152023,3.17,3.5908
1.72211,-0.1549,3.23,3.66368
1.74869,-0.156339,3.26,3.7027
1.75927,-0.156339,3.26,3.7077
1.76985,-0.156339,3.26,3.71274
1.78043,-0.156339,3.26,3.71779
1.79101,-0.156339,3.26,3.72287
1.80159,-0.156339,3.26,3.72797
1.7955,-0.1549,3.23,3.69874
1.80598,-0.1549,3.23,3.70384
1.81647,-0.1549,3.23,3.70897
1.82695,-0.1549,3.23,3.71411
1.83743,-0.1549,3.23,3.71928
1.84792,-0.1549,3.23,3.72447
1.84056,-0.153413,3.199,3.69389
1.85095,-0.153413,3.199,3.69907
1.86133,-0.153413,3.199,3.70428
1.85475,-0.152023,3.17,3.67588
1.86504,-0.152023,3.17,3.68108
1.87532,-0.152023,3.17,3.68631
1.86836,-0.150632,3.141,3.65778
1.86121,-0.149241,3.112,3.62918
1.87131,-0.149241,3.112,3.63437
1.88142,-0.149241,3.112,3.63958
1.85809,-0.146604,3.057,3.5804
1.86801,-0.146604,3.057,3.58555
1.86134,-0.145309,3.03,3.55902
1.85451,-0.144014,3.003,3.53241
1.86425,-0.144014,3.003,3.53754
1.84155,-0.14152,2.951,3.48134
1.83545,-0.140321,2.926,3.45688
1.84494,-0.140321,2.926,3.46193
1.82338,-0.137971,2.877,3.40894
1.80215,-0.135669,2.829,3.35699
1.81133,-0.135669,2.829,3.36193
1.79091,-0.133464,2.783,3.31214
1.78571,-0.132408,2.761,3.29081
1.76607,-0.130298,2.717,3.24316
1.77489,-0.130298,2.717,3.24797
1.76992,-0.129291,2.696,3.22766
1.76482,-0.128284,2.675,3.20728
1.7735,-0.128284,2.675,3.21207
1.76819,-0.127277,2.654,3.19162
1.74936,-0.125311,2.613,3.14702
1.75784,-0.125311,2.613,3.15174
1.7528,-0.124352,2.593,3.13232
1.74831,-0.123441,2.574,3.11405
-2.02986,-0.130827,2.926,3.56356
-1.98653,-0.128636,2.877,3.49857
-1.97719,-0.128636,2.877,3.49327
-1.93502,-0.12649,2.829,3.4298
-1.91018,-0.125461,2.806,3.39679
-1.90108,-0.125461,2.806,3.39168
-1.86163,-0.123449,2.761,3.33227
-1.8379,-0.122466,2.739,3.30076
-1.82901,-0.122466,2.739,3.29582
-1.82012,-0.122466,2.739,3.29089
-1.79668,-0.121482,2.717,3.25959
-1.78787,-0.121482,2.717,3.25474
-1.7653,-0.120543,2.696,3.22478
-1.75655,-0.120543,2.696,3.22
-1.7478,-0.120543,2.696,3.21524
-1.75259,-0.121482,2.717,3.23549
-1.74377,-0.121482,2.717,3.23073
-1.749,-0.122466,2.739,3.2521
-1.76807,-0.124433,2.783,3.29949
-1.75903,-0.124433,2.783,3.29466
-1.76446,-0.125461,2.806,3.31703
-1.75535,-0.125461,2.806,3.3122
-1.74625,-0.125461,2.806,3.30738
-1.75138,-0.12649,2.829,3.32965
-1.75698,-0.127563,2.853,3.35304
-1.74772,-0.127563,2.853,3.34819
-1.73846,-0.127563,2.853,3.34337
-1.74374,-0.128636,2.877,3.36665
-1.7344,-0.128636,2.877,3.36182
-1.72507,-0.128636,2.877,3.35701
-1.71573,-0.128636,2.877,3.35222
-1.70639,-0.128636,2.877,3.34745
-1.69705,-0.128636,2.877,3.3427
-1.67364,-0.127563,2.853,3.31013
-1.66438,-0.127563,2.853,3.30545
-1.65511,-0.127563,2.853,3.3008
-1.64585,-0.127563,2.853,3.29617
nan,nan,nan,NaN
nan,nan,nan,NaN
nan,nan,nan,NaN
nan,nan,nan,NaN
nan,nan,nan,NaN
nan,nan,nan,NaN
nan,nan,nan,NaN
nan,nan,nan,NaN
nan,nan,nan,NaN
nan,nan,nan,NaN
nan,nan,nan,NaN
nan,nan,nan,NaN
nan,nan,nan,NaN
nan,nan,nan,NaN
nan,nan,nan,NaN
nan,nan,nan,NaN
nan,nan,nan,NaN
nan,nan,nan,NaN
nan,nan,nan,NaN
nan,nan,nan,NaN
nan,nan,nan,NaN
nan,nan,nan,NaN
nan,nan,nan,NaN
-1.29387,-0.115938,2.593,2.90021
-1.28546,-0.115938,2.593,2.89646
-1.26769,-0.115088,2.574,2.87154
-1.25003,-0.114239,2.555,2.84669
-1.24174,-0.114239,2.555,2.84306
-1.23345,-0.114239,2.555,2.83945
-1.21605,-0.113389,2.536,2.81477
-1.20781,-0.113389,2.536,2.81122
-1.1906,-0.11254,2.517,2.78666
-1.18243,-0.11254,2.517,2.78318
-1.16586,-0.111735,2.499,2.75984
-1.15775,-0.111735,2.499,2.75642
-1.14964,-0.111735,2.499,2.75303
-1.1333,-0.11093,2.481,2.72984
-1.12525,-0.11093,2.481,2.72651
