-0.533504,0.425341,2.463,2.55576
-0.525509,0.425341,2.463,2.5541
-0.513733,0.422232,2.445,2.53382
-0.505797,0.422232,2.445,2.53222
-0.501526,0.425341,2.463,2.54928
-0.493532,0.425341,2.463,2.54772
-0.485538,0.425341,2.463,2.54618
-0.477544,0.425341,2.463,2.54467
-0.469549,0.425341,2.463,2.54318
-0.461555,0.425341,2.463,2.54172
-0.453561,0.425341,2.463,2.54028
-0.445566,0.425341,2.463,2.53886
-0.437572,0.425341,2.463,2.53747
-0.429578,0.425341,2.463,2.5361
-0.421584,0.425341,2.463,2.53476
-0.413589,0.425341,2.463,2.53344
-0.405595,0.425341,2.463,2.53215
-0.397601,0.425341,2.463,2.53088
-0.389606,0.425341,2.463,2.52964
-0.381612,0.425341,2.463,2.52842
-0.373618,0.425341,2.463,2.52723
-0.365624,0.425341,2.463,2.52606
-0.357629,0.425341,2.463,2.52491
-0.349635,0.425341,2.463,2.52379
-0.341641,0.425341,2.463,2.5227
-0.333646,0.425341,2.463,2.52163
-0.325652,0.425341,2.463,2.52058
-0.317658,0.425341,2.463,2.51956
-0.309664,0.425341,2.463,2.51857
-0.301669,0.425341,2.463,2.5176
-0.295821,0.428449,2.481,2.53504
-0.287769,0.428449,2.481,2.53412
-0.279716,0.428449,2.481,2.53321
-0.271663,0.428449,2.481,2.53234
-0.26361,0.428449,2.481,2.53149
-0.255558,0.428449,2.481,2.53066
-0.247505,0.428449,2.481,2.52986
-0.239452,0.428449,2.481,2.52908
-0.2314,0.428449,2.481,2.52833
-0.223347,0.428449,2.481,2.52761
-0.215294,0.428449,2.481,2.52691
-0.207241,0.428449,2.481,2.52624
-0.199189,0.428449,2.481,2.52559
-0.192523,0.431558,2.499,2.54329
-0.184412,0.431558,2.499,2.54269
-0.1763,0.431558,2.499,2.54211
-0.168189,0.431558,2.499,2.54156
-0.161231,0.434666,2.517,2.55934
-0.151967,0.431558,2.499,2.54054
-0.143856,0.431558,2.499,2.54007
-0.135745,0.431558,2.499,2.53962
-0.127634,0.431558,2.499,2.5392
-0.119523,0.431558,2.499,2.5388
-0.111411,0.431558,2.499,2.53844
-0.1033,0.431558,2.499,2.53809
-0.0951891,0.431558,2.499,2.53778
-0.087078,0.431558,2.499,2.53748
-0.0789668,0.431558,2.499,2.53722
-0.0708557,0.431558,2.499,2.53698
-0.0627446,0.431558,2.499,2.53677
-0.0546334,0.431558,2.499,2.53658
-0.0465223,0.431558,2.499,2.53642
-0.0384112,0.431558,2.499,2.53628
-0.0303,0.431558,2.499,2.53617
-0.0221889,0.431558,2.499,2.53609
-0.0140778,0.431558,2.499,2.53603
-0.00596664,0.431558,2.499,2.536
0.00214449,0.431558,2.499,2.53599
0.0102556,0.431558,2.499,2.53601
0.0183668,0.431558,2.499,2.53606
0.0264779,0.431558,2.499,2.53613
0.034589,0.431558,2.499,2.53623
0.0427002,0.431558,2.499,2.53635
0.0508113,0.431558,2.499,2.5365
0.0589224,0.431558,2.499,2.53667
0.0670336,0.431558,2.499,2.53688
0.0751447,0.431558,2.499,2.5371
0.0832558,0.431558,2.499,2.53736
0.091367,0.431558,2.499,2.53764
0.0994781,0.431558,2.499,2.53794
0.107589,0.431558,2.499,2.53827
0.1157,0.431558,2.499,2.53863
0.123811,0.431558,2.499,2.53901
0.131923,0.431558,2.499,2.53942
0.140034,0.431558,2.499,2.53985
0.148145,0.431558,2.499,2.54031
0.156256,0.431558,2.499,2.5408
0.164367,0.431558,2.499,2.54131
0.172478,0.431558,2.499,2.54185
0.180589,0.431558,2.499,2.54241
0.188701,0.431558,2.499,2.543
0.196812,0.431558,2.499,2.54362
0.204923,0.431558,2.499,2.54426
0.213034,0.431558,2.499,2.54492
0.219552,0.428449,2.481,2.52728
0.227605,0.428449,2.481,2.52799
0.235658,0.428449,2.481,2.52873
0.241942,0.425341,2.463,2.51114
0.249936,0.425341,2.463,2.51192
0.257931,0.425341,2.463,2.51273
0.265925,0.425341,2.463,2.51356
0.273919,0.425341,2.463,2.51442
0.281914,0.425341,2.463,2.51531
0.289908,0.425341,2.463,2.51621
0.295725,0.422232,2.445,2.49875
0.303661,0.422232,2.445,2.4997
0.311597,0.422232,2.445,2.50068
0.319533,0.422232,2.445,2.50168
0.327469,0.422232,2.445,2.50271
0.335404,0.422232,2.445,2.50376
0.34334,0.422232,2.445,2.50483
0.351276,0.422232,2.445,2.50593
0.361856,0.425341,2.463,2.52551
0.369851,0.425341,2.463,2.52667
nan,nan,nan,NaN
nan,nan,nan,NaN
nan,nan,nan,NaN
nan,nan,nan,NaN
nan,nan,nan,NaN
nan,nan,nan,NaN
nan,nan,nan,NaN
nan,nan,nan,NaN
nan,nan,nan,NaN
nan,nan,nan,NaN
nan,nan,nan,NaN
nan,nan,nan,NaN
0.480701,0.431558,2.499,2.58115
0.488812,0.431558,2.499,2.58267
0.496924,0.431558,2.499,2.58422
0.501397,0.428449,2.481,2.56716
0.50945,0.428449,2.481,2.56875
0.517502,0.428449,2.481,2.57036
0.525555,0.428449,2.481,2.57199
0.533608,0.428449,2.481,2.57365
0.541661,0.428449,2.481,2.57533
0.549713,0.428449,2.481,2.57704
0.557766,0.428449,2.481,2.57877
0.565819,0.428449,2.481,2.58052
0.573871,0.428449,2.481,2.5823
0.581924,0.428449,2.481,2.5841
0.589977,0.428449,2.481,2.58592
0.59803,0.428449,2.481,2.58777
0.601685,0.425341,2.463,2.57086
0.605224,0.422232,2.445,2.55394
0.61316,0.422232,2.445,2.55583
0.621095,0.422232,2.445,2.55775
0.624658,0.419297,2.428,2.54189
0.632538,0.419297,2.428,2.54384
0.640419,0.419297,2.428,2.54581
0.643761,0.416361,2.411,2.52996
0.651586,0.416361,2.411,2.53196
0.659412,0.416361,2.411,2.53399
0.667237,0.416361,2.411,2.53604
0.675063,0.416361,2.411,2.53811
0.682888,0.416361,2.411,2.5402
0.690714,0.416361,2.411,2.54231
0.698539,0.416361,2.411,2.54445
0.706365,0.416361,2.411,2.54661
0.71419,0.416361,2.411,2.54879
0.722016,0.416361,2.411,2.551
0.729841,0.416361,2.411,2.55322
0.737667,0.416361,2.411,2.55547
0.745492,0.416361,2.411,2.55774
0.753318,0.416361,2.411,2.56003
0.761143,0.416361,2.411,2.56235
0.763547,0.413425,2.394,2.5466
0.771317,0.413425,2.394,2.54894
0.779087,0.413425,2.394,2.5513
0.786858,0.413425,2.394,2.55368
0.788985,0.410489,2.377,2.53794
0.7967,0.410489,2.377,2.54035
0.804416,0.410489,2.377,2.54278
0.806664,0.407726,2.361,2.5281
0.814327,0.407726,2.361,2.53055
0.821991,0.407726,2.361,2.53303
0.824031,0.404963,2.345,2.51834
0.831643,0.404963,2.345,2.52084
0.839254,0.404963,2.345,2.52336
0.846865,0.404963,2.345,2.52591
0.860307,0.407726,2.361,2.54572
0.86797,0.407726,2.361,2.54832
0.875633,0.407726,2.361,2.55094
0.883296,0.407726,2.361,2.55358
0.89096,0.407726,2.361,2.55624
0.898623,0.407726,2.361,2.55892
0.912428,0.410489,2.377,2.57898
0.920143,0.410489,2.377,2.58172
0.927858,0.410489,2.377,2.58448
0.935573,0.410489,2.377,2.58726
0.936939,0.407726,2.361,2.57263
0.944602,0.407726,2.361,2.57543
0.952265,0.407726,2.361,2.57825
0.959929,0.407726,2.361,2.58109
0.967592,0.407726,2.361,2.58395
0.975255,0.407726,2.361,2.58683
0.982918,0.407726,2.361,2.58973
0.990581,0.407726,2.361,2.59265
0.998245,0.407726,2.361,2.59558
1.00591,0.407726,2.361,2.59854
1.01357,0.407726,2.361,2.60152
1.02815,0.410489,2.377,2.62216
1.03587,0.410489,2.377,2.6252
1.05105,0.413425,2.394,2.64705
1.05882,0.413425,2.394,2.65014
1.06659,0.413425,2.394,2.65326
1.08199,0.416361,2.411,2.67525
1.08981,0.416361,2.411,2.67843
1.09764,0.416361,2.411,2.68162
1.11326,0.419297,2.428,2.70376
1.12114,0.419297,2.428,2.70702
1.12902,0.419297,2.428,2.71029
1.1369,0.419297,2.428,2.71358
1.14478,0.419297,2.428,2.7169
1.16073,0.422232,2.445,2.73927
1.16867,0.422232,2.445,2.74264
1.17661,0.422232,2.445,2.74603
1.18454,0.422232,2.445,2.74944
1.19248,0.422232,2.445,2.75287
1.20925,0.425341,2.463,2.77661
1.21725,0.425341,2.463,2.7801
1.22524,0.425341,2.463,2.78361
1.23323,0.425341,2.463,2.78714
1.2503,0.428449,2.481,2.81108
1.25835,0.428449,2.481,2.81467
1.2664,0.428449,2.481,2.81828
1.27446,0.428449,2.481,2.82191
1.29181,0.431558,2.499,2.84606
1.29993,0.431558,2.499,2.84975
1.30804,0.431558,2.499,2.85345
1.31615,0.431558,2.499,2.85718
1.32426,0.431558,2.499,2.86093
1.33237,0.431558,2.499,2.86469
1.34048,0.431558,2.499,2.86847
1.34859,0.431558,2.499,2.87227
1.36648,0.434666,2.517,2.89681
1.38502,0.437947,2.536,2.92256
1.40369,0.441229,2.555,2.9484
1.41198,0.441229,2.555,2.95236
1.4414,0.447791,2.593,3.0003
1.48392,0.458325,2.654,3.07503
1.49254,0.458325,2.654,3.0792
1.52491,0.465578,2.696,3.13218
1.55812,0.473004,2.739,3.18647
1.59218,0.480602,2.783,3.24209
1.60122,0.480602,2.783,3.24653
1.63686,0.488546,2.829,3.30473
1.66001,0.492691,2.853,3.33736
1.66927,0.492691,2.853,3.34198
1.69265,0.496835,2.877,3.37477
1.70199,0.496835,2.877,3.37946
1.69705,0.492691,2.853,3.35594
1.69196,0.488546,2.829,3.33236
1.70114,0.488546,2.829,3.33703
1.69642,0.484574,2.806,3.31456
1.69155,0.480602,2.783,3.29202
1.70058,0.480602,2.783,3.29667
1.68258,0.473004,2.739,3.24914
1.66492,0.465578,2.696,3.20268
1.64759,0.458325,2.654,3.15727
1.65621,0.458325,2.654,3.16177
1.6391,0.451245,2.613,3.11738
1.62299,0.44451,2.574,3.07525
1.63135,0.44451,2.574,3.07967
1.6276,0.441229,2.555,3.06134
1.61156,0.434666,2.517,3.02016
1.61973,0.434666,2.517,3.02453
1.60462,0.428449,2.481,2.98559
1.60097,0.425341,2.463,2.96823
1.60897,0.425341,2.463,2.97255
1.59398,0.419297,2.428,2.93458
1.59065,0.416361,2.411,2.91829
1.59847,0.416361,2.411,2.92257
1.58365,0.410489,2.377,2.88558
1.58065,0.407726,2.361,2.87037
1.58831,0.407726,2.361,2.8746
1.58516,0.404963,2.345,2.85933
1.5819,0.4022,2.329,2.84402
-1.78567,0.452862,2.574,3.16531
-1.77731,0.452862,2.574,3.1606
-1.7559,0.449519,2.555,3.13262
-1.74761,0.449519,2.555,3.12797
-1.73932,0.449519,2.555,3.12335
-1.7439,0.452862,2.574,3.14193
-1.73554,0.452862,2.574,3.1373
-1.72719,0.452862,2.574,3.13269
-1.70614,0.449519,2.555,3.105
-1.69785,0.449519,2.555,3.10045
-1.68956,0.449519,2.555,3.09592
-1.66876,0.446176,2.536,3.06841
-1.64809,0.442833,2.517,3.04099
-1.63992,0.442833,2.517,3.03657
-1.63175,0.442833,2.517,3.03216
-1.61197,0.439667,2.499,3.00612
-1.60386,0.439667,2.499,3.00178
-1.58425,0.4365,2.481,2.97586
-1.5762,0.4365,2.481,2.97158
-1.56815,0.4365,2.481,2.96732
-1.54878,0.433333,2.463,2.94157
-1.54078,0.433333,2.463,2.93737
-1.53279,0.433333,2.463,2.93319
-1.5248,0.433333,2.463,2.92902
-1.5168,0.433333,2.463,2.92486
-1.50881,0.433333,2.463,2.92073
-1.50081,0.433333,2.463,2.9166
-1.49282,0.433333,2.463,2.9125
-1.48482,0.433333,2.463,2.90841
-1.47683,0.433333,2.463,2.90434
-1.4581,0.430166,2.445,2.87908
-1.45016,0.430166,2.445,2.87507
-1.44223,0.430166,2.445,2.87108
-1.42432,0.427175,2.428,2.84717
-1.41644,0.427175,2.428,2.84323
-1.40856,0.427175,2.428,2.83931
-1.40068,0.427175,2.428,2.83541
-1.3928,0.427175,2.428,2.83153
-1.38492,0.427175,2.428,2.82766
-1.37704,0.427175,2.428,2.82381
-1.36916,0.427175,2.428,2.81997
-1.36127,0.427175,2.428,2.81616
-1.36287,0.430166,2.445,2.83205
-1.35493,0.430166,2.445,2.82824
-1.36683,0.4365,2.481,2.86603
-1.36864,0.439667,2.499,2.88296
-1.37033,0.442833,2.517,2.89986
-1.36216,0.442833,2.517,2.89601
-1.37443,0.449519,2.555,2.93584
-1.38645,0.456205,2.593,2.97557
-1.37804,0.456205,2.593,2.97166
-1.38019,0.459723,2.613,2.99066
-1.3822,0.463242,2.633,3.00961
-1.37366,0.463242,2.633,3.0057
-1.376,0.466937,2.654,3.02574
-1.3782,0.470632,2.675,3.04575
-1.38027,0.474326,2.696,3.06571
-1.37152,0.474326,2.696,3.06178
-1.36277,0.474326,2.696,3.05787
-1.35402,0.474326,2.696,3.05398
-1.34527,0.474326,2.696,3.05011
-1.33652,0.474326,2.696,3.04626
-1.32777,0.474326,2.696,3.04243
-1.30874,0.470632,2.675,3.01495
-1.28986,0.466937,2.654,2.98755
-1.2711,0.463242,2.633,2.96023
-1.26256,0.463242,2.633,2.95657
-1.24449,0.459723,2.613,2.93051
-1.23601,0.459723,2.613,2.92691
-1.22752,0.459723,2.613,2.92334
-1.20085,0.452862,2.574,2.87621
-1.18369,0.449519,2.555,2.85153
-1.1754,0.449519,2.555,2.8481
-1.14153,0.439667,2.499,2.78234
-1.12525,0.4365,2.481,2.759
-1.1172,0.4365,2.481,2.75573
-1.1011,0.433333,2.463,2.7325
-1.0931,0.433333,2.463,2.72929
-1.07718,0.430166,2.445,2.70618
-1.06924,0.430166,2.445,2.70303
-1.06131,0.430166,2.445,2.6999
-1.04605,0.427175,2.428,2.67804
-1.03817,0.427175,2.428,2.67497
-1.03029,0.427175,2.428,2.67192
-1.02241,0.427175,2.428,2.66889
-1.02163,0.430166,2.445,2.68455
-1.01369,0.430166,2.445,2.68154
-1.00576,0.430166,2.445,2.67855
-0.997821,0.430166,2.445,2.67558
-0.989885,0.430166,2.445,2.67263
-0.981949,0.430166,2.445,2.6697
-0.974013,0.430166,2.445,2.66679
-0.966077,0.430166,2.445,2.6639
-0.958141,0.430166,2.445,2.66103
-0.950205,0.430166,2.445,2.65819
-0.94227,0.430166,2.445,2.65536
-0.934334,0.430166,2.445,2.65255
-0.926398,0.430166,2.445,2.64977
-0.918462,0.430166,2.445,2.64701
-0.910526,0.430166,2.445,2.64426
-0.90259,0.430166,2.445,2.64154
-0.894654,0.430166,2.445,2.63884
-0.886718,0.430166,2.445,2.63616
-0.878783,0.430166,2.445,2.6335
-0.870847,0.430166,2.445,2.63086
-0.862911,0.430166,2.445,2.62825
-0.854975,0.430166,2.445,2.62565
-0.847039,0.430166,2.445,2.62308
-0.839103,0.430166,2.445,2.62053
-0.831167,0.430166,2.445,2.618
-0.823232,0.430166,2.445,2.61549
-0.815296,0.430166,2.445,2.613
-0.80736,0.430166,2.445,2.61054
-0.799424,0.430166,2.445,2.60809
-0.791488,0.430166,2.445,2.60567
-0.789321,0.433333,2.463,2.62244
-0.781326,0.433333,2.463,2.62004
-0.773332,0.433333,2.463,2.61767
-0.765338,0.433333,2.463,2.61532
-0.757344,0.433333,2.463,2.61299
-0.749349,0.433333,2.463,2.61068
-0.741355,0.433333,2.463,2.6084
-0.733361,0.433333,2.463,2.60614
-0.725366,0.433333,2.463,2.6039
-0.717372,0.433333,2.463,2.60169
-0.709378,0.433333,2.463,2.59949
-0.701384,0.433333,2.463,2.59732
-0.693389,0.433333,2.463,2.59518
-0.685395,0.433333,2.463,2.59305
-0.677401,0.433333,2.463,2.59095
-0.669406,0.433333,2.463,2.58887
-0.661412,0.433333,2.463,2.58682
-0.653418,0.433333,2.463,2.58478
-0.645424,0.433333,2.463,2.58277
-0.637429,0.433333,2.463,2.58079
-0.629435,0.433333,2.463,2.57882
-0.616899,0.430166,2.445,2.55805
-0.608963,0.430166,2.445,2.55615
-0.605452,0.433333,2.463,2.57308
-0.597458,0.433333,2.463,2.57121
-0.585156,0.430166,2.445,2.55058
-0.57722,0.430166,2.445,2.54877
-0.569284,0.430166,2.445,2.54699
-0.561348,0.430166,2.445,2.54523
-0.553412,0.430166,2.445,2.54349
-0.545476,0.430166,2.445,2.54177
-0.53754,0.430166,2.445,2.54008
-0.533504,0.433333,2.463,2.5571
-0.525509,0.433333,2.463,2.55545
-0.513733,0.430166,2.445,2.53515
-0.505797,0.430166,2.445,2.53355
-0.501526,0.433333,2.463,2.55062
-0.493532,0.433333,2.463,2.54906
-0.485538,0.433333,2.463,2.54753
-0.477544,0.433333,2.463,2.54602
-0.469549,0.433333,2.463,2.54453
-0.461555,0.433333,2.463,2.54306
-0.453561,0.433333,2.463,2.54163
-0.445566,0.433333,2.463,2.54021
-0.437572,0.433333,2.463,2.53882
-0.429578,0.433333,2.463,2.53746
-0.421584,0.433333,2.463,2.53611
-0.413589,0.433333,2.463,2.5348
-0.405595,0.433333,2.463,2.53351
-0.397601,0.433333,2.463,2.53224
-0.389606,0.433333,2.463,2.531
-0.381612,0.433333,2.463,2.52978
-0.373618,0.433333,2.463,2.52858
-0.365624,0.433333,2.463,2.52742
-0.357629,0.433333,2.463,2.52627
-0.349635,0.433333,2.463,2.52515
-0.341641,0.433333,2.463,2.52406
-0.333646,0.433333,2.463,2.52299
-0.325652,0.433333,2.463,2.52194
-0.317658,0.433333,2.463,2.52092
-0.309664,0.433333,2.463,2.51993
-0.301669,0.433333,2.463,2.51896
-0.293675,0.433333,2.463,2.51801
-0.285681,0.433333,2.463,2.51709
-0.277686,0.433333,2.463,2.5162
-0.269692,0.433333,2.463,2.51533
-0.261698,0.433333,2.463,2.51448
-0.253704,0.433333,2.463,2.51366
-0.245709,0.433333,2.463,2.51287
-0.237715,0.433333,2.463,2.5121
-0.229721,0.433333,2.463,2.51136
-0.221726,0.433333,2.463,2.51064
-0.213732,0.433333,2.463,2.50995
-0.205738,0.433333,2.463,2.50928
-0.199189,0.4365,2.481,2.52697
-0.191136,0.4365,2.481,2.52635
-0.183083,0.4365,2.481,2.52575
-0.175031,0.4365,2.481,2.52518
-0.168189,0.439667,2.499,2.54295
-0.160078,0.439667,2.499,2.54243
-0.151967,0.439667,2.499,2.54193
-0.143856,0.439667,2.499,2.54146
-0.135745,0.439667,2.499,2.54101
-0.127634,0.439667,2.499,2.54059
-0.119523,0.439667,2.499,2.5402
-0.111411,0.439667,2.499,2.53983
-0.1033,0.439667,2.499,2.53948
-0.0951891,0.439667,2.499,2.53917
-0.087078,0.439667,2.499,2.53888
-0.0789668,0.439667,2.499,2.53861
-0.0708557,0.439667,2.499,2.53837
-0.0627446,0.439667,2.499,2.53816
-0.0546334,0.439667,2.499,2.53797
-0.0465223,0.439667,2.499,2.53781
-0.0381345,0.4365,2.481,2.51939
-0.0300818,0.4365,2.481,2.51929
-0.0220291,0.4365,2.481,2.5192
-0.0139764,0.4365,2.481,2.51914
-0.00592366,0.4365,2.481,2.51911
0.00212905,0.4365,2.481,2.51911
0.0101818,0.4365,2.481,2.51913
0.0182345,0.4365,2.481,2.51917
0.0262872,0.4365,2.481,2.51924
0.0343399,0.4365,2.481,2.51934
0.0423926,0.4365,2.481,2.51946
0.0504453,0.4365,2.481,2.51961
0.058498,0.4365,2.481,2.51978
0.0670336,0.439667,2.499,2.53827
0.0751447,0.439667,2.499,2.53849
0.0826561,0.4365,2.481,2.52046
0.0907089,0.4365,2.481,2.52074
0.0987616,0.4365,2.481,2.52104
0.106814,0.4365,2.481,2.52137
0.1157,0.439667,2.499,2.54002
0.123811,0.439667,2.499,2.5404
0.131923,0.439667,2.499,2.54081
0.140034,0.439667,2.499,2.54124
0.148145,0.439667,2.499,2.5417
0.156256,0.439667,2.499,2.54219
0.164367,0.439667,2.499,2.5427
0.172478,0.439667,2.499,2.54324
0.180589,0.439667,2.499,2.5438
0.188701,0.439667,2.499,2.54439
0.196812,0.439667,2.499,2.545
0.204923,0.439667,2.499,2.54564
0.2115,0.4365,2.481,2.52797
0.219552,0.4365,2.481,2.52866
0.227605,0.4365,2.481,2.52937
0.235658,0.4365,2.481,2.5301
0.241942,0.433333,2.463,2.51251
0.249936,0.433333,2.463,2.51329
0.257931,0.433333,2.463,2.5141
0.265925,0.433333,2.463,2.51493
0.271917,0.430166,2.445,2.4974
0.279853,0.430166,2.445,2.49828
0.287789,0.430166,2.445,2.49918
0.295725,0.430166,2.445,2.5001
0.303661,0.430166,2.445,2.50106
0.311597,0.430166,2.445,2.50203
0.317311,0.427175,2.428,2.48563
0.325192,0.427175,2.428,2.48665
0.333072,0.427175,2.428,2.48769
0.340953,0.427175,2.428,2.48876
0.351276,0.430166,2.445,2.50728
nan,nan,nan,NaN
nan,nan,nan,NaN
0.375084,0.430166,2.445,2.51073
0.38302,0.430166,2.445,2.51193
0.390955,0.430166,2.445,2.51315
0.401828,0.433333,2.463,2.53291
nan,nan,nan,NaN
nan,nan,nan,NaN
nan,nan,nan,NaN
0.440146,0.439667,2.499,2.57527
0.448257,0.439667,2.499,2.57667
0.456368,0.439667,2.499,2.5781
0.464479,0.439667,2.499,2.57954
0.47259,0.439667,2.499,2.58102
0.480701,0.439667,2.499,2.58251
0.485292,0.4365,2.481,2.56542
0.493344,0.4365,2.481,2.56696
0.501397,0.4365,2.481,2.56852
0.50945,0.4365,2.481,2.5701
0.513748,0.433333,2.463,2.55305
0.521742,0.433333,2.463,2.55467
0.529737,0.433333,2.463,2.55632
0.541661,0.4365,2.481,2.57668
0.549713,0.4365,2.481,2.57839
0.557766,0.4365,2.481,2.58012
0.565819,0.4365,2.481,2.58187
0.573871,0.4365,2.481,2.58365
0.577702,0.433333,2.463,2.56669
0.585697,0.433333,2.463,2.5685
0.593691,0.433333,2.463,2.57033
0.597288,0.430166,2.445,2.55339
0.601016,0.427175,2.428,2.5375
0.608896,0.427175,2.428,2.53937
0.616777,0.427175,2.428,2.54127
0.624658,0.427175,2.428,2.5432
0.632538,0.427175,2.428,2.54515
0.640419,0.427175,2.428,2.54712
0.643761,0.424184,2.411,2.53126
0.651586,0.424184,2.411,2.53326
0.659412,0.424184,2.411,2.53529
0.667237,0.424184,2.411,2.53733
0.675063,0.424184,2.411,2.5394
0.682888,0.424184,2.411,2.54149
0.690714,0.424184,2.411,2.54361
0.698539,0.424184,2.411,2.54574
0.706365,0.424184,2.411,2.5479
0.71419,0.424184,2.411,2.55008
0.722016,0.424184,2.411,2.55229
0.729841,0.424184,2.411,2.55451
0.737667,0.424184,2.411,2.55676
0.745492,0.424184,2.411,2.55903
0.753318,0.424184,2.411,2.56132
0.761143,0.424184,2.411,2.56363
0.763547,0.421193,2.394,2.54787
0.771317,0.421193,2.394,2.55021
0.779087,0.421193,2.394,2.55257
0.786858,0.421193,2.394,2.55495
0.788985,0.418202,2.377,2.5392
0.7967,0.418202,2.377,2.5416
0.804416,0.418202,2.377,2.54403
0.806664,0.415387,2.361,2.52934
0.814327,0.415387,2.361,2.5318
0.821991,0.415387,2.361,2.53427
0.824031,0.412572,2.345,2.51958
0.831643,0.412572,2.345,2.52208
0.839254,0.412572,2.345,2.5246
0.846865,0.412572,2.345,2.52714
0.860307,0.415387,2.361,2.54696
0.86797,0.415387,2.361,2.54956
0.875633,0.415387,2.361,2.55218
0.883296,0.415387,2.361,2.55482
0.89096,0.415387,2.361,2.55747
0.898623,0.415387,2.361,2.56015
0.912428,0.418202,2.377,2.58022
0.920143,0.418202,2.377,2.58296
0.927858,0.418202,2.377,2.58572
0.935573,0.418202,2.377,2.5885
0.936939,0.415387,2.361,2.57385
0.944602,0.415387,2.361,2.57665
0.952265,0.415387,2.361,2.57947
0.959929,0.415387,2.361,2.58231
0.967592,0.415387,2.361,2.58517
0.975255,0.415387,2.361,2.58805
0.982918,0.415387,2.361,2.59095
0.990581,0.415387,2.361,2.59386
0.998245,0.415387,2.361,2.5968
1.00591,0.415387,2.361,2.59975
1.01357,0.415387,2.361,2.60273
1.02123,0.415387,2.361,2.60572
1.0289,0.415387,2.361,2.60874
1.04359,0.418202,2.377,2.62947
1.05882,0.421193,2.394,2.65137
1.06659,0.421193,2.394,2.65448
1.07436,0.421193,2.394,2.65761
1.08213,0.421193,2.394,2.66076
1.0899,0.421193,2.394,2.66393
1.10547,0.424184,2.411,2.68606
1.11329,0.424184,2.411,2.68929
1.12902,0.427175,2.428,2.71152
1.1369,0.427175,2.428,2.71481
1.14478,0.427175,2.428,2.71812
1.16073,0.430166,2.445,2.74051
1.16867,0.430166,2.445,2.74388
1.17661,0.430166,2.445,2.74727
1.18454,0.430166,2.445,2.75067
1.19248,0.430166,2.445,2.7541
1.20925,0.433333,2.463,2.77785
1.21725,0.433333,2.463,2.78134
1.22524,0.433333,2.463,2.78484
1.23323,0.433333,2.463,2.78837
1.2503,0.4365,2.481,2.81232
1.25835,0.4365,2.481,2.81591
1.2664,0.4365,2.481,2.81952
1.27446,0.4365,2.481,2.82314
1.28251,0.4365,2.481,2.82679
1.29056,0.4365,2.481,2.83045
1.29862,0.4365,2.481,2.83413
1.30667,0.4365,2.481,2.83783
1.31472,0.4365,2.481,2.84155
1.33237,0.439667,2.499,2.86592
1.34048,0.439667,2.499,2.8697
1.34859,0.439667,2.499,2.8735
1.3567,0.439667,2.499,2.87732
1.37465,0.442833,2.517,2.9019
1.40369,0.449519,2.555,2.94965
1.41198,0.449519,2.555,2.95361
1.43084,0.452862,2.574,2.97957
1.461,0.459723,2.613,3.0288
1.46948,0.459723,2.613,3.0329
1.51303,0.470632,2.675,3.10908
1.54561,0.478021,2.717,3.1622
1.56701,0.481891,2.739,3.19216
1.5759,0.481891,2.739,3.19653
1.61025,0.489633,2.783,3.25234
1.63266,0.493679,2.806,3.28374
1.64177,0.493679,2.806,3.28828
1.66441,0.497726,2.829,3.31983
1.67359,0.497726,2.829,3.32444
1.68278,0.497726,2.829,3.32907
1.6782,0.493679,2.806,3.30662
1.68731,0.493679,2.806,3.31125
1.66921,0.485762,2.761,3.26272
1.6648,0.481891,2.739,3.24128
1.67369,0.481891,2.739,3.24586
1.66907,0.478021,2.717,3.22434
1.65195,0.470632,2.675,3.179
1.63456,0.463242,2.633,3.13354
1.6431,0.463242,2.633,3.138
1.62656,0.456205,2.593,3.09475
1.62299,0.452862,2.574,3.07647
1.63135,0.452862,2.574,3.08089
1.6155,0.446176,2.536,3.03977
1.61156,0.442833,2.517,3.02135
1.61973,0.442833,2.517,3.02571
1.60462,0.4365,2.481,2.98675
1.58927,0.430166,2.445,2.94769
1.59721,0.430166,2.445,2.95197
1.59398,0.427175,2.428,2.93572
1.57943,0.421193,2.394,2.89883
1.5872,0.421193,2.394,2.90308
1.58365,0.418202,2.377,2.88669
1.58065,0.415387,2.361,2.87147
1.58831,0.415387,2.361,2.87569
1.58516,0.412572,2.345,2.86041
1.5819,0.409757,2.329,2.84509
-1.77249,0.45781,2.555,3.14314
-1.76419,0.45781,2.555,3.13847
-1.74284,0.454405,2.536,3.11051
-1.73461,0.454405,2.536,3.10591
-1.72638,0.454405,2.536,3.10132
-1.71815,0.454405,2.536,3.09674
-1.72273,0.45781,2.555,3.11535
-1.71444,0.45781,2.555,3.11077
-1.69346,0.454405,2.536,3.08311
-1.68523,0.454405,2.536,3.0786
-1.66443,0.451001,2.517,3.05107
-1.65626,0.451001,2.517,3.04662
-1.64809,0.451001,2.517,3.04219
-1.63992,0.451001,2.517,3.03777
-1.62008,0.447775,2.499,3.01167
-1.60036,0.44455,2.481,2.98566
-1.59231,0.44455,2.481,2.98135
-1.58425,0.44455,2.481,2.97705
-1.56477,0.441325,2.463,2.95121
-1.55677,0.441325,2.463,2.94698
-1.54878,0.441325,2.463,2.94276
-1.52952,0.4381,2.445,2.91709
-1.52159,0.4381,2.445,2.91293
-1.51365,0.4381,2.445,2.9088
-1.50572,0.4381,2.445,2.90468
-1.49778,0.4381,2.445,2.90057
-1.50081,0.441325,2.463,2.9178
-1.48191,0.4381,2.445,2.89241
-1.47397,0.4381,2.445,2.88835
-1.46604,0.4381,2.445,2.88431
-1.4581,0.4381,2.445,2.88028
-1.44008,0.435054,2.428,2.85627
-1.4322,0.435054,2.428,2.85231
-1.42432,0.435054,2.428,2.84836
-1.41644,0.435054,2.428,2.84443
-1.40856,0.435054,2.428,2.84051
-1.40068,0.435054,2.428,2.83661
-1.3928,0.435054,2.428,2.83273
-1.38492,0.435054,2.428,2.82886
-1.37704,0.435054,2.428,2.82501
-1.36916,0.435054,2.428,2.82118
-1.36127,0.435054,2.428,2.81736
-1.36287,0.4381,2.445,2.83326
-1.35493,0.4381,2.445,2.82945
-1.35692,0.441325,2.463,2.84646
-1.36864,0.447775,2.499,2.88421
-1.37033,0.451001,2.517,2.90112
-1.36216,0.451001,2.517,2.89727
-1.37443,0.45781,2.555,2.93712
-1.37629,0.461214,2.574,2.95506
-1.36794,0.461214,2.574,2.95118
-1.38019,0.468202,2.613,2.99197
-1.3822,0.471786,2.633,3.01094
-1.37366,0.471786,2.633,3.00703
-1.376,0.475549,2.654,3.02708
-1.36738,0.475549,2.654,3.02318
-1.36952,0.479311,2.675,3.04318
-1.36084,0.479311,2.675,3.03928
-1.36277,0.483074,2.696,3.05924
-1.35402,0.483074,2.696,3.05535
-1.34527,0.483074,2.696,3.05148
-1.33652,0.483074,2.696,3.04763
-1.32777,0.483074,2.696,3.04381
-1.30874,0.479311,2.675,3.01632
-1.28986,0.475549,2.654,2.98891
-1.2711,0.471786,2.633,2.96158
-1.26256,0.471786,2.633,2.95793
-1.24449,0.468202,2.613,2.93185
-1.23601,0.468202,2.613,2.92826
-1.22752,0.468202,2.613,2.92469
-1.20085,0.461214,2.574,2.87754
-1.18369,0.45781,2.555,2.85285
-1.1754,0.45781,2.555,2.84942
-1.14153,0.447775,2.499,2.78363
-1.12525,0.44455,2.481,2.76029
-1.1172,0.44455,2.481,2.75701
-1.1011,0.441325,2.463,2.73378
-1.0931,0.441325,2.463,2.73057
-1.07718,0.4381,2.445,2.70745
-1.06924,0.4381,2.445,2.7043
-1.06131,0.4381,2.445,2.70117
-1.05337,0.4381,2.445,2.69806
-1.04544,0.4381,2.445,2.69498
-1.0375,0.4381,2.445,2.69191
-1.02956,0.4381,2.445,2.68886
-1.02163,0.4381,2.445,2.68583
-1.01369,0.4381,2.445,2.68282
-1.00576,0.4381,2.445,2.67983
-0.997821,0.4381,2.445,2.67686
-0.989885,0.4381,2.445,2.67392
-0.981949,0.4381,2.445,2.67099
-0.974013,0.4381,2.445,2.66808
-0.966077,0.4381,2.445,2.66519
-0.958141,0.4381,2.445,2.66233
-0.950205,0.4381,2.445,2.65948
-0.94227,0.4381,2.445,2.65666
-0.934334,0.4381,2.445,2.65385
-0.933218,0.441325,2.463,2.67059
-0.925224,0.441325,2.463,2.6678
-0.910526,0.4381,2.445,2.64557
-0.90259,0.4381,2.445,2.64284
-0.894654,0.4381,2.445,2.64014
-0.886718,0.4381,2.445,2.63747
-0.878783,0.4381,2.445,2.63481
-0.870847,0.4381,2.445,2.63217
-0.862911,0.4381,2.445,2.62956
-0.854975,0.4381,2.445,2.62696
-0.847039,0.4381,2.445,2.62439
-0.839103,0.4381,2.445,2.62184
-0.831167,0.4381,2.445,2.61931
-0.823232,0.4381,2.445,2.6168
-0.815296,0.4381,2.445,2.61432
-0.80736,0.4381,2.445,2.61186
-0.799424,0.4381,2.445,2.60941
-0.791488,0.4381,2.445,2.60699
-0.789321,0.441325,2.463,2.62377
-0.781326,0.441325,2.463,2.62138
-0.773332,0.441325,2.463,2.619
-0.765338,0.441325,2.463,2.61665
-0.757344,0.441325,2.463,2.61433
-0.749349,0.441325,2.463,2.61202
-0.741355,0.441325,2.463,2.60974
-0.733361,0.441325,2.463,2.60748
-0.725366,0.441325,2.463,2.60524
-0.717372,0.441325,2.463,2.60303
-0.709378,0.441325,2.463,2.60084
-0.701384,0.441325,2.463,2.59867
-0.693389,0.441325,2.463,2.59652
-0.685395,0.441325,2.463,2.5944
-0.677401,0.441325,2.463,2.5923
-0.669406,0.441325,2.463,2.59022
-0.661412,0.441325,2.463,2.58817
-0.653418,0.441325,2.463,2.58613
-0.640707,0.4381,2.445,2.56524
-0.632771,0.4381,2.445,2.56327
-0.629435,0.441325,2.463,2.58018
-0.616899,0.4381,2.445,2.5594
-0.608963,0.4381,2.445,2.5575
-0.601027,0.4381,2.445,2.55562
-0.593092,0.4381,2.445,2.55376
-0.585156,0.4381,2.445,2.55193
-0.57722,0.4381,2.445,2.55013
-0.569284,0.4381,2.445,2.54834
-0.561348,0.4381,2.445,2.54658
-0.553412,0.4381,2.445,2.54484
-0.545476,0.4381,2.445,2.54313
-0.53754,0.4381,2.445,2.54144
-0.529605,0.4381,2.445,2.53977
-0.521669,0.4381,2.445,2.53813
-0.513733,0.4381,2.445,2.53651
-0.505797,0.4381,2.445,2.53491
-0.497861,0.4381,2.445,2.53334
-0.489925,0.4381,2.445,2.53179
-0.481989,0.4381,2.445,2.53027
-0.474054,0.4381,2.445,2.52877
-0.466118,0.4381,2.445,2.5273
-0.461555,0.441325,2.463,2.54444
-0.453561,0.441325,2.463,2.543
-0.445566,0.441325,2.463,2.54159
-0.437572,0.441325,2.463,2.5402
-0.429578,0.441325,2.463,2.53883
-0.421584,0.441325,2.463,2.53749
-0.413589,0.441325,2.463,2.53618
-0.405595,0.441325,2.463,2.53489
-0.397601,0.441325,2.463,2.53362
-0.389606,0.441325,2.463,2.53238
-0.381612,0.441325,2.463,2.53116
-0.373618,0.441325,2.463,2.52997
-0.365624,0.441325,2.463,2.5288
-0.357629,0.441325,2.463,2.52765
-0.349635,0.441325,2.463,2.52654
-0.341641,0.441325,2.463,2.52544
-0.333646,0.441325,2.463,2.52437
-0.325652,0.441325,2.463,2.52333
-0.317658,0.441325,2.463,2.52231
-0.309664,0.441325,2.463,2.52131
-0.301669,0.441325,2.463,2.52035
-0.293675,0.441325,2.463,2.5194
-0.285681,0.441325,2.463,2.51848
-0.277686,0.441325,2.463,2.51759
-0.269692,0.441325,2.463,2.51672
-0.261698,0.441325,2.463,2.51587
-0.253704,0.441325,2.463,2.51506
-0.245709,0.441325,2.463,2.51426
-0.237715,0.441325,2.463,2.51349
-0.229721,0.441325,2.463,2.51275
-0.221726,0.441325,2.463,2.51203
-0.213732,0.441325,2.463,2.51134
-0.205738,0.441325,2.463,2.51067
-0.199189,0.44455,2.481,2.52837
-0.191136,0.44455,2.481,2.52775
-0.183083,0.44455,2.481,2.52715
-0.175031,0.44455,2.481,2.52658
-0.166978,0.44455,2.481,2.52604
-0.160078,0.447775,2.499,2.54384
-0.151967,0.447775,2.499,2.54334
-0.143856,0.447775,2.499,2.54287
-0.135745,0.447775,2.499,2.54243
-0.127634,0.447775,2.499,2.54201
-0.119523,0.447775,2.499,2.54161
-0.111411,0.447775,2.499,2.54124
-0.1033,0.447775,2.499,2.5409
-0.0945035,0.44455,2.481,2.52228
-0.0864508,0.44455,2.481,2.522
-0.078398,0.44455,2.481,2.52173
-0.0703453,0.44455,2.481,2.52149
-0.0622926,0.44455,2.481,2.52128
-0.0542399,0.44455,2.481,2.5211
-0.0461872,0.44455,2.481,2.52094
-0.0381345,0.44455,2.481,2.5208
-0.0300818,0.44455,2.481,2.52069
-0.0220291,0.44455,2.481,2.52061
-0.0139764,0.44455,2.481,2.52055
-0.00592366,0.44455,2.481,2.52052
0.00212905,0.44455,2.481,2.52051
0.0101818,0.44455,2.481,2.52053
0.0182345,0.44455,2.481,2.52058
0.0262872,0.44455,2.481,2.52065
0.0343399,0.44455,2.481,2.52075
0.042085,0.441325,2.463,2.50258
0.0500793,0.441325,2.463,2.50273
0.0580736,0.441325,2.463,2.5029
0.0665507,0.44455,2.481,2.52139
0.0746034,0.44455,2.481,2.52162
0.0826561,0.44455,2.481,2.52187
0.0907089,0.44455,2.481,2.52215
0.0987616,0.44455,2.481,2.52245
0.106814,0.44455,2.481,2.52278
0.114867,0.44455,2.481,2.52313
0.12292,0.44455,2.481,2.52351
0.130972,0.44455,2.481,2.52391
0.139025,0.44455,2.481,2.52434
0.147078,0.44455,2.481,2.5248
0.156256,0.447775,2.499,2.5436
0.163183,0.44455,2.481,2.52579
0.171236,0.44455,2.481,2.52632
0.179289,0.44455,2.481,2.52688
0.187341,0.44455,2.481,2.52747
0.195394,0.44455,2.481,2.52808
0.203447,0.44455,2.481,2.52871
0.2115,0.44455,2.481,2.52937
0.219552,0.44455,2.481,2.53006
0.227605,0.44455,2.481,2.53077
0.235658,0.44455,2.481,2.53151
0.241942,0.441325,2.463,2.5139
0.249936,0.441325,2.463,2.51468
0.257931,0.441325,2.463,2.51549
0.265925,0.441325,2.463,2.51632
0.271917,0.4381,2.445,2.49878
0.279853,0.4381,2.445,2.49966
0.287789,0.4381,2.445,2.50056
0.295725,0.4381,2.445,2.50148
0.303661,0.4381,2.445,2.50243
0.311597,0.4381,2.445,2.50341
0.317311,0.435054,2.428,2.48699
0.325192,0.435054,2.428,2.48801
0.333072,0.435054,2.428,2.48905
0.340953,0.435054,2.428,2.49012
nan,nan,nan,NaN
nan,nan,nan,NaN
nan,nan,nan,NaN
0.375084,0.4381,2.445,2.5121
0.38302,0.4381,2.445,2.5133
0.390955,0.4381,2.445,2.51452
0.401828,0.441325,2.463,2.53429
nan,nan,nan,NaN
nan,nan,nan,NaN
nan,nan,nan,NaN
0.440146,0.447775,2.499,2.57667
0.448257,0.447775,2.499,2.57807
0.456368,0.447775,2.499,2.57949
0.464479,0.447775,2.499,2.58094
0.47259,0.447775,2.499,2.58241
0.480701,0.447775,2.499,2.58391
0.485292,0.44455,2.481,2.56681
0.493344,0.44455,2.481,2.56834
0.501397,0.44455,2.481,2.5699
0.50945,0.44455,2.481,2.57148
0.513748,0.441325,2.463,2.55442
0.521742,0.441325,2.463,2.55604
0.529737,0.441325,2.463,2.55769
0.541661,0.44455,2.481,2.57806
0.549713,0.44455,2.481,2.57976
0.557766,0.44455,2.481,2.58149
0.565819,0.44455,2.481,2.58324
0.573871,0.44455,2.481,2.58502
0.577702,0.441325,2.463,2.56805
0.585697,0.441325,2.463,2.56986
0.593691,0.441325,2.463,2.57169
0.597288,0.4381,2.445,2.55474
0.601016,0.435054,2.428,2.53883
0.608896,0.435054,2.428,2.54071
0.616777,0.435054,2.428,2.54261
0.624658,0.435054,2.428,2.54453
0.62811,0.432007,2.411,2.52865
0.635935,0.432007,2.411,2.53061
0.639221,0.428961,2.394,2.51473
0.646992,0.428961,2.394,2.51671
0.654762,0.428961,2.394,2.51872
0.662532,0.428961,2.394,2.52075
0.670303,0.428961,2.394,2.52281
0.678073,0.428961,2.394,2.52488
0.685843,0.428961,2.394,2.52698
0.693614,0.428961,2.394,2.5291
0.706365,0.432007,2.411,2.54922
0.71419,0.432007,2.411,2.5514
0.722016,0.432007,2.411,2.5536
0.724695,0.428961,2.394,2.5378
0.732465,0.428961,2.394,2.54003
0.740236,0.428961,2.394,2.54228
0.748006,0.428961,2.394,2.54455
0.755776,0.428961,2.394,2.54685
0.763547,0.428961,2.394,2.54917
0.76584,0.425915,2.377,2.53339
0.773555,0.425915,2.377,2.53573
0.78127,0.425915,2.377,2.53809
0.783674,0.423048,2.361,2.52338
0.791338,0.423048,2.361,2.52577
0.799001,0.423048,2.361,2.52818
0.801198,0.420181,2.345,2.51346
0.808809,0.420181,2.345,2.5159
0.81642,0.420181,2.345,2.51836
0.824031,0.420181,2.345,2.52083
0.825968,0.417315,2.329,2.50612
0.833528,0.417315,2.329,2.50862
0.841087,0.417315,2.329,2.51114
0.854477,0.420181,2.345,2.53095
0.862088,0.420181,2.345,2.53353
0.869699,0.420181,2.345,2.53613
0.87731,0.420181,2.345,2.53875
0.89096,0.423048,2.361,2.55873
0.898623,0.423048,2.361,2.56141
0.906286,0.423048,2.361,2.56411
0.913949,0.423048,2.361,2.56683
0.921612,0.423048,2.361,2.56956
0.929276,0.423048,2.361,2.57232
0.936939,0.423048,2.361,2.5751
0.944602,0.423048,2.361,2.5779
0.945812,0.420181,2.345,2.56323
0.953423,0.420181,2.345,2.56605
0.961035,0.420181,2.345,2.56888
0.968646,0.420181,2.345,2.57174
0.976257,0.420181,2.345,2.57462
0.983868,0.420181,2.345,2.57751
0.99148,0.420181,2.345,2.58043
0.999091,0.420181,2.345,2.58336
1.0067,0.420181,2.345,2.58632
1.01431,0.420181,2.345,2.58929
1.02192,0.420181,2.345,2.59228
1.03656,0.423048,2.361,2.613
1.0513,0.425915,2.377,2.63377
1.05902,0.425915,2.377,2.63686
1.06673,0.425915,2.377,2.63997
1.07445,0.425915,2.377,2.6431
1.08216,0.425915,2.377,2.64624
1.09767,0.428961,2.394,2.66836
1.10544,0.428961,2.394,2.67156
1.12112,0.432007,2.411,2.69378
1.12894,0.432007,2.411,2.69705
1.13677,0.432007,2.411,2.70033
1.15266,0.435054,2.428,2.7227
1.16054,0.435054,2.428,2.72604
1.16842,0.435054,2.428,2.72941
1.18454,0.4381,2.445,2.75193
1.19248,0.4381,2.445,2.75535
1.20041,0.4381,2.445,2.7588
1.20835,0.4381,2.445,2.76226
1.21629,0.4381,2.445,2.76574
1.23323,0.441325,2.463,2.78962
1.24123,0.441325,2.463,2.79317
1.24922,0.441325,2.463,2.79673
1.25722,0.441325,2.463,2.80031
1.27446,0.44455,2.481,2.8244
1.28251,0.44455,2.481,2.82804
1.29056,0.44455,2.481,2.8317
1.29862,0.44455,2.481,2.83538
1.30667,0.44455,2.481,2.83908
1.31472,0.44455,2.481,2.84279
1.33237,0.447775,2.499,2.86718
1.34048,0.447775,2.499,2.87096
1.34859,0.447775,2.499,2.87475
1.3567,0.447775,2.499,2.87857
1.37465,0.451001,2.517,2.90316
1.39325,0.454405,2.536,2.92898
1.40148,0.454405,2.536,2.93291
1.43084,0.461214,2.574,2.98085
1.44982,0.464619,2.593,3.00691
1.45823,0.464619,2.593,3.01097
1.48927,0.471786,2.633,3.06157
1.52171,0.479311,2.675,3.11464
1.5304,0.479311,2.675,3.11889
1.56324,0.486837,2.717,3.1722
1.58479,0.490779,2.739,3.20227
1.61928,0.498663,2.783,3.25819
1.62831,0.498663,2.783,3.26269
1.63735,0.498663,2.783,3.26721
1.64638,0.498663,2.783,3.27175
1.65541,0.498663,2.783,3.2763
1.65129,0.494721,2.761,3.25494
1.66025,0.494721,2.761,3.25949
1.65591,0.490779,2.739,3.23806
1.65143,0.486837,2.717,3.21657
1.66025,0.486837,2.717,3.22111
1.65617,0.483074,2.696,3.20073
1.63898,0.475549,2.654,3.15533
1.62214,0.468202,2.613,3.111
1.63062,0.468202,2.613,3.11543
1.62656,0.464619,2.593,3.096
1.61101,0.45781,2.555,3.05499
1.61931,0.45781,2.555,3.05937
1.60339,0.451001,2.517,3.0182
1.60004,0.447775,2.499,3.00094
1.60815,0.447775,2.499,3.00527
1.60462,0.44455,2.481,2.98794
1.58927,0.4381,2.445,2.94885
1.59721,0.4381,2.445,2.95314
1.59398,0.435054,2.428,2.93687
1.57943,0.428961,2.394,2.89997
1.5872,0.428961,2.394,2.90421
1.58365,0.425915,2.377,2.88781
1.58065,0.423048,2.361,2.87258
1.58831,0.423048,2.361,2.87681
1.58516,0.420181,2.345,2.86152
1.5819,0.417315,2.329,2.84619
-1.75931,0.462634,2.536,3.12097
-1.75107,0.462634,2.536,3.11634
-1.74284,0.462634,2.536,3.11172
-1.73461,0.462634,2.536,3.10712
-1.72638,0.462634,2.536,3.10253
-1.71815,0.462634,2.536,3.09796
-1.70992,0.462634,2.536,3.0934
-1.70169,0.462634,2.536,3.08886
-1.68077,0.459168,2.517,3.06123
-1.6726,0.459168,2.517,3.05675
-1.66443,0.459168,2.517,3.05229
-1.65626,0.459168,2.517,3.04784
-1.64809,0.459168,2.517,3.04341
-1.63992,0.459168,2.517,3.03899
-1.62008,0.455884,2.499,3.01289
-1.60036,0.452601,2.481,2.98686
-1.59231,0.452601,2.481,2.98256
-1.58425,0.452601,2.481,2.97827
-1.56477,0.449317,2.463,2.95241
-1.55677,0.449317,2.463,2.94818
-1.54878,0.449317,2.463,2.94397
-1.52952,0.446033,2.445,2.91829
-1.52159,0.446033,2.445,2.91414
-1.51365,0.446033,2.445,2.91
-1.50572,0.446033,2.445,2.90588
-1.49778,0.446033,2.445,2.90178
-1.50081,0.449317,2.463,2.91902
-1.48191,0.446033,2.445,2.89362
-1.47397,0.446033,2.445,2.88956
-1.46604,0.446033,2.445,2.88552
-1.4581,0.446033,2.445,2.8815
-1.44008,0.442932,2.428,2.85748
-1.4322,0.442932,2.428,2.85352
-1.42432,0.442932,2.428,2.84957
-1.41644,0.442932,2.428,2.84564
-1.40856,0.442932,2.428,2.84173
-1.40068,0.442932,2.428,2.83783
-1.3928,0.442932,2.428,2.83395
-1.38492,0.442932,2.428,2.83008
-1.37704,0.442932,2.428,2.82623
-1.36916,0.442932,2.428,2.8224
-1.36127,0.442932,2.428,2.81859
-1.36287,0.446033,2.445,2.8345
-1.35493,0.446033,2.445,2.83069
-1.35692,0.449317,2.463,2.84771
-1.36864,0.455884,2.499,2.88548
-1.37033,0.459168,2.517,2.9024
-1.36216,0.459168,2.517,2.89855
-1.37443,0.4661,2.555,2.93842
-1.37629,0.469566,2.574,2.95638
-1.36794,0.469566,2.574,2.9525
-1.38019,0.476681,2.613,2.99331
-1.3822,0.48033,2.633,3.01229
-1.38461,0.48416,2.654,3.03237
-1.376,0.48416,2.654,3.02845
-1.36738,0.48416,2.654,3.02454
-1.36952,0.487991,2.675,3.04456
-1.36084,0.487991,2.675,3.04067
-1.36277,0.491822,2.696,3.06063
-1.35402,0.491822,2.696,3.05674
-1.34527,0.491822,2.696,3.05288
-1.33652,0.491822,2.696,3.04903
-1.32777,0.491822,2.696,3.04521
-1.30874,0.487991,2.675,3.01771
-1.28986,0.48416,2.654,2.99029
-1.2711,0.48033,2.633,2.96296
-1.26256,0.48033,2.633,2.9593
-1.24449,0.476681,2.613,2.93321
-1.22654,0.473032,2.593,2.9072
-1.21813,0.473032,2.593,2.90366
-1.20085,0.469566,2.574,2.87889
-1.18369,0.4661,2.555,2.85419
-1.1754,0.4661,2.555,2.85076
-1.14153,0.455884,2.499,2.78494
-1.12525,0.452601,2.481,2.76159
-1.1172,0.452601,2.481,2.75832
-1.1011,0.449317,2.463,2.73508
-1.0931,0.449317,2.463,2.73187
-1.07718,0.446033,2.445,2.70874
-1.06924,0.446033,2.445,2.7056
-1.06131,0.446033,2.445,2.70247
-1.05337,0.446033,2.445,2.69936
-1.04544,0.446033,2.445,2.69628
-1.0375,0.446033,2.445,2.69321
-1.02956,0.446033,2.445,2.69016
-1.02163,0.446033,2.445,2.68714
-1.01369,0.446033,2.445,2.68413
-1.00576,0.446033,2.445,2.68114
-0.997821,0.446033,2.445,2.67817
-0.989885,0.446033,2.445,2.67523
-0.981949,0.446033,2.445,2.6723
-0.974013,0.446033,2.445,2.6694
-0.966077,0.446033,2.445,2.66651
-0.958141,0.446033,2.445,2.66365
-0.950205,0.446033,2.445,2.6608
-0.94227,0.446033,2.445,2.65798
-0.934334,0.446033,2.445,2.65517
-0.933218,0.449317,2.463,2.67192
-0.925224,0.449317,2.463,2.66914
-0.910526,0.446033,2.445,2.64689
-0.90259,0.446033,2.445,2.64417
-0.894654,0.446033,2.445,2.64147
-0.886718,0.446033,2.445,2.6388
-0.878783,0.446033,2.445,2.63614
-0.870847,0.446033,2.445,2.6335
-0.862911,0.446033,2.445,2.63089
-0.854975,0.446033,2.445,2.6283
-0.847039,0.446033,2.445,2.62573
-0.839103,0.446033,2.445,2.62318
-0.831167,0.446033,2.445,2.62065
-0.823232,0.446033,2.445,2.61814
-0.815296,0.446033,2.445,2.61566
-0.80736,0.446033,2.445,2.6132
-0.799424,0.446033,2.445,2.61076
-0.791488,0.446033,2.445,2.60834
-0.789321,0.449317,2.463,2.62513
-0.781326,0.449317,2.463,2.62273
-0.773332,0.449317,2.463,2.62036
-0.765338,0.449317,2.463,2.61801
-0.757344,0.449317,2.463,2.61569
-0.749349,0.449317,2.463,2.61338
-0.741355,0.449317,2.463,2.6111
-0.733361,0.449317,2.463,2.60884
-0.725366,0.449317,2.463,2.60661
-0.717372,0.449317,2.463,2.6044
-0.709378,0.449317,2.463,2.60221
-0.701384,0.449317,2.463,2.60004
-0.693389,0.449317,2.463,2.59789
-0.685395,0.449317,2.463,2.59577
-0.677401,0.449317,2.463,2.59367
-0.669406,0.449317,2.463,2.59159
-0.661412,0.449317,2.463,2.58954
-0.653418,0.449317,2.463,2.58751
-0.640707,0.446033,2.445,2.56661
-0.632771,0.446033,2.445,2.56464
-0.624835,0.446033,2.445,2.56269
-0.616899,0.446033,2.445,2.56077
-0.608963,0.446033,2.445,2.55887
-0.601027,0.446033,2.445,2.55699
-0.588968,0.442932,2.428,2.53737
-0.581087,0.442932,2.428,2.53555
-0.57722,0.446033,2.445,2.5515
-0.565326,0.442932,2.428,2.53199
-0.557445,0.442932,2.428,2.53024
-0.553412,0.446033,2.445,2.54622
-0.545476,0.446033,2.445,2.54451
-0.53754,0.446033,2.445,2.54282
-0.529605,0.446033,2.445,2.54115
-0.521669,0.446033,2.445,2.53951
-0.513733,0.446033,2.445,2.53789
-0.505797,0.446033,2.445,2.5363
-0.497861,0.446033,2.445,2.53473
-0.489925,0.446033,2.445,2.53318
-0.481989,0.446033,2.445,2.53166
-0.474054,0.446033,2.445,2.53016
-0.466118,0.446033,2.445,2.52868
-0.458182,0.446033,2.445,2.52723
-0.450246,0.446033,2.445,2.52581
-0.445566,0.449317,2.463,2.54299
-0.437572,0.449317,2.463,2.5416
-0.429578,0.449317,2.463,2.54023
-0.421584,0.449317,2.463,2.53889
-0.413589,0.449317,2.463,2.53758
-0.405595,0.449317,2.463,2.53629
-0.397601,0.449317,2.463,2.53502
-0.389606,0.449317,2.463,2.53378
-0.381612,0.449317,2.463,2.53256
-0.373618,0.449317,2.463,2.53137
-0.365624,0.449317,2.463,2.5302
-0.357629,0.449317,2.463,2.52906
-0.34708,0.446033,2.445,2.50947
-0.339144,0.446033,2.445,2.50838
-0.331208,0.446033,2.445,2.50732
-0.323272,0.446033,2.445,2.50629
-0.315336,0.446033,2.445,2.50528
-0.3074,0.446033,2.445,2.50429
-0.301669,0.449317,2.463,2.52176
-0.293675,0.449317,2.463,2.52081
-0.285681,0.449317,2.463,2.51989
-0.277686,0.449317,2.463,2.519
-0.269692,0.449317,2.463,2.51813
-0.261698,0.449317,2.463,2.51729
-0.251849,0.446033,2.445,2.49808
-0.243914,0.446033,2.445,2.49729
-0.237715,0.449317,2.463,2.51491
-0.229721,0.449317,2.463,2.51417
-0.221726,0.449317,2.463,2.51345
-0.215294,0.452601,2.481,2.53112
-0.207241,0.452601,2.481,2.53045
-0.199189,0.452601,2.481,2.5298
-0.191136,0.452601,2.481,2.52918
-0.183083,0.452601,2.481,2.52858
-0.175031,0.452601,2.481,2.52801
-0.166978,0.452601,2.481,2.52747
-0.160078,0.455884,2.499,2.54528
-0.151967,0.455884,2.499,2.54478
-0.143856,0.455884,2.499,2.54431
-0.135745,0.455884,2.499,2.54387
-0.127634,0.455884,2.499,2.54345
-0.119523,0.455884,2.499,2.54305
-0.111411,0.455884,2.499,2.54268
-0.1033,0.455884,2.499,2.54234
-0.0945035,0.452601,2.481,2.52372
-0.0864508,0.452601,2.481,2.52343
-0.078398,0.452601,2.481,2.52316
-0.0703453,0.452601,2.481,2.52293
-0.0622926,0.452601,2.481,2.52271
-0.0542399,0.452601,2.481,2.52253
-0.0461872,0.452601,2.481,2.52237
-0.0381345,0.452601,2.481,2.52223
-0.0300818,0.452601,2.481,2.52213
-0.0220291,0.452601,2.481,2.52204
-0.0139764,0.452601,2.481,2.52198
-0.00592366,0.452601,2.481,2.52195
0.00212905,0.452601,2.481,2.52195
0.0101818,0.452601,2.481,2.52197
0.0182345,0.452601,2.481,2.52201
0.0262872,0.452601,2.481,2.52208
0.0343399,0.452601,2.481,2.52218
0.042085,0.449317,2.463,2.504
0.0500793,0.449317,2.463,2.50415
0.0580736,0.449317,2.463,2.50432
0.0665507,0.452601,2.481,2.52282
0.0746034,0.452601,2.481,2.52305
0.0826561,0.452601,2.481,2.5233
0.0907089,0.452601,2.481,2.52358
0.0987616,0.452601,2.481,2.52388
0.106814,0.452601,2.481,2.52421
0.114867,0.452601,2.481,2.52456
0.12292,0.452601,2.481,2.52494
0.130972,0.452601,2.481,2.52534
0.139025,0.452601,2.481,2.52577
0.147078,0.452601,2.481,2.52623
0.156256,0.455884,2.499,2.54504
0.163183,0.452601,2.481,2.52722
0.171236,0.452601,2.481,2.52775
0.179289,0.452601,2.481,2.52831
0.187341,0.452601,2.481,2.52889
0.195394,0.452601,2.481,2.5295
0.203447,0.452601,2.481,2.53014
0.2115,0.452601,2.481,2.5308
0.219552,0.452601,2.481,2.53148
0.227605,0.452601,2.481,2.5322
0.235658,0.452601,2.481,2.53293
0.241942,0.449317,2.463,2.51531
0.249936,0.449317,2.463,2.51609
0.257931,0.449317,2.463,2.5169
0.265925,0.449317,2.463,2.51773
0.271917,0.446033,2.445,2.50018
0.279853,0.446033,2.445,2.50106
0.287789,0.446033,2.445,2.50196
0.293669,0.442932,2.428,2.48548
0.30155,0.442932,2.428,2.48642
0.30943,0.442932,2.428,2.48739
0.317311,0.442932,2.428,2.48838
0.325192,0.442932,2.428,2.4894
0.333072,0.442932,2.428,2.49044
0.340953,0.442932,2.428,2.49151
nan,nan,nan,NaN
nan,nan,nan,NaN
nan,nan,nan,NaN
0.375084,0.446033,2.445,2.5135
0.38302,0.446033,2.445,2.51469
0.390955,0.446033,2.445,2.51591
0.401828,0.449317,2.463,2.53569
nan,nan,nan,NaN
nan,nan,nan,NaN
nan,nan,nan,NaN
0.440146,0.455884,2.499,2.57809
0.448257,0.455884,2.499,2.57949
0.456368,0.455884,2.499,2.58091
0.464479,0.455884,2.499,2.58236
0.47259,0.455884,2.499,2.58383
0.480701,0.455884,2.499,2.58533
0.485292,0.452601,2.481,2.56821
0.493344,0.452601,2.481,2.56975
0.501397,0.452601,2.481,2.5713
0.50945,0.452601,2.481,2.57289
0.513748,0.449317,2.463,2.55582
0.521742,0.449317,2.463,2.55743
0.529737,0.449317,2.463,2.55908
0.541661,0.452601,2.481,2.57946
0.549713,0.452601,2.481,2.58116
0.557766,0.452601,2.481,2.58289
0.565819,0.452601,2.481,2.58464
0.573871,0.452601,2.481,2.58641
0.577702,0.449317,2.463,2.56943
0.585697,0.449317,2.463,2.57124
0.593691,0.449317,2.463,2.57308
0.597288,0.446033,2.445,2.55612
0.601016,0.442932,2.428,2.5402
0.608896,0.442932,2.428,2.54207
0.616777,0.442932,2.428,2.54397
0.620284,0.439831,2.411,2.52807
0.623681,0.436729,2.394,2.51216
0.631451,0.436729,2.394,2.5141
0.639221,0.436729,2.394,2.51606
0.642397,0.433628,2.377,2.50017
0.650113,0.433628,2.377,2.50216
0.657828,0.433628,2.377,2.50418
0.665543,0.433628,2.377,2.50621
0.678073,0.436729,2.394,2.52621
0.685843,0.436729,2.394,2.52831
0.693614,0.436729,2.394,2.53043
0.696403,0.433628,2.377,2.51459
0.704119,0.433628,2.377,2.51673
0.711834,0.433628,2.377,2.5189
0.724695,0.436729,2.394,2.53912
0.732465,0.436729,2.394,2.54135
0.740236,0.436729,2.394,2.5436
0.742694,0.433628,2.377,2.5278
0.75041,0.433628,2.377,2.53007
0.753022,0.430709,2.361,2.51533
0.760685,0.430709,2.361,2.51763
0.768348,0.430709,2.361,2.51996
0.770752,0.427791,2.345,2.50521
0.778364,0.427791,2.345,2.50756
0.785975,0.427791,2.345,2.50994
0.793586,0.427791,2.345,2.51233
0.795731,0.424872,2.329,2.49759
0.80329,0.424872,2.329,2.50001
0.81085,0.424872,2.329,2.50245
0.818409,0.424872,2.329,2.50491
0.820294,0.421953,2.313,2.49016
0.827801,0.421953,2.313,2.49264
0.835309,0.421953,2.313,2.49515
0.848646,0.424872,2.329,2.51495
0.856206,0.424872,2.329,2.51751
0.863765,0.424872,2.329,2.52009
0.87731,0.427791,2.345,2.54002
0.884922,0.427791,2.345,2.54266
0.892533,0.427791,2.345,2.54532
0.900144,0.427791,2.345,2.548
0.907756,0.427791,2.345,2.5507
0.921612,0.430709,2.361,2.57084
0.929276,0.430709,2.361,2.57359
0.936939,0.430709,2.361,2.57637
0.944602,0.430709,2.361,2.57917
0.945812,0.427791,2.345,2.56449
0.953423,0.427791,2.345,2.5673
0.961035,0.427791,2.345,2.57014
0.962037,0.424872,2.329,2.55544
0.969596,0.424872,2.329,2.5583
0.977155,0.424872,2.329,2.56117
0.984715,0.424872,2.329,2.56406
0.992274,0.424872,2.329,2.56698
0.999834,0.424872,2.329,2.56991
1.00739,0.424872,2.329,2.57286
1.01495,0.424872,2.329,2.57583
1.02954,0.427791,2.345,2.59653
1.03715,0.427791,2.345,2.59956
1.04476,0.427791,2.345,2.6026
1.05955,0.430709,2.361,2.62345
1.06721,0.430709,2.361,2.62655
1.07488,0.430709,2.361,2.62968
1.08988,0.433628,2.377,2.65066
1.10544,0.436729,2.394,2.67282
1.11321,0.436729,2.394,2.67604
1.12098,0.436729,2.394,2.67929
1.13677,0.439831,2.411,2.70159
1.14459,0.439831,2.411,2.7049
1.15242,0.439831,2.411,2.70822
1.16842,0.442932,2.428,2.73068
1.18454,0.446033,2.445,2.7532
1.19248,0.446033,2.445,2.75662
1.20041,0.446033,2.445,2.76007
1.20835,0.446033,2.445,2.76353
1.21629,0.446033,2.445,2.76701
1.23323,0.449317,2.463,2.7909
1.24123,0.449317,2.463,2.79444
1.24922,0.449317,2.463,2.798
1.25722,0.449317,2.463,2.80158
1.27446,0.452601,2.481,2.82568
1.28251,0.452601,2.481,2.82932
1.29056,0.452601,2.481,2.83298
1.29862,0.452601,2.481,2.83666
1.30667,0.452601,2.481,2.84035
1.31472,0.452601,2.481,2.84406
1.33237,0.455884,2.499,2.86846
1.34048,0.455884,2.499,2.87223
1.34859,0.455884,2.499,2.87603
1.3567,0.455884,2.499,2.87984
1.37465,0.459168,2.517,2.90444
1.39325,0.462634,2.536,2.93027
1.40148,0.462634,2.536,2.93419
1.43084,0.469566,2.574,2.98216
1.44982,0.473032,2.593,3.00822
1.45823,0.473032,2.593,3.01228
1.48927,0.48033,2.633,3.0629
1.52171,0.487991,2.675,3.11599
1.5304,0.487991,2.675,3.12024
1.56324,0.495653,2.717,3.17356
1.58479,0.499667,2.739,3.20365
1.61928,0.507694,2.783,3.25959
1.62831,0.507694,2.783,3.26409
1.63735,0.507694,2.783,3.2686
1.64638,0.507694,2.783,3.27314
1.65541,0.507694,2.783,3.27769
1.65129,0.50368,2.761,3.25631
1.66025,0.50368,2.761,3.26087
1.65591,0.499667,2.739,3.23942
1.65143,0.495653,2.717,3.21792
1.66025,0.495653,2.717,3.22245
1.65617,0.491822,2.696,3.20206
