-0.685395,-0.32591,2.463,2.57728
-0.677401,-0.32591,2.463,2.57516
-0.669406,-0.32591,2.463,2.57307
-0.661412,-0.32591,2.463,2.571
-0.653418,-0.32591,2.463,2.56896
-0.645424,-0.32591,2.463,2.56694
-0.637429,-0.32591,2.463,2.56494
-0.629435,-0.32591,2.463,2.56296
-0.621441,-0.32591,2.463,2.56101
-0.613446,-0.32591,2.463,2.55908
-0.605452,-0.32591,2.463,2.55718
-0.601824,-0.328292,2.481,2.57397
-0.593771,-0.328292,2.481,2.5721
-0.585719,-0.328292,2.481,2.57025
-0.581857,-0.330674,2.499,2.58706
-0.573746,-0.330674,2.499,2.58525
-0.565635,-0.330674,2.499,2.58346
-0.557524,-0.330674,2.499,2.5817
-0.549413,-0.330674,2.499,2.57996
-0.541301,-0.330674,2.499,2.57825
-0.537031,-0.333056,2.517,2.59511
-0.528861,-0.333056,2.517,2.59344
-0.520692,-0.333056,2.517,2.59178
-0.516391,-0.33557,2.536,2.60971
-0.50816,-0.33557,2.536,2.60809
-0.499929,-0.33557,2.536,2.6065
-0.491697,-0.33557,2.536,2.60493
-0.483466,-0.33557,2.536,2.60339
-0.478795,-0.338084,2.555,2.62137
-0.470502,-0.338084,2.555,2.61987
-0.46221,-0.338084,2.555,2.61839
-0.453917,-0.338084,2.555,2.61694
-0.445624,-0.338084,2.555,2.61551
-0.437331,-0.338084,2.555,2.61411
-0.432229,-0.340598,2.574,2.63217
-0.423874,-0.340598,2.574,2.63081
-0.418587,-0.343112,2.593,2.64888
-0.407165,-0.340598,2.574,2.62817
-0.39881,-0.340598,2.574,2.62689
-0.390456,-0.340598,2.574,2.62563
-0.382101,-0.340598,2.574,2.6244
-0.373747,-0.340598,2.574,2.6232
-0.365392,-0.340598,2.574,2.62202
-0.357037,-0.340598,2.574,2.62087
-0.348683,-0.340598,2.574,2.61975
-0.340328,-0.340598,2.574,2.61865
-0.331974,-0.340598,2.574,2.61757
-0.323619,-0.340598,2.574,2.61653
-0.315265,-0.340598,2.574,2.61551
-0.30691,-0.340598,2.574,2.61451
-0.298555,-0.340598,2.574,2.61355
-0.290201,-0.340598,2.574,2.6126
-0.281846,-0.340598,2.574,2.61169
-0.273492,-0.340598,2.574,2.6108
-0.265137,-0.340598,2.574,2.60994
-0.256783,-0.340598,2.574,2.6091
-0.248428,-0.340598,2.574,2.60829
-0.240074,-0.340598,2.574,2.60751
-0.230009,-0.338084,2.555,2.58751
-0.221716,-0.338084,2.555,2.58679
-0.213423,-0.338084,2.555,2.58609
-0.20513,-0.338084,2.555,2.58542
-0.195373,-0.33557,2.536,2.56556
-0.187142,-0.33557,2.536,2.56494
-0.178911,-0.33557,2.536,2.56435
-0.170679,-0.33557,2.536,2.56379
-0.161231,-0.333056,2.517,2.54405
-0.153062,-0.333056,2.517,2.54355
-0.144892,-0.333056,2.517,2.54307
-0.136723,-0.333056,2.517,2.54262
-0.128553,-0.333056,2.517,2.54219
-0.121292,-0.33557,2.536,2.56098
-0.113061,-0.33557,2.536,2.5606
-0.10483,-0.33557,2.536,2.56025
-0.0965985,-0.33557,2.536,2.55993
-0.0883672,-0.33557,2.536,2.55963
-0.0807364,-0.338084,2.555,2.57854
-0.0724435,-0.338084,2.555,2.57829
-0.0641506,-0.338084,2.555,2.57807
-0.0558577,-0.338084,2.555,2.57788
-0.0479185,-0.340598,2.574,2.59688
-0.039564,-0.340598,2.574,2.59674
-0.0312094,-0.340598,2.574,2.59662
-0.0228548,-0.340598,2.574,2.59654
-0.0145003,-0.340598,2.574,2.59648
-0.00614571,-0.340598,2.574,2.59644
0.00222516,-0.343112,2.593,2.6156
0.0107235,-0.345759,2.613,2.6358
0.0192046,-0.345759,2.613,2.63585
0.0276858,-0.345759,2.613,2.63592
0.0361669,-0.345759,2.613,2.63602
0.0446481,-0.345759,2.613,2.63615
0.0531292,-0.345759,2.613,2.63631
0.0616104,-0.345759,2.613,2.6365
0.070628,-0.348405,2.633,2.65689
0.0791741,-0.348405,2.633,2.65713
0.0877201,-0.348405,2.633,2.6574
0.0962662,-0.348405,2.633,2.6577
0.104812,-0.348405,2.633,2.65802
0.113358,-0.348405,2.633,2.65837
0.121904,-0.348405,2.633,2.65875
0.13045,-0.348405,2.633,2.65915
0.138997,-0.348405,2.633,2.65959
0.147543,-0.348405,2.633,2.66005
0.156089,-0.348405,2.633,2.66053
0.163384,-0.345759,2.613,2.64084
0.171865,-0.345759,2.613,2.64137
0.180346,-0.345759,2.613,2.64194
0.187382,-0.343112,2.593,2.62231
0.195799,-0.343112,2.593,2.62292
0.204215,-0.343112,2.593,2.62356
0.212631,-0.343112,2.593,2.62423
0.221047,-0.343112,2.593,2.62493
0.229463,-0.343112,2.593,2.62565
0.23788,-0.343112,2.593,2.6264
0.246296,-0.343112,2.593,2.62717
0.254712,-0.343112,2.593,2.62798
0.263128,-0.343112,2.593,2.6288
0.271545,-0.343112,2.593,2.62966
0.279961,-0.343112,2.593,2.63054
0.288377,-0.343112,2.593,2.63145
0.296793,-0.343112,2.593,2.63239
0.30521,-0.343112,2.593,2.63335
0.313626,-0.343112,2.593,2.63434
0.322042,-0.343112,2.593,2.63535
0.328037,-0.340598,2.574,2.61708
0.336391,-0.340598,2.574,2.61814
0.344746,-0.340598,2.574,2.61922
0.350494,-0.338084,2.555,2.60099
0.358787,-0.338084,2.555,2.60212
0.36708,-0.338084,2.555,2.60328
0.375373,-0.338084,2.555,2.60446
0.383666,-0.338084,2.555,2.60567
0.391959,-0.338084,2.555,2.60691
0.400252,-0.338084,2.555,2.60817
0.408544,-0.338084,2.555,2.60945
0.416837,-0.338084,2.555,2.61076
0.421969,-0.33557,2.536,2.59267
0.4302,-0.33557,2.536,2.59403
0.438431,-0.33557,2.536,2.5954
0.446662,-0.33557,2.536,2.59681
0.454894,-0.33557,2.536,2.59824
0.463125,-0.33557,2.536,2.59969
0.471356,-0.33557,2.536,2.60117
0.479587,-0.33557,2.536,2.60267
0.487819,-0.33557,2.536,2.6042
0.49605,-0.33557,2.536,2.60576
0.504281,-0.33557,2.536,2.60734
0.512512,-0.33557,2.536,2.60894
0.524645,-0.338084,2.555,2.63013
0.532938,-0.338084,2.555,2.6318
0.541231,-0.338084,2.555,2.63349
0.549524,-0.338084,2.555,2.6352
0.557817,-0.338084,2.555,2.63695
0.566109,-0.338084,2.555,2.63871
0.574402,-0.338084,2.555,2.6405
0.582695,-0.338084,2.555,2.64232
0.590988,-0.338084,2.555,2.64416
0.603738,-0.340598,2.574,2.6657
0.612092,-0.340598,2.574,2.66761
0.620447,-0.340598,2.574,2.66954
0.628801,-0.340598,2.574,2.67149
0.637156,-0.340598,2.574,2.67347
0.64551,-0.340598,2.574,2.67548
0.653865,-0.340598,2.574,2.6775
0.662219,-0.340598,2.574,2.67956
0.670574,-0.340598,2.574,2.68163
0.678929,-0.340598,2.574,2.68373
0.687283,-0.340598,2.574,2.68586
0.695638,-0.340598,2.574,2.68801
0.703992,-0.340598,2.574,2.69018
0.712347,-0.340598,2.574,2.69238
0.720701,-0.340598,2.574,2.6946
0.729056,-0.340598,2.574,2.69685
0.731967,-0.338084,2.555,2.6792
0.74026,-0.338084,2.555,2.68148
0.748553,-0.338084,2.555,2.68378
0.756846,-0.338084,2.555,2.6861
0.765139,-0.338084,2.555,2.68845
0.773432,-0.338084,2.555,2.69082
0.781725,-0.338084,2.555,2.69322
0.790018,-0.338084,2.555,2.69564
0.798311,-0.338084,2.555,2.69808
0.800605,-0.33557,2.536,2.68046
0.808836,-0.33557,2.536,2.68293
0.817068,-0.33557,2.536,2.68542
0.825299,-0.33557,2.536,2.68794
0.83353,-0.33557,2.536,2.69048
0.841761,-0.33557,2.536,2.69304
0.843624,-0.333056,2.517,2.67543
0.845702,-0.330674,2.499,2.65886
0.847664,-0.328292,2.481,2.64229
0.855716,-0.328292,2.481,2.64488
0.863769,-0.328292,2.481,2.6475
0.865497,-0.32591,2.463,2.63091
0.873491,-0.32591,2.463,2.63355
0.881485,-0.32591,2.463,2.63621
0.882979,-0.323528,2.445,2.61961
0.890915,-0.323528,2.445,2.62229
0.898851,-0.323528,2.445,2.625
0.900482,-0.321279,2.428,2.60946
0.908362,-0.321279,2.428,2.61219
0.916243,-0.321279,2.428,2.61494
0.924124,-0.321279,2.428,2.61771
0.932004,-0.321279,2.428,2.6205
0.939885,-0.321279,2.428,2.62332
0.947766,-0.321279,2.428,2.62615
0.955646,-0.321279,2.428,2.629
0.963527,-0.321279,2.428,2.63188
0.971408,-0.321279,2.428,2.63477
nan,nan,nan,NaN
nan,nan,nan,NaN
0.988083,-0.319029,2.411,2.62507
0.995908,-0.319029,2.411,2.62803
nan,nan,nan,NaN
nan,nan,nan,NaN
nan,nan,nan,NaN
nan,nan,nan,NaN
nan,nan,nan,NaN
nan,nan,nan,NaN
1.24331,-0.377516,2.853,3.13495
1.25257,-0.377516,2.853,3.13864
1.26183,-0.377516,2.853,3.14235
1.34994,-0.400937,3.03,3.34126
1.35978,-0.400937,3.03,3.34524
1.39402,-0.408082,3.084,3.40894
1.40403,-0.408082,3.084,3.41305
1.45347,-0.419462,3.17,3.51247
1.50532,-0.431371,3.26,3.61658
1.5159,-0.431371,3.26,3.621
1.55645,-0.43984,3.324,3.69662
1.58233,-0.444074,3.356,3.7368
1.60889,-0.448441,3.389,3.77822
1.61989,-0.448441,3.389,3.78292
1.63089,-0.448441,3.389,3.78764
1.65836,-0.45294,3.423,3.83044
1.66947,-0.45294,3.423,3.83526
1.66389,-0.448441,3.389,3.80196
1.67489,-0.448441,3.389,3.80679
1.68589,-0.448441,3.389,3.81164
1.66434,-0.43984,3.324,3.74332
1.67513,-0.43984,3.324,3.74813
1.65346,-0.431371,3.26,3.68071
1.66404,-0.431371,3.26,3.68547
1.67462,-0.431371,3.26,3.69026
1.70174,-0.435606,3.292,3.73135
1.71243,-0.435606,3.292,3.73623
1.75661,-0.444074,3.356,3.81387
1.7675,-0.444074,3.356,3.8189
1.7784,-0.444074,3.356,3.82396
1.80688,-0.448441,3.389,3.86668
1.87367,-0.462202,3.493,3.99065
1.88501,-0.462202,3.493,3.99599
1.91589,-0.466966,3.529,4.04259
1.94755,-0.471862,3.566,4.09047
1.95913,-0.471862,3.566,4.096
1.9707,-0.471862,3.566,4.10154
1.98227,-0.471862,3.566,4.10712
2.0151,-0.47689,3.604,4.15654
2.02679,-0.47689,3.604,4.16223
2.03849,-0.47689,3.604,4.16794
2.05019,-0.47689,3.604,4.17367
2.06189,-0.47689,3.604,4.17943
2.07358,-0.47689,3.604,4.18521
2.08528,-0.47689,3.604,4.19102
2.07487,-0.471862,3.566,4.1526
2.08644,-0.471862,3.566,4.1584
2.07625,-0.466966,3.529,4.12101
2.0877,-0.466966,3.529,4.12679
2.07774,-0.462202,3.493,4.09044
2.06815,-0.457571,3.458,4.05517
2.07937,-0.457571,3.458,4.0609
2.06944,-0.45294,3.423,4.0255
2.03982,-0.444074,3.356,3.95232
2.05072,-0.444074,3.356,3.95795
2.02229,-0.435606,3.292,3.88802
2.01322,-0.431371,3.26,3.85574
2.0238,-0.431371,3.26,3.86127
1.97821,-0.419462,3.17,3.76008
1.93456,-0.408082,3.084,3.66335
1.94457,-0.408082,3.084,3.66864
1.92035,-0.400937,3.03,3.60963
1.89642,-0.393924,2.977,3.55164
1.90609,-0.393924,2.977,3.55681
1.89902,-0.390484,2.951,3.53089
1.87626,-0.383867,2.901,3.47613
1.88567,-0.383867,2.901,3.48122
1.87941,-0.380692,2.877,3.45749
1.85724,-0.37434,2.829,3.40481
1.85125,-0.371297,2.806,3.3821
1.86035,-0.371297,2.806,3.3871
1.83948,-0.365342,2.761,3.33771
1.83371,-0.362431,2.739,3.31602
1.8426,-0.362431,2.739,3.32094
1.82243,-0.356741,2.696,3.27367
1.81691,-0.353963,2.675,3.25301
-2.37465,-0.441833,3.423,4.1894
-2.36354,-0.441833,3.423,4.18312
-2.37648,-0.44635,3.458,4.21956
-2.36526,-0.44635,3.458,4.21324
-2.33021,-0.441833,3.423,4.16437
-2.3191,-0.441833,3.423,4.15817
-2.30799,-0.441833,3.423,4.15198
-2.27406,-0.437444,3.389,4.10464
-2.26306,-0.437444,3.389,4.09855
-2.23013,-0.433184,3.356,4.05264
-2.21924,-0.433184,3.356,4.04665
-2.20835,-0.433184,3.356,4.04069
-2.19745,-0.433184,3.356,4.03475
-2.18656,-0.433184,3.356,4.02883
-2.17567,-0.433184,3.356,4.02292
-2.16478,-0.433184,3.356,4.01704
-2.13335,-0.429054,3.324,3.97294
-2.10212,-0.424924,3.292,3.92896
-2.09144,-0.424924,3.292,3.92326
-2.08075,-0.424924,3.292,3.91757
-2.07007,-0.424924,3.292,3.91191
-2.05938,-0.424924,3.292,3.90626
-2.02878,-0.420793,3.26,3.86272
-2.0182,-0.420793,3.26,3.85718
-2.00762,-0.420793,3.26,3.85165
-1.99704,-0.420793,3.26,3.84615
-1.96818,-0.416921,3.23,3.80532
-1.95769,-0.416921,3.23,3.79991
-1.94721,-0.416921,3.23,3.79452
-1.93673,-0.416921,3.23,3.78915
nan,nan,nan,NaN
nan,nan,nan,NaN
nan,nan,nan,NaN
nan,nan,nan,NaN
nan,nan,nan,NaN
nan,nan,nan,NaN
nan,nan,nan,NaN
nan,nan,nan,NaN
nan,nan,nan,NaN
nan,nan,nan,NaN
nan,nan,nan,NaN
nan,nan,nan,NaN
nan,nan,nan,NaN
nan,nan,nan,NaN
nan,nan,nan,NaN
nan,nan,nan,NaN
nan,nan,nan,NaN
nan,nan,nan,NaN
nan,nan,nan,NaN
nan,nan,nan,NaN
nan,nan,nan,NaN
nan,nan,nan,NaN
nan,nan,nan,NaN
nan,nan,nan,NaN
nan,nan,nan,NaN
nan,nan,nan,NaN
nan,nan,nan,NaN
nan,nan,nan,NaN
nan,nan,nan,NaN
nan,nan,nan,NaN
nan,nan,nan,NaN
nan,nan,nan,NaN
-1.14702,-0.300622,2.329,2.61348
-1.13946,-0.300622,2.329,2.61017
-1.1319,-0.300622,2.329,2.60688
-1.12435,-0.300622,2.329,2.60361
-1.11679,-0.300622,2.329,2.60035
-1.10923,-0.300622,2.329,2.59711
-1.10167,-0.300622,2.329,2.59389
-1.09411,-0.300622,2.329,2.59069
-1.08655,-0.300622,2.329,2.58751
-1.07899,-0.300622,2.329,2.58434
-1.07879,-0.302687,2.345,2.59893
-1.07118,-0.302687,2.345,2.59578
-1.06357,-0.302687,2.345,2.59265
-1.06316,-0.304752,2.361,2.6072
-1.0555,-0.304752,2.361,2.60409
-1.04784,-0.304752,2.361,2.60099
-1.04017,-0.304752,2.361,2.59791
-1.03251,-0.304752,2.361,2.59485
-1.02485,-0.304752,2.361,2.59181
-1.01718,-0.304752,2.361,2.58879
-1.00952,-0.304752,2.361,2.58579
-1.00186,-0.304752,2.361,2.58281
-0.994193,-0.304752,2.361,2.57985
-0.986529,-0.304752,2.361,2.5769
-0.978866,-0.304752,2.361,2.57398
-0.971203,-0.304752,2.361,2.57108
-0.96354,-0.304752,2.361,2.56819
-0.955876,-0.304752,2.361,2.56533
-0.948213,-0.304752,2.361,2.56248
-0.94055,-0.304752,2.361,2.55965
-0.926565,-0.302687,2.345,2.53952
-0.918953,-0.302687,2.345,2.53675
-0.911342,-0.302687,2.345,2.53401
-0.903731,-0.302687,2.345,2.53128
-0.89612,-0.302687,2.345,2.52857
-0.888508,-0.302687,2.345,2.52588
-0.880897,-0.302687,2.345,2.52322
-0.873286,-0.302687,2.345,2.52057
-0.865674,-0.302687,2.345,2.51794
-0.858063,-0.302687,2.345,2.51534
-0.856255,-0.304752,2.361,2.52989
-0.848591,-0.304752,2.361,2.52731
-0.840928,-0.304752,2.361,2.52475
-0.833265,-0.304752,2.361,2.52221
-0.831197,-0.306818,2.377,2.53676
-0.823481,-0.306818,2.377,2.53424
-0.815766,-0.306818,2.377,2.53175
-0.81383,-0.309012,2.394,2.54736
-0.80606,-0.309012,2.394,2.54489
-0.803958,-0.311206,2.411,2.56049
-0.796133,-0.311206,2.411,2.55805
-0.788307,-0.311206,2.411,2.55562
-0.780482,-0.311206,2.411,2.55322
-0.778104,-0.3134,2.428,2.56882
-0.770224,-0.3134,2.428,2.56645
-0.762343,-0.3134,2.428,2.56409
-0.759745,-0.315595,2.445,2.5797
-0.751809,-0.315595,2.445,2.57737
-0.743873,-0.315595,2.445,2.57507
-0.735937,-0.315595,2.445,2.57279
-0.728001,-0.315595,2.445,2.57053
-0.725366,-0.317918,2.463,2.5872
-0.717372,-0.317918,2.463,2.58497
-0.709378,-0.317918,2.463,2.58276
-0.701384,-0.317918,2.463,2.58058
-0.688322,-0.315595,2.445,2.55957
-0.680386,-0.315595,2.445,2.55745
-0.677401,-0.317918,2.463,2.57416
-0.669406,-0.317918,2.463,2.57207
-0.661412,-0.317918,2.463,2.57
-0.648643,-0.315595,2.445,2.54919
-0.640707,-0.315595,2.445,2.54718
-0.632771,-0.315595,2.445,2.5452
-0.629435,-0.317918,2.463,2.56196
-0.621441,-0.317918,2.463,2.56001
-0.613446,-0.317918,2.463,2.55808
-0.605452,-0.317918,2.463,2.55617
-0.601824,-0.320242,2.481,2.57296
-0.593771,-0.320242,2.481,2.57109
-0.585719,-0.320242,2.481,2.56924
-0.577666,-0.320242,2.481,2.56741
-0.573746,-0.322565,2.499,2.58423
-0.565635,-0.322565,2.499,2.58244
-0.557524,-0.322565,2.499,2.58067
-0.549413,-0.322565,2.499,2.57893
-0.541301,-0.322565,2.499,2.57722
-0.537031,-0.324888,2.517,2.59408
-0.528861,-0.324888,2.517,2.5924
-0.520692,-0.324888,2.517,2.59075
-0.516391,-0.327341,2.536,2.60866
-0.50816,-0.327341,2.536,2.60704
-0.499929,-0.327341,2.536,2.60545
-0.491697,-0.327341,2.536,2.60388
-0.483466,-0.327341,2.536,2.60234
-0.478795,-0.329793,2.555,2.62031
-0.470502,-0.329793,2.555,2.61881
-0.46221,-0.329793,2.555,2.61733
-0.453917,-0.329793,2.555,2.61588
-0.445624,-0.329793,2.555,2.61445
-0.437331,-0.329793,2.555,2.61305
-0.432229,-0.332246,2.574,2.6311
-0.423874,-0.332246,2.574,2.62974
-0.415519,-0.332246,2.574,2.62841
-0.407165,-0.332246,2.574,2.6271
-0.39881,-0.332246,2.574,2.62582
-0.390456,-0.332246,2.574,2.62456
-0.382101,-0.332246,2.574,2.62333
-0.373747,-0.332246,2.574,2.62213
-0.365392,-0.332246,2.574,2.62095
-0.357037,-0.332246,2.574,2.6198
-0.348683,-0.332246,2.574,2.61867
-0.340328,-0.332246,2.574,2.61757
-0.331974,-0.332246,2.574,2.6165
-0.323619,-0.332246,2.574,2.61545
-0.315265,-0.332246,2.574,2.61443
-0.30691,-0.332246,2.574,2.61344
-0.298555,-0.332246,2.574,2.61247
-0.290201,-0.332246,2.574,2.61153
-0.281846,-0.332246,2.574,2.61061
-0.273492,-0.332246,2.574,2.60972
-0.265137,-0.332246,2.574,2.60886
-0.256783,-0.332246,2.574,2.60803
-0.246594,-0.329793,2.555,2.58797
-0.238301,-0.329793,2.555,2.58719
-0.230009,-0.329793,2.555,2.58644
-0.221716,-0.329793,2.555,2.58572
-0.213423,-0.329793,2.555,2.58502
-0.20513,-0.329793,2.555,2.58435
-0.195373,-0.327341,2.536,2.56449
-0.187142,-0.327341,2.536,2.56388
-0.178911,-0.327341,2.536,2.56329
-0.170679,-0.327341,2.536,2.56273
-0.162448,-0.327341,2.536,2.56219
-0.154217,-0.327341,2.536,2.56169
-0.145986,-0.327341,2.536,2.5612
-0.137755,-0.327341,2.536,2.56075
-0.129523,-0.327341,2.536,2.56032
-0.122201,-0.329793,2.555,2.57909
-0.113908,-0.329793,2.555,2.57871
-0.105615,-0.329793,2.555,2.57836
-0.0973222,-0.329793,2.555,2.57803
-0.0890293,-0.329793,2.555,2.57773
-0.0807364,-0.329793,2.555,2.57746
-0.0729822,-0.332246,2.574,2.59638
-0.0646277,-0.332246,2.574,2.59616
-0.0562731,-0.332246,2.574,2.59596
-0.0479185,-0.332246,2.574,2.5958
-0.039564,-0.332246,2.574,2.59566
-0.0314398,-0.334698,2.593,2.6147
-0.0230235,-0.334698,2.593,2.61461
-0.0146073,-0.334698,2.593,2.61455
-0.00619107,-0.334698,2.593,2.61452
0.00222516,-0.334698,2.593,2.61451
0.0107235,-0.33728,2.613,2.6347
0.0192046,-0.33728,2.613,2.63475
0.0276858,-0.33728,2.613,2.63482
0.0361669,-0.33728,2.613,2.63493
0.0446481,-0.33728,2.613,2.63506
0.0531292,-0.33728,2.613,2.63521
0.0616104,-0.33728,2.613,2.6354
0.0700915,-0.33728,2.613,2.63561
0.0785727,-0.33728,2.613,2.63585
0.0870538,-0.33728,2.613,2.63612
0.095535,-0.33728,2.613,2.63641
0.104016,-0.33728,2.613,2.63673
0.112497,-0.33728,2.613,2.63708
0.120978,-0.33728,2.613,2.63745
0.12946,-0.33728,2.613,2.63786
0.137941,-0.33728,2.613,2.63829
0.147543,-0.339861,2.633,2.65894
0.156089,-0.339861,2.633,2.65943
0.163384,-0.33728,2.613,2.63974
0.171865,-0.33728,2.613,2.64028
0.180346,-0.33728,2.613,2.64084
0.188828,-0.33728,2.613,2.64144
0.195799,-0.334698,2.593,2.62183
0.204215,-0.334698,2.593,2.62248
0.212631,-0.334698,2.593,2.62314
0.222752,-0.33728,2.613,2.64408
0.231233,-0.33728,2.613,2.64481
0.239715,-0.33728,2.613,2.64556
0.248196,-0.33728,2.613,2.64634
0.254712,-0.334698,2.593,2.62689
0.263128,-0.334698,2.593,2.62772
0.271545,-0.334698,2.593,2.62858
0.279961,-0.334698,2.593,2.62946
0.288377,-0.334698,2.593,2.63037
0.296793,-0.334698,2.593,2.6313
0.30521,-0.334698,2.593,2.63227
0.313626,-0.334698,2.593,2.63326
0.322042,-0.334698,2.593,2.63427
0.328037,-0.332246,2.574,2.616
0.336391,-0.332246,2.574,2.61706
0.344746,-0.332246,2.574,2.61815
0.350494,-0.329793,2.555,2.59993
0.358787,-0.329793,2.555,2.60106
0.36708,-0.329793,2.555,2.60222
0.375373,-0.329793,2.555,2.6034
0.383666,-0.329793,2.555,2.60461
0.391959,-0.329793,2.555,2.60584
0.400252,-0.329793,2.555,2.6071
0.408544,-0.329793,2.555,2.60839
0.416837,-0.329793,2.555,2.6097
0.421969,-0.327341,2.536,2.59162
0.4302,-0.327341,2.536,2.59298
0.438431,-0.327341,2.536,2.59435
0.446662,-0.327341,2.536,2.59576
0.454894,-0.327341,2.536,2.59719
0.463125,-0.327341,2.536,2.59864
0.471356,-0.327341,2.536,2.60012
0.479587,-0.327341,2.536,2.60162
0.491473,-0.329793,2.555,2.62266
0.499766,-0.329793,2.555,2.62422
0.508059,-0.329793,2.555,2.62582
0.516352,-0.329793,2.555,2.62743
0.524645,-0.329793,2.555,2.62908
0.532938,-0.329793,2.555,2.63074
0.541231,-0.329793,2.555,2.63244
0.549524,-0.329793,2.555,2.63415
0.557817,-0.329793,2.555,2.6359
0.566109,-0.329793,2.555,2.63766
0.574402,-0.329793,2.555,2.63946
0.582695,-0.329793,2.555,2.64127
0.590988,-0.329793,2.555,2.64311
0.603738,-0.332246,2.574,2.66465
0.612092,-0.332246,2.574,2.66656
0.620447,-0.332246,2.574,2.66849
0.628801,-0.332246,2.574,2.67044
0.637156,-0.332246,2.574,2.67242
0.64551,-0.332246,2.574,2.67442
0.653865,-0.332246,2.574,2.67645
0.662219,-0.332246,2.574,2.67851
0.670574,-0.332246,2.574,2.68058
0.678929,-0.332246,2.574,2.68269
0.687283,-0.332246,2.574,2.68481
0.695638,-0.332246,2.574,2.68696
0.703992,-0.332246,2.574,2.68914
0.712347,-0.332246,2.574,2.69134
0.720701,-0.332246,2.574,2.69356
0.729056,-0.332246,2.574,2.69581
0.731967,-0.329793,2.555,2.67816
0.74026,-0.329793,2.555,2.68044
0.748553,-0.329793,2.555,2.68274
0.756846,-0.329793,2.555,2.68507
0.765139,-0.329793,2.555,2.68742
0.773432,-0.329793,2.555,2.68979
0.781725,-0.329793,2.555,2.69219
0.784143,-0.327341,2.536,2.67457
0.792374,-0.327341,2.536,2.677
0.800605,-0.327341,2.536,2.67944
0.808836,-0.327341,2.536,2.68191
0.817068,-0.327341,2.536,2.68441
0.825299,-0.327341,2.536,2.68693
0.827285,-0.324888,2.517,2.66932
0.835455,-0.324888,2.517,2.67186
0.843624,-0.324888,2.517,2.67442
0.845702,-0.322565,2.499,2.65787
0.847664,-0.320242,2.481,2.6413
0.855716,-0.320242,2.481,2.64389
0.857502,-0.317918,2.463,2.62731
0.865497,-0.317918,2.463,2.62993
0.873491,-0.317918,2.463,2.63257
0.881485,-0.317918,2.463,2.63523
0.882979,-0.315595,2.445,2.61864
0.890915,-0.315595,2.445,2.62133
0.898851,-0.315595,2.445,2.62403
0.900482,-0.3134,2.428,2.6085
0.908362,-0.3134,2.428,2.61123
0.916243,-0.3134,2.428,2.61398
0.924124,-0.3134,2.428,2.61676
0.932004,-0.3134,2.428,2.61955
0.939885,-0.3134,2.428,2.62236
0.947766,-0.3134,2.428,2.6252
0.955646,-0.3134,2.428,2.62805
0.963527,-0.3134,2.428,2.63093
0.971408,-0.3134,2.428,2.63383
nan,nan,nan,NaN
nan,nan,nan,NaN
0.988083,-0.311206,2.411,2.62413
0.995908,-0.311206,2.411,2.62709
nan,nan,nan,NaN
nan,nan,nan,NaN
nan,nan,nan,NaN
nan,nan,nan,NaN
nan,nan,nan,NaN
nan,nan,nan,NaN
1.24331,-0.368258,2.853,3.13385
1.25257,-0.368258,2.853,3.13754
1.26183,-0.368258,2.853,3.14125
1.34994,-0.391105,3.03,3.34009
1.35978,-0.391105,3.03,3.34408
1.39402,-0.398075,3.084,3.40776
1.40403,-0.398075,3.084,3.41187
1.45347,-0.409176,3.17,3.51126
1.50532,-0.420793,3.26,3.61534
1.5159,-0.420793,3.26,3.61976
1.55645,-0.429054,3.324,3.69535
1.58233,-0.433184,3.356,3.73552
1.60889,-0.437444,3.389,3.77693
1.61989,-0.437444,3.389,3.78163
1.63089,-0.437444,3.389,3.78635
1.65836,-0.441833,3.423,3.82914
1.66947,-0.441833,3.423,3.83396
1.66389,-0.437444,3.389,3.80068
1.67489,-0.437444,3.389,3.80551
1.68589,-0.437444,3.389,3.81037
1.66434,-0.429054,3.324,3.74207
1.67513,-0.429054,3.324,3.74688
1.68592,-0.429054,3.324,3.75172
1.69671,-0.429054,3.324,3.75658
1.7075,-0.429054,3.324,3.76146
1.73483,-0.433184,3.356,3.80263
1.74572,-0.433184,3.356,3.80761
1.75661,-0.433184,3.356,3.81262
1.78488,-0.437444,3.389,3.85519
1.79588,-0.437444,3.389,3.8603
1.82501,-0.441833,3.423,3.9042
1.87367,-0.450868,3.493,3.98936
1.88501,-0.450868,3.493,3.99469
1.91589,-0.455515,3.529,4.04128
1.94755,-0.460291,3.566,4.08915
1.95913,-0.460291,3.566,4.09468
1.9707,-0.460291,3.566,4.10023
1.98227,-0.460291,3.566,4.1058
2.0151,-0.465196,3.604,4.15522
2.02679,-0.465196,3.604,4.1609
2.03849,-0.465196,3.604,4.16661
2.05019,-0.465196,3.604,4.17235
2.06189,-0.465196,3.604,4.17811
2.05172,-0.460291,3.566,4.13978
2.06329,-0.460291,3.566,4.14553
2.07487,-0.460291,3.566,4.1513
2.08644,-0.460291,3.566,4.1571
2.07625,-0.455515,3.529,4.11973
2.0877,-0.455515,3.529,4.12551
2.07774,-0.450868,3.493,4.08917
2.06815,-0.44635,3.458,4.05392
2.07937,-0.44635,3.458,4.05965
2.04888,-0.437444,3.389,3.98429
2.03982,-0.433184,3.356,3.95111
2.05072,-0.433184,3.356,3.95674
2.02229,-0.424924,3.292,3.88684
2.01322,-0.420793,3.26,3.85457
2.0238,-0.420793,3.26,3.86011
1.99631,-0.412919,3.199,3.79333
1.95212,-0.40169,3.112,3.69549
1.96222,-0.40169,3.112,3.70084
1.93746,-0.39459,3.057,3.6407
1.91299,-0.38762,3.003,3.58159
1.92273,-0.38762,3.003,3.5868
1.89902,-0.380908,2.951,3.52984
1.89243,-0.377681,2.926,3.50505
1.88567,-0.374454,2.901,3.4802
1.87941,-0.371356,2.877,3.45648
1.87299,-0.368258,2.853,3.43269
1.85125,-0.362192,2.806,3.38111
1.86035,-0.362192,2.806,3.38611
1.85414,-0.359223,2.783,3.36333
1.83371,-0.353544,2.739,3.31506
1.8426,-0.353544,2.739,3.31999
1.83662,-0.350704,2.717,3.29822
1.81691,-0.345283,2.675,3.25208
-2.37465,-0.430726,3.423,4.18825
-2.36354,-0.430726,3.423,4.18196
-2.37648,-0.43513,3.458,4.21838
-2.36526,-0.43513,3.458,4.21207
-2.33021,-0.430726,3.423,4.16321
-2.3191,-0.430726,3.423,4.157
-2.30799,-0.430726,3.423,4.15081
-2.27406,-0.426447,3.389,4.10348
-2.26306,-0.426447,3.389,4.09739
-2.23013,-0.422295,3.356,4.05149
-2.21924,-0.422295,3.356,4.0455
-2.20835,-0.422295,3.356,4.03954
-2.19745,-0.422295,3.356,4.03359
-2.18656,-0.422295,3.356,4.02767
-2.17567,-0.422295,3.356,4.02177
-2.16478,-0.422295,3.356,4.01588
-2.13335,-0.418268,3.324,3.97179
-2.10212,-0.414242,3.292,3.92782
-2.09144,-0.414242,3.292,3.92211
-2.08075,-0.414242,3.292,3.91643
-2.07007,-0.414242,3.292,3.91076
-2.05938,-0.414242,3.292,3.90511
-2.02878,-0.410215,3.26,3.86159
-2.0182,-0.410215,3.26,3.85604
-2.00762,-0.410215,3.26,3.85051
-1.99704,-0.410215,3.26,3.845
-1.96818,-0.40644,3.23,3.80418
-1.95769,-0.40644,3.23,3.79877
-1.94721,-0.40644,3.23,3.79338
-1.93673,-0.40644,3.23,3.78801
nan,nan,nan,NaN
nan,nan,nan,NaN
nan,nan,nan,NaN
nan,nan,nan,NaN
nan,nan,nan,NaN
nan,nan,nan,NaN
nan,nan,nan,NaN
nan,nan,nan,NaN
nan,nan,nan,NaN
nan,nan,nan,NaN
nan,nan,nan,NaN
nan,nan,nan,NaN
nan,nan,nan,NaN
nan,nan,nan,NaN
nan,nan,nan,NaN
nan,nan,nan,NaN
nan,nan,nan,NaN
nan,nan,nan,NaN
nan,nan,nan,NaN
nan,nan,nan,NaN
nan,nan,nan,NaN
nan,nan,nan,NaN
nan,nan,nan,NaN
nan,nan,nan,NaN
nan,nan,nan,NaN
nan,nan,nan,NaN
nan,nan,nan,NaN
nan,nan,nan,NaN
nan,nan,nan,NaN
nan,nan,nan,NaN
nan,nan,nan,NaN
nan,nan,nan,NaN
-1.14702,-0.293065,2.329,2.61262
-1.13946,-0.293065,2.329,2.60931
-1.1319,-0.293065,2.329,2.60602
-1.12435,-0.293065,2.329,2.60274
-1.11679,-0.293065,2.329,2.59949
-1.10923,-0.293065,2.329,2.59625
-1.10167,-0.293065,2.329,2.59303
-1.09411,-0.293065,2.329,2.58983
-1.08655,-0.293065,2.329,2.58664
-1.07899,-0.293065,2.329,2.58348
-1.07879,-0.295078,2.345,2.59805
-1.07118,-0.295078,2.345,2.5949
-1.06357,-0.295078,2.345,2.59177
-1.06316,-0.297091,2.361,2.60632
-1.0555,-0.297091,2.361,2.6032
-1.04784,-0.297091,2.361,2.6001
-1.04017,-0.297091,2.361,2.59703
-1.03251,-0.297091,2.361,2.59397
-1.02485,-0.297091,2.361,2.59092
-1.01718,-0.297091,2.361,2.5879
-1.00952,-0.297091,2.361,2.5849
-1.00186,-0.297091,2.361,2.58192
-0.994193,-0.297091,2.361,2.57895
-0.986529,-0.297091,2.361,2.57601
-0.978866,-0.297091,2.361,2.57308
-0.971203,-0.297091,2.361,2.57018
-0.96354,-0.297091,2.361,2.56729
-0.955876,-0.297091,2.361,2.56443
-0.948213,-0.297091,2.361,2.56158
-0.934176,-0.295078,2.345,2.54141
-0.926565,-0.295078,2.345,2.53863
-0.918953,-0.295078,2.345,2.53586
-0.911342,-0.295078,2.345,2.53311
-0.903731,-0.295078,2.345,2.53038
-0.89612,-0.295078,2.345,2.52767
-0.888508,-0.295078,2.345,2.52498
-0.880897,-0.295078,2.345,2.52232
-0.873286,-0.295078,2.345,2.51967
-0.865674,-0.295078,2.345,2.51704
-0.858063,-0.295078,2.345,2.51443
-0.850452,-0.295078,2.345,2.51184
-0.842841,-0.295078,2.345,2.50928
-0.835229,-0.295078,2.345,2.50673
-0.833265,-0.297091,2.361,2.52129
-0.825602,-0.297091,2.361,2.51877
-0.817938,-0.297091,2.361,2.51627
-0.815766,-0.299105,2.377,2.53082
-0.808051,-0.299105,2.377,2.52835
-0.800336,-0.299105,2.377,2.52589
-0.79829,-0.301244,2.394,2.54151
-0.790519,-0.301244,2.394,2.53908
-0.788307,-0.303383,2.411,2.55468
-0.780482,-0.303383,2.411,2.55228
-0.772656,-0.303383,2.411,2.54989
-0.770224,-0.305522,2.428,2.5655
-0.762343,-0.305522,2.428,2.56314
-0.754462,-0.305522,2.428,2.56081
-0.751809,-0.307661,2.445,2.57641
-0.743873,-0.307661,2.445,2.57411
-0.735937,-0.307661,2.445,2.57183
-0.728001,-0.307661,2.445,2.56957
-0.725366,-0.309926,2.463,2.58623
-0.717372,-0.309926,2.463,2.584
-0.704194,-0.307661,2.445,2.56292
-0.696258,-0.307661,2.445,2.56075
-0.688322,-0.307661,2.445,2.55861
-0.680386,-0.307661,2.445,2.55648
-0.677401,-0.309926,2.463,2.57319
-0.664514,-0.307661,2.445,2.5523
-0.656578,-0.307661,2.445,2.55025
-0.648643,-0.307661,2.445,2.54822
-0.640707,-0.307661,2.445,2.54621
-0.632771,-0.307661,2.445,2.54422
-0.624835,-0.307661,2.445,2.54226
-0.616899,-0.307661,2.445,2.54032
-0.608963,-0.307661,2.445,2.53841
-0.601027,-0.307661,2.445,2.53652
-0.597458,-0.309926,2.463,2.55331
-0.589464,-0.309926,2.463,2.55145
-0.581469,-0.309926,2.463,2.54961
-0.577666,-0.312191,2.481,2.56642
-0.569613,-0.312191,2.481,2.56462
-0.561561,-0.312191,2.481,2.56285
-0.553508,-0.312191,2.481,2.56109
-0.549413,-0.314456,2.499,2.57793
-0.541301,-0.314456,2.499,2.57622
-0.537031,-0.316721,2.517,2.59307
-0.528861,-0.316721,2.517,2.59139
-0.520692,-0.316721,2.517,2.58973
-0.512522,-0.316721,2.517,2.5881
-0.50816,-0.319112,2.536,2.60602
-0.499929,-0.319112,2.536,2.60443
-0.491697,-0.319112,2.536,2.60286
-0.483466,-0.319112,2.536,2.60132
-0.478795,-0.321503,2.555,2.61928
-0.470502,-0.321503,2.555,2.61778
-0.46221,-0.321503,2.555,2.6163
-0.453917,-0.321503,2.555,2.61485
-0.445624,-0.321503,2.555,2.61342
-0.437331,-0.321503,2.555,2.61202
-0.432229,-0.323894,2.574,2.63006
-0.423874,-0.323894,2.574,2.6287
-0.415519,-0.323894,2.574,2.62736
-0.407165,-0.323894,2.574,2.62606
-0.39881,-0.323894,2.574,2.62477
-0.390456,-0.323894,2.574,2.62352
-0.382101,-0.323894,2.574,2.62229
-0.373747,-0.323894,2.574,2.62108
-0.365392,-0.323894,2.574,2.6199
-0.357037,-0.323894,2.574,2.61875
-0.348683,-0.323894,2.574,2.61763
-0.340328,-0.323894,2.574,2.61653
-0.331974,-0.323894,2.574,2.61545
-0.323619,-0.323894,2.574,2.6144
-0.315265,-0.323894,2.574,2.61338
-0.30691,-0.323894,2.574,2.61239
-0.298555,-0.323894,2.574,2.61142
-0.290201,-0.323894,2.574,2.61048
-0.281846,-0.323894,2.574,2.60956
-0.273492,-0.323894,2.574,2.60867
-0.265137,-0.323894,2.574,2.60781
-0.254887,-0.321503,2.555,2.58773
-0.246594,-0.321503,2.555,2.58693
-0.238301,-0.321503,2.555,2.58615
-0.230009,-0.321503,2.555,2.5854
-0.221716,-0.321503,2.555,2.58468
-0.213423,-0.321503,2.555,2.58398
-0.20513,-0.321503,2.555,2.58331
-0.196837,-0.321503,2.555,2.58266
-0.187142,-0.319112,2.536,2.56284
-0.178911,-0.319112,2.536,2.56225
-0.170679,-0.319112,2.536,2.56169
-0.162448,-0.319112,2.536,2.56116
-0.155372,-0.321503,2.555,2.57983
-0.14708,-0.321503,2.555,2.57935
-0.138787,-0.321503,2.555,2.57889
-0.130494,-0.321503,2.555,2.57845
-0.122201,-0.321503,2.555,2.57805
-0.113908,-0.321503,2.555,2.57767
-0.1064,-0.323894,2.574,2.59648
-0.0980459,-0.323894,2.574,2.59615
-0.0896914,-0.323894,2.574,2.59585
-0.0813368,-0.323894,2.574,2.59557
-0.0729822,-0.323894,2.574,2.59532
-0.0646277,-0.323894,2.574,2.5951
-0.0566885,-0.326284,2.593,2.61406
-0.0482722,-0.326284,2.593,2.61389
-0.0401634,-0.328801,2.613,2.63391
-0.0316823,-0.328801,2.613,2.6338
-0.0232011,-0.328801,2.613,2.63371
-0.01472,-0.328801,2.613,2.63365
-0.00623883,-0.328801,2.613,2.63361
0.00224232,-0.328801,2.613,2.63361
0.0107235,-0.328801,2.613,2.63363
0.0192046,-0.328801,2.613,2.63368
0.0276858,-0.328801,2.613,2.63375
0.0361669,-0.328801,2.613,2.63385
0.0446481,-0.328801,2.613,2.63398
0.0531292,-0.328801,2.613,2.63414
0.0616104,-0.328801,2.613,2.63433
0.0700915,-0.328801,2.613,2.63454
0.0785727,-0.328801,2.613,2.63478
0.0870538,-0.328801,2.613,2.63504
0.095535,-0.328801,2.613,2.63534
0.104016,-0.328801,2.613,2.63566
0.112497,-0.328801,2.613,2.63601
0.120978,-0.328801,2.613,2.63638
0.12946,-0.328801,2.613,2.63679
0.137941,-0.328801,2.613,2.63722
0.147543,-0.331318,2.633,2.65786
0.156089,-0.331318,2.633,2.65835
0.163384,-0.328801,2.613,2.63867
0.171865,-0.328801,2.613,2.63921
0.180346,-0.328801,2.613,2.63977
0.188828,-0.328801,2.613,2.64037
0.197309,-0.328801,2.613,2.64099
0.20579,-0.328801,2.613,2.64163
0.214271,-0.328801,2.613,2.64231
0.222752,-0.328801,2.613,2.64301
0.231233,-0.328801,2.613,2.64374
0.239715,-0.328801,2.613,2.64449
0.248196,-0.328801,2.613,2.64528
0.254712,-0.326284,2.593,2.62583
0.263128,-0.326284,2.593,2.62666
0.271545,-0.326284,2.593,2.62752
0.279961,-0.326284,2.593,2.6284
0.288377,-0.326284,2.593,2.62931
0.296793,-0.326284,2.593,2.63025
0.30521,-0.326284,2.593,2.63121
0.313626,-0.326284,2.593,2.6322
0.319682,-0.323894,2.574,2.61392
0.328037,-0.323894,2.574,2.61496
0.336391,-0.323894,2.574,2.61602
0.344746,-0.323894,2.574,2.6171
0.350494,-0.321503,2.555,2.59889
0.358787,-0.321503,2.555,2.60002
0.36708,-0.321503,2.555,2.60118
0.375373,-0.321503,2.555,2.60236
0.383666,-0.321503,2.555,2.60357
0.391959,-0.321503,2.555,2.60481
0.400252,-0.321503,2.555,2.60607
0.405506,-0.319112,2.536,2.58797
0.413738,-0.319112,2.536,2.58927
0.421969,-0.319112,2.536,2.5906
0.4302,-0.319112,2.536,2.59195
0.438431,-0.319112,2.536,2.59333
0.446662,-0.319112,2.536,2.59473
0.454894,-0.319112,2.536,2.59616
0.463125,-0.319112,2.536,2.59762
0.471356,-0.319112,2.536,2.5991
0.479587,-0.319112,2.536,2.6006
0.491473,-0.321503,2.555,2.62163
0.499766,-0.321503,2.555,2.6232
0.508059,-0.321503,2.555,2.62479
0.516352,-0.321503,2.555,2.62641
0.524645,-0.321503,2.555,2.62805
0.532938,-0.321503,2.555,2.62972
0.541231,-0.321503,2.555,2.63141
0.549524,-0.321503,2.555,2.63313
0.557817,-0.321503,2.555,2.63487
0.566109,-0.321503,2.555,2.63664
0.574402,-0.321503,2.555,2.63843
0.582695,-0.321503,2.555,2.64025
0.590988,-0.321503,2.555,2.64209
0.603738,-0.323894,2.574,2.66362
0.612092,-0.323894,2.574,2.66553
0.615867,-0.321503,2.555,2.64777
0.62416,-0.321503,2.555,2.64971
0.637156,-0.323894,2.574,2.6714
0.64551,-0.323894,2.574,2.6734
0.653865,-0.323894,2.574,2.67543
0.662219,-0.323894,2.574,2.67748
0.670574,-0.323894,2.574,2.67956
0.678929,-0.323894,2.574,2.68167
0.687283,-0.323894,2.574,2.68379
0.695638,-0.323894,2.574,2.68594
0.703992,-0.323894,2.574,2.68812
0.712347,-0.323894,2.574,2.69032
0.720701,-0.323894,2.574,2.69254
0.723674,-0.321503,2.555,2.6749
0.731967,-0.321503,2.555,2.67716
0.74026,-0.321503,2.555,2.67944
0.748553,-0.321503,2.555,2.68174
0.756846,-0.321503,2.555,2.68407
0.765139,-0.321503,2.555,2.68642
0.773432,-0.321503,2.555,2.68879
0.781725,-0.321503,2.555,2.69119
0.784143,-0.319112,2.536,2.67358
0.792374,-0.319112,2.536,2.676
0.800605,-0.319112,2.536,2.67845
0.802777,-0.316721,2.517,2.66084
0.810946,-0.316721,2.517,2.66331
0.819116,-0.316721,2.517,2.66581
0.827285,-0.316721,2.517,2.66833
0.835455,-0.316721,2.517,2.67088
0.837591,-0.314456,2.499,2.65433
0.839611,-0.312191,2.481,2.63776
0.847664,-0.312191,2.481,2.64033
0.855716,-0.312191,2.481,2.64293
0.857502,-0.309926,2.463,2.62635
0.865497,-0.309926,2.463,2.62897
0.873491,-0.309926,2.463,2.63162
0.875043,-0.307661,2.445,2.61503
0.882979,-0.307661,2.445,2.6177
0.890915,-0.307661,2.445,2.62038
0.892601,-0.305522,2.428,2.60485
0.900482,-0.305522,2.428,2.60757
0.908362,-0.305522,2.428,2.6103
0.916243,-0.305522,2.428,2.61305
0.924124,-0.305522,2.428,2.61582
0.932004,-0.305522,2.428,2.61862
0.939885,-0.305522,2.428,2.62143
0.947766,-0.305522,2.428,2.62427
0.955646,-0.305522,2.428,2.62713
nan,nan,nan,NaN
nan,nan,nan,NaN
nan,nan,nan,NaN
nan,nan,nan,NaN
nan,nan,nan,NaN
nan,nan,nan,NaN
nan,nan,nan,NaN
nan,nan,nan,NaN
nan,nan,nan,NaN
nan,nan,nan,NaN
nan,nan,nan,NaN
nan,nan,nan,NaN
nan,nan,nan,NaN
nan,nan,nan,NaN
nan,nan,nan,NaN
nan,nan,nan,NaN
nan,nan,nan,NaN
nan,nan,nan,NaN
1.52786,-0.422295,3.356,3.71153
1.53876,-0.422295,3.356,3.71602
1.58059,-0.430726,3.423,3.79483
1.62425,-0.439534,3.493,3.87717
1.63558,-0.439534,3.493,3.88193
1.64692,-0.439534,3.493,3.88672
1.69292,-0.44872,3.566,3.97287
1.70449,-0.44872,3.566,3.97781
1.71606,-0.44872,3.566,3.98279
1.72764,-0.44872,3.566,3.98779
1.72117,-0.444064,3.529,3.95139
1.71495,-0.439534,3.493,3.91603
1.72628,-0.439534,3.493,3.92101
1.72021,-0.43513,3.458,3.88667
1.69689,-0.426447,3.389,3.814
1.70789,-0.426447,3.389,3.81891
1.71889,-0.426447,3.389,3.82384
1.72989,-0.426447,3.389,3.8288
1.74088,-0.426447,3.389,3.83378
1.75188,-0.426447,3.389,3.83879
1.76288,-0.426447,3.389,3.84382
1.77388,-0.426447,3.389,3.84888
1.80279,-0.430726,3.423,3.89262
1.8139,-0.430726,3.423,3.89778
1.82501,-0.430726,3.423,3.90296
1.87367,-0.439534,3.493,3.98809
1.88501,-0.439534,3.493,3.99343
1.91589,-0.444064,3.529,4.04001
1.94755,-0.44872,3.566,4.08787
1.95913,-0.44872,3.566,4.09339
1.9707,-0.44872,3.566,4.09895
1.98227,-0.44872,3.566,4.10452
2.0151,-0.453501,3.604,4.15392
2.02679,-0.453501,3.604,4.15961
2.03849,-0.453501,3.604,4.16532
2.05019,-0.453501,3.604,4.17106
2.06189,-0.453501,3.604,4.17682
2.05172,-0.44872,3.566,4.13851
2.06329,-0.44872,3.566,4.14426
2.07487,-0.44872,3.566,4.15003
2.08644,-0.44872,3.566,4.15583
2.07625,-0.444064,3.529,4.11848
2.0877,-0.444064,3.529,4.12426
2.07774,-0.439534,3.493,4.08794
2.06815,-0.43513,3.458,4.0527
2.07937,-0.43513,3.458,4.05843
2.04888,-0.426447,3.389,3.9831
2.03982,-0.422295,3.356,3.94993
2.05072,-0.422295,3.356,3.95557
2.02229,-0.414242,3.292,3.88568
2.01322,-0.410215,3.26,3.85343
2.0238,-0.410215,3.26,3.85897
1.99631,-0.402539,3.199,3.79222
1.95212,-0.391592,3.112,3.69441
1.96222,-0.391592,3.112,3.69976
1.95458,-0.388068,3.084,3.67179
1.93019,-0.381273,3.03,3.61274
1.94002,-0.381273,3.03,3.618
1.91575,-0.374604,2.977,3.55991
1.89243,-0.368187,2.926,3.50404
1.88567,-0.365041,2.901,3.4792
1.89509,-0.365041,2.901,3.48431
1.88875,-0.362021,2.877,3.46057
1.86642,-0.355981,2.829,3.40786
1.8756,-0.355981,2.829,3.41289
1.85414,-0.350193,2.783,3.36237
1.83371,-0.344656,2.739,3.31412
1.8426,-0.344656,2.739,3.31905
1.83662,-0.341888,2.717,3.2973
1.81691,-0.336603,2.675,3.25117
-2.37465,-0.419619,3.423,4.18712
-2.34006,-0.415451,3.389,4.1393
-2.32906,-0.415451,3.389,4.13309
-2.31806,-0.415451,3.389,4.1269
-2.30706,-0.415451,3.389,4.12073
-2.29606,-0.415451,3.389,4.11459
-2.26281,-0.411405,3.356,4.06845
-2.23045,-0.407482,3.324,4.02367
-2.21966,-0.407482,3.324,4.0177
-2.20887,-0.407482,3.324,4.01175
-2.19808,-0.407482,3.324,4.00582
-2.18729,-0.407482,3.324,3.99991
-2.1765,-0.407482,3.324,3.99402
-2.16571,-0.407482,3.324,3.98815
-2.13418,-0.40356,3.292,3.94396
-2.12349,-0.40356,3.292,3.93819
-2.11281,-0.40356,3.292,3.93244
-2.08169,-0.399637,3.26,3.88854
-2.07111,-0.399637,3.26,3.88289
-2.06053,-0.399637,3.26,3.87725
-2.04995,-0.399637,3.26,3.87164
-2.03936,-0.399637,3.26,3.86605
-2.01011,-0.395959,3.23,3.82495
-1.99963,-0.395959,3.23,3.81945
-1.98915,-0.395959,3.23,3.81397
-1.97866,-0.395959,3.23,3.80852
-1.96818,-0.395959,3.23,3.80308
-1.93891,-0.392159,3.199,3.76122
-1.92852,-0.392159,3.199,3.75587
-1.91814,-0.392159,3.199,3.75055
nan,nan,nan,NaN
nan,nan,nan,NaN
nan,nan,nan,NaN
nan,nan,nan,NaN
nan,nan,nan,NaN
nan,nan,nan,NaN
nan,nan,nan,NaN
nan,nan,nan,NaN
nan,nan,nan,NaN
nan,nan,nan,NaN
nan,nan,nan,NaN
nan,nan,nan,NaN
nan,nan,nan,NaN
nan,nan,nan,NaN
nan,nan,nan,NaN
nan,nan,nan,NaN
nan,nan,nan,NaN
nan,nan,nan,NaN
nan,nan,nan,NaN
nan,nan,nan,NaN
nan,nan,nan,NaN
nan,nan,nan,NaN
nan,nan,nan,NaN
nan,nan,nan,NaN
nan,nan,nan,NaN
nan,nan,nan,NaN
nan,nan,nan,NaN
nan,nan,nan,NaN
nan,nan,nan,NaN
nan,nan,nan,NaN
nan,nan,nan,NaN
nan,nan,nan,NaN
-1.14702,-0.285507,2.329,2.61178
-1.13946,-0.285507,2.329,2.60847
-1.1319,-0.285507,2.329,2.60518
-1.13207,-0.287469,2.345,2.61978
-1.12446,-0.287469,2.345,2.6165
-1.11685,-0.287469,2.345,2.61324
-1.10924,-0.287469,2.345,2.60999
-1.10162,-0.287469,2.345,2.60677
-1.10148,-0.28943,2.361,2.62132
-1.09381,-0.28943,2.361,2.61811
-1.08615,-0.28943,2.361,2.61492
-1.07849,-0.28943,2.361,2.61175
-1.07082,-0.28943,2.361,2.60859
-1.06316,-0.28943,2.361,2.60546
-1.0555,-0.28943,2.361,2.60234
-1.04784,-0.28943,2.361,2.59924
-1.04017,-0.28943,2.361,2.59616
-1.03251,-0.28943,2.361,2.5931
-1.02485,-0.28943,2.361,2.59006
-1.01718,-0.28943,2.361,2.58704
-1.00952,-0.28943,2.361,2.58403
-1.00186,-0.28943,2.361,2.58105
-0.987455,-0.287469,2.345,2.56061
-0.979844,-0.287469,2.345,2.55769
-0.972232,-0.287469,2.345,2.55478
-0.964621,-0.287469,2.345,2.55189
-0.95701,-0.287469,2.345,2.54903
-0.949399,-0.287469,2.345,2.54618
-0.941787,-0.287469,2.345,2.54335
-0.934176,-0.287469,2.345,2.54054
-0.926565,-0.287469,2.345,2.53775
-0.918953,-0.287469,2.345,2.53498
-0.911342,-0.287469,2.345,2.53223
-0.897565,-0.285507,2.329,2.51225
-0.890005,-0.285507,2.329,2.50955
-0.882446,-0.285507,2.329,2.50688
-0.874887,-0.285507,2.329,2.50423
-0.867327,-0.285507,2.329,2.5016
-0.859768,-0.285507,2.329,2.49899
-0.852209,-0.285507,2.329,2.4964
-0.850452,-0.287469,2.345,2.51096
-0.842841,-0.287469,2.345,2.50839
-0.835229,-0.287469,2.345,2.50585
-0.827618,-0.287469,2.345,2.50332
-0.820007,-0.287469,2.345,2.50081
-0.812395,-0.287469,2.345,2.49833
-0.810275,-0.28943,2.361,2.51289
-0.808051,-0.291392,2.377,2.52745
-0.800336,-0.291392,2.377,2.52499
-0.792621,-0.291392,2.377,2.52256
-0.790519,-0.293476,2.394,2.53817
-0.788307,-0.29556,2.411,2.55376
-0.780482,-0.29556,2.411,2.55136
-0.772656,-0.29556,2.411,2.54898
-0.764831,-0.29556,2.411,2.54661
-0.757005,-0.29556,2.411,2.54427
-0.754462,-0.297644,2.428,2.55988
-0.746581,-0.297644,2.428,2.55757
-0.743873,-0.299727,2.445,2.57317
-0.735937,-0.299727,2.445,2.57089
-0.728001,-0.299727,2.445,2.56863
-0.720065,-0.299727,2.445,2.56639
-0.712129,-0.299727,2.445,2.56417
-0.704194,-0.299727,2.445,2.56198
-0.696258,-0.299727,2.445,2.55981
-0.688322,-0.299727,2.445,2.55766
-0.680386,-0.299727,2.445,2.55554
-0.677401,-0.301934,2.463,2.57224
-0.664514,-0.299727,2.445,2.55136
-0.656578,-0.299727,2.445,2.54931
-0.648643,-0.299727,2.445,2.54727
-0.640707,-0.299727,2.445,2.54526
-0.632771,-0.299727,2.445,2.54328
-0.624835,-0.299727,2.445,2.54131
-0.616899,-0.299727,2.445,2.53938
-0.608963,-0.299727,2.445,2.53746
-0.601027,-0.299727,2.445,2.53557
-0.597458,-0.301934,2.463,2.55235
-0.589464,-0.301934,2.463,2.55049
-0.581469,-0.301934,2.463,2.54865
-0.577666,-0.304141,2.481,2.56546
-0.569613,-0.304141,2.481,2.56365
-0.561561,-0.304141,2.481,2.56188
-0.553508,-0.304141,2.481,2.56012
-0.549413,-0.306347,2.499,2.57696
-0.541301,-0.306347,2.499,2.57524
-0.537031,-0.308554,2.517,2.59208
-0.528861,-0.308554,2.517,2.5904
-0.520692,-0.308554,2.517,2.58875
-0.512522,-0.308554,2.517,2.58712
-0.50816,-0.310883,2.536,2.60503
-0.499929,-0.310883,2.536,2.60343
-0.491697,-0.310883,2.536,2.60187
-0.487088,-0.313212,2.555,2.61981
-0.478795,-0.313212,2.555,2.61828
-0.470502,-0.313212,2.555,2.61677
-0.46221,-0.313212,2.555,2.61529
-0.453917,-0.313212,2.555,2.61384
-0.445624,-0.313212,2.555,2.61241
-0.437331,-0.313212,2.555,2.61101
-0.432229,-0.315541,2.574,2.62904
-0.423874,-0.315541,2.574,2.62768
-0.415519,-0.315541,2.574,2.62635
-0.407165,-0.315541,2.574,2.62504
-0.39881,-0.315541,2.574,2.62376
-0.390456,-0.315541,2.574,2.6225
-0.382101,-0.315541,2.574,2.62127
-0.373747,-0.315541,2.574,2.62006
-0.365392,-0.315541,2.574,2.61888
-0.357037,-0.315541,2.574,2.61773
-0.348683,-0.315541,2.574,2.61661
-0.340328,-0.315541,2.574,2.6155
-0.331974,-0.315541,2.574,2.61443
-0.323619,-0.315541,2.574,2.61338
-0.315265,-0.315541,2.574,2.61236
-0.30691,-0.315541,2.574,2.61137
-0.298555,-0.315541,2.574,2.6104
-0.290201,-0.315541,2.574,2.60946
-0.281846,-0.315541,2.574,2.60854
-0.273492,-0.315541,2.574,2.60765
-0.265137,-0.315541,2.574,2.60679
-0.254887,-0.313212,2.555,2.58671
-0.246594,-0.313212,2.555,2.58591
-0.238301,-0.313212,2.555,2.58513
-0.230009,-0.313212,2.555,2.58438
-0.221716,-0.313212,2.555,2.58366
-0.213423,-0.313212,2.555,2.58296
-0.20513,-0.313212,2.555,2.58229
-0.196837,-0.313212,2.555,2.58164
-0.187142,-0.310883,2.536,2.56183
-0.178911,-0.310883,2.536,2.56124
-0.170679,-0.310883,2.536,2.56068
-0.162448,-0.310883,2.536,2.56014
-0.155372,-0.313212,2.555,2.57881
-0.14708,-0.313212,2.555,2.57833
-0.138787,-0.313212,2.555,2.57787
-0.130494,-0.313212,2.555,2.57743
-0.122201,-0.313212,2.555,2.57703
-0.113908,-0.313212,2.555,2.57665
-0.1064,-0.315541,2.574,2.59545
-0.0980459,-0.315541,2.574,2.59512
-0.0896914,-0.315541,2.574,2.59482
-0.0813368,-0.315541,2.574,2.59454
-0.0729822,-0.315541,2.574,2.5943
-0.0646277,-0.315541,2.574,2.59407
-0.0566885,-0.317871,2.593,2.61303
-0.0482722,-0.317871,2.593,2.61286
-0.0401634,-0.320322,2.613,2.63287
-0.0316823,-0.320322,2.613,2.63275
-0.0232011,-0.320322,2.613,2.63266
-0.01472,-0.320322,2.613,2.6326
-0.00623883,-0.320322,2.613,2.63257
0.00224232,-0.320322,2.613,2.63256
0.0107235,-0.320322,2.613,2.63258
0.0192046,-0.320322,2.613,2.63263
0.0276858,-0.320322,2.613,2.63271
0.0361669,-0.320322,2.613,2.63281
0.0446481,-0.320322,2.613,2.63294
0.0531292,-0.320322,2.613,2.6331
0.0616104,-0.320322,2.613,2.63328
0.0700915,-0.320322,2.613,2.63349
0.0785727,-0.320322,2.613,2.63373
0.0870538,-0.320322,2.613,2.634
0.095535,-0.320322,2.613,2.63429
0.104016,-0.320322,2.613,2.63461
0.112497,-0.320322,2.613,2.63496
0.120978,-0.320322,2.613,2.63534
0.12946,-0.320322,2.613,2.63574
0.137941,-0.320322,2.613,2.63617
0.147543,-0.322774,2.633,2.65681
0.156089,-0.322774,2.633,2.6573
0.163384,-0.320322,2.613,2.63763
0.171865,-0.320322,2.613,2.63816
0.180346,-0.320322,2.613,2.63873
0.188828,-0.320322,2.613,2.63932
0.197309,-0.320322,2.613,2.63994
0.20579,-0.320322,2.613,2.64059
0.214271,-0.320322,2.613,2.64127
0.222752,-0.320322,2.613,2.64197
0.231233,-0.320322,2.613,2.6427
0.239715,-0.320322,2.613,2.64345
0.248196,-0.320322,2.613,2.64423
0.254712,-0.317871,2.593,2.6248
0.263128,-0.317871,2.593,2.62563
0.271545,-0.317871,2.593,2.62649
0.279961,-0.317871,2.593,2.62737
0.288377,-0.317871,2.593,2.62828
0.296793,-0.317871,2.593,2.62922
0.30521,-0.317871,2.593,2.63018
0.313626,-0.317871,2.593,2.63117
0.319682,-0.315541,2.574,2.6129
0.328037,-0.315541,2.574,2.61393
0.336391,-0.315541,2.574,2.615
0.342201,-0.313212,2.555,2.59677
0.350494,-0.313212,2.555,2.59788
0.358787,-0.313212,2.555,2.59901
0.36708,-0.313212,2.555,2.60017
0.375373,-0.313212,2.555,2.60135
0.383666,-0.313212,2.555,2.60256
0.391959,-0.313212,2.555,2.6038
0.400252,-0.313212,2.555,2.60506
0.405506,-0.310883,2.536,2.58696
0.413738,-0.310883,2.536,2.58827
0.421969,-0.310883,2.536,2.58959
0.4302,-0.310883,2.536,2.59095
0.438431,-0.310883,2.536,2.59233
0.446662,-0.310883,2.536,2.59373
0.454894,-0.310883,2.536,2.59516
0.463125,-0.310883,2.536,2.59662
0.471356,-0.310883,2.536,2.5981
0.479587,-0.310883,2.536,2.59961
0.491473,-0.313212,2.555,2.62062
0.499766,-0.313212,2.555,2.62219
0.508059,-0.313212,2.555,2.62379
0.516352,-0.313212,2.555,2.6254
0.524645,-0.313212,2.555,2.62705
0.532938,-0.313212,2.555,2.62872
0.541231,-0.313212,2.555,2.63041
0.55361,-0.315541,2.574,2.6517
0.561965,-0.315541,2.574,2.65346
0.566109,-0.313212,2.555,2.63564
0.574402,-0.313212,2.555,2.63744
0.587028,-0.315541,2.574,2.65888
0.595383,-0.315541,2.574,2.66074
0.603738,-0.315541,2.574,2.66262
0.612092,-0.315541,2.574,2.66453
0.615867,-0.313212,2.555,2.64678
0.62416,-0.313212,2.555,2.64872
0.637156,-0.315541,2.574,2.6704
0.64551,-0.315541,2.574,2.6724
0.653865,-0.315541,2.574,2.67443
0.662219,-0.315541,2.574,2.67649
0.670574,-0.315541,2.574,2.67857
0.678929,-0.315541,2.574,2.68067
0.687283,-0.315541,2.574,2.6828
0.695638,-0.315541,2.574,2.68495
0.698796,-0.313212,2.555,2.66729
0.707089,-0.313212,2.555,2.66948
0.715382,-0.313212,2.555,2.67168
0.723674,-0.313212,2.555,2.67392
0.731967,-0.313212,2.555,2.67617
0.74026,-0.313212,2.555,2.67845
0.748553,-0.313212,2.555,2.68076
0.756846,-0.313212,2.555,2.68308
0.759449,-0.310883,2.536,2.66547
0.76768,-0.310883,2.536,2.66782
0.775912,-0.310883,2.536,2.6702
0.784143,-0.310883,2.536,2.67261
0.792374,-0.310883,2.536,2.67503
0.794607,-0.308554,2.517,2.65742
0.802777,-0.308554,2.517,2.65988
0.810946,-0.308554,2.517,2.66235
0.819116,-0.308554,2.517,2.66485
0.821369,-0.306347,2.499,2.6483
0.82948,-0.306347,2.499,2.65083
0.831558,-0.304141,2.481,2.63427
0.839611,-0.304141,2.481,2.63682
0.841514,-0.301934,2.463,2.62024
0.849508,-0.301934,2.463,2.62282
0.857502,-0.301934,2.463,2.62542
0.859171,-0.299727,2.445,2.60884
0.867107,-0.299727,2.445,2.61146
0.875043,-0.299727,2.445,2.61411
0.882979,-0.299727,2.445,2.61678
0.890915,-0.299727,2.445,2.61946
0.892601,-0.297644,2.428,2.60394
0.900482,-0.297644,2.428,2.60665
0.908362,-0.297644,2.428,2.60939
0.916243,-0.297644,2.428,2.61214
0.924124,-0.297644,2.428,2.61492
0.932004,-0.297644,2.428,2.61771
0.939885,-0.297644,2.428,2.62053
0.947766,-0.297644,2.428,2.62336
0.955646,-0.297644,2.428,2.62622
nan,nan,nan,NaN
nan,nan,nan,NaN
nan,nan,nan,NaN
nan,nan,nan,NaN
nan,nan,nan,NaN
nan,nan,nan,NaN
nan,nan,nan,NaN
nan,nan,nan,NaN
nan,nan,nan,NaN
nan,nan,nan,NaN
nan,nan,nan,NaN
nan,nan,nan,NaN
nan,nan,nan,NaN
nan,nan,nan,NaN
nan,nan,nan,NaN
nan,nan,nan,NaN
nan,nan,nan,NaN
nan,nan,nan,NaN
1.5743,-0.423909,3.458,3.82307
1.58552,-0.423909,3.458,3.82771
1.62953,-0.432613,3.529,3.91106
1.67586,-0.441807,3.604,3.99907
1.68756,-0.441807,3.604,4.00398
1.69926,-0.441807,3.604,4.00893
1.729,-0.446465,3.642,4.05622
1.74082,-0.446465,3.642,4.06127
1.77141,-0.451246,3.681,4.1099
1.78335,-0.451246,3.681,4.11506
1.77628,-0.446465,3.642,4.0766
1.75079,-0.437149,3.566,3.99659
1.76236,-0.437149,3.566,4.00167
1.75553,-0.432613,3.529,3.96521
1.73143,-0.423909,3.458,3.89041
1.72502,-0.419619,3.423,3.856
1.73613,-0.419619,3.423,3.86098
1.74724,-0.419619,3.423,3.86599
1.75835,-0.419619,3.423,3.87102
1.76946,-0.419619,3.423,3.87608
1.76288,-0.415451,3.389,3.84261
1.77388,-0.415451,3.389,3.84767
1.80279,-0.419619,3.423,3.89141
1.8139,-0.419619,3.423,3.89657
1.82501,-0.419619,3.423,3.90175
1.87367,-0.4282,3.493,3.98686
1.88501,-0.4282,3.493,3.9922
1.91589,-0.432613,3.529,4.03877
1.94755,-0.437149,3.566,4.08661
1.98,-0.441807,3.604,4.13575
1.9707,-0.437149,3.566,4.0977
1.98227,-0.437149,3.566,4.10328
2.0151,-0.441807,3.604,4.15266
2.02679,-0.441807,3.604,4.15835
2.03849,-0.441807,3.604,4.16407
2.05019,-0.441807,3.604,4.16981
2.06189,-0.441807,3.604,4.17557
2.05172,-0.437149,3.566,4.13727
