1.68941,0.101383,3.057,3.49423
1.71434,0.102278,3.084,3.52994
1.74,0.103207,3.112,3.56691
1.75011,0.103207,3.112,3.57184
1.76021,0.103207,3.112,3.5768
1.77031,0.103207,3.112,3.58178
1.78041,0.103207,3.112,3.58679
1.79051,0.103207,3.112,3.59181
1.80061,0.103207,3.112,3.59686
1.81071,0.103207,3.112,3.60193
1.80443,0.102278,3.084,3.57456
1.81444,0.102278,3.084,3.57962
1.82445,0.102278,3.084,3.58471
1.80234,0.100488,3.03,3.52696
1.81217,0.100488,3.03,3.53199
1.82201,0.100488,3.03,3.53705
1.81552,0.0995921,3.003,3.51056
1.79366,0.0978676,2.951,3.45473
1.80324,0.0978676,2.951,3.45972
1.7821,0.0962094,2.901,3.40601
1.76187,0.0946175,2.853,3.35451
1.77113,0.0946175,2.853,3.35939
1.73671,0.092296,2.783,3.28173
1.71814,0.0908368,2.739,3.23456
1.72703,0.0908368,2.739,3.23929
1.70867,0.0894107,2.696,3.19311
1.67729,0.0873214,2.633,3.12308
1.68583,0.0873214,2.633,3.12768
1.66864,0.0859948,2.593,3.0847
1.65248,0.0847346,2.555,3.04399
1.63607,0.0834743,2.517,3.00316
1.64424,0.0834743,2.517,3.00762
1.64059,0.0828774,2.499,2.99055
1.63683,0.0822804,2.481,2.97344
1.64488,0.0822804,2.481,2.97788
1.64094,0.0816835,2.463,2.9607
1.63689,0.0810865,2.445,2.94347
1.64482,0.0810865,2.445,2.94789
1.64127,0.0805227,2.428,2.9318
1.6376,0.0799589,2.411,2.91566
-1.9154,0.100525,2.761,3.36184
-1.90643,0.100525,2.761,3.35674
-1.89747,0.100525,2.761,3.35166
-1.88851,0.100525,2.761,3.3466
-1.87955,0.100525,2.761,3.34155
-1.87059,0.100525,2.761,3.33651
-1.86163,0.100525,2.761,3.3315
-1.82314,0.0989234,2.717,3.27349
-1.8003,0.0981588,2.696,3.24332
-1.79155,0.0981588,2.696,3.23847
-1.75502,0.0966296,2.654,3.18326
-1.71943,0.0951369,2.613,3.12942
-1.71095,0.0951369,2.613,3.12477
-1.68944,0.0944087,2.593,3.09625
-1.65639,0.0930251,2.555,3.04636
-1.64809,0.0930251,2.555,3.04186
-1.62761,0.0923334,2.536,3.01478
-1.60724,0.0916416,2.517,2.98779
-1.59907,0.0916416,2.517,2.98341
-1.57953,0.0909862,2.499,2.95773
-1.57142,0.0909862,2.499,2.95341
-1.5633,0.0909862,2.499,2.9491
-1.5664,0.0916416,2.517,2.96602
-1.55823,0.0916416,2.517,2.96171
-1.56176,0.0923334,2.536,2.97975
-1.55353,0.0923334,2.536,2.97544
-1.54529,0.0923334,2.536,2.97115
-1.54858,0.0930251,2.555,2.98911
-1.56319,0.0944087,2.593,3.02921
-1.55478,0.0944087,2.593,3.02488
-1.55829,0.0951369,2.613,3.04386
-1.54981,0.0951369,2.613,3.03953
-1.54133,0.0951369,2.613,3.03521
-1.52111,0.0944087,2.593,3.00771
-1.5127,0.0944087,2.593,3.00347
-1.50428,0.0944087,2.593,2.99924
-1.49586,0.0944087,2.593,2.99502
-1.47655,0.0937169,2.574,2.96892
-1.46819,0.0937169,2.574,2.96477
-1.44906,0.0930251,2.555,2.93879
-1.43006,0.0923334,2.536,2.91288
-1.42183,0.0923334,2.536,2.90885
-1.39297,0.0909862,2.499,2.86245
-1.37488,0.0903309,2.481,2.83793
-1.35692,0.0896755,2.463,2.81347
-1.34892,0.0896755,2.463,2.80963
-1.34093,0.0896755,2.463,2.8058
-1.32319,0.0890201,2.445,2.78151
-1.31526,0.0890201,2.445,2.77774
-1.30732,0.0890201,2.445,2.77399
-1.29938,0.0890201,2.445,2.77026
-1.29145,0.0890201,2.445,2.76655
-1.27459,0.0884012,2.428,2.74364
-1.26671,0.0884012,2.428,2.73999
-1.25883,0.0884012,2.428,2.73636
-1.25095,0.0884012,2.428,2.73274
-1.24306,0.0884012,2.428,2.72914
-1.23518,0.0884012,2.428,2.72556
-1.2273,0.0884012,2.428,2.722
-1.21942,0.0884012,2.428,2.71845
-1.20306,0.0877822,2.411,2.69592
-1.19523,0.0877822,2.411,2.69244
-1.18741,0.0877822,2.411,2.68897
-1.17127,0.0871633,2.394,2.66659
-1.1635,0.0871633,2.394,2.66319
-1.15572,0.0871633,2.394,2.6598
-1.14795,0.0871633,2.394,2.65643
-1.14018,0.0871633,2.394,2.65308
-1.13241,0.0871633,2.394,2.64975
-1.11666,0.0865443,2.377,2.62765
-1.10894,0.0865443,2.377,2.62438
-1.10123,0.0865443,2.377,2.62113
-1.09351,0.0865443,2.377,2.6179
-1.07849,0.0859618,2.361,2.59708
-1.07082,0.0859618,2.361,2.59391
-1.06316,0.0859618,2.361,2.59076
-1.0555,0.0859618,2.361,2.58762
-1.04784,0.0859618,2.361,2.58451
-1.04017,0.0859618,2.361,2.58141
-1.02551,0.0853792,2.345,2.56086
-1.0179,0.0853792,2.345,2.55782
-1.01029,0.0853792,2.345,2.5548
-1.00268,0.0853792,2.345,2.5518
-0.995066,0.0853792,2.345,2.54882
-0.987455,0.0853792,2.345,2.54586
-0.973158,0.0847967,2.329,2.52556
-0.965599,0.0847967,2.329,2.52266
-0.95804,0.0847967,2.329,2.51978
-0.95048,0.0847967,2.329,2.51691
-0.942921,0.0847967,2.329,2.51407
-0.935362,0.0847967,2.329,2.51124
-0.934176,0.0853792,2.345,2.52567
-0.926565,0.0853792,2.345,2.52286
-0.918953,0.0853792,2.345,2.52008
-0.911342,0.0853792,2.345,2.51731
-0.903731,0.0853792,2.345,2.51457
-0.89612,0.0853792,2.345,2.51184
-0.888508,0.0853792,2.345,2.50914
-0.880897,0.0853792,2.345,2.50645
-0.879244,0.0859618,2.361,2.52087
-0.871581,0.0859618,2.361,2.51821
-0.863918,0.0859618,2.361,2.51556
-0.856255,0.0859618,2.361,2.51294
-0.848591,0.0859618,2.361,2.51034
-0.846627,0.0865443,2.377,2.52476
-0.838912,0.0865443,2.377,2.52218
-0.831197,0.0865443,2.377,2.51962
-0.823481,0.0865443,2.377,2.51709
-0.815766,0.0865443,2.377,2.51458
-0.81383,0.0871633,2.394,2.53005
-0.811784,0.0877822,2.411,2.54551
-0.803958,0.0877822,2.411,2.54303
-0.796133,0.0877822,2.411,2.54056
-0.793866,0.0884012,2.428,2.55602
-0.785985,0.0884012,2.428,2.55358
-0.778104,0.0884012,2.428,2.55117
-0.775616,0.0890201,2.445,2.56662
-0.767681,0.0890201,2.445,2.56423
-0.759745,0.0890201,2.445,2.56187
-0.757344,0.0896755,2.463,2.57837
-0.749349,0.0896755,2.463,2.57603
-0.741355,0.0896755,2.463,2.57372
-0.733361,0.0896755,2.463,2.57143
-0.725366,0.0896755,2.463,2.56916
-0.717372,0.0896755,2.463,2.56691
-0.709378,0.0896755,2.463,2.56469
-0.701384,0.0896755,2.463,2.56249
-0.693389,0.0896755,2.463,2.56031
-0.685395,0.0896755,2.463,2.55816
-0.677401,0.0896755,2.463,2.55603
-0.669406,0.0896755,2.463,2.55392
-0.661412,0.0896755,2.463,2.55184
-0.653418,0.0896755,2.463,2.54978
-0.645424,0.0896755,2.463,2.54774
-0.637429,0.0896755,2.463,2.54573
-0.629435,0.0896755,2.463,2.54374
-0.621441,0.0896755,2.463,2.54177
-0.613446,0.0896755,2.463,2.53983
-0.601027,0.0890201,2.445,2.51936
-0.593092,0.0890201,2.445,2.51748
-0.585156,0.0890201,2.445,2.51562
-0.57722,0.0890201,2.445,2.51379
-0.573475,0.0896755,2.463,2.53047
-0.565481,0.0896755,2.463,2.52867
-0.557486,0.0896755,2.463,2.5269
-0.549492,0.0896755,2.463,2.52514
-0.541498,0.0896755,2.463,2.52342
-0.533504,0.0896755,2.463,2.52171
-0.525509,0.0896755,2.463,2.52003
-0.517515,0.0896755,2.463,2.51838
-0.509521,0.0896755,2.463,2.51675
-0.501526,0.0896755,2.463,2.51514
-0.493532,0.0896755,2.463,2.51356
-0.485538,0.0896755,2.463,2.512
-0.477544,0.0896755,2.463,2.51047
-0.469549,0.0896755,2.463,2.50896
-0.461555,0.0896755,2.463,2.50748
-0.456875,0.0903309,2.481,2.52433
-0.448823,0.0903309,2.481,2.52289
-0.44077,0.0903309,2.481,2.52147
-0.435857,0.0909862,2.499,2.53836
-0.427746,0.0909862,2.499,2.53698
-0.416612,0.0903309,2.481,2.51736
-0.408559,0.0903309,2.481,2.51604
-0.400506,0.0903309,2.481,2.51474
-0.395301,0.0909862,2.499,2.53171
-0.38719,0.0909862,2.499,2.53045
-0.379079,0.0909862,2.499,2.52923
-0.370968,0.0909862,2.499,2.52802
-0.36547,0.0916416,2.517,2.54505
-0.357301,0.0916416,2.517,2.54389
-0.349131,0.0916416,2.517,2.54275
-0.340961,0.0916416,2.517,2.54164
-0.332792,0.0916416,2.517,2.54056
-0.324622,0.0916416,2.517,2.5395
-0.316453,0.0916416,2.517,2.53847
-0.308283,0.0916416,2.517,2.53746
-0.300114,0.0916416,2.517,2.53648
-0.291944,0.0916416,2.517,2.53553
-0.285917,0.0923334,2.536,2.55374
-0.277685,0.0923334,2.536,2.55283
-0.269454,0.0923334,2.536,2.55195
-0.26318,0.0930251,2.555,2.5702
-0.254887,0.0930251,2.555,2.56937
-0.246594,0.0930251,2.555,2.56856
-0.238301,0.0930251,2.555,2.56777
-0.230009,0.0930251,2.555,2.56702
-0.221716,0.0930251,2.555,2.56629
-0.21501,0.0937169,2.574,2.58466
-0.206655,0.0937169,2.574,2.58398
-0.198301,0.0937169,2.574,2.58333
-0.189946,0.0937169,2.574,2.5827
-0.181592,0.0937169,2.574,2.5821
-0.173237,0.0937169,2.574,2.58152
-0.163665,0.0930251,2.555,2.56193
-0.155372,0.0930251,2.555,2.56141
-0.14708,0.0930251,2.555,2.56092
-0.138787,0.0930251,2.555,2.56046
-0.130494,0.0930251,2.555,2.56002
-0.122201,0.0930251,2.555,2.55961
-0.113908,0.0930251,2.555,2.55923
-0.105615,0.0930251,2.555,2.55887
-0.0973222,0.0930251,2.555,2.55854
-0.0890293,0.0930251,2.555,2.55824
-0.080136,0.0923334,2.536,2.53895
-0.0719048,0.0923334,2.536,2.5387
-0.0636736,0.0923334,2.536,2.53848
-0.0554423,0.0923334,2.536,2.53829
-0.0468574,0.0916416,2.517,2.5191
-0.0386878,0.0916416,2.517,2.51897
-0.0305183,0.0916416,2.517,2.51885
-0.0221889,0.0909862,2.499,2.50075
-0.0140778,0.0909862,2.499,2.5007
-0.00596664,0.0909862,2.499,2.50066
0.00214449,0.0909862,2.499,2.50066
0.0102556,0.0909862,2.499,2.50068
0.0183668,0.0909862,2.499,2.50072
0.0264779,0.0909862,2.499,2.5008
0.034589,0.0909862,2.499,2.5009
0.0427002,0.0909862,2.499,2.50102
0.0504453,0.0903309,2.481,2.48316
0.058498,0.0903309,2.481,2.48333
0.0670336,0.0909862,2.499,2.50155
0.0751447,0.0909862,2.499,2.50178
0.0832558,0.0909862,2.499,2.50204
0.091367,0.0909862,2.499,2.50232
0.100195,0.0916416,2.517,2.52066
0.108364,0.0916416,2.517,2.521
0.116534,0.0916416,2.517,2.52136
0.124703,0.0916416,2.517,2.52175
0.132873,0.0916416,2.517,2.52217
0.141042,0.0916416,2.517,2.52261
nan,nan,nan,NaN
0.157382,0.0916416,2.517,2.52358
0.165551,0.0916416,2.517,2.5241
nan,nan,nan,NaN
nan,nan,nan,NaN
0.187341,0.0903309,2.481,2.4897
0.195394,0.0903309,2.481,2.49032
nan,nan,nan,NaN
nan,nan,nan,NaN
nan,nan,nan,NaN
nan,nan,nan,NaN
nan,nan,nan,NaN
nan,nan,nan,NaN
nan,nan,nan,NaN
nan,nan,nan,NaN
nan,nan,nan,NaN
nan,nan,nan,NaN
nan,nan,nan,NaN
nan,nan,nan,NaN
nan,nan,nan,NaN
nan,nan,nan,NaN
nan,nan,nan,NaN
nan,nan,nan,NaN
nan,nan,nan,NaN
nan,nan,nan,NaN
nan,nan,nan,NaN
nan,nan,nan,NaN
nan,nan,nan,NaN
nan,nan,nan,NaN
nan,nan,nan,NaN
nan,nan,nan,NaN
nan,nan,nan,NaN
nan,nan,nan,NaN
nan,nan,nan,NaN
nan,nan,nan,NaN
nan,nan,nan,NaN
nan,nan,nan,NaN
nan,nan,nan,NaN
nan,nan,nan,NaN
nan,nan,nan,NaN
0.459163,0.0884012,2.428,2.47262
0.467044,0.0884012,2.428,2.47409
0.474925,0.0884012,2.428,2.47559
0.482805,0.0884012,2.428,2.47712
0.490686,0.0884012,2.428,2.47866
0.495076,0.0877822,2.411,2.46287
0.502901,0.0877822,2.411,2.46445
0.507126,0.0871633,2.394,2.44868
0.514896,0.0871633,2.394,2.4503
0.522667,0.0871633,2.394,2.45194
0.52667,0.0865443,2.377,2.43619
0.534385,0.0865443,2.377,2.43787
0.5421,0.0865443,2.377,2.43957
0.546115,0.0859618,2.361,2.42486
0.550025,0.0853792,2.345,2.41015
0.557636,0.0853792,2.345,2.4119
0.557534,0.0842141,2.313,2.38074
0.561377,0.083668,2.298,2.36705
0.568836,0.083668,2.298,2.36883
0.576295,0.083668,2.298,2.37064
0.579689,0.0830855,2.282,2.35594
0.587096,0.0830855,2.282,2.35778
0.594503,0.0830855,2.282,2.35963
0.60191,0.0830855,2.282,2.36151
0.613588,0.083668,2.298,2.37998
0.625101,0.0842141,2.313,2.39746
0.632608,0.0842141,2.313,2.39943
0.644544,0.0847967,2.329,2.41803
0.661063,0.0859618,2.361,2.45331
0.678073,0.0871633,2.394,2.4897
0.685843,0.0871633,2.394,2.49183
0.703465,0.0884012,2.428,2.5294
0.716326,0.0890201,2.445,2.54933
0.724262,0.0890201,2.445,2.55157
0.742978,0.0903309,2.481,2.59144
0.751031,0.0903309,2.481,2.59376
0.759084,0.0903309,2.481,2.5961
0.767137,0.0903309,2.481,2.59846
0.775189,0.0903309,2.481,2.60085
0.788924,0.0909862,2.499,2.62215
0.797036,0.0909862,2.499,2.6246
0.799347,0.0903309,2.481,2.60816
0.8074,0.0903309,2.481,2.61064
0.815453,0.0903309,2.481,2.61314
0.823505,0.0903309,2.481,2.61566
0.831558,0.0903309,2.481,2.61821
0.833519,0.0896755,2.463,2.60176
0.841514,0.0896755,2.463,2.60433
0.849508,0.0896755,2.463,2.60693
0.851236,0.0890201,2.445,2.59047
0.859171,0.0890201,2.445,2.59309
0.867107,0.0890201,2.445,2.59573
0.868959,0.0884012,2.428,2.58033
0.8707,0.0877822,2.411,2.56491
0.878526,0.0877822,2.411,2.56757
0.886351,0.0877822,2.411,2.57026
0.894177,0.0877822,2.411,2.57297
0.895642,0.0871633,2.394,2.55754
0.903413,0.0871633,2.394,2.56027
0.911183,0.0871633,2.394,2.56302
0.918953,0.0871633,2.394,2.5658
0.926724,0.0871633,2.394,2.56859
0.934494,0.0871633,2.394,2.5714
0.942264,0.0871633,2.394,2.57424
0.950035,0.0871633,2.394,2.57709
0.957805,0.0871633,2.394,2.57997
0.965575,0.0871633,2.394,2.58286
0.973346,0.0871633,2.394,2.58578
0.988083,0.0877822,2.411,2.60709
0.995908,0.0877822,2.411,2.61007
1.01081,0.0884012,2.428,2.63149
1.02582,0.0890201,2.445,2.65297
1.03376,0.0890201,2.445,2.65605
1.04937,0.0896755,2.463,2.67873
1.06509,0.0903309,2.481,2.70147
1.07314,0.0903309,2.481,2.70465
1.08904,0.0909862,2.499,2.7275
1.11339,0.0923334,2.536,2.77118
1.13003,0.0930251,2.555,2.79529
1.13832,0.0930251,2.555,2.79865
1.15514,0.0937169,2.574,2.82287
1.17208,0.0944087,2.593,2.84716
1.1805,0.0944087,2.593,2.85064
1.19808,0.0951369,2.613,2.87615
1.2158,0.095865,2.633,2.90173
1.22435,0.095865,2.633,2.90532
1.23289,0.095865,2.633,2.90894
1.24144,0.095865,2.633,2.91257
1.25995,0.0966296,2.654,2.93948
1.26857,0.0966296,2.654,2.94318
1.27718,0.0966296,2.654,2.94691
1.2858,0.0966296,2.654,2.95065
1.29441,0.0966296,2.654,2.95441
1.29272,0.095865,2.633,2.93479
1.30126,0.095865,2.633,2.93856
1.30981,0.095865,2.633,2.94236
1.31835,0.095865,2.633,2.94617
1.33748,0.0966296,2.654,2.97354
1.3461,0.0966296,2.654,2.97742
1.36543,0.0973942,2.675,3.00491
1.39569,0.0989234,2.717,3.05611
1.41588,0.0997244,2.739,3.08493
1.42477,0.0997244,2.739,3.08902
1.45669,0.101326,2.783,3.14282
1.48995,0.103001,2.829,3.19903
1.49913,0.103001,2.829,3.20332
1.53391,0.104749,2.877,3.26205
1.58294,0.107443,2.951,3.35047
1.62058,0.109336,3.003,3.41412
1.63032,0.109336,3.003,3.41876
1.65482,0.110319,3.03,3.4542
1.67949,0.111302,3.057,3.48974
1.68941,0.111302,3.057,3.49453
1.71434,0.112286,3.084,3.53024
1.74,0.113305,3.112,3.56721
1.75011,0.113305,3.112,3.57215
1.76021,0.113305,3.112,3.57711
1.77031,0.113305,3.112,3.58209
1.78041,0.113305,3.112,3.58709
1.79051,0.113305,3.112,3.59212
1.80061,0.113305,3.112,3.59716
1.81071,0.113305,3.112,3.60223
1.80443,0.112286,3.084,3.57486
1.79855,0.111302,3.057,3.54858
1.80848,0.111302,3.057,3.55362
1.80234,0.110319,3.03,3.52725
1.79602,0.109336,3.003,3.50081
1.80577,0.109336,3.003,3.50582
1.7998,0.10839,2.977,3.48045
1.77846,0.106533,2.926,3.42575
1.78796,0.106533,2.926,3.43069
1.76736,0.104749,2.877,3.37811
1.74705,0.103001,2.829,3.32657
1.75623,0.103001,2.829,3.3314
1.73671,0.101326,2.783,3.282
1.70434,0.0989234,2.717,3.20884
1.71316,0.0989234,2.717,3.21353
1.69536,0.0973942,2.675,3.16849
1.66455,0.0951369,2.613,3.0996
1.67303,0.0951369,2.613,3.10417
1.65641,0.0937169,2.574,3.06235
1.64019,0.0923334,2.536,3.0216
1.62437,0.0909862,2.499,2.98192
1.63248,0.0909862,2.499,2.98635
1.62878,0.0903309,2.481,2.96925
1.62495,0.0896755,2.463,2.9521
1.63295,0.0896755,2.463,2.95651
1.62895,0.0890201,2.445,2.93929
1.6255,0.0884012,2.428,2.92323
1.63339,0.0884012,2.428,2.92762
1.62977,0.0877822,2.411,2.91149
1.6376,0.0877822,2.411,2.91588
-1.9154,0.109484,2.761,3.36212
-1.90643,0.109484,2.761,3.35702
-1.89747,0.109484,2.761,3.35194
-1.88851,0.109484,2.761,3.34688
-1.87955,0.109484,2.761,3.34183
-1.87059,0.109484,2.761,3.3368
-1.86163,0.109484,2.761,3.33178
-1.82314,0.10774,2.717,3.27377
-1.8003,0.106907,2.696,3.2436
-1.79155,0.106907,2.696,3.23875
-1.75502,0.105241,2.654,3.18354
-1.71943,0.103616,2.613,3.12969
-1.71095,0.103616,2.613,3.12504
-1.68944,0.102823,2.593,3.09652
-1.65639,0.101316,2.555,3.04662
-1.64809,0.101316,2.555,3.04212
-1.62761,0.100562,2.536,3.01505
-1.59575,0.0990951,2.499,2.96669
-1.58764,0.0990951,2.499,2.96233
-1.57953,0.0990951,2.499,2.95799
-1.57142,0.0990951,2.499,2.95367
-1.5633,0.0990951,2.499,2.94936
-1.5664,0.0998088,2.517,2.96628
-1.55823,0.0998088,2.517,2.96198
-1.55006,0.0998088,2.517,2.95769
-1.55353,0.100562,2.536,2.97571
-1.54529,0.100562,2.536,2.97142
-1.54858,0.101316,2.555,2.98938
-1.55174,0.102069,2.574,3.00729
-1.54339,0.102069,2.574,3.00299
-1.54636,0.102823,2.593,3.02084
-1.53795,0.102823,2.593,3.01654
-1.52953,0.102823,2.593,3.01226
-1.52111,0.102823,2.593,3.00799
-1.50161,0.102069,2.574,2.98173
-1.49326,0.102069,2.574,2.97754
-1.47394,0.101316,2.555,2.95141
-1.46565,0.101316,2.555,2.94727
-1.45736,0.101316,2.555,2.94316
-1.43829,0.100562,2.536,2.9172
-1.40919,0.0990951,2.499,2.87065
-1.40108,0.0990951,2.499,2.86668
-1.38294,0.0983813,2.481,2.8421
-1.36491,0.0976675,2.463,2.8176
-1.347,0.0969537,2.445,2.79318
-1.33906,0.0969537,2.445,2.78936
-1.33113,0.0969537,2.445,2.78556
-1.31399,0.0962796,2.428,2.76243
-1.30611,0.0962796,2.428,2.75869
-1.29823,0.0962796,2.428,2.75497
-1.29035,0.0962796,2.428,2.75126
-1.29145,0.0969537,2.445,2.76681
-1.27459,0.0962796,2.428,2.74391
-1.26671,0.0962796,2.428,2.74026
-1.25883,0.0962796,2.428,2.73662
-1.25095,0.0962796,2.428,2.73301
-1.24306,0.0962796,2.428,2.72941
-1.24383,0.0969537,2.445,2.74491
-1.2359,0.0969537,2.445,2.74133
-1.21942,0.0962796,2.428,2.71872
-1.21154,0.0962796,2.428,2.7152
-1.20366,0.0962796,2.428,2.71169
-1.18741,0.0956055,2.411,2.68924
-1.17958,0.0956055,2.411,2.68579
-1.17176,0.0956055,2.411,2.68236
-1.16393,0.0956055,2.411,2.67895
-1.15611,0.0956055,2.411,2.67556
-1.14018,0.0949314,2.394,2.65335
-1.13241,0.0949314,2.394,2.65002
-1.12464,0.0949314,2.394,2.64671
-1.10894,0.0942573,2.377,2.62465
-1.10123,0.0942573,2.377,2.6214
-1.09351,0.0942573,2.377,2.61816
-1.0858,0.0942573,2.377,2.61495
-1.07808,0.0942573,2.377,2.61176
-1.07037,0.0942573,2.377,2.60858
-1.0555,0.0936228,2.361,2.58789
-1.04784,0.0936228,2.361,2.58477
-1.04017,0.0936228,2.361,2.58167
-1.02551,0.0929884,2.345,2.56112
-1.0179,0.0929884,2.345,2.55808
-1.01029,0.0929884,2.345,2.55506
-1.00268,0.0929884,2.345,2.55206
-0.995066,0.0929884,2.345,2.54908
-0.987455,0.0929884,2.345,2.54612
-0.973158,0.0923539,2.329,2.52583
-0.965599,0.0923539,2.329,2.52293
-0.95804,0.0923539,2.329,2.52004
-0.95048,0.0923539,2.329,2.51718
-0.949399,0.0929884,2.345,2.53161
-0.941787,0.0929884,2.345,2.52876
-0.934176,0.0929884,2.345,2.52594
-0.926565,0.0929884,2.345,2.52313
-0.918953,0.0929884,2.345,2.52035
-0.911342,0.0929884,2.345,2.51758
-0.903731,0.0929884,2.345,2.51484
-0.89612,0.0929884,2.345,2.51211
-0.888508,0.0929884,2.345,2.50941
-0.880897,0.0929884,2.345,2.50672
-0.879244,0.0936228,2.361,2.52114
-0.871581,0.0936228,2.361,2.51848
-0.863918,0.0936228,2.361,2.51584
-0.856255,0.0936228,2.361,2.51322
-0.854342,0.0942573,2.377,2.52763
-0.846627,0.0942573,2.377,2.52503
-0.838912,0.0942573,2.377,2.52246
-0.831197,0.0942573,2.377,2.5199
-0.829371,0.0949314,2.394,2.53537
-0.821601,0.0949314,2.394,2.53284
-0.81383,0.0949314,2.394,2.53033
-0.811784,0.0956055,2.411,2.54579
-0.809627,0.0962796,2.428,2.56124
-0.801746,0.0962796,2.428,2.55876
-0.793866,0.0962796,2.428,2.5563
-0.785985,0.0962796,2.428,2.55387
-0.778104,0.0962796,2.428,2.55145
-0.775616,0.0969537,2.445,2.56691
-0.767681,0.0969537,2.445,2.56452
-0.759745,0.0969537,2.445,2.56215
-0.757344,0.0976675,2.463,2.57866
-0.749349,0.0976675,2.463,2.57632
-0.741355,0.0976675,2.463,2.57401
-0.733361,0.0976675,2.463,2.57172
-0.725366,0.0976675,2.463,2.56945
-0.717372,0.0976675,2.463,2.5672
-0.709378,0.0976675,2.463,2.56498
-0.701384,0.0976675,2.463,2.56278
-0.693389,0.0976675,2.463,2.5606
-0.685395,0.0976675,2.463,2.55845
-0.677401,0.0976675,2.463,2.55632
-0.669406,0.0976675,2.463,2.55421
-0.661412,0.0976675,2.463,2.55213
-0.653418,0.0976675,2.463,2.55007
-0.645424,0.0976675,2.463,2.54803
-0.637429,0.0976675,2.463,2.54602
-0.629435,0.0976675,2.463,2.54403
-0.621441,0.0976675,2.463,2.54207
-0.613446,0.0976675,2.463,2.54012
-0.601027,0.0969537,2.445,2.51965
-0.593092,0.0969537,2.445,2.51777
-0.585156,0.0969537,2.445,2.51592
-0.57722,0.0969537,2.445,2.51408
-0.569284,0.0969537,2.445,2.51227
-0.561348,0.0969537,2.445,2.51049
-0.553412,0.0969537,2.445,2.50872
-0.545476,0.0969537,2.445,2.50698
-0.53754,0.0969537,2.445,2.50527
-0.529605,0.0969537,2.445,2.50358
-0.521669,0.0969537,2.445,2.50191
-0.517515,0.0976675,2.463,2.51868
-0.509521,0.0976675,2.463,2.51705
-0.501526,0.0976675,2.463,2.51544
-0.493532,0.0976675,2.463,2.51386
-0.485538,0.0976675,2.463,2.5123
-0.477544,0.0976675,2.463,2.51077
-0.469549,0.0976675,2.463,2.50926
-0.461555,0.0976675,2.463,2.50778
-0.453561,0.0976675,2.463,2.50632
-0.445566,0.0976675,2.463,2.50488
-0.437572,0.0976675,2.463,2.50347
-0.432717,0.0983813,2.481,2.52037
-0.424665,0.0983813,2.481,2.519
-0.416612,0.0983813,2.481,2.51766
-0.408559,0.0983813,2.481,2.51634
-0.400506,0.0983813,2.481,2.51504
-0.392454,0.0983813,2.481,2.51377
-0.38719,0.0990951,2.499,2.53076
-0.379079,0.0990951,2.499,2.52953
-0.370968,0.0990951,2.499,2.52833
-0.362857,0.0990951,2.499,2.52715
-0.357301,0.0998088,2.517,2.54419
-0.349131,0.0998088,2.517,2.54306
-0.340961,0.0998088,2.517,2.54195
-0.332792,0.0998088,2.517,2.54087
-0.324622,0.0998088,2.517,2.53981
-0.316453,0.0998088,2.517,2.53878
-0.308283,0.0998088,2.517,2.53777
-0.300114,0.0998088,2.517,2.53679
-0.291944,0.0998088,2.517,2.53584
-0.285917,0.100562,2.536,2.55405
-0.277685,0.100562,2.536,2.55314
-0.269454,0.100562,2.536,2.55226
-0.26318,0.101316,2.555,2.57052
-0.254887,0.101316,2.555,2.56968
-0.246594,0.101316,2.555,2.56887
-0.238301,0.101316,2.555,2.56809
-0.230009,0.101316,2.555,2.56733
-0.221716,0.101316,2.555,2.5666
-0.21501,0.102069,2.574,2.58498
-0.206655,0.102069,2.574,2.5843
-0.198301,0.102069,2.574,2.58364
-0.189946,0.102069,2.574,2.58302
-0.181592,0.102069,2.574,2.58242
-0.173237,0.102069,2.574,2.58184
-0.163665,0.101316,2.555,2.56224
-0.155372,0.101316,2.555,2.56172
-0.14708,0.101316,2.555,2.56123
-0.138787,0.101316,2.555,2.56077
-0.130494,0.101316,2.555,2.56034
-0.122201,0.101316,2.555,2.55993
-0.113061,0.100562,2.536,2.54051
-0.10483,0.100562,2.536,2.54016
-0.0965985,0.100562,2.536,2.53983
-0.0883672,0.100562,2.536,2.53953
-0.080136,0.100562,2.536,2.53926
-0.0719048,0.100562,2.536,2.53901
-0.0636736,0.100562,2.536,2.53879
-0.055027,0.0998088,2.517,2.51958
-0.0468574,0.0998088,2.517,2.51941
-0.0386878,0.0998088,2.517,2.51928
-0.0305183,0.0998088,2.517,2.51916
-0.0221889,0.0990951,2.499,2.50106
-0.0140778,0.0990951,2.499,2.501
-0.00596664,0.0990951,2.499,2.50097
0.00214449,0.0990951,2.499,2.50096
0.0102556,0.0990951,2.499,2.50099
0.0183668,0.0990951,2.499,2.50103
0.0264779,0.0990951,2.499,2.5011
0.034589,0.0990951,2.499,2.5012
0.0427002,0.0990951,2.499,2.50133
0.0508113,0.0990951,2.499,2.50148
0.0589224,0.0990951,2.499,2.50166
0.0670336,0.0990951,2.499,2.50186
0.0751447,0.0990951,2.499,2.50209
0.0838555,0.0998088,2.517,2.52037
0.0920251,0.0998088,2.517,2.52066
0.100195,0.0998088,2.517,2.52097
0.108364,0.0998088,2.517,2.52131
0.116534,0.0998088,2.517,2.52167
0.124703,0.0998088,2.517,2.52206
0.132873,0.0998088,2.517,2.52248
0.142107,0.100562,2.536,2.54197
nan,nan,nan,NaN
0.159758,0.101316,2.555,2.56199
0.16805,0.101316,2.555,2.56252
nan,nan,nan,NaN
nan,nan,nan,NaN
nan,nan,nan,NaN
nan,nan,nan,NaN
nan,nan,nan,NaN
nan,nan,nan,NaN
nan,nan,nan,NaN
nan,nan,nan,NaN
nan,nan,nan,NaN
nan,nan,nan,NaN
nan,nan,nan,NaN
nan,nan,nan,NaN
nan,nan,nan,NaN
nan,nan,nan,NaN
nan,nan,nan,NaN
nan,nan,nan,NaN
nan,nan,nan,NaN
nan,nan,nan,NaN
nan,nan,nan,NaN
nan,nan,nan,NaN
nan,nan,nan,NaN
nan,nan,nan,NaN
nan,nan,nan,NaN
nan,nan,nan,NaN
nan,nan,nan,NaN
nan,nan,nan,NaN
nan,nan,nan,NaN
nan,nan,nan,NaN
nan,nan,nan,NaN
nan,nan,nan,NaN
nan,nan,nan,NaN
nan,nan,nan,NaN
nan,nan,nan,NaN
nan,nan,nan,NaN
nan,nan,nan,NaN
nan,nan,nan,NaN
nan,nan,nan,NaN
0.459163,0.0962796,2.428,2.47291
0.467044,0.0962796,2.428,2.47439
0.474925,0.0962796,2.428,2.47589
0.482805,0.0962796,2.428,2.47741
0.490686,0.0962796,2.428,2.47896
0.495076,0.0956055,2.411,2.46316
0.502901,0.0956055,2.411,2.46475
0.507126,0.0949314,2.394,2.44896
0.514896,0.0949314,2.394,2.45058
0.522667,0.0949314,2.394,2.45223
0.52667,0.0942573,2.377,2.43647
0.534385,0.0942573,2.377,2.43815
0.5421,0.0942573,2.377,2.43985
0.546115,0.0936228,2.361,2.42514
0.550025,0.0929884,2.345,2.41044
0.557636,0.0929884,2.345,2.41218
0.561391,0.0923539,2.329,2.39748
0.561377,0.0911246,2.298,2.36733
0.568836,0.0911246,2.298,2.36911
0.576295,0.0911246,2.298,2.37091
0.579689,0.0904902,2.282,2.35622
0.587096,0.0904902,2.282,2.35805
0.594503,0.0904902,2.282,2.3599
0.60191,0.0904902,2.282,2.36178
0.613588,0.0911246,2.298,2.38025
0.625101,0.0917194,2.313,2.39774
0.632608,0.0917194,2.313,2.3997
0.644544,0.0923539,2.329,2.41831
0.661063,0.0936228,2.361,2.45359
0.678073,0.0949314,2.394,2.48999
0.685843,0.0949314,2.394,2.49211
0.703465,0.0962796,2.428,2.52969
0.716326,0.0969537,2.445,2.54962
0.724262,0.0969537,2.445,2.55186
0.742978,0.0983813,2.481,2.59173
0.751031,0.0983813,2.481,2.59405
0.759084,0.0983813,2.481,2.59639
0.767137,0.0983813,2.481,2.59876
0.775189,0.0983813,2.481,2.60115
0.788924,0.0990951,2.499,2.62245
0.797036,0.0990951,2.499,2.6249
0.799347,0.0983813,2.481,2.60845
0.8074,0.0983813,2.481,2.61093
0.815453,0.0983813,2.481,2.61343
0.823505,0.0983813,2.481,2.61595
0.831558,0.0983813,2.481,2.6185
0.833519,0.0976675,2.463,2.60205
0.841514,0.0976675,2.463,2.60462
0.849508,0.0976675,2.463,2.60722
0.851236,0.0969537,2.445,2.59076
0.859171,0.0969537,2.445,2.59338
0.867107,0.0969537,2.445,2.59602
0.868959,0.0962796,2.428,2.58061
0.8707,0.0956055,2.411,2.56519
0.878526,0.0956055,2.411,2.56785
0.886351,0.0956055,2.411,2.57054
0.894177,0.0956055,2.411,2.57325
0.895642,0.0949314,2.394,2.55782
0.903413,0.0949314,2.394,2.56055
0.911183,0.0949314,2.394,2.5633
0.918953,0.0949314,2.394,2.56607
0.926724,0.0949314,2.394,2.56886
0.934494,0.0949314,2.394,2.57168
0.942264,0.0949314,2.394,2.57451
0.950035,0.0949314,2.394,2.57737
0.957805,0.0949314,2.394,2.58024
0.965575,0.0949314,2.394,2.58313
0.973346,0.0949314,2.394,2.58605
0.988083,0.0956055,2.411,2.60737
0.995908,0.0956055,2.411,2.61034
1.01081,0.0962796,2.428,2.63177
1.02582,0.0969537,2.445,2.65325
1.03376,0.0969537,2.445,2.65633
1.04937,0.0976675,2.463,2.67901
1.06509,0.0983813,2.481,2.70175
1.07314,0.0983813,2.481,2.70493
1.08904,0.0990951,2.499,2.72779
1.11339,0.100562,2.536,2.77147
1.13003,0.101316,2.555,2.79558
1.13832,0.101316,2.555,2.79894
1.15514,0.102069,2.574,2.82316
1.17208,0.102823,2.593,2.84745
1.1805,0.102823,2.593,2.85093
1.18891,0.102823,2.593,2.85442
1.20657,0.103616,2.613,2.87998
1.21505,0.103616,2.613,2.88355
1.22353,0.103616,2.613,2.88713
1.24144,0.104409,2.633,2.91286
1.24998,0.104409,2.633,2.91651
1.25853,0.104409,2.633,2.92019
1.25745,0.103616,2.613,2.90167
1.26593,0.103616,2.613,2.90536
1.27441,0.103616,2.613,2.90906
1.2829,0.103616,2.613,2.91279
1.29138,0.103616,2.613,2.91653
1.29986,0.103616,2.613,2.9203
1.30834,0.103616,2.613,2.92408
1.3269,0.104409,2.633,2.9503
1.33545,0.104409,2.633,2.95415
1.34399,0.104409,2.633,2.95802
1.37411,0.106074,2.675,3.00916
1.40451,0.10774,2.717,3.06045
1.41332,0.10774,2.717,3.0645
1.44517,0.109484,2.761,3.11827
1.47784,0.111269,2.806,3.17333
1.48694,0.111269,2.806,3.17758
1.52111,0.113133,2.853,3.23515
1.55612,0.115036,2.901,3.29401
1.56553,0.115036,2.901,3.29847
1.60209,0.117019,2.951,3.35988
1.64007,0.119081,3.003,3.42374
1.67949,0.121222,3.057,3.49007
1.68941,0.121222,3.057,3.49486
1.71434,0.122293,3.084,3.53058
1.74,0.123403,3.112,3.56755
1.75011,0.123403,3.112,3.57248
1.76021,0.123403,3.112,3.57744
1.77031,0.123403,3.112,3.58242
1.78041,0.123403,3.112,3.58743
1.79051,0.123403,3.112,3.59245
1.78441,0.122293,3.084,3.56513
1.79442,0.122293,3.084,3.57015
1.80443,0.122293,3.084,3.57519
1.79855,0.121222,3.057,3.54891
1.80848,0.121222,3.057,3.55395
1.80234,0.120151,3.03,3.52757
1.79602,0.119081,3.003,3.50113
1.80577,0.119081,3.003,3.50614
1.7998,0.11805,2.977,3.48077
1.77846,0.116027,2.926,3.42606
1.78796,0.116027,2.926,3.431
1.75261,0.113133,2.853,3.35023
1.73285,0.111269,2.806,3.29982
1.74196,0.111269,2.806,3.30461
1.72298,0.109484,2.761,3.25634
1.70434,0.10774,2.717,3.20912
1.71316,0.10774,2.717,3.21382
1.68205,0.105241,2.654,3.1439
1.65181,0.102823,2.593,3.07615
1.66022,0.102823,2.593,3.08068
1.64419,0.101316,2.555,3.04001
1.6279,0.0998088,2.517,2.99922
1.62437,0.0990951,2.499,2.98218
1.63248,0.0990951,2.499,2.98661
1.62878,0.0983813,2.481,2.9695
1.62495,0.0976675,2.463,2.95235
1.63295,0.0976675,2.463,2.95676
1.62895,0.0969537,2.445,2.93954
1.6255,0.0962796,2.428,2.92348
1.63339,0.0962796,2.428,2.92787
1.62977,0.0956055,2.411,2.91174
1.62605,0.0949314,2.394,2.89557
-1.90013,0.1175,2.739,3.33563
-1.90643,0.118443,2.761,3.35733
-1.91259,0.119387,2.783,3.37896
-1.88851,0.118443,2.761,3.34718
-1.87955,0.118443,2.761,3.34213
-1.87059,0.118443,2.761,3.3371
-1.86163,0.118443,2.761,3.33209
-1.82314,0.116556,2.717,3.27407
-1.8003,0.115655,2.696,3.2439
-1.79155,0.115655,2.696,3.23905
-1.75502,0.113853,2.654,3.18383
-1.71943,0.112094,2.613,3.12998
-1.71095,0.112094,2.613,3.12533
-1.68944,0.111236,2.593,3.09681
-1.65639,0.109606,2.555,3.04691
-1.64809,0.109606,2.555,3.04241
-1.62761,0.108791,2.536,3.01533
-1.59575,0.107204,2.499,2.96697
-1.58764,0.107204,2.499,2.96262
-1.57953,0.107204,2.499,2.95828
-1.57142,0.107204,2.499,2.95395
-1.5633,0.107204,2.499,2.94965
-1.55519,0.107204,2.499,2.94536
-1.54708,0.107204,2.499,2.94108
-1.55006,0.107976,2.517,2.95798
-1.55353,0.108791,2.536,2.976
-1.54529,0.108791,2.536,2.97171
-1.53706,0.108791,2.536,2.96744
-1.52883,0.108791,2.536,2.96318
-1.5206,0.108791,2.536,2.95895
-1.54636,0.111236,2.593,3.02114
-1.53795,0.111236,2.593,3.01684
-1.52953,0.111236,2.593,3.01255
-1.52111,0.111236,2.593,3.00829
-1.50161,0.110421,2.574,2.98203
-1.49326,0.110421,2.574,2.97783
-1.47394,0.109606,2.555,2.9517
-1.46565,0.109606,2.555,2.94757
-1.45736,0.109606,2.555,2.94346
-1.43829,0.108791,2.536,2.9175
-1.40919,0.107204,2.499,2.87094
-1.40108,0.107204,2.499,2.86697
-1.38294,0.106432,2.481,2.84239
-1.36491,0.10566,2.463,2.81789
-1.347,0.104887,2.445,2.79346
-1.33906,0.104887,2.445,2.78964
-1.33113,0.104887,2.445,2.78584
-1.31399,0.104158,2.428,2.76272
-1.30611,0.104158,2.428,2.75898
-1.29823,0.104158,2.428,2.75526
-1.29035,0.104158,2.428,2.75155
-1.29145,0.104887,2.445,2.7671
-1.28351,0.104887,2.445,2.76341
-1.27558,0.104887,2.445,2.75973
-1.26764,0.104887,2.445,2.75607
-1.2597,0.104887,2.445,2.75243
-1.25177,0.104887,2.445,2.74881
-1.24383,0.104887,2.445,2.7452
-1.2359,0.104887,2.445,2.74162
-1.22796,0.104887,2.445,2.73805
-1.22002,0.104887,2.445,2.7345
-1.21209,0.104887,2.445,2.73097
-1.20415,0.104887,2.445,2.72746
-1.1879,0.104158,2.428,2.70502
-1.18002,0.104158,2.428,2.70157
-1.17214,0.104158,2.428,2.69814
-1.15611,0.103429,2.411,2.67585
-1.14828,0.103429,2.411,2.67248
-1.14046,0.103429,2.411,2.66913
-1.12464,0.1027,2.394,2.647
-1.11687,0.1027,2.394,2.64371
-1.1091,0.1027,2.394,2.64043
-1.09351,0.10197,2.377,2.61845
-1.0858,0.10197,2.377,2.61524
-1.07808,0.10197,2.377,2.61205
-1.07037,0.10197,2.377,2.60887
-1.06265,0.10197,2.377,2.60572
-1.04784,0.101284,2.361,2.58506
-1.04017,0.101284,2.361,2.58196
-1.03251,0.101284,2.361,2.57889
-1.02485,0.101284,2.361,2.57583
-1.01718,0.101284,2.361,2.57279
-1.00268,0.100598,2.345,2.55235
-0.995066,0.100598,2.345,2.54937
-0.987455,0.100598,2.345,2.54641
-0.973158,0.0999111,2.329,2.52612
-0.965599,0.0999111,2.329,2.52321
-0.95804,0.0999111,2.329,2.52033
-0.95048,0.0999111,2.329,2.51747
-0.949399,0.100598,2.345,2.5319
-0.941787,0.100598,2.345,2.52905
-0.934176,0.100598,2.345,2.52623
-0.926565,0.100598,2.345,2.52342
-0.918953,0.100598,2.345,2.52064
-0.911342,0.100598,2.345,2.51787
-0.903731,0.100598,2.345,2.51513
-0.89612,0.100598,2.345,2.5124
-0.888508,0.100598,2.345,2.5097
-0.880897,0.100598,2.345,2.50702
-0.879244,0.101284,2.361,2.52144
-0.871581,0.101284,2.361,2.51878
-0.863918,0.101284,2.361,2.51613
-0.856255,0.101284,2.361,2.51351
-0.854342,0.10197,2.377,2.52793
-0.846627,0.10197,2.377,2.52533
-0.838912,0.10197,2.377,2.52276
-0.831197,0.10197,2.377,2.5202
-0.829371,0.1027,2.394,2.53567
-0.821601,0.1027,2.394,2.53314
-0.81383,0.1027,2.394,2.53063
-0.811784,0.103429,2.411,2.5461
-0.809627,0.104158,2.428,2.56155
-0.801746,0.104158,2.428,2.55907
-0.793866,0.104158,2.428,2.55661
-0.785985,0.104158,2.428,2.55417
-0.778104,0.104158,2.428,2.55176
-0.775616,0.104887,2.445,2.56722
-0.767681,0.104887,2.445,2.56483
-0.759745,0.104887,2.445,2.56247
-0.757344,0.10566,2.463,2.57897
-0.749349,0.10566,2.463,2.57664
-0.741355,0.10566,2.463,2.57432
-0.733361,0.10566,2.463,2.57203
-0.725366,0.10566,2.463,2.56976
-0.717372,0.10566,2.463,2.56752
-0.709378,0.10566,2.463,2.5653
-0.701384,0.10566,2.463,2.5631
-0.693389,0.10566,2.463,2.56092
-0.685395,0.10566,2.463,2.55877
-0.677401,0.10566,2.463,2.55664
-0.669406,0.10566,2.463,2.55453
-0.661412,0.10566,2.463,2.55245
-0.653418,0.10566,2.463,2.55039
-0.645424,0.10566,2.463,2.54835
-0.637429,0.10566,2.463,2.54634
-0.629435,0.10566,2.463,2.54435
-0.616899,0.104887,2.445,2.5238
-0.608963,0.104887,2.445,2.52188
-0.601027,0.104887,2.445,2.51997
-0.593092,0.104887,2.445,2.51809
-0.585156,0.104887,2.445,2.51623
-0.57722,0.104887,2.445,2.5144
-0.569284,0.104887,2.445,2.51259
-0.561348,0.104887,2.445,2.5108
-0.553412,0.104887,2.445,2.50904
-0.545476,0.104887,2.445,2.5073
-0.53754,0.104887,2.445,2.50559
-0.529605,0.104887,2.445,2.5039
-0.521669,0.104887,2.445,2.50223
-0.517515,0.10566,2.463,2.519
-0.509521,0.10566,2.463,2.51737
-0.501526,0.10566,2.463,2.51576
-0.493532,0.10566,2.463,2.51418
-0.485538,0.10566,2.463,2.51262
-0.477544,0.10566,2.463,2.51109
-0.469549,0.10566,2.463,2.50958
-0.461555,0.10566,2.463,2.5081
-0.453561,0.10566,2.463,2.50664
-0.445566,0.10566,2.463,2.50521
-0.437572,0.10566,2.463,2.5038
-0.432717,0.106432,2.481,2.5207
-0.424665,0.106432,2.481,2.51933
-0.416612,0.106432,2.481,2.51799
-0.408559,0.106432,2.481,2.51667
-0.400506,0.106432,2.481,2.51537
-0.392454,0.106432,2.481,2.5141
-0.38719,0.107204,2.499,2.53109
-0.379079,0.107204,2.499,2.52986
-0.370968,0.107204,2.499,2.52866
-0.362857,0.107204,2.499,2.52748
-0.357301,0.107976,2.517,2.54453
-0.349131,0.107976,2.517,2.54339
-0.340961,0.107976,2.517,2.54228
-0.332792,0.107976,2.517,2.5412
-0.324622,0.107976,2.517,2.54014
-0.316453,0.107976,2.517,2.53911
-0.308283,0.107976,2.517,2.53811
-0.302379,0.108791,2.536,2.55628
-0.294148,0.108791,2.536,2.55532
-0.285917,0.108791,2.536,2.55438
-0.277685,0.108791,2.536,2.55348
-0.269454,0.108791,2.536,2.55259
-0.26318,0.109606,2.555,2.57086
-0.254887,0.109606,2.555,2.57002
-0.246594,0.109606,2.555,2.56921
-0.238301,0.109606,2.555,2.56843
-0.231719,0.110421,2.574,2.58677
-0.223364,0.110421,2.574,2.58603
-0.21501,0.110421,2.574,2.58532
-0.206655,0.110421,2.574,2.58464
-0.198301,0.110421,2.574,2.58399
-0.189946,0.110421,2.574,2.58336
-0.181592,0.110421,2.574,2.58276
-0.173237,0.110421,2.574,2.58219
-0.164882,0.110421,2.574,2.58164
-0.156528,0.110421,2.574,2.58112
-0.148173,0.110421,2.574,2.58062
-0.139819,0.110421,2.574,2.58016
-0.130494,0.109606,2.555,2.56068
-0.122201,0.109606,2.555,2.56027
-0.113061,0.108791,2.536,2.54085
-0.10483,0.108791,2.536,2.5405
-0.0965985,0.108791,2.536,2.54017
-0.0883672,0.108791,2.536,2.53987
-0.080136,0.108791,2.536,2.5396
-0.0719048,0.108791,2.536,2.53935
-0.0636736,0.108791,2.536,2.53913
-0.055027,0.107976,2.517,2.51992
-0.0468574,0.107976,2.517,2.51975
-0.0386878,0.107976,2.517,2.51961
-0.0305183,0.107976,2.517,2.5195
-0.0221889,0.107204,2.499,2.5014
-0.0140778,0.107204,2.499,2.50134
-0.00596664,0.107204,2.499,2.50131
0.00214449,0.107204,2.499,2.5013
0.0103295,0.107976,2.517,2.51934
0.0184991,0.107976,2.517,2.51938
0.0264779,0.107204,2.499,2.50144
0.034589,0.107204,2.499,2.50154
0.0427002,0.107204,2.499,2.50166
0.0508113,0.107204,2.499,2.50181
0.0589224,0.107204,2.499,2.50199
0.0675164,0.107976,2.517,2.52022
0.075686,0.107976,2.517,2.52045
0.0838555,0.107976,2.517,2.52071
0.0920251,0.107976,2.517,2.521
0.100951,0.108791,2.536,2.54034
0.109182,0.108791,2.536,2.54068
0.117413,0.108791,2.536,2.54105
0.125645,0.108791,2.536,2.54144
0.133876,0.108791,2.536,2.54186
0.142107,0.108791,2.536,2.54231
nan,nan,nan,NaN
0.159758,0.109606,2.555,2.56234
0.16805,0.109606,2.555,2.56287
nan,nan,nan,NaN
nan,nan,nan,NaN
nan,nan,nan,NaN
nan,nan,nan,NaN
nan,nan,nan,NaN
nan,nan,nan,NaN
nan,nan,nan,NaN
nan,nan,nan,NaN
nan,nan,nan,NaN
nan,nan,nan,NaN
nan,nan,nan,NaN
nan,nan,nan,NaN
nan,nan,nan,NaN
nan,nan,nan,NaN
nan,nan,nan,NaN
nan,nan,nan,NaN
nan,nan,nan,NaN
nan,nan,nan,NaN
nan,nan,nan,NaN
nan,nan,nan,NaN
nan,nan,nan,NaN
nan,nan,nan,NaN
nan,nan,nan,NaN
nan,nan,nan,NaN
nan,nan,nan,NaN
nan,nan,nan,NaN
nan,nan,nan,NaN
nan,nan,nan,NaN
nan,nan,nan,NaN
nan,nan,nan,NaN
nan,nan,nan,NaN
nan,nan,nan,NaN
nan,nan,nan,NaN
nan,nan,nan,NaN
nan,nan,nan,NaN
0.443402,0.104158,2.428,2.47035
0.451283,0.104158,2.428,2.47178
0.459163,0.104158,2.428,2.47323
0.467044,0.104158,2.428,2.4747
0.471599,0.103429,2.411,2.45887
0.479425,0.103429,2.411,2.46038
0.48725,0.103429,2.411,2.46192
0.491585,0.1027,2.394,2.44611
0.499355,0.1027,2.394,2.44768
0.507126,0.1027,2.394,2.44928
0.514896,0.1027,2.394,2.4509
0.522667,0.1027,2.394,2.45254
0.52667,0.10197,2.377,2.43678
0.530788,0.101284,2.361,2.42205
0.538451,0.101284,2.361,2.42374
0.542414,0.100598,2.345,2.40902
0.546272,0.0999111,2.329,2.39429
0.553832,0.0999111,2.329,2.39603
0.557534,0.0992248,2.313,2.38131
0.561377,0.0985813,2.298,2.36763
0.564875,0.0978949,2.282,2.35291
0.572282,0.0978949,2.282,2.3547
0.575879,0.0972514,2.267,2.34102
0.583237,0.0972514,2.267,2.34284
0.590595,0.0972514,2.267,2.34469
0.597953,0.0972514,2.267,2.34655
0.609316,0.0978949,2.282,2.36397
0.621047,0.0985813,2.298,2.38248
0.628506,0.0985813,2.298,2.38444
0.640116,0.0992248,2.313,2.40199
0.652103,0.0999111,2.329,2.42063
0.668726,0.101284,2.361,2.45597
0.676389,0.101284,2.361,2.45806
0.698539,0.103429,2.411,2.51228
0.711345,0.104158,2.428,2.5322
0.719226,0.104158,2.428,2.53443
0.737588,0.10566,2.463,2.57324
0.751031,0.106432,2.481,2.59437
0.759084,0.106432,2.481,2.59671
0.767137,0.106432,2.481,2.59907
0.775189,0.106432,2.481,2.60146
0.788924,0.107204,2.499,2.62276
0.791295,0.106432,2.481,2.60631
0.799347,0.106432,2.481,2.60876
0.8074,0.106432,2.481,2.61124
0.815453,0.106432,2.481,2.61374
0.823505,0.106432,2.481,2.61627
0.831558,0.106432,2.481,2.61881
0.833519,0.10566,2.463,2.60236
0.835364,0.104887,2.445,2.5859
0.8433,0.104887,2.445,2.58847
0.851236,0.104887,2.445,2.59107
0.853198,0.104158,2.428,2.57565
0.861078,0.104158,2.428,2.57827
0.868959,0.104158,2.428,2.58092
0.87684,0.104158,2.428,2.58358
0.878526,0.103429,2.411,2.56816
0.886351,0.103429,2.411,2.57084
0.894177,0.103429,2.411,2.57355
0.902002,0.103429,2.411,2.57628
0.909828,0.103429,2.411,2.57903
0.917653,0.103429,2.411,2.5818
0.918953,0.1027,2.394,2.56637
0.926724,0.1027,2.394,2.56916
0.934494,0.1027,2.394,2.57198
0.942264,0.1027,2.394,2.57481
0.950035,0.1027,2.394,2.57766
0.957805,0.1027,2.394,2.58054
0.965575,0.1027,2.394,2.58343
0.980257,0.103429,2.411,2.60471
0.988083,0.103429,2.411,2.60767
0.995908,0.103429,2.411,2.61064
1.01081,0.104158,2.428,2.63207
1.02582,0.104887,2.445,2.65355
1.03376,0.104887,2.445,2.65663
1.04937,0.10566,2.463,2.67931
1.06509,0.106432,2.481,2.70205
1.07314,0.106432,2.481,2.70524
1.08904,0.107204,2.499,2.72809
1.10505,0.107976,2.517,2.75102
1.12162,0.108791,2.536,2.7751
1.12985,0.108791,2.536,2.77844
1.14661,0.109606,2.555,2.80263
1.16349,0.110421,2.574,2.8269
1.17185,0.110421,2.574,2.83035
1.1802,0.110421,2.574,2.83382
1.19733,0.111236,2.593,2.85826
1.20575,0.111236,2.593,2.86179
1.21416,0.111236,2.593,2.86535
1.22258,0.111236,2.593,2.86892
1.231,0.111236,2.593,2.87252
1.23941,0.111236,2.593,2.87614
1.24783,0.111236,2.593,2.87977
1.25624,0.111236,2.593,2.88343
1.26466,0.111236,2.593,2.88711
1.27308,0.111236,2.593,2.8908
1.28149,0.111236,2.593,2.89452
1.28991,0.111236,2.593,2.89826
1.29833,0.111236,2.593,2.90201
1.31682,0.112094,2.613,2.9282
1.3253,0.112094,2.613,2.93202
1.33378,0.112094,2.613,2.93587
1.35254,0.112952,2.633,2.96223
1.38279,0.114754,2.675,3.01346
1.39148,0.114754,2.675,3.01745
1.42214,0.116556,2.717,3.0689
1.45414,0.118443,2.761,3.12277
1.4631,0.118443,2.761,3.12695
1.50831,0.12136,2.829,3.20827
1.54324,0.12342,2.877,3.2671
1.55258,0.12342,2.877,3.27152
1.58852,0.125522,2.926,3.33176
1.62587,0.12771,2.977,3.39445
1.66465,0.129983,3.03,3.4596
1.67449,0.129983,3.03,3.46435
1.69933,0.131141,3.057,3.50002
1.72435,0.1323,3.084,3.53581
1.73436,0.1323,3.084,3.5407
1.76021,0.133501,3.112,3.57781
1.77031,0.133501,3.112,3.58279
1.78041,0.133501,3.112,3.58779
1.79051,0.133501,3.112,3.59281
1.78441,0.1323,3.084,3.56548
1.79442,0.1323,3.084,3.5705
1.80443,0.1323,3.084,3.57554
1.79855,0.131141,3.057,3.54926
1.80848,0.131141,3.057,3.5543
1.80234,0.129983,3.03,3.52792
1.79602,0.128825,3.003,3.50147
1.80577,0.128825,3.003,3.50648
1.7998,0.12771,2.977,3.48111
1.77846,0.125522,2.926,3.42639
1.78796,0.125522,2.926,3.43133
1.75261,0.12239,2.853,3.35056
1.73285,0.120374,2.806,3.30013
1.74196,0.120374,2.806,3.30493
1.72298,0.118443,2.761,3.25666
1.70434,0.116556,2.717,3.20943
1.71316,0.116556,2.717,3.21412
1.68205,0.113853,2.654,3.1442
1.65181,0.111236,2.593,3.07644
1.66022,0.111236,2.593,3.08097
1.64419,0.109606,2.555,3.04029
1.6279,0.107976,2.517,2.9995
1.62437,0.107204,2.499,2.98246
1.63248,0.107204,2.499,2.98689
1.62878,0.106432,2.481,2.96978
1.62495,0.10566,2.463,2.95263
1.63295,0.10566,2.463,2.95703
1.62895,0.104887,2.445,2.93981
1.6255,0.104158,2.428,2.92375
1.63339,0.104158,2.428,2.92814
1.62977,0.103429,2.411,2.91201
1.62605,0.1027,2.394,2.89583
-1.90013,0.126387,2.739,3.33596
-1.90643,0.127402,2.761,3.35765
-1.91259,0.128418,2.783,3.37929
-1.88851,0.127402,2.761,3.34751
-1.87955,0.127402,2.761,3.34246
-1.87059,0.127402,2.761,3.33743
-1.86163,0.127402,2.761,3.33242
-1.8379,0.126387,2.739,3.30091
-1.8003,0.124403,2.696,3.24422
-1.79155,0.124403,2.696,3.23937
-1.75502,0.122465,2.654,3.18415
-1.71943,0.120573,2.613,3.1303
-1.71095,0.120573,2.613,3.12565
-1.68944,0.11965,2.593,3.09712
-1.6687,0.118774,2.574,3.06988
-1.66035,0.118774,2.574,3.06535
-1.62761,0.11702,2.536,3.01564
-1.60724,0.116143,2.517,2.98865
-1.59907,0.116143,2.517,2.98426
-1.57953,0.115313,2.499,2.95858
-1.57142,0.115313,2.499,2.95426
-1.5633,0.115313,2.499,2.94995
-1.55519,0.115313,2.499,2.94566
-1.54708,0.115313,2.499,2.94139
-1.55006,0.116143,2.517,2.95829
-1.55353,0.11702,2.536,2.97631
-1.54529,0.11702,2.536,2.97202
-1.53706,0.11702,2.536,2.96775
-1.52883,0.11702,2.536,2.9635
-1.5206,0.11702,2.536,2.95926
-1.53503,0.118774,2.574,2.99932
-1.52668,0.118774,2.574,2.99505
-1.51832,0.118774,2.574,2.9908
-1.49882,0.117897,2.555,2.96452
-1.49053,0.117897,2.555,2.96034
-1.48224,0.117897,2.555,2.95617
-1.46298,0.11702,2.536,2.93007
-1.44385,0.116143,2.517,2.90405
-1.43568,0.116143,2.517,2.89999
-1.4173,0.115313,2.499,2.87525
-1.39904,0.114482,2.481,2.85058
-1.39099,0.114482,2.481,2.84663
-1.3729,0.113652,2.463,2.82208
-1.35493,0.112821,2.445,2.79761
-1.347,0.112821,2.445,2.79377
-1.33906,0.112821,2.445,2.78995
-1.33113,0.112821,2.445,2.78615
-1.31399,0.112037,2.428,2.76303
-1.30611,0.112037,2.428,2.75929
-1.29823,0.112037,2.428,2.75556
-1.29035,0.112037,2.428,2.75186
-1.29145,0.112821,2.445,2.76742
-1.28351,0.112821,2.445,2.76372
-1.27558,0.112821,2.445,2.76004
-1.26764,0.112821,2.445,2.75639
-1.2597,0.112821,2.445,2.75275
-1.25177,0.112821,2.445,2.74912
-1.24383,0.112821,2.445,2.74552
-1.2359,0.112821,2.445,2.74193
-1.22796,0.112821,2.445,2.73836
-1.22002,0.112821,2.445,2.73482
-1.21209,0.112821,2.445,2.73128
-1.20415,0.112821,2.445,2.72777
-1.1879,0.112037,2.428,2.70534
-1.18002,0.112037,2.428,2.70188
-1.17214,0.112037,2.428,2.69845
-1.15611,0.111252,2.411,2.67617
-1.14828,0.111252,2.411,2.6728
-1.14046,0.111252,2.411,2.66944
-1.12464,0.110468,2.394,2.64731
-1.11687,0.110468,2.394,2.64402
-1.1091,0.110468,2.394,2.64075
-1.09351,0.109683,2.377,2.61876
-1.0858,0.109683,2.377,2.61555
-1.07808,0.109683,2.377,2.61236
-1.07037,0.109683,2.377,2.60918
-1.06265,0.109683,2.377,2.60603
-1.04784,0.108945,2.361,2.58537
-1.04017,0.108945,2.361,2.58228
-1.03251,0.108945,2.361,2.5792
-1.02485,0.108945,2.361,2.57614
-1.01718,0.108945,2.361,2.5731
-1.00268,0.108207,2.345,2.55266
-0.995066,0.108207,2.345,2.54968
-0.987455,0.108207,2.345,2.54672
-0.979844,0.108207,2.345,2.54378
-0.972232,0.108207,2.345,2.54086
-0.964621,0.108207,2.345,2.53796
-0.95701,0.108207,2.345,2.53507
-0.949399,0.108207,2.345,2.53221
-0.941787,0.108207,2.345,2.52937
-0.934176,0.108207,2.345,2.52654
-0.926565,0.108207,2.345,2.52374
-0.918953,0.108207,2.345,2.52095
-0.911342,0.108207,2.345,2.51819
-0.903731,0.108207,2.345,2.51544
-0.89612,0.108207,2.345,2.51272
-0.894571,0.108945,2.361,2.52714
-0.886907,0.108945,2.361,2.52444
-0.879244,0.108945,2.361,2.52176
-0.871581,0.108945,2.361,2.5191
-0.869772,0.109683,2.377,2.53351
-0.862057,0.109683,2.377,2.53087
-0.854342,0.109683,2.377,2.52825
-0.846627,0.109683,2.377,2.52566
-0.838912,0.109683,2.377,2.52308
-0.831197,0.109683,2.377,2.52053
-0.829371,0.110468,2.394,2.536
-0.821601,0.110468,2.394,2.53347
-0.81383,0.110468,2.394,2.53096
-0.811784,0.111252,2.411,2.54643
-0.803958,0.111252,2.411,2.54394
-0.796133,0.111252,2.411,2.54148
-0.793866,0.112037,2.428,2.55694
-0.791488,0.112821,2.445,2.57239
-0.783552,0.112821,2.445,2.56996
-0.775616,0.112821,2.445,2.56755
-0.767681,0.112821,2.445,2.56517
-0.759745,0.112821,2.445,2.5628
-0.757344,0.113652,2.463,2.57931
-0.749349,0.113652,2.463,2.57698
-0.746773,0.114482,2.481,2.59348
-0.73872,0.114482,2.481,2.59117
-0.730668,0.114482,2.481,2.58889
-0.722615,0.114482,2.481,2.58663
-0.714562,0.114482,2.481,2.58439
-0.701384,0.113652,2.463,2.56344
-0.693389,0.113652,2.463,2.56126
-0.685395,0.113652,2.463,2.55911
-0.677401,0.113652,2.463,2.55698
-0.669406,0.113652,2.463,2.55488
-0.661412,0.113652,2.463,2.55279
-0.653418,0.113652,2.463,2.55073
-0.645424,0.113652,2.463,2.5487
-0.637429,0.113652,2.463,2.54668
-0.629435,0.113652,2.463,2.5447
-0.616899,0.112821,2.445,2.52415
-0.608963,0.112821,2.445,2.52222
-0.601027,0.112821,2.445,2.52032
-0.593092,0.112821,2.445,2.51843
-0.585156,0.112821,2.445,2.51658
-0.57722,0.112821,2.445,2.51474
-0.569284,0.112821,2.445,2.51293
-0.561348,0.112821,2.445,2.51115
-0.553412,0.112821,2.445,2.50939
-0.545476,0.112821,2.445,2.50765
-0.53754,0.112821,2.445,2.50593
-0.529605,0.112821,2.445,2.50424
-0.521669,0.112821,2.445,2.50258
-0.517515,0.113652,2.463,2.51935
-0.509521,0.113652,2.463,2.51772
-0.501526,0.113652,2.463,2.51611
-0.493532,0.113652,2.463,2.51453
-0.485538,0.113652,2.463,2.51297
-0.477544,0.113652,2.463,2.51144
-0.469549,0.113652,2.463,2.50993
-0.461555,0.113652,2.463,2.50845
-0.453561,0.113652,2.463,2.50699
-0.445566,0.113652,2.463,2.50556
-0.44077,0.114482,2.481,2.52245
-0.432717,0.114482,2.481,2.52105
-0.424665,0.114482,2.481,2.51968
-0.416612,0.114482,2.481,2.51834
-0.408559,0.114482,2.481,2.51702
-0.400506,0.114482,2.481,2.51573
-0.395301,0.115313,2.499,2.5327
-0.38719,0.115313,2.499,2.53145
-0.379079,0.115313,2.499,2.53022
-0.370968,0.115313,2.499,2.52901
-0.362857,0.115313,2.499,2.52784
-0.357301,0.116143,2.517,2.54489
-0.349131,0.116143,2.517,2.54375
-0.340961,0.116143,2.517,2.54264
-0.332792,0.116143,2.517,2.54156
-0.324622,0.116143,2.517,2.5405
-0.318842,0.11702,2.536,2.55864
-0.31061,0.11702,2.536,2.55763
-0.302379,0.11702,2.536,2.55664
-0.294148,0.11702,2.536,2.55568
-0.285917,0.11702,2.536,2.55475
-0.277685,0.11702,2.536,2.55384
-0.269454,0.11702,2.536,2.55296
-0.26318,0.117897,2.555,2.57122
-0.254887,0.117897,2.555,2.57039
-0.246594,0.117897,2.555,2.56958
-0.238301,0.117897,2.555,2.5688
-0.231719,0.118774,2.574,2.58714
-0.223364,0.118774,2.574,2.5864
-0.21501,0.118774,2.574,2.58569
-0.206655,0.118774,2.574,2.58501
-0.198301,0.118774,2.574,2.58436
-0.189946,0.118774,2.574,2.58373
-0.181592,0.118774,2.574,2.58313
-0.173237,0.118774,2.574,2.58256
-0.164882,0.118774,2.574,2.58201
-0.156528,0.118774,2.574,2.58149
-0.148173,0.118774,2.574,2.581
-0.139819,0.118774,2.574,2.58053
-0.130494,0.117897,2.555,2.56105
-0.122201,0.117897,2.555,2.56064
-0.113908,0.117897,2.555,2.56025
-0.105615,0.117897,2.555,2.5599
-0.0965985,0.11702,2.536,2.54054
-0.0883672,0.11702,2.536,2.54024
-0.080136,0.11702,2.536,2.53996
-0.0719048,0.11702,2.536,2.53972
-0.0636736,0.11702,2.536,2.5395
-0.055027,0.116143,2.517,2.52028
-0.0468574,0.116143,2.517,2.52011
-0.0386878,0.116143,2.517,2.51998
-0.0305183,0.116143,2.517,2.51986
-0.0221889,0.115313,2.499,2.50176
-0.0140778,0.115313,2.499,2.5017
-0.00596664,0.115313,2.499,2.50167
0.00214449,0.115313,2.499,2.50166
0.0102556,0.115313,2.499,2.50168
0.0183668,0.115313,2.499,2.50173
0.0264779,0.115313,2.499,2.5018
0.034589,0.115313,2.499,2.5019
0.0427002,0.115313,2.499,2.50202
0.0508113,0.115313,2.499,2.50218
0.0589224,0.115313,2.499,2.50235
0.0675164,0.116143,2.517,2.52058
0.075686,0.116143,2.517,2.52081
0.0838555,0.116143,2.517,2.52107
0.0920251,0.116143,2.517,2.52136
