-0.497139,-0.0867788,2.481,2.53181
-0.489086,-0.0867788,2.481,2.53024
-0.481034,-0.0867788,2.481,2.52869
-0.472981,-0.0867788,2.481,2.52717
-0.464928,-0.0867788,2.481,2.52568
-0.456875,-0.0867788,2.481,2.52421
-0.448823,-0.0867788,2.481,2.52276
-0.44077,-0.0867788,2.481,2.52134
-0.432717,-0.0867788,2.481,2.51995
-0.424665,-0.0867788,2.481,2.51858
-0.419634,-0.0874084,2.499,2.5355
-0.411523,-0.0874084,2.499,2.53417
-0.403412,-0.0874084,2.499,2.53286
-0.395301,-0.0874084,2.499,2.53158
-0.38719,-0.0874084,2.499,2.53033
-0.379079,-0.0874084,2.499,2.5291
-0.37364,-0.088038,2.517,2.5461
-0.36547,-0.088038,2.517,2.54492
-0.359998,-0.0887026,2.536,2.56296
-0.351766,-0.0887026,2.536,2.56182
-0.343535,-0.0887026,2.536,2.5607
-0.335304,-0.0887026,2.536,2.55961
-0.327073,-0.0887026,2.536,2.55854
-0.318842,-0.0887026,2.536,2.5575
-0.312937,-0.0893671,2.555,2.57564
-0.304645,-0.0893671,2.555,2.57465
-0.296352,-0.0893671,2.555,2.57368
-0.288059,-0.0893671,2.555,2.57274
-0.279766,-0.0893671,2.555,2.57182
-0.271473,-0.0893671,2.555,2.57094
-0.26318,-0.0893671,2.555,2.57007
-0.254887,-0.0893671,2.555,2.56924
-0.246594,-0.0893671,2.555,2.56843
-0.238301,-0.0893671,2.555,2.56764
-0.230009,-0.0893671,2.555,2.56689
-0.221716,-0.0893671,2.555,2.56616
-0.213423,-0.0893671,2.555,2.56546
-0.20513,-0.0893671,2.555,2.56478
-0.196837,-0.0893671,2.555,2.56413
-0.189946,-0.0900317,2.574,2.58257
-0.181592,-0.0900317,2.574,2.58197
-0.173237,-0.0900317,2.574,2.58139
-0.163665,-0.0893671,2.555,2.5618
-0.154217,-0.0887026,2.536,2.54223
-0.145986,-0.0887026,2.536,2.54175
-0.137755,-0.0887026,2.536,2.54129
-0.129523,-0.0887026,2.536,2.54085
-0.121292,-0.0887026,2.536,2.54045
-0.113061,-0.0887026,2.536,2.54007
-0.10483,-0.0887026,2.536,2.53972
-0.0965985,-0.0887026,2.536,2.53939
-0.0883672,-0.0887026,2.536,2.53909
-0.080136,-0.0887026,2.536,2.53882
-0.0719048,-0.0887026,2.536,2.53857
-0.0641506,-0.0893671,2.555,2.55737
-0.0558577,-0.0893671,2.555,2.55717
-0.0475648,-0.0893671,2.555,2.557
-0.039564,-0.0900317,2.574,2.57588
-0.0312094,-0.0900317,2.574,2.57576
-0.0230235,-0.0906963,2.593,2.59469
-0.0146073,-0.0906963,2.593,2.59463
-0.00619107,-0.0906963,2.593,2.59459
0.00224232,-0.0913958,2.613,2.6146
0.0107235,-0.0913958,2.613,2.61462
0.0192046,-0.0913958,2.613,2.61467
0.0274739,-0.0906963,2.593,2.59473
0.0356271,-0.0900317,2.574,2.57582
0.0439817,-0.0900317,2.574,2.57595
0.0519499,-0.0893671,2.555,2.55709
0.0602428,-0.0893671,2.555,2.55727
0.0685357,-0.0893671,2.555,2.55748
0.0768286,-0.0893671,2.555,2.55772
0.0844885,-0.0887026,2.536,2.53896
0.0927197,-0.0887026,2.536,2.53924
0.100951,-0.0887026,2.536,2.53956
0.109182,-0.0887026,2.536,2.5399
0.117413,-0.0887026,2.536,2.54027
0.125645,-0.0887026,2.536,2.54066
0.133876,-0.0887026,2.536,2.54108
0.142107,-0.0887026,2.536,2.54153
0.151465,-0.0893671,2.555,2.56105
0.159758,-0.0893671,2.555,2.56155
0.16805,-0.0893671,2.555,2.56208
0.176343,-0.0893671,2.555,2.56264
0.184636,-0.0893671,2.555,2.56322
0.194364,-0.0900317,2.574,2.5829
0.202718,-0.0900317,2.574,2.58354
0.211073,-0.0900317,2.574,2.58421
0.219428,-0.0900317,2.574,2.5849
0.227782,-0.0900317,2.574,2.58563
0.236137,-0.0900317,2.574,2.58638
0.244491,-0.0900317,2.574,2.58715
0.252846,-0.0900317,2.574,2.58796
0.2612,-0.0900317,2.574,2.58878
0.269555,-0.0900317,2.574,2.58964
0.27791,-0.0900317,2.574,2.59052
0.286264,-0.0900317,2.574,2.59143
0.294619,-0.0900317,2.574,2.59237
0.300737,-0.0893671,2.555,2.57419
0.30903,-0.0893671,2.555,2.57517
0.317323,-0.0893671,2.555,2.57618
0.325615,-0.0893671,2.555,2.57721
0.331425,-0.0887026,2.536,2.5591
0.339657,-0.0887026,2.536,2.56018
0.347888,-0.0887026,2.536,2.56129
0.356119,-0.0887026,2.536,2.56242
0.36435,-0.0887026,2.536,2.56357
0.372581,-0.0887026,2.536,2.56476
0.380813,-0.0887026,2.536,2.56597
0.389044,-0.0887026,2.536,2.5672
0.397275,-0.0887026,2.536,2.56846
0.405506,-0.0887026,2.536,2.56975
0.410638,-0.088038,2.517,2.5518
0.418807,-0.088038,2.517,2.55312
0.426977,-0.088038,2.517,2.55448
0.435146,-0.088038,2.517,2.55585
0.443316,-0.088038,2.517,2.55726
0.448257,-0.0874084,2.499,2.54039
0.456368,-0.0874084,2.499,2.54183
0.464479,-0.0874084,2.499,2.5433
0.47259,-0.0874084,2.499,2.5448
0.480701,-0.0874084,2.499,2.54631
0.488812,-0.0874084,2.499,2.54786
0.496924,-0.0874084,2.499,2.54943
0.508672,-0.088038,2.517,2.56939
0.516842,-0.088038,2.517,2.57102
0.525012,-0.088038,2.517,2.57268
0.533181,-0.088038,2.517,2.57436
0.545437,-0.0887026,2.536,2.59551
0.553668,-0.0887026,2.536,2.59725
0.5619,-0.0887026,2.536,2.59902
0.574402,-0.0893671,2.555,2.6203
0.587028,-0.0900317,2.574,2.64163
0.590988,-0.0893671,2.555,2.62398
0.599281,-0.0893671,2.555,2.62586
0.612092,-0.0900317,2.574,2.64731
0.620447,-0.0900317,2.574,2.64925
0.62416,-0.0893671,2.555,2.63165
0.632453,-0.0893671,2.555,2.63363
0.640746,-0.0893671,2.555,2.63563
0.649038,-0.0893671,2.555,2.63766
0.657331,-0.0893671,2.555,2.63972
0.665624,-0.0893671,2.555,2.64179
0.673917,-0.0893671,2.555,2.64389
0.68221,-0.0893671,2.555,2.64602
0.690503,-0.0893671,2.555,2.64817
0.698796,-0.0893671,2.555,2.65034
0.707089,-0.0893671,2.555,2.65254
0.715382,-0.0893671,2.555,2.65477
0.723674,-0.0893671,2.555,2.65701
0.731967,-0.0893671,2.555,2.65928
0.74026,-0.0893671,2.555,2.66158
0.748553,-0.0893671,2.555,2.6639
0.751218,-0.0887026,2.536,2.64641
0.759449,-0.0887026,2.536,2.64876
0.76768,-0.0887026,2.536,2.65113
0.775912,-0.0887026,2.536,2.65353
0.784143,-0.0887026,2.536,2.65595
0.798311,-0.0893671,2.555,2.6783
0.806603,-0.0893671,2.555,2.68079
0.814896,-0.0893671,2.555,2.68329
0.829311,-0.0900317,2.574,2.7058
0.837665,-0.0900317,2.574,2.70837
0.84602,-0.0900317,2.574,2.71097
0.854374,-0.0900317,2.574,2.71358
0.862729,-0.0900317,2.574,2.71623
0.871084,-0.0900317,2.574,2.71889
0.879438,-0.0900317,2.574,2.72158
0.887793,-0.0900317,2.574,2.72429
0.896147,-0.0900317,2.574,2.72702
0.897825,-0.0893671,2.555,2.70963
0.906118,-0.0893671,2.555,2.71239
0.907611,-0.0887026,2.536,2.69498
0.908981,-0.088038,2.517,2.67755
0.91715,-0.088038,2.517,2.68034
0.92532,-0.088038,2.517,2.68314
0.926814,-0.0874084,2.499,2.66676
0.934925,-0.0874084,2.499,2.66959
0.943036,-0.0874084,2.499,2.67244
0.937445,-0.0861492,2.463,2.63678
0.945439,-0.0861492,2.463,2.63963
0.953434,-0.0861492,2.463,2.6425
0.954402,-0.0855196,2.445,2.62607
0.955646,-0.084925,2.428,2.61068
0.963527,-0.084925,2.428,2.61358
0.971408,-0.084925,2.428,2.61649
0.979289,-0.084925,2.428,2.61943
0.994081,-0.0855196,2.445,2.64075
1.00202,-0.0855196,2.445,2.64374
1.01739,-0.0861492,2.463,2.66625
1.04037,-0.0874084,2.499,2.70832
1.07198,-0.0893671,2.555,2.77221
1.08027,-0.0893671,2.555,2.77543
1.10475,-0.0906963,2.593,2.81999
1.14837,-0.0935644,2.675,2.91258
1.15705,-0.0935644,2.675,2.91602
1.20321,-0.0965725,2.761,3.01333
1.25257,-0.0997904,2.853,3.11745
1.29411,-0.102344,2.926,3.20104
1.30361,-0.102344,2.926,3.20489
1.34766,-0.105037,3.003,3.29321
1.38182,-0.106926,3.057,3.3565
1.39174,-0.106926,3.057,3.3606
1.42688,-0.10885,3.112,3.42526
1.45037,-0.109864,3.141,3.46143
1.47405,-0.110878,3.17,3.49772
1.47076,-0.109864,3.141,3.47003
1.48096,-0.109864,3.141,3.47436
1.49115,-0.109864,3.141,3.47872
1.50135,-0.109864,3.141,3.4831
1.51154,-0.109864,3.141,3.48751
1.52174,-0.109864,3.141,3.49194
1.53193,-0.109864,3.141,3.49639
1.52789,-0.10885,3.112,3.46855
1.53799,-0.10885,3.112,3.47301
1.54809,-0.10885,3.112,3.4775
1.54417,-0.10787,3.084,3.45067
1.55418,-0.10787,3.084,3.45517
1.56419,-0.10787,3.084,3.45968
1.5742,-0.10787,3.084,3.46422
1.59859,-0.10885,3.112,3.50027
1.62369,-0.109864,3.141,3.53756
1.63388,-0.109864,3.141,3.54225
1.65925,-0.110878,3.17,3.57971
1.66954,-0.110878,3.17,3.58449
1.67983,-0.110878,3.17,3.58929
1.70558,-0.111893,3.199,3.627
1.7326,-0.112977,3.23,3.66709
1.74308,-0.112977,3.23,3.67206
1.75356,-0.112977,3.23,3.67704
1.78043,-0.114026,3.26,3.71625
1.79101,-0.114026,3.26,3.72133
1.80159,-0.114026,3.26,3.72644
1.7955,-0.112977,3.23,3.69723
1.80598,-0.112977,3.23,3.70233
1.81647,-0.112977,3.23,3.70745
1.80941,-0.111893,3.199,3.67697
1.8198,-0.111893,3.199,3.68209
1.81359,-0.110878,3.17,3.65381
1.80719,-0.109864,3.141,3.62545
1.81739,-0.109864,3.141,3.63054
1.82758,-0.109864,3.141,3.63566
1.83778,-0.109864,3.141,3.64079
1.83091,-0.10885,3.112,3.61229
1.84101,-0.10885,3.112,3.61742
1.85111,-0.10885,3.112,3.62257
1.84447,-0.10787,3.084,3.5951
1.85448,-0.10787,3.084,3.60025
1.86449,-0.10787,3.084,3.60541
1.85809,-0.106926,3.057,3.57899
1.86801,-0.106926,3.057,3.58415
1.87793,-0.106926,3.057,3.58933
1.85451,-0.105037,3.003,3.53104
1.86425,-0.105037,3.003,3.53617
1.85777,-0.104128,2.977,3.51066
1.85113,-0.103218,2.951,3.48507
1.86071,-0.103218,2.951,3.49017
1.85444,-0.102344,2.926,3.46567
1.83272,-0.10063,2.877,3.41264
1.82669,-0.0997904,2.853,3.38916
1.83595,-0.0997904,2.853,3.39416
1.81482,-0.0981465,2.806,3.34318
1.79467,-0.0965725,2.761,3.29443
1.80364,-0.0965725,2.761,3.29933
1.76992,-0.0942989,2.696,3.22644
1.75097,-0.0928299,2.654,3.18091
1.75958,-0.0928299,2.654,3.18566
1.74088,-0.0913958,2.613,3.14114
1.72325,-0.0900317,2.574,3.0989
1.7316,-0.0900317,2.574,3.10355
1.71427,-0.0887026,2.536,3.06233
1.7096,-0.088038,2.517,3.04397
-1.9154,-0.0876135,2.761,3.36148
-1.89124,-0.0869154,2.739,3.32964
-1.88235,-0.0869154,2.739,3.32459
-1.85842,-0.0862172,2.717,3.29291
-1.8353,-0.0855509,2.696,3.26252
-1.82655,-0.0855509,2.696,3.25761
-1.80364,-0.0848845,2.675,3.22738
-1.79496,-0.0848845,2.675,3.22253
-1.78628,-0.0848845,2.675,3.2177
-1.77759,-0.0848845,2.675,3.21289
-1.76891,-0.0848845,2.675,3.2081
-1.76023,-0.0848845,2.675,3.20332
-1.75155,-0.0848845,2.675,3.19855
-1.74286,-0.0848845,2.675,3.19381
-1.73418,-0.0848845,2.675,3.18908
-1.73905,-0.0855509,2.696,3.20936
-1.73029,-0.0855509,2.696,3.20463
-1.73495,-0.0862172,2.717,3.22484
-1.75409,-0.0876135,2.761,3.27225
-1.74513,-0.0876135,2.761,3.26746
-1.76446,-0.0890414,2.806,3.31585
-1.76974,-0.0897713,2.829,3.33816
-1.7755,-0.0905329,2.853,3.36158
-1.76624,-0.0905329,2.853,3.35669
-1.77176,-0.0912945,2.877,3.38003
-1.76242,-0.0912945,2.877,3.37514
-1.75308,-0.0912945,2.877,3.37028
-1.75829,-0.092056,2.901,3.3935
-1.76394,-0.0928493,2.926,3.41783
-1.75445,-0.0928493,2.926,3.41294
-1.74495,-0.0928493,2.926,3.40807
-1.73545,-0.0928493,2.926,3.40322
-1.72596,-0.0928493,2.926,3.39839
-1.70179,-0.092056,2.901,3.36458
-1.69238,-0.092056,2.901,3.35982
-1.68296,-0.092056,2.901,3.35509
-1.67355,-0.092056,2.901,3.35038
nan,nan,nan,NaN
nan,nan,nan,NaN
nan,nan,nan,NaN
nan,nan,nan,NaN
nan,nan,nan,NaN
nan,nan,nan,NaN
nan,nan,nan,NaN
nan,nan,nan,NaN
nan,nan,nan,NaN
nan,nan,nan,NaN
nan,nan,nan,NaN
nan,nan,nan,NaN
nan,nan,nan,NaN
nan,nan,nan,NaN
nan,nan,nan,NaN
nan,nan,nan,NaN
nan,nan,nan,NaN
nan,nan,nan,NaN
nan,nan,nan,NaN
nan,nan,nan,NaN
nan,nan,nan,NaN
nan,nan,nan,NaN
nan,nan,nan,NaN
nan,nan,nan,NaN
nan,nan,nan,NaN
nan,nan,nan,NaN
-1.20502,-0.0781572,2.463,2.74309
-1.19703,-0.0781572,2.463,2.73959
-1.18035,-0.077586,2.445,2.71611
-1.16426,-0.0770466,2.428,2.69381
-1.15638,-0.0770466,2.428,2.69041
-1.14046,-0.0765071,2.411,2.66822
-1.13263,-0.0765071,2.411,2.66489
-1.1248,-0.0765071,2.411,2.66157
-1.1091,-0.0759676,2.394,2.63953
-1.10133,-0.0759676,2.394,2.63627
-1.09356,-0.0759676,2.394,2.63304
-1.08579,-0.0759676,2.394,2.62982
-1.07802,-0.0759676,2.394,2.62662
-1.06265,-0.0754282,2.377,2.60481
-1.05494,-0.0754282,2.377,2.60167
-1.04722,-0.0754282,2.377,2.59856
-1.03951,-0.0754282,2.377,2.59546
-1.03179,-0.0754282,2.377,2.59238
-1.01718,-0.0749205,2.361,2.57189
-1.00952,-0.0749205,2.361,2.56886
-1.00186,-0.0749205,2.361,2.56586
-0.994193,-0.0749205,2.361,2.56288
-0.986529,-0.0749205,2.361,2.55992
-0.978866,-0.0749205,2.361,2.55697
-0.971203,-0.0749205,2.361,2.55405
-0.96354,-0.0749205,2.361,2.55115
-0.955876,-0.0749205,2.361,2.54826
-0.948213,-0.0749205,2.361,2.5454
-0.94055,-0.0749205,2.361,2.54255
-0.932887,-0.0749205,2.361,2.53973
-0.925224,-0.0749205,2.361,2.53692
-0.91756,-0.0749205,2.361,2.53414
-0.909897,-0.0749205,2.361,2.53137
-0.902234,-0.0749205,2.361,2.52863
-0.894571,-0.0749205,2.361,2.5259
-0.886907,-0.0749205,2.361,2.5232
-0.879244,-0.0749205,2.361,2.52052
-0.877488,-0.0754282,2.377,2.53492
-0.869772,-0.0754282,2.377,2.53226
-0.862057,-0.0754282,2.377,2.52962
-0.854342,-0.0754282,2.377,2.527
-0.846627,-0.0754282,2.377,2.5244
-0.838912,-0.0754282,2.377,2.52182
-0.831197,-0.0754282,2.377,2.51927
-0.823481,-0.0754282,2.377,2.51673
-0.815766,-0.0754282,2.377,2.51422
-0.808051,-0.0754282,2.377,2.51173
-0.80606,-0.0759676,2.394,2.5272
-0.79829,-0.0759676,2.394,2.52473
-0.790519,-0.0759676,2.394,2.52229
-0.788307,-0.0765071,2.411,2.53776
-0.774979,-0.0759676,2.394,2.51746
-0.767208,-0.0759676,2.394,2.51508
-0.759438,-0.0759676,2.394,2.51272
-0.751668,-0.0759676,2.394,2.51038
-0.743897,-0.0759676,2.394,2.50806
-0.736127,-0.0759676,2.394,2.50577
-0.733529,-0.0765071,2.411,2.52128
-0.725703,-0.0765071,2.411,2.51901
-0.717878,-0.0765071,2.411,2.51677
-0.710052,-0.0765071,2.411,2.51455
-0.702227,-0.0765071,2.411,2.51235
-0.694401,-0.0765071,2.411,2.51017
-0.686576,-0.0765071,2.411,2.50802
-0.67875,-0.0765071,2.411,2.50589
-0.670925,-0.0765071,2.411,2.50378
-0.663099,-0.0765071,2.411,2.50169
-0.659894,-0.0770466,2.428,2.51726
-0.652013,-0.0770466,2.428,2.5152
-0.644133,-0.0770466,2.428,2.51317
-0.640707,-0.077586,2.445,2.52874
-0.632771,-0.077586,2.445,2.52675
-0.624835,-0.077586,2.445,2.52477
-0.616899,-0.077586,2.445,2.52282
-0.613446,-0.0781572,2.463,2.53945
-0.605452,-0.0781572,2.463,2.53753
-0.597458,-0.0781572,2.463,2.53563
-0.593771,-0.0787284,2.481,2.55228
-0.585719,-0.0787284,2.481,2.55042
-0.577666,-0.0787284,2.481,2.54858
-0.569613,-0.0787284,2.481,2.54677
-0.561561,-0.0787284,2.481,2.54498
-0.553508,-0.0787284,2.481,2.54321
-0.545455,-0.0787284,2.481,2.54147
-0.537403,-0.0787284,2.481,2.53976
-0.52935,-0.0787284,2.481,2.53806
-0.525079,-0.0792996,2.499,2.5548
-0.516968,-0.0792996,2.499,2.55314
-0.505192,-0.0787284,2.481,2.53314
-0.497139,-0.0787284,2.481,2.53154
-0.489086,-0.0787284,2.481,2.52997
-0.481034,-0.0787284,2.481,2.52843
-0.472981,-0.0787284,2.481,2.52691
-0.464928,-0.0787284,2.481,2.52541
-0.456875,-0.0787284,2.481,2.52394
-0.448823,-0.0787284,2.481,2.5225
-0.44077,-0.0787284,2.481,2.52108
-0.432717,-0.0787284,2.481,2.51968
-0.424665,-0.0787284,2.481,2.51831
-0.419634,-0.0792996,2.499,2.53523
-0.411523,-0.0792996,2.499,2.5339
-0.403412,-0.0792996,2.499,2.53259
-0.395301,-0.0792996,2.499,2.53131
-0.38719,-0.0792996,2.499,2.53006
-0.379079,-0.0792996,2.499,2.52883
-0.37364,-0.0798707,2.517,2.54584
-0.36547,-0.0798707,2.517,2.54465
-0.357301,-0.0798707,2.517,2.54349
-0.349131,-0.0798707,2.517,2.54235
-0.340961,-0.0798707,2.517,2.54124
-0.335304,-0.0804737,2.536,2.55934
-0.327073,-0.0804737,2.536,2.55827
-0.318842,-0.0804737,2.536,2.55723
-0.31061,-0.0804737,2.536,2.55622
-0.302379,-0.0804737,2.536,2.55523
-0.294148,-0.0804737,2.536,2.55427
-0.285917,-0.0804737,2.536,2.55334
-0.277685,-0.0804737,2.536,2.55243
-0.271473,-0.0810766,2.555,2.57066
-0.26318,-0.0810766,2.555,2.5698
-0.254887,-0.0810766,2.555,2.56896
-0.246594,-0.0810766,2.555,2.56815
-0.238301,-0.0810766,2.555,2.56737
-0.230009,-0.0810766,2.555,2.56661
-0.221716,-0.0810766,2.555,2.56588
-0.213423,-0.0810766,2.555,2.56518
-0.20513,-0.0810766,2.555,2.5645
-0.196837,-0.0810766,2.555,2.56385
-0.189946,-0.0816795,2.574,2.58229
-0.180251,-0.0810766,2.555,2.56263
-0.171958,-0.0810766,2.555,2.56206
-0.163665,-0.0810766,2.555,2.56152
-0.154217,-0.0804737,2.536,2.54196
-0.145986,-0.0804737,2.536,2.54147
-0.137755,-0.0804737,2.536,2.54101
-0.129523,-0.0804737,2.536,2.54058
-0.121292,-0.0804737,2.536,2.54017
-0.113061,-0.0804737,2.536,2.53979
-0.10483,-0.0804737,2.536,2.53944
-0.0965985,-0.0804737,2.536,2.53911
-0.0883672,-0.0804737,2.536,2.53881
-0.080136,-0.0804737,2.536,2.53854
-0.0719048,-0.0804737,2.536,2.5383
-0.0641506,-0.0810766,2.555,2.55709
-0.0558577,-0.0810766,2.555,2.5569
-0.0475648,-0.0810766,2.555,2.55673
-0.039564,-0.0816795,2.574,2.5756
-0.0312094,-0.0816795,2.574,2.57548
-0.0228548,-0.0816795,2.574,2.5754
-0.0146073,-0.0822824,2.593,2.59435
-0.00619107,-0.0822824,2.593,2.59431
0.00222516,-0.0822824,2.593,2.59431
0.0106414,-0.0822824,2.593,2.59433
0.0190576,-0.0822824,2.593,2.59438
0.0272725,-0.0816795,2.574,2.57544
0.0356271,-0.0816795,2.574,2.57554
0.0439817,-0.0816795,2.574,2.57567
0.0519499,-0.0810766,2.555,2.55681
0.0602428,-0.0810766,2.555,2.557
0.0685357,-0.0810766,2.555,2.5572
0.0768286,-0.0810766,2.555,2.55744
0.0844885,-0.0804737,2.536,2.53868
0.0927197,-0.0804737,2.536,2.53897
0.100951,-0.0804737,2.536,2.53928
0.109182,-0.0804737,2.536,2.53962
0.117413,-0.0804737,2.536,2.53999
0.125645,-0.0804737,2.536,2.54039
0.133876,-0.0804737,2.536,2.54081
0.142107,-0.0804737,2.536,2.54125
0.151465,-0.0810766,2.555,2.56077
0.159758,-0.0810766,2.555,2.56127
0.16805,-0.0810766,2.555,2.5618
0.176343,-0.0810766,2.555,2.56236
0.184636,-0.0810766,2.555,2.56295
0.194364,-0.0816795,2.574,2.58262
0.202718,-0.0816795,2.574,2.58326
0.211073,-0.0816795,2.574,2.58393
0.219428,-0.0816795,2.574,2.58463
0.227782,-0.0816795,2.574,2.58535
0.236137,-0.0816795,2.574,2.5861
0.244491,-0.0816795,2.574,2.58688
0.252846,-0.0816795,2.574,2.58768
0.2612,-0.0816795,2.574,2.58851
0.269555,-0.0816795,2.574,2.58936
0.27791,-0.0816795,2.574,2.59025
0.286264,-0.0816795,2.574,2.59116
0.294619,-0.0816795,2.574,2.59209
0.300737,-0.0810766,2.555,2.57392
0.30903,-0.0810766,2.555,2.5749
0.317323,-0.0810766,2.555,2.57591
0.325615,-0.0810766,2.555,2.57694
0.331425,-0.0804737,2.536,2.55883
0.339657,-0.0804737,2.536,2.55991
0.347888,-0.0804737,2.536,2.56101
0.356119,-0.0804737,2.536,2.56215
0.36435,-0.0804737,2.536,2.5633
0.372581,-0.0804737,2.536,2.56449
0.380813,-0.0804737,2.536,2.56569
0.389044,-0.0804737,2.536,2.56693
0.397275,-0.0804737,2.536,2.56819
0.405506,-0.0804737,2.536,2.56948
0.410638,-0.0798707,2.517,2.55153
0.418807,-0.0798707,2.517,2.55286
0.426977,-0.0798707,2.517,2.55421
0.435146,-0.0798707,2.517,2.55559
0.443316,-0.0798707,2.517,2.55699
0.451486,-0.0798707,2.517,2.55842
0.456368,-0.0792996,2.499,2.54157
0.464479,-0.0792996,2.499,2.54304
0.47259,-0.0792996,2.499,2.54453
0.484164,-0.0798707,2.517,2.56439
0.492333,-0.0798707,2.517,2.56594
0.500503,-0.0798707,2.517,2.56752
0.508672,-0.0798707,2.517,2.56913
0.516842,-0.0798707,2.517,2.57076
0.525012,-0.0798707,2.517,2.57241
0.533181,-0.0798707,2.517,2.57409
0.545437,-0.0804737,2.536,2.59524
0.553668,-0.0804737,2.536,2.59698
0.5619,-0.0804737,2.536,2.59875
0.574402,-0.0810766,2.555,2.62003
0.582695,-0.0810766,2.555,2.62186
0.590988,-0.0810766,2.555,2.62371
0.599281,-0.0810766,2.555,2.62559
0.607574,-0.0810766,2.555,2.6275
0.615867,-0.0810766,2.555,2.62943
0.619518,-0.0804737,2.536,2.61181
0.627749,-0.0804737,2.536,2.61378
0.635981,-0.0804737,2.536,2.61577
0.644212,-0.0804737,2.536,2.61778
0.657331,-0.0810766,2.555,2.63945
0.665624,-0.0810766,2.555,2.64153
0.673917,-0.0810766,2.555,2.64363
0.68221,-0.0810766,2.555,2.64575
0.690503,-0.0810766,2.555,2.6479
0.698796,-0.0810766,2.555,2.65008
0.707089,-0.0810766,2.555,2.65228
0.715382,-0.0810766,2.555,2.6545
0.723674,-0.0810766,2.555,2.65675
0.731967,-0.0810766,2.555,2.65902
0.74026,-0.0810766,2.555,2.66131
0.748553,-0.0810766,2.555,2.66363
0.751218,-0.0804737,2.536,2.64615
0.759449,-0.0804737,2.536,2.6485
0.76768,-0.0804737,2.536,2.65087
0.775912,-0.0804737,2.536,2.65326
0.784143,-0.0804737,2.536,2.65568
0.798311,-0.0810766,2.555,2.67804
0.806603,-0.0810766,2.555,2.68052
0.814896,-0.0810766,2.555,2.68303
0.829311,-0.0816795,2.574,2.70553
0.837665,-0.0816795,2.574,2.7081
0.84602,-0.0816795,2.574,2.7107
0.854374,-0.0816795,2.574,2.71332
0.862729,-0.0816795,2.574,2.71596
0.871084,-0.0816795,2.574,2.71863
0.879438,-0.0816795,2.574,2.72132
0.887793,-0.0816795,2.574,2.72403
0.896147,-0.0816795,2.574,2.72676
0.897825,-0.0810766,2.555,2.70937
0.906118,-0.0810766,2.555,2.71213
0.907611,-0.0804737,2.536,2.69472
0.908981,-0.0798707,2.517,2.6773
0.91715,-0.0798707,2.517,2.68008
0.92532,-0.0798707,2.517,2.68289
0.926814,-0.0792996,2.499,2.66651
0.928191,-0.0787284,2.481,2.65011
0.936243,-0.0787284,2.481,2.65294
0.937445,-0.0781572,2.463,2.63653
0.93853,-0.077586,2.445,2.62009
0.946466,-0.077586,2.445,2.62295
0.954402,-0.077586,2.445,2.62582
0.955646,-0.0770466,2.428,2.61044
0.963527,-0.0770466,2.428,2.61333
0.971408,-0.0770466,2.428,2.61625
0.979289,-0.0770466,2.428,2.61918
0.994081,-0.077586,2.445,2.6405
1.00202,-0.077586,2.445,2.6435
1.01739,-0.0781572,2.463,2.666
1.04786,-0.0798707,2.517,2.72758
1.07198,-0.0810766,2.555,2.77195
1.08027,-0.0810766,2.555,2.77517
1.10475,-0.0822824,2.593,2.81973
1.14837,-0.0848845,2.675,2.91232
1.15705,-0.0848845,2.675,2.91575
1.20321,-0.0876135,2.761,3.01306
1.25257,-0.0905329,2.853,3.11717
1.29411,-0.0928493,2.926,3.20075
1.30361,-0.0928493,2.926,3.20461
1.34766,-0.0952927,3.003,3.29291
1.39402,-0.0978631,3.084,3.38584
1.40403,-0.0978631,3.084,3.38998
1.42688,-0.0987516,3.112,3.42495
1.45037,-0.0996718,3.141,3.46113
1.46057,-0.0996718,3.141,3.46541
1.47076,-0.0996718,3.141,3.46972
1.48096,-0.0996718,3.141,3.47405
1.49115,-0.0996718,3.141,3.47841
1.50135,-0.0996718,3.141,3.48279
1.51154,-0.0996718,3.141,3.4872
1.52174,-0.0996718,3.141,3.49163
1.53193,-0.0996718,3.141,3.49609
1.52789,-0.0987516,3.112,3.46825
1.53799,-0.0987516,3.112,3.47271
1.54809,-0.0987516,3.112,3.47719
1.54417,-0.0978631,3.084,3.45038
1.54057,-0.0970063,3.057,3.42462
1.5505,-0.0970063,3.057,3.4291
1.56042,-0.0970063,3.057,3.43359
1.58421,-0.0978631,3.084,3.46848
1.60869,-0.0987516,3.112,3.5046
1.6188,-0.0987516,3.112,3.50924
1.64408,-0.0996718,3.141,3.54666
1.65427,-0.0996718,3.141,3.5514
1.66447,-0.0996718,3.141,3.55616
1.67466,-0.0996718,3.141,3.56094
1.71597,-0.101512,3.199,3.63159
1.72635,-0.101512,3.199,3.63651
1.73673,-0.101512,3.199,3.64145
1.76405,-0.102496,3.23,3.68175
1.77453,-0.102496,3.23,3.68678
1.76788,-0.101512,3.199,3.65641
1.77827,-0.101512,3.199,3.66144
1.78865,-0.101512,3.199,3.66649
1.78272,-0.100592,3.17,3.63829
1.77661,-0.0996718,3.141,3.61001
1.7868,-0.0996718,3.141,3.61504
1.78041,-0.0987516,3.112,3.58666
1.7744,-0.0978631,3.084,3.55937
1.78441,-0.0978631,3.084,3.56437
1.79442,-0.0978631,3.084,3.56939
1.80443,-0.0978631,3.084,3.57444
1.79855,-0.0970063,3.057,3.54816
1.80848,-0.0970063,3.057,3.5532
1.8184,-0.0970063,3.057,3.55826
1.82832,-0.0970063,3.057,3.56334
1.83824,-0.0970063,3.057,3.56844
1.83184,-0.0961495,3.03,3.542
1.84168,-0.0961495,3.03,3.5471
1.85151,-0.0961495,3.03,3.55222
1.86134,-0.0961495,3.03,3.55735
1.85451,-0.0952927,3.003,3.53076
1.86425,-0.0952927,3.003,3.53589
1.85777,-0.0944677,2.977,3.51038
1.85113,-0.0936427,2.951,3.4848
1.86071,-0.0936427,2.951,3.4899
1.85444,-0.0928493,2.926,3.46541
1.83272,-0.0912945,2.877,3.41238
1.82669,-0.0905329,2.853,3.3889
1.83595,-0.0905329,2.853,3.3939
1.81482,-0.0890414,2.806,3.34292
1.79467,-0.0876135,2.761,3.29418
1.80364,-0.0876135,2.761,3.29908
1.76992,-0.0855509,2.696,3.2262
1.75097,-0.0842181,2.654,3.18067
1.75958,-0.0842181,2.654,3.18542
1.74088,-0.0829171,2.613,3.14091
1.72325,-0.0816795,2.574,3.09867
1.7316,-0.0816795,2.574,3.10332
1.71427,-0.0804737,2.536,3.06211
1.7096,-0.0798707,2.517,3.04375
-1.9154,-0.0786545,2.761,3.36126
-1.89124,-0.0780278,2.739,3.32942
-1.88235,-0.0780278,2.739,3.32437
-1.85842,-0.077401,2.717,3.29269
-1.8353,-0.0768028,2.696,3.26231
-1.82655,-0.0768028,2.696,3.25739
-1.80364,-0.0762045,2.675,3.22716
-1.79496,-0.0762045,2.675,3.22231
-1.78628,-0.0762045,2.675,3.21749
-1.77759,-0.0762045,2.675,3.21267
-1.76891,-0.0762045,2.675,3.20788
-1.76023,-0.0762045,2.675,3.2031
-1.75155,-0.0762045,2.675,3.19834
-1.74286,-0.0762045,2.675,3.19359
-1.73418,-0.0762045,2.675,3.18886
-1.73905,-0.0768028,2.696,3.20914
-1.73029,-0.0768028,2.696,3.20441
-1.73495,-0.077401,2.717,3.22462
-1.75409,-0.0786545,2.761,3.27202
-1.74513,-0.0786545,2.761,3.26723
-1.76446,-0.0799364,2.806,3.31562
-1.76974,-0.0805916,2.829,3.33792
-1.7755,-0.0812754,2.853,3.36134
-1.76624,-0.0812754,2.853,3.35646
-1.77176,-0.0819591,2.877,3.37979
-1.76242,-0.0819591,2.877,3.3749
-1.75308,-0.0819591,2.877,3.37004
-1.75829,-0.0826428,2.901,3.39326
-1.76394,-0.0833549,2.926,3.41759
-1.75445,-0.0833549,2.926,3.4127
-1.74495,-0.0833549,2.926,3.40783
-1.72062,-0.0826428,2.901,3.3739
-1.71121,-0.0826428,2.901,3.3691
-1.68771,-0.0819591,2.877,3.3365
-1.66438,-0.0812754,2.853,3.30399
-1.65511,-0.0812754,2.853,3.29934
-1.64585,-0.0812754,2.853,3.2947
-1.63659,-0.0812754,2.853,3.29008
nan,nan,nan,NaN
nan,nan,nan,NaN
nan,nan,nan,NaN
nan,nan,nan,NaN
nan,nan,nan,NaN
nan,nan,nan,NaN
nan,nan,nan,NaN
nan,nan,nan,NaN
nan,nan,nan,NaN
nan,nan,nan,NaN
nan,nan,nan,NaN
nan,nan,nan,NaN
nan,nan,nan,NaN
nan,nan,nan,NaN
nan,nan,nan,NaN
nan,nan,nan,NaN
nan,nan,nan,NaN
nan,nan,nan,NaN
nan,nan,nan,NaN
nan,nan,nan,NaN
nan,nan,nan,NaN
nan,nan,nan,NaN
nan,nan,nan,NaN
nan,nan,nan,NaN
-1.24897,-0.0722448,2.536,2.8278
-1.20502,-0.0701652,2.463,2.74288
-1.19703,-0.0701652,2.463,2.73937
-1.18035,-0.0696524,2.445,2.7159
-1.16426,-0.0691681,2.428,2.6936
-1.15638,-0.0691681,2.428,2.6902
-1.14046,-0.0686838,2.411,2.66801
-1.13263,-0.0686838,2.411,2.66467
-1.11687,-0.0681995,2.394,2.64259
-1.1091,-0.0681995,2.394,2.63932
-1.10133,-0.0681995,2.394,2.63606
-1.09356,-0.0681995,2.394,2.63282
-1.08579,-0.0681995,2.394,2.62961
-1.07802,-0.0681995,2.394,2.62641
-1.06265,-0.0677152,2.377,2.6046
-1.05494,-0.0677152,2.377,2.60146
-1.04722,-0.0677152,2.377,2.59834
-1.03951,-0.0677152,2.377,2.59524
-1.03179,-0.0677152,2.377,2.59216
-1.01718,-0.0672594,2.361,2.57167
-1.00952,-0.0672594,2.361,2.56865
-1.00186,-0.0672594,2.361,2.56565
-0.994193,-0.0672594,2.361,2.56267
-0.986529,-0.0672594,2.361,2.5597
-0.978866,-0.0672594,2.361,2.55676
-0.971203,-0.0672594,2.361,2.55384
-0.96354,-0.0672594,2.361,2.55093
-0.955876,-0.0672594,2.361,2.54805
-0.948213,-0.0672594,2.361,2.54518
-0.94055,-0.0672594,2.361,2.54234
-0.932887,-0.0672594,2.361,2.53951
-0.925224,-0.0672594,2.361,2.53671
-0.91756,-0.0672594,2.361,2.53392
-0.909897,-0.0672594,2.361,2.53116
-0.908348,-0.0677152,2.377,2.54555
-0.900633,-0.0677152,2.377,2.5428
-0.892918,-0.0677152,2.377,2.54008
-0.885203,-0.0677152,2.377,2.53738
-0.877488,-0.0677152,2.377,2.5347
-0.869772,-0.0677152,2.377,2.53204
-0.862057,-0.0677152,2.377,2.5294
-0.854342,-0.0677152,2.377,2.52678
-0.846627,-0.0677152,2.377,2.52418
-0.838912,-0.0677152,2.377,2.5216
-0.831197,-0.0677152,2.377,2.51905
-0.823481,-0.0677152,2.377,2.51651
-0.815766,-0.0677152,2.377,2.514
-0.808051,-0.0677152,2.377,2.51151
-0.80606,-0.0681995,2.394,2.52698
-0.79829,-0.0681995,2.394,2.52451
-0.790519,-0.0681995,2.394,2.52206
-0.782749,-0.0681995,2.394,2.51964
-0.774979,-0.0681995,2.394,2.51724
-0.767208,-0.0681995,2.394,2.51486
-0.759438,-0.0681995,2.394,2.5125
-0.751668,-0.0681995,2.394,2.51016
-0.743897,-0.0681995,2.394,2.50784
-0.736127,-0.0681995,2.394,2.50555
-0.733529,-0.0686838,2.411,2.52105
-0.725703,-0.0686838,2.411,2.51879
-0.717878,-0.0686838,2.411,2.51654
-0.710052,-0.0686838,2.411,2.51432
-0.702227,-0.0686838,2.411,2.51212
-0.694401,-0.0686838,2.411,2.50995
-0.686576,-0.0686838,2.411,2.50779
-0.67875,-0.0686838,2.411,2.50566
-0.670925,-0.0686838,2.411,2.50355
-0.663099,-0.0686838,2.411,2.50147
-0.659894,-0.0691681,2.428,2.51703
-0.652013,-0.0691681,2.428,2.51497
-0.644133,-0.0691681,2.428,2.51294
-0.640707,-0.0696524,2.445,2.52851
-0.632771,-0.0696524,2.445,2.52651
-0.624835,-0.0696524,2.445,2.52454
-0.621441,-0.0701652,2.463,2.54116
-0.613446,-0.0701652,2.463,2.53921
-0.605452,-0.0701652,2.463,2.53729
-0.601824,-0.0706779,2.481,2.55393
-0.593771,-0.0706779,2.481,2.55204
-0.585719,-0.0706779,2.481,2.55018
-0.577666,-0.0706779,2.481,2.54834
-0.569613,-0.0706779,2.481,2.54653
-0.561561,-0.0706779,2.481,2.54474
-0.553508,-0.0706779,2.481,2.54298
-0.549413,-0.0711907,2.499,2.55967
-0.541301,-0.0711907,2.499,2.55794
-0.53319,-0.0711907,2.499,2.55624
-0.525079,-0.0711907,2.499,2.55456
-0.516968,-0.0711907,2.499,2.55291
-0.508857,-0.0711907,2.499,2.55128
-0.500746,-0.0711907,2.499,2.54967
-0.492635,-0.0711907,2.499,2.54809
-0.481034,-0.0706779,2.481,2.52819
-0.472981,-0.0706779,2.481,2.52667
-0.464928,-0.0706779,2.481,2.52518
-0.456875,-0.0706779,2.481,2.52371
-0.448823,-0.0706779,2.481,2.52226
-0.44077,-0.0706779,2.481,2.52084
-0.435857,-0.0711907,2.499,2.53772
-0.427746,-0.0711907,2.499,2.53634
-0.419634,-0.0711907,2.499,2.53499
-0.411523,-0.0711907,2.499,2.53366
-0.403412,-0.0711907,2.499,2.53235
-0.395301,-0.0711907,2.499,2.53107
-0.38719,-0.0711907,2.499,2.52982
-0.379079,-0.0711907,2.499,2.52859
-0.37364,-0.0717035,2.517,2.54559
-0.36547,-0.0717035,2.517,2.54441
-0.357301,-0.0717035,2.517,2.54324
-0.349131,-0.0717035,2.517,2.54211
-0.340961,-0.0717035,2.517,2.541
-0.335304,-0.0722448,2.536,2.55909
-0.327073,-0.0722448,2.536,2.55802
-0.318842,-0.0722448,2.536,2.55699
-0.31061,-0.0722448,2.536,2.55597
-0.302379,-0.0722448,2.536,2.55499
-0.294148,-0.0722448,2.536,2.55402
-0.285917,-0.0722448,2.536,2.55309
-0.277685,-0.0722448,2.536,2.55218
-0.271473,-0.072786,2.555,2.57041
-0.26318,-0.072786,2.555,2.56955
-0.254887,-0.072786,2.555,2.56871
-0.246594,-0.072786,2.555,2.5679
-0.238301,-0.072786,2.555,2.56712
-0.230009,-0.072786,2.555,2.56636
-0.221716,-0.072786,2.555,2.56563
-0.213423,-0.072786,2.555,2.56493
-0.20513,-0.072786,2.555,2.56425
-0.196837,-0.072786,2.555,2.5636
-0.189946,-0.0733273,2.574,2.58204
-0.180251,-0.072786,2.555,2.56238
-0.171958,-0.072786,2.555,2.56181
-0.163665,-0.072786,2.555,2.56127
-0.155372,-0.072786,2.555,2.56075
-0.14708,-0.072786,2.555,2.56026
-0.137755,-0.0722448,2.536,2.54077
-0.129523,-0.0722448,2.536,2.54033
-0.121292,-0.0722448,2.536,2.53993
-0.113061,-0.0722448,2.536,2.53955
-0.10483,-0.0722448,2.536,2.53919
-0.0965985,-0.0722448,2.536,2.53887
-0.0883672,-0.0722448,2.536,2.53857
-0.080136,-0.0722448,2.536,2.53829
-0.0719048,-0.0722448,2.536,2.53805
-0.0641506,-0.072786,2.555,2.55684
-0.0558577,-0.072786,2.555,2.55665
-0.0475648,-0.072786,2.555,2.55648
-0.039564,-0.0733273,2.574,2.57535
-0.0312094,-0.0733273,2.574,2.57523
-0.0228548,-0.0733273,2.574,2.57515
-0.0146073,-0.0738686,2.593,2.59409
-0.00619107,-0.0738686,2.593,2.59406
0.00222516,-0.0738686,2.593,2.59405
0.0106414,-0.0738686,2.593,2.59407
0.0190576,-0.0738686,2.593,2.59412
0.0272725,-0.0733273,2.574,2.57519
0.0353641,-0.072786,2.555,2.55628
0.043657,-0.072786,2.555,2.55641
0.0519499,-0.072786,2.555,2.55656
0.0602428,-0.072786,2.555,2.55675
0.0685357,-0.072786,2.555,2.55696
0.0762573,-0.0722448,2.536,2.53817
0.0844885,-0.0722448,2.536,2.53844
0.0927197,-0.0722448,2.536,2.53872
0.100951,-0.0722448,2.536,2.53904
0.109182,-0.0722448,2.536,2.53938
0.117413,-0.0722448,2.536,2.53974
0.125645,-0.0722448,2.536,2.54014
0.133876,-0.0722448,2.536,2.54056
0.142107,-0.0722448,2.536,2.54101
0.151465,-0.072786,2.555,2.56052
0.159758,-0.072786,2.555,2.56102
0.166801,-0.0722448,2.536,2.54251
0.175032,-0.0722448,2.536,2.54306
0.183263,-0.0722448,2.536,2.54364
0.192929,-0.072786,2.555,2.56331
0.201222,-0.072786,2.555,2.56394
0.209515,-0.072786,2.555,2.56461
0.219428,-0.0733273,2.574,2.58438
0.227782,-0.0733273,2.574,2.5851
0.236137,-0.0733273,2.574,2.58585
0.244491,-0.0733273,2.574,2.58663
0.252846,-0.0733273,2.574,2.58743
0.2612,-0.0733273,2.574,2.58826
0.267565,-0.072786,2.555,2.57
0.275858,-0.072786,2.555,2.57088
0.284151,-0.072786,2.555,2.57178
0.292444,-0.072786,2.555,2.57271
0.300737,-0.072786,2.555,2.57367
0.30903,-0.072786,2.555,2.57465
0.317323,-0.072786,2.555,2.57566
0.323194,-0.0722448,2.536,2.55753
0.331425,-0.0722448,2.536,2.55859
0.339657,-0.0722448,2.536,2.55966
0.347888,-0.0722448,2.536,2.56077
0.356119,-0.0722448,2.536,2.5619
0.36435,-0.0722448,2.536,2.56306
0.372581,-0.0722448,2.536,2.56424
0.380813,-0.0722448,2.536,2.56545
0.389044,-0.0722448,2.536,2.56668
0.397275,-0.0722448,2.536,2.56795
0.405506,-0.0722448,2.536,2.56923
0.410638,-0.0717035,2.517,2.55128
0.418807,-0.0717035,2.517,2.55261
0.426977,-0.0717035,2.517,2.55397
0.435146,-0.0717035,2.517,2.55534
0.443316,-0.0717035,2.517,2.55675
0.451486,-0.0717035,2.517,2.55818
0.456368,-0.0711907,2.499,2.54133
0.464479,-0.0711907,2.499,2.5428
0.47259,-0.0711907,2.499,2.54429
0.484164,-0.0717035,2.517,2.56415
0.492333,-0.0717035,2.517,2.5657
0.500503,-0.0717035,2.517,2.56728
0.508672,-0.0717035,2.517,2.56889
0.516842,-0.0717035,2.517,2.57052
0.525012,-0.0717035,2.517,2.57217
0.533181,-0.0717035,2.517,2.57385
0.545437,-0.0722448,2.536,2.595
0.557817,-0.072786,2.555,2.6162
0.566109,-0.072786,2.555,2.61798
0.574402,-0.072786,2.555,2.61978
0.582695,-0.072786,2.555,2.62161
0.586593,-0.0722448,2.536,2.60396
0.594824,-0.0722448,2.536,2.60583
0.603056,-0.0722448,2.536,2.60772
0.611287,-0.0722448,2.536,2.60963
0.619518,-0.0722448,2.536,2.61157
0.627749,-0.0722448,2.536,2.61354
0.635981,-0.0722448,2.536,2.61553
0.644212,-0.0722448,2.536,2.61754
0.652443,-0.0722448,2.536,2.61958
0.660674,-0.0722448,2.536,2.62164
0.668906,-0.0722448,2.536,2.62373
0.68221,-0.072786,2.555,2.64551
0.690503,-0.072786,2.555,2.64766
0.698796,-0.072786,2.555,2.64984
0.707089,-0.072786,2.555,2.65204
0.715382,-0.072786,2.555,2.65426
0.723674,-0.072786,2.555,2.65651
0.731967,-0.072786,2.555,2.65878
0.74026,-0.072786,2.555,2.66107
0.748553,-0.072786,2.555,2.66339
0.756846,-0.072786,2.555,2.66573
0.765139,-0.072786,2.555,2.6681
0.773432,-0.072786,2.555,2.67049
0.781725,-0.072786,2.555,2.6729
0.790018,-0.072786,2.555,2.67534
0.804247,-0.0733273,2.574,2.69772
0.812602,-0.0733273,2.574,2.70022
0.820956,-0.0733273,2.574,2.70274
0.829311,-0.0733273,2.574,2.70529
0.837665,-0.0733273,2.574,2.70787
0.84602,-0.0733273,2.574,2.71046
0.854374,-0.0733273,2.574,2.71308
0.862729,-0.0733273,2.574,2.71572
0.871084,-0.0733273,2.574,2.71839
0.879438,-0.0733273,2.574,2.72108
0.887793,-0.0733273,2.574,2.72379
0.896147,-0.0733273,2.574,2.72652
0.897825,-0.072786,2.555,2.70914
0.906118,-0.072786,2.555,2.71189
0.907611,-0.0722448,2.536,2.69449
0.908981,-0.0717035,2.517,2.67707
0.910591,-0.0711907,2.499,2.66069
0.918703,-0.0711907,2.499,2.66347
0.926814,-0.0711907,2.499,2.66628
0.928191,-0.0706779,2.481,2.64989
0.936243,-0.0706779,2.481,2.65272
0.937445,-0.0701652,2.463,2.6363
0.93853,-0.0696524,2.445,2.61987
0.946466,-0.0696524,2.445,2.62272
0.947766,-0.0691681,2.428,2.60734
0.955646,-0.0691681,2.428,2.61022
0.963527,-0.0691681,2.428,2.61311
0.971408,-0.0691681,2.428,2.61603
0.979289,-0.0691681,2.428,2.61896
0.987169,-0.0691681,2.428,2.62192
0.99505,-0.0691681,2.428,2.6249
1.01739,-0.0701652,2.463,2.66578
1.04037,-0.0711907,2.499,2.70785
1.07198,-0.072786,2.555,2.77172
1.08027,-0.072786,2.555,2.77494
1.11327,-0.0744383,2.613,2.84125
1.14837,-0.0762045,2.675,2.91208
1.15705,-0.0762045,2.675,2.91551
1.19363,-0.0780278,2.739,2.9888
1.23193,-0.0799364,2.806,3.06556
1.28306,-0.0826428,2.901,3.17315
1.29247,-0.0826428,2.901,3.17697
1.35978,-0.0863177,3.03,3.32225
1.39402,-0.087856,3.084,3.38557
1.40403,-0.087856,3.084,3.3897
1.42688,-0.0886537,3.112,3.42467
1.45037,-0.0894798,3.141,3.46085
1.46057,-0.0894798,3.141,3.46513
1.47076,-0.0894798,3.141,3.46944
1.48096,-0.0894798,3.141,3.47378
1.49115,-0.0894798,3.141,3.47813
1.50135,-0.0894798,3.141,3.48252
1.51154,-0.0894798,3.141,3.48692
1.52174,-0.0894798,3.141,3.49136
1.53193,-0.0894798,3.141,3.49581
1.52789,-0.0886537,3.112,3.46797
1.53799,-0.0886537,3.112,3.47244
1.54809,-0.0886537,3.112,3.47692
1.54417,-0.087856,3.084,3.45011
1.54057,-0.0870868,3.057,3.42435
1.5505,-0.0870868,3.057,3.42883
1.56042,-0.0870868,3.057,3.43333
1.58421,-0.087856,3.084,3.46821
1.60869,-0.0886537,3.112,3.50433
1.6188,-0.0886537,3.112,3.50897
1.64408,-0.0894798,3.141,3.54639
1.65427,-0.0894798,3.141,3.55113
1.66447,-0.0894798,3.141,3.55589
1.67466,-0.0894798,3.141,3.56067
1.71597,-0.0911321,3.199,3.63131
1.72635,-0.0911321,3.199,3.63623
1.73673,-0.0911321,3.199,3.64117
1.76405,-0.0920152,3.23,3.68147
1.77453,-0.0920152,3.23,3.68651
1.76788,-0.0911321,3.199,3.65613
1.77827,-0.0911321,3.199,3.66117
1.78865,-0.0911321,3.199,3.66622
1.78272,-0.0903059,3.17,3.63802
1.77661,-0.0894798,3.141,3.60974
1.7868,-0.0894798,3.141,3.61477
1.78041,-0.0886537,3.112,3.5864
1.7744,-0.087856,3.084,3.55911
1.78441,-0.087856,3.084,3.56411
1.79442,-0.087856,3.084,3.56913
1.80443,-0.087856,3.084,3.57418
1.79855,-0.0870868,3.057,3.5479
1.80848,-0.0870868,3.057,3.55294
1.8184,-0.0870868,3.057,3.55801
1.82832,-0.0870868,3.057,3.56309
1.83824,-0.0870868,3.057,3.56819
1.83184,-0.0863177,3.03,3.54175
1.84168,-0.0863177,3.03,3.54685
1.85151,-0.0863177,3.03,3.55196
1.86134,-0.0863177,3.03,3.5571
1.85451,-0.0855485,3.003,3.53051
1.86425,-0.0855485,3.003,3.53564
1.85777,-0.0848078,2.977,3.51014
1.85113,-0.0840671,2.951,3.48456
1.86071,-0.0840671,2.951,3.48966
1.85444,-0.0833549,2.926,3.46517
1.83272,-0.0819591,2.877,3.41214
1.81133,-0.0805916,2.829,3.36016
1.82051,-0.0805916,2.829,3.36511
1.79994,-0.0792812,2.783,3.31529
1.78037,-0.0780278,2.739,3.26771
1.78926,-0.0780278,2.739,3.27256
1.76992,-0.0768028,2.696,3.22598
1.75097,-0.0756063,2.654,3.18046
1.75958,-0.0756063,2.654,3.18521
1.74088,-0.0744383,2.613,3.1407
1.72325,-0.0733273,2.574,3.09846
1.7316,-0.0733273,2.574,3.10311
1.71427,-0.0722448,2.536,3.0619
1.69737,-0.0711907,2.499,3.02178
-1.90013,-0.0691401,2.739,3.33428
-1.86155,-0.0680547,2.696,3.27695
-1.8528,-0.0680547,2.696,3.27199
-1.84405,-0.0680547,2.696,3.26704
-1.82101,-0.0675246,2.675,3.2367
-1.81232,-0.0675246,2.675,3.23183
-1.78948,-0.0669945,2.654,3.20163
-1.78087,-0.0669945,2.654,3.19683
-1.77225,-0.0669945,2.654,3.19203
-1.76364,-0.0669945,2.654,3.18726
-1.75502,-0.0669945,2.654,3.1825
-1.74641,-0.0669945,2.654,3.17776
-1.7378,-0.0669945,2.654,3.17303
-1.72918,-0.0669945,2.654,3.16832
-1.73418,-0.0675246,2.675,3.18866
-1.7255,-0.0675246,2.675,3.18395
-1.71682,-0.0675246,2.675,3.17925
-1.72154,-0.0680547,2.696,3.19949
-1.74011,-0.0691401,2.739,3.24575
-1.73122,-0.0691401,2.739,3.24099
-1.75,-0.0702508,2.783,3.28824
-1.75535,-0.0708314,2.806,3.31058
-1.74625,-0.0708314,2.806,3.30576
-1.73714,-0.0708314,2.806,3.30096
-1.7422,-0.071412,2.829,3.32319
-1.74772,-0.0720178,2.853,3.34654
-1.73846,-0.0720178,2.853,3.34171
-1.74374,-0.0726237,2.877,3.36497
-1.7344,-0.0726237,2.877,3.36014
-1.72507,-0.0726237,2.877,3.35533
-1.73004,-0.0732295,2.901,3.37849
-1.70639,-0.0726237,2.877,3.34577
-1.69705,-0.0726237,2.877,3.34102
-1.67364,-0.0720178,2.853,3.30845
-1.65037,-0.071412,2.829,3.27598
-1.64119,-0.071412,2.829,3.27137
-1.63201,-0.071412,2.829,3.26677
-1.62283,-0.071412,2.829,3.26219
-1.61365,-0.071412,2.829,3.25764
-1.60446,-0.071412,2.829,3.2531
-1.58231,-0.0708314,2.806,3.22217
-1.5732,-0.0708314,2.806,3.2177
-1.5641,-0.0708314,2.806,3.21326
-1.54224,-0.0702508,2.783,3.18254
-1.53321,-0.0702508,2.783,3.17817
nan,nan,nan,NaN
nan,nan,nan,NaN
nan,nan,nan,NaN
nan,nan,nan,NaN
nan,nan,nan,NaN
-1.54172,-0.0732295,2.901,3.28604
-1.53231,-0.0732295,2.901,3.28163
-1.53601,-0.0738606,2.926,3.30549
-1.52652,-0.0738606,2.926,3.30109
-1.51702,-0.0738606,2.926,3.29671
-1.50752,-0.0738606,2.926,3.29235
-1.47294,-0.0726237,2.877,3.23295
-1.42748,-0.0708314,2.806,3.14902
-1.41837,-0.0708314,2.806,3.14491
-1.40927,-0.0708314,2.806,3.14081
nan,nan,nan,NaN
nan,nan,nan,NaN
-1.24897,-0.0640159,2.536,2.8276
-1.22264,-0.0630819,2.499,2.78277
-1.21453,-0.0630819,2.499,2.77922
-1.18904,-0.0621731,2.463,2.7357
-1.17241,-0.0617188,2.445,2.71226
-1.16447,-0.0617188,2.445,2.70884
-1.1485,-0.0612896,2.428,2.68663
-1.13263,-0.0608605,2.411,2.66448
-1.11687,-0.0604314,2.394,2.6424
-1.1091,-0.0604314,2.394,2.63913
-1.10133,-0.0604314,2.394,2.63587
-1.09356,-0.0604314,2.394,2.63263
-1.08579,-0.0604314,2.394,2.62942
-1.07802,-0.0604314,2.394,2.62622
-1.06265,-0.0600022,2.377,2.60441
-1.05494,-0.0600022,2.377,2.60127
-1.04722,-0.0600022,2.377,2.59815
-1.03951,-0.0600022,2.377,2.59505
-1.03179,-0.0600022,2.377,2.59197
-1.01718,-0.0595984,2.361,2.57148
-1.00952,-0.0595984,2.361,2.56846
-1.00186,-0.0595984,2.361,2.56546
-1.00093,-0.0600022,2.377,2.57984
-0.993215,-0.0600022,2.377,2.57686
-0.978866,-0.0595984,2.361,2.55657
-0.971203,-0.0595984,2.361,2.55365
-0.96354,-0.0595984,2.361,2.55074
-0.955876,-0.0595984,2.361,2.54786
-0.948213,-0.0595984,2.361,2.54499
-0.94055,-0.0595984,2.361,2.54215
-0.932887,-0.0595984,2.361,2.53932
-0.925224,-0.0595984,2.361,2.53652
-0.923778,-0.0600022,2.377,2.5509
-0.916063,-0.0600022,2.377,2.54812
-0.908348,-0.0600022,2.377,2.54535
-0.900633,-0.0600022,2.377,2.54261
-0.892918,-0.0600022,2.377,2.53989
-0.885203,-0.0600022,2.377,2.53719
-0.877488,-0.0600022,2.377,2.5345
-0.869772,-0.0600022,2.377,2.53184
-0.862057,-0.0600022,2.377,2.5292
-0.854342,-0.0600022,2.377,2.52658
-0.852682,-0.0604314,2.394,2.54204
-0.838912,-0.0600022,2.377,2.52141
-0.831197,-0.0600022,2.377,2.51885
-0.823481,-0.0600022,2.377,2.51632
-0.815766,-0.0600022,2.377,2.5138
-0.81383,-0.0604314,2.394,2.52927
-0.80606,-0.0604314,2.394,2.52678
-0.79829,-0.0604314,2.394,2.52431
-0.790519,-0.0604314,2.394,2.52187
-0.782749,-0.0604314,2.394,2.51944
-0.774979,-0.0604314,2.394,2.51704
-0.767208,-0.0604314,2.394,2.51466
-0.759438,-0.0604314,2.394,2.5123
-0.751668,-0.0604314,2.394,2.50996
-0.743897,-0.0604314,2.394,2.50764
-0.736127,-0.0604314,2.394,2.50535
-0.733529,-0.0608605,2.411,2.52085
-0.725703,-0.0608605,2.411,2.51858
-0.717878,-0.0608605,2.411,2.51634
-0.710052,-0.0608605,2.411,2.51412
-0.702227,-0.0608605,2.411,2.51192
-0.694401,-0.0608605,2.411,2.50974
-0.686576,-0.0608605,2.411,2.50759
-0.67875,-0.0608605,2.411,2.50546
-0.670925,-0.0608605,2.411,2.50335
-0.667775,-0.0612896,2.428,2.5189
-0.659894,-0.0612896,2.428,2.51682
-0.652013,-0.0612896,2.428,2.51477
-0.648643,-0.0617188,2.445,2.53033
-0.640707,-0.0617188,2.445,2.52831
-0.632771,-0.0617188,2.445,2.52631
-0.629435,-0.0621731,2.463,2.54292
-0.621441,-0.0621731,2.463,2.54095
-0.613446,-0.0621731,2.463,2.53901
-0.605452,-0.0621731,2.463,2.53709
-0.601824,-0.0626275,2.481,2.55372
-0.593771,-0.0626275,2.481,2.55183
-0.585719,-0.0626275,2.481,2.54997
-0.577666,-0.0626275,2.481,2.54813
-0.569613,-0.0626275,2.481,2.54632
-0.561561,-0.0626275,2.481,2.54453
-0.557524,-0.0630819,2.499,2.56121
-0.549413,-0.0630819,2.499,2.55946
-0.541301,-0.0630819,2.499,2.55773
-0.53319,-0.0630819,2.499,2.55603
-0.525079,-0.0630819,2.499,2.55435
-0.516968,-0.0630819,2.499,2.55269
-0.508857,-0.0630819,2.499,2.55106
-0.500746,-0.0630819,2.499,2.54946
-0.492635,-0.0630819,2.499,2.54788
-0.481034,-0.0626275,2.481,2.52798
-0.472981,-0.0626275,2.481,2.52646
-0.464928,-0.0626275,2.481,2.52496
-0.456875,-0.0626275,2.481,2.52349
-0.448823,-0.0626275,2.481,2.52205
-0.44077,-0.0626275,2.481,2.52063
-0.432717,-0.0626275,2.481,2.51923
-0.424665,-0.0626275,2.481,2.51786
-0.419634,-0.0630819,2.499,2.53477
-0.411523,-0.0630819,2.499,2.53344
-0.403412,-0.0630819,2.499,2.53214
-0.395301,-0.0630819,2.499,2.53086
-0.38719,-0.0630819,2.499,2.5296
-0.379079,-0.0630819,2.499,2.52838
-0.37364,-0.0635362,2.517,2.54537
-0.36547,-0.0635362,2.517,2.54419
-0.357301,-0.0635362,2.517,2.54303
-0.349131,-0.0635362,2.517,2.54189
-0.340961,-0.0635362,2.517,2.54078
-0.335304,-0.0640159,2.536,2.55887
-0.327073,-0.0640159,2.536,2.55781
-0.318842,-0.0640159,2.536,2.55677
-0.31061,-0.0640159,2.536,2.55575
-0.302379,-0.0640159,2.536,2.55477
-0.294148,-0.0640159,2.536,2.5538
-0.285917,-0.0640159,2.536,2.55287
-0.277685,-0.0640159,2.536,2.55196
-0.269454,-0.0640159,2.536,2.55108
-0.26318,-0.0644955,2.555,2.56933
-0.254887,-0.0644955,2.555,2.56849
-0.246594,-0.0644955,2.555,2.56768
-0.238301,-0.0644955,2.555,2.5669
-0.230009,-0.0644955,2.555,2.56614
-0.221716,-0.0644955,2.555,2.56541
-0.213423,-0.0644955,2.555,2.56471
-0.20513,-0.0644955,2.555,2.56403
-0.196837,-0.0644955,2.555,2.56338
-0.189946,-0.0649751,2.574,2.58182
-0.180251,-0.0644955,2.555,2.56216
-0.171958,-0.0644955,2.555,2.56159
-0.163665,-0.0644955,2.555,2.56105
-0.155372,-0.0644955,2.555,2.56053
-0.14708,-0.0644955,2.555,2.56004
-0.137755,-0.0640159,2.536,2.54055
-0.129523,-0.0640159,2.536,2.54011
-0.121292,-0.0640159,2.536,2.53971
-0.113061,-0.0640159,2.536,2.53933
-0.10483,-0.0640159,2.536,2.53897
-0.0965985,-0.0640159,2.536,2.53865
-0.0883672,-0.0640159,2.536,2.53835
-0.080136,-0.0640159,2.536,2.53807
-0.0719048,-0.0640159,2.536,2.53783
-0.0641506,-0.0644955,2.555,2.55662
-0.0558577,-0.0644955,2.555,2.55642
-0.0475648,-0.0644955,2.555,2.55626
-0.0392719,-0.0644955,2.555,2.55612
-0.030979,-0.0644955,2.555,2.556
-0.0228548,-0.0649751,2.574,2.57492
-0.0146073,-0.0654547,2.593,2.59387
-0.00619107,-0.0654547,2.593,2.59383
0.00220886,-0.0649751,2.574,2.57482
0.0105634,-0.0649751,2.574,2.57484
0.018918,-0.0649751,2.574,2.57489
0.0270712,-0.0644955,2.555,2.55596
0.0353641,-0.0644955,2.555,2.55606
0.043657,-0.0644955,2.555,2.55619
0.0515636,-0.0640159,2.536,2.53733
0.0597948,-0.0640159,2.536,2.53751
0.0680261,-0.0640159,2.536,2.53772
0.075686,-0.0635362,2.517,2.51894
0.0838555,-0.0635362,2.517,2.5192
0.0920251,-0.0635362,2.517,2.51948
0.100195,-0.0635362,2.517,2.51979
0.108364,-0.0635362,2.517,2.52013
0.116534,-0.0635362,2.517,2.5205
0.124703,-0.0635362,2.517,2.52089
0.132873,-0.0635362,2.517,2.52131
0.142107,-0.0640159,2.536,2.54079
0.150338,-0.0640159,2.536,2.54126
0.15857,-0.0640159,2.536,2.54176
0.166801,-0.0640159,2.536,2.54229
0.175032,-0.0640159,2.536,2.54284
0.183263,-0.0640159,2.536,2.54342
0.192929,-0.0644955,2.555,2.56309
0.201222,-0.0644955,2.555,2.56372
0.209515,-0.0644955,2.555,2.56439
0.219428,-0.0649751,2.574,2.58415
0.227782,-0.0649751,2.574,2.58488
0.236137,-0.0649751,2.574,2.58563
0.244491,-0.0649751,2.574,2.5864
0.252846,-0.0649751,2.574,2.5872
0.2612,-0.0649751,2.574,2.58803
0.267565,-0.0644955,2.555,2.56978
0.275858,-0.0644955,2.555,2.57066
0.284151,-0.0644955,2.555,2.57156
0.292444,-0.0644955,2.555,2.57249
0.300737,-0.0644955,2.555,2.57345
0.30903,-0.0644955,2.555,2.57443
0.317323,-0.0644955,2.555,2.57544
0.323194,-0.0640159,2.536,2.55731
0.331425,-0.0640159,2.536,2.55837
0.339657,-0.0640159,2.536,2.55945
0.347888,-0.0640159,2.536,2.56055
0.356119,-0.0640159,2.536,2.56168
0.36435,-0.0640159,2.536,2.56284
0.372581,-0.0640159,2.536,2.56402
0.380813,-0.0640159,2.536,2.56523
0.389044,-0.0640159,2.536,2.56647
0.397275,-0.0640159,2.536,2.56773
0.405506,-0.0640159,2.536,2.56901
0.413738,-0.0640159,2.536,2.57033
0.421969,-0.0640159,2.536,2.57166
0.4302,-0.0640159,2.536,2.57303
0.438431,-0.0640159,2.536,2.57442
0.446662,-0.0640159,2.536,2.57583
0.451486,-0.0635362,2.517,2.55796
0.459655,-0.0635362,2.517,2.55942
0.467825,-0.0635362,2.517,2.5609
0.475994,-0.0635362,2.517,2.5624
0.484164,-0.0635362,2.517,2.56393
0.492333,-0.0635362,2.517,2.56549
0.500503,-0.0635362,2.517,2.56707
0.508672,-0.0635362,2.517,2.56867
0.520743,-0.0640159,2.536,2.5897
0.528975,-0.0640159,2.536,2.59137
0.537206,-0.0640159,2.536,2.59306
0.545437,-0.0640159,2.536,2.59478
0.553668,-0.0640159,2.536,2.59652
0.5619,-0.0640159,2.536,2.59829
0.574402,-0.0644955,2.555,2.61957
0.582695,-0.0644955,2.555,2.6214
0.586593,-0.0640159,2.536,2.60374
0.590368,-0.0635362,2.517,2.58609
0.598538,-0.0635362,2.517,2.58797
0.606707,-0.0635362,2.517,2.58987
0.614877,-0.0635362,2.517,2.59179
0.623046,-0.0635362,2.517,2.59374
0.631216,-0.0635362,2.517,2.59572
0.639385,-0.0635362,2.517,2.59772
0.652443,-0.0640159,2.536,2.61937
0.660674,-0.0640159,2.536,2.62143
0.668906,-0.0640159,2.536,2.62351
0.68221,-0.0644955,2.555,2.6453
0.690503,-0.0644955,2.555,2.64745
0.698796,-0.0644955,2.555,2.64962
0.707089,-0.0644955,2.555,2.65182
0.715382,-0.0644955,2.555,2.65405
0.723674,-0.0644955,2.555,2.65629
0.731967,-0.0644955,2.555,2.65856
0.74026,-0.0644955,2.555,2.66086
0.75412,-0.0649751,2.574,2.68298
0.756846,-0.0644955,2.555,2.66552
0.765139,-0.0644955,2.555,2.66789
0.773432,-0.0644955,2.555,2.67028
0.781725,-0.0644955,2.555,2.67269
0.790018,-0.0644955,2.555,2.67513
0.804247,-0.0649751,2.574,2.6975
0.812602,-0.0649751,2.574,2.7
0.820956,-0.0649751,2.574,2.70253
0.829311,-0.0649751,2.574,2.70508
0.837665,-0.0649751,2.574,2.70765
0.84602,-0.0649751,2.574,2.71025
0.854374,-0.0649751,2.574,2.71287
0.862729,-0.0649751,2.574,2.71551
0.871084,-0.0649751,2.574,2.71818
0.879438,-0.0649751,2.574,2.72087
0.887793,-0.0649751,2.574,2.72358
0.896147,-0.0649751,2.574,2.72631
0.897825,-0.0644955,2.555,2.70893
0.906118,-0.0644955,2.555,2.71168
0.907611,-0.0640159,2.536,2.69428
0.908981,-0.0635362,2.517,2.67686
0.910591,-0.0630819,2.499,2.66048
0.918703,-0.0630819,2.499,2.66327
