0.595383,-0.181906,2.574,2.64822
0.603738,-0.181906,2.574,2.65011
0.612092,-0.181906,2.574,2.65202
0.615867,-0.180563,2.555,2.63437
0.62416,-0.180563,2.555,2.63632
0.632453,-0.180563,2.555,2.6383
0.640746,-0.180563,2.555,2.6403
0.649038,-0.180563,2.555,2.64232
0.657331,-0.180563,2.555,2.64437
0.665624,-0.180563,2.555,2.64645
0.673917,-0.180563,2.555,2.64855
0.68221,-0.180563,2.555,2.65067
0.690503,-0.180563,2.555,2.65281
0.698796,-0.180563,2.555,2.65498
0.707089,-0.180563,2.555,2.65718
0.715382,-0.180563,2.555,2.6594
0.723674,-0.180563,2.555,2.66164
0.731967,-0.180563,2.555,2.66391
0.74026,-0.180563,2.555,2.6662
0.748553,-0.180563,2.555,2.66851
0.751218,-0.179221,2.536,2.65099
0.759449,-0.179221,2.536,2.65333
0.76768,-0.179221,2.536,2.6557
0.775912,-0.179221,2.536,2.65809
0.784143,-0.179221,2.536,2.66051
0.792374,-0.179221,2.536,2.66294
0.794607,-0.177878,2.517,2.64544
0.802777,-0.177878,2.517,2.6479
0.810946,-0.177878,2.517,2.65039
0.813258,-0.176606,2.499,2.63393
0.821369,-0.176606,2.499,2.63644
0.82948,-0.176606,2.499,2.63898
0.837591,-0.176606,2.499,2.64154
0.839611,-0.175334,2.481,2.62508
0.847664,-0.175334,2.481,2.62767
0.855716,-0.175334,2.481,2.63028
0.857502,-0.174062,2.463,2.61381
0.859171,-0.17279,2.445,2.59732
0.867107,-0.17279,2.445,2.59995
0.875043,-0.17279,2.445,2.60261
0.87684,-0.171588,2.428,2.58718
0.88472,-0.171588,2.428,2.58986
0.892601,-0.171588,2.428,2.59256
0.900482,-0.171588,2.428,2.59528
0.908362,-0.171588,2.428,2.59803
0.909828,-0.170387,2.411,2.58258
0.917653,-0.170387,2.411,2.58535
0.925479,-0.170387,2.411,2.58814
0.933304,-0.170387,2.411,2.59095
0.934494,-0.169185,2.394,2.57549
0.942264,-0.169185,2.394,2.57832
0.950035,-0.169185,2.394,2.58117
0.957805,-0.169185,2.394,2.58404
nan,nan,nan,NaN
nan,nan,nan,NaN
0.981116,-0.169185,2.394,2.59277
0.988886,-0.169185,2.394,2.59572
nan,nan,nan,NaN
nan,nan,nan,NaN
nan,nan,nan,NaN
nan,nan,nan,NaN
nan,nan,nan,NaN
nan,nan,nan,NaN
nan,nan,nan,NaN
nan,nan,nan,NaN
nan,nan,nan,NaN
nan,nan,nan,NaN
nan,nan,nan,NaN
nan,nan,nan,NaN
nan,nan,nan,NaN
nan,nan,nan,NaN
1.75652,-0.268831,3.804,4.19858
1.76886,-0.268831,3.804,4.20376
1.78121,-0.268831,3.804,4.20897
1.79356,-0.268831,3.804,4.21421
1.8059,-0.268831,3.804,4.21948
1.81825,-0.268831,3.804,4.22477
1.81038,-0.265863,3.762,4.1834
1.80273,-0.262965,3.721,4.14305
1.81481,-0.262965,3.721,4.14832
1.82689,-0.262965,3.721,4.15361
1.8192,-0.260138,3.681,4.11423
1.83114,-0.260138,3.681,4.11953
1.82356,-0.257382,3.642,4.08115
1.83538,-0.257382,3.642,4.08645
nan,nan,nan,NaN
nan,nan,nan,NaN
nan,nan,nan,NaN
nan,nan,nan,NaN
nan,nan,nan,NaN
nan,nan,nan,NaN
nan,nan,nan,NaN
1.851,-0.246852,3.493,3.96083
1.86233,-0.246852,3.493,3.96614
1.87367,-0.246852,3.493,3.97148
1.88501,-0.246852,3.493,3.97684
1.87734,-0.244379,3.458,3.94232
1.88857,-0.244379,3.458,3.94768
1.89979,-0.244379,3.458,3.95306
1.89167,-0.241905,3.423,3.9184
1.88388,-0.239503,3.389,3.8848
1.89488,-0.239503,3.389,3.89015
1.90588,-0.239503,3.389,3.89552
1.91688,-0.239503,3.389,3.90091
1.92788,-0.239503,3.389,3.90633
1.92,-0.23717,3.356,3.87368
1.91248,-0.234909,3.324,3.8421
1.92327,-0.234909,3.324,3.84748
1.93406,-0.234909,3.324,3.85289
1.92613,-0.232647,3.292,3.82117
1.91799,-0.230386,3.26,3.78937
1.92857,-0.230386,3.26,3.79474
1.9213,-0.228266,3.23,3.76516
1.91325,-0.226075,3.199,3.73433
1.92363,-0.226075,3.199,3.73966
1.91648,-0.224026,3.17,3.71106
1.89152,-0.219927,3.112,3.64839
1.90162,-0.219927,3.112,3.65364
1.91172,-0.219927,3.112,3.6589
1.88785,-0.21604,3.057,3.59943
1.89778,-0.21604,3.057,3.60465
1.89085,-0.214132,3.03,3.578
1.88375,-0.212224,3.003,3.55127
1.89349,-0.212224,3.003,3.55645
1.88676,-0.210386,2.977,3.53082
1.86394,-0.206782,2.926,3.47541
1.87343,-0.206782,2.926,3.48052
1.86684,-0.205015,2.901,3.45586
1.84521,-0.201623,2.853,3.40369
1.83887,-0.199927,2.829,3.38004
1.84806,-0.199927,2.829,3.38504
1.84214,-0.198302,2.806,3.3625
1.82156,-0.195121,2.761,3.3135
1.83052,-0.195121,2.761,3.31843
1.82482,-0.193567,2.739,3.2969
1.81899,-0.192012,2.717,3.27531
1.8278,-0.192012,2.717,3.28022
1.80823,-0.189044,2.675,3.23436
1.80265,-0.18756,2.654,3.21379
-1.99587,-0.193984,2.877,3.50689
-1.98653,-0.193984,2.877,3.50158
-1.97719,-0.193984,2.877,3.49629
-1.95144,-0.192366,2.853,3.4619
-1.94218,-0.192366,2.853,3.45669
-1.93292,-0.192366,2.853,3.45149
-1.92366,-0.192366,2.853,3.44631
-1.89829,-0.190747,2.829,3.41221
-1.88911,-0.190747,2.829,3.40711
-1.87993,-0.190747,2.829,3.40202
-1.87075,-0.190747,2.829,3.39696
-1.86157,-0.190747,2.829,3.39191
-1.85238,-0.190747,2.829,3.38688
-1.8432,-0.190747,2.829,3.38187
-1.83402,-0.190747,2.829,3.37687
-1.84032,-0.192366,2.853,3.4005
-1.83106,-0.192366,2.853,3.39549
-1.83712,-0.193984,2.877,3.41903
-1.85891,-0.197288,2.926,3.47217
-1.84942,-0.197288,2.926,3.46709
-1.85564,-0.198973,2.951,3.49162
-1.87859,-0.202479,3.003,3.54797
-1.86885,-0.202479,3.003,3.54282
-1.8591,-0.202479,3.003,3.53769
-1.86598,-0.2043,3.03,3.56434
-1.85614,-0.2043,3.03,3.5592
-1.84631,-0.2043,3.03,3.55408
-1.83648,-0.2043,3.03,3.54898
-1.84292,-0.20612,3.057,3.57548
-1.81681,-0.2043,3.03,3.53884
-1.80697,-0.2043,3.03,3.53381
-1.79714,-0.2043,3.03,3.52879
-1.77138,-0.202479,3.003,3.49239
-1.76163,-0.202479,3.003,3.48746
nan,nan,nan,NaN
nan,nan,nan,NaN
nan,nan,nan,NaN
nan,nan,nan,NaN
nan,nan,nan,NaN
nan,nan,nan,NaN
nan,nan,nan,NaN
nan,nan,nan,NaN
nan,nan,nan,NaN
nan,nan,nan,NaN
nan,nan,nan,NaN
nan,nan,nan,NaN
nan,nan,nan,NaN
nan,nan,nan,NaN
nan,nan,nan,NaN
nan,nan,nan,NaN
nan,nan,nan,NaN
nan,nan,nan,NaN
nan,nan,nan,NaN
nan,nan,nan,NaN
nan,nan,nan,NaN
nan,nan,nan,NaN
nan,nan,nan,NaN
nan,nan,nan,NaN
nan,nan,nan,NaN
nan,nan,nan,NaN
nan,nan,nan,NaN
nan,nan,nan,NaN
nan,nan,nan,NaN
nan,nan,nan,NaN
nan,nan,nan,NaN
-1.17214,-0.16371,2.428,2.70109
-1.15611,-0.162563,2.411,2.67879
-1.14828,-0.162563,2.411,2.67542
-1.14046,-0.162563,2.411,2.67208
-1.13263,-0.162563,2.411,2.66874
-1.1248,-0.162563,2.411,2.66543
-1.1091,-0.161417,2.394,2.64337
-1.10133,-0.161417,2.394,2.64012
-1.0858,-0.160271,2.377,2.61816
-1.07808,-0.160271,2.377,2.61497
-1.07037,-0.160271,2.377,2.6118
-1.06265,-0.160271,2.377,2.60865
-1.05494,-0.160271,2.377,2.60551
-1.04722,-0.160271,2.377,2.6024
-1.03951,-0.160271,2.377,2.59931
-1.03179,-0.160271,2.377,2.59623
-1.01718,-0.159192,2.361,2.57572
-1.00952,-0.159192,2.361,2.5727
-1.00186,-0.159192,2.361,2.5697
-0.994193,-0.159192,2.361,2.56673
-0.986529,-0.159192,2.361,2.56377
-0.978866,-0.159192,2.361,2.56083
-0.971203,-0.159192,2.361,2.55791
-0.96354,-0.159192,2.361,2.55501
-0.955876,-0.159192,2.361,2.55213
-0.948213,-0.159192,2.361,2.54927
-0.94055,-0.159192,2.361,2.54643
-0.932887,-0.159192,2.361,2.54361
-0.925224,-0.159192,2.361,2.54081
-0.91756,-0.159192,2.361,2.53803
-0.916063,-0.160271,2.377,2.55245
-0.908348,-0.160271,2.377,2.54969
-0.900633,-0.160271,2.377,2.54695
-0.892918,-0.160271,2.377,2.54423
-0.885203,-0.160271,2.377,2.54153
-0.877488,-0.160271,2.377,2.53886
-0.869772,-0.160271,2.377,2.5362
-0.862057,-0.160271,2.377,2.53357
-0.854342,-0.160271,2.377,2.53095
-0.846627,-0.160271,2.377,2.52836
-0.838912,-0.160271,2.377,2.52578
-0.831197,-0.160271,2.377,2.52323
-0.823481,-0.160271,2.377,2.5207
-0.815766,-0.160271,2.377,2.51819
-0.808051,-0.160271,2.377,2.5157
-0.800336,-0.160271,2.377,2.51324
-0.787286,-0.159192,2.361,2.49389
-0.779622,-0.159192,2.361,2.49148
-0.771959,-0.159192,2.361,2.48909
-0.764296,-0.159192,2.361,2.48673
-0.756633,-0.159192,2.361,2.48438
-0.748969,-0.159192,2.361,2.48206
-0.741306,-0.159192,2.361,2.47976
-0.738615,-0.160271,2.377,2.49427
-0.7309,-0.160271,2.377,2.49199
-0.723184,-0.160271,2.377,2.48974
-0.715469,-0.160271,2.377,2.48751
-0.712816,-0.161417,2.394,2.50308
-0.710052,-0.162563,2.411,2.51864
-0.702227,-0.162563,2.411,2.51644
-0.694401,-0.162563,2.411,2.51427
-0.686576,-0.162563,2.411,2.51212
-0.67875,-0.162563,2.411,2.50999
-0.675655,-0.16371,2.428,2.52557
-0.67245,-0.164856,2.445,2.54114
-0.664514,-0.164856,2.445,2.53905
-0.656578,-0.164856,2.445,2.53699
-0.648643,-0.164856,2.445,2.53494
-0.640707,-0.164856,2.445,2.53292
-0.632771,-0.164856,2.445,2.53093
-0.624835,-0.164856,2.445,2.52896
-0.621441,-0.16607,2.463,2.54561
-0.613446,-0.16607,2.463,2.54367
-0.605452,-0.16607,2.463,2.54176
-0.597458,-0.16607,2.463,2.53986
-0.589464,-0.16607,2.463,2.53799
-0.581469,-0.16607,2.463,2.53615
-0.573475,-0.16607,2.463,2.53433
-0.565481,-0.16607,2.463,2.53253
-0.557486,-0.16607,2.463,2.53076
-0.549492,-0.16607,2.463,2.52901
-0.545455,-0.167283,2.481,2.54575
-0.537403,-0.167283,2.481,2.54404
-0.52935,-0.167283,2.481,2.54235
-0.521297,-0.167283,2.481,2.54069
-0.513244,-0.167283,2.481,2.53905
-0.505192,-0.167283,2.481,2.53743
-0.497139,-0.167283,2.481,2.53584
-0.489086,-0.167283,2.481,2.53428
-0.481034,-0.167283,2.481,2.53273
-0.472981,-0.167283,2.481,2.53122
-0.468301,-0.168497,2.499,2.54808
-0.46019,-0.168497,2.499,2.5466
-0.452079,-0.168497,2.499,2.54515
-0.447166,-0.169711,2.517,2.56204
-0.438996,-0.169711,2.517,2.56063
-0.430827,-0.169711,2.517,2.55924
-0.422657,-0.169711,2.517,2.55788
-0.414487,-0.169711,2.517,2.55654
-0.406318,-0.169711,2.517,2.55523
-0.404159,-0.172273,2.555,2.5925
-0.395866,-0.172273,2.555,2.59122
-0.387574,-0.172273,2.555,2.58996
-0.379281,-0.172273,2.555,2.58874
-0.373747,-0.173554,2.574,2.60678
-0.365392,-0.173554,2.574,2.60559
-0.357037,-0.173554,2.574,2.60443
-0.348683,-0.173554,2.574,2.6033
-0.34284,-0.174835,2.593,2.6214
-0.334424,-0.174835,2.593,2.62032
-0.326008,-0.174835,2.593,2.61926
-0.317592,-0.174835,2.593,2.61822
-0.309175,-0.174835,2.593,2.61721
-0.300759,-0.174835,2.593,2.61623
-0.292343,-0.174835,2.593,2.61528
-0.283927,-0.174835,2.593,2.61435
-0.277636,-0.176183,2.613,2.63361
-0.269154,-0.176183,2.613,2.63273
-0.260673,-0.176183,2.613,2.63187
-0.252192,-0.176183,2.613,2.63105
-0.243711,-0.176183,2.613,2.63025
-0.23523,-0.176183,2.613,2.62948
-0.226749,-0.176183,2.613,2.62873
-0.218268,-0.176183,2.613,2.62801
-0.209786,-0.176183,2.613,2.62732
-0.201305,-0.176183,2.613,2.62666
-0.192824,-0.176183,2.613,2.62602
-0.184343,-0.176183,2.613,2.62541
-0.174516,-0.174835,2.593,2.60474
-0.1661,-0.174835,2.593,2.60419
-0.157683,-0.174835,2.593,2.60367
-0.149267,-0.174835,2.593,2.60317
-0.140851,-0.174835,2.593,2.6027
-0.132435,-0.174835,2.593,2.60226
-0.124018,-0.174835,2.593,2.60185
-0.114755,-0.173554,2.574,2.5824
-0.1064,-0.173554,2.574,2.58204
-0.0987696,-0.174835,2.593,2.60076
-0.0903534,-0.174835,2.593,2.60046
-0.0819372,-0.174835,2.593,2.60018
-0.073521,-0.174835,2.593,2.59993
-0.0651047,-0.174835,2.593,2.5997
-0.0566885,-0.174835,2.593,2.59951
-0.0482722,-0.174835,2.593,2.59934
-0.039856,-0.174835,2.593,2.59919
-0.0314398,-0.174835,2.593,2.59908
-0.0232011,-0.176183,2.613,2.61904
-0.01472,-0.176183,2.613,2.61897
-0.00623883,-0.176183,2.613,2.61894
0.00224232,-0.176183,2.613,2.61893
0.0107235,-0.176183,2.613,2.61895
0.0192046,-0.176183,2.613,2.619
0.0276858,-0.176183,2.613,2.61908
0.0358901,-0.174835,2.593,2.59914
0.0443063,-0.174835,2.593,2.59927
0.0527226,-0.174835,2.593,2.59942
0.0611388,-0.174835,2.593,2.59961
0.069555,-0.174835,2.593,2.59982
0.0779713,-0.174835,2.593,2.60006
0.0863875,-0.174835,2.593,2.60032
0.0948037,-0.174835,2.593,2.60062
0.10322,-0.174835,2.593,2.60094
0.111636,-0.174835,2.593,2.60128
0.120052,-0.174835,2.593,2.60166
0.128469,-0.174835,2.593,2.60206
0.136885,-0.174835,2.593,2.60249
0.146422,-0.176183,2.613,2.62302
0.154903,-0.176183,2.613,2.62351
0.163384,-0.176183,2.613,2.62402
0.171865,-0.176183,2.613,2.62457
0.180346,-0.176183,2.613,2.62514
0.188828,-0.176183,2.613,2.62573
0.198819,-0.177532,2.633,2.64646
0.207365,-0.177532,2.633,2.64711
0.215911,-0.177532,2.633,2.6478
0.224457,-0.177532,2.633,2.64851
0.233003,-0.177532,2.633,2.64924
0.241549,-0.177532,2.633,2.65001
0.250095,-0.177532,2.633,2.6508
0.258641,-0.177532,2.633,2.65162
0.267187,-0.177532,2.633,2.65247
0.275734,-0.177532,2.633,2.65334
0.28428,-0.177532,2.633,2.65425
0.292826,-0.177532,2.633,2.65517
0.301372,-0.177532,2.633,2.65613
0.307564,-0.176183,2.613,2.63693
0.316045,-0.176183,2.613,2.63793
0.322042,-0.174835,2.593,2.61876
0.328037,-0.173554,2.574,2.60062
0.336391,-0.173554,2.574,2.60168
0.344746,-0.173554,2.574,2.60278
0.353101,-0.173554,2.574,2.6039
0.358787,-0.172273,2.555,2.58581
0.36708,-0.172273,2.555,2.58698
0.375373,-0.172273,2.555,2.58817
0.383666,-0.172273,2.555,2.58938
0.391959,-0.172273,2.555,2.59062
0.400252,-0.172273,2.555,2.59189
0.408544,-0.172273,2.555,2.59319
0.419937,-0.173554,2.574,2.6138
0.428292,-0.173554,2.574,2.61515
0.436646,-0.173554,2.574,2.61654
0.445001,-0.173554,2.574,2.61794
0.453355,-0.173554,2.574,2.61938
0.458302,-0.172273,2.555,2.60149
0.466595,-0.172273,2.555,2.60296
0.474888,-0.172273,2.555,2.60446
0.48318,-0.172273,2.555,2.60599
0.491473,-0.172273,2.555,2.60754
0.499766,-0.172273,2.555,2.60911
0.508059,-0.172273,2.555,2.61071
0.516352,-0.172273,2.555,2.61234
0.524645,-0.172273,2.555,2.61399
0.532938,-0.172273,2.555,2.61567
0.541231,-0.172273,2.555,2.61737
0.549524,-0.172273,2.555,2.6191
0.557817,-0.172273,2.555,2.62085
0.566109,-0.172273,2.555,2.62263
0.574402,-0.172273,2.555,2.62443
0.587028,-0.173554,2.574,2.64579
0.595383,-0.173554,2.574,2.64766
0.603738,-0.173554,2.574,2.64955
0.612092,-0.173554,2.574,2.65146
0.620447,-0.173554,2.574,2.6534
0.628801,-0.173554,2.574,2.65537
0.637156,-0.173554,2.574,2.65736
0.64551,-0.173554,2.574,2.65938
0.653865,-0.173554,2.574,2.66142
0.662219,-0.173554,2.574,2.66348
0.670574,-0.173554,2.574,2.66557
0.678929,-0.173554,2.574,2.66768
0.68221,-0.172273,2.555,2.65012
0.690503,-0.172273,2.555,2.65226
0.698796,-0.172273,2.555,2.65443
0.712347,-0.173554,2.574,2.67638
0.720701,-0.173554,2.574,2.67862
0.729056,-0.173554,2.574,2.68088
0.731967,-0.172273,2.555,2.66336
0.74026,-0.172273,2.555,2.66565
0.748553,-0.172273,2.555,2.66796
0.756846,-0.172273,2.555,2.6703
0.759449,-0.170992,2.536,2.65279
0.76768,-0.170992,2.536,2.65516
0.775912,-0.170992,2.536,2.65755
0.784143,-0.170992,2.536,2.65997
0.792374,-0.170992,2.536,2.6624
0.800605,-0.170992,2.536,2.66486
0.802777,-0.169711,2.517,2.64737
0.810946,-0.169711,2.517,2.64985
0.819116,-0.169711,2.517,2.65237
0.821369,-0.168497,2.499,2.63591
0.82948,-0.168497,2.499,2.63845
0.837591,-0.168497,2.499,2.64101
0.845702,-0.168497,2.499,2.6436
0.847664,-0.167283,2.481,2.62714
0.855716,-0.167283,2.481,2.62975
0.857502,-0.16607,2.463,2.61328
0.865497,-0.16607,2.463,2.61592
0.873491,-0.16607,2.463,2.61857
0.875043,-0.164856,2.445,2.6021
0.882979,-0.164856,2.445,2.60478
0.890915,-0.164856,2.445,2.60748
0.892601,-0.16371,2.428,2.59205
0.900482,-0.16371,2.428,2.59477
0.908362,-0.16371,2.428,2.59752
0.909828,-0.162563,2.411,2.58208
0.917653,-0.162563,2.411,2.58485
0.925479,-0.162563,2.411,2.58764
0.933304,-0.162563,2.411,2.59044
0.934494,-0.161417,2.394,2.57499
0.942264,-0.161417,2.394,2.57782
0.950035,-0.161417,2.394,2.58067
0.957805,-0.161417,2.394,2.58354
nan,nan,nan,NaN
nan,nan,nan,NaN
0.981116,-0.161417,2.394,2.59227
0.988886,-0.161417,2.394,2.59522
nan,nan,nan,NaN
nan,nan,nan,NaN
nan,nan,nan,NaN
nan,nan,nan,NaN
nan,nan,nan,NaN
nan,nan,nan,NaN
nan,nan,nan,NaN
nan,nan,nan,NaN
nan,nan,nan,NaN
nan,nan,nan,NaN
nan,nan,nan,NaN
nan,nan,nan,NaN
nan,nan,nan,NaN
nan,nan,nan,NaN
1.68171,-0.245564,3.642,4.01903
1.69353,-0.245564,3.642,4.02399
1.70535,-0.245564,3.642,4.02898
1.73556,-0.248194,3.681,4.0772
1.74751,-0.248194,3.681,4.0823
1.75946,-0.248194,3.681,4.08743
1.75264,-0.245564,3.642,4.04922
1.76446,-0.245564,3.642,4.05435
1.75775,-0.243002,3.604,4.01716
1.75079,-0.24044,3.566,3.97988
1.74408,-0.237945,3.529,3.94364
1.75553,-0.237945,3.529,3.94871
1.76698,-0.237945,3.529,3.95382
1.83538,-0.245564,3.642,4.08572
nan,nan,nan,NaN
nan,nan,nan,NaN
nan,nan,nan,NaN
nan,nan,nan,NaN
nan,nan,nan,NaN
nan,nan,nan,NaN
nan,nan,nan,NaN
1.79588,-0.228506,3.389,3.84223
1.80688,-0.228506,3.389,3.84738
1.83612,-0.230798,3.423,3.89121
1.84723,-0.230798,3.423,3.89647
1.85834,-0.230798,3.423,3.90175
1.86945,-0.230798,3.423,3.90705
1.88056,-0.230798,3.423,3.91238
1.87288,-0.228506,3.389,3.87882
1.86554,-0.226281,3.356,3.84632
1.87643,-0.226281,3.356,3.85161
1.88732,-0.226281,3.356,3.85693
1.89822,-0.226281,3.356,3.86228
1.90911,-0.226281,3.356,3.86764
1.9017,-0.224123,3.324,3.8361
1.89407,-0.221965,3.292,3.80448
1.90476,-0.221965,3.292,3.80981
1.91544,-0.221965,3.292,3.81516
1.9074,-0.219808,3.26,3.7834
1.91799,-0.219808,3.26,3.78874
1.92857,-0.219808,3.26,3.79411
1.9213,-0.217785,3.23,3.76454
1.91325,-0.215695,3.199,3.73372
1.92363,-0.215695,3.199,3.73905
1.91648,-0.21374,3.17,3.71046
1.89152,-0.209829,3.112,3.64779
1.90162,-0.209829,3.112,3.65304
1.89452,-0.207941,3.084,3.6254
1.88785,-0.20612,3.057,3.59885
1.89778,-0.20612,3.057,3.60407
1.89085,-0.2043,3.03,3.57742
1.86744,-0.200726,2.977,3.51996
1.8771,-0.200726,2.977,3.5251
1.87028,-0.198973,2.951,3.49942
1.86394,-0.197288,2.926,3.47486
1.87343,-0.197288,2.926,3.47996
1.8514,-0.193984,2.877,3.42672
1.84521,-0.192366,2.853,3.40315
1.82392,-0.189197,2.806,3.35203
1.83303,-0.189197,2.806,3.357
1.82704,-0.187646,2.783,3.33442
1.82156,-0.186162,2.761,3.31298
1.83052,-0.186162,2.761,3.31792
1.82482,-0.184679,2.739,3.29639
1.80493,-0.18178,2.696,3.2495
1.81368,-0.18178,2.696,3.25436
1.79404,-0.178948,2.654,3.20847
1.80265,-0.178948,2.654,3.2133
-1.99587,-0.184648,2.877,3.50638
-1.98653,-0.184648,2.877,3.50108
-1.97719,-0.184648,2.877,3.49579
-1.96786,-0.184648,2.877,3.49051
-1.94218,-0.183108,2.853,3.45618
-1.93292,-0.183108,2.853,3.45099
-1.90748,-0.181568,2.829,3.41682
-1.89829,-0.181568,2.829,3.41171
-1.88911,-0.181568,2.829,3.4066
-1.87993,-0.181568,2.829,3.40152
-1.85554,-0.180092,2.806,3.36884
-1.84643,-0.180092,2.806,3.36383
-1.83732,-0.180092,2.806,3.35884
-1.82822,-0.180092,2.806,3.35387
-1.81911,-0.180092,2.806,3.34891
-1.82484,-0.181568,2.829,3.37139
-1.81565,-0.181568,2.829,3.36642
-1.8218,-0.183108,2.853,3.39
-1.84303,-0.186189,2.901,3.44198
-1.83362,-0.186189,2.901,3.43695
-1.83992,-0.187793,2.926,3.46151
-1.86233,-0.191066,2.977,3.51672
-1.85267,-0.191066,2.977,3.51161
-1.843,-0.191066,2.977,3.50652
-1.84935,-0.192735,3.003,3.53203
-1.8396,-0.192735,3.003,3.52694
-1.82986,-0.192735,3.003,3.52187
-1.82011,-0.192735,3.003,3.51681
-1.82664,-0.194468,3.03,3.54335
-1.81681,-0.194468,3.03,3.53829
-1.79087,-0.192735,3.003,3.50177
-1.78112,-0.192735,3.003,3.49679
-1.77138,-0.192735,3.003,3.49184
-1.76163,-0.192735,3.003,3.4869
nan,nan,nan,NaN
nan,nan,nan,NaN
nan,nan,nan,NaN
nan,nan,nan,NaN
nan,nan,nan,NaN
nan,nan,nan,NaN
nan,nan,nan,NaN
nan,nan,nan,NaN
nan,nan,nan,NaN
nan,nan,nan,NaN
nan,nan,nan,NaN
nan,nan,nan,NaN
nan,nan,nan,NaN
nan,nan,nan,NaN
nan,nan,nan,NaN
nan,nan,nan,NaN
nan,nan,nan,NaN
nan,nan,nan,NaN
nan,nan,nan,NaN
nan,nan,nan,NaN
nan,nan,nan,NaN
nan,nan,nan,NaN
nan,nan,nan,NaN
nan,nan,nan,NaN
nan,nan,nan,NaN
nan,nan,nan,NaN
nan,nan,nan,NaN
nan,nan,nan,NaN
nan,nan,nan,NaN
nan,nan,nan,NaN
nan,nan,nan,NaN
-1.17214,-0.155831,2.428,2.70063
-1.16426,-0.155831,2.428,2.69721
-1.15638,-0.155831,2.428,2.69382
-1.1485,-0.155831,2.428,2.69045
-1.13263,-0.15474,2.411,2.66828
-1.1248,-0.15474,2.411,2.66497
-1.1091,-0.153649,2.394,2.64291
-1.10133,-0.153649,2.394,2.63965
-1.09356,-0.153649,2.394,2.63642
-1.08579,-0.153649,2.394,2.63321
-1.07037,-0.152558,2.377,2.61134
-1.06265,-0.152558,2.377,2.60819
-1.05494,-0.152558,2.377,2.60505
-1.04722,-0.152558,2.377,2.60194
-1.03951,-0.152558,2.377,2.59884
-1.03179,-0.152558,2.377,2.59576
-1.02408,-0.152558,2.377,2.59271
-1.01636,-0.152558,2.377,2.58967
-1.00865,-0.152558,2.377,2.58665
-0.994193,-0.151531,2.361,2.56626
-0.986529,-0.151531,2.361,2.5633
-0.978866,-0.151531,2.361,2.56036
-0.971203,-0.151531,2.361,2.55744
-0.96354,-0.151531,2.361,2.55454
-0.955876,-0.151531,2.361,2.55166
-0.948213,-0.151531,2.361,2.5488
-0.94055,-0.151531,2.361,2.54596
-0.932887,-0.151531,2.361,2.54314
-0.925224,-0.151531,2.361,2.54034
-0.91756,-0.151531,2.361,2.53756
-0.916063,-0.152558,2.377,2.55197
-0.908348,-0.152558,2.377,2.54922
-0.900633,-0.152558,2.377,2.54648
-0.892918,-0.152558,2.377,2.54376
-0.885203,-0.152558,2.377,2.54106
-0.877488,-0.152558,2.377,2.53838
-0.869772,-0.152558,2.377,2.53573
-0.862057,-0.152558,2.377,2.53309
-0.854342,-0.152558,2.377,2.53047
-0.846627,-0.152558,2.377,2.52788
-0.838912,-0.152558,2.377,2.52531
-0.831197,-0.152558,2.377,2.52275
-0.823481,-0.152558,2.377,2.52022
-0.815766,-0.152558,2.377,2.51771
-0.808051,-0.152558,2.377,2.51522
-0.800336,-0.152558,2.377,2.51276
-0.787286,-0.151531,2.361,2.49341
-0.779622,-0.151531,2.361,2.491
-0.771959,-0.151531,2.361,2.48861
-0.764296,-0.151531,2.361,2.48625
-0.756633,-0.151531,2.361,2.4839
-0.748969,-0.151531,2.361,2.48158
-0.741306,-0.151531,2.361,2.47928
-0.738615,-0.152558,2.377,2.49378
-0.7309,-0.152558,2.377,2.49151
-0.723184,-0.152558,2.377,2.48926
-0.715469,-0.152558,2.377,2.48703
-0.712816,-0.153649,2.394,2.50259
-0.710052,-0.15474,2.411,2.51814
-0.702227,-0.15474,2.411,2.51595
-0.694401,-0.15474,2.411,2.51377
-0.686576,-0.15474,2.411,2.51162
-0.67875,-0.15474,2.411,2.5095
-0.675655,-0.155831,2.428,2.52507
-0.67245,-0.156922,2.445,2.54064
-0.664514,-0.156922,2.445,2.53855
-0.656578,-0.156922,2.445,2.53648
-0.648643,-0.156922,2.445,2.53444
-0.640707,-0.156922,2.445,2.53242
-0.632771,-0.156922,2.445,2.53042
-0.624835,-0.156922,2.445,2.52845
-0.621441,-0.158078,2.463,2.5451
-0.613446,-0.158078,2.463,2.54316
-0.605452,-0.158078,2.463,2.54125
-0.597458,-0.158078,2.463,2.53935
-0.589464,-0.158078,2.463,2.53748
-0.581469,-0.158078,2.463,2.53564
-0.573475,-0.158078,2.463,2.53382
-0.565481,-0.158078,2.463,2.53202
-0.557486,-0.158078,2.463,2.53025
-0.549492,-0.158078,2.463,2.5285
-0.545455,-0.159233,2.481,2.54524
-0.537403,-0.159233,2.481,2.54352
-0.52935,-0.159233,2.481,2.54184
-0.521297,-0.159233,2.481,2.54017
-0.513244,-0.159233,2.481,2.53853
-0.505192,-0.159233,2.481,2.53691
-0.497139,-0.159233,2.481,2.53532
-0.489086,-0.159233,2.481,2.53376
-0.481034,-0.159233,2.481,2.53221
-0.472981,-0.159233,2.481,2.5307
-0.468301,-0.160388,2.499,2.54755
-0.46019,-0.160388,2.499,2.54608
-0.452079,-0.160388,2.499,2.54462
-0.443968,-0.160388,2.499,2.54319
-0.435857,-0.160388,2.499,2.54179
-0.430827,-0.161543,2.517,2.55871
-0.422657,-0.161543,2.517,2.55735
-0.414487,-0.161543,2.517,2.55601
-0.406318,-0.161543,2.517,2.5547
-0.401154,-0.162763,2.536,2.57269
-0.392923,-0.162763,2.536,2.57142
-0.384691,-0.162763,2.536,2.57017
-0.379281,-0.163982,2.555,2.5882
-0.370988,-0.163982,2.555,2.587
-0.362695,-0.163982,2.555,2.58582
-0.357037,-0.165202,2.574,2.60389
-0.348683,-0.165202,2.574,2.60276
-0.34284,-0.166421,2.593,2.62086
-0.334424,-0.166421,2.593,2.61977
-0.326008,-0.166421,2.593,2.61871
-0.320041,-0.167705,2.613,2.63786
-0.309175,-0.166421,2.593,2.61666
-0.300759,-0.166421,2.593,2.61568
-0.292343,-0.166421,2.593,2.61473
-0.283927,-0.166421,2.593,2.6138
-0.275511,-0.166421,2.593,2.6129
-0.267094,-0.166421,2.593,2.61203
-0.258678,-0.166421,2.593,2.61118
-0.250262,-0.166421,2.593,2.61036
-0.241846,-0.166421,2.593,2.60957
-0.233429,-0.166421,2.593,2.6088
-0.225013,-0.166421,2.593,2.60806
-0.216597,-0.166421,2.593,2.60735
-0.208181,-0.166421,2.593,2.60666
-0.199764,-0.166421,2.593,2.606
-0.191348,-0.166421,2.593,2.60537
-0.184343,-0.167705,2.613,2.62486
-0.175862,-0.167705,2.613,2.62428
-0.167381,-0.167705,2.613,2.62372
-0.157683,-0.166421,2.593,2.60312
-0.149267,-0.166421,2.593,2.60262
-0.140851,-0.166421,2.593,2.60215
-0.132435,-0.166421,2.593,2.60171
-0.124018,-0.166421,2.593,2.60129
-0.115602,-0.166421,2.593,2.60091
-0.107186,-0.166421,2.593,2.60054
-0.0987696,-0.166421,2.593,2.60021
-0.0903534,-0.166421,2.593,2.59991
-0.0819372,-0.166421,2.593,2.59963
-0.073521,-0.166421,2.593,2.59938
-0.0656069,-0.167705,2.613,2.6192
-0.0566885,-0.166421,2.593,2.59895
-0.0482722,-0.166421,2.593,2.59878
-0.039856,-0.166421,2.593,2.59864
-0.0314398,-0.166421,2.593,2.59853
-0.0232011,-0.167705,2.613,2.61848
-0.01472,-0.167705,2.613,2.61842
-0.00623883,-0.167705,2.613,2.61838
0.00224232,-0.167705,2.613,2.61838
0.0107235,-0.167705,2.613,2.6184
0.0192046,-0.167705,2.613,2.61845
0.0274739,-0.166421,2.593,2.59848
0.0358901,-0.166421,2.593,2.59858
0.0443063,-0.166421,2.593,2.59871
0.0527226,-0.166421,2.593,2.59887
0.0611388,-0.166421,2.593,2.59905
0.069555,-0.166421,2.593,2.59927
0.0779713,-0.166421,2.593,2.5995
0.0863875,-0.166421,2.593,2.59977
0.0948037,-0.166421,2.593,2.60006
0.10322,-0.166421,2.593,2.60038
0.111636,-0.166421,2.593,2.60073
0.120052,-0.166421,2.593,2.60111
0.128469,-0.166421,2.593,2.60151
0.136885,-0.166421,2.593,2.60194
0.146422,-0.167705,2.613,2.62247
0.154903,-0.167705,2.613,2.62295
0.163384,-0.167705,2.613,2.62347
0.171865,-0.167705,2.613,2.62401
0.180346,-0.167705,2.613,2.62458
0.188828,-0.167705,2.613,2.62518
0.198819,-0.168988,2.633,2.6459
0.207365,-0.168988,2.633,2.64655
0.215911,-0.168988,2.633,2.64724
0.224457,-0.168988,2.633,2.64795
0.233003,-0.168988,2.633,2.64869
0.241549,-0.168988,2.633,2.64945
0.250095,-0.168988,2.633,2.65024
0.258641,-0.168988,2.633,2.65106
0.267187,-0.168988,2.633,2.65191
0.275734,-0.168988,2.633,2.65279
0.28428,-0.168988,2.633,2.65369
0.292826,-0.168988,2.633,2.65462
0.301372,-0.168988,2.633,2.65557
0.307564,-0.167705,2.613,2.63638
0.316045,-0.167705,2.613,2.63738
0.322042,-0.166421,2.593,2.61822
0.328037,-0.165202,2.574,2.60007
0.336391,-0.165202,2.574,2.60114
0.344746,-0.165202,2.574,2.60223
0.353101,-0.165202,2.574,2.60335
0.358787,-0.163982,2.555,2.58527
0.36708,-0.163982,2.555,2.58644
0.375373,-0.163982,2.555,2.58763
0.383666,-0.163982,2.555,2.58884
0.391959,-0.163982,2.555,2.59009
0.400252,-0.163982,2.555,2.59135
0.408544,-0.163982,2.555,2.59265
0.419937,-0.165202,2.574,2.61326
0.428292,-0.165202,2.574,2.61461
0.436646,-0.165202,2.574,2.61599
0.445001,-0.165202,2.574,2.6174
0.453355,-0.165202,2.574,2.61884
0.458302,-0.163982,2.555,2.60095
0.466595,-0.163982,2.555,2.60243
0.474888,-0.163982,2.555,2.60393
0.48318,-0.163982,2.555,2.60545
0.491473,-0.163982,2.555,2.607
0.499766,-0.163982,2.555,2.60858
0.508059,-0.163982,2.555,2.61018
0.516352,-0.163982,2.555,2.61181
0.524645,-0.163982,2.555,2.61346
0.532938,-0.163982,2.555,2.61514
0.541231,-0.163982,2.555,2.61684
0.549524,-0.163982,2.555,2.61857
0.557817,-0.163982,2.555,2.62032
0.566109,-0.163982,2.555,2.6221
0.574402,-0.163982,2.555,2.6239
0.587028,-0.165202,2.574,2.64525
0.595383,-0.165202,2.574,2.64712
0.603738,-0.165202,2.574,2.64901
0.612092,-0.165202,2.574,2.65093
0.620447,-0.165202,2.574,2.65287
0.628801,-0.165202,2.574,2.65484
0.637156,-0.165202,2.574,2.65683
0.64551,-0.165202,2.574,2.65884
0.653865,-0.165202,2.574,2.66088
0.662219,-0.165202,2.574,2.66295
0.670574,-0.165202,2.574,2.66504
0.678929,-0.165202,2.574,2.66715
0.68221,-0.163982,2.555,2.64959
0.690503,-0.163982,2.555,2.65174
0.698796,-0.163982,2.555,2.65391
0.712347,-0.165202,2.574,2.67586
0.720701,-0.165202,2.574,2.67809
0.729056,-0.165202,2.574,2.68035
0.731967,-0.163982,2.555,2.66284
0.74026,-0.163982,2.555,2.66513
0.748553,-0.163982,2.555,2.66744
0.756846,-0.163982,2.555,2.66978
0.759449,-0.162763,2.536,2.65227
0.76768,-0.162763,2.536,2.65464
0.775912,-0.162763,2.536,2.65703
0.784143,-0.162763,2.536,2.65945
0.792374,-0.162763,2.536,2.66189
0.800605,-0.162763,2.536,2.66435
0.802777,-0.161543,2.517,2.64685
0.810946,-0.161543,2.517,2.64934
0.819116,-0.161543,2.517,2.65186
0.821369,-0.160388,2.499,2.63541
0.82948,-0.160388,2.499,2.63795
0.837591,-0.160388,2.499,2.64051
0.845702,-0.160388,2.499,2.64309
0.847664,-0.159233,2.481,2.62664
0.855716,-0.159233,2.481,2.62925
0.857502,-0.158078,2.463,2.61279
0.865497,-0.158078,2.463,2.61542
0.873491,-0.158078,2.463,2.61808
0.875043,-0.156922,2.445,2.60161
0.882979,-0.156922,2.445,2.60429
0.890915,-0.156922,2.445,2.60699
0.892601,-0.155831,2.428,2.59156
0.900482,-0.155831,2.428,2.59429
0.902002,-0.15474,2.411,2.57885
0.909828,-0.15474,2.411,2.5816
0.917653,-0.15474,2.411,2.58437
0.925479,-0.15474,2.411,2.58716
0.933304,-0.15474,2.411,2.58997
0.934494,-0.153649,2.394,2.57451
0.942264,-0.153649,2.394,2.57734
0.950035,-0.153649,2.394,2.5802
0.957805,-0.153649,2.394,2.58307
nan,nan,nan,NaN
nan,nan,nan,NaN
0.981116,-0.153649,2.394,2.5918
0.988886,-0.153649,2.394,2.59475
1.00373,-0.15474,2.411,2.61617
nan,nan,nan,NaN
nan,nan,nan,NaN
nan,nan,nan,NaN
nan,nan,nan,NaN
nan,nan,nan,NaN
nan,nan,nan,NaN
nan,nan,nan,NaN
nan,nan,nan,NaN
nan,nan,nan,NaN
nan,nan,nan,NaN
nan,nan,nan,NaN
nan,nan,nan,NaN
nan,nan,nan,NaN
1.68171,-0.233747,3.642,4.01833
1.69353,-0.233747,3.642,4.02329
1.70535,-0.233747,3.642,4.02828
1.73556,-0.23625,3.681,4.07649
1.74751,-0.23625,3.681,4.08159
1.6696,-0.224184,3.493,3.878
1.68093,-0.224184,3.493,3.88289
1.70971,-0.226494,3.529,3.92788
1.72117,-0.226494,3.529,3.93288
1.75079,-0.228869,3.566,3.9792
1.74408,-0.226494,3.529,3.94296
1.75553,-0.226494,3.529,3.94804
1.76698,-0.226494,3.529,3.95315
nan,nan,nan,NaN
nan,nan,nan,NaN
nan,nan,nan,NaN
nan,nan,nan,NaN
nan,nan,nan,NaN
nan,nan,nan,NaN
nan,nan,nan,NaN
nan,nan,nan,NaN
1.76144,-0.213337,3.324,3.76791
1.77223,-0.213337,3.324,3.77297
1.80018,-0.215391,3.356,3.81442
1.81108,-0.215391,3.356,3.81957
1.82197,-0.215391,3.356,3.82475
1.83286,-0.215391,3.356,3.82995
1.84375,-0.215391,3.356,3.83517
1.85465,-0.215391,3.356,3.84042
1.84775,-0.213337,3.324,3.80903
1.85854,-0.213337,3.324,3.81427
1.86933,-0.213337,3.324,3.81954
1.88012,-0.213337,3.324,3.82483
1.89091,-0.213337,3.324,3.83015
1.88339,-0.211283,3.292,3.79856
1.87566,-0.20923,3.26,3.76689
1.88624,-0.20923,3.26,3.77217
1.89682,-0.20923,3.26,3.77748
1.88985,-0.207304,3.23,3.74799
1.90034,-0.207304,3.23,3.75329
1.91082,-0.207304,3.23,3.7586
1.90286,-0.205315,3.199,3.72782
1.8959,-0.203453,3.17,3.69929
1.90619,-0.203453,3.17,3.70457
1.89895,-0.201592,3.141,3.67594
1.8745,-0.197934,3.084,3.61441
1.88451,-0.197934,3.084,3.61961
1.87793,-0.196201,3.057,3.5931
1.87118,-0.194468,3.03,3.56652
1.88101,-0.194468,3.03,3.57168
1.874,-0.192735,3.003,3.545
1.86744,-0.191066,2.977,3.51943
1.8771,-0.191066,2.977,3.52456
1.85444,-0.187793,2.926,3.46925
1.84801,-0.186189,2.901,3.44465
1.85743,-0.186189,2.901,3.44971
1.83595,-0.183108,2.853,3.39763
1.82969,-0.181568,2.829,3.37402
1.80897,-0.178615,2.783,3.32406
1.81801,-0.178615,2.783,3.32899
1.8126,-0.177203,2.761,3.30757
1.80704,-0.175791,2.739,3.2861
1.81593,-0.175791,2.739,3.29099
1.81017,-0.174379,2.717,3.26943
1.79087,-0.171684,2.675,3.22371
1.79955,-0.171684,2.675,3.22854
1.79404,-0.170336,2.654,3.20801
1.80265,-0.170336,2.654,3.21283
-2.01252,-0.176775,2.901,3.53515
-1.98653,-0.175313,2.877,3.5006
-1.97719,-0.175313,2.877,3.4953
-1.96786,-0.175313,2.877,3.49003
-1.94218,-0.173851,2.853,3.4557
-1.93292,-0.173851,2.853,3.45051
-1.90748,-0.172388,2.829,3.41635
-1.89829,-0.172388,2.829,3.41123
-1.88911,-0.172388,2.829,3.40613
-1.87993,-0.172388,2.829,3.40104
-1.85554,-0.170987,2.806,3.36837
-1.84643,-0.170987,2.806,3.36336
-1.83732,-0.170987,2.806,3.35837
-1.82822,-0.170987,2.806,3.35339
-1.81911,-0.170987,2.806,3.34844
-1.82484,-0.172388,2.829,3.3709
-1.81565,-0.172388,2.829,3.36594
-1.8218,-0.173851,2.853,3.38951
-1.84303,-0.176775,2.901,3.44148
-1.83362,-0.176775,2.901,3.43645
-1.83992,-0.178299,2.926,3.46101
-1.86233,-0.181407,2.977,3.51621
-1.85267,-0.181407,2.977,3.5111
-1.843,-0.181407,2.977,3.50601
-1.84935,-0.182991,3.003,3.53151
-1.8396,-0.182991,3.003,3.52642
-1.82986,-0.182991,3.003,3.52135
-1.82011,-0.182991,3.003,3.51629
-1.82664,-0.184636,3.03,3.54282
-1.81681,-0.184636,3.03,3.53776
-1.79087,-0.182991,3.003,3.50124
-1.78112,-0.182991,3.003,3.49627
-1.77138,-0.182991,3.003,3.49131
-1.76163,-0.182991,3.003,3.48638
nan,nan,nan,NaN
nan,nan,nan,NaN
nan,nan,nan,NaN
nan,nan,nan,NaN
nan,nan,nan,NaN
nan,nan,nan,NaN
nan,nan,nan,NaN
nan,nan,nan,NaN
nan,nan,nan,NaN
nan,nan,nan,NaN
nan,nan,nan,NaN
nan,nan,nan,NaN
nan,nan,nan,NaN
nan,nan,nan,NaN
nan,nan,nan,NaN
nan,nan,nan,NaN
nan,nan,nan,NaN
nan,nan,nan,NaN
nan,nan,nan,NaN
nan,nan,nan,NaN
nan,nan,nan,NaN
nan,nan,nan,NaN
nan,nan,nan,NaN
nan,nan,nan,NaN
nan,nan,nan,NaN
nan,nan,nan,NaN
nan,nan,nan,NaN
nan,nan,nan,NaN
nan,nan,nan,NaN
-1.19622,-0.148989,2.445,2.72602
-1.18828,-0.148989,2.445,2.72254
-1.17214,-0.147953,2.428,2.70018
-1.16426,-0.147953,2.428,2.69677
-1.15638,-0.147953,2.428,2.69338
-1.1485,-0.147953,2.428,2.69
-1.13263,-0.146917,2.411,2.66784
-1.1248,-0.146917,2.411,2.66452
-1.1091,-0.145881,2.394,2.64247
-1.10133,-0.145881,2.394,2.63921
-1.09356,-0.145881,2.394,2.63598
-1.08579,-0.145881,2.394,2.63277
-1.07037,-0.144845,2.377,2.6109
-1.06265,-0.144845,2.377,2.60775
-1.05494,-0.144845,2.377,2.60461
-1.04722,-0.144845,2.377,2.6015
-1.03951,-0.144845,2.377,2.5984
-1.03179,-0.144845,2.377,2.59532
-1.02408,-0.144845,2.377,2.59227
-1.01636,-0.144845,2.377,2.58923
-1.00865,-0.144845,2.377,2.58621
-0.994193,-0.14387,2.361,2.56582
-0.986529,-0.14387,2.361,2.56286
-0.978866,-0.14387,2.361,2.55992
-0.971203,-0.14387,2.361,2.557
-0.96354,-0.14387,2.361,2.5541
-0.955876,-0.14387,2.361,2.55122
-0.948213,-0.14387,2.361,2.54836
-0.94055,-0.14387,2.361,2.54552
-0.932887,-0.14387,2.361,2.5427
-0.925224,-0.14387,2.361,2.53989
-0.91756,-0.14387,2.361,2.53711
-0.916063,-0.144845,2.377,2.55153
-0.908348,-0.144845,2.377,2.54877
-0.900633,-0.144845,2.377,2.54603
-0.892918,-0.144845,2.377,2.54331
-0.885203,-0.144845,2.377,2.54061
-0.877488,-0.144845,2.377,2.53793
-0.869772,-0.144845,2.377,2.53527
-0.862057,-0.144845,2.377,2.53264
-0.854342,-0.144845,2.377,2.53002
-0.846627,-0.144845,2.377,2.52743
-0.838912,-0.144845,2.377,2.52485
-0.831197,-0.144845,2.377,2.5223
-0.823481,-0.144845,2.377,2.51977
-0.815766,-0.144845,2.377,2.51726
-0.808051,-0.144845,2.377,2.51477
-0.800336,-0.144845,2.377,2.5123
-0.792621,-0.144845,2.377,2.50985
-0.784906,-0.144845,2.377,2.50743
-0.777191,-0.144845,2.377,2.50502
-0.769475,-0.144845,2.377,2.50264
-0.76176,-0.144845,2.377,2.50028
-0.754045,-0.144845,2.377,2.49794
-0.74633,-0.144845,2.377,2.49562
-0.738615,-0.144845,2.377,2.49332
-0.7309,-0.144845,2.377,2.49105
-0.723184,-0.144845,2.377,2.4888
-0.715469,-0.144845,2.377,2.48657
-0.712816,-0.145881,2.394,2.50212
-0.710052,-0.146917,2.411,2.51767
-0.702227,-0.146917,2.411,2.51548
-0.694401,-0.146917,2.411,2.5133
-0.686576,-0.146917,2.411,2.51115
-0.67875,-0.146917,2.411,2.50903
-0.675655,-0.147953,2.428,2.5246
-0.67245,-0.148989,2.445,2.54016
-0.664514,-0.148989,2.445,2.53807
-0.656578,-0.148989,2.445,2.536
-0.648643,-0.148989,2.445,2.53396
-0.640707,-0.148989,2.445,2.53194
-0.632771,-0.148989,2.445,2.52995
-0.629435,-0.150085,2.463,2.54658
-0.621441,-0.150085,2.463,2.54462
-0.613446,-0.150085,2.463,2.54268
-0.605452,-0.150085,2.463,2.54076
-0.597458,-0.150085,2.463,2.53887
-0.593771,-0.151182,2.481,2.55554
-0.585719,-0.151182,2.481,2.55368
-0.577666,-0.151182,2.481,2.55185
-0.569613,-0.151182,2.481,2.55003
-0.561561,-0.151182,2.481,2.54825
-0.553508,-0.151182,2.481,2.54649
-0.545455,-0.151182,2.481,2.54475
-0.537403,-0.151182,2.481,2.54303
-0.52935,-0.151182,2.481,2.54134
-0.521297,-0.151182,2.481,2.53968
-0.513244,-0.151182,2.481,2.53804
-0.505192,-0.151182,2.481,2.53642
-0.497139,-0.151182,2.481,2.53483
-0.489086,-0.151182,2.481,2.53326
-0.481034,-0.151182,2.481,2.53172
-0.472981,-0.151182,2.481,2.5302
-0.468301,-0.152279,2.499,2.54706
-0.46019,-0.152279,2.499,2.54558
-0.452079,-0.152279,2.499,2.54412
-0.443968,-0.152279,2.499,2.5427
-0.435857,-0.152279,2.499,2.54129
-0.427746,-0.152279,2.499,2.53991
-0.419634,-0.152279,2.499,2.53856
-0.414487,-0.153376,2.517,2.55551
-0.406318,-0.153376,2.517,2.55419
-0.398148,-0.153376,2.517,2.55291
-0.392923,-0.154534,2.536,2.57091
-0.384691,-0.154534,2.536,2.56966
-0.37646,-0.154534,2.536,2.56844
-0.370988,-0.155692,2.555,2.58648
-0.362695,-0.155692,2.555,2.58531
-0.357037,-0.156849,2.574,2.60337
-0.348683,-0.156849,2.574,2.60224
-0.34284,-0.158007,2.593,2.62034
-0.334424,-0.158007,2.593,2.61925
-0.328522,-0.159226,2.613,2.63838
-0.320041,-0.159226,2.613,2.63734
-0.309175,-0.158007,2.593,2.61614
-0.300759,-0.158007,2.593,2.61516
-0.292343,-0.158007,2.593,2.61421
-0.283927,-0.158007,2.593,2.61328
-0.275511,-0.158007,2.593,2.61238
-0.267094,-0.158007,2.593,2.6115
-0.258678,-0.158007,2.593,2.61066
-0.250262,-0.158007,2.593,2.60984
-0.241846,-0.158007,2.593,2.60904
-0.233429,-0.158007,2.593,2.60828
-0.225013,-0.158007,2.593,2.60754
-0.216597,-0.158007,2.593,2.60682
-0.208181,-0.158007,2.593,2.60614
-0.199764,-0.158007,2.593,2.60548
-0.191348,-0.158007,2.593,2.60485
-0.184343,-0.159226,2.613,2.62433
-0.175862,-0.159226,2.613,2.62375
-0.167381,-0.159226,2.613,2.62319
-0.157683,-0.158007,2.593,2.60259
-0.149267,-0.158007,2.593,2.60209
-0.140851,-0.158007,2.593,2.60163
-0.132435,-0.158007,2.593,2.60118
-0.124018,-0.158007,2.593,2.60077
-0.115602,-0.158007,2.593,2.60038
-0.107186,-0.158007,2.593,2.60002
-0.0987696,-0.158007,2.593,2.59969
-0.0903534,-0.158007,2.593,2.59938
-0.0819372,-0.158007,2.593,2.5991
-0.073521,-0.158007,2.593,2.59885
-0.0656069,-0.159226,2.613,2.61867
-0.0571257,-0.159226,2.613,2.61847
-0.0486446,-0.159226,2.613,2.6183
-0.0401634,-0.159226,2.613,2.61816
-0.0316823,-0.159226,2.613,2.61804
-0.0232011,-0.159226,2.613,2.61795
-0.0148326,-0.160445,2.633,2.63793
-0.00623883,-0.159226,2.613,2.61785
0.00224232,-0.159226,2.613,2.61785
0.0107235,-0.159226,2.613,2.61787
0.0192046,-0.159226,2.613,2.61792
0.0274739,-0.158007,2.593,2.59796
0.0358901,-0.158007,2.593,2.59806
0.0443063,-0.158007,2.593,2.59819
0.0527226,-0.158007,2.593,2.59834
0.0611388,-0.158007,2.593,2.59853
0.069555,-0.158007,2.593,2.59874
0.0779713,-0.158007,2.593,2.59898
0.0863875,-0.158007,2.593,2.59925
0.0948037,-0.158007,2.593,2.59954
0.10322,-0.158007,2.593,2.59986
0.111636,-0.158007,2.593,2.60021
0.120052,-0.158007,2.593,2.60058
0.128469,-0.158007,2.593,2.60098
0.136885,-0.158007,2.593,2.60141
0.146422,-0.159226,2.613,2.62194
0.154903,-0.159226,2.613,2.62243
0.163384,-0.159226,2.613,2.62294
0.171865,-0.159226,2.613,2.62348
0.180346,-0.159226,2.613,2.62405
0.188828,-0.159226,2.613,2.62465
0.198819,-0.160445,2.633,2.64537
0.207365,-0.160445,2.633,2.64602
0.215911,-0.160445,2.633,2.64671
0.224457,-0.160445,2.633,2.64742
0.233003,-0.160445,2.633,2.64815
0.241549,-0.160445,2.633,2.64892
0.250095,-0.160445,2.633,2.64971
0.258641,-0.160445,2.633,2.65053
0.267187,-0.160445,2.633,2.65138
0.275734,-0.160445,2.633,2.65226
0.28428,-0.160445,2.633,2.65316
0.292826,-0.160445,2.633,2.65409
0.301372,-0.160445,2.633,2.65504
0.30521,-0.158007,2.593,2.61568
0.313626,-0.158007,2.593,2.61667
0.322042,-0.158007,2.593,2.6177
0.328037,-0.156849,2.574,2.59956
0.336391,-0.156849,2.574,2.60062
0.344746,-0.156849,2.574,2.60172
0.353101,-0.156849,2.574,2.60284
0.358787,-0.155692,2.555,2.58476
0.36708,-0.155692,2.555,2.58593
0.375373,-0.155692,2.555,2.58712
0.383666,-0.155692,2.555,2.58833
0.391959,-0.155692,2.555,2.58957
0.400252,-0.155692,2.555,2.59084
0.408544,-0.155692,2.555,2.59214
0.416837,-0.155692,2.555,2.59346
0.42513,-0.155692,2.555,2.5948
0.433423,-0.155692,2.555,2.59617
0.441716,-0.155692,2.555,2.59757
0.450009,-0.155692,2.555,2.59899
0.458302,-0.155692,2.555,2.60044
0.466595,-0.155692,2.555,2.60192
0.474888,-0.155692,2.555,2.60342
0.48318,-0.155692,2.555,2.60494
0.487819,-0.154534,2.536,2.58711
0.49605,-0.154534,2.536,2.58868
0.504281,-0.154534,2.536,2.59027
0.512512,-0.154534,2.536,2.59188
0.520743,-0.154534,2.536,2.59352
0.528975,-0.154534,2.536,2.59519
0.537206,-0.154534,2.536,2.59688
0.549524,-0.155692,2.555,2.61806
0.557817,-0.155692,2.555,2.61981
0.566109,-0.155692,2.555,2.62159
0.574402,-0.155692,2.555,2.6234
0.587028,-0.156849,2.574,2.64475
0.595383,-0.156849,2.574,2.64661
0.603738,-0.156849,2.574,2.6485
0.612092,-0.156849,2.574,2.65042
0.620447,-0.156849,2.574,2.65236
0.628801,-0.156849,2.574,2.65433
0.637156,-0.156849,2.574,2.65632
0.64551,-0.156849,2.574,2.65834
0.653865,-0.156849,2.574,2.66038
0.662219,-0.156849,2.574,2.66244
0.670574,-0.156849,2.574,2.66454
0.678929,-0.156849,2.574,2.66665
0.68221,-0.155692,2.555,2.64909
0.690503,-0.155692,2.555,2.65124
0.698796,-0.155692,2.555,2.65341
0.707089,-0.155692,2.555,2.65561
0.720701,-0.156849,2.574,2.67759
0.729056,-0.156849,2.574,2.67985
0.737411,-0.156849,2.574,2.68214
0.74026,-0.155692,2.555,2.66463
0.748553,-0.155692,2.555,2.66695
0.756846,-0.155692,2.555,2.66928
0.765139,-0.155692,2.555,2.67165
0.773432,-0.155692,2.555,2.67403
0.775912,-0.154534,2.536,2.65654
0.784143,-0.154534,2.536,2.65896
0.798311,-0.155692,2.555,2.68134
0.800605,-0.154534,2.536,2.66386
0.802777,-0.153376,2.517,2.64637
0.810946,-0.153376,2.517,2.64886
0.819116,-0.153376,2.517,2.65137
0.821369,-0.152279,2.499,2.63493
0.82948,-0.152279,2.499,2.63747
0.837591,-0.152279,2.499,2.64003
0.845702,-0.152279,2.499,2.64261
0.847664,-0.151182,2.481,2.62617
0.855716,-0.151182,2.481,2.62878
0.863769,-0.151182,2.481,2.63141
0.865497,-0.150085,2.463,2.61495
0.873491,-0.150085,2.463,2.61761
0.881485,-0.150085,2.463,2.62029
0.882979,-0.148989,2.445,2.60382
0.890915,-0.148989,2.445,2.60652
0.892601,-0.147953,2.428,2.5911
0.900482,-0.147953,2.428,2.59383
0.902002,-0.146917,2.411,2.57839
0.909828,-0.146917,2.411,2.58114
0.917653,-0.146917,2.411,2.58391
0.925479,-0.146917,2.411,2.5867
0.933304,-0.146917,2.411,2.58951
0.934494,-0.145881,2.394,2.57406
0.942264,-0.145881,2.394,2.57689
0.950035,-0.145881,2.394,2.57974
0.957805,-0.145881,2.394,2.58262
nan,nan,nan,NaN
nan,nan,nan,NaN
0.981116,-0.145881,2.394,2.59135
0.988886,-0.145881,2.394,2.5943
1.00373,-0.146917,2.411,2.61572
nan,nan,nan,NaN
nan,nan,nan,NaN
nan,nan,nan,NaN
nan,nan,nan,NaN
nan,nan,nan,NaN
nan,nan,nan,NaN
nan,nan,nan,NaN
nan,nan,nan,NaN
nan,nan,nan,NaN
nan,nan,nan,NaN
nan,nan,nan,NaN
nan,nan,nan,NaN
nan,nan,nan,NaN
nan,nan,nan,NaN
nan,nan,nan,NaN
nan,nan,nan,NaN
nan,nan,nan,NaN
nan,nan,nan,NaN
1.6696,-0.21285,3.493,3.87736
1.68093,-0.21285,3.493,3.88225
1.70971,-0.215043,3.529,3.92724
1.72117,-0.215043,3.529,3.93224
nan,nan,nan,NaN
nan,nan,nan,NaN
nan,nan,nan,NaN
nan,nan,nan,NaN
nan,nan,nan,NaN
nan,nan,nan,NaN
nan,nan,nan,NaN
nan,nan,nan,NaN
nan,nan,nan,NaN
nan,nan,nan,NaN
nan,nan,nan,NaN
nan,nan,nan,NaN
1.76144,-0.202551,3.324,3.76732
1.77223,-0.202551,3.324,3.77237
1.80018,-0.204501,3.356,3.81382
1.81108,-0.204501,3.356,3.81897
1.82197,-0.204501,3.356,3.82415
1.83286,-0.204501,3.356,3.82935
1.84375,-0.204501,3.356,3.83458
1.85465,-0.204501,3.356,3.83983
1.84775,-0.202551,3.324,3.80844
1.85854,-0.202551,3.324,3.81368
1.86933,-0.202551,3.324,3.81895
1.88012,-0.202551,3.324,3.82424
1.89091,-0.202551,3.324,3.82956
1.88339,-0.200601,3.292,3.79798
1.87566,-0.198652,3.26,3.76632
1.88624,-0.198652,3.26,3.7716
1.89682,-0.198652,3.26,3.7769
1.88985,-0.196823,3.23,3.74742
1.90034,-0.196823,3.23,3.75272
1.91082,-0.196823,3.23,3.75804
1.90286,-0.194934,3.199,3.72726
1.8959,-0.193167,3.17,3.69874
1.90619,-0.193167,3.17,3.70402
1.89895,-0.1914,3.141,3.67539
1.8745,-0.187927,3.084,3.61388
1.88451,-0.187927,3.084,3.61908
1.87793,-0.186281,3.057,3.59257
1.87118,-0.184636,3.03,3.56599
1.88101,-0.184636,3.03,3.57116
1.874,-0.182991,3.003,3.54448
1.86744,-0.181407,2.977,3.51891
1.8771,-0.181407,2.977,3.52405
1.85444,-0.178299,2.926,3.46875
1.84801,-0.176775,2.901,3.44415
1.85743,-0.176775,2.901,3.44922
1.83595,-0.173851,2.853,3.39714
1.82969,-0.172388,2.829,3.37353
1.80897,-0.169585,2.783,3.32359
1.81801,-0.169585,2.783,3.32851
1.8126,-0.168244,2.761,3.3071
1.80704,-0.166904,2.739,3.28563
1.81593,-0.166904,2.739,3.29053
1.81017,-0.165563,2.717,3.26898
1.79087,-0.163004,2.675,3.22326
1.79955,-0.163004,2.675,3.22809
1.79404,-0.161724,2.654,3.20756
1.78839,-0.160445,2.633,3.18697
-2.01252,-0.167362,2.901,3.53469
-1.98653,-0.165978,2.877,3.50014
-1.97719,-0.165978,2.877,3.49485
-1.96786,-0.165978,2.877,3.48957
-1.94218,-0.164593,2.853,3.45525
-1.93292,-0.164593,2.853,3.45005
-1.90748,-0.163208,2.829,3.4159
-1.89829,-0.163208,2.829,3.41078
-1.88911,-0.163208,2.829,3.40568
-1.87993,-0.163208,2.829,3.40059
-1.85554,-0.161882,2.806,3.36792
-1.84643,-0.161882,2.806,3.36291
-1.83732,-0.161882,2.806,3.35792
-1.81323,-0.160555,2.783,3.32546
-1.8042,-0.160555,2.783,3.32054
-1.81,-0.161882,2.806,3.34304
-1.80089,-0.161882,2.806,3.33812
-1.80647,-0.163208,2.829,3.36054
-1.81254,-0.164593,2.853,3.38408
-1.80328,-0.164593,2.853,3.37913
-1.8242,-0.167362,2.901,3.43096
-1.84606,-0.170247,2.951,3.48502
-1.85267,-0.171747,2.977,3.51061
-1.843,-0.171747,2.977,3.50552
-1.83334,-0.171747,2.977,3.50045
-1.82368,-0.171747,2.977,3.4954
-1.81401,-0.171747,2.977,3.49037
-1.82011,-0.173247,3.003,3.5158
-1.81036,-0.173247,3.003,3.51076
-1.80062,-0.173247,3.003,3.50574
-1.79087,-0.173247,3.003,3.50075
-1.78112,-0.173247,3.003,3.49577
-1.77138,-0.173247,3.003,3.49082
-1.76163,-0.173247,3.003,3.48588
nan,nan,nan,NaN
nan,nan,nan,NaN
nan,nan,nan,NaN
nan,nan,nan,NaN
nan,nan,nan,NaN
nan,nan,nan,NaN
nan,nan,nan,NaN
nan,nan,nan,NaN
nan,nan,nan,NaN
nan,nan,nan,NaN
nan,nan,nan,NaN
nan,nan,nan,NaN
nan,nan,nan,NaN
nan,nan,nan,NaN
nan,nan,nan,NaN
nan,nan,nan,NaN
nan,nan,nan,NaN
nan,nan,nan,NaN
nan,nan,nan,NaN
nan,nan,nan,NaN
nan,nan,nan,NaN
nan,nan,nan,NaN
nan,nan,nan,NaN
nan,nan,nan,NaN
nan,nan,nan,NaN
nan,nan,nan,NaN
nan,nan,nan,NaN
nan,nan,nan,NaN
nan,nan,nan,NaN
-1.19622,-0.141055,2.445,2.72559
-1.18828,-0.141055,2.445,2.72212
-1.18035,-0.141055,2.445,2.71866
-1.16426,-0.140074,2.428,2.69635
-1.15638,-0.140074,2.428,2.69296
-1.1485,-0.140074,2.428,2.68958
-1.14062,-0.140074,2.428,2.68623
-1.13274,-0.140074,2.428,2.68289
-1.11698,-0.139094,2.411,2.66081
-1.10133,-0.138113,2.394,2.6388
-1.09356,-0.138113,2.394,2.63556
-1.08579,-0.138113,2.394,2.63235
-1.07802,-0.138113,2.394,2.62915
-1.07025,-0.138113,2.394,2.62598
-1.06248,-0.138113,2.394,2.62282
-1.04722,-0.137132,2.377,2.60108
-1.03951,-0.137132,2.377,2.59798
-1.03179,-0.137132,2.377,2.5949
-1.02408,-0.137132,2.377,2.59185
-1.01636,-0.137132,2.377,2.58881
-1.00865,-0.137132,2.377,2.58579
-1.00093,-0.137132,2.377,2.58279
-0.993215,-0.137132,2.377,2.57981
-0.9855,-0.137132,2.377,2.57685
-0.977785,-0.137132,2.377,2.57391
-0.970069,-0.137132,2.377,2.57099
-0.955876,-0.136209,2.361,2.5508
-0.948213,-0.136209,2.361,2.54794
-0.94055,-0.136209,2.361,2.54509
-0.932887,-0.136209,2.361,2.54227
-0.925224,-0.136209,2.361,2.53947
-0.91756,-0.136209,2.361,2.53669
-0.916063,-0.137132,2.377,2.5511
-0.908348,-0.137132,2.377,2.54834
-0.900633,-0.137132,2.377,2.5456
-0.892918,-0.137132,2.377,2.54288
-0.885203,-0.137132,2.377,2.54018
-0.877488,-0.137132,2.377,2.5375
-0.869772,-0.137132,2.377,2.53484
-0.862057,-0.137132,2.377,2.53221
-0.854342,-0.137132,2.377,2.52959
-0.846627,-0.137132,2.377,2.527
-0.838912,-0.137132,2.377,2.52442
-0.831197,-0.137132,2.377,2.52187
-0.823481,-0.137132,2.377,2.51934
-0.815766,-0.137132,2.377,2.51683
-0.808051,-0.137132,2.377,2.51434
-0.800336,-0.137132,2.377,2.51187
-0.792621,-0.137132,2.377,2.50942
-0.784906,-0.137132,2.377,2.50699
-0.777191,-0.137132,2.377,2.50459
-0.769475,-0.137132,2.377,2.5022
-0.76176,-0.137132,2.377,2.49984
-0.754045,-0.137132,2.377,2.4975
-0.74633,-0.137132,2.377,2.49518
-0.738615,-0.137132,2.377,2.49289
-0.7309,-0.137132,2.377,2.49061
-0.728357,-0.138113,2.394,2.50616
-0.720586,-0.138113,2.394,2.50391
-0.712816,-0.138113,2.394,2.50168
-0.710052,-0.139094,2.411,2.51723
-0.702227,-0.139094,2.411,2.51503
-0.694401,-0.139094,2.411,2.51286
-0.686576,-0.139094,2.411,2.51071
-0.67875,-0.139094,2.411,2.50858
-0.675655,-0.140074,2.428,2.52415
-0.67245,-0.141055,2.445,2.53971
-0.664514,-0.141055,2.445,2.53762
-0.656578,-0.141055,2.445,2.53555
-0.653418,-0.142093,2.463,2.55216
-0.645424,-0.142093,2.463,2.55012
-0.637429,-0.142093,2.463,2.54811
-0.629435,-0.142093,2.463,2.54612
-0.621441,-0.142093,2.463,2.54416
-0.613446,-0.142093,2.463,2.54222
-0.609877,-0.143132,2.481,2.55887
-0.601824,-0.143132,2.481,2.55696
-0.593771,-0.143132,2.481,2.55508
-0.585719,-0.143132,2.481,2.55322
-0.577666,-0.143132,2.481,2.55138
-0.573746,-0.14417,2.499,2.56807
-0.565635,-0.14417,2.499,2.56627
-0.553508,-0.143132,2.481,2.54602
-0.545455,-0.143132,2.481,2.54428
-0.537403,-0.143132,2.481,2.54257
-0.52935,-0.143132,2.481,2.54088
-0.521297,-0.143132,2.481,2.53921
-0.513244,-0.143132,2.481,2.53757
-0.505192,-0.143132,2.481,2.53595
-0.500746,-0.14417,2.499,2.55275
-0.492635,-0.14417,2.499,2.55117
-0.484524,-0.14417,2.499,2.54962
-0.476412,-0.14417,2.499,2.54809
-0.468301,-0.14417,2.499,2.54658
-0.46019,-0.14417,2.499,2.54511
-0.452079,-0.14417,2.499,2.54365
-0.443968,-0.14417,2.499,2.54222
-0.435857,-0.14417,2.499,2.54082
