1.75438,-0.0778489,3.084,3.54894
1.74894,-0.0771674,3.057,3.52278
1.75886,-0.0771674,3.057,3.52772
1.76879,-0.0771674,3.057,3.53268
1.77871,-0.0771674,3.057,3.53766
1.78863,-0.0771674,3.057,3.54265
1.78267,-0.0764858,3.03,3.51634
1.7925,-0.0764858,3.03,3.52134
1.78628,-0.0758043,3.003,3.49493
1.79602,-0.0758043,3.003,3.49992
1.80577,-0.0758043,3.003,3.50493
1.81552,-0.0758043,3.003,3.50997
1.80946,-0.0751479,2.977,3.48458
1.81912,-0.0751479,2.977,3.48961
1.79746,-0.0738606,2.926,3.43479
1.79152,-0.0732295,2.901,3.41038
1.80093,-0.0732295,2.901,3.41534
1.79537,-0.0726237,2.877,3.39201
1.78965,-0.0720178,2.853,3.36863
1.79891,-0.0720178,2.853,3.37356
1.79296,-0.071412,2.829,3.35008
1.78749,-0.0708314,2.806,3.32773
1.7966,-0.0708314,2.806,3.33263
1.77675,-0.0696955,2.761,3.28403
1.75725,-0.0685848,2.717,3.23647
1.73877,-0.0675246,2.675,3.19116
1.74746,-0.0675246,2.675,3.1959
1.74235,-0.0669945,2.654,3.17553
1.72392,-0.0659596,2.613,3.13113
1.7324,-0.0659596,2.613,3.13581
1.71489,-0.0649751,2.574,3.09363
1.69781,-0.0640159,2.536,3.05253
1.70604,-0.0640159,2.536,3.05712
1.70143,-0.0635362,2.517,3.03878
1.69737,-0.0630819,2.499,3.0216
-1.97922,-0.0627603,2.853,3.47287
-1.95339,-0.0622324,2.829,3.43844
-1.94421,-0.0622324,2.829,3.43323
-1.91929,-0.0617264,2.806,3.40017
-1.91018,-0.0617264,2.806,3.39503
-1.90108,-0.0617264,2.806,3.38992
-1.87646,-0.0612205,2.783,3.35707
-1.85267,-0.0607365,2.761,3.32553
-1.8437,-0.0607365,2.761,3.32055
-1.83474,-0.0607365,2.761,3.31558
-1.82578,-0.0607365,2.761,3.31063
-1.81682,-0.0607365,2.761,3.3057
-1.80786,-0.0607365,2.761,3.30078
-1.78456,-0.0602525,2.739,3.26962
-1.77567,-0.0602525,2.739,3.26478
-1.76678,-0.0602525,2.739,3.25995
-1.75789,-0.0602525,2.739,3.25514
-1.749,-0.0602525,2.739,3.25035
-1.74011,-0.0602525,2.739,3.24557
-1.73122,-0.0602525,2.739,3.24081
-1.72233,-0.0602525,2.739,3.23607
-1.7272,-0.0607365,2.761,3.25731
-1.71824,-0.0607365,2.761,3.25256
-1.70928,-0.0607365,2.761,3.24784
-1.70032,-0.0607365,2.761,3.24313
-1.70483,-0.0612205,2.783,3.26425
-1.6824,-0.0607365,2.761,3.23377
-1.67344,-0.0607365,2.761,3.22912
-1.67774,-0.0612205,2.783,3.25017
-1.6687,-0.0612205,2.783,3.24552
-1.65967,-0.0612205,2.783,3.24089
-1.65064,-0.0612205,2.783,3.23627
-1.6416,-0.0612205,2.783,3.23167
-1.63257,-0.0612205,2.783,3.22709
-1.6107,-0.0607365,2.761,3.19706
-1.60174,-0.0607365,2.761,3.19255
-1.58009,-0.0602525,2.739,3.16266
-1.5712,-0.0602525,2.739,3.15823
-1.56231,-0.0602525,2.739,3.15382
-1.55342,-0.0602525,2.739,3.14942
-1.53212,-0.0597686,2.717,3.11979
-1.5233,-0.0597686,2.717,3.11546
-1.50278,-0.0593066,2.696,3.08712
-1.48239,-0.0588447,2.675,3.05885
-1.47371,-0.0588447,2.675,3.05465
-1.46503,-0.0588447,2.675,3.05047
-1.45635,-0.0588447,2.675,3.04631
-1.45903,-0.0593066,2.696,3.06606
-1.47341,-0.0602525,2.739,3.11074
-1.46452,-0.0602525,2.739,3.10654
-1.47901,-0.0612205,2.783,3.15219
-1.46998,-0.0612205,2.783,3.14796
-1.46095,-0.0612205,2.783,3.14376
-1.46391,-0.0617264,2.806,3.16552
-1.46673,-0.0622324,2.829,3.18723
-1.45755,-0.0622324,2.829,3.18301
-1.43659,-0.0617264,2.806,3.15297
-1.3934,-0.0602525,2.739,3.07365
-1.38451,-0.0602525,2.739,3.06963
-1.37562,-0.0602525,2.739,3.06563
nan,nan,nan,NaN
nan,nan,nan,NaN
-1.25833,-0.0562049,2.555,2.84861
-1.22264,-0.054973,2.499,2.7826
-1.21453,-0.054973,2.499,2.77905
-1.19772,-0.0545771,2.481,2.75552
-1.17241,-0.0537851,2.445,2.7121
-1.16447,-0.0537851,2.445,2.70867
-1.1485,-0.0534112,2.428,2.68646
-1.13263,-0.0530372,2.411,2.66432
-1.1248,-0.0530372,2.411,2.661
-1.11698,-0.0530372,2.411,2.6577
-1.09351,-0.0522893,2.377,2.61699
-1.0858,-0.0522893,2.377,2.61377
-1.07808,-0.0522893,2.377,2.61058
-1.07037,-0.0522893,2.377,2.6074
-1.06265,-0.0522893,2.377,2.60424
-1.05494,-0.0522893,2.377,2.60111
-1.04722,-0.0522893,2.377,2.59799
-1.03951,-0.0522893,2.377,2.59489
-1.03179,-0.0522893,2.377,2.59181
-1.02408,-0.0522893,2.377,2.58874
-1.01636,-0.0522893,2.377,2.5857
-1.00865,-0.0522893,2.377,2.58268
-1.00809,-0.0526632,2.394,2.59812
-1.00032,-0.0526632,2.394,2.59512
-0.992548,-0.0526632,2.394,2.59213
-0.984778,-0.0526632,2.394,2.58917
-0.977007,-0.0526632,2.394,2.58622
-0.969237,-0.0526632,2.394,2.5833
-0.961466,-0.0526632,2.394,2.58039
-0.953696,-0.0526632,2.394,2.57751
-0.945926,-0.0526632,2.394,2.57464
-0.938156,-0.0526632,2.394,2.5718
-0.930385,-0.0526632,2.394,2.56897
-0.922615,-0.0526632,2.394,2.56617
-0.914845,-0.0526632,2.394,2.56339
-0.907074,-0.0526632,2.394,2.56062
-0.899304,-0.0526632,2.394,2.55788
-0.885203,-0.0522893,2.377,2.53702
-0.877488,-0.0522893,2.377,2.53433
-0.869772,-0.0522893,2.377,2.53167
-0.862057,-0.0522893,2.377,2.52903
-0.854342,-0.0522893,2.377,2.52641
-0.852682,-0.0526632,2.394,2.54186
-0.844912,-0.0526632,2.394,2.53927
-0.837141,-0.0526632,2.394,2.53669
-0.829371,-0.0526632,2.394,2.53414
-0.821601,-0.0526632,2.394,2.53161
-0.81383,-0.0526632,2.394,2.5291
-0.811784,-0.0530372,2.411,2.54455
-0.803958,-0.0530372,2.411,2.54206
-0.796133,-0.0530372,2.411,2.5396
-0.788307,-0.0530372,2.411,2.53716
-0.780482,-0.0530372,2.411,2.53474
-0.772656,-0.0530372,2.411,2.53234
-0.770224,-0.0534112,2.428,2.5478
-0.762343,-0.0534112,2.428,2.54543
-0.754462,-0.0534112,2.428,2.54308
-0.751809,-0.0537851,2.445,2.55854
-0.743873,-0.0537851,2.445,2.55622
-0.735937,-0.0537851,2.445,2.55392
-0.728001,-0.0537851,2.445,2.55165
-0.720065,-0.0537851,2.445,2.54939
-0.712129,-0.0537851,2.445,2.54716
-0.704194,-0.0537851,2.445,2.54496
-0.696258,-0.0537851,2.445,2.54277
-0.688322,-0.0537851,2.445,2.54061
-0.680386,-0.0537851,2.445,2.53847
-0.67245,-0.0537851,2.445,2.53636
-0.664514,-0.0537851,2.445,2.53426
-0.656578,-0.0537851,2.445,2.5322
-0.648643,-0.0537851,2.445,2.53015
-0.640707,-0.0537851,2.445,2.52813
-0.632771,-0.0537851,2.445,2.52613
-0.629435,-0.0541811,2.463,2.54273
-0.621441,-0.0541811,2.463,2.54077
-0.613446,-0.0541811,2.463,2.53882
-0.605452,-0.0541811,2.463,2.5369
-0.601824,-0.0545771,2.481,2.55353
-0.593771,-0.0545771,2.481,2.55165
-0.585719,-0.0545771,2.481,2.54979
-0.577666,-0.0545771,2.481,2.54795
-0.573746,-0.054973,2.499,2.56461
-0.565635,-0.054973,2.499,2.5628
-0.557524,-0.054973,2.499,2.56103
-0.55337,-0.055369,2.517,2.57771
-0.5452,-0.055369,2.517,2.57597
-0.537031,-0.055369,2.517,2.57425
-0.528861,-0.055369,2.517,2.57256
-0.524622,-0.0557869,2.536,2.5903
-0.516391,-0.0557869,2.536,2.58864
-0.50816,-0.0557869,2.536,2.58701
-0.499929,-0.0557869,2.536,2.58541
-0.491697,-0.0557869,2.536,2.58383
-0.483466,-0.0557869,2.536,2.58228
-0.478795,-0.0562049,2.555,2.60008
-0.470502,-0.0562049,2.555,2.59857
-0.458772,-0.0557869,2.536,2.57777
-0.450541,-0.0557869,2.536,2.57631
-0.44231,-0.0557869,2.536,2.57489
-0.434079,-0.0557869,2.536,2.57349
-0.429038,-0.0562049,2.555,2.59138
-0.420745,-0.0562049,2.555,2.59002
-0.412452,-0.0562049,2.555,2.58869
-0.404159,-0.0562049,2.555,2.58738
-0.395866,-0.0562049,2.555,2.5861
-0.387574,-0.0562049,2.555,2.58484
-0.379281,-0.0562049,2.555,2.58361
-0.370988,-0.0562049,2.555,2.58241
-0.362695,-0.0562049,2.555,2.58123
-0.354402,-0.0562049,2.555,2.58007
-0.346109,-0.0562049,2.555,2.57895
-0.340328,-0.0566229,2.574,2.59702
-0.331974,-0.0566229,2.574,2.59594
-0.32123,-0.0562049,2.555,2.57573
-0.312937,-0.0562049,2.555,2.57471
-0.304645,-0.0562049,2.555,2.57371
-0.296352,-0.0562049,2.555,2.57274
-0.288059,-0.0562049,2.555,2.5718
-0.279766,-0.0562049,2.555,2.57089
-0.271473,-0.0562049,2.555,2.57
-0.26318,-0.0562049,2.555,2.56913
-0.256783,-0.0566229,2.574,2.5874
-0.248428,-0.0566229,2.574,2.58658
-0.240074,-0.0566229,2.574,2.58579
-0.231719,-0.0566229,2.574,2.58503
-0.223364,-0.0566229,2.574,2.58429
-0.21501,-0.0566229,2.574,2.58359
-0.206655,-0.0566229,2.574,2.5829
-0.198301,-0.0566229,2.574,2.58225
-0.191348,-0.0570408,2.593,2.60068
-0.182932,-0.0570408,2.593,2.60007
-0.174516,-0.0570408,2.593,2.59949
-0.1661,-0.0570408,2.593,2.59894
-0.157683,-0.0570408,2.593,2.59842
-0.149267,-0.0570408,2.593,2.59792
-0.140851,-0.0570408,2.593,2.59745
-0.132435,-0.0570408,2.593,2.59701
-0.124018,-0.0570408,2.593,2.59659
-0.115602,-0.0570408,2.593,2.5962
-0.107186,-0.0570408,2.593,2.59584
-0.0987696,-0.0570408,2.593,2.59551
-0.0903534,-0.0570408,2.593,2.5952
-0.0819372,-0.0570408,2.593,2.59492
-0.0729822,-0.0566229,2.574,2.57566
-0.0646277,-0.0566229,2.574,2.57543
-0.0562731,-0.0566229,2.574,2.57524
-0.0479185,-0.0566229,2.574,2.57507
-0.039564,-0.0566229,2.574,2.57493
-0.0312094,-0.0566229,2.574,2.57481
-0.0230235,-0.0570408,2.593,2.59373
-0.0146073,-0.0570408,2.593,2.59367
-0.00619107,-0.0570408,2.593,2.59363
0.00222516,-0.0570408,2.593,2.59363
0.0106414,-0.0570408,2.593,2.59365
0.0190576,-0.0570408,2.593,2.5937
0.0272725,-0.0566229,2.574,2.57477
0.0356271,-0.0566229,2.574,2.57487
0.0439817,-0.0566229,2.574,2.575
0.0523362,-0.0566229,2.574,2.57515
0.0602428,-0.0562049,2.555,2.55633
0.0685357,-0.0562049,2.555,2.55654
0.0768286,-0.0562049,2.555,2.55677
0.0851215,-0.0562049,2.555,2.55704
0.0934144,-0.0562049,2.555,2.55732
0.100951,-0.0557869,2.536,2.53862
0.109182,-0.0557869,2.536,2.53896
0.117413,-0.0557869,2.536,2.53933
0.125645,-0.0557869,2.536,2.53972
0.133876,-0.0557869,2.536,2.54014
0.142107,-0.0557869,2.536,2.54059
0.150338,-0.0557869,2.536,2.54106
0.15857,-0.0557869,2.536,2.54156
0.16805,-0.0562049,2.555,2.56114
0.177655,-0.0566229,2.574,2.58074
0.186009,-0.0566229,2.574,2.58133
0.194364,-0.0566229,2.574,2.58195
0.202718,-0.0566229,2.574,2.58259
0.212631,-0.0570408,2.593,2.60233
0.221047,-0.0570408,2.593,2.60303
0.229463,-0.0570408,2.593,2.60376
0.23788,-0.0570408,2.593,2.60451
0.242687,-0.0562049,2.555,2.56712
0.250979,-0.0562049,2.555,2.56791
0.259272,-0.0562049,2.555,2.56874
0.267565,-0.0562049,2.555,2.56959
0.273807,-0.0557869,2.536,2.55135
0.282038,-0.0557869,2.536,2.55224
0.290269,-0.0557869,2.536,2.55317
0.2985,-0.0557869,2.536,2.55412
0.306732,-0.0557869,2.536,2.55509
0.314963,-0.0557869,2.536,2.55609
0.320773,-0.055369,2.517,2.53796
0.328942,-0.055369,2.517,2.53901
0.337112,-0.055369,2.517,2.54008
0.345281,-0.055369,2.517,2.54118
0.353451,-0.055369,2.517,2.5423
nan,nan,nan,NaN
nan,nan,nan,NaN
0.37796,-0.055369,2.517,2.54582
0.386129,-0.055369,2.517,2.54705
0.394299,-0.055369,2.517,2.5483
0.39959,-0.054973,2.499,2.53134
0.407701,-0.054973,2.499,2.53264
nan,nan,nan,NaN
nan,nan,nan,NaN
0.432035,-0.054973,2.499,2.53667
0.440146,-0.054973,2.499,2.53806
0.448257,-0.054973,2.499,2.53948
0.456368,-0.054973,2.499,2.54092
0.464479,-0.054973,2.499,2.54239
0.47259,-0.054973,2.499,2.54389
nan,nan,nan,NaN
nan,nan,nan,NaN
nan,nan,nan,NaN
nan,nan,nan,NaN
nan,nan,nan,NaN
nan,nan,nan,NaN
nan,nan,nan,NaN
nan,nan,nan,NaN
nan,nan,nan,NaN
0.570319,-0.0566229,2.574,2.63703
0.578674,-0.0566229,2.574,2.63885
0.587028,-0.0566229,2.574,2.6407
0.595383,-0.0566229,2.574,2.64257
0.603738,-0.0566229,2.574,2.64446
0.612092,-0.0566229,2.574,2.64638
0.620447,-0.0566229,2.574,2.64833
0.628801,-0.0566229,2.574,2.6503
0.637156,-0.0566229,2.574,2.65229
0.64551,-0.0566229,2.574,2.65431
0.653865,-0.0566229,2.574,2.65636
0.662219,-0.0566229,2.574,2.65842
0.670574,-0.0566229,2.574,2.66052
0.678929,-0.0566229,2.574,2.66264
0.687283,-0.0566229,2.574,2.66478
0.695638,-0.0566229,2.574,2.66694
0.703992,-0.0566229,2.574,2.66914
0.707089,-0.0562049,2.555,2.65163
0.715382,-0.0562049,2.555,2.65386
0.723674,-0.0562049,2.555,2.6561
0.731967,-0.0562049,2.555,2.65838
0.74026,-0.0562049,2.555,2.66067
0.748553,-0.0562049,2.555,2.66299
0.751218,-0.0557869,2.536,2.64551
0.759449,-0.0557869,2.536,2.64786
0.76768,-0.0557869,2.536,2.65023
0.775912,-0.0557869,2.536,2.65263
0.784143,-0.0557869,2.536,2.65505
0.792374,-0.0557869,2.536,2.65749
0.794607,-0.055369,2.517,2.64003
0.802777,-0.055369,2.517,2.6425
0.810946,-0.055369,2.517,2.64499
0.819116,-0.055369,2.517,2.64751
0.827285,-0.055369,2.517,2.65005
0.835455,-0.055369,2.517,2.65261
0.843624,-0.055369,2.517,2.65519
0.851794,-0.055369,2.517,2.6578
0.853814,-0.054973,2.499,2.64141
0.861925,-0.054973,2.499,2.64404
0.870036,-0.054973,2.499,2.64669
0.871822,-0.0545771,2.481,2.63029
0.879874,-0.0545771,2.481,2.63297
0.881485,-0.0541811,2.463,2.61655
0.882979,-0.0537851,2.445,2.60011
0.890915,-0.0537851,2.445,2.60282
0.892601,-0.0534112,2.428,2.58743
0.894177,-0.0530372,2.411,2.57202
0.902002,-0.0530372,2.411,2.57475
0.909828,-0.0530372,2.411,2.5775
0.911183,-0.0526632,2.394,2.56208
0.918953,-0.0526632,2.394,2.56486
0.926724,-0.0526632,2.394,2.56765
0.934494,-0.0526632,2.394,2.57046
0.942264,-0.0526632,2.394,2.5733
0.950035,-0.0526632,2.394,2.57616
0.957805,-0.0526632,2.394,2.57903
0.965575,-0.0526632,2.394,2.58193
0.980257,-0.0530372,2.411,2.6032
0.988083,-0.0530372,2.411,2.60615
1.00995,-0.0537851,2.445,2.64593
1.02538,-0.0541811,2.463,2.66847
1.04093,-0.0545771,2.481,2.69107
1.04898,-0.0545771,2.481,2.6942
1.0647,-0.054973,2.499,2.71691
1.0887,-0.0557869,2.536,2.76038
1.09693,-0.0557869,2.536,2.76363
1.12172,-0.0566229,2.574,2.80837
1.1472,-0.0574808,2.613,2.85432
1.17381,-0.0583827,2.654,2.90258
1.18243,-0.0583827,2.654,2.90607
1.20046,-0.0588447,2.675,2.93261
1.20915,-0.0588447,2.675,2.93618
1.21783,-0.0588447,2.675,2.93976
1.24577,-0.0597686,2.717,2.98958
1.27491,-0.0607365,2.761,3.04174
1.28387,-0.0607365,2.761,3.04551
1.29283,-0.0607365,2.761,3.0493
1.31216,-0.0612205,2.783,3.07744
1.3212,-0.0612205,2.783,3.0813
1.33023,-0.0612205,2.783,3.08518
1.35033,-0.0617264,2.806,3.11462
1.38221,-0.0627603,2.853,3.17081
1.39147,-0.0627603,2.853,3.17486
1.41251,-0.0632883,2.877,3.20567
1.43371,-0.0638162,2.901,3.23657
1.44313,-0.0638162,2.901,3.24075
1.45254,-0.0638162,2.901,3.24496
1.47456,-0.0643662,2.926,3.27718
1.49673,-0.0649161,2.951,3.30951
1.50631,-0.0649161,2.951,3.31385
1.52925,-0.0654881,2.977,3.34745
1.53891,-0.0654881,2.977,3.35187
1.54857,-0.0654881,2.977,3.35632
1.57184,-0.06606,3.003,3.39014
1.58159,-0.06606,3.003,3.39467
1.59134,-0.06606,3.003,3.39922
1.61548,-0.066654,3.03,3.4344
1.6398,-0.0672479,3.057,3.46968
1.64972,-0.0672479,3.057,3.47438
1.65964,-0.0672479,3.057,3.47911
1.66956,-0.0672479,3.057,3.48385
1.67949,-0.0672479,3.057,3.48862
1.68941,-0.0672479,3.057,3.4934
1.69933,-0.0672479,3.057,3.49821
1.70925,-0.0672479,3.057,3.50304
1.70399,-0.066654,3.03,3.47691
1.71383,-0.066654,3.03,3.48174
1.73902,-0.0672479,3.057,3.51766
1.73349,-0.066654,3.03,3.49147
1.74333,-0.066654,3.03,3.49636
1.75316,-0.066654,3.03,3.50128
1.763,-0.066654,3.03,3.50621
1.77283,-0.066654,3.03,3.51117
1.78267,-0.066654,3.03,3.51614
1.7925,-0.066654,3.03,3.52114
1.78628,-0.06606,3.003,3.49473
1.78047,-0.0654881,2.977,3.46942
1.79014,-0.0654881,2.977,3.47439
1.7998,-0.0654881,2.977,3.47938
1.79366,-0.0649161,2.951,3.45396
1.80324,-0.0649161,2.951,3.45894
1.79746,-0.0643662,2.926,3.4346
1.79152,-0.0638162,2.901,3.41019
1.80093,-0.0638162,2.901,3.41515
1.79537,-0.0632883,2.877,3.39183
1.78965,-0.0627603,2.853,3.36844
1.79891,-0.0627603,2.853,3.37337
1.79296,-0.0622324,2.829,3.3499
1.77284,-0.0612205,2.783,3.30027
1.76779,-0.0607365,2.761,3.27901
1.77675,-0.0607365,2.761,3.28385
1.75725,-0.0597686,2.717,3.2363
1.73877,-0.0588447,2.675,3.19099
1.74746,-0.0588447,2.675,3.19573
1.74235,-0.0583827,2.654,3.17536
1.72392,-0.0574808,2.613,3.13097
1.7324,-0.0574808,2.613,3.13565
1.71489,-0.0566229,2.574,3.09347
1.69781,-0.0557869,2.536,3.05237
1.70604,-0.0557869,2.536,3.05696
1.70143,-0.055369,2.517,3.03862
1.68515,-0.0545771,2.481,2.99968
-1.97922,-0.0535028,2.853,3.47272
-1.95339,-0.0530527,2.829,3.43828
-1.94421,-0.0530527,2.829,3.43307
-1.91929,-0.0526214,2.806,3.40001
-1.91018,-0.0526214,2.806,3.39488
-1.90108,-0.0526214,2.806,3.38976
-1.87646,-0.0521901,2.783,3.35692
-1.85267,-0.0517775,2.761,3.32538
-1.8437,-0.0517775,2.761,3.3204
-1.83474,-0.0517775,2.761,3.31543
-1.82578,-0.0517775,2.761,3.31048
-1.81682,-0.0517775,2.761,3.30555
-1.80786,-0.0517775,2.761,3.30063
-1.78456,-0.0513649,2.739,3.26947
-1.77567,-0.0513649,2.739,3.26462
-1.76678,-0.0513649,2.739,3.2598
-1.75789,-0.0513649,2.739,3.25499
-1.749,-0.0513649,2.739,3.2502
-1.74011,-0.0513649,2.739,3.24542
-1.73122,-0.0513649,2.739,3.24066
-1.72233,-0.0513649,2.739,3.23592
-1.7272,-0.0517775,2.761,3.25715
-1.71824,-0.0517775,2.761,3.25241
-1.70928,-0.0517775,2.761,3.24768
-1.70032,-0.0517775,2.761,3.24298
-1.70483,-0.0521901,2.783,3.26409
-1.6824,-0.0517775,2.761,3.23361
-1.67344,-0.0517775,2.761,3.22896
-1.67774,-0.0521901,2.783,3.25002
-1.6687,-0.0521901,2.783,3.24536
-1.65967,-0.0521901,2.783,3.24073
-1.65064,-0.0521901,2.783,3.23611
-1.6416,-0.0521901,2.783,3.23151
-1.63257,-0.0521901,2.783,3.22693
-1.6107,-0.0517775,2.761,3.1969
-1.60174,-0.0517775,2.761,3.19239
-1.58009,-0.0513649,2.739,3.16251
-1.5712,-0.0513649,2.739,3.15807
-1.56231,-0.0513649,2.739,3.15366
-1.55342,-0.0513649,2.739,3.14927
-1.53212,-0.0509524,2.717,3.11963
-1.5233,-0.0509524,2.717,3.11531
-1.50278,-0.0505585,2.696,3.08696
-1.48239,-0.0501647,2.675,3.0587
-1.47371,-0.0501647,2.675,3.0545
-1.46503,-0.0501647,2.675,3.05032
-1.45635,-0.0501647,2.675,3.04616
-1.45903,-0.0505585,2.696,3.0659
-1.47341,-0.0513649,2.739,3.11058
-1.46452,-0.0513649,2.739,3.10638
-1.46732,-0.0517775,2.761,3.12711
-1.46998,-0.0521901,2.783,3.1478
-1.46095,-0.0521901,2.783,3.14359
-1.46391,-0.0526214,2.806,3.16535
-1.46673,-0.0530527,2.829,3.18706
-1.45755,-0.0530527,2.829,3.18284
-1.43659,-0.0526214,2.806,3.15281
-1.3934,-0.0513649,2.739,3.07349
-1.38451,-0.0513649,2.739,3.06947
-1.36457,-0.0509524,2.717,3.04084
-1.32431,-0.0497709,2.654,2.96648
-1.3157,-0.0497709,2.654,2.96264
-1.25833,-0.0479144,2.555,2.84846
-1.22264,-0.0468642,2.499,2.78245
-1.21453,-0.0468642,2.499,2.7789
-1.19772,-0.0465266,2.481,2.75537
-1.17241,-0.0458515,2.445,2.71195
-1.16447,-0.0458515,2.445,2.70853
-1.1485,-0.0455327,2.428,2.68632
-1.13263,-0.0452139,2.411,2.66417
-1.1248,-0.0452139,2.411,2.66086
-1.11698,-0.0452139,2.411,2.65756
-1.09351,-0.0445763,2.377,2.61685
-1.0858,-0.0445763,2.377,2.61363
-1.07808,-0.0445763,2.377,2.61044
-1.07037,-0.0445763,2.377,2.60726
-1.06265,-0.0445763,2.377,2.6041
-1.05494,-0.0445763,2.377,2.60096
-1.04722,-0.0445763,2.377,2.59784
-1.03951,-0.0445763,2.377,2.59474
-1.03179,-0.0445763,2.377,2.59166
-1.02408,-0.0445763,2.377,2.5886
-1.01636,-0.0445763,2.377,2.58556
-1.00865,-0.0445763,2.377,2.58253
-1.00093,-0.0445763,2.377,2.57953
-0.993215,-0.0445763,2.377,2.57655
-0.992548,-0.0448951,2.394,2.59199
-0.984778,-0.0448951,2.394,2.58902
-0.977007,-0.0448951,2.394,2.58608
-0.969237,-0.0448951,2.394,2.58315
-0.961466,-0.0448951,2.394,2.58025
-0.953696,-0.0448951,2.394,2.57736
-0.945926,-0.0448951,2.394,2.5745
-0.938156,-0.0448951,2.394,2.57165
-0.930385,-0.0448951,2.394,2.56883
-0.922615,-0.0448951,2.394,2.56602
-0.914845,-0.0448951,2.394,2.56324
-0.907074,-0.0448951,2.394,2.56048
-0.899304,-0.0448951,2.394,2.55773
-0.891534,-0.0448951,2.394,2.55501
-0.883763,-0.0448951,2.394,2.55231
-0.875993,-0.0448951,2.394,2.54963
-0.868223,-0.0448951,2.394,2.54697
-0.860452,-0.0448951,2.394,2.54433
-0.852682,-0.0448951,2.394,2.54172
-0.844912,-0.0448951,2.394,2.53912
-0.837141,-0.0448951,2.394,2.53654
-0.829371,-0.0448951,2.394,2.53399
-0.821601,-0.0448951,2.394,2.53146
-0.819609,-0.0452139,2.411,2.54691
-0.811784,-0.0452139,2.411,2.5444
-0.803958,-0.0452139,2.411,2.54191
-0.801746,-0.0455327,2.428,2.55735
-0.793866,-0.0455327,2.428,2.55489
-0.791488,-0.0458515,2.445,2.57033
-0.783552,-0.0458515,2.445,2.56789
-0.775616,-0.0458515,2.445,2.56548
-0.767681,-0.0458515,2.445,2.5631
-0.759745,-0.0458515,2.445,2.56073
-0.751809,-0.0458515,2.445,2.55839
-0.749349,-0.0461891,2.463,2.57488
-0.741355,-0.0461891,2.463,2.57257
-0.733361,-0.0461891,2.463,2.57028
-0.725366,-0.0461891,2.463,2.56801
-0.717372,-0.0461891,2.463,2.56576
-0.709378,-0.0461891,2.463,2.56354
-0.696258,-0.0458515,2.445,2.54262
-0.688322,-0.0458515,2.445,2.54046
-0.680386,-0.0458515,2.445,2.53832
-0.67245,-0.0458515,2.445,2.5362
-0.664514,-0.0458515,2.445,2.53411
-0.656578,-0.0458515,2.445,2.53204
-0.648643,-0.0458515,2.445,2.52999
-0.645424,-0.0461891,2.463,2.54658
-0.637429,-0.0461891,2.463,2.54457
-0.629435,-0.0461891,2.463,2.54258
-0.621441,-0.0461891,2.463,2.54061
-0.613446,-0.0461891,2.463,2.53866
-0.605452,-0.0461891,2.463,2.53674
-0.601824,-0.0465266,2.481,2.55337
-0.593771,-0.0465266,2.481,2.55149
-0.585719,-0.0465266,2.481,2.54963
-0.577666,-0.0465266,2.481,2.54779
-0.573746,-0.0468642,2.499,2.56445
-0.565635,-0.0468642,2.499,2.56264
-0.557524,-0.0468642,2.499,2.56087
-0.55337,-0.0472017,2.517,2.57754
-0.5452,-0.0472017,2.517,2.5758
-0.537031,-0.0472017,2.517,2.57409
-0.528861,-0.0472017,2.517,2.57239
-0.520692,-0.0472017,2.517,2.57073
-0.512522,-0.0472017,2.517,2.56908
-0.50816,-0.047558,2.536,2.58685
-0.499929,-0.047558,2.536,2.58524
-0.491697,-0.047558,2.536,2.58366
-0.483466,-0.047558,2.536,2.58211
-0.475235,-0.047558,2.536,2.58058
-0.467004,-0.047558,2.536,2.57908
-0.458772,-0.047558,2.536,2.5776
-0.450541,-0.047558,2.536,2.57615
-0.44231,-0.047558,2.536,2.57472
-0.434079,-0.047558,2.536,2.57332
-0.425848,-0.047558,2.536,2.57195
-0.417616,-0.047558,2.536,2.5706
-0.409385,-0.047558,2.536,2.56927
-0.404159,-0.0479144,2.555,2.58721
-0.395866,-0.0479144,2.555,2.58593
-0.387574,-0.0479144,2.555,2.58467
-0.379281,-0.0479144,2.555,2.58344
-0.370988,-0.0479144,2.555,2.58224
-0.362695,-0.0479144,2.555,2.58106
-0.354402,-0.0479144,2.555,2.57991
-0.346109,-0.0479144,2.555,2.57878
-0.340328,-0.0482707,2.574,2.59685
-0.331974,-0.0482707,2.574,2.59577
-0.32123,-0.0479144,2.555,2.57556
-0.312937,-0.0479144,2.555,2.57454
-0.304645,-0.0479144,2.555,2.57354
-0.296352,-0.0479144,2.555,2.57258
-0.288059,-0.0479144,2.555,2.57163
-0.279766,-0.0479144,2.555,2.57072
-0.271473,-0.0479144,2.555,2.56983
-0.26318,-0.0479144,2.555,2.56897
-0.256783,-0.0482707,2.574,2.58723
-0.248428,-0.0482707,2.574,2.58641
-0.240074,-0.0482707,2.574,2.58562
-0.231719,-0.0482707,2.574,2.58486
-0.223364,-0.0482707,2.574,2.58412
-0.21501,-0.0482707,2.574,2.58342
-0.208181,-0.048627,2.593,2.6018
-0.199764,-0.048627,2.593,2.60114
-0.191348,-0.048627,2.593,2.60051
-0.182932,-0.048627,2.593,2.5999
-0.174516,-0.048627,2.593,2.59932
-0.1661,-0.048627,2.593,2.59877
-0.1589,-0.049002,2.613,2.61829
-0.150418,-0.049002,2.613,2.61778
-0.140851,-0.048627,2.593,2.59728
-0.132435,-0.048627,2.593,2.59684
-0.124018,-0.048627,2.593,2.59642
-0.115602,-0.048627,2.593,2.59603
-0.107186,-0.048627,2.593,2.59567
-0.0987696,-0.048627,2.593,2.59534
-0.0903534,-0.048627,2.593,2.59503
-0.0819372,-0.048627,2.593,2.59475
-0.073521,-0.048627,2.593,2.5945
-0.0651047,-0.048627,2.593,2.59427
-0.0566885,-0.048627,2.593,2.59408
-0.0479185,-0.0482707,2.574,2.5749
-0.039564,-0.0482707,2.574,2.57476
-0.0312094,-0.0482707,2.574,2.57464
-0.0230235,-0.048627,2.593,2.59356
-0.0146073,-0.048627,2.593,2.5935
-0.00619107,-0.048627,2.593,2.59346
0.00222516,-0.048627,2.593,2.59346
0.0106414,-0.048627,2.593,2.59348
0.0190576,-0.048627,2.593,2.59353
0.0272725,-0.0482707,2.574,2.5746
0.0356271,-0.0482707,2.574,2.5747
0.0439817,-0.0482707,2.574,2.57483
0.0523362,-0.0482707,2.574,2.57498
0.0602428,-0.0479144,2.555,2.55616
0.0685357,-0.0479144,2.555,2.55637
0.0768286,-0.0479144,2.555,2.5566
0.0851215,-0.0479144,2.555,2.55687
0.0934144,-0.0479144,2.555,2.55716
0.100951,-0.047558,2.536,2.53845
0.109182,-0.047558,2.536,2.53879
0.117413,-0.047558,2.536,2.53916
0.125645,-0.047558,2.536,2.53956
0.133876,-0.047558,2.536,2.53998
0.142107,-0.047558,2.536,2.54042
0.150338,-0.047558,2.536,2.5409
0.15857,-0.047558,2.536,2.5414
0.16805,-0.0479144,2.555,2.56097
0.177655,-0.0482707,2.574,2.58058
0.186009,-0.0482707,2.574,2.58116
0.194364,-0.0482707,2.574,2.58178
0.202718,-0.0482707,2.574,2.58242
0.211073,-0.0482707,2.574,2.58309
0.219428,-0.0482707,2.574,2.58379
0.227782,-0.0482707,2.574,2.58451
0.236137,-0.0482707,2.574,2.58526
0.242687,-0.0479144,2.555,2.56695
0.250979,-0.0479144,2.555,2.56774
0.259272,-0.0479144,2.555,2.56857
0.267565,-0.0479144,2.555,2.56942
0.273807,-0.047558,2.536,2.55118
0.282038,-0.047558,2.536,2.55208
0.290269,-0.047558,2.536,2.553
0.2985,-0.047558,2.536,2.55395
0.304434,-0.0472017,2.517,2.53578
0.312603,-0.0472017,2.517,2.53678
0.320773,-0.0472017,2.517,2.5378
0.328942,-0.0472017,2.517,2.53884
0.337112,-0.0472017,2.517,2.53991
0.345281,-0.0472017,2.517,2.54101
0.353451,-0.0472017,2.517,2.54213
nan,nan,nan,NaN
nan,nan,nan,NaN
0.37796,-0.0472017,2.517,2.54566
0.386129,-0.0472017,2.517,2.54688
0.391479,-0.0468642,2.499,2.52991
0.39959,-0.0468642,2.499,2.53118
0.407701,-0.0468642,2.499,2.53247
nan,nan,nan,NaN
nan,nan,nan,NaN
0.432035,-0.0468642,2.499,2.5365
0.440146,-0.0468642,2.499,2.5379
0.448257,-0.0468642,2.499,2.53932
0.456368,-0.0468642,2.499,2.54076
0.464479,-0.0468642,2.499,2.54223
0.47259,-0.0468642,2.499,2.54373
nan,nan,nan,NaN
nan,nan,nan,NaN
nan,nan,nan,NaN
nan,nan,nan,NaN
nan,nan,nan,NaN
nan,nan,nan,NaN
nan,nan,nan,NaN
nan,nan,nan,NaN
nan,nan,nan,NaN
0.570319,-0.0482707,2.574,2.63687
0.578674,-0.0482707,2.574,2.63869
0.587028,-0.0482707,2.574,2.64053
0.590988,-0.0479144,2.555,2.6229
0.599281,-0.0479144,2.555,2.62478
0.607574,-0.0479144,2.555,2.62668
0.615867,-0.0479144,2.555,2.62861
0.62416,-0.0479144,2.555,2.63057
0.632453,-0.0479144,2.555,2.63255
0.640746,-0.0479144,2.555,2.63455
0.649038,-0.0479144,2.555,2.63658
0.657331,-0.0479144,2.555,2.63864
0.665624,-0.0479144,2.555,2.64072
0.673917,-0.0479144,2.555,2.64282
0.68221,-0.0479144,2.555,2.64494
0.690503,-0.0479144,2.555,2.6471
0.698796,-0.0479144,2.555,2.64927
0.707089,-0.0479144,2.555,2.65147
0.715382,-0.0479144,2.555,2.65369
0.723674,-0.0479144,2.555,2.65594
0.731967,-0.0479144,2.555,2.65821
0.74026,-0.0479144,2.555,2.66051
0.748553,-0.0479144,2.555,2.66283
0.751218,-0.047558,2.536,2.64535
0.759449,-0.047558,2.536,2.6477
0.76768,-0.047558,2.536,2.65007
0.775912,-0.047558,2.536,2.65247
0.784143,-0.047558,2.536,2.65489
0.792374,-0.047558,2.536,2.65733
0.794607,-0.0472017,2.517,2.63987
0.802777,-0.0472017,2.517,2.64234
0.810946,-0.0472017,2.517,2.64483
0.819116,-0.0472017,2.517,2.64735
0.827285,-0.0472017,2.517,2.64989
0.835455,-0.0472017,2.517,2.65245
0.843624,-0.0472017,2.517,2.65504
0.851794,-0.0472017,2.517,2.65764
0.853814,-0.0468642,2.499,2.64125
0.861925,-0.0468642,2.499,2.64388
0.863769,-0.0465266,2.481,2.62747
0.865497,-0.0461891,2.463,2.61105
0.873491,-0.0461891,2.463,2.61371
0.875043,-0.0458515,2.445,2.59727
0.882979,-0.0458515,2.445,2.59996
0.890915,-0.0458515,2.445,2.60266
0.892601,-0.0455327,2.428,2.58728
0.894177,-0.0452139,2.411,2.57187
0.895642,-0.0448951,2.394,2.55645
0.903413,-0.0448951,2.394,2.55918
0.911183,-0.0448951,2.394,2.56193
0.918953,-0.0448951,2.394,2.56471
0.926724,-0.0448951,2.394,2.5675
0.934494,-0.0448951,2.394,2.57032
0.942264,-0.0448951,2.394,2.57315
0.950035,-0.0448951,2.394,2.57601
0.957805,-0.0448951,2.394,2.57888
0.965575,-0.0448951,2.394,2.58178
0.980257,-0.0452139,2.411,2.60305
0.988083,-0.0452139,2.411,2.60601
1.00293,-0.0455327,2.428,2.62738
1.01789,-0.0458515,2.445,2.64882
1.03338,-0.0461891,2.463,2.6714
1.04137,-0.0461891,2.463,2.6745
1.05703,-0.0465266,2.481,2.69719
1.08054,-0.0472017,2.517,2.73954
1.08871,-0.0472017,2.517,2.74277
1.10516,-0.047558,2.536,2.76676
1.13842,-0.048627,2.593,2.83231
1.15568,-0.049002,2.613,2.85758
1.16416,-0.049002,2.613,2.86102
1.18162,-0.0493771,2.633,2.88641
1.19965,-0.0497709,2.654,2.91297
1.20827,-0.0497709,2.654,2.91652
1.22651,-0.0501647,2.675,2.94321
1.25459,-0.0509524,2.717,2.9931
1.26341,-0.0509524,2.717,2.99681
1.28253,-0.0513649,2.739,3.02484
1.29142,-0.0513649,2.739,3.02862
1.30031,-0.0513649,2.739,3.03242
1.3092,-0.0513649,2.739,3.03624
1.33926,-0.0521901,2.783,3.08892
1.35944,-0.0526214,2.806,3.11841
1.36854,-0.0526214,2.806,3.12239
1.40073,-0.0535028,2.853,3.17876
1.40999,-0.0535028,2.853,3.18285
1.41925,-0.0535028,2.853,3.18696
1.45254,-0.0544029,2.901,3.24479
1.47456,-0.0548718,2.926,3.27701
1.49673,-0.0553406,2.951,3.30933
1.50631,-0.0553406,2.951,3.31367
1.52925,-0.0558282,2.977,3.34727
1.53891,-0.0558282,2.977,3.3517
1.54857,-0.0558282,2.977,3.35615
1.57184,-0.0563158,3.003,3.38997
1.58159,-0.0563158,3.003,3.3945
1.59134,-0.0563158,3.003,3.39905
1.61548,-0.0568221,3.03,3.43423
1.6398,-0.0573284,3.057,3.46951
1.64972,-0.0573284,3.057,3.47421
1.65964,-0.0573284,3.057,3.47893
1.66956,-0.0573284,3.057,3.48367
1.67949,-0.0573284,3.057,3.48844
1.68941,-0.0573284,3.057,3.49323
1.69933,-0.0573284,3.057,3.49804
1.70925,-0.0573284,3.057,3.50287
1.70399,-0.0568221,3.03,3.47674
1.71383,-0.0568221,3.03,3.48157
1.73902,-0.0573284,3.057,3.51749
1.73349,-0.0568221,3.03,3.49129
1.74333,-0.0568221,3.03,3.49619
1.75316,-0.0568221,3.03,3.5011
1.763,-0.0568221,3.03,3.50604
1.77283,-0.0568221,3.03,3.51099
1.78267,-0.0568221,3.03,3.51597
1.7925,-0.0568221,3.03,3.52097
1.78628,-0.0563158,3.003,3.49456
1.78047,-0.0558282,2.977,3.46926
1.79014,-0.0558282,2.977,3.47422
1.7998,-0.0558282,2.977,3.47921
1.79366,-0.0553406,2.951,3.45379
1.80324,-0.0553406,2.951,3.45878
1.81281,-0.0553406,2.951,3.46378
1.79152,-0.0544029,2.901,3.41003
1.80093,-0.0544029,2.901,3.41498
1.81035,-0.0544029,2.901,3.41996
1.78965,-0.0535028,2.853,3.36828
1.79891,-0.0535028,2.853,3.37321
1.79296,-0.0530527,2.829,3.34974
1.77284,-0.0521901,2.783,3.30012
1.76779,-0.0517775,2.761,3.27885
1.77675,-0.0517775,2.761,3.28369
1.75725,-0.0509524,2.717,3.23614
1.73877,-0.0501647,2.675,3.19084
1.74746,-0.0501647,2.675,3.19558
1.74235,-0.0497709,2.654,3.17521
1.72392,-0.049002,2.613,3.13082
1.7324,-0.049002,2.613,3.1355
1.71489,-0.0482707,2.574,3.09333
1.69781,-0.047558,2.536,3.05223
1.70604,-0.047558,2.536,3.05682
1.70143,-0.0472017,2.517,3.03848
1.68515,-0.0465266,2.481,2.99954
-1.96257,-0.0438731,2.829,3.44338
-1.95339,-0.0438731,2.829,3.43815
-1.94421,-0.0438731,2.829,3.43294
-1.91929,-0.0435164,2.806,3.39988
-1.89453,-0.0431597,2.783,3.36693
-1.88549,-0.0431597,2.783,3.36185
-1.87646,-0.0431597,2.783,3.35679
-1.85267,-0.0428185,2.761,3.32526
-1.8437,-0.0428185,2.761,3.32027
-1.82012,-0.0424773,2.739,3.28889
-1.81123,-0.0424773,2.739,3.28397
-1.80234,-0.0424773,2.739,3.27908
-1.79345,-0.0424773,2.739,3.2742
-1.78456,-0.0424773,2.739,3.26934
-1.77567,-0.0424773,2.739,3.2645
-1.76678,-0.0424773,2.739,3.25967
-1.75789,-0.0424773,2.739,3.25486
-1.749,-0.0424773,2.739,3.25007
-1.74011,-0.0424773,2.739,3.24529
-1.73122,-0.0424773,2.739,3.24053
-1.72233,-0.0424773,2.739,3.23579
-1.71344,-0.0424773,2.739,3.23107
-1.71824,-0.0428185,2.761,3.25228
-1.70928,-0.0428185,2.761,3.24755
-1.70032,-0.0428185,2.761,3.24284
-1.69136,-0.0428185,2.761,3.23815
-1.6824,-0.0428185,2.761,3.23348
-1.67344,-0.0428185,2.761,3.22883
-1.67774,-0.0431597,2.783,3.24989
-1.6687,-0.0431597,2.783,3.24523
-1.65967,-0.0431597,2.783,3.2406
-1.65064,-0.0431597,2.783,3.23598
-1.6416,-0.0431597,2.783,3.23138
-1.63257,-0.0431597,2.783,3.2268
-1.6107,-0.0428185,2.761,3.19677
-1.60174,-0.0428185,2.761,3.19226
-1.58009,-0.0424773,2.739,3.16237
-1.5712,-0.0424773,2.739,3.15794
-1.56231,-0.0424773,2.739,3.15353
-1.55342,-0.0424773,2.739,3.14913
-1.53212,-0.0421361,2.717,3.1195
-1.5233,-0.0421361,2.717,3.11518
-1.50278,-0.0418105,2.696,3.08683
-1.48239,-0.0414848,2.675,3.05857
-1.47371,-0.0414848,2.675,3.05437
-1.46503,-0.0414848,2.675,3.05019
-1.45635,-0.0414848,2.675,3.04603
-1.45903,-0.0418105,2.696,3.06577
-1.47341,-0.0424773,2.739,3.11044
-1.46452,-0.0424773,2.739,3.10624
-1.46732,-0.0428185,2.761,3.12698
-1.46998,-0.0431597,2.783,3.14766
-1.46095,-0.0431597,2.783,3.14346
-1.46391,-0.0435164,2.806,3.16521
-1.46673,-0.0438731,2.829,3.18692
-1.45755,-0.0438731,2.829,3.1827
-1.44836,-0.0438731,2.829,3.17851
-1.41578,-0.0431597,2.783,3.12272
-1.40675,-0.0431597,2.783,3.11864
-1.36457,-0.0421361,2.717,3.04071
-1.32431,-0.0411591,2.654,2.96635
-1.3157,-0.0411591,2.654,2.96251
-1.27704,-0.0402131,2.593,2.89069
-1.24074,-0.0393291,2.536,2.82352
-1.23251,-0.0393291,2.536,2.81991
-1.20641,-0.0387553,2.499,2.77524
-1.18104,-0.038197,2.463,2.73179
-1.17305,-0.038197,2.463,2.72834
-1.15654,-0.0379179,2.445,2.705
-1.14062,-0.0376542,2.428,2.68284
-1.1248,-0.0373906,2.411,2.66073
-1.11698,-0.0373906,2.411,2.65743
-1.10133,-0.037127,2.394,2.63544
-1.0858,-0.0368633,2.377,2.61351
-1.07808,-0.0368633,2.377,2.61032
-1.07037,-0.0368633,2.377,2.60714
-1.06265,-0.0368633,2.377,2.60398
-1.05494,-0.0368633,2.377,2.60084
-1.04722,-0.0368633,2.377,2.59772
-1.03951,-0.0368633,2.377,2.59462
-1.03179,-0.0368633,2.377,2.59154
-1.02408,-0.0368633,2.377,2.58848
-1.01636,-0.0368633,2.377,2.58544
-1.00865,-0.0368633,2.377,2.58241
-1.00093,-0.0368633,2.377,2.57941
-0.993215,-0.0368633,2.377,2.57642
-0.992548,-0.037127,2.394,2.59187
-0.984778,-0.037127,2.394,2.5889
-0.977007,-0.037127,2.394,2.58595
-0.969237,-0.037127,2.394,2.58303
-0.961466,-0.037127,2.394,2.58012
-0.953696,-0.037127,2.394,2.57724
-0.945926,-0.037127,2.394,2.57437
-0.938156,-0.037127,2.394,2.57153
-0.930385,-0.037127,2.394,2.5687
-0.922615,-0.037127,2.394,2.5659
-0.914845,-0.037127,2.394,2.56311
-0.907074,-0.037127,2.394,2.56035
-0.899304,-0.037127,2.394,2.55761
-0.891534,-0.037127,2.394,2.55489
-0.883763,-0.037127,2.394,2.55219
-0.875993,-0.037127,2.394,2.54951
-0.868223,-0.037127,2.394,2.54685
-0.860452,-0.037127,2.394,2.54421
-0.852682,-0.037127,2.394,2.54159
-0.844912,-0.037127,2.394,2.53899
-0.837141,-0.037127,2.394,2.53642
-0.83526,-0.0373906,2.411,2.55186
-0.827435,-0.0373906,2.411,2.54931
-0.819609,-0.0373906,2.411,2.54678
-0.817508,-0.0376542,2.428,2.56221
-0.809627,-0.0376542,2.428,2.55971
-0.801746,-0.0376542,2.428,2.55722
-0.799424,-0.0379179,2.445,2.57265
-0.791488,-0.0379179,2.445,2.5702
-0.783552,-0.0379179,2.445,2.56776
-0.775616,-0.0379179,2.445,2.56535
-0.773332,-0.038197,2.463,2.58183
-0.765338,-0.038197,2.463,2.57945
-0.757344,-0.038197,2.463,2.57709
-0.749349,-0.038197,2.463,2.57475
-0.741355,-0.038197,2.463,2.57244
-0.733361,-0.038197,2.463,2.57015
-0.725366,-0.038197,2.463,2.56788
-0.717372,-0.038197,2.463,2.56563
-0.709378,-0.038197,2.463,2.56341
-0.701384,-0.038197,2.463,2.5612
-0.693389,-0.038197,2.463,2.55903
-0.685395,-0.038197,2.463,2.55687
-0.677401,-0.038197,2.463,2.55474
-0.669406,-0.038197,2.463,2.55263
-0.661412,-0.038197,2.463,2.55055
-0.653418,-0.038197,2.463,2.54849
-0.645424,-0.038197,2.463,2.54645
-0.637429,-0.038197,2.463,2.54443
-0.629435,-0.038197,2.463,2.54244
-0.621441,-0.038197,2.463,2.54048
-0.613446,-0.038197,2.463,2.53853
-0.605452,-0.038197,2.463,2.53661
-0.601824,-0.0384762,2.481,2.55324
-0.593771,-0.0384762,2.481,2.55135
-0.585719,-0.0384762,2.481,2.54949
-0.577666,-0.0384762,2.481,2.54765
-0.573746,-0.0387553,2.499,2.56431
-0.565635,-0.0387553,2.499,2.56251
-0.557524,-0.0387553,2.499,2.56073
-0.55337,-0.0390345,2.517,2.57741
-0.5452,-0.0390345,2.517,2.57567
-0.537031,-0.0390345,2.517,2.57395
-0.528861,-0.0390345,2.517,2.57226
-0.520692,-0.0390345,2.517,2.57059
-0.512522,-0.0390345,2.517,2.56895
-0.50816,-0.0393291,2.536,2.58671
-0.499929,-0.0393291,2.536,2.58511
-0.491697,-0.0393291,2.536,2.58353
-0.483466,-0.0393291,2.536,2.58197
-0.475235,-0.0393291,2.536,2.58044
-0.467004,-0.0393291,2.536,2.57894
-0.458772,-0.0393291,2.536,2.57746
-0.450541,-0.0393291,2.536,2.57601
-0.44231,-0.0393291,2.536,2.57458
-0.434079,-0.0393291,2.536,2.57318
-0.425848,-0.0393291,2.536,2.57181
-0.417616,-0.0393291,2.536,2.57046
-0.409385,-0.0393291,2.536,2.56913
-0.404159,-0.0396238,2.555,2.58707
-0.395866,-0.0396238,2.555,2.58579
-0.387574,-0.0396238,2.555,2.58453
-0.379281,-0.0396238,2.555,2.5833
-0.370988,-0.0396238,2.555,2.5821
-0.362695,-0.0396238,2.555,2.58092
-0.354402,-0.0396238,2.555,2.57977
-0.346109,-0.0396238,2.555,2.57864
-0.340328,-0.0399185,2.574,2.59671
-0.331974,-0.0399185,2.574,2.59563
-0.32123,-0.0396238,2.555,2.57542
-0.312937,-0.0396238,2.555,2.5744
-0.304645,-0.0396238,2.555,2.5734
-0.296352,-0.0396238,2.555,2.57243
-0.288059,-0.0396238,2.555,2.57149
-0.279766,-0.0396238,2.555,2.57058
-0.271473,-0.0396238,2.555,2.56969
-0.26318,-0.0396238,2.555,2.56882
-0.256783,-0.0399185,2.574,2.58708
-0.248428,-0.0399185,2.574,2.58627
-0.240074,-0.0399185,2.574,2.58548
-0.231719,-0.0399185,2.574,2.58472
-0.223364,-0.0399185,2.574,2.58398
-0.21501,-0.0399185,2.574,2.58327
-0.208181,-0.0402131,2.593,2.60165
-0.199764,-0.0402131,2.593,2.60099
-0.191348,-0.0402131,2.593,2.60036
-0.182932,-0.0402131,2.593,2.59976
-0.174516,-0.0402131,2.593,2.59918
-0.1661,-0.0402131,2.593,2.59863
-0.1589,-0.0405233,2.613,2.61814
-0.150418,-0.0405233,2.613,2.61764
-0.140851,-0.0402131,2.593,2.59713
-0.132435,-0.0402131,2.593,2.59669
-0.124018,-0.0402131,2.593,2.59628
-0.115602,-0.0402131,2.593,2.59589
-0.107186,-0.0402131,2.593,2.59553
-0.0987696,-0.0402131,2.593,2.59519
-0.0903534,-0.0402131,2.593,2.59489
-0.0819372,-0.0402131,2.593,2.59461
-0.073521,-0.0402131,2.593,2.59435
-0.0651047,-0.0402131,2.593,2.59413
-0.0566885,-0.0402131,2.593,2.59393
-0.0479185,-0.0399185,2.574,2.57476
-0.039564,-0.0399185,2.574,2.57461
-0.0312094,-0.0399185,2.574,2.5745
-0.0230235,-0.0402131,2.593,2.59341
-0.0146073,-0.0402131,2.593,2.59335
-0.00619107,-0.0402131,2.593,2.59332
0.00220886,-0.0399185,2.574,2.57431
0.0105634,-0.0399185,2.574,2.57433
0.0190576,-0.0402131,2.593,2.59338
0.0272725,-0.0399185,2.574,2.57445
0.0356271,-0.0399185,2.574,2.57456
0.0439817,-0.0399185,2.574,2.57469
0.0519499,-0.0396238,2.555,2.55584
0.0602428,-0.0396238,2.555,2.55602
0.0685357,-0.0396238,2.555,2.55623
0.0768286,-0.0396238,2.555,2.55646
0.0851215,-0.0396238,2.555,2.55672
0.0934144,-0.0396238,2.555,2.55701
0.100951,-0.0393291,2.536,2.53831
0.109182,-0.0393291,2.536,2.53865
0.117413,-0.0393291,2.536,2.53902
0.125645,-0.0393291,2.536,2.53942
0.133876,-0.0393291,2.536,2.53984
0.142107,-0.0393291,2.536,2.54028
0.150338,-0.0393291,2.536,2.54076
0.15857,-0.0393291,2.536,2.54126
0.16805,-0.0396238,2.555,2.56083
0.177655,-0.0399185,2.574,2.58043
0.186009,-0.0399185,2.574,2.58102
0.194364,-0.0399185,2.574,2.58164
0.201222,-0.0396238,2.555,2.56322
0.209515,-0.0396238,2.555,2.56388
0.217808,-0.0396238,2.555,2.56457
0.227782,-0.0399185,2.574,2.58437
0.236137,-0.0399185,2.574,2.58512
0.242687,-0.0396238,2.555,2.56681
0.250979,-0.0396238,2.555,2.5676
0.259272,-0.0396238,2.555,2.56843
0.267565,-0.0396238,2.555,2.56928
0.273807,-0.0393291,2.536,2.55104
0.282038,-0.0393291,2.536,2.55194
0.290269,-0.0393291,2.536,2.55286
0.2985,-0.0393291,2.536,2.55381
0.304434,-0.0390345,2.517,2.53564
0.312603,-0.0390345,2.517,2.53664
0.320773,-0.0390345,2.517,2.53766
0.328942,-0.0390345,2.517,2.5387
0.337112,-0.0390345,2.517,2.53978
0.345281,-0.0390345,2.517,2.54087
nan,nan,nan,NaN
nan,nan,nan,NaN
0.367146,-0.0387553,2.499,2.52612
0.375257,-0.0387553,2.499,2.52731
nan,nan,nan,NaN
0.391479,-0.0387553,2.499,2.52977
0.39959,-0.0387553,2.499,2.53104
nan,nan,nan,NaN
nan,nan,nan,NaN
nan,nan,nan,NaN
nan,nan,nan,NaN
nan,nan,nan,NaN
nan,nan,nan,NaN
nan,nan,nan,NaN
nan,nan,nan,NaN
nan,nan,nan,NaN
nan,nan,nan,NaN
nan,nan,nan,NaN
nan,nan,nan,NaN
nan,nan,nan,NaN
nan,nan,nan,NaN
nan,nan,nan,NaN
nan,nan,nan,NaN
nan,nan,nan,NaN
nan,nan,nan,NaN
nan,nan,nan,NaN
nan,nan,nan,NaN
nan,nan,nan,NaN
0.590988,-0.0396238,2.555,2.62276
0.599281,-0.0396238,2.555,2.62464
0.607574,-0.0396238,2.555,2.62655
0.615867,-0.0396238,2.555,2.62848
0.62416,-0.0396238,2.555,2.63043
0.632453,-0.0396238,2.555,2.63241
0.640746,-0.0396238,2.555,2.63442
0.649038,-0.0396238,2.555,2.63645
0.657331,-0.0396238,2.555,2.6385
0.665624,-0.0396238,2.555,2.64058
0.673917,-0.0396238,2.555,2.64268
0.68221,-0.0396238,2.555,2.64481
0.690503,-0.0396238,2.555,2.64696
0.698796,-0.0396238,2.555,2.64913
0.707089,-0.0396238,2.555,2.65133
0.715382,-0.0396238,2.555,2.65356
0.723674,-0.0396238,2.555,2.6558
0.731967,-0.0396238,2.555,2.65808
0.74026,-0.0396238,2.555,2.66037
0.748553,-0.0396238,2.555,2.66269
0.756846,-0.0396238,2.555,2.66504
0.759449,-0.0393291,2.536,2.64757
0.76768,-0.0393291,2.536,2.64994
0.775912,-0.0393291,2.536,2.65234
0.784143,-0.0393291,2.536,2.65475
0.792374,-0.0393291,2.536,2.6572
0.794607,-0.0390345,2.517,2.63974
0.802777,-0.0390345,2.517,2.64221
0.810946,-0.0390345,2.517,2.6447
0.819116,-0.0390345,2.517,2.64722
0.827285,-0.0390345,2.517,2.64976
0.835455,-0.0390345,2.517,2.65232
0.843624,-0.0390345,2.517,2.6549
0.851794,-0.0390345,2.517,2.65751
0.853814,-0.0387553,2.499,2.64112
0.861925,-0.0387553,2.499,2.64375
0.863769,-0.0384762,2.481,2.62734
0.865497,-0.038197,2.463,2.61092
0.873491,-0.038197,2.463,2.61358
0.875043,-0.0379179,2.445,2.59715
0.882979,-0.0379179,2.445,2.59983
0.890915,-0.0379179,2.445,2.60254
0.892601,-0.0376542,2.428,2.58715
0.894177,-0.0373906,2.411,2.57174
0.895642,-0.037127,2.394,2.55632
0.903413,-0.037127,2.394,2.55906
0.911183,-0.037127,2.394,2.56181
0.918953,-0.037127,2.394,2.56458
0.926724,-0.037127,2.394,2.56738
0.934494,-0.037127,2.394,2.57019
0.942264,-0.037127,2.394,2.57303
0.950035,-0.037127,2.394,2.57588
0.957805,-0.037127,2.394,2.57876
0.965575,-0.037127,2.394,2.58166
0.980257,-0.0373906,2.411,2.60293
0.99505,-0.0376542,2.428,2.62426
1.00293,-0.0376542,2.428,2.62726
1.01789,-0.0379179,2.445,2.64869
1.03338,-0.038197,2.463,2.67127
1.04137,-0.038197,2.463,2.67437
1.05703,-0.0384762,2.481,2.69707
1.08054,-0.0390345,2.517,2.73941
1.08871,-0.0390345,2.517,2.74265
1.10516,-0.0393291,2.536,2.76663
1.13842,-0.0402131,2.593,2.83218
1.15568,-0.0405233,2.613,2.85745
1.16416,-0.0405233,2.613,2.86089
1.18162,-0.0408334,2.633,2.88627
1.19965,-0.0411591,2.654,2.91283
1.20827,-0.0411591,2.654,2.91639
1.22651,-0.0414848,2.675,2.94307
1.25459,-0.0421361,2.717,2.99297
1.26341,-0.0421361,2.717,2.99668
1.28253,-0.0424773,2.739,3.0247
1.29142,-0.0424773,2.739,3.02848
1.30031,-0.0424773,2.739,3.03228
1.3092,-0.0424773,2.739,3.0361
1.33926,-0.0431597,2.783,3.08878
1.35944,-0.0435164,2.806,3.11827
1.36854,-0.0435164,2.806,3.12225
1.40073,-0.0442453,2.853,3.17862
1.40999,-0.0442453,2.853,3.18271
1.41925,-0.0442453,2.853,3.18682
1.44053,-0.0446175,2.877,3.2178
1.46196,-0.0449897,2.901,3.24887
1.47137,-0.0449897,2.901,3.25312
1.48079,-0.0449897,2.901,3.25739
1.51589,-0.0457651,2.951,3.31789
1.52547,-0.0457651,2.951,3.32228
1.53505,-0.0457651,2.951,3.32669
1.55823,-0.0461683,2.977,3.36047
1.5679,-0.0461683,2.977,3.36496
1.57756,-0.0461683,2.977,3.36947
1.60108,-0.0465715,3.003,3.40348
1.61083,-0.0465715,3.003,3.40807
1.62058,-0.0465715,3.003,3.41269
1.64498,-0.0469903,3.03,3.44805
1.65482,-0.0469903,3.03,3.45276
1.66465,-0.0469903,3.03,3.45748
1.67449,-0.0469903,3.03,3.46223
1.68432,-0.0469903,3.03,3.46699
1.69416,-0.0469903,3.03,3.47178
1.70399,-0.0469903,3.03,3.47659
1.71383,-0.0469903,3.03,3.48142
1.72366,-0.0469903,3.03,3.48627
1.73349,-0.0469903,3.03,3.49115
1.72779,-0.0465715,3.003,3.46489
1.73754,-0.0465715,3.003,3.46976
1.74729,-0.0465715,3.003,3.47465
1.75704,-0.0465715,3.003,3.47956
1.76678,-0.0465715,3.003,3.48449
1.77653,-0.0465715,3.003,3.48945
1.77081,-0.0461683,2.977,3.46416
1.78047,-0.0461683,2.977,3.46911
1.79014,-0.0461683,2.977,3.47408
1.7998,-0.0461683,2.977,3.47907
1.79366,-0.0457651,2.951,3.45365
1.80324,-0.0457651,2.951,3.45864
1.79746,-0.0453774,2.926,3.4343
1.79152,-0.0449897,2.901,3.40989
1.80093,-0.0449897,2.901,3.41485
1.79537,-0.0446175,2.877,3.39153
1.78965,-0.0442453,2.853,3.36815
1.79891,-0.0442453,2.853,3.37308
1.79296,-0.0438731,2.829,3.34961
1.77284,-0.0431597,2.783,3.29999
1.76779,-0.0428185,2.761,3.27872
1.76259,-0.0424773,2.739,3.2574
1.75725,-0.0421361,2.717,3.23602
1.73877,-0.0414848,2.675,3.19072
1.74746,-0.0414848,2.675,3.19546
1.74235,-0.0411591,2.654,3.17509
1.72392,-0.0405233,2.613,3.1307
1.7324,-0.0405233,2.613,3.13538
1.71489,-0.0399185,2.574,3.09321
1.69781,-0.0393291,2.536,3.05211
1.70604,-0.0393291,2.536,3.0567
1.70143,-0.0390345,2.517,3.03837
1.68515,-0.0384762,2.481,2.99943
-1.96257,-0.0346934,2.829,3.44327
-1.93751,-0.0344114,2.806,3.4101
-1.9284,-0.0344114,2.806,3.40493
-1.90356,-0.0341293,2.783,3.37191
-1.89453,-0.0341293,2.783,3.36682
-1.88549,-0.0341293,2.783,3.36175
-1.86163,-0.0338595,2.761,3.33015
-1.8379,-0.0335897,2.739,3.29866
-1.82901,-0.0335897,2.739,3.29371
-1.82012,-0.0335897,2.739,3.28878
-1.81123,-0.0335897,2.739,3.28387
-1.80234,-0.0335897,2.739,3.27898
-1.79345,-0.0335897,2.739,3.2741
-1.78456,-0.0335897,2.739,3.26924
-1.76141,-0.0333199,2.717,3.23817
-1.75259,-0.0333199,2.717,3.23338
-1.74377,-0.0333199,2.717,3.22861
-1.73495,-0.0333199,2.717,3.22386
-1.72614,-0.0333199,2.717,3.21912
-1.71732,-0.0333199,2.717,3.2144
-1.7085,-0.0333199,2.717,3.2097
-1.71344,-0.0335897,2.739,3.23096
-1.70455,-0.0335897,2.739,3.22626
-1.69566,-0.0335897,2.739,3.22157
-1.68677,-0.0335897,2.739,3.2169
-1.67788,-0.0335897,2.739,3.21225
-1.66899,-0.0335897,2.739,3.20761
-1.6601,-0.0335897,2.739,3.203
-1.65121,-0.0335897,2.739,3.1984
-1.64232,-0.0335897,2.739,3.19382
-1.63343,-0.0335897,2.739,3.18925
-1.62454,-0.0335897,2.739,3.18471
-1.61565,-0.0335897,2.739,3.18018
-1.60676,-0.0335897,2.739,3.17568
-1.58504,-0.0333199,2.717,3.14572
-1.57622,-0.0333199,2.717,3.14128
-1.55528,-0.0330624,2.696,3.11262
-1.54653,-0.0330624,2.696,3.10826
-1.53778,-0.0330624,2.696,3.10391
-1.52903,-0.0330624,2.696,3.09959
-1.52028,-0.0330624,2.696,3.09528
-1.51153,-0.0330624,2.696,3.09099
-1.50278,-0.0330624,2.696,3.08672
-1.48239,-0.0328049,2.675,3.05846
-1.47371,-0.0328049,2.675,3.05426
-1.47653,-0.0330624,2.696,3.07403
-1.46778,-0.0330624,2.696,3.06983
-1.45903,-0.0330624,2.696,3.06566
-1.47341,-0.0335897,2.739,3.11033
-1.46452,-0.0335897,2.739,3.10613
-1.46732,-0.0338595,2.761,3.12687
-1.46998,-0.0341293,2.783,3.14755
-1.46095,-0.0341293,2.783,3.14335
-1.46391,-0.0344114,2.806,3.1651
-1.46673,-0.0346934,2.829,3.18681
-1.45755,-0.0346934,2.829,3.18259
-1.44836,-0.0346934,2.829,3.1784
-1.41578,-0.0341293,2.783,3.12261
-1.40675,-0.0341293,2.783,3.11852
-1.38667,-0.0338595,2.761,3.08984
-1.34527,-0.0330624,2.696,3.01318
-1.33652,-0.0330624,2.696,3.00928
-1.29674,-0.0322898,2.633,2.93518
-1.25933,-0.0315662,2.574,2.86573
-1.25098,-0.0315662,2.574,2.86206
-1.22428,-0.0311002,2.536,2.81622
-1.1983,-0.0306465,2.499,2.77162
-1.19019,-0.0306465,2.499,2.76812
-1.16505,-0.030205,2.463,2.72482
-1.14062,-0.0297758,2.428,2.68274
-1.13274,-0.0297758,2.428,2.6794
-1.12485,-0.0297758,2.428,2.67607
-1.10133,-0.0293588,2.394,2.63534
-1.09356,-0.0293588,2.394,2.6321
-1.08579,-0.0293588,2.394,2.62889
-1.07802,-0.0293588,2.394,2.62569
-1.06265,-0.0291503,2.377,2.60388
-1.05494,-0.0291503,2.377,2.60074
-1.04722,-0.0291503,2.377,2.59762
-1.03951,-0.0291503,2.377,2.59452
-1.03179,-0.0291503,2.377,2.59144
-1.02408,-0.0291503,2.377,2.58838
-1.01636,-0.0291503,2.377,2.58534
-1.00865,-0.0291503,2.377,2.58231
-1.00809,-0.0293588,2.394,2.59776
-1.00032,-0.0293588,2.394,2.59475
-0.992548,-0.0293588,2.394,2.59177
-0.984778,-0.0293588,2.394,2.5888
-0.977007,-0.0293588,2.394,2.58585
-0.969237,-0.0293588,2.394,2.58293
-0.961466,-0.0293588,2.394,2.58002
-0.953696,-0.0293588,2.394,2.57714
-0.945926,-0.0293588,2.394,2.57427
-0.938156,-0.0293588,2.394,2.57143
-0.930385,-0.0293588,2.394,2.5686
-0.922615,-0.0293588,2.394,2.5658
-0.914845,-0.0293588,2.394,2.56301
-0.907074,-0.0293588,2.394,2.56025
-0.899304,-0.0293588,2.394,2.55751
-0.891534,-0.0293588,2.394,2.55479
-0.883763,-0.0293588,2.394,2.55208
-0.875993,-0.0293588,2.394,2.5494
-0.868223,-0.0293588,2.394,2.54674
-0.860452,-0.0293588,2.394,2.54411
-0.852682,-0.0293588,2.394,2.54149
-0.844912,-0.0293588,2.394,2.53889
-0.843086,-0.0295673,2.411,2.55433
-0.83526,-0.0295673,2.411,2.55176
-0.827435,-0.0295673,2.411,2.5492
-0.819609,-0.0295673,2.411,2.54668
-0.817508,-0.0297758,2.428,2.56211
-0.809627,-0.0297758,2.428,2.5596
-0.80736,-0.0299843,2.445,2.57503
-0.799424,-0.0299843,2.445,2.57255
-0.797315,-0.030205,2.463,2.58901
-0.789321,-0.030205,2.463,2.58656
-0.781326,-0.030205,2.463,2.58413
-0.773332,-0.030205,2.463,2.58173
-0.765338,-0.030205,2.463,2.57935
-0.757344,-0.030205,2.463,2.57698
-0.749349,-0.030205,2.463,2.57465
-0.741355,-0.030205,2.463,2.57233
-0.733361,-0.030205,2.463,2.57004
-0.725366,-0.030205,2.463,2.56777
-0.717372,-0.030205,2.463,2.56552
-0.709378,-0.030205,2.463,2.5633
-0.701384,-0.030205,2.463,2.5611
-0.693389,-0.030205,2.463,2.55892
-0.685395,-0.030205,2.463,2.55677
-0.677401,-0.030205,2.463,2.55463
-0.669406,-0.030205,2.463,2.55253
-0.661412,-0.030205,2.463,2.55044
-0.653418,-0.030205,2.463,2.54838
-0.645424,-0.030205,2.463,2.54634
-0.637429,-0.030205,2.463,2.54433
-0.629435,-0.030205,2.463,2.54234
-0.621441,-0.030205,2.463,2.54037
-0.613446,-0.030205,2.463,2.53842
-0.605452,-0.030205,2.463,2.5365
-0.601824,-0.0304257,2.481,2.55313
-0.593771,-0.0304257,2.481,2.55125
