0.177655,-0.115088,2.574,2.58269
0.186009,-0.115088,2.574,2.58328
0.195799,-0.115938,2.593,2.60297
0.204215,-0.115938,2.593,2.60361
0.212631,-0.115938,2.593,2.60429
0.221047,-0.115938,2.593,2.60499
0.229463,-0.115938,2.593,2.60571
0.23788,-0.115938,2.593,2.60647
0.246296,-0.115938,2.593,2.60725
0.254712,-0.115938,2.593,2.60806
0.263128,-0.115938,2.593,2.60889
0.271545,-0.115938,2.593,2.60976
0.275858,-0.114239,2.555,2.57239
0.284151,-0.114239,2.555,2.57329
0.292444,-0.114239,2.555,2.57422
0.2985,-0.113389,2.536,2.55602
0.306732,-0.113389,2.536,2.557
0.314963,-0.113389,2.536,2.558
0.320773,-0.11254,2.517,2.53985
0.328942,-0.11254,2.517,2.5409
0.337112,-0.11254,2.517,2.54197
0.345281,-0.11254,2.517,2.54306
0.353451,-0.11254,2.517,2.54419
0.36162,-0.11254,2.517,2.54533
0.36979,-0.11254,2.517,2.54651
0.37796,-0.11254,2.517,2.54771
0.389044,-0.113389,2.536,2.56817
0.397275,-0.113389,2.536,2.56943
0.405506,-0.113389,2.536,2.57072
0.413738,-0.113389,2.536,2.57203
0.421969,-0.113389,2.536,2.57337
0.426977,-0.11254,2.517,2.55544
0.435146,-0.11254,2.517,2.55682
0.443316,-0.11254,2.517,2.55822
0.451486,-0.11254,2.517,2.55965
0.456368,-0.111735,2.499,2.54279
0.464479,-0.111735,2.499,2.54425
0.47259,-0.111735,2.499,2.54575
0.480701,-0.111735,2.499,2.54727
0.488812,-0.111735,2.499,2.54881
0.496924,-0.111735,2.499,2.55038
0.505035,-0.111735,2.499,2.55197
0.513146,-0.111735,2.499,2.55359
0.521257,-0.111735,2.499,2.55523
0.529368,-0.111735,2.499,2.5569
0.541351,-0.11254,2.517,2.57702
0.553668,-0.113389,2.536,2.59821
0.5619,-0.113389,2.536,2.59998
0.570131,-0.113389,2.536,2.60177
0.582695,-0.114239,2.555,2.62309
0.590988,-0.114239,2.555,2.62495
0.599281,-0.114239,2.555,2.62683
0.612092,-0.115088,2.574,2.64828
0.620447,-0.115088,2.574,2.65022
0.628801,-0.115088,2.574,2.65219
0.637156,-0.115088,2.574,2.65418
0.64551,-0.115088,2.574,2.6562
0.653865,-0.115088,2.574,2.65824
0.657331,-0.114239,2.555,2.64067
0.665624,-0.114239,2.555,2.64275
0.673917,-0.114239,2.555,2.64485
0.68221,-0.114239,2.555,2.64698
0.690503,-0.114239,2.555,2.64913
0.698796,-0.114239,2.555,2.6513
0.707089,-0.114239,2.555,2.6535
0.715382,-0.114239,2.555,2.65572
0.729056,-0.115088,2.574,2.67773
0.737411,-0.115088,2.574,2.68002
0.745765,-0.115088,2.574,2.68233
0.75412,-0.115088,2.574,2.68466
0.762474,-0.115088,2.574,2.68702
0.770829,-0.115088,2.574,2.6894
0.779183,-0.115088,2.574,2.69181
0.787538,-0.115088,2.574,2.69424
0.801767,-0.115938,2.593,2.7166
0.810184,-0.115938,2.593,2.7191
0.8186,-0.115938,2.593,2.72162
0.827016,-0.115938,2.593,2.72416
0.829311,-0.115088,2.574,2.70675
0.837665,-0.115088,2.574,2.70932
0.84602,-0.115088,2.574,2.71191
0.854374,-0.115088,2.574,2.71453
0.862729,-0.115088,2.574,2.71717
0.864654,-0.114239,2.555,2.69976
0.866455,-0.113389,2.536,2.68233
0.874686,-0.113389,2.536,2.685
0.882918,-0.113389,2.536,2.68769
0.884472,-0.11254,2.517,2.67025
0.892642,-0.11254,2.517,2.67297
0.894369,-0.111735,2.499,2.65657
0.89598,-0.11093,2.481,2.64016
0.904033,-0.11093,2.481,2.6429
0.912085,-0.11093,2.481,2.64567
0.913462,-0.110125,2.463,2.62924
0.914722,-0.109321,2.445,2.61279
0.922658,-0.109321,2.445,2.61558
0.924124,-0.10856,2.428,2.60019
0.932004,-0.10856,2.428,2.603
0.939885,-0.10856,2.428,2.60583
0.94113,-0.1078,2.411,2.59042
0.948955,-0.1078,2.411,2.59327
0.956781,-0.1078,2.411,2.59615
0.964606,-0.1078,2.411,2.59904
0.972432,-0.1078,2.411,2.60195
0.980257,-0.1078,2.411,2.60489
0.988083,-0.1078,2.411,2.60784
1.00293,-0.10856,2.428,2.62923
1.01789,-0.109321,2.445,2.65067
1.04848,-0.111735,2.499,2.71234
1.05659,-0.111735,2.499,2.71549
1.08856,-0.114239,2.555,2.77958
1.13034,-0.117726,2.633,2.86779
1.13889,-0.117726,2.633,2.87117
1.18404,-0.121482,2.717,2.96628
1.23193,-0.125461,2.806,3.06709
1.26183,-0.127563,2.853,3.12219
1.27109,-0.127563,2.853,3.12595
1.30189,-0.129709,2.901,3.18238
1.3339,-0.131945,2.951,3.24116
1.34348,-0.131945,2.951,3.24511
1.36498,-0.133107,2.977,3.27772
1.38665,-0.13427,3.003,3.31041
1.3964,-0.13427,3.003,3.31451
1.40614,-0.13427,3.003,3.31863
1.41589,-0.13427,3.003,3.32277
1.42564,-0.13427,3.003,3.32693
1.43538,-0.13427,3.003,3.33112
1.44513,-0.13427,3.003,3.33533
1.45488,-0.13427,3.003,3.33957
1.46463,-0.13427,3.003,3.34383
1.48763,-0.135477,3.03,3.37821
1.49746,-0.135477,3.03,3.38255
1.5073,-0.135477,3.03,3.38692
1.50361,-0.13427,3.003,3.36109
1.51336,-0.13427,3.003,3.36546
1.5368,-0.135477,3.03,3.40015
1.54664,-0.135477,3.03,3.40461
1.58421,-0.137891,3.084,3.46984
1.60869,-0.139143,3.112,3.50597
1.6188,-0.139143,3.112,3.51061
1.65925,-0.141737,3.17,3.5808
1.68482,-0.143033,3.199,3.61838
1.6952,-0.143033,3.199,3.62323
1.72211,-0.144419,3.23,3.66325
1.74869,-0.145761,3.26,3.70226
1.77654,-0.147191,3.292,3.74366
1.78722,-0.147191,3.292,3.74875
1.81538,-0.148622,3.324,3.79034
1.82617,-0.148622,3.324,3.79552
1.81928,-0.147191,3.292,3.76413
1.82996,-0.147191,3.292,3.76931
1.84065,-0.147191,3.292,3.77451
1.85133,-0.147191,3.292,3.77973
1.84392,-0.145761,3.26,3.74818
1.8545,-0.145761,3.26,3.7534
1.86508,-0.145761,3.26,3.75864
1.87566,-0.145761,3.26,3.7639
1.88624,-0.145761,3.26,3.76919
1.87937,-0.144419,3.23,3.73976
1.88985,-0.144419,3.23,3.74504
1.90034,-0.144419,3.23,3.75034
1.91082,-0.144419,3.23,3.75566
1.90286,-0.143033,3.199,3.72491
1.91325,-0.143033,3.199,3.73022
1.92363,-0.143033,3.199,3.73556
1.91648,-0.141737,3.17,3.70701
1.92677,-0.141737,3.17,3.71233
1.93706,-0.141737,3.17,3.71769
1.92953,-0.14044,3.141,3.689
1.92182,-0.139143,3.112,3.66023
1.93192,-0.139143,3.112,3.66554
1.92455,-0.137891,3.084,3.63785
1.88375,-0.13427,3.003,3.54747
1.89349,-0.13427,3.003,3.55265
1.87028,-0.131945,2.951,3.49625
1.84801,-0.129709,2.901,3.44206
1.82669,-0.127563,2.853,3.39009
1.83595,-0.127563,2.853,3.39509
1.81482,-0.125461,2.806,3.34409
1.78037,-0.122466,2.739,3.26907
1.78926,-0.122466,2.739,3.27392
1.76992,-0.120543,2.696,3.22732
1.76482,-0.119604,2.675,3.20695
1.7735,-0.119604,2.675,3.21173
1.7542,-0.117726,2.633,3.16603
1.73597,-0.115938,2.593,3.12261
1.74439,-0.115938,2.593,3.12729
1.72711,-0.114239,2.555,3.0861
1.7225,-0.113389,2.536,3.06776
-2.06524,-0.123447,2.977,3.62533
-2.03763,-0.122369,2.951,3.58822
-2.02805,-0.122369,2.951,3.58279
-1.98427,-0.120296,2.901,3.51676
-1.95852,-0.119301,2.877,3.48241
-1.94918,-0.119301,2.877,3.47716
-1.92366,-0.118305,2.853,3.44297
-1.9144,-0.118305,2.853,3.43781
-1.90514,-0.118305,2.853,3.43266
-1.87993,-0.11731,2.829,3.3987
-1.87075,-0.11731,2.829,3.39363
-1.86157,-0.11731,2.829,3.38857
-1.85238,-0.11731,2.829,3.38354
-1.8432,-0.11731,2.829,3.37852
nan,nan,nan,NaN
nan,nan,nan,NaN
-1.84646,-0.119301,2.877,3.42064
-1.83712,-0.119301,2.877,3.41561
nan,nan,nan,NaN
nan,nan,nan,NaN
-1.85564,-0.122369,2.951,3.48809
-1.84606,-0.122369,2.951,3.48301
-1.85267,-0.123447,2.977,3.50858
-1.843,-0.123447,2.977,3.50349
-1.84935,-0.124525,3.003,3.52897
-1.8396,-0.124525,3.003,3.52387
-1.82986,-0.124525,3.003,3.51879
-1.82011,-0.124525,3.003,3.51373
-1.81036,-0.124525,3.003,3.50869
-1.80062,-0.124525,3.003,3.50367
-1.79087,-0.124525,3.003,3.49868
-1.78112,-0.124525,3.003,3.4937
-1.77138,-0.124525,3.003,3.48874
-1.76163,-0.124525,3.003,3.4838
-1.76763,-0.125645,3.03,3.51016
nan,nan,nan,NaN
nan,nan,nan,NaN
nan,nan,nan,NaN
nan,nan,nan,NaN
nan,nan,nan,NaN
nan,nan,nan,NaN
nan,nan,nan,NaN
nan,nan,nan,NaN
nan,nan,nan,NaN
nan,nan,nan,NaN
nan,nan,nan,NaN
nan,nan,nan,NaN
nan,nan,nan,NaN
nan,nan,nan,NaN
nan,nan,nan,NaN
nan,nan,nan,NaN
nan,nan,nan,NaN
nan,nan,nan,NaN
nan,nan,nan,NaN
nan,nan,nan,NaN
nan,nan,nan,NaN
nan,nan,nan,NaN
nan,nan,nan,NaN
nan,nan,nan,NaN
nan,nan,nan,NaN
nan,nan,nan,NaN
nan,nan,nan,NaN
-1.21302,-0.102133,2.463,2.7474
-1.19622,-0.101387,2.445,2.72383
-1.18828,-0.101387,2.445,2.72035
-1.17214,-0.100682,2.428,2.698
-1.15611,-0.099977,2.411,2.67572
-1.14828,-0.099977,2.411,2.67235
-1.14046,-0.099977,2.411,2.669
-1.13263,-0.099977,2.411,2.66566
-1.1248,-0.099977,2.411,2.66235
-1.1091,-0.0992721,2.394,2.6403
-1.09351,-0.0985671,2.377,2.61832
-1.0858,-0.0985671,2.377,2.61511
-1.07808,-0.0985671,2.377,2.61192
-1.07037,-0.0985671,2.377,2.60874
-1.06265,-0.0985671,2.377,2.60558
-1.05494,-0.0985671,2.377,2.60245
-1.04722,-0.0985671,2.377,2.59933
-1.03251,-0.0979037,2.361,2.57876
-1.02485,-0.0979037,2.361,2.5757
-1.01718,-0.0979037,2.361,2.57266
-1.00952,-0.0979037,2.361,2.56964
-1.00186,-0.0979037,2.361,2.56664
-0.994193,-0.0979037,2.361,2.56365
-0.986529,-0.0979037,2.361,2.56069
-0.978866,-0.0979037,2.361,2.55775
-0.971203,-0.0979037,2.361,2.55483
-0.96354,-0.0979037,2.361,2.55192
-0.955876,-0.0979037,2.361,2.54904
-0.948213,-0.0979037,2.361,2.54618
-0.94055,-0.0979037,2.361,2.54333
-0.932887,-0.0979037,2.361,2.54051
-0.925224,-0.0979037,2.361,2.5377
-0.911342,-0.0972402,2.345,2.51774
-0.903731,-0.0972402,2.345,2.515
-0.89612,-0.0972402,2.345,2.51227
-0.888508,-0.0972402,2.345,2.50957
-0.880897,-0.0972402,2.345,2.50688
-0.873286,-0.0972402,2.345,2.50422
-0.865674,-0.0972402,2.345,2.50157
-0.858063,-0.0972402,2.345,2.49895
-0.850452,-0.0972402,2.345,2.49635
-0.842841,-0.0972402,2.345,2.49376
-0.835229,-0.0972402,2.345,2.4912
-0.833265,-0.0979037,2.361,2.50564
-0.825602,-0.0979037,2.361,2.5031
-0.817938,-0.0979037,2.361,2.50059
-0.810275,-0.0979037,2.361,2.49809
-0.802612,-0.0979037,2.361,2.49561
-0.794949,-0.0979037,2.361,2.49316
-0.787286,-0.0979037,2.361,2.49073
-0.779622,-0.0979037,2.361,2.48832
-0.771959,-0.0979037,2.361,2.48593
-0.764296,-0.0979037,2.361,2.48356
-0.76176,-0.0985671,2.377,2.49802
-0.754045,-0.0985671,2.377,2.49568
-0.74633,-0.0985671,2.377,2.49336
-0.738615,-0.0985671,2.377,2.49106
-0.736127,-0.0992721,2.394,2.50659
-0.728357,-0.0992721,2.394,2.50432
-0.720586,-0.0992721,2.394,2.50207
-0.712816,-0.0992721,2.394,2.49984
-0.710052,-0.099977,2.411,2.51537
-0.702227,-0.099977,2.411,2.51317
-0.694401,-0.099977,2.411,2.511
-0.686576,-0.099977,2.411,2.50884
-0.67875,-0.099977,2.411,2.50671
-0.670925,-0.099977,2.411,2.50461
-0.663099,-0.099977,2.411,2.50252
-0.655274,-0.099977,2.411,2.50046
-0.647448,-0.099977,2.411,2.49842
-0.644133,-0.100682,2.428,2.51401
-0.636252,-0.100682,2.428,2.512
-0.628371,-0.100682,2.428,2.51001
-0.620491,-0.100682,2.428,2.50805
-0.61261,-0.100682,2.428,2.50611
-0.604729,-0.100682,2.428,2.5042
-0.596848,-0.100682,2.428,2.50231
-0.588968,-0.100682,2.428,2.50044
-0.585156,-0.101387,2.445,2.51609
-0.57722,-0.101387,2.445,2.51426
-0.569284,-0.101387,2.445,2.51245
-0.561348,-0.101387,2.445,2.51066
-0.553412,-0.101387,2.445,2.5089
-0.545476,-0.101387,2.445,2.50716
-0.541498,-0.102133,2.463,2.52389
-0.533504,-0.102133,2.463,2.52219
-0.525509,-0.102133,2.463,2.52051
-0.521297,-0.10288,2.481,2.53726
-0.513244,-0.10288,2.481,2.53562
-0.505192,-0.10288,2.481,2.534
-0.497139,-0.10288,2.481,2.53241
-0.489086,-0.10288,2.481,2.53084
-0.481034,-0.10288,2.481,2.5293
-0.472981,-0.10288,2.481,2.52778
-0.468301,-0.103626,2.499,2.54461
-0.46019,-0.103626,2.499,2.54313
-0.452079,-0.103626,2.499,2.54168
-0.443968,-0.103626,2.499,2.54025
-0.435857,-0.103626,2.499,2.53884
-0.427746,-0.103626,2.499,2.53746
-0.422657,-0.104373,2.517,2.55437
-0.414487,-0.104373,2.517,2.55303
-0.406318,-0.104373,2.517,2.55172
-0.401154,-0.10516,2.536,2.56968
-0.392923,-0.10516,2.536,2.56841
-0.384691,-0.10516,2.536,2.56717
-0.37646,-0.10516,2.536,2.56595
-0.368229,-0.10516,2.536,2.56475
-0.362695,-0.105948,2.555,2.58279
-0.354402,-0.105948,2.555,2.58164
-0.346109,-0.105948,2.555,2.58051
-0.337816,-0.105948,2.555,2.57941
-0.329523,-0.105948,2.555,2.57834
-0.32123,-0.105948,2.555,2.57729
-0.312937,-0.105948,2.555,2.57627
-0.304645,-0.105948,2.555,2.57528
-0.294148,-0.10516,2.536,2.55517
-0.285917,-0.10516,2.536,2.55423
-0.277685,-0.10516,2.536,2.55332
-0.269454,-0.10516,2.536,2.55244
-0.261223,-0.10516,2.536,2.55159
-0.252992,-0.10516,2.536,2.55076
-0.244761,-0.10516,2.536,2.54995
-0.236529,-0.10516,2.536,2.54918
-0.228298,-0.10516,2.536,2.54843
-0.218418,-0.104373,2.517,2.52861
-0.210249,-0.104373,2.517,2.52792
-0.202079,-0.104373,2.517,2.52726
-0.193909,-0.104373,2.517,2.52662
-0.18574,-0.104373,2.517,2.526
-0.17757,-0.104373,2.517,2.52541
-0.169401,-0.104373,2.517,2.52485
-0.161231,-0.104373,2.517,2.52432
-0.153062,-0.104373,2.517,2.52381
-0.144892,-0.104373,2.517,2.52333
-0.136723,-0.104373,2.517,2.52287
-0.129523,-0.10516,2.536,2.54148
-0.121292,-0.10516,2.536,2.54108
-0.113061,-0.10516,2.536,2.5407
-0.10483,-0.10516,2.536,2.54034
-0.0965985,-0.10516,2.536,2.54002
-0.0883672,-0.10516,2.536,2.53972
-0.080136,-0.10516,2.536,2.53944
-0.0724435,-0.105948,2.555,2.55822
-0.0646277,-0.106736,2.574,2.57702
-0.0562731,-0.106736,2.574,2.57683
-0.0482722,-0.107524,2.593,2.59568
-0.039856,-0.107524,2.593,2.59553
-0.0314398,-0.107524,2.593,2.59542
-0.0230235,-0.107524,2.593,2.59533
-0.01472,-0.108353,2.613,2.61529
-0.00623883,-0.108353,2.613,2.61525
0.00224232,-0.108353,2.613,2.61525
0.0107235,-0.108353,2.613,2.61527
0.0192046,-0.108353,2.613,2.61532
0.0276858,-0.108353,2.613,2.61539
0.0358901,-0.107524,2.593,2.59548
0.0443063,-0.107524,2.593,2.59561
0.0527226,-0.107524,2.593,2.59576
0.0611388,-0.107524,2.593,2.59595
0.069555,-0.107524,2.593,2.59616
0.0773999,-0.106736,2.574,2.57737
0.0857545,-0.106736,2.574,2.57764
0.0941091,-0.106736,2.574,2.57793
0.101707,-0.105948,2.555,2.55922
0.11,-0.105948,2.555,2.55956
0.118293,-0.105948,2.555,2.55993
0.126586,-0.105948,2.555,2.56033
0.134879,-0.105948,2.555,2.56075
0.143172,-0.105948,2.555,2.5612
0.151465,-0.105948,2.555,2.56168
0.159758,-0.105948,2.555,2.56218
0.1693,-0.106736,2.574,2.58177
0.177655,-0.106736,2.574,2.58233
0.186009,-0.106736,2.574,2.58292
0.195799,-0.107524,2.593,2.6026
0.204215,-0.107524,2.593,2.60325
0.212631,-0.107524,2.593,2.60392
0.221047,-0.107524,2.593,2.60463
0.229463,-0.107524,2.593,2.60535
0.23788,-0.107524,2.593,2.60611
0.246296,-0.107524,2.593,2.60689
0.254712,-0.107524,2.593,2.6077
0.263128,-0.107524,2.593,2.60853
0.271545,-0.107524,2.593,2.6094
0.275858,-0.105948,2.555,2.57203
0.284151,-0.105948,2.555,2.57293
0.292444,-0.105948,2.555,2.57386
0.2985,-0.10516,2.536,2.55567
0.306732,-0.10516,2.536,2.55665
0.314963,-0.10516,2.536,2.55765
0.320773,-0.104373,2.517,2.5395
0.328942,-0.104373,2.517,2.54055
0.337112,-0.104373,2.517,2.54162
0.345281,-0.104373,2.517,2.54272
0.353451,-0.104373,2.517,2.54384
0.36162,-0.104373,2.517,2.54499
0.36979,-0.104373,2.517,2.54616
0.37796,-0.104373,2.517,2.54736
0.386129,-0.104373,2.517,2.54858
0.394299,-0.104373,2.517,2.54983
0.405506,-0.10516,2.536,2.57037
0.413738,-0.10516,2.536,2.57168
0.421969,-0.10516,2.536,2.57302
0.426977,-0.104373,2.517,2.55509
0.435146,-0.104373,2.517,2.55647
0.443316,-0.104373,2.517,2.55787
0.448257,-0.103626,2.499,2.541
0.456368,-0.103626,2.499,2.54244
0.464479,-0.103626,2.499,2.54391
0.47259,-0.103626,2.499,2.5454
0.480701,-0.103626,2.499,2.54692
0.488812,-0.103626,2.499,2.54847
0.496924,-0.103626,2.499,2.55003
0.501397,-0.10288,2.481,2.53325
0.50945,-0.10288,2.481,2.53485
0.521257,-0.103626,2.499,2.55489
0.529368,-0.103626,2.499,2.55655
0.541351,-0.104373,2.517,2.57667
0.553668,-0.10516,2.536,2.59787
0.5619,-0.10516,2.536,2.59963
0.570131,-0.10516,2.536,2.60142
0.582695,-0.105948,2.555,2.62274
0.590988,-0.105948,2.555,2.6246
0.599281,-0.105948,2.555,2.62648
0.607574,-0.105948,2.555,2.62838
0.615867,-0.105948,2.555,2.63031
0.62416,-0.105948,2.555,2.63227
0.637156,-0.106736,2.574,2.65383
0.64551,-0.106736,2.574,2.65585
0.653865,-0.106736,2.574,2.6579
0.657331,-0.105948,2.555,2.64033
0.665624,-0.105948,2.555,2.64241
0.673917,-0.105948,2.555,2.64451
0.68221,-0.105948,2.555,2.64663
0.690503,-0.105948,2.555,2.64878
0.698796,-0.105948,2.555,2.65096
0.707089,-0.105948,2.555,2.65315
0.715382,-0.105948,2.555,2.65538
0.729056,-0.106736,2.574,2.67739
0.737411,-0.106736,2.574,2.67967
0.745765,-0.106736,2.574,2.68198
0.75412,-0.106736,2.574,2.68432
0.762474,-0.106736,2.574,2.68668
0.770829,-0.106736,2.574,2.68906
0.779183,-0.106736,2.574,2.69147
0.787538,-0.106736,2.574,2.6939
0.801767,-0.107524,2.593,2.71626
0.810184,-0.107524,2.593,2.71875
0.8186,-0.107524,2.593,2.72127
0.827016,-0.107524,2.593,2.72381
0.829311,-0.106736,2.574,2.7064
0.837665,-0.106736,2.574,2.70898
0.84602,-0.106736,2.574,2.71157
0.854374,-0.106736,2.574,2.71419
0.862729,-0.106736,2.574,2.71683
0.864654,-0.105948,2.555,2.69942
0.872947,-0.105948,2.555,2.70209
0.881239,-0.105948,2.555,2.70478
0.882918,-0.10516,2.536,2.68736
0.884472,-0.104373,2.517,2.66992
0.892642,-0.104373,2.517,2.67264
0.894369,-0.103626,2.499,2.65624
0.90248,-0.103626,2.499,2.65899
0.910591,-0.103626,2.499,2.66175
0.912085,-0.10288,2.481,2.64534
0.913462,-0.102133,2.463,2.62892
0.914722,-0.101387,2.445,2.61247
0.922658,-0.101387,2.445,2.61526
0.924124,-0.100682,2.428,2.59987
0.932004,-0.100682,2.428,2.60268
0.939885,-0.100682,2.428,2.60551
0.94113,-0.099977,2.411,2.5901
0.948955,-0.099977,2.411,2.59296
0.956781,-0.099977,2.411,2.59583
0.964606,-0.099977,2.411,2.59873
0.972432,-0.099977,2.411,2.60164
0.987169,-0.100682,2.428,2.62294
0.99505,-0.100682,2.428,2.62592
1.00995,-0.101387,2.445,2.64732
1.03288,-0.10288,2.481,2.68938
1.04848,-0.103626,2.499,2.71202
1.05659,-0.103626,2.499,2.71517
1.08856,-0.105948,2.555,2.77925
1.13034,-0.109183,2.633,2.86745
1.13889,-0.109183,2.633,2.87083
1.18404,-0.112666,2.717,2.96593
1.22183,-0.115403,2.783,3.04159
1.26183,-0.118305,2.853,3.12183
1.27109,-0.118305,2.853,3.12558
1.29112,-0.119301,2.877,3.15568
1.3226,-0.121333,2.926,3.21333
1.3321,-0.121333,2.926,3.21725
1.35306,-0.122369,2.951,3.24872
1.37464,-0.123447,2.977,3.28137
1.38431,-0.123447,2.977,3.28543
1.39397,-0.123447,2.977,3.28952
1.40363,-0.123447,2.977,3.29362
1.41329,-0.123447,2.977,3.29775
1.42296,-0.123447,2.977,3.30191
1.43262,-0.123447,2.977,3.30608
1.45488,-0.124525,3.003,3.33919
1.46463,-0.124525,3.003,3.34345
1.47437,-0.124525,3.003,3.34773
1.48412,-0.124525,3.003,3.35203
1.49387,-0.124525,3.003,3.35636
1.50361,-0.124525,3.003,3.36071
1.51336,-0.124525,3.003,3.36508
1.5368,-0.125645,3.03,3.39977
1.54664,-0.125645,3.03,3.40423
1.57034,-0.126765,3.057,3.43908
1.60869,-0.129045,3.112,3.50558
1.6188,-0.129045,3.112,3.51023
1.64408,-0.130248,3.141,3.54765
1.66954,-0.13145,3.17,3.58519
1.67983,-0.13145,3.17,3.58999
1.70558,-0.132653,3.199,3.6277
1.71597,-0.132653,3.199,3.63259
1.72635,-0.132653,3.199,3.63751
1.76985,-0.135182,3.26,3.71191
1.78043,-0.135182,3.26,3.71696
1.79101,-0.135182,3.26,3.72204
1.80159,-0.135182,3.26,3.72715
1.81217,-0.135182,3.26,3.73227
1.82276,-0.135182,3.26,3.73742
1.81647,-0.133939,3.23,3.70815
1.82695,-0.133939,3.23,3.7133
1.83743,-0.133939,3.23,3.71847
1.84792,-0.133939,3.23,3.72366
1.84056,-0.132653,3.199,3.69308
1.85095,-0.132653,3.199,3.69827
1.86133,-0.132653,3.199,3.70348
1.87171,-0.132653,3.199,3.70871
1.8821,-0.132653,3.199,3.71396
1.91082,-0.133939,3.23,3.75527
1.90286,-0.132653,3.199,3.72453
1.91325,-0.132653,3.199,3.72984
1.92363,-0.132653,3.199,3.73518
1.91648,-0.13145,3.17,3.70663
1.92677,-0.13145,3.17,3.71196
1.93706,-0.13145,3.17,3.71731
1.92953,-0.130248,3.141,3.68862
1.92182,-0.129045,3.112,3.65986
1.93192,-0.129045,3.112,3.66518
1.92455,-0.127884,3.084,3.63748
1.88375,-0.124525,3.003,3.54711
1.89349,-0.124525,3.003,3.5523
1.87028,-0.122369,2.951,3.4959
1.86394,-0.121333,2.926,3.47138
1.82669,-0.118305,2.853,3.38975
1.83595,-0.118305,2.853,3.39475
1.81482,-0.116356,2.806,3.34376
1.78037,-0.113578,2.739,3.26875
1.78926,-0.113578,2.739,3.2736
1.76992,-0.111795,2.696,3.227
1.76482,-0.110924,2.675,3.20664
1.7735,-0.110924,2.675,3.21142
1.7542,-0.109183,2.633,3.16573
1.73597,-0.107524,2.593,3.12231
1.74439,-0.107524,2.593,3.12699
1.72711,-0.105948,2.555,3.0858
1.7225,-0.10516,2.536,3.06747
-2.06524,-0.113787,2.977,3.62501
-2.03763,-0.112794,2.951,3.5879
-2.02805,-0.112794,2.951,3.58247
-1.98427,-0.110883,2.901,3.51645
-1.95852,-0.109965,2.877,3.4821
-1.94918,-0.109965,2.877,3.47685
-1.92366,-0.109048,2.853,3.44267
-1.9144,-0.109048,2.853,3.4375
-1.90514,-0.109048,2.853,3.43235
-1.87993,-0.108131,2.829,3.39839
-1.87075,-0.108131,2.829,3.39332
-1.86157,-0.108131,2.829,3.38827
-1.85238,-0.108131,2.829,3.38323
-1.8432,-0.108131,2.829,3.37821
-1.83402,-0.108131,2.829,3.37321
nan,nan,nan,NaN
-1.84646,-0.109965,2.877,3.42033
-1.83712,-0.109965,2.877,3.4153
nan,nan,nan,NaN
nan,nan,nan,NaN
-1.85564,-0.112794,2.951,3.48777
-1.84606,-0.112794,2.951,3.48268
-1.85267,-0.113787,2.977,3.50825
-1.843,-0.113787,2.977,3.50316
-1.83334,-0.113787,2.977,3.49809
-1.82368,-0.113787,2.977,3.49303
-1.81401,-0.113787,2.977,3.488
-1.82011,-0.114781,3.003,3.5134
-1.81036,-0.114781,3.003,3.50836
-1.80062,-0.114781,3.003,3.50334
-1.79087,-0.114781,3.003,3.49834
-1.78112,-0.114781,3.003,3.49336
-1.77138,-0.114781,3.003,3.4884
-1.76163,-0.114781,3.003,3.48346
-1.75188,-0.114781,3.003,3.47854
-1.74213,-0.114781,3.003,3.47365
-1.73239,-0.114781,3.003,3.46877
nan,nan,nan,NaN
nan,nan,nan,NaN
nan,nan,nan,NaN
nan,nan,nan,NaN
nan,nan,nan,NaN
nan,nan,nan,NaN
nan,nan,nan,NaN
nan,nan,nan,NaN
nan,nan,nan,NaN
nan,nan,nan,NaN
nan,nan,nan,NaN
nan,nan,nan,NaN
nan,nan,nan,NaN
nan,nan,nan,NaN
nan,nan,nan,NaN
nan,nan,nan,NaN
nan,nan,nan,NaN
nan,nan,nan,NaN
nan,nan,nan,NaN
nan,nan,nan,NaN
nan,nan,nan,NaN
nan,nan,nan,NaN
-1.31234,-0.0998746,2.613,2.92574
-1.27491,-0.0976577,2.555,2.85709
-1.26662,-0.0976577,2.555,2.8534
-1.21302,-0.0941413,2.463,2.74712
-1.19622,-0.0934533,2.445,2.72354
-1.18828,-0.0934533,2.445,2.72007
-1.17214,-0.0928035,2.428,2.69772
-1.16426,-0.0928035,2.428,2.69431
-1.15638,-0.0928035,2.428,2.69091
-1.14046,-0.0921537,2.411,2.66872
-1.13263,-0.0921537,2.411,2.66538
-1.1248,-0.0921537,2.411,2.66207
-1.1091,-0.0915039,2.394,2.64002
-1.09351,-0.0908541,2.377,2.61804
-1.0858,-0.0908541,2.377,2.61483
-1.07808,-0.0908541,2.377,2.61164
-1.07037,-0.0908541,2.377,2.60846
-1.06265,-0.0908541,2.377,2.6053
-1.05494,-0.0908541,2.377,2.60217
-1.04722,-0.0908541,2.377,2.59905
-1.03251,-0.0902426,2.361,2.57848
-1.02485,-0.0902426,2.361,2.57542
-1.01718,-0.0902426,2.361,2.57238
-1.00952,-0.0902426,2.361,2.56936
-1.00186,-0.0902426,2.361,2.56636
-0.994193,-0.0902426,2.361,2.56337
-0.986529,-0.0902426,2.361,2.56041
-0.978866,-0.0902426,2.361,2.55747
-0.971203,-0.0902426,2.361,2.55454
-0.96354,-0.0902426,2.361,2.55164
-0.955876,-0.0902426,2.361,2.54876
-0.948213,-0.0902426,2.361,2.54589
-0.94055,-0.0902426,2.361,2.54305
-0.932887,-0.0902426,2.361,2.54022
-0.925224,-0.0902426,2.361,2.53742
-0.91756,-0.0902426,2.361,2.53464
-0.903731,-0.089631,2.345,2.51471
-0.89612,-0.089631,2.345,2.51199
-0.888508,-0.089631,2.345,2.50928
-0.880897,-0.089631,2.345,2.5066
-0.873286,-0.089631,2.345,2.50393
-0.865674,-0.089631,2.345,2.50129
-0.858063,-0.089631,2.345,2.49867
-0.850452,-0.089631,2.345,2.49606
-0.848591,-0.0902426,2.361,2.51049
-0.840928,-0.0902426,2.361,2.50791
-0.833265,-0.0902426,2.361,2.50535
-0.825602,-0.0902426,2.361,2.50282
-0.817938,-0.0902426,2.361,2.5003
-0.810275,-0.0902426,2.361,2.4978
-0.802612,-0.0902426,2.361,2.49533
-0.794949,-0.0902426,2.361,2.49287
-0.787286,-0.0902426,2.361,2.49044
-0.779622,-0.0902426,2.361,2.48803
-0.771959,-0.0902426,2.361,2.48564
-0.764296,-0.0902426,2.361,2.48327
-0.76176,-0.0908541,2.377,2.49773
-0.754045,-0.0908541,2.377,2.49539
-0.74633,-0.0908541,2.377,2.49307
-0.738615,-0.0908541,2.377,2.49077
-0.736127,-0.0915039,2.394,2.50629
-0.728357,-0.0915039,2.394,2.50402
-0.720586,-0.0915039,2.394,2.50177
-0.712816,-0.0915039,2.394,2.49954
-0.705046,-0.0915039,2.394,2.49734
-0.697275,-0.0915039,2.394,2.49516
-0.689505,-0.0915039,2.394,2.493
-0.686576,-0.0921537,2.411,2.50855
-0.67875,-0.0921537,2.411,2.50641
-0.670925,-0.0921537,2.411,2.50431
-0.663099,-0.0921537,2.411,2.50222
-0.655274,-0.0921537,2.411,2.50016
-0.647448,-0.0921537,2.411,2.49812
-0.644133,-0.0928035,2.428,2.5137
-0.636252,-0.0928035,2.428,2.5117
-0.628371,-0.0928035,2.428,2.50971
-0.620491,-0.0928035,2.428,2.50775
-0.61261,-0.0928035,2.428,2.50581
-0.604729,-0.0928035,2.428,2.5039
-0.596848,-0.0928035,2.428,2.502
-0.588968,-0.0928035,2.428,2.50014
-0.581087,-0.0928035,2.428,2.49829
-0.573206,-0.0928035,2.428,2.49647
-0.569284,-0.0934533,2.445,2.51214
-0.561348,-0.0934533,2.445,2.51035
-0.553412,-0.0934533,2.445,2.50859
-0.545476,-0.0934533,2.445,2.50685
-0.541498,-0.0941413,2.463,2.52358
-0.533504,-0.0941413,2.463,2.52188
-0.525509,-0.0941413,2.463,2.5202
-0.521297,-0.0948293,2.481,2.53695
-0.513244,-0.0948293,2.481,2.53531
-0.505192,-0.0948293,2.481,2.53369
-0.497139,-0.0948293,2.481,2.53209
-0.489086,-0.0948293,2.481,2.53053
-0.481034,-0.0948293,2.481,2.52898
-0.472981,-0.0948293,2.481,2.52746
-0.468301,-0.0955173,2.499,2.54429
-0.46019,-0.0955173,2.499,2.54281
-0.452079,-0.0955173,2.499,2.54136
-0.443968,-0.0955173,2.499,2.53993
-0.435857,-0.0955173,2.499,2.53852
-0.427746,-0.0955173,2.499,2.53714
-0.422657,-0.0962052,2.517,2.55405
-0.414487,-0.0962052,2.517,2.55271
-0.406318,-0.0962052,2.517,2.5514
-0.401154,-0.0969315,2.536,2.56936
-0.392923,-0.0969315,2.536,2.56809
-0.384691,-0.0969315,2.536,2.56684
-0.37646,-0.0969315,2.536,2.56562
-0.368229,-0.0969315,2.536,2.56443
-0.362695,-0.0976577,2.555,2.58246
-0.354402,-0.0976577,2.555,2.58131
-0.346109,-0.0976577,2.555,2.58018
-0.337816,-0.0976577,2.555,2.57909
-0.329523,-0.0976577,2.555,2.57801
-0.32123,-0.0976577,2.555,2.57697
-0.312937,-0.0976577,2.555,2.57594
-0.304645,-0.0976577,2.555,2.57495
-0.294148,-0.0969315,2.536,2.55484
-0.285917,-0.0969315,2.536,2.55391
-0.277685,-0.0969315,2.536,2.553
-0.269454,-0.0969315,2.536,2.55212
-0.261223,-0.0969315,2.536,2.55126
-0.252992,-0.0969315,2.536,2.55043
-0.244761,-0.0969315,2.536,2.54963
-0.236529,-0.0969315,2.536,2.54885
-0.228298,-0.0969315,2.536,2.5481
-0.218418,-0.0962052,2.517,2.52829
-0.210249,-0.0962052,2.517,2.5276
-0.202079,-0.0962052,2.517,2.52693
-0.193909,-0.0962052,2.517,2.52629
-0.18574,-0.0962052,2.517,2.52568
-0.17757,-0.0962052,2.517,2.52509
-0.169401,-0.0962052,2.517,2.52453
-0.161231,-0.0962052,2.517,2.52399
-0.153062,-0.0962052,2.517,2.52348
-0.144892,-0.0962052,2.517,2.523
-0.136723,-0.0962052,2.517,2.52255
-0.129523,-0.0969315,2.536,2.54115
-0.121292,-0.0969315,2.536,2.54075
-0.113061,-0.0969315,2.536,2.54037
-0.10483,-0.0969315,2.536,2.54002
-0.0965985,-0.0969315,2.536,2.53969
-0.0883672,-0.0969315,2.536,2.53939
-0.080136,-0.0969315,2.536,2.53912
-0.0724435,-0.0976577,2.555,2.55789
-0.0641506,-0.0976577,2.555,2.55767
-0.0558577,-0.0976577,2.555,2.55748
-0.0482722,-0.0991101,2.593,2.59534
-0.039856,-0.0991101,2.593,2.5952
-0.0314398,-0.0991101,2.593,2.59508
-0.0230235,-0.0991101,2.593,2.595
-0.01472,-0.0998746,2.613,2.61495
-0.00623883,-0.0998746,2.613,2.61492
0.00224232,-0.0998746,2.613,2.61491
0.0107235,-0.0998746,2.613,2.61493
0.0192046,-0.0998746,2.613,2.61498
0.0276858,-0.0998746,2.613,2.61505
0.0358901,-0.0991101,2.593,2.59514
0.0443063,-0.0991101,2.593,2.59527
0.0527226,-0.0991101,2.593,2.59543
0.0606908,-0.0983839,2.574,2.57659
0.0690454,-0.0983839,2.574,2.5768
0.0773999,-0.0983839,2.574,2.57704
0.0851215,-0.0976577,2.555,2.55828
0.0934144,-0.0976577,2.555,2.55857
0.101707,-0.0976577,2.555,2.55889
0.11,-0.0976577,2.555,2.55923
0.118293,-0.0976577,2.555,2.5596
0.126586,-0.0976577,2.555,2.56
0.134879,-0.0976577,2.555,2.56042
0.143172,-0.0976577,2.555,2.56087
0.151465,-0.0976577,2.555,2.56135
0.159758,-0.0976577,2.555,2.56185
0.16805,-0.0976577,2.555,2.56238
0.177655,-0.0983839,2.574,2.582
0.186009,-0.0983839,2.574,2.58259
0.194364,-0.0983839,2.574,2.5832
0.204215,-0.0991101,2.593,2.60292
0.211073,-0.0983839,2.574,2.58451
0.219428,-0.0983839,2.574,2.58521
0.229463,-0.0991101,2.593,2.60502
0.23788,-0.0991101,2.593,2.60577
0.246296,-0.0991101,2.593,2.60656
0.252846,-0.0983839,2.574,2.58826
0.2612,-0.0983839,2.574,2.58909
0.269555,-0.0983839,2.574,2.58995
0.275858,-0.0976577,2.555,2.5717
0.284151,-0.0976577,2.555,2.57261
0.292444,-0.0976577,2.555,2.57354
0.2985,-0.0969315,2.536,2.55535
0.306732,-0.0969315,2.536,2.55632
0.314963,-0.0969315,2.536,2.55732
0.320773,-0.0962052,2.517,2.53918
0.328942,-0.0962052,2.517,2.54023
0.337112,-0.0962052,2.517,2.5413
0.345281,-0.0962052,2.517,2.54239
0.353451,-0.0962052,2.517,2.54352
0.36162,-0.0962052,2.517,2.54466
0.36979,-0.0962052,2.517,2.54584
0.37796,-0.0962052,2.517,2.54704
0.386129,-0.0962052,2.517,2.54826
0.394299,-0.0962052,2.517,2.54951
0.405506,-0.0969315,2.536,2.57004
0.410638,-0.0962052,2.517,2.55209
0.418807,-0.0962052,2.517,2.55342
0.426977,-0.0962052,2.517,2.55477
0.435146,-0.0962052,2.517,2.55615
0.443316,-0.0962052,2.517,2.55755
0.448257,-0.0955173,2.499,2.54068
0.456368,-0.0955173,2.499,2.54212
0.464479,-0.0955173,2.499,2.54359
0.47259,-0.0955173,2.499,2.54509
0.480701,-0.0955173,2.499,2.54661
0.488812,-0.0955173,2.499,2.54815
0.496924,-0.0955173,2.499,2.54972
0.501397,-0.0948293,2.481,2.53293
0.50945,-0.0948293,2.481,2.53454
0.521257,-0.0955173,2.499,2.55457
0.529368,-0.0955173,2.499,2.55624
0.541351,-0.0962052,2.517,2.57636
0.553668,-0.0969315,2.536,2.59754
0.5619,-0.0969315,2.536,2.59931
0.570131,-0.0969315,2.536,2.6011
0.582695,-0.0976577,2.555,2.62242
0.590988,-0.0976577,2.555,2.62428
0.599281,-0.0976577,2.555,2.62616
0.607574,-0.0976577,2.555,2.62806
0.615867,-0.0976577,2.555,2.62999
0.62416,-0.0976577,2.555,2.63195
0.632453,-0.0976577,2.555,2.63392
0.640746,-0.0976577,2.555,2.63593
0.649038,-0.0976577,2.555,2.63796
0.657331,-0.0976577,2.555,2.64001
0.665624,-0.0976577,2.555,2.64209
0.673917,-0.0976577,2.555,2.64419
0.68221,-0.0976577,2.555,2.64631
0.690503,-0.0976577,2.555,2.64846
0.698796,-0.0976577,2.555,2.65064
0.712347,-0.0983839,2.574,2.67256
0.720701,-0.0983839,2.574,2.6748
0.729056,-0.0983839,2.574,2.67707
0.737411,-0.0983839,2.574,2.67935
0.75127,-0.0991101,2.593,2.70146
0.759686,-0.0991101,2.593,2.70381
0.768102,-0.0991101,2.593,2.70619
0.776519,-0.0991101,2.593,2.70859
0.784935,-0.0991101,2.593,2.71101
0.793351,-0.0991101,2.593,2.71346
0.801767,-0.0991101,2.593,2.71594
0.810184,-0.0991101,2.593,2.71843
0.8186,-0.0991101,2.593,2.72095
0.827016,-0.0991101,2.593,2.7235
0.835432,-0.0991101,2.593,2.72606
0.843849,-0.0991101,2.593,2.72865
0.84602,-0.0983839,2.574,2.71126
0.854374,-0.0983839,2.574,2.71387
0.862729,-0.0983839,2.574,2.71652
0.864654,-0.0976577,2.555,2.69911
0.872947,-0.0976577,2.555,2.70178
0.881239,-0.0976577,2.555,2.70447
0.882918,-0.0969315,2.536,2.68705
0.884472,-0.0962052,2.517,2.66961
0.892642,-0.0962052,2.517,2.67233
0.900811,-0.0962052,2.517,2.67507
0.90248,-0.0955173,2.499,2.65868
0.910591,-0.0955173,2.499,2.66145
0.912085,-0.0948293,2.481,2.64504
0.913462,-0.0941413,2.463,2.62862
0.914722,-0.0934533,2.445,2.61218
0.922658,-0.0934533,2.445,2.61497
0.930594,-0.0934533,2.445,2.61778
0.932004,-0.0928035,2.428,2.60239
0.939885,-0.0928035,2.428,2.60522
0.947766,-0.0928035,2.428,2.60808
0.948955,-0.0921537,2.411,2.59267
0.956781,-0.0921537,2.411,2.59554
0.964606,-0.0921537,2.411,2.59844
0.972432,-0.0921537,2.411,2.60135
0.987169,-0.0928035,2.428,2.62265
0.99505,-0.0928035,2.428,2.62563
1.00995,-0.0934533,2.445,2.64703
1.03288,-0.0948293,2.481,2.68909
1.05603,-0.0962052,2.517,2.73125
1.0642,-0.0962052,2.517,2.73442
1.10475,-0.0991101,2.593,2.82027
1.13936,-0.101442,2.654,2.89001
1.14797,-0.101442,2.654,2.89341
1.18404,-0.10385,2.717,2.96561
1.22183,-0.106372,2.783,3.04126
1.26183,-0.109048,2.853,3.12149
1.27109,-0.109048,2.853,3.12525
1.29112,-0.109965,2.877,3.15535
1.3226,-0.111838,2.926,3.21298
1.3321,-0.111838,2.926,3.2169
1.35306,-0.112794,2.951,3.24837
1.37464,-0.113787,2.977,3.28102
1.38431,-0.113787,2.977,3.28509
1.39397,-0.113787,2.977,3.28917
1.40363,-0.113787,2.977,3.29328
1.41329,-0.113787,2.977,3.29741
1.42296,-0.113787,2.977,3.30156
1.43262,-0.113787,2.977,3.30573
1.45488,-0.114781,3.003,3.33884
1.46463,-0.114781,3.003,3.3431
1.47437,-0.114781,3.003,3.34738
1.48412,-0.114781,3.003,3.35169
1.49387,-0.114781,3.003,3.35601
1.50361,-0.114781,3.003,3.36036
1.51336,-0.114781,3.003,3.36474
1.5368,-0.115813,3.03,3.39942
1.54664,-0.115813,3.03,3.40388
1.57034,-0.116845,3.057,3.43873
1.60869,-0.118947,3.112,3.50522
1.6188,-0.118947,3.112,3.50987
1.64408,-0.120056,3.141,3.54729
1.66954,-0.121164,3.17,3.58482
1.67983,-0.121164,3.17,3.58963
1.70558,-0.122273,3.199,3.62734
1.71597,-0.122273,3.199,3.63223
1.72635,-0.122273,3.199,3.63715
1.76985,-0.124604,3.26,3.71154
1.78043,-0.124604,3.26,3.71659
1.79101,-0.124604,3.26,3.72167
1.80159,-0.124604,3.26,3.72678
1.81217,-0.124604,3.26,3.7319
1.82276,-0.124604,3.26,3.73705
1.81647,-0.123458,3.23,3.70779
1.82695,-0.123458,3.23,3.71293
1.83743,-0.123458,3.23,3.7181
1.84792,-0.123458,3.23,3.7233
1.84056,-0.122273,3.199,3.69273
1.85095,-0.122273,3.199,3.69791
1.86133,-0.122273,3.199,3.70312
1.87171,-0.122273,3.199,3.70835
1.8821,-0.122273,3.199,3.7136
1.89248,-0.122273,3.199,3.71888
1.90286,-0.122273,3.199,3.72417
1.8959,-0.121164,3.17,3.69568
1.90619,-0.121164,3.17,3.70097
1.91648,-0.121164,3.17,3.70628
1.90914,-0.120056,3.141,3.67765
1.91934,-0.120056,3.141,3.68295
1.91172,-0.118947,3.112,3.65422
1.90453,-0.117877,3.084,3.62659
1.91454,-0.117877,3.084,3.63186
1.9077,-0.116845,3.057,3.6053
1.88375,-0.114781,3.003,3.54679
1.89349,-0.114781,3.003,3.55197
1.87028,-0.112794,2.951,3.49558
1.84801,-0.110883,2.901,3.4414
1.82669,-0.109048,2.853,3.38944
1.83595,-0.109048,2.853,3.39444
1.81482,-0.107251,2.806,3.34346
1.78037,-0.104691,2.739,3.26846
1.78926,-0.104691,2.739,3.27331
1.76992,-0.103047,2.696,3.22671
1.76482,-0.102244,2.675,3.20635
1.7735,-0.102244,2.675,3.21114
1.7542,-0.100639,2.633,3.16545
1.73597,-0.0991101,2.593,3.12203
1.74439,-0.0991101,2.593,3.12672
1.72711,-0.0976577,2.555,3.08553
1.7225,-0.0969315,2.536,3.0672
-2.06524,-0.104128,2.977,3.62472
-2.02036,-0.102344,2.926,3.55722
-2.01087,-0.102344,2.926,3.55184
-1.98427,-0.101469,2.901,3.51617
-1.95852,-0.10063,2.877,3.48182
-1.94918,-0.10063,2.877,3.47657
-1.90748,-0.0989509,2.829,3.41343
-1.89829,-0.0989509,2.829,3.40831
-1.88911,-0.0989509,2.829,3.4032
-1.86465,-0.0981465,2.806,3.37049
-1.85554,-0.0981465,2.806,3.36546
-1.84643,-0.0981465,2.806,3.36044
-1.83732,-0.0981465,2.806,3.35545
-1.82822,-0.0981465,2.806,3.35047
-1.83402,-0.0989509,2.829,3.37293
-1.82484,-0.0989509,2.829,3.36795
-1.81565,-0.0989509,2.829,3.36298
-1.83712,-0.10063,2.877,3.41501
nan,nan,nan,NaN
nan,nan,nan,NaN
nan,nan,nan,NaN
-1.84606,-0.103218,2.951,3.48238
-1.83648,-0.103218,2.951,3.47732
-1.82691,-0.103218,2.951,3.47227
-1.83334,-0.104128,2.977,3.49779
-1.82368,-0.104128,2.977,3.49273
-1.81401,-0.104128,2.977,3.4877
-1.80435,-0.104128,2.977,3.48268
-1.81036,-0.105037,3.003,3.50806
-1.80062,-0.105037,3.003,3.50304
-1.79087,-0.105037,3.003,3.49804
-1.78112,-0.105037,3.003,3.49306
-1.77138,-0.105037,3.003,3.4881
-1.76163,-0.105037,3.003,3.48316
-1.75188,-0.105037,3.003,3.47824
-1.74213,-0.105037,3.003,3.47334
-1.73239,-0.105037,3.003,3.46846
nan,nan,nan,NaN
nan,nan,nan,NaN
nan,nan,nan,NaN
nan,nan,nan,NaN
nan,nan,nan,NaN
nan,nan,nan,NaN
nan,nan,nan,NaN
nan,nan,nan,NaN
nan,nan,nan,NaN
nan,nan,nan,NaN
nan,nan,nan,NaN
nan,nan,nan,NaN
nan,nan,nan,NaN
nan,nan,nan,NaN
nan,nan,nan,NaN
nan,nan,nan,NaN
nan,nan,nan,NaN
nan,nan,nan,NaN
nan,nan,nan,NaN
nan,nan,nan,NaN
nan,nan,nan,NaN
nan,nan,nan,NaN
-1.31234,-0.0913958,2.613,2.92547
-1.27491,-0.0893671,2.555,2.85682
-1.26662,-0.0893671,2.555,2.85313
-1.23075,-0.0874084,2.499,2.787
-1.20502,-0.0861492,2.463,2.74333
-1.19703,-0.0861492,2.463,2.73983
-1.18035,-0.0855196,2.445,2.71635
-1.16426,-0.084925,2.428,2.69405
-1.15638,-0.084925,2.428,2.69065
-1.1485,-0.084925,2.428,2.68727
-1.13263,-0.0843304,2.411,2.66512
-1.1248,-0.0843304,2.411,2.66181
-1.1091,-0.0837358,2.394,2.63976
-1.09351,-0.0831412,2.377,2.61779
-1.0858,-0.0831412,2.377,2.61457
-1.07808,-0.0831412,2.377,2.61138
-1.07037,-0.0831412,2.377,2.6082
-1.06265,-0.0831412,2.377,2.60505
-1.05494,-0.0831412,2.377,2.60191
-1.04722,-0.0831412,2.377,2.59879
-1.03951,-0.0831412,2.377,2.59569
-1.03179,-0.0831412,2.377,2.59261
-1.02408,-0.0831412,2.377,2.58955
-1.00952,-0.0825815,2.361,2.5691
-1.00186,-0.0825815,2.361,2.5661
-0.994193,-0.0825815,2.361,2.56312
-0.986529,-0.0825815,2.361,2.56015
-0.978866,-0.0825815,2.361,2.55721
-0.971203,-0.0825815,2.361,2.55429
-0.96354,-0.0825815,2.361,2.55138
-0.955876,-0.0825815,2.361,2.5485
-0.948213,-0.0825815,2.361,2.54563
-0.94055,-0.0825815,2.361,2.54279
-0.932887,-0.0825815,2.361,2.53996
-0.925224,-0.0825815,2.361,2.53716
-0.91756,-0.0825815,2.361,2.53438
-0.909897,-0.0825815,2.361,2.53161
-0.902234,-0.0825815,2.361,2.52887
-0.894571,-0.0825815,2.361,2.52614
-0.886907,-0.0825815,2.361,2.52344
-0.879244,-0.0825815,2.361,2.52076
-0.871581,-0.0825815,2.361,2.51809
-0.863918,-0.0825815,2.361,2.51545
-0.856255,-0.0825815,2.361,2.51283
-0.848591,-0.0825815,2.361,2.51023
-0.840928,-0.0825815,2.361,2.50765
-0.833265,-0.0825815,2.361,2.50509
-0.825602,-0.0825815,2.361,2.50255
-0.817938,-0.0825815,2.361,2.50003
-0.810275,-0.0825815,2.361,2.49754
-0.802612,-0.0825815,2.361,2.49506
-0.794949,-0.0825815,2.361,2.49261
-0.787286,-0.0825815,2.361,2.49017
-0.779622,-0.0825815,2.361,2.48776
-0.777191,-0.0831412,2.377,2.50221
-0.769475,-0.0831412,2.377,2.49983
-0.76176,-0.0831412,2.377,2.49746
-0.754045,-0.0831412,2.377,2.49512
-0.74633,-0.0831412,2.377,2.4928
-0.738615,-0.0831412,2.377,2.4905
-0.736127,-0.0837358,2.394,2.50602
-0.728357,-0.0837358,2.394,2.50375
-0.720586,-0.0837358,2.394,2.5015
-0.712816,-0.0837358,2.394,2.49927
-0.705046,-0.0837358,2.394,2.49707
-0.697275,-0.0837358,2.394,2.49488
-0.689505,-0.0837358,2.394,2.49272
-0.686576,-0.0843304,2.411,2.50827
-0.67875,-0.0843304,2.411,2.50614
-0.670925,-0.0843304,2.411,2.50403
-0.663099,-0.0843304,2.411,2.50195
-0.655274,-0.0843304,2.411,2.49988
-0.647448,-0.0843304,2.411,2.49784
-0.644133,-0.084925,2.428,2.51342
-0.636252,-0.084925,2.428,2.51142
-0.628371,-0.084925,2.428,2.50943
-0.620491,-0.084925,2.428,2.50747
-0.61261,-0.084925,2.428,2.50553
-0.604729,-0.084925,2.428,2.50362
-0.596848,-0.084925,2.428,2.50172
-0.588968,-0.084925,2.428,2.49986
-0.581087,-0.084925,2.428,2.49801
-0.573206,-0.084925,2.428,2.49619
-0.569284,-0.0855196,2.445,2.51186
-0.561348,-0.0855196,2.445,2.51007
-0.553412,-0.0855196,2.445,2.50831
-0.545476,-0.0855196,2.445,2.50657
-0.541498,-0.0861492,2.463,2.52329
-0.533504,-0.0861492,2.463,2.52159
-0.525509,-0.0861492,2.463,2.51991
-0.517515,-0.0861492,2.463,2.51826
-0.509521,-0.0861492,2.463,2.51663
-0.501526,-0.0861492,2.463,2.51502
-0.493532,-0.0861492,2.463,2.51344
-0.489086,-0.0867788,2.481,2.53024
-0.481034,-0.0867788,2.481,2.52869
-0.472981,-0.0867788,2.481,2.52717
-0.468301,-0.0874084,2.499,2.544
-0.456875,-0.0867788,2.481,2.52421
-0.448823,-0.0867788,2.481,2.52276
-0.443968,-0.0874084,2.499,2.53964
-0.435857,-0.0874084,2.499,2.53823
-0.427746,-0.0874084,2.499,2.53685
-0.422657,-0.088038,2.517,2.55376
-0.414487,-0.088038,2.517,2.55242
-0.406318,-0.088038,2.517,2.5511
-0.398148,-0.088038,2.517,2.54982
-0.392923,-0.0887026,2.536,2.56779
-0.384691,-0.0887026,2.536,2.56654
-0.37646,-0.0887026,2.536,2.56532
-0.368229,-0.0887026,2.536,2.56413
-0.359998,-0.0887026,2.536,2.56296
-0.351766,-0.0887026,2.536,2.56182
-0.346109,-0.0893671,2.555,2.57988
-0.337816,-0.0893671,2.555,2.57878
-0.329523,-0.0893671,2.555,2.57771
-0.318842,-0.0887026,2.536,2.5575
-0.31061,-0.0887026,2.536,2.55649
-0.302379,-0.0887026,2.536,2.5555
-0.294148,-0.0887026,2.536,2.55454
-0.285917,-0.0887026,2.536,2.55361
-0.277685,-0.0887026,2.536,2.5527
-0.269454,-0.0887026,2.536,2.55182
-0.261223,-0.0887026,2.536,2.55096
-0.252992,-0.0887026,2.536,2.55013
-0.244761,-0.0887026,2.536,2.54933
-0.234757,-0.088038,2.517,2.52946
-0.226588,-0.088038,2.517,2.52871
-0.218418,-0.088038,2.517,2.52799
-0.210249,-0.088038,2.517,2.5273
-0.202079,-0.088038,2.517,2.52663
-0.193909,-0.088038,2.517,2.52599
-0.18574,-0.088038,2.517,2.52538
-0.17757,-0.088038,2.517,2.52479
-0.169401,-0.088038,2.517,2.52423
-0.161231,-0.088038,2.517,2.52369
-0.153062,-0.088038,2.517,2.52319
-0.144892,-0.088038,2.517,2.5227
-0.136723,-0.088038,2.517,2.52225
-0.129523,-0.0887026,2.536,2.54085
-0.121292,-0.0887026,2.536,2.54045
-0.113061,-0.0887026,2.536,2.54007
-0.10483,-0.0887026,2.536,2.53972
-0.0965985,-0.0887026,2.536,2.53939
-0.0883672,-0.0887026,2.536,2.53909
-0.080136,-0.0887026,2.536,2.53882
-0.0724435,-0.0893671,2.555,2.55759
-0.0641506,-0.0893671,2.555,2.55737
-0.0558577,-0.0893671,2.555,2.55717
-0.0482722,-0.0906963,2.593,2.59503
-0.039856,-0.0906963,2.593,2.59489
-0.0314398,-0.0906963,2.593,2.59478
-0.0232011,-0.0913958,2.613,2.6147
-0.01472,-0.0913958,2.613,2.61464
-0.00623883,-0.0913958,2.613,2.61461
0.00224232,-0.0913958,2.613,2.6146
0.0107235,-0.0913958,2.613,2.61462
0.0192046,-0.0913958,2.613,2.61467
0.0274739,-0.0906963,2.593,2.59473
0.0358901,-0.0906963,2.593,2.59483
0.0443063,-0.0906963,2.593,2.59496
0.0523362,-0.0900317,2.574,2.57611
0.0606908,-0.0900317,2.574,2.57629
0.0690454,-0.0900317,2.574,2.5765
0.0768286,-0.0893671,2.555,2.55772
0.0851215,-0.0893671,2.555,2.55798
0.0934144,-0.0893671,2.555,2.55827
0.101707,-0.0893671,2.555,2.55858
0.11,-0.0893671,2.555,2.55893
0.118293,-0.0893671,2.555,2.5593
0.126586,-0.0893671,2.555,2.55969
0.134879,-0.0893671,2.555,2.56012
0.143172,-0.0893671,2.555,2.56057
0.151465,-0.0893671,2.555,2.56105
0.159758,-0.0893671,2.555,2.56155
0.16805,-0.0893671,2.555,2.56208
0.176343,-0.0893671,2.555,2.56264
0.184636,-0.0893671,2.555,2.56322
0.192929,-0.0893671,2.555,2.56383
0.201222,-0.0893671,2.555,2.56447
0.209515,-0.0893671,2.555,2.56513
0.219428,-0.0900317,2.574,2.5849
0.227782,-0.0900317,2.574,2.58563
0.236137,-0.0900317,2.574,2.58638
0.244491,-0.0900317,2.574,2.58715
0.250979,-0.0893671,2.555,2.56885
0.259272,-0.0893671,2.555,2.56968
0.267565,-0.0893671,2.555,2.57053
0.275858,-0.0893671,2.555,2.5714
0.284151,-0.0893671,2.555,2.57231
0.292444,-0.0893671,2.555,2.57323
0.2985,-0.0887026,2.536,2.55505
0.306732,-0.0887026,2.536,2.55602
0.314963,-0.0887026,2.536,2.55702
0.320773,-0.088038,2.517,2.53888
0.328942,-0.088038,2.517,2.53993
0.339657,-0.0887026,2.536,2.56018
0.345281,-0.088038,2.517,2.5421
0.353451,-0.088038,2.517,2.54322
0.36435,-0.0887026,2.536,2.56357
0.36979,-0.088038,2.517,2.54554
0.37796,-0.088038,2.517,2.54674
0.386129,-0.088038,2.517,2.54797
0.394299,-0.088038,2.517,2.54922
0.405506,-0.0887026,2.536,2.56975
0.410638,-0.088038,2.517,2.5518
0.418807,-0.088038,2.517,2.55312
0.426977,-0.088038,2.517,2.55448
0.435146,-0.088038,2.517,2.55585
0.443316,-0.088038,2.517,2.55726
0.448257,-0.0874084,2.499,2.54039
0.456368,-0.0874084,2.499,2.54183
0.464479,-0.0874084,2.499,2.5433
0.47259,-0.0874084,2.499,2.5448
0.480701,-0.0874084,2.499,2.54631
0.488812,-0.0874084,2.499,2.54786
0.496924,-0.0874084,2.499,2.54943
0.501397,-0.0867788,2.481,2.53265
0.50945,-0.0867788,2.481,2.53425
0.521257,-0.0874084,2.499,2.55428
0.529368,-0.0874084,2.499,2.55595
0.541351,-0.088038,2.517,2.57606
0.553668,-0.0887026,2.536,2.59725
0.5619,-0.0887026,2.536,2.59902
0.570131,-0.0887026,2.536,2.60081
0.582695,-0.0893671,2.555,2.62213
0.590988,-0.0893671,2.555,2.62398
0.599281,-0.0893671,2.555,2.62586
0.607574,-0.0893671,2.555,2.62777
0.615867,-0.0893671,2.555,2.6297
0.62416,-0.0893671,2.555,2.63165
0.632453,-0.0893671,2.555,2.63363
0.640746,-0.0893671,2.555,2.63563
0.649038,-0.0893671,2.555,2.63766
0.662219,-0.0900317,2.574,2.65935
0.670574,-0.0900317,2.574,2.66144
0.678929,-0.0900317,2.574,2.66356
0.687283,-0.0900317,2.574,2.6657
0.695638,-0.0900317,2.574,2.66786
0.703992,-0.0900317,2.574,2.67005
0.717605,-0.0906963,2.593,2.69199
0.726021,-0.0906963,2.593,2.69425
0.734438,-0.0906963,2.593,2.69653
0.742854,-0.0906963,2.593,2.69883
0.757065,-0.0913958,2.613,2.722
0.765546,-0.0913958,2.613,2.72437
0.768102,-0.0906963,2.593,2.70589
0.776519,-0.0906963,2.593,2.70829
0.790989,-0.0913958,2.613,2.73163
0.793351,-0.0906963,2.593,2.71317
0.801767,-0.0906963,2.593,2.71564
0.816433,-0.0913958,2.613,2.7391
0.824914,-0.0913958,2.613,2.74164
0.827016,-0.0906963,2.593,2.7232
0.835432,-0.0906963,2.593,2.72577
0.843849,-0.0906963,2.593,2.72836
0.852265,-0.0906963,2.593,2.73098
0.854374,-0.0900317,2.574,2.71358
0.862729,-0.0900317,2.574,2.71623
0.871084,-0.0900317,2.574,2.71889
0.872947,-0.0893671,2.555,2.70149
0.881239,-0.0893671,2.555,2.70418
0.882918,-0.0887026,2.536,2.68677
0.891149,-0.0887026,2.536,2.68948
0.89938,-0.0887026,2.536,2.69222
0.900811,-0.088038,2.517,2.67479
0.90248,-0.0874084,2.499,2.6584
0.910591,-0.0874084,2.499,2.66117
0.912085,-0.0867788,2.481,2.64477
0.913462,-0.0861492,2.463,2.62835
0.914722,-0.0855196,2.445,2.61191
0.922658,-0.0855196,2.445,2.6147
0.930594,-0.0855196,2.445,2.61751
0.932004,-0.084925,2.428,2.60212
0.939885,-0.084925,2.428,2.60495
0.947766,-0.084925,2.428,2.60781
0.948955,-0.0843304,2.411,2.5924
0.956781,-0.0843304,2.411,2.59528
0.964606,-0.0843304,2.411,2.59817
0.972432,-0.0843304,2.411,2.60109
0.987169,-0.084925,2.428,2.62238
0.99505,-0.084925,2.428,2.62536
1.00995,-0.0855196,2.445,2.64676
1.03288,-0.0867788,2.481,2.68881
1.05603,-0.088038,2.517,2.73098
1.0642,-0.088038,2.517,2.73415
1.09666,-0.0900317,2.574,2.79933
1.13034,-0.0920954,2.633,2.86685
1.13889,-0.0920954,2.633,2.87023
1.18404,-0.0950335,2.717,2.96531
1.21217,-0.0965725,2.761,3.01692
1.25121,-0.0989509,2.829,3.09493
1.26039,-0.0989509,2.829,3.09865
1.28035,-0.0997904,2.853,3.12871
1.3113,-0.101469,2.901,3.18522
1.32072,-0.101469,2.901,3.18911
1.3416,-0.102344,2.926,3.22053
1.36264,-0.103218,2.951,3.25205
1.37222,-0.103218,2.951,3.25608
1.3818,-0.103218,2.951,3.26012
1.39137,-0.103218,2.951,3.2642
1.40095,-0.103218,2.951,3.26829
1.41053,-0.103218,2.951,3.27241
1.42011,-0.103218,2.951,3.27655
1.44228,-0.104128,2.977,3.30962
1.45195,-0.104128,2.977,3.31384
1.47437,-0.105037,3.003,3.34706
1.48412,-0.105037,3.003,3.35137
1.49387,-0.105037,3.003,3.35569
1.50361,-0.105037,3.003,3.36004
1.51336,-0.105037,3.003,3.36442
1.52311,-0.105037,3.003,3.36881
1.53285,-0.105037,3.003,3.37323
1.57034,-0.106926,3.057,3.43841
1.59422,-0.10787,3.084,3.47336
1.60423,-0.10787,3.084,3.47797
1.6289,-0.10885,3.112,3.51421
1.65427,-0.109864,3.141,3.5517
1.66447,-0.109864,3.141,3.55646
1.69012,-0.110878,3.17,3.59412
1.70041,-0.110878,3.17,3.59897
1.7107,-0.110878,3.17,3.60384
1.75356,-0.112977,3.23,3.67704
1.76405,-0.112977,3.23,3.68205
1.77453,-0.112977,3.23,3.68709
1.76788,-0.111893,3.199,3.65671
1.77827,-0.111893,3.199,3.66174
1.78865,-0.111893,3.199,3.6668
1.79903,-0.111893,3.199,3.67187
1.80941,-0.111893,3.199,3.67697
1.8198,-0.111893,3.199,3.68209
1.81359,-0.110878,3.17,3.65381
1.82388,-0.110878,3.17,3.65892
1.83417,-0.110878,3.17,3.66406
1.82758,-0.109864,3.141,3.63566
1.83778,-0.109864,3.141,3.64079
1.84797,-0.109864,3.141,3.64595
1.87532,-0.110878,3.17,3.68484
1.88561,-0.110878,3.17,3.69009
1.87856,-0.109864,3.141,3.66155
1.88875,-0.109864,3.141,3.66679
1.88142,-0.10885,3.112,3.63815
1.89152,-0.10885,3.112,3.64338
1.90162,-0.10885,3.112,3.64864
1.89452,-0.10787,3.084,3.62103
1.88785,-0.106926,3.057,3.59453
1.89778,-0.106926,3.057,3.59976
1.89085,-0.105981,3.03,3.57316
1.88375,-0.105037,3.003,3.54648
1.89349,-0.105037,3.003,3.55167
1.87028,-0.103218,2.951,3.49529
1.84801,-0.101469,2.901,3.44111
1.82669,-0.0997904,2.853,3.38916
1.83595,-0.0997904,2.853,3.39416
1.81482,-0.0981465,2.806,3.34318
1.79467,-0.0965725,2.761,3.29443
1.80364,-0.0965725,2.761,3.29933
1.76992,-0.0942989,2.696,3.22644
1.75097,-0.0928299,2.654,3.18091
1.75958,-0.0928299,2.654,3.18566
1.74088,-0.0913958,2.613,3.14114
1.72325,-0.0900317,2.574,3.0989
1.7316,-0.0900317,2.574,3.10355
1.72711,-0.0893671,2.555,3.08528
1.7096,-0.088038,2.517,3.04397
-2.04721,-0.0936427,2.951,3.5928
-2.0031,-0.092056,2.901,3.52657
-1.99369,-0.092056,2.901,3.52123
-1.96786,-0.0912945,2.877,3.48682
-1.94218,-0.0905329,2.853,3.45252
-1.93292,-0.0905329,2.853,3.44732
-1.90748,-0.0897713,2.829,3.41318
-1.88286,-0.0890414,2.806,3.38034
-1.87375,-0.0890414,2.806,3.37528
-1.86465,-0.0890414,2.806,3.37023
-1.85554,-0.0890414,2.806,3.3652
-1.84643,-0.0890414,2.806,3.36019
-1.83732,-0.0890414,2.806,3.35519
-1.82822,-0.0890414,2.806,3.35021
-1.81911,-0.0890414,2.806,3.34525
-1.82484,-0.0897713,2.829,3.36769
-1.81565,-0.0897713,2.829,3.36272
-1.8218,-0.0905329,2.853,3.38626
-1.82778,-0.0912945,2.877,3.40973
-1.81845,-0.0912945,2.877,3.40473
-1.8242,-0.092056,2.901,3.42812
-1.83042,-0.0928493,2.926,3.45261
-1.82093,-0.0928493,2.926,3.44759
-1.81143,-0.0928493,2.926,3.44258
-1.81733,-0.0936427,2.951,3.46697
-1.82368,-0.0944677,2.977,3.49246
-1.81401,-0.0944677,2.977,3.48742
-1.80435,-0.0944677,2.977,3.4824
