-1.02241,0.167186,2.428,2.63978
-1.01452,0.167186,2.428,2.63674
-1.00664,0.167186,2.428,2.63372
-0.998763,0.167186,2.428,2.63072
-0.990883,0.167186,2.428,2.62773
-0.983002,0.167186,2.428,2.62477
-0.975121,0.167186,2.428,2.62183
-0.967241,0.167186,2.428,2.61891
-0.95936,0.167186,2.428,2.61601
-0.951479,0.167186,2.428,2.61313
-0.943599,0.167186,2.428,2.61027
-0.935718,0.167186,2.428,2.60743
-0.921341,0.166015,2.411,2.58638
-0.913515,0.166015,2.411,2.5836
-0.90569,0.166015,2.411,2.58084
-0.897864,0.166015,2.411,2.57811
-0.890039,0.166015,2.411,2.57539
-0.882213,0.166015,2.411,2.5727
-0.874388,0.166015,2.411,2.57003
-0.872672,0.167186,2.428,2.58548
-0.864792,0.167186,2.428,2.58283
-0.856911,0.167186,2.428,2.5802
-0.84903,0.167186,2.428,2.57759
-0.84115,0.167186,2.428,2.57501
-0.833269,0.167186,2.428,2.57245
-0.825388,0.167186,2.428,2.5699
-0.817508,0.167186,2.428,2.56738
-0.809627,0.167186,2.428,2.56488
-0.801746,0.167186,2.428,2.56241
-0.799424,0.168356,2.445,2.57788
-0.791488,0.168356,2.445,2.57543
-0.783552,0.168356,2.445,2.573
-0.775616,0.168356,2.445,2.57059
-0.767681,0.168356,2.445,2.56821
-0.759745,0.168356,2.445,2.56585
-0.751809,0.168356,2.445,2.56351
-0.749349,0.169596,2.463,2.58005
-0.741355,0.169596,2.463,2.57774
-0.733361,0.169596,2.463,2.57545
-0.725366,0.169596,2.463,2.57319
-0.722615,0.170835,2.481,2.58973
-0.714562,0.170835,2.481,2.5875
-0.706509,0.170835,2.481,2.58529
-0.703524,0.172075,2.499,2.60184
-0.695413,0.172075,2.499,2.59966
-0.687302,0.172075,2.499,2.5975
-0.679191,0.172075,2.499,2.59536
-0.67108,0.172075,2.499,2.59325
-0.658193,0.170835,2.481,2.5725
-0.65014,0.170835,2.481,2.57045
-0.642088,0.170835,2.481,2.56843
-0.634035,0.170835,2.481,2.56643
-0.625982,0.170835,2.481,2.56445
-0.61793,0.170835,2.481,2.5625
-0.609877,0.170835,2.481,2.56057
-0.606191,0.172075,2.499,2.57722
-0.598079,0.172075,2.499,2.57533
-0.585719,0.170835,2.481,2.55492
-0.577666,0.170835,2.481,2.55309
-0.569613,0.170835,2.481,2.55128
-0.561561,0.170835,2.481,2.54949
-0.549492,0.169596,2.463,2.52924
-0.541498,0.169596,2.463,2.52752
-0.537403,0.170835,2.481,2.54428
-0.52935,0.170835,2.481,2.54259
-0.521297,0.170835,2.481,2.54092
-0.513244,0.170835,2.481,2.53928
-0.505192,0.170835,2.481,2.53767
-0.493532,0.169596,2.463,2.51768
-0.485538,0.169596,2.463,2.51612
-0.477544,0.169596,2.463,2.51459
-0.469549,0.169596,2.463,2.51309
-0.461555,0.169596,2.463,2.51161
-0.456875,0.170835,2.481,2.52849
-0.448823,0.170835,2.481,2.52705
-0.44077,0.170835,2.481,2.52563
-0.432717,0.170835,2.481,2.52424
-0.424665,0.170835,2.481,2.52287
-0.416612,0.170835,2.481,2.52153
-0.411523,0.172075,2.499,2.5385
-0.403412,0.172075,2.499,2.53719
-0.395301,0.172075,2.499,2.53592
-0.38719,0.172075,2.499,2.53467
-0.381809,0.173314,2.517,2.55169
-0.37364,0.173314,2.517,2.55048
-0.36547,0.173314,2.517,2.54929
-0.357301,0.173314,2.517,2.54813
-0.349131,0.173314,2.517,2.547
-0.343535,0.174622,2.536,2.56511
-0.335304,0.174622,2.536,2.56402
-0.327073,0.174622,2.536,2.56296
-0.32123,0.175931,2.555,2.58112
-0.312937,0.175931,2.555,2.5801
-0.304645,0.175931,2.555,2.57911
-0.296352,0.175931,2.555,2.57814
-0.288059,0.175931,2.555,2.5772
-0.279766,0.175931,2.555,2.57629
-0.271473,0.175931,2.555,2.5754
-0.26318,0.175931,2.555,2.57454
-0.254887,0.175931,2.555,2.5737
-0.246594,0.175931,2.555,2.57289
-0.238301,0.175931,2.555,2.57211
-0.230009,0.175931,2.555,2.57136
-0.221716,0.175931,2.555,2.57063
-0.213423,0.175931,2.555,2.56993
-0.203604,0.174622,2.536,2.55015
-0.195373,0.174622,2.536,2.5495
-0.187142,0.174622,2.536,2.54888
-0.178911,0.174622,2.536,2.54829
-0.170679,0.174622,2.536,2.54773
-0.162448,0.174622,2.536,2.54719
-0.153062,0.173314,2.517,2.5276
-0.144892,0.173314,2.517,2.52712
-0.136723,0.173314,2.517,2.52666
-0.128553,0.173314,2.517,2.52623
-0.120383,0.173314,2.517,2.52583
-0.112214,0.173314,2.517,2.52545
-0.104044,0.173314,2.517,2.5251
-0.0958747,0.173314,2.517,2.52478
-0.0883672,0.174622,2.536,2.54354
-0.080136,0.174622,2.536,2.54327
-0.0719048,0.174622,2.536,2.54302
-0.0636736,0.174622,2.536,2.5428
-0.0554423,0.174622,2.536,2.54261
-0.0472111,0.174622,2.536,2.54244
-0.0389799,0.174622,2.536,2.5423
-0.0307487,0.174622,2.536,2.54219
-0.0223487,0.173314,2.517,2.52306
-0.0141792,0.173314,2.517,2.523
-0.00605498,0.174622,2.536,2.54201
0.00217625,0.174622,2.536,2.54201
0.0104075,0.174622,2.536,2.54203
0.0186387,0.174622,2.536,2.54207
0.0268699,0.174622,2.536,2.54215
0.0351011,0.174622,2.536,2.54225
0.0433324,0.174622,2.536,2.54237
0.0515636,0.174622,2.536,2.54253
0.0597948,0.174622,2.536,2.54271
0.0680261,0.174622,2.536,2.54291
0.0762573,0.174622,2.536,2.54315
0.0844885,0.174622,2.536,2.54341
0.0920251,0.173314,2.517,2.52464
0.100195,0.173314,2.517,2.52495
0.108364,0.173314,2.517,2.52529
0.116534,0.173314,2.517,2.52565
nan,nan,nan,NaN
nan,nan,nan,NaN
0.140034,0.172075,2.499,2.50883
0.148145,0.172075,2.499,2.50929
0.155131,0.170835,2.481,2.49171
0.163183,0.170835,2.481,2.49222
0.171236,0.170835,2.481,2.49276
nan,nan,nan,NaN
nan,nan,nan,NaN
nan,nan,nan,NaN
nan,nan,nan,NaN
nan,nan,nan,NaN
nan,nan,nan,NaN
nan,nan,nan,NaN
nan,nan,nan,NaN
nan,nan,nan,NaN
nan,nan,nan,NaN
nan,nan,nan,NaN
nan,nan,nan,NaN
nan,nan,nan,NaN
nan,nan,nan,NaN
nan,nan,nan,NaN
nan,nan,nan,NaN
nan,nan,nan,NaN
nan,nan,nan,NaN
nan,nan,nan,NaN
nan,nan,nan,NaN
nan,nan,nan,NaN
nan,nan,nan,NaN
nan,nan,nan,NaN
nan,nan,nan,NaN
nan,nan,nan,NaN
nan,nan,nan,NaN
nan,nan,nan,NaN
nan,nan,nan,NaN
nan,nan,nan,NaN
nan,nan,nan,NaN
nan,nan,nan,NaN
0.41976,0.167186,2.428,2.46968
0.427641,0.167186,2.428,2.47103
0.432472,0.166015,2.411,2.4551
0.437193,0.164845,2.394,2.43917
0.444963,0.164845,2.394,2.44057
0.452734,0.164845,2.394,2.442
0.457234,0.163674,2.377,2.4261
0.464949,0.163674,2.377,2.42757
0.472664,0.163674,2.377,2.42906
0.480379,0.163674,2.377,2.43057
0.484809,0.162572,2.361,2.41574
0.492472,0.162572,2.361,2.41729
0.500135,0.162572,2.361,2.41886
0.507799,0.162572,2.361,2.42046
0.515462,0.162572,2.361,2.42208
0.523125,0.162572,2.361,2.42372
0.527191,0.161471,2.345,2.40895
0.534802,0.161471,2.345,2.41062
0.542414,0.161471,2.345,2.41232
0.550025,0.161471,2.345,2.41405
0.553832,0.160369,2.329,2.39931
0.561391,0.160369,2.329,2.40107
0.56895,0.160369,2.329,2.40284
0.57651,0.160369,2.329,2.40465
nan,nan,nan,NaN
nan,nan,nan,NaN
0.575519,0.154034,2.237,2.31498
0.582779,0.154034,2.237,2.31679
0.586347,0.15307,2.223,2.30412
0.593563,0.15307,2.223,2.30597
0.600778,0.15307,2.223,2.30783
0.604164,0.152106,2.209,2.29518
0.611334,0.152106,2.209,2.29707
0.618504,0.152106,2.209,2.29899
0.625674,0.152106,2.209,2.30093
0.636855,0.15307,2.223,2.31749
0.64407,0.15307,2.223,2.31948
0.659782,0.155067,2.252,2.35178
0.667091,0.155067,2.252,2.35384
0.678892,0.1561,2.267,2.37161
0.695635,0.158234,2.298,2.40619
0.703093,0.158234,2.298,2.40836
0.71519,0.159267,2.313,2.42628
0.727697,0.160369,2.329,2.4453
0.735256,0.160369,2.329,2.44756
0.747919,0.161471,2.345,2.46667
0.760685,0.162572,2.361,2.48584
0.773555,0.163674,2.377,2.50506
0.78127,0.163674,2.377,2.50745
0.800271,0.166015,2.411,2.54576
0.808096,0.166015,2.411,2.54823
0.815922,0.166015,2.411,2.55073
0.823747,0.166015,2.411,2.55324
0.831573,0.166015,2.411,2.55578
0.839398,0.166015,2.411,2.55833
0.847224,0.166015,2.411,2.56091
0.855049,0.166015,2.411,2.56351
0.862875,0.166015,2.411,2.56613
0.8707,0.166015,2.411,2.56877
0.878526,0.166015,2.411,2.57144
0.886351,0.166015,2.411,2.57412
0.894177,0.166015,2.411,2.57683
0.895642,0.164845,2.394,2.56136
0.903413,0.164845,2.394,2.56409
0.911183,0.164845,2.394,2.56684
0.918953,0.164845,2.394,2.56961
0.926724,0.164845,2.394,2.5724
0.934494,0.164845,2.394,2.57521
0.942264,0.164845,2.394,2.57804
0.956781,0.166015,2.411,2.59921
0.964606,0.166015,2.411,2.6021
0.972432,0.166015,2.411,2.60502
0.987169,0.167186,2.428,2.62634
0.99505,0.167186,2.428,2.62931
1.00293,0.167186,2.428,2.6323
1.01081,0.167186,2.428,2.63531
1.01869,0.167186,2.428,2.63835
1.02657,0.167186,2.428,2.6414
1.0417,0.168356,2.445,2.66299
1.04963,0.168356,2.445,2.6661
1.05757,0.168356,2.445,2.66924
1.0655,0.168356,2.445,2.67239
1.08134,0.169596,2.463,2.69526
1.08934,0.169596,2.463,2.69848
1.09733,0.169596,2.463,2.70172
1.10533,0.169596,2.463,2.70497
1.11332,0.169596,2.463,2.70825
1.12131,0.169596,2.463,2.71154
1.12931,0.169596,2.463,2.71486
1.1373,0.169596,2.463,2.7182
1.1453,0.169596,2.463,2.72155
1.15329,0.169596,2.463,2.72492
1.16129,0.169596,2.463,2.72832
1.16928,0.169596,2.463,2.73173
1.17727,0.169596,2.463,2.73516
1.18527,0.169596,2.463,2.73861
1.19326,0.169596,2.463,2.74208
1.20126,0.169596,2.463,2.74557
1.20925,0.169596,2.463,2.74908
1.22614,0.170835,2.481,2.77272
1.23419,0.170835,2.481,2.77629
1.24225,0.170835,2.481,2.77988
1.25937,0.172075,2.499,2.80368
1.26748,0.172075,2.499,2.80733
1.27559,0.172075,2.499,2.811
1.29295,0.173314,2.517,2.83497
1.32076,0.175931,2.555,2.88156
1.32906,0.175931,2.555,2.88537
1.35724,0.178547,2.593,2.93217
1.38672,0.181302,2.633,2.98137
1.39527,0.181302,2.633,2.98535
1.4374,0.18564,2.696,3.06088
1.46922,0.1886,2.739,3.11389
1.47811,0.1886,2.739,3.11809
1.52337,0.193214,2.806,3.19869
1.55815,0.19645,2.853,3.25669
1.60752,0.201477,2.926,3.34457
1.61701,0.201477,2.926,3.34915
1.64041,0.203198,2.951,3.3824
1.66452,0.204989,2.977,3.4169
1.67419,0.204989,2.977,3.42161
1.68385,0.204989,2.977,3.42635
1.69351,0.204989,2.977,3.43111
1.6883,0.203198,2.951,3.40588
1.68349,0.201477,2.926,3.38175
1.67852,0.199755,2.901,3.35755
1.68794,0.199755,2.901,3.36227
1.66927,0.19645,2.853,3.31129
1.66441,0.194798,2.829,3.28808
1.67359,0.194798,2.829,3.29274
1.66909,0.193214,2.806,3.2706
1.66445,0.19163,2.783,3.24841
1.67348,0.19163,2.783,3.25305
1.66921,0.190115,2.761,3.23196
1.6648,0.1886,2.739,3.2108
1.67369,0.1886,2.739,3.21542
1.65617,0.18564,2.696,3.16951
1.65195,0.184194,2.675,3.14936
1.66063,0.184194,2.675,3.15393
1.65621,0.182748,2.654,3.13371
1.65165,0.181302,2.633,3.11344
1.6602,0.181302,2.633,3.11798
1.65607,0.179924,2.613,3.09882
1.65181,0.178547,2.593,3.07961
1.64806,0.177239,2.574,3.06153
1.65641,0.177239,2.574,3.06604
1.66477,0.177239,2.574,3.07056
1.66077,0.175931,2.555,3.0524
1.66906,0.175931,2.555,3.05692
1.66488,0.174622,2.536,3.03869
1.66058,0.173314,2.517,3.02041
1.66875,0.173314,2.517,3.02491
1.67692,0.173314,2.517,3.02942
1.67304,0.172075,2.499,3.01225
1.68115,0.172075,2.499,3.01677
1.67709,0.170835,2.481,2.99953
1.67292,0.169596,2.463,2.98225
-1.78567,0.185591,2.574,3.13824
-1.77731,0.185591,2.574,3.13349
-1.76896,0.185591,2.574,3.12876
-1.7606,0.185591,2.574,3.12404
-1.75225,0.185591,2.574,3.11934
-1.7439,0.185591,2.574,3.11466
-1.73554,0.185591,2.574,3.10999
-1.72719,0.185591,2.574,3.10533
-1.71883,0.185591,2.574,3.10069
-1.71048,0.185591,2.574,3.09607
-1.70212,0.185591,2.574,3.09146
-1.70627,0.186961,2.593,3.10966
-1.69785,0.186961,2.593,3.10505
-1.68944,0.186961,2.593,3.10045
-1.69399,0.188403,2.613,3.11975
-1.68551,0.188403,2.613,3.11516
-1.67703,0.188403,2.613,3.11058
-1.66854,0.188403,2.613,3.10601
-1.66006,0.188403,2.613,3.10146
-1.66422,0.189845,2.633,3.12064
-1.65568,0.189845,2.633,3.11609
-1.64713,0.189845,2.633,3.11155
-1.65165,0.191359,2.654,3.13182
-1.64304,0.191359,2.654,3.12729
-1.62149,0.189845,2.633,3.09806
-1.61295,0.189845,2.633,3.09359
-1.59221,0.188403,2.613,3.06568
-1.57161,0.186961,2.593,3.03786
-1.56319,0.186961,2.593,3.03351
-1.55478,0.186961,2.593,3.02918
-1.5237,0.184221,2.555,2.98054
-1.49287,0.181481,2.517,2.93204
-1.4847,0.181481,2.517,2.92789
-1.46597,0.180184,2.499,2.90285
-1.44736,0.178886,2.481,2.87788
-1.43931,0.178886,2.481,2.87384
-1.42087,0.177588,2.463,2.849
-1.41288,0.177588,2.463,2.84502
-1.40488,0.177588,2.463,2.84106
-1.38668,0.17629,2.445,2.81638
-1.37874,0.17629,2.445,2.81248
-1.37081,0.17629,2.445,2.8086
-1.3729,0.177588,2.463,2.82538
-1.36491,0.177588,2.463,2.8215
-1.36683,0.178886,2.481,2.83824
-1.36864,0.180184,2.499,2.85493
-1.36053,0.180184,2.499,2.85105
-1.38272,0.184221,2.555,2.91099
-1.38465,0.185591,2.574,2.92868
-1.37629,0.185591,2.574,2.92474
-1.38867,0.188403,2.613,2.96507
-1.39075,0.189845,2.633,2.98378
-1.39323,0.191359,2.654,3.00357
-1.38461,0.191359,2.654,2.99958
-1.38689,0.192874,2.675,3.01932
-1.3782,0.192874,2.675,3.01534
-1.36952,0.192874,2.675,3.01138
-1.36084,0.192874,2.675,3.00744
-1.35216,0.192874,2.675,3.00352
-1.33293,0.191359,2.654,2.97608
-1.32431,0.191359,2.654,2.97223
-1.3157,0.191359,2.654,2.9684
-1.30708,0.191359,2.654,2.96459
-1.2882,0.189845,2.633,2.93738
-1.26993,0.188403,2.613,2.91136
-1.26145,0.188403,2.613,2.90767
-1.24338,0.186961,2.593,2.88177
-1.22591,0.185591,2.574,2.85706
-1.21756,0.185591,2.574,2.85348
-1.20028,0.184221,2.555,2.82889
-1.18312,0.182851,2.536,2.80437
-1.17489,0.182851,2.536,2.80091
-1.15792,0.181481,2.517,2.77651
-1.14153,0.180184,2.499,2.75328
-1.12525,0.178886,2.481,2.73012
-1.1172,0.178886,2.481,2.72681
-1.1011,0.177588,2.463,2.70376
-1.08512,0.17629,2.445,2.68078
-1.07718,0.17629,2.445,2.67758
-1.06924,0.17629,2.445,2.67439
-1.05393,0.175064,2.428,2.65266
-1.04605,0.175064,2.428,2.64954
-1.03817,0.175064,2.428,2.64644
-1.03029,0.175064,2.428,2.64335
-1.02241,0.175064,2.428,2.64029
-1.01452,0.175064,2.428,2.63725
-1.00664,0.175064,2.428,2.63423
-0.998763,0.175064,2.428,2.63123
-0.990883,0.175064,2.428,2.62825
-0.983002,0.175064,2.428,2.62529
-0.975121,0.175064,2.428,2.62235
-0.967241,0.175064,2.428,2.61943
-0.95936,0.175064,2.428,2.61653
-0.951479,0.175064,2.428,2.61365
-0.943599,0.175064,2.428,2.61079
-0.935718,0.175064,2.428,2.60795
-0.927837,0.175064,2.428,2.60513
-0.919957,0.175064,2.428,2.60234
-0.912076,0.175064,2.428,2.59956
-0.904195,0.175064,2.428,2.59681
-0.896315,0.175064,2.428,2.59407
-0.888434,0.175064,2.428,2.59136
-0.880553,0.175064,2.428,2.58867
-0.872672,0.175064,2.428,2.586
-0.864792,0.175064,2.428,2.58335
-0.856911,0.175064,2.428,2.58072
-0.84903,0.175064,2.428,2.57812
-0.84115,0.175064,2.428,2.57553
-0.833269,0.175064,2.428,2.57297
-0.825388,0.175064,2.428,2.57043
-0.817508,0.175064,2.428,2.56791
-0.809627,0.175064,2.428,2.56541
-0.801746,0.175064,2.428,2.56293
-0.799424,0.17629,2.445,2.57841
-0.791488,0.17629,2.445,2.57596
-0.783552,0.17629,2.445,2.57353
-0.775616,0.17629,2.445,2.57113
-0.767681,0.17629,2.445,2.56874
-0.759745,0.17629,2.445,2.56638
-0.751809,0.17629,2.445,2.56404
-0.749349,0.177588,2.463,2.58059
-0.741355,0.177588,2.463,2.57828
-0.733361,0.177588,2.463,2.57599
-0.725366,0.177588,2.463,2.57373
-0.722615,0.178886,2.481,2.59028
-0.714562,0.178886,2.481,2.58804
-0.706509,0.178886,2.481,2.58583
-0.703524,0.180184,2.499,2.60239
-0.695413,0.180184,2.499,2.60021
-0.687302,0.180184,2.499,2.59805
-0.679191,0.180184,2.499,2.59591
-0.67108,0.180184,2.499,2.5938
-0.658193,0.178886,2.481,2.57305
-0.65014,0.178886,2.481,2.571
-0.642088,0.178886,2.481,2.56898
-0.634035,0.178886,2.481,2.56698
-0.625982,0.178886,2.481,2.565
-0.61793,0.178886,2.481,2.56304
-0.609877,0.178886,2.481,2.56112
-0.606191,0.180184,2.499,2.57778
-0.598079,0.180184,2.499,2.57588
-0.585719,0.178886,2.481,2.55547
-0.577666,0.178886,2.481,2.55364
-0.569613,0.178886,2.481,2.55183
-0.561561,0.178886,2.481,2.55004
-0.549492,0.177588,2.463,2.52979
-0.541498,0.177588,2.463,2.52807
-0.537403,0.178886,2.481,2.54483
-0.525509,0.177588,2.463,2.52469
-0.517515,0.177588,2.463,2.52304
-0.509521,0.177588,2.463,2.52141
-0.501526,0.177588,2.463,2.51981
-0.493532,0.177588,2.463,2.51823
-0.485538,0.177588,2.463,2.51667
-0.477544,0.177588,2.463,2.51515
-0.469549,0.177588,2.463,2.51364
-0.461555,0.177588,2.463,2.51216
-0.456875,0.178886,2.481,2.52905
-0.448823,0.178886,2.481,2.52761
-0.44077,0.178886,2.481,2.52619
-0.432717,0.178886,2.481,2.5248
-0.424665,0.178886,2.481,2.52343
-0.416612,0.178886,2.481,2.52209
-0.408559,0.178886,2.481,2.52077
-0.403412,0.180184,2.499,2.53776
-0.395301,0.180184,2.499,2.53648
-0.38719,0.180184,2.499,2.53523
-0.379079,0.180184,2.499,2.534
-0.370968,0.180184,2.499,2.5328
-0.36547,0.181481,2.517,2.54986
-0.357301,0.181481,2.517,2.5487
-0.349131,0.181481,2.517,2.54757
-0.343535,0.182851,2.536,2.56569
-0.335304,0.182851,2.536,2.5646
-0.327073,0.182851,2.536,2.56353
-0.32123,0.184221,2.555,2.5817
-0.312937,0.184221,2.555,2.58068
-0.304645,0.184221,2.555,2.57968
-0.296352,0.184221,2.555,2.57872
-0.288059,0.184221,2.555,2.57778
-0.279766,0.184221,2.555,2.57686
-0.271473,0.184221,2.555,2.57598
-0.26318,0.184221,2.555,2.57512
-0.254887,0.184221,2.555,2.57428
-0.246594,0.184221,2.555,2.57347
-0.238301,0.184221,2.555,2.57269
-0.230009,0.184221,2.555,2.57194
-0.221716,0.184221,2.555,2.57121
-0.211836,0.182851,2.536,2.55139
-0.203604,0.182851,2.536,2.55072
-0.195373,0.182851,2.536,2.55008
-0.187142,0.182851,2.536,2.54946
-0.17757,0.181481,2.517,2.52977
-0.169401,0.181481,2.517,2.52921
-0.161231,0.181481,2.517,2.52868
-0.153062,0.181481,2.517,2.52817
-0.144892,0.181481,2.517,2.52769
-0.136723,0.181481,2.517,2.52724
-0.128553,0.181481,2.517,2.52681
-0.120383,0.181481,2.517,2.5264
-0.112214,0.181481,2.517,2.52603
-0.104044,0.181481,2.517,2.52568
-0.0958747,0.181481,2.517,2.52535
-0.0883672,0.182851,2.536,2.54412
-0.080136,0.182851,2.536,2.54385
-0.0719048,0.182851,2.536,2.5436
-0.0636736,0.182851,2.536,2.54338
-0.0554423,0.182851,2.536,2.54319
-0.0472111,0.182851,2.536,2.54302
-0.0389799,0.182851,2.536,2.54288
-0.0307487,0.182851,2.536,2.54277
-0.0225174,0.182851,2.536,2.54268
-0.0142862,0.182851,2.536,2.54262
-0.00605498,0.182851,2.536,2.54259
0.00217625,0.182851,2.536,2.54258
0.0104075,0.182851,2.536,2.5426
0.0186387,0.182851,2.536,2.54265
0.0268699,0.182851,2.536,2.54273
0.0351011,0.182851,2.536,2.54283
0.0433324,0.182851,2.536,2.54295
0.0515636,0.182851,2.536,2.54311
0.0597948,0.182851,2.536,2.54329
0.0680261,0.182851,2.536,2.54349
0.0762573,0.182851,2.536,2.54373
0.0844885,0.182851,2.536,2.54399
0.0920251,0.181481,2.517,2.52521
0.100195,0.181481,2.517,2.52552
0.108364,0.181481,2.517,2.52586
0.1157,0.180184,2.499,2.50816
0.123811,0.180184,2.499,2.50854
0.131923,0.180184,2.499,2.50896
0.140034,0.180184,2.499,2.5094
0.148145,0.180184,2.499,2.50986
0.155131,0.178886,2.481,2.49227
0.161999,0.177588,2.463,2.4747
0.169994,0.177588,2.463,2.47524
nan,nan,nan,NaN
nan,nan,nan,NaN
nan,nan,nan,NaN
nan,nan,nan,NaN
nan,nan,nan,NaN
nan,nan,nan,NaN
nan,nan,nan,NaN
nan,nan,nan,NaN
nan,nan,nan,NaN
nan,nan,nan,NaN
nan,nan,nan,NaN
nan,nan,nan,NaN
nan,nan,nan,NaN
nan,nan,nan,NaN
nan,nan,nan,NaN
nan,nan,nan,NaN
nan,nan,nan,NaN
nan,nan,nan,NaN
nan,nan,nan,NaN
nan,nan,nan,NaN
nan,nan,nan,NaN
nan,nan,nan,NaN
nan,nan,nan,NaN
nan,nan,nan,NaN
nan,nan,nan,NaN
nan,nan,nan,NaN
nan,nan,nan,NaN
nan,nan,nan,NaN
nan,nan,nan,NaN
nan,nan,nan,NaN
nan,nan,nan,NaN
nan,nan,nan,NaN
nan,nan,nan,NaN
0.432472,0.173839,2.411,2.45564
0.440297,0.173839,2.411,2.45703
0.448123,0.173839,2.411,2.45845
0.452734,0.172613,2.394,2.44254
0.460504,0.172613,2.394,2.44399
0.464949,0.171387,2.377,2.4281
0.472664,0.171387,2.377,2.42959
0.480379,0.171387,2.377,2.4311
0.484809,0.170233,2.361,2.41627
0.492472,0.170233,2.361,2.41781
0.500135,0.170233,2.361,2.41939
0.507799,0.170233,2.361,2.42098
0.515462,0.170233,2.361,2.4226
0.523125,0.170233,2.361,2.42424
0.530788,0.170233,2.361,2.42591
0.538451,0.170233,2.361,2.4276
0.546115,0.170233,2.361,2.42931
0.550025,0.16908,2.345,2.41457
0.553832,0.167926,2.329,2.39983
0.561391,0.167926,2.329,2.40158
0.56895,0.167926,2.329,2.40336
0.57651,0.167926,2.329,2.40516
nan,nan,nan,NaN
nan,nan,nan,NaN
0.575519,0.161293,2.237,2.31547
0.582779,0.161293,2.237,2.31729
0.586347,0.160283,2.223,2.30461
0.593563,0.160283,2.223,2.30646
0.600778,0.160283,2.223,2.30832
0.604164,0.159274,2.209,2.29566
0.611334,0.159274,2.209,2.29756
0.618504,0.159274,2.209,2.29948
0.625674,0.159274,2.209,2.30142
0.636855,0.160283,2.223,2.31797
0.64407,0.160283,2.223,2.31997
0.659782,0.162374,2.252,2.35227
0.667091,0.162374,2.252,2.35433
0.678892,0.163456,2.267,2.37211
0.695635,0.165691,2.298,2.40669
0.703093,0.165691,2.298,2.40886
0.71519,0.166772,2.313,2.42678
0.727697,0.167926,2.329,2.44581
0.735256,0.167926,2.329,2.44807
0.747919,0.16908,2.345,2.46718
0.760685,0.170233,2.361,2.48635
0.773555,0.171387,2.377,2.50557
0.78127,0.171387,2.377,2.50796
0.794628,0.172613,2.394,2.52833
0.802398,0.172613,2.394,2.53079
0.810169,0.172613,2.394,2.53326
0.817939,0.172613,2.394,2.53576
0.825709,0.172613,2.394,2.53827
0.83348,0.172613,2.394,2.54081
0.84125,0.172613,2.394,2.54337
0.84902,0.172613,2.394,2.54595
0.856791,0.172613,2.394,2.54855
0.864561,0.172613,2.394,2.55118
0.872331,0.172613,2.394,2.55382
0.880102,0.172613,2.394,2.55648
0.887872,0.172613,2.394,2.55917
0.895642,0.172613,2.394,2.56188
0.903413,0.172613,2.394,2.5646
0.911183,0.172613,2.394,2.56735
0.918953,0.172613,2.394,2.57012
0.926724,0.172613,2.394,2.57291
0.934494,0.172613,2.394,2.57572
0.942264,0.172613,2.394,2.57854
0.950035,0.172613,2.394,2.58139
0.964606,0.173839,2.411,2.60262
0.972432,0.173839,2.411,2.60553
0.980257,0.173839,2.411,2.60846
0.988083,0.173839,2.411,2.61141
0.995908,0.173839,2.411,2.61438
1.00373,0.173839,2.411,2.61737
1.01869,0.175064,2.428,2.63886
1.02657,0.175064,2.428,2.64191
1.03445,0.175064,2.428,2.64498
1.04963,0.17629,2.445,2.66661
1.05021,0.175064,2.428,2.65119
1.0581,0.175064,2.428,2.65432
1.07344,0.17629,2.445,2.67607
1.08138,0.17629,2.445,2.67927
1.08931,0.17629,2.445,2.68248
1.09725,0.17629,2.445,2.68571
1.10518,0.17629,2.445,2.68897
1.11312,0.17629,2.445,2.69224
1.12105,0.17629,2.445,2.69553
1.12899,0.17629,2.445,2.69884
1.13693,0.17629,2.445,2.70217
1.14486,0.17629,2.445,2.70552
1.1528,0.17629,2.445,2.70888
1.16073,0.17629,2.445,2.71227
1.16867,0.17629,2.445,2.71568
1.17661,0.17629,2.445,2.7191
1.18454,0.17629,2.445,2.72254
1.19248,0.17629,2.445,2.72601
1.20925,0.177588,2.463,2.74958
1.21725,0.177588,2.463,2.75311
1.22524,0.177588,2.463,2.75665
1.23323,0.177588,2.463,2.76021
1.2503,0.178886,2.481,2.78399
1.25835,0.178886,2.481,2.78762
1.2664,0.178886,2.481,2.79126
1.2837,0.180184,2.499,2.8152
1.30112,0.181481,2.517,2.83921
1.30929,0.181481,2.517,2.84297
1.33735,0.184221,2.555,2.88972
1.36566,0.186961,2.593,2.9366
1.37407,0.186961,2.593,2.94052
1.40381,0.189845,2.633,2.98989
1.44615,0.194388,2.696,3.06554
1.4549,0.194388,2.696,3.06968
1.487,0.197488,2.739,3.12287
1.53248,0.202319,2.806,3.2036
1.56741,0.205708,2.853,3.2617
1.57667,0.205708,2.853,3.26616
1.61261,0.209169,2.901,3.32567
1.63601,0.210971,2.926,3.35894
1.6455,0.210971,2.926,3.36358
1.655,0.210971,2.926,3.36824
1.6645,0.210971,2.926,3.37291
1.674,0.210971,2.926,3.37761
1.66911,0.209169,2.901,3.35343
1.66464,0.207438,2.877,3.33034
1.67398,0.207438,2.877,3.33502
1.66927,0.205708,2.853,3.31186
1.65088,0.202319,2.806,3.2619
1.65999,0.202319,2.806,3.26652
1.65541,0.200661,2.783,3.24434
1.65129,0.199074,2.761,3.22328
1.66025,0.199074,2.761,3.22788
1.65591,0.197488,2.739,3.20674
1.65143,0.195902,2.717,3.18554
1.66025,0.195902,2.717,3.19012
1.64327,0.192874,2.675,3.14534
1.63898,0.191359,2.654,3.12515
1.64759,0.191359,2.654,3.12968
1.65621,0.191359,2.654,3.13422
1.6391,0.188403,2.613,3.0903
1.64759,0.188403,2.613,3.0948
1.65607,0.188403,2.613,3.09933
1.65181,0.186961,2.593,3.08011
1.64806,0.185591,2.574,3.06203
1.65641,0.185591,2.574,3.06653
1.66477,0.185591,2.574,3.07105
1.66077,0.184221,2.555,3.05289
1.66906,0.184221,2.555,3.05741
1.66488,0.182851,2.536,3.03917
1.66058,0.181481,2.517,3.02089
1.66875,0.181481,2.517,3.02538
1.67692,0.181481,2.517,3.0299
1.67304,0.180184,2.499,3.01273
1.68115,0.180184,2.499,3.01724
1.67709,0.178886,2.481,3
1.67292,0.177588,2.463,2.98271
-1.77249,0.192512,2.555,3.11557
-1.76419,0.192512,2.555,3.11086
-1.7559,0.192512,2.555,3.10617
-1.74761,0.192512,2.555,3.10149
-1.73932,0.192512,2.555,3.09682
-1.73102,0.192512,2.555,3.09217
-1.72273,0.192512,2.555,3.08754
-1.71444,0.192512,2.555,3.08292
-1.71883,0.193943,2.574,3.10121
-1.71048,0.193943,2.574,3.09658
-1.70212,0.193943,2.574,3.09198
-1.70627,0.195375,2.593,3.11017
-1.69785,0.195375,2.593,3.10556
-1.68944,0.195375,2.593,3.10097
-1.69399,0.196882,2.613,3.12028
-1.68551,0.196882,2.613,3.11568
-1.67703,0.196882,2.613,3.1111
-1.68132,0.198389,2.633,3.13031
-1.67277,0.198389,2.633,3.12573
-1.6775,0.199971,2.654,3.14606
-1.66888,0.199971,2.654,3.14148
-1.66027,0.199971,2.654,3.13691
-1.65165,0.199971,2.654,3.13236
-1.64304,0.199971,2.654,3.12782
-1.63443,0.199971,2.654,3.12331
-1.62581,0.199971,2.654,3.11881
-1.6044,0.198389,2.633,3.08968
-1.58373,0.196882,2.613,3.06182
-1.56319,0.195375,2.593,3.03404
-1.55478,0.195375,2.593,3.02971
-1.53503,0.193943,2.574,3.00323
-1.50414,0.19108,2.536,2.9547
-1.49591,0.19108,2.536,2.95052
-1.46597,0.188292,2.499,2.90336
-1.44736,0.186936,2.481,2.87839
-1.43931,0.186936,2.481,2.87435
-1.42087,0.18558,2.463,2.8495
-1.41288,0.18558,2.463,2.84553
-1.40488,0.18558,2.463,2.84157
-1.38668,0.184224,2.445,2.81688
-1.37874,0.184224,2.445,2.81299
-1.37081,0.184224,2.445,2.80911
-1.3729,0.18558,2.463,2.82589
-1.36491,0.18558,2.463,2.82202
-1.36683,0.186936,2.481,2.83876
-1.36864,0.188292,2.499,2.85545
-1.36053,0.188292,2.499,2.85158
-1.38272,0.192512,2.555,2.91153
-1.38465,0.193943,2.574,2.92922
-1.37629,0.193943,2.574,2.92528
-1.38867,0.196882,2.613,2.96562
-1.39075,0.198389,2.633,2.98433
-1.39323,0.199971,2.654,3.00413
-1.38461,0.199971,2.654,3.00014
-1.38689,0.201553,2.675,3.01988
-1.3782,0.201553,2.675,3.01591
-1.36952,0.201553,2.675,3.01195
-1.36084,0.201553,2.675,3.00801
-1.35216,0.201553,2.675,3.00409
-1.33293,0.199971,2.654,2.97664
-1.32431,0.199971,2.654,2.9728
-1.3157,0.199971,2.654,2.96897
-1.30708,0.199971,2.654,2.96516
-1.2882,0.198389,2.633,2.93794
-1.26993,0.196882,2.613,2.91192
-1.26145,0.196882,2.613,2.90823
-1.25297,0.196882,2.613,2.90456
-1.23496,0.195375,2.593,2.87871
-1.22654,0.195375,2.593,2.87511
-1.2092,0.193943,2.574,2.85048
-1.19198,0.192512,2.555,2.82594
-1.18369,0.192512,2.555,2.82245
-1.15792,0.189649,2.517,2.77705
-1.14153,0.188292,2.499,2.75382
-1.12525,0.186936,2.481,2.73066
-1.1172,0.186936,2.481,2.72735
-1.1011,0.18558,2.463,2.7043
-1.08512,0.184224,2.445,2.68131
-1.07718,0.184224,2.445,2.67811
-1.06181,0.182943,2.428,2.65633
-1.05393,0.182943,2.428,2.65319
-1.04605,0.182943,2.428,2.65007
-1.0309,0.181662,2.411,2.62844
-1.02307,0.181662,2.411,2.62538
-1.01525,0.181662,2.411,2.62234
-1.00742,0.181662,2.411,2.61932
-1.00664,0.182943,2.428,2.63476
-0.998763,0.182943,2.428,2.63176
-0.990883,0.182943,2.428,2.62878
-0.983002,0.182943,2.428,2.62582
-0.975121,0.182943,2.428,2.62288
-0.967241,0.182943,2.428,2.61996
-0.95936,0.182943,2.428,2.61706
-0.951479,0.182943,2.428,2.61419
-0.943599,0.182943,2.428,2.61133
-0.935718,0.182943,2.428,2.60849
-0.927837,0.182943,2.428,2.60567
-0.919957,0.182943,2.428,2.60288
-0.912076,0.182943,2.428,2.6001
-0.904195,0.182943,2.428,2.59735
-0.896315,0.182943,2.428,2.59462
-0.888434,0.182943,2.428,2.5919
-0.880553,0.182943,2.428,2.58921
-0.872672,0.182943,2.428,2.58654
-0.864792,0.182943,2.428,2.5839
-0.856911,0.182943,2.428,2.58127
-0.84903,0.182943,2.428,2.57866
-0.84115,0.182943,2.428,2.57608
-0.833269,0.182943,2.428,2.57352
-0.825388,0.182943,2.428,2.57098
-0.817508,0.182943,2.428,2.56846
-0.809627,0.182943,2.428,2.56596
-0.801746,0.182943,2.428,2.56348
-0.799424,0.184224,2.445,2.57896
-0.791488,0.184224,2.445,2.57651
-0.783552,0.184224,2.445,2.57409
-0.775616,0.184224,2.445,2.57168
-0.767681,0.184224,2.445,2.5693
-0.759745,0.184224,2.445,2.56694
-0.751809,0.184224,2.445,2.5646
-0.749349,0.18558,2.463,2.58115
-0.741355,0.18558,2.463,2.57884
-0.733361,0.18558,2.463,2.57655
-0.725366,0.18558,2.463,2.57429
-0.717372,0.18558,2.463,2.57205
-0.709378,0.18558,2.463,2.56983
-0.706509,0.186936,2.481,2.5864
-0.703524,0.188292,2.499,2.60296
-0.695413,0.188292,2.499,2.60078
-0.687302,0.188292,2.499,2.59862
-0.679191,0.188292,2.499,2.59649
-0.67108,0.188292,2.499,2.59438
-0.662968,0.188292,2.499,2.59229
-0.65014,0.186936,2.481,2.57157
-0.642088,0.186936,2.481,2.56955
-0.634035,0.186936,2.481,2.56755
-0.630524,0.188292,2.499,2.58419
-0.622413,0.188292,2.499,2.58222
-0.614302,0.188292,2.499,2.58028
-0.606191,0.188292,2.499,2.57836
-0.593771,0.186936,2.481,2.5579
-0.585719,0.186936,2.481,2.55605
-0.577666,0.186936,2.481,2.55421
-0.569613,0.186936,2.481,2.5524
-0.561561,0.186936,2.481,2.55062
-0.549492,0.18558,2.463,2.53037
-0.541498,0.18558,2.463,2.52864
-0.537403,0.186936,2.481,2.54541
-0.525509,0.18558,2.463,2.52527
-0.517515,0.18558,2.463,2.52361
-0.509521,0.18558,2.463,2.52199
-0.501526,0.18558,2.463,2.52038
-0.493532,0.18558,2.463,2.51881
-0.485538,0.18558,2.463,2.51725
-0.481034,0.186936,2.481,2.53411
-0.472981,0.186936,2.481,2.53259
-0.461555,0.18558,2.463,2.51274
-0.453561,0.18558,2.463,2.51128
-0.445566,0.18558,2.463,2.50985
-0.44077,0.186936,2.481,2.52677
-0.432717,0.186936,2.481,2.52538
-0.424665,0.186936,2.481,2.52401
-0.416612,0.186936,2.481,2.52267
-0.408559,0.186936,2.481,2.52135
-0.403412,0.188292,2.499,2.53835
-0.395301,0.188292,2.499,2.53707
-0.38719,0.188292,2.499,2.53582
-0.379079,0.188292,2.499,2.53459
-0.370968,0.188292,2.499,2.53339
-0.36547,0.189649,2.517,2.55046
-0.357301,0.189649,2.517,2.5493
-0.349131,0.189649,2.517,2.54817
-0.340961,0.189649,2.517,2.54706
-0.335304,0.19108,2.536,2.5652
-0.327073,0.19108,2.536,2.56413
-0.32123,0.192512,2.555,2.5823
-0.312937,0.192512,2.555,2.58128
-0.304645,0.192512,2.555,2.58029
-0.296352,0.192512,2.555,2.57932
-0.288059,0.192512,2.555,2.57838
-0.279766,0.192512,2.555,2.57747
-0.271473,0.192512,2.555,2.57658
-0.26318,0.192512,2.555,2.57572
-0.254887,0.192512,2.555,2.57489
-0.246594,0.192512,2.555,2.57408
-0.236529,0.19108,2.536,2.55416
-0.228298,0.19108,2.536,2.55341
-0.220067,0.19108,2.536,2.55269
-0.211836,0.19108,2.536,2.552
-0.202079,0.189649,2.517,2.53221
-0.193909,0.189649,2.517,2.53157
-0.18574,0.189649,2.517,2.53096
-0.17757,0.189649,2.517,2.53037
-0.169401,0.189649,2.517,2.52981
-0.161231,0.189649,2.517,2.52928
-0.153062,0.189649,2.517,2.52877
-0.144892,0.189649,2.517,2.52829
-0.136723,0.189649,2.517,2.52783
-0.128553,0.189649,2.517,2.52741
-0.120383,0.189649,2.517,2.527
-0.112214,0.189649,2.517,2.52663
-0.104044,0.189649,2.517,2.52628
-0.0965985,0.19108,2.536,2.54502
-0.0883672,0.19108,2.536,2.54472
-0.080136,0.19108,2.536,2.54445
-0.0719048,0.19108,2.536,2.5442
-0.0636736,0.19108,2.536,2.54399
-0.0554423,0.19108,2.536,2.54379
-0.0472111,0.19108,2.536,2.54363
-0.0389799,0.19108,2.536,2.54349
-0.0307487,0.19108,2.536,2.54337
-0.0225174,0.19108,2.536,2.54329
-0.0142862,0.19108,2.536,2.54323
-0.00605498,0.19108,2.536,2.5432
0.00217625,0.19108,2.536,2.54319
0.0104075,0.19108,2.536,2.54321
0.0186387,0.19108,2.536,2.54326
0.0268699,0.19108,2.536,2.54333
0.0351011,0.19108,2.536,2.54343
0.0433324,0.19108,2.536,2.54356
0.0515636,0.19108,2.536,2.54371
0.0597948,0.19108,2.536,2.54389
0.0680261,0.19108,2.536,2.5441
0.0762573,0.19108,2.536,2.54433
0.0844885,0.19108,2.536,2.54459
0.0920251,0.189649,2.517,2.52581
0.100195,0.189649,2.517,2.52612
0.108364,0.189649,2.517,2.52646
0.1157,0.188292,2.499,2.50875
0.123811,0.188292,2.499,2.50914
0.131923,0.188292,2.499,2.50955
0.140034,0.188292,2.499,2.50999
0.148145,0.188292,2.499,2.51046
0.155131,0.186936,2.481,2.49286
0.161999,0.18558,2.463,2.47529
0.169994,0.18558,2.463,2.47582
nan,nan,nan,NaN
nan,nan,nan,NaN
nan,nan,nan,NaN
nan,nan,nan,NaN
nan,nan,nan,NaN
nan,nan,nan,NaN
nan,nan,nan,NaN
nan,nan,nan,NaN
nan,nan,nan,NaN
nan,nan,nan,NaN
nan,nan,nan,NaN
nan,nan,nan,NaN
nan,nan,nan,NaN
nan,nan,nan,NaN
nan,nan,nan,NaN
nan,nan,nan,NaN
nan,nan,nan,NaN
nan,nan,nan,NaN
nan,nan,nan,NaN
nan,nan,nan,NaN
nan,nan,nan,NaN
nan,nan,nan,NaN
nan,nan,nan,NaN
nan,nan,nan,NaN
nan,nan,nan,NaN
nan,nan,nan,NaN
nan,nan,nan,NaN
nan,nan,nan,NaN
nan,nan,nan,NaN
nan,nan,nan,NaN
nan,nan,nan,NaN
0.422699,0.184224,2.445,2.4881
0.430635,0.184224,2.445,2.48946
0.432472,0.181662,2.411,2.45621
0.440297,0.181662,2.411,2.4576
0.448123,0.181662,2.411,2.45901
0.452734,0.180381,2.394,2.4431
0.460504,0.180381,2.394,2.44455
0.464949,0.1791,2.377,2.42866
0.472664,0.1791,2.377,2.43015
0.480379,0.1791,2.377,2.43166
0.484809,0.177894,2.361,2.41682
0.492472,0.177894,2.361,2.41837
0.500135,0.177894,2.361,2.41994
0.507799,0.177894,2.361,2.42153
0.515462,0.177894,2.361,2.42315
0.523125,0.177894,2.361,2.42479
0.530788,0.177894,2.361,2.42646
0.538451,0.177894,2.361,2.42815
0.546115,0.177894,2.361,2.42986
0.550025,0.176689,2.345,2.41511
0.553832,0.175483,2.329,2.40037
0.561391,0.175483,2.329,2.40212
0.56895,0.175483,2.329,2.4039
0.572549,0.174278,2.313,2.38917
0.580056,0.174278,2.313,2.39098
0.579689,0.171942,2.282,2.36075
0.575519,0.168551,2.237,2.31599
0.582779,0.168551,2.237,2.3178
0.582655,0.166442,2.209,2.2906
0.585819,0.165312,2.194,2.27687
0.592941,0.165312,2.194,2.27871
0.600062,0.165312,2.194,2.28058
0.607183,0.165312,2.194,2.28246
0.614304,0.165312,2.194,2.28437
0.621425,0.165312,2.194,2.28629
0.632844,0.166442,2.209,2.30388
0.640014,0.166442,2.209,2.30586
0.651285,0.167497,2.223,2.32249
0.6585,0.167497,2.223,2.32452
0.6744,0.169682,2.252,2.35693
0.690791,0.171942,2.282,2.39046
0.698198,0.171942,2.282,2.39261
0.705605,0.171942,2.282,2.39478
0.718011,0.173148,2.298,2.41378
0.72547,0.173148,2.298,2.41601
0.742815,0.175483,2.329,2.45088
0.75553,0.176689,2.345,2.47003
0.763141,0.176689,2.345,2.47237
0.770752,0.176689,2.345,2.47473
0.778364,0.176689,2.345,2.47711
0.791338,0.177894,2.361,2.49643
0.799001,0.177894,2.361,2.49887
0.806664,0.177894,2.361,2.50133
0.814327,0.177894,2.361,2.50382
0.821991,0.177894,2.361,2.50632
0.835276,0.1791,2.377,2.52584
0.842991,0.1791,2.377,2.52841
0.850707,0.1791,2.377,2.53099
0.858422,0.1791,2.377,2.53359
0.866137,0.1791,2.377,2.53622
0.873852,0.1791,2.377,2.53886
0.881567,0.1791,2.377,2.54153
0.889282,0.1791,2.377,2.54421
0.896997,0.1791,2.377,2.54692
0.904712,0.1791,2.377,2.54965
0.912428,0.1791,2.377,2.5524
0.920143,0.1791,2.377,2.55517
0.927858,0.1791,2.377,2.55795
0.935573,0.1791,2.377,2.56076
0.943288,0.1791,2.377,2.56359
0.957805,0.180381,2.394,2.58479
0.965575,0.180381,2.394,2.58768
0.973346,0.180381,2.394,2.59059
0.988083,0.181662,2.411,2.61194
0.995908,0.181662,2.411,2.61491
1.00373,0.181662,2.411,2.6179
1.01869,0.182943,2.428,2.63939
1.02657,0.182943,2.428,2.64244
1.03445,0.182943,2.428,2.64551
1.04233,0.182943,2.428,2.64861
1.05021,0.182943,2.428,2.65172
1.0581,0.182943,2.428,2.65485
1.07344,0.184224,2.445,2.67661
1.08138,0.184224,2.445,2.6798
1.08931,0.184224,2.445,2.68301
1.09725,0.184224,2.445,2.68625
1.10518,0.184224,2.445,2.6895
1.11312,0.184224,2.445,2.69277
1.12105,0.184224,2.445,2.69606
1.12899,0.184224,2.445,2.69937
1.13693,0.184224,2.445,2.7027
1.14486,0.184224,2.445,2.70604
1.1528,0.184224,2.445,2.70941
1.16073,0.184224,2.445,2.7128
1.16867,0.184224,2.445,2.7162
1.17661,0.184224,2.445,2.71963
1.18454,0.184224,2.445,2.72307
1.19248,0.184224,2.445,2.72653
1.20925,0.18558,2.463,2.75011
1.21725,0.18558,2.463,2.75363
1.22524,0.18558,2.463,2.75718
1.23323,0.18558,2.463,2.76074
1.24123,0.18558,2.463,2.76432
1.24922,0.18558,2.463,2.76792
1.2664,0.186936,2.481,2.79179
1.27446,0.186936,2.481,2.79545
1.29181,0.188292,2.499,2.81944
1.29993,0.188292,2.499,2.82317
1.3274,0.19108,2.536,2.86876
1.35565,0.193943,2.574,2.91563
1.364,0.193943,2.574,2.91952
1.39315,0.196882,2.613,2.96773
1.42362,0.199971,2.654,3.01835
1.43224,0.199971,2.654,3.02242
1.47506,0.204718,2.717,3.09835
1.5079,0.208033,2.761,3.1528
1.54159,0.211424,2.806,3.20856
1.5507,0.211424,2.806,3.21294
1.58593,0.214965,2.853,3.27124
1.63601,0.220466,2.926,3.35955
1.6455,0.220466,2.926,3.36419
1.655,0.220466,2.926,3.36884
1.6645,0.220466,2.926,3.37352
1.674,0.220466,2.926,3.37822
1.66911,0.218582,2.901,3.35403
1.66464,0.216774,2.877,3.33094
1.67398,0.216774,2.877,3.33561
1.66927,0.214965,2.853,3.31244
1.65088,0.211424,2.806,3.26247
1.65999,0.211424,2.806,3.26709
1.65541,0.209691,2.783,3.24491
1.65129,0.208033,2.761,3.22384
1.66025,0.208033,2.761,3.22844
1.65591,0.206376,2.739,3.2073
1.65143,0.204718,2.717,3.1861
1.66025,0.204718,2.717,3.19068
1.64327,0.201553,2.675,3.14588
1.63898,0.199971,2.654,3.12569
1.64759,0.199971,2.654,3.13022
1.65621,0.199971,2.654,3.13476
1.6391,0.196882,2.613,3.09082
1.64759,0.196882,2.613,3.09533
1.65607,0.196882,2.613,3.09985
1.65181,0.195375,2.593,3.08063
1.64806,0.193943,2.574,3.06255
1.65641,0.193943,2.574,3.06705
1.66477,0.193943,2.574,3.07157
1.66077,0.192512,2.555,3.0534
1.66906,0.192512,2.555,3.05792
1.66488,0.19108,2.536,3.03968
1.66058,0.189649,2.517,3.02139
1.66875,0.189649,2.517,3.02589
1.67692,0.189649,2.517,3.0304
1.67304,0.188292,2.499,3.01322
1.68115,0.188292,2.499,3.01773
1.67709,0.186936,2.481,3.00049
1.67292,0.18558,2.463,2.9832
-1.77249,0.200802,2.555,3.1161
-1.76419,0.200802,2.555,3.11139
-1.7559,0.200802,2.555,3.10669
-1.74761,0.200802,2.555,3.10201
-1.73932,0.200802,2.555,3.09735
-1.73102,0.200802,2.555,3.0927
-1.72273,0.200802,2.555,3.08806
-1.71444,0.200802,2.555,3.08345
-1.71883,0.202296,2.574,3.10174
-1.71048,0.202296,2.574,3.09712
-1.70212,0.202296,2.574,3.09251
-1.70627,0.203789,2.593,3.11071
-1.69785,0.203789,2.593,3.10611
-1.68944,0.203789,2.593,3.10151
-1.69399,0.205361,2.613,3.12082
-1.69841,0.206933,2.633,3.14008
-1.68986,0.206933,2.633,3.13547
-1.68132,0.206933,2.633,3.13087
-1.68611,0.208583,2.654,3.15122
-1.6775,0.208583,2.654,3.14662
-1.66888,0.208583,2.654,3.14204
-1.66027,0.208583,2.654,3.13747
-1.65165,0.208583,2.654,3.13292
-1.64304,0.208583,2.654,3.12839
-1.63443,0.208583,2.654,3.12387
-1.62581,0.208583,2.654,3.11937
-1.6044,0.206933,2.633,3.09024
-1.58373,0.205361,2.613,3.06238
-1.56319,0.203789,2.593,3.03459
-1.55478,0.203789,2.593,3.03027
-1.53503,0.202296,2.574,3.00378
-1.50414,0.199309,2.536,2.95524
-1.49591,0.199309,2.536,2.95106
-1.46597,0.196401,2.499,2.9039
-1.44736,0.194987,2.481,2.87893
-1.43931,0.194987,2.481,2.87489
-1.42087,0.193572,2.463,2.85004
-1.41288,0.193572,2.463,2.84606
-1.40488,0.193572,2.463,2.8421
-1.38668,0.192157,2.445,2.81741
-1.37874,0.192157,2.445,2.81352
-1.37081,0.192157,2.445,2.80964
-1.36287,0.192157,2.445,2.80577
-1.35493,0.192157,2.445,2.80193
-1.35692,0.193572,2.463,2.8187
-1.36864,0.196401,2.499,2.856
-1.36053,0.196401,2.499,2.85212
-1.37244,0.199309,2.536,2.89043
-1.37443,0.200802,2.555,2.90816
-1.36614,0.200802,2.555,2.90425
-1.37804,0.203789,2.593,2.9435
-1.38019,0.205361,2.613,2.96224
-1.3822,0.206933,2.633,2.98094
-1.37366,0.206933,2.633,2.97699
-1.376,0.208583,2.654,2.99676
-1.3782,0.210233,2.675,3.0165
-1.36952,0.210233,2.675,3.01254
-1.36084,0.210233,2.675,3.00861
-1.35216,0.210233,2.675,3.00469
-1.33293,0.208583,2.654,2.97723
-1.32431,0.208583,2.654,2.97339
-1.3157,0.208583,2.654,2.96956
-1.30708,0.208583,2.654,2.96575
-1.2882,0.206933,2.633,2.93853
-1.26993,0.205361,2.613,2.9125
-1.26145,0.205361,2.613,2.90881
-1.25297,0.205361,2.613,2.90515
-1.23496,0.203789,2.593,2.87929
-1.22654,0.203789,2.593,2.87569
-1.2092,0.202296,2.574,2.85107
-1.19198,0.200802,2.555,2.82651
-1.18369,0.200802,2.555,2.82303
-1.15792,0.197816,2.517,2.77762
-1.14153,0.196401,2.499,2.75439
-1.12525,0.194987,2.481,2.73122
-1.1172,0.194987,2.481,2.72791
-1.1011,0.193572,2.463,2.70486
-1.08512,0.192157,2.445,2.68187
-1.07718,0.192157,2.445,2.67867
-1.06181,0.190821,2.428,2.65688
-1.05393,0.190821,2.428,2.65374
-1.04605,0.190821,2.428,2.65062
-1.0309,0.189485,2.411,2.62899
-1.02307,0.189485,2.411,2.62593
-1.01525,0.189485,2.411,2.62289
-1.00742,0.189485,2.411,2.61987
-1.00664,0.190821,2.428,2.63532
-0.998763,0.190821,2.428,2.63232
-0.990883,0.190821,2.428,2.62934
-0.983002,0.190821,2.428,2.62638
-0.975121,0.190821,2.428,2.62344
-0.967241,0.190821,2.428,2.62053
-0.95936,0.190821,2.428,2.61763
-0.951479,0.190821,2.428,2.61475
-0.943599,0.190821,2.428,2.61189
-0.935718,0.190821,2.428,2.60905
-0.927837,0.190821,2.428,2.60624
-0.919957,0.190821,2.428,2.60344
-0.912076,0.190821,2.428,2.60067
-0.904195,0.190821,2.428,2.59792
-0.896315,0.190821,2.428,2.59518
-0.888434,0.190821,2.428,2.59247
-0.880553,0.190821,2.428,2.58978
-0.872672,0.190821,2.428,2.58711
-0.864792,0.190821,2.428,2.58447
-0.856911,0.190821,2.428,2.58184
-0.84903,0.190821,2.428,2.57923
-0.84115,0.190821,2.428,2.57665
-0.833269,0.190821,2.428,2.57409
-0.825388,0.190821,2.428,2.57155
-0.817508,0.190821,2.428,2.56903
-0.809627,0.190821,2.428,2.56653
-0.801746,0.190821,2.428,2.56406
-0.799424,0.192157,2.445,2.57954
-0.791488,0.192157,2.445,2.57709
-0.783552,0.192157,2.445,2.57467
-0.775616,0.192157,2.445,2.57226
-0.767681,0.192157,2.445,2.56988
-0.759745,0.192157,2.445,2.56752
-0.751809,0.192157,2.445,2.56518
-0.749349,0.193572,2.463,2.58174
-0.741355,0.193572,2.463,2.57943
-0.733361,0.193572,2.463,2.57714
-0.725366,0.193572,2.463,2.57488
-0.717372,0.193572,2.463,2.57264
-0.709378,0.193572,2.463,2.57042
-0.706509,0.194987,2.481,2.58699
-0.703524,0.196401,2.499,2.60356
-0.695413,0.196401,2.499,2.60138
-0.687302,0.196401,2.499,2.59922
-0.679191,0.196401,2.499,2.59709
-0.67108,0.196401,2.499,2.59498
-0.662968,0.196401,2.499,2.59289
-0.654857,0.196401,2.499,2.59083
-0.646746,0.196401,2.499,2.58879
-0.638635,0.196401,2.499,2.58678
-0.630524,0.196401,2.499,2.58479
-0.622413,0.196401,2.499,2.58282
-0.614302,0.196401,2.499,2.58088
-0.606191,0.196401,2.499,2.57896
-0.593771,0.194987,2.481,2.5585
-0.585719,0.194987,2.481,2.55665
-0.577666,0.194987,2.481,2.55482
-0.569613,0.194987,2.481,2.55301
-0.561561,0.194987,2.481,2.55122
-0.549492,0.193572,2.463,2.53096
-0.541498,0.193572,2.463,2.52924
-0.533504,0.193572,2.463,2.52754
-0.525509,0.193572,2.463,2.52587
-0.517515,0.193572,2.463,2.52421
-0.509521,0.193572,2.463,2.52259
-0.501526,0.193572,2.463,2.52099
-0.493532,0.193572,2.463,2.51941
-0.485538,0.193572,2.463,2.51785
-0.481034,0.194987,2.481,2.53471
-0.472981,0.194987,2.481,2.5332
-0.461555,0.193572,2.463,2.51334
-0.453561,0.193572,2.463,2.51188
-0.445566,0.193572,2.463,2.51045
-0.44077,0.194987,2.481,2.52738
-0.432717,0.194987,2.481,2.52599
-0.424665,0.194987,2.481,2.52462
-0.416612,0.194987,2.481,2.52328
-0.408559,0.194987,2.481,2.52196
-0.403412,0.196401,2.499,2.53896
-0.395301,0.196401,2.499,2.53768
-0.38719,0.196401,2.499,2.53643
-0.379079,0.196401,2.499,2.53521
-0.370968,0.196401,2.499,2.53401
-0.36547,0.197816,2.517,2.55108
-0.357301,0.197816,2.517,2.54992
-0.349131,0.197816,2.517,2.54879
-0.340961,0.197816,2.517,2.54768
-0.335304,0.199309,2.536,2.56582
-0.327073,0.199309,2.536,2.56476
-0.32123,0.200802,2.555,2.58293
-0.312937,0.200802,2.555,2.58191
-0.304645,0.200802,2.555,2.58092
-0.296352,0.200802,2.555,2.57996
-0.288059,0.200802,2.555,2.57902
-0.279766,0.200802,2.555,2.5781
-0.271473,0.200802,2.555,2.57722
-0.26318,0.200802,2.555,2.57636
-0.254887,0.200802,2.555,2.57552
-0.246594,0.200802,2.555,2.57471
-0.236529,0.199309,2.536,2.55479
-0.228298,0.199309,2.536,2.55404
-0.220067,0.199309,2.536,2.55332
-0.211836,0.199309,2.536,2.55262
-0.202079,0.197816,2.517,2.53284
-0.193909,0.197816,2.517,2.5322
-0.18574,0.197816,2.517,2.53158
-0.17757,0.197816,2.517,2.531
-0.169401,0.197816,2.517,2.53044
-0.161231,0.197816,2.517,2.5299
-0.153062,0.197816,2.517,2.5294
-0.144892,0.197816,2.517,2.52892
-0.136723,0.197816,2.517,2.52846
-0.128553,0.197816,2.517,2.52803
-0.120383,0.197816,2.517,2.52763
-0.112214,0.197816,2.517,2.52725
-0.104044,0.197816,2.517,2.5269
-0.0965985,0.199309,2.536,2.54565
-0.0883672,0.199309,2.536,2.54535
-0.080136,0.199309,2.536,2.54508
-0.0719048,0.199309,2.536,2.54484
-0.0636736,0.199309,2.536,2.54462
-0.0554423,0.199309,2.536,2.54442
-0.0472111,0.199309,2.536,2.54426
-0.0389799,0.199309,2.536,2.54412
-0.0307487,0.199309,2.536,2.54401
-0.0225174,0.199309,2.536,2.54392
-0.0142862,0.199309,2.536,2.54386
-0.00605498,0.199309,2.536,2.54383
0.00217625,0.199309,2.536,2.54382
0.0104075,0.199309,2.536,2.54384
0.0186387,0.199309,2.536,2.54389
0.0268699,0.199309,2.536,2.54396
0.0351011,0.199309,2.536,2.54406
0.0433324,0.199309,2.536,2.54419
0.0515636,0.199309,2.536,2.54434
0.0597948,0.199309,2.536,2.54452
0.0680261,0.199309,2.536,2.54473
0.0762573,0.199309,2.536,2.54496
0.0838555,0.197816,2.517,2.52615
0.0920251,0.197816,2.517,2.52644
0.100195,0.197816,2.517,2.52675
0.108364,0.197816,2.517,2.52709
0.1157,0.196401,2.499,2.50937
0.123811,0.196401,2.499,2.50976
0.131923,0.196401,2.499,2.51017
0.140034,0.196401,2.499,2.51061
0.148145,0.196401,2.499,2.51108
0.155131,0.194987,2.481,2.49348
0.161999,0.193572,2.463,2.4759
0.169994,0.193572,2.463,2.47644
nan,nan,nan,NaN
nan,nan,nan,NaN
nan,nan,nan,NaN
nan,nan,nan,NaN
nan,nan,nan,NaN
nan,nan,nan,NaN
nan,nan,nan,NaN
nan,nan,nan,NaN
nan,nan,nan,NaN
nan,nan,nan,NaN
nan,nan,nan,NaN
nan,nan,nan,NaN
nan,nan,nan,NaN
nan,nan,nan,NaN
nan,nan,nan,NaN
nan,nan,nan,NaN
nan,nan,nan,NaN
nan,nan,nan,NaN
nan,nan,nan,NaN
nan,nan,nan,NaN
nan,nan,nan,NaN
nan,nan,nan,NaN
nan,nan,nan,NaN
nan,nan,nan,NaN
nan,nan,nan,NaN
nan,nan,nan,NaN
nan,nan,nan,NaN
nan,nan,nan,NaN
nan,nan,nan,NaN
nan,nan,nan,NaN
nan,nan,nan,NaN
0.422699,0.192157,2.445,2.4887
0.430635,0.192157,2.445,2.49006
0.435521,0.190821,2.428,2.47412
0.440297,0.189485,2.411,2.45819
0.448123,0.189485,2.411,2.4596
0.455948,0.189485,2.411,2.46104
0.460504,0.188149,2.394,2.44514
0.464949,0.186813,2.377,2.42924
0.472664,0.186813,2.377,2.43073
0.480379,0.186813,2.377,2.43224
0.484809,0.185556,2.361,2.41739
0.492472,0.185556,2.361,2.41894
0.500135,0.185556,2.361,2.42051
0.507799,0.185556,2.361,2.42211
0.515462,0.185556,2.361,2.42373
0.523125,0.185556,2.361,2.42537
0.534385,0.186813,2.377,2.44348
0.5421,0.186813,2.377,2.44518
0.546115,0.185556,2.361,2.43043
0.553778,0.185556,2.361,2.43216
0.557636,0.184298,2.345,2.41743
0.565248,0.184298,2.345,2.41919
0.56895,0.183041,2.329,2.40446
0.572549,0.181783,2.313,2.38973
0.580056,0.181783,2.313,2.39154
0.575879,0.178168,2.267,2.34578
0.575519,0.17581,2.237,2.31653
0.582779,0.17581,2.237,2.31834
0.582655,0.17361,2.209,2.29114
0.585819,0.172431,2.194,2.2774
0.592941,0.172431,2.194,2.27924
0.596233,0.17133,2.18,2.26655
0.603309,0.17133,2.18,2.26842
0.614304,0.172431,2.194,2.28489
0.621425,0.172431,2.194,2.28682
0.628547,0.172431,2.194,2.28876
0.635668,0.172431,2.194,2.29073
0.651285,0.17471,2.223,2.32302
0.6585,0.17471,2.223,2.32505
0.669908,0.17581,2.237,2.34176
0.686251,0.178168,2.267,2.37528
0.693609,0.178168,2.267,2.37742
0.700967,0.178168,2.267,2.37958
0.713012,0.179347,2.282,2.39751
0.720418,0.179347,2.282,2.39973
0.732928,0.180604,2.298,2.4188
0.740387,0.180604,2.298,2.42107
0.752727,0.181783,2.313,2.43918
0.760235,0.181783,2.313,2.44151
0.773053,0.183041,2.329,2.46076
0.780612,0.183041,2.329,2.46315
0.788172,0.183041,2.329,2.46555
0.801198,0.184298,2.345,2.48494
0.808809,0.184298,2.345,2.4874
0.81642,0.184298,2.345,2.48989
0.829654,0.185556,2.361,2.5094
0.842991,0.186813,2.377,2.52896
0.850707,0.186813,2.377,2.53155
0.858422,0.186813,2.377,2.53415
0.866137,0.186813,2.377,2.53677
0.873852,0.186813,2.377,2.53942
0.881567,0.186813,2.377,2.54208
0.889282,0.186813,2.377,2.54477
0.896997,0.186813,2.377,2.54748
0.904712,0.186813,2.377,2.5502
0.912428,0.186813,2.377,2.55295
0.920143,0.186813,2.377,2.55572
0.927858,0.186813,2.377,2.55851
0.935573,0.186813,2.377,2.56131
0.943288,0.186813,2.377,2.56414
0.957805,0.188149,2.394,2.58535
0.965575,0.188149,2.394,2.58824
0.973346,0.188149,2.394,2.59115
0.988083,0.189485,2.411,2.6125
0.995908,0.189485,2.411,2.61547
1.00373,0.189485,2.411,2.61846
1.01869,0.190821,2.428,2.63995
1.02657,0.190821,2.428,2.643
1.03445,0.190821,2.428,2.64607
1.04233,0.190821,2.428,2.64916
1.05021,0.190821,2.428,2.65227
1.0581,0.190821,2.428,2.6554
1.07344,0.192157,2.445,2.67717
1.08138,0.192157,2.445,2.68036
1.08931,0.192157,2.445,2.68357
1.09725,0.192157,2.445,2.6868
1.10518,0.192157,2.445,2.69005
1.11312,0.192157,2.445,2.69332
1.12105,0.192157,2.445,2.69661
1.12899,0.192157,2.445,2.69992
1.13693,0.192157,2.445,2.70325
1.14486,0.192157,2.445,2.7066
1.1528,0.192157,2.445,2.70996
1.16073,0.192157,2.445,2.71335
1.16867,0.192157,2.445,2.71675
1.17661,0.192157,2.445,2.72018
1.18454,0.192157,2.445,2.72362
1.19248,0.192157,2.445,2.72708
1.20925,0.193572,2.463,2.75066
1.21725,0.193572,2.463,2.75418
1.22524,0.193572,2.463,2.75773
1.23323,0.193572,2.463,2.76129
1.24123,0.193572,2.463,2.76487
1.24922,0.193572,2.463,2.76846
1.2664,0.194987,2.481,2.79234
1.27446,0.194987,2.481,2.796
1.29181,0.196401,2.499,2.81999
1.29993,0.196401,2.499,2.82372
1.3274,0.199309,2.536,2.86932
1.35565,0.202296,2.574,2.91619
1.364,0.202296,2.574,2.92009
1.39315,0.205361,2.613,2.9683
1.42362,0.208583,2.654,3.01893
1.43224,0.208583,2.654,3.023
1.47506,0.213534,2.717,3.09895
1.5079,0.216992,2.761,3.15341
