1.07281,-0.054973,2.499,2.7201
1.08093,-0.054973,2.499,2.72331
1.09688,-0.055369,2.517,2.74618
1.12173,-0.0562049,2.555,2.79096
1.13003,-0.0562049,2.555,2.79431
1.15525,-0.0570408,2.593,2.83928
1.18162,-0.0579208,2.633,2.88657
1.19965,-0.0583827,2.654,2.91312
1.20827,-0.0583827,2.654,2.91668
1.23614,-0.0593066,2.696,2.96648
1.25459,-0.0597686,2.717,2.99327
1.26341,-0.0597686,2.717,2.99697
1.28253,-0.0602525,2.739,3.025
1.30179,-0.0607365,2.761,3.05311
1.3212,-0.0612205,2.783,3.0813
1.33023,-0.0612205,2.783,3.08518
1.35033,-0.0617264,2.806,3.11462
1.37058,-0.0622324,2.829,3.14414
1.37976,-0.0622324,2.829,3.14815
1.41251,-0.0632883,2.877,3.20567
1.43371,-0.0638162,2.901,3.23657
1.44313,-0.0638162,2.901,3.24075
1.46506,-0.0643662,2.926,3.27292
1.48716,-0.0649161,2.951,3.30519
1.50992,-0.0654881,2.977,3.33866
1.51958,-0.0654881,2.977,3.34305
1.5426,-0.06606,3.003,3.37668
1.58026,-0.0672479,3.057,3.44195
1.59019,-0.0672479,3.057,3.44651
1.61424,-0.0678419,3.084,3.48158
1.62425,-0.0678419,3.084,3.48624
1.63426,-0.0678419,3.084,3.49091
1.6592,-0.0684578,3.112,3.52735
1.68485,-0.0690957,3.141,3.56502
1.69505,-0.0690957,3.141,3.56985
1.70524,-0.0690957,3.141,3.5747
1.73128,-0.0697337,3.17,3.61263
1.74157,-0.0697337,3.17,3.61757
1.73583,-0.0690957,3.141,3.5894
1.74602,-0.0690957,3.141,3.59434
1.75622,-0.0690957,3.141,3.5993
1.76641,-0.0690957,3.141,3.60429
1.77661,-0.0690957,3.141,3.60929
1.7868,-0.0690957,3.141,3.61432
1.78041,-0.0684578,3.112,3.58596
1.79051,-0.0684578,3.112,3.59098
1.80061,-0.0684578,3.112,3.59603
1.81071,-0.0684578,3.112,3.6011
1.82081,-0.0684578,3.112,3.60619
1.84797,-0.0690957,3.141,3.64495
1.85817,-0.0690957,3.141,3.65013
1.86836,-0.0690957,3.141,3.65533
1.86121,-0.0684578,3.112,3.62675
1.87131,-0.0684578,3.112,3.63195
1.86449,-0.0678419,3.084,3.60444
1.8745,-0.0678419,3.084,3.60963
1.88451,-0.0678419,3.084,3.61483
1.87793,-0.0672479,3.057,3.58837
1.87118,-0.066654,3.03,3.56183
1.88101,-0.066654,3.03,3.56701
1.89085,-0.066654,3.03,3.57221
1.86744,-0.0654881,2.977,3.51485
1.86071,-0.0649161,2.951,3.48925
1.87028,-0.0649161,2.951,3.49436
1.86394,-0.0643662,2.926,3.46985
1.84206,-0.0632883,2.877,3.41677
1.8514,-0.0632883,2.877,3.42181
1.82969,-0.0622324,2.829,3.3697
1.80897,-0.0612205,2.783,3.31982
1.81801,-0.0612205,2.783,3.32475
1.79815,-0.0602525,2.739,3.27706
1.76482,-0.0588447,2.675,3.20526
1.7735,-0.0588447,2.675,3.21005
1.7542,-0.0579208,2.633,3.16438
1.73597,-0.0570408,2.593,3.12098
1.74439,-0.0570408,2.593,3.12567
1.72711,-0.0562049,2.555,3.0845
1.7096,-0.055369,2.517,3.0432
-1.94661,-0.0526214,2.806,3.41551
-1.93751,-0.0526214,2.806,3.41033
-1.9284,-0.0526214,2.806,3.40516
-1.91929,-0.0526214,2.806,3.40001
-1.91018,-0.0526214,2.806,3.39488
-1.91666,-0.0530527,2.829,3.41755
-1.90748,-0.0530527,2.829,3.41241
-1.89829,-0.0530527,2.829,3.40728
-1.90514,-0.0535028,2.853,3.43104
-1.89588,-0.0535028,2.853,3.42591
-1.90249,-0.0539529,2.877,3.44957
-1.89315,-0.0539529,2.877,3.44442
-1.88381,-0.0539529,2.877,3.4393
-1.87447,-0.0539529,2.877,3.4342
-1.8807,-0.0544029,2.901,3.45771
-1.87128,-0.0544029,2.901,3.4526
-1.86186,-0.0544029,2.901,3.44751
-1.85245,-0.0544029,2.901,3.44243
-1.85891,-0.0548718,2.926,3.46699
-1.84942,-0.0548718,2.926,3.46191
-1.83992,-0.0548718,2.926,3.45685
-1.84606,-0.0553406,2.951,3.48129
-1.83648,-0.0553406,2.951,3.47623
-1.82691,-0.0553406,2.951,3.47117
-1.83334,-0.0558282,2.977,3.49668
-1.82368,-0.0558282,2.977,3.49163
-1.81401,-0.0558282,2.977,3.48659
-1.82011,-0.0563158,3.003,3.51198
-1.81036,-0.0563158,3.003,3.50694
-1.80062,-0.0563158,3.003,3.50191
-1.79087,-0.0563158,3.003,3.49691
-1.78112,-0.0563158,3.003,3.49193
-1.77138,-0.0563158,3.003,3.48697
-1.76163,-0.0563158,3.003,3.48203
-1.75188,-0.0563158,3.003,3.47711
-1.74213,-0.0563158,3.003,3.47221
-1.73239,-0.0563158,3.003,3.46733
-1.72264,-0.0563158,3.003,3.46247
-1.71289,-0.0563158,3.003,3.45763
-1.70315,-0.0563158,3.003,3.45281
-1.6934,-0.0563158,3.003,3.44801
-1.68365,-0.0563158,3.003,3.44323
nan,nan,nan,NaN
-1.64975,-0.0558282,2.977,3.40402
-1.61199,-0.0548718,2.926,3.34111
-1.60249,-0.0548718,2.926,3.33654
-1.593,-0.0548718,2.926,3.33199
-1.59703,-0.0553406,2.951,3.35589
-1.58745,-0.0553406,2.951,3.35134
-1.57787,-0.0553406,2.951,3.34681
-1.56829,-0.0553406,2.951,3.34231
-1.54551,-0.0548718,2.926,3.30955
-1.53601,-0.0548718,2.926,3.30512
-1.52652,-0.0548718,2.926,3.30072
-1.51702,-0.0548718,2.926,3.29634
-1.50752,-0.0548718,2.926,3.29198
-1.49803,-0.0548718,2.926,3.28764
-1.45139,-0.0535028,2.853,3.20141
-1.44213,-0.0535028,2.853,3.19722
-1.40927,-0.0526214,2.806,3.14045
-1.36673,-0.0513649,2.739,3.06149
-1.35784,-0.0513649,2.739,3.05753
-1.31743,-0.0501647,2.675,2.98224
-1.2882,-0.0493771,2.633,2.93165
-1.27965,-0.0493771,2.633,2.92791
-1.25179,-0.048627,2.593,2.87976
-1.22516,-0.0479144,2.555,2.83396
-1.21686,-0.0479144,2.555,2.83038
-1.18208,-0.0468642,2.499,2.76487
-1.15706,-0.0461891,2.463,2.72163
-1.14067,-0.0458515,2.445,2.69838
-1.13273,-0.0458515,2.445,2.69503
-1.11697,-0.0455327,2.428,2.67299
-1.10133,-0.0452139,2.411,2.65102
-1.0935,-0.0452139,2.411,2.64777
-1.08568,-0.0452139,2.411,2.64455
-1.07785,-0.0452139,2.411,2.64135
-1.07003,-0.0452139,2.411,2.63817
-1.05471,-0.0448951,2.394,2.61642
-1.04694,-0.0448951,2.394,2.6133
-1.03917,-0.0448951,2.394,2.6102
-1.0314,-0.0448951,2.394,2.60711
-1.02363,-0.0448951,2.394,2.60405
-1.01586,-0.0448951,2.394,2.601
-1.00809,-0.0448951,2.394,2.59798
-1.00032,-0.0448951,2.394,2.59497
-0.992548,-0.0448951,2.394,2.59199
-0.984778,-0.0448951,2.394,2.58902
-0.977007,-0.0448951,2.394,2.58608
-0.969237,-0.0448951,2.394,2.58315
-0.961466,-0.0448951,2.394,2.58025
-0.953696,-0.0448951,2.394,2.57736
-0.952643,-0.0452139,2.411,2.59278
-0.944817,-0.0452139,2.411,2.58991
-0.936992,-0.0452139,2.411,2.58707
-0.929166,-0.0452139,2.411,2.58424
-0.921341,-0.0452139,2.411,2.58144
-0.913515,-0.0452139,2.411,2.57866
-0.90569,-0.0452139,2.411,2.5759
-0.897864,-0.0452139,2.411,2.57315
-0.896315,-0.0455327,2.428,2.58856
-0.888434,-0.0455327,2.428,2.58584
-0.874388,-0.0452139,2.411,2.56506
-0.866562,-0.0452139,2.411,2.5624
-0.864792,-0.0455327,2.428,2.57781
-0.856911,-0.0455327,2.428,2.57518
-0.84903,-0.0455327,2.428,2.57257
-0.84115,-0.0455327,2.428,2.56998
-0.833269,-0.0455327,2.428,2.56741
-0.825388,-0.0455327,2.428,2.56486
-0.817508,-0.0455327,2.428,2.56234
-0.809627,-0.0455327,2.428,2.55983
-0.801746,-0.0455327,2.428,2.55735
-0.793866,-0.0455327,2.428,2.55489
-0.785985,-0.0455327,2.428,2.55246
-0.778104,-0.0455327,2.428,2.55004
-0.770224,-0.0455327,2.428,2.54765
-0.762343,-0.0455327,2.428,2.54527
-0.754462,-0.0455327,2.428,2.54293
-0.746581,-0.0455327,2.428,2.5406
-0.743873,-0.0458515,2.445,2.55607
-0.735937,-0.0458515,2.445,2.55377
-0.728001,-0.0458515,2.445,2.55149
-0.720065,-0.0458515,2.445,2.54924
-0.712129,-0.0458515,2.445,2.54701
-0.704194,-0.0458515,2.445,2.5448
-0.696258,-0.0458515,2.445,2.54262
-0.688322,-0.0458515,2.445,2.54046
-0.680386,-0.0458515,2.445,2.53832
-0.677401,-0.0461891,2.463,2.55487
-0.669406,-0.0461891,2.463,2.55276
-0.661412,-0.0461891,2.463,2.55068
-0.653418,-0.0461891,2.463,2.54862
-0.645424,-0.0461891,2.463,2.54658
-0.637429,-0.0461891,2.463,2.54457
-0.634035,-0.0465266,2.481,2.56116
-0.625982,-0.0465266,2.481,2.55918
-0.622413,-0.0468642,2.499,2.57577
-0.614302,-0.0468642,2.499,2.57382
-0.606191,-0.0468642,2.499,2.5719
-0.598079,-0.0468642,2.499,2.57
-0.589968,-0.0468642,2.499,2.56812
-0.581857,-0.0468642,2.499,2.56627
-0.577879,-0.0472017,2.517,2.58292
-0.569709,-0.0472017,2.517,2.5811
-0.561539,-0.0472017,2.517,2.57931
-0.55337,-0.0472017,2.517,2.57754
-0.549316,-0.047558,2.536,2.59525
-0.541085,-0.047558,2.536,2.59352
-0.528861,-0.0472017,2.517,2.57239
-0.520692,-0.0472017,2.517,2.57073
-0.512522,-0.0472017,2.517,2.56908
-0.50816,-0.047558,2.536,2.58685
-0.499929,-0.047558,2.536,2.58524
-0.491697,-0.047558,2.536,2.58366
-0.479844,-0.0472017,2.517,2.56277
-0.471674,-0.0472017,2.517,2.56125
-0.463505,-0.0472017,2.517,2.55976
-0.455335,-0.0472017,2.517,2.55829
-0.447166,-0.0472017,2.517,2.55685
-0.438996,-0.0472017,2.517,2.55543
-0.430827,-0.0472017,2.517,2.55404
-0.422657,-0.0472017,2.517,2.55268
-0.414487,-0.0472017,2.517,2.55134
-0.406318,-0.0472017,2.517,2.55002
-0.398148,-0.0472017,2.517,2.54873
-0.389979,-0.0472017,2.517,2.54747
-0.381809,-0.0472017,2.517,2.54623
-0.37364,-0.0472017,2.517,2.54502
-0.36547,-0.0472017,2.517,2.54383
-0.359998,-0.047558,2.536,2.56187
-0.351766,-0.047558,2.536,2.56072
-0.340961,-0.0472017,2.517,2.54043
-0.332792,-0.0472017,2.517,2.53934
-0.324622,-0.0472017,2.517,2.53829
-0.316453,-0.0472017,2.517,2.53725
-0.31061,-0.047558,2.536,2.55539
-0.302379,-0.047558,2.536,2.55441
-0.294148,-0.047558,2.536,2.55344
-0.285917,-0.047558,2.536,2.55251
-0.277685,-0.047558,2.536,2.5516
-0.269454,-0.047558,2.536,2.55072
-0.259266,-0.0472017,2.517,2.53076
-0.251096,-0.0472017,2.517,2.52993
-0.242927,-0.0472017,2.517,2.52914
-0.236529,-0.047558,2.536,2.54745
-0.228298,-0.047558,2.536,2.5467
-0.220067,-0.047558,2.536,2.54597
-0.211836,-0.047558,2.536,2.54528
-0.203604,-0.047558,2.536,2.5446
-0.195373,-0.047558,2.536,2.54396
-0.187142,-0.047558,2.536,2.54334
-0.178911,-0.047558,2.536,2.54275
-0.171958,-0.0479144,2.555,2.56123
-0.163665,-0.0479144,2.555,2.56068
-0.155372,-0.0479144,2.555,2.56017
-0.14708,-0.0479144,2.555,2.55968
-0.138787,-0.0479144,2.555,2.55922
-0.130494,-0.0479144,2.555,2.55878
-0.122201,-0.0479144,2.555,2.55837
-0.113908,-0.0479144,2.555,2.55799
-0.105615,-0.0479144,2.555,2.55763
-0.0980459,-0.0482707,2.574,2.57632
-0.0896914,-0.0482707,2.574,2.57601
-0.0813368,-0.0482707,2.574,2.57574
-0.0729822,-0.0482707,2.574,2.57549
-0.0646277,-0.0482707,2.574,2.57526
-0.0562731,-0.0482707,2.574,2.57507
-0.0479185,-0.0482707,2.574,2.5749
-0.039564,-0.0482707,2.574,2.57476
-0.0312094,-0.0482707,2.574,2.57464
-0.0230235,-0.048627,2.593,2.59356
-0.0146073,-0.048627,2.593,2.5935
-0.00619107,-0.048627,2.593,2.59346
0.00222516,-0.048627,2.593,2.59346
0.0106414,-0.048627,2.593,2.59348
0.0190576,-0.048627,2.593,2.59353
0.0272725,-0.0482707,2.574,2.5746
0.0356271,-0.0482707,2.574,2.5747
0.0439817,-0.0482707,2.574,2.57483
0.0523362,-0.0482707,2.574,2.57498
0.0602428,-0.0479144,2.555,2.55616
0.0685357,-0.0479144,2.555,2.55637
0.0768286,-0.0479144,2.555,2.5566
0.0851215,-0.0479144,2.555,2.55687
0.0934144,-0.0479144,2.555,2.55716
0.101707,-0.0479144,2.555,2.55747
0.11,-0.0479144,2.555,2.55782
0.118293,-0.0479144,2.555,2.55819
0.126586,-0.0479144,2.555,2.55858
0.134879,-0.0479144,2.555,2.55901
0.143172,-0.0479144,2.555,2.55946
0.152591,-0.0482707,2.574,2.57897
0.160946,-0.0482707,2.574,2.57948
0.1693,-0.0482707,2.574,2.58001
0.177655,-0.0482707,2.574,2.58058
0.186009,-0.0482707,2.574,2.58116
0.194364,-0.0482707,2.574,2.58178
0.202718,-0.0482707,2.574,2.58242
0.211073,-0.0482707,2.574,2.58309
0.219428,-0.0482707,2.574,2.58379
0.226101,-0.0479144,2.555,2.56543
0.234394,-0.0479144,2.555,2.56618
0.242687,-0.0479144,2.555,2.56695
0.250979,-0.0479144,2.555,2.56774
0.259272,-0.0479144,2.555,2.56857
0.265575,-0.047558,2.536,2.55031
0.273807,-0.047558,2.536,2.55118
0.282038,-0.047558,2.536,2.55208
0.290269,-0.047558,2.536,2.553
0.2985,-0.047558,2.536,2.55395
0.304434,-0.0472017,2.517,2.53578
0.312603,-0.0472017,2.517,2.53678
0.320773,-0.0472017,2.517,2.5378
0.328942,-0.0472017,2.517,2.53884
0.337112,-0.0472017,2.517,2.53991
0.345281,-0.0472017,2.517,2.54101
0.353451,-0.0472017,2.517,2.54213
nan,nan,nan,NaN
nan,nan,nan,NaN
nan,nan,nan,NaN
nan,nan,nan,NaN
nan,nan,nan,NaN
nan,nan,nan,NaN
nan,nan,nan,NaN
nan,nan,nan,NaN
nan,nan,nan,NaN
nan,nan,nan,NaN
nan,nan,nan,NaN
nan,nan,nan,NaN
nan,nan,nan,NaN
nan,nan,nan,NaN
nan,nan,nan,NaN
nan,nan,nan,NaN
nan,nan,nan,NaN
nan,nan,nan,NaN
nan,nan,nan,NaN
nan,nan,nan,NaN
nan,nan,nan,NaN
nan,nan,nan,NaN
nan,nan,nan,NaN
nan,nan,nan,NaN
0.570319,-0.0482707,2.574,2.63687
0.578674,-0.0482707,2.574,2.63869
0.587028,-0.0482707,2.574,2.64053
0.595383,-0.0482707,2.574,2.6424
0.603738,-0.0482707,2.574,2.6443
0.612092,-0.0482707,2.574,2.64622
0.620447,-0.0482707,2.574,2.64816
0.628801,-0.0482707,2.574,2.65013
0.641859,-0.048627,2.593,2.6717
0.650275,-0.048627,2.593,2.67374
0.658691,-0.048627,2.593,2.6758
0.662219,-0.0482707,2.574,2.65826
0.670574,-0.0482707,2.574,2.66035
0.678929,-0.0482707,2.574,2.66247
0.687283,-0.0482707,2.574,2.66461
0.695638,-0.0482707,2.574,2.66678
0.703992,-0.0482707,2.574,2.66897
0.712347,-0.0482707,2.574,2.67119
0.720701,-0.0482707,2.574,2.67343
0.729056,-0.0482707,2.574,2.67569
0.737411,-0.0482707,2.574,2.67798
0.745765,-0.0482707,2.574,2.68029
0.75412,-0.0482707,2.574,2.68263
0.756846,-0.0479144,2.555,2.66517
0.765139,-0.0479144,2.555,2.66754
0.779183,-0.0482707,2.574,2.68978
0.787538,-0.0482707,2.574,2.69222
0.795892,-0.0482707,2.574,2.69467
0.804247,-0.0482707,2.574,2.69715
0.812602,-0.0482707,2.574,2.69965
0.820956,-0.0482707,2.574,2.70218
0.829311,-0.0482707,2.574,2.70473
0.837665,-0.0482707,2.574,2.7073
0.84602,-0.0482707,2.574,2.7099
0.854374,-0.0482707,2.574,2.71252
0.862729,-0.0482707,2.574,2.71516
0.871084,-0.0482707,2.574,2.71783
0.879438,-0.0482707,2.574,2.72052
0.887793,-0.0482707,2.574,2.72323
0.889532,-0.0479144,2.555,2.70584
0.897825,-0.0479144,2.555,2.70858
0.906118,-0.0479144,2.555,2.71134
0.907611,-0.047558,2.536,2.69394
0.908981,-0.0472017,2.517,2.67652
0.910591,-0.0468642,2.499,2.66015
0.918703,-0.0468642,2.499,2.66293
0.920138,-0.0465266,2.481,2.64654
0.921457,-0.0461891,2.463,2.63013
0.929451,-0.0461891,2.463,2.63294
0.930594,-0.0458515,2.445,2.61651
0.925479,-0.0452139,2.411,2.58292
0.933304,-0.0452139,2.411,2.58573
0.94113,-0.0452139,2.411,2.58857
0.942264,-0.0448951,2.394,2.57315
0.950035,-0.0448951,2.394,2.57601
0.957805,-0.0448951,2.394,2.57888
0.965575,-0.0448951,2.394,2.58178
0.973346,-0.0448951,2.394,2.5847
0.981116,-0.0448951,2.394,2.58763
0.995908,-0.0452139,2.411,2.60898
1.01081,-0.0455327,2.428,2.6304
1.02582,-0.0458515,2.445,2.65188
1.03376,-0.0458515,2.445,2.65496
1.04937,-0.0461891,2.463,2.67762
1.07281,-0.0468642,2.499,2.71995
1.08093,-0.0468642,2.499,2.72316
1.09688,-0.0472017,2.517,2.74603
1.12173,-0.0479144,2.555,2.79081
1.13003,-0.0479144,2.555,2.79415
1.15525,-0.048627,2.593,2.83912
1.18162,-0.0493771,2.633,2.88641
1.19965,-0.0497709,2.654,2.91297
1.20827,-0.0497709,2.654,2.91652
1.22651,-0.0501647,2.675,2.94321
1.25459,-0.0509524,2.717,2.9931
1.26341,-0.0509524,2.717,2.99681
1.28253,-0.0513649,2.739,3.02484
1.30179,-0.0517775,2.761,3.05294
1.3212,-0.0521901,2.783,3.08113
1.33023,-0.0521901,2.783,3.08502
1.35033,-0.0526214,2.806,3.11445
1.37058,-0.0530527,2.829,3.14397
1.37976,-0.0530527,2.829,3.14798
1.40073,-0.0535028,2.853,3.17876
1.42185,-0.0539529,2.877,3.20963
1.43119,-0.0539529,2.877,3.21377
1.46506,-0.0548718,2.926,3.27275
1.48716,-0.0553406,2.951,3.30501
1.50992,-0.0558282,2.977,3.33849
1.51958,-0.0558282,2.977,3.34287
1.5426,-0.0563158,3.003,3.37651
1.58026,-0.0573284,3.057,3.44177
1.59019,-0.0573284,3.057,3.44634
1.61424,-0.0578348,3.084,3.4814
1.62425,-0.0578348,3.084,3.48606
1.63426,-0.0578348,3.084,3.49073
1.6592,-0.0583599,3.112,3.52716
1.68485,-0.0589037,3.141,3.56484
1.69505,-0.0589037,3.141,3.56967
1.70524,-0.0589037,3.141,3.57452
1.73128,-0.0594476,3.17,3.61244
1.74157,-0.0594476,3.17,3.61739
1.73583,-0.0589037,3.141,3.58921
1.74602,-0.0589037,3.141,3.59416
1.75622,-0.0589037,3.141,3.59912
1.76641,-0.0589037,3.141,3.6041
1.77661,-0.0589037,3.141,3.60911
1.7868,-0.0589037,3.141,3.61414
1.78041,-0.0583599,3.112,3.58578
1.79051,-0.0583599,3.112,3.5908
1.80061,-0.0583599,3.112,3.59585
1.81071,-0.0583599,3.112,3.60092
1.82081,-0.0583599,3.112,3.60601
1.84797,-0.0589037,3.141,3.64477
1.85817,-0.0589037,3.141,3.64995
1.86836,-0.0589037,3.141,3.65515
1.86121,-0.0583599,3.112,3.62658
1.87131,-0.0583599,3.112,3.63177
1.86449,-0.0578348,3.084,3.60426
1.8745,-0.0578348,3.084,3.60945
1.88451,-0.0578348,3.084,3.61466
1.87793,-0.0573284,3.057,3.5882
1.87118,-0.0568221,3.03,3.56166
1.88101,-0.0568221,3.03,3.56684
1.89085,-0.0568221,3.03,3.57204
1.86744,-0.0558282,2.977,3.51468
1.86071,-0.0553406,2.951,3.48908
1.87028,-0.0553406,2.951,3.4942
1.86394,-0.0548718,2.926,3.46969
1.84206,-0.0539529,2.877,3.41661
1.8514,-0.0539529,2.877,3.42165
1.82969,-0.0530527,2.829,3.36954
1.82392,-0.0526214,2.806,3.3471
1.83303,-0.0526214,2.806,3.35208
1.79815,-0.0513649,2.739,3.27691
1.76482,-0.0501647,2.675,3.20511
1.7735,-0.0501647,2.675,3.2099
1.7542,-0.0493771,2.633,3.16423
1.73597,-0.048627,2.593,3.12083
1.74439,-0.048627,2.593,3.12552
1.72711,-0.0479144,2.555,3.08436
1.7096,-0.0472017,2.517,3.04306
-1.93066,-0.0431597,2.783,3.38739
-1.92163,-0.0431597,2.783,3.38225
-1.9284,-0.0435164,2.806,3.40503
-1.91929,-0.0435164,2.806,3.39988
-1.91018,-0.0435164,2.806,3.39475
-1.90108,-0.0435164,2.806,3.38963
-1.89197,-0.0435164,2.806,3.38453
-1.89829,-0.0438731,2.829,3.40715
-1.88911,-0.0438731,2.829,3.40205
-1.87993,-0.0438731,2.829,3.39696
-1.87075,-0.0438731,2.829,3.39188
-1.87736,-0.0442453,2.853,3.41556
-1.8681,-0.0442453,2.853,3.41048
-1.85884,-0.0442453,2.853,3.40541
-1.86514,-0.0446175,2.877,3.42897
-1.8558,-0.0446175,2.877,3.4239
-1.84646,-0.0446175,2.877,3.41885
-1.85245,-0.0449897,2.901,3.44229
-1.84303,-0.0449897,2.901,3.43724
-1.83362,-0.0449897,2.901,3.4322
-1.8242,-0.0449897,2.901,3.42718
-1.83042,-0.0453774,2.926,3.45166
-1.83648,-0.0457651,2.951,3.47609
-1.82691,-0.0457651,2.951,3.47104
-1.81733,-0.0457651,2.951,3.466
-1.82368,-0.0461683,2.977,3.49148
-1.81401,-0.0461683,2.977,3.48645
-1.80435,-0.0461683,2.977,3.48143
-1.81036,-0.0465715,3.003,3.50679
-1.80062,-0.0465715,3.003,3.50177
-1.79087,-0.0465715,3.003,3.49677
-1.78112,-0.0465715,3.003,3.49179
-1.77138,-0.0465715,3.003,3.48683
-1.76163,-0.0465715,3.003,3.48188
-1.75188,-0.0465715,3.003,3.47696
-1.74213,-0.0465715,3.003,3.47206
-1.73239,-0.0465715,3.003,3.46718
-1.72264,-0.0465715,3.003,3.46232
-1.71289,-0.0465715,3.003,3.45748
-1.70315,-0.0465715,3.003,3.45266
-1.6934,-0.0465715,3.003,3.44787
-1.68365,-0.0465715,3.003,3.44309
nan,nan,nan,NaN
nan,nan,nan,NaN
-1.61199,-0.0453774,2.926,3.34097
-1.60249,-0.0453774,2.926,3.33639
-1.593,-0.0453774,2.926,3.33184
-1.5835,-0.0453774,2.926,3.32731
-1.574,-0.0453774,2.926,3.3228
-1.56451,-0.0453774,2.926,3.31831
-1.55501,-0.0453774,2.926,3.31385
-1.54551,-0.0453774,2.926,3.3094
-1.53601,-0.0453774,2.926,3.30498
-1.52652,-0.0453774,2.926,3.30057
-1.50406,-0.0449897,2.901,3.26803
-1.49464,-0.0449897,2.901,3.26371
-1.48523,-0.0449897,2.901,3.25941
-1.45139,-0.0442453,2.853,3.20127
-1.44213,-0.0442453,2.853,3.19708
-1.39772,-0.0431597,2.783,3.11457
-1.35575,-0.0421361,2.717,3.03676
-1.34693,-0.0421361,2.717,3.03284
-1.31743,-0.0414848,2.675,2.98211
-1.2882,-0.0408334,2.633,2.93152
-1.27965,-0.0408334,2.633,2.92777
-1.25179,-0.0402131,2.593,2.87963
-1.22516,-0.0396238,2.555,2.83383
-1.21686,-0.0396238,2.555,2.83026
-1.18208,-0.0387553,2.499,2.76475
-1.15706,-0.038197,2.463,2.72151
-1.14067,-0.0379179,2.445,2.69826
-1.13273,-0.0379179,2.445,2.69491
-1.11697,-0.0376542,2.428,2.67287
-1.10133,-0.0373906,2.411,2.65089
-1.0935,-0.0373906,2.411,2.64765
-1.08568,-0.0373906,2.411,2.64443
-1.07785,-0.0373906,2.411,2.64123
-1.07003,-0.0373906,2.411,2.63804
-1.05471,-0.037127,2.394,2.6163
-1.04694,-0.037127,2.394,2.61318
-1.03917,-0.037127,2.394,2.61007
-1.0314,-0.037127,2.394,2.60699
-1.02363,-0.037127,2.394,2.60393
-1.01586,-0.037127,2.394,2.60088
-1.00809,-0.037127,2.394,2.59786
-1.00032,-0.037127,2.394,2.59485
-0.992548,-0.037127,2.394,2.59187
-0.984778,-0.037127,2.394,2.5889
-0.977007,-0.037127,2.394,2.58595
-0.969237,-0.037127,2.394,2.58303
-0.961466,-0.037127,2.394,2.58012
-0.953696,-0.037127,2.394,2.57724
-0.952643,-0.0373906,2.411,2.59265
-0.944817,-0.0373906,2.411,2.58979
-0.936992,-0.0373906,2.411,2.58694
-0.929166,-0.0373906,2.411,2.58412
-0.921341,-0.0373906,2.411,2.58132
-0.913515,-0.0373906,2.411,2.57853
-0.90569,-0.0373906,2.411,2.57577
-0.897864,-0.0373906,2.411,2.57303
-0.896315,-0.0376542,2.428,2.58843
-0.888434,-0.0376542,2.428,2.58571
-0.874388,-0.0373906,2.411,2.56493
-0.866562,-0.0373906,2.411,2.56227
-0.864792,-0.0376542,2.428,2.57769
-0.856911,-0.0376542,2.428,2.57505
-0.84903,-0.0376542,2.428,2.57244
-0.84115,-0.0376542,2.428,2.56985
-0.833269,-0.0376542,2.428,2.56728
-0.825388,-0.0376542,2.428,2.56474
-0.817508,-0.0376542,2.428,2.56221
-0.809627,-0.0376542,2.428,2.55971
-0.801746,-0.0376542,2.428,2.55722
-0.793866,-0.0376542,2.428,2.55477
-0.791488,-0.0379179,2.445,2.5702
-0.783552,-0.0379179,2.445,2.56776
-0.775616,-0.0379179,2.445,2.56535
-0.767681,-0.0379179,2.445,2.56297
-0.759745,-0.0379179,2.445,2.5606
-0.751809,-0.0379179,2.445,2.55826
-0.743873,-0.0379179,2.445,2.55594
-0.735937,-0.0379179,2.445,2.55364
-0.728001,-0.0379179,2.445,2.55136
-0.720065,-0.0379179,2.445,2.54911
-0.712129,-0.0379179,2.445,2.54688
-0.704194,-0.0379179,2.445,2.54467
-0.696258,-0.0379179,2.445,2.54249
-0.693389,-0.038197,2.463,2.55903
-0.685395,-0.038197,2.463,2.55687
-0.677401,-0.038197,2.463,2.55474
-0.669406,-0.038197,2.463,2.55263
-0.661412,-0.038197,2.463,2.55055
-0.658193,-0.0384762,2.481,2.56711
-0.65014,-0.0384762,2.481,2.56506
-0.642088,-0.0384762,2.481,2.56303
-0.634035,-0.0384762,2.481,2.56102
-0.625982,-0.0384762,2.481,2.55904
-0.622413,-0.0387553,2.499,2.57564
-0.614302,-0.0387553,2.499,2.57369
-0.606191,-0.0387553,2.499,2.57176
-0.598079,-0.0387553,2.499,2.56986
-0.589968,-0.0387553,2.499,2.56799
-0.581857,-0.0387553,2.499,2.56614
-0.577879,-0.0390345,2.517,2.58278
-0.569709,-0.0390345,2.517,2.58097
-0.561539,-0.0390345,2.517,2.57917
-0.55337,-0.0390345,2.517,2.57741
-0.549316,-0.0393291,2.536,2.59511
-0.541085,-0.0393291,2.536,2.59338
-0.528861,-0.0390345,2.517,2.57226
-0.520692,-0.0390345,2.517,2.57059
-0.512522,-0.0390345,2.517,2.56895
-0.50816,-0.0393291,2.536,2.58671
-0.499929,-0.0393291,2.536,2.58511
-0.491697,-0.0393291,2.536,2.58353
-0.479844,-0.0390345,2.517,2.56263
-0.471674,-0.0390345,2.517,2.56111
-0.463505,-0.0390345,2.517,2.55962
-0.455335,-0.0390345,2.517,2.55815
-0.447166,-0.0390345,2.517,2.55671
-0.438996,-0.0390345,2.517,2.55529
-0.430827,-0.0390345,2.517,2.5539
-0.422657,-0.0390345,2.517,2.55254
-0.414487,-0.0390345,2.517,2.5512
-0.406318,-0.0390345,2.517,2.54988
-0.398148,-0.0390345,2.517,2.54859
-0.389979,-0.0390345,2.517,2.54733
-0.381809,-0.0390345,2.517,2.54609
-0.37364,-0.0390345,2.517,2.54488
-0.36547,-0.0390345,2.517,2.54369
-0.359998,-0.0393291,2.536,2.56173
-0.351766,-0.0393291,2.536,2.56058
-0.340961,-0.0390345,2.517,2.54029
-0.332792,-0.0390345,2.517,2.53921
-0.324622,-0.0390345,2.517,2.53815
-0.316453,-0.0390345,2.517,2.53712
-0.31061,-0.0393291,2.536,2.55525
-0.302379,-0.0393291,2.536,2.55427
-0.294148,-0.0393291,2.536,2.5533
-0.285917,-0.0393291,2.536,2.55237
-0.277685,-0.0393291,2.536,2.55146
-0.269454,-0.0393291,2.536,2.55058
-0.259266,-0.0390345,2.517,2.53062
-0.251096,-0.0390345,2.517,2.52979
-0.242927,-0.0390345,2.517,2.529
-0.236529,-0.0393291,2.536,2.54731
-0.228298,-0.0393291,2.536,2.54656
-0.220067,-0.0393291,2.536,2.54583
-0.211836,-0.0393291,2.536,2.54514
-0.203604,-0.0393291,2.536,2.54446
-0.195373,-0.0393291,2.536,2.54382
-0.187142,-0.0393291,2.536,2.5432
-0.178911,-0.0393291,2.536,2.54261
-0.171958,-0.0396238,2.555,2.56109
-0.163665,-0.0396238,2.555,2.56054
-0.155372,-0.0396238,2.555,2.56003
-0.14708,-0.0396238,2.555,2.55954
-0.138787,-0.0396238,2.555,2.55907
-0.130494,-0.0396238,2.555,2.55864
-0.122201,-0.0396238,2.555,2.55823
-0.113908,-0.0396238,2.555,2.55784
-0.105615,-0.0396238,2.555,2.55749
-0.0980459,-0.0399185,2.574,2.57618
-0.0890293,-0.0396238,2.555,2.55686
-0.0807364,-0.0396238,2.555,2.55658
-0.0729822,-0.0399185,2.574,2.57534
-0.0646277,-0.0399185,2.574,2.57512
-0.0562731,-0.0399185,2.574,2.57492
-0.0479185,-0.0399185,2.574,2.57476
-0.039564,-0.0399185,2.574,2.57461
-0.0312094,-0.0399185,2.574,2.5745
-0.0230235,-0.0402131,2.593,2.59341
-0.0146073,-0.0402131,2.593,2.59335
-0.00619107,-0.0402131,2.593,2.59332
0.00220886,-0.0399185,2.574,2.57431
0.0105634,-0.0399185,2.574,2.57433
0.018918,-0.0399185,2.574,2.57438
0.0272725,-0.0399185,2.574,2.57445
0.0356271,-0.0399185,2.574,2.57456
0.0439817,-0.0399185,2.574,2.57469
0.0519499,-0.0396238,2.555,2.55584
0.0602428,-0.0396238,2.555,2.55602
0.0685357,-0.0396238,2.555,2.55623
0.0768286,-0.0396238,2.555,2.55646
0.0851215,-0.0396238,2.555,2.55672
0.0934144,-0.0396238,2.555,2.55701
0.101707,-0.0396238,2.555,2.55733
0.11,-0.0396238,2.555,2.55767
0.118293,-0.0396238,2.555,2.55804
0.126586,-0.0396238,2.555,2.55844
0.134879,-0.0396238,2.555,2.55886
0.143172,-0.0396238,2.555,2.55931
0.151465,-0.0396238,2.555,2.55979
0.159758,-0.0396238,2.555,2.5603
0.1693,-0.0399185,2.574,2.57987
0.177655,-0.0399185,2.574,2.58043
0.186009,-0.0399185,2.574,2.58102
0.194364,-0.0399185,2.574,2.58164
0.201222,-0.0396238,2.555,2.56322
0.209515,-0.0396238,2.555,2.56388
0.217808,-0.0396238,2.555,2.56457
0.226101,-0.0396238,2.555,2.56529
0.234394,-0.0396238,2.555,2.56604
0.242687,-0.0396238,2.555,2.56681
0.249113,-0.0393291,2.536,2.54851
0.257344,-0.0393291,2.536,2.54933
0.263586,-0.0390345,2.517,2.53107
0.271755,-0.0390345,2.517,2.53193
0.279925,-0.0390345,2.517,2.53282
0.288094,-0.0390345,2.517,2.53373
0.296264,-0.0390345,2.517,2.53468
0.304434,-0.0390345,2.517,2.53564
0.312603,-0.0390345,2.517,2.53664
0.320773,-0.0390345,2.517,2.53766
0.328942,-0.0390345,2.517,2.5387
0.337112,-0.0390345,2.517,2.53978
0.345281,-0.0390345,2.517,2.54087
nan,nan,nan,NaN
nan,nan,nan,NaN
nan,nan,nan,NaN
nan,nan,nan,NaN
nan,nan,nan,NaN
nan,nan,nan,NaN
nan,nan,nan,NaN
nan,nan,nan,NaN
nan,nan,nan,NaN
nan,nan,nan,NaN
nan,nan,nan,NaN
nan,nan,nan,NaN
nan,nan,nan,NaN
nan,nan,nan,NaN
nan,nan,nan,NaN
nan,nan,nan,NaN
nan,nan,nan,NaN
nan,nan,nan,NaN
nan,nan,nan,NaN
nan,nan,nan,NaN
nan,nan,nan,NaN
nan,nan,nan,NaN
nan,nan,nan,NaN
nan,nan,nan,NaN
nan,nan,nan,NaN
nan,nan,nan,NaN
0.582945,-0.0402131,2.593,2.65802
0.591362,-0.0402131,2.593,2.65988
0.599778,-0.0402131,2.593,2.66177
0.603738,-0.0399185,2.574,2.64416
0.612092,-0.0399185,2.574,2.64608
0.625027,-0.0402131,2.593,2.66757
0.633443,-0.0402131,2.593,2.66955
0.641859,-0.0402131,2.593,2.67156
0.650275,-0.0402131,2.593,2.6736
0.658691,-0.0402131,2.593,2.67566
0.662219,-0.0399185,2.574,2.65812
0.670574,-0.0399185,2.574,2.66021
0.678929,-0.0399185,2.574,2.66233
0.687283,-0.0399185,2.574,2.66448
0.695638,-0.0399185,2.574,2.66664
0.703992,-0.0399185,2.574,2.66883
0.712347,-0.0399185,2.574,2.67105
0.720701,-0.0399185,2.574,2.67329
0.729056,-0.0399185,2.574,2.67555
0.737411,-0.0399185,2.574,2.67784
0.745765,-0.0399185,2.574,2.68016
0.75412,-0.0399185,2.574,2.68249
0.756846,-0.0396238,2.555,2.66504
0.765139,-0.0396238,2.555,2.6674
0.773432,-0.0396238,2.555,2.66979
0.781725,-0.0396238,2.555,2.67221
0.795892,-0.0399185,2.574,2.69453
0.804247,-0.0399185,2.574,2.69701
0.812602,-0.0399185,2.574,2.69952
0.820956,-0.0399185,2.574,2.70204
0.829311,-0.0399185,2.574,2.70459
0.837665,-0.0399185,2.574,2.70717
0.84602,-0.0399185,2.574,2.70976
0.854374,-0.0399185,2.574,2.71238
0.862729,-0.0399185,2.574,2.71503
0.871084,-0.0399185,2.574,2.71769
0.879438,-0.0399185,2.574,2.72038
0.887793,-0.0399185,2.574,2.72309
0.889532,-0.0396238,2.555,2.70571
0.897825,-0.0396238,2.555,2.70845
0.906118,-0.0396238,2.555,2.71121
0.907611,-0.0393291,2.536,2.69381
0.908981,-0.0390345,2.517,2.67639
0.910591,-0.0387553,2.499,2.66002
0.918703,-0.0387553,2.499,2.6628
0.920138,-0.0384762,2.481,2.64641
0.921457,-0.038197,2.463,2.63
0.929451,-0.038197,2.463,2.63281
0.930594,-0.0379179,2.445,2.61638
0.932004,-0.0376542,2.428,2.60101
0.939885,-0.0376542,2.428,2.60384
0.94113,-0.0373906,2.411,2.58844
0.942264,-0.037127,2.394,2.57303
0.950035,-0.037127,2.394,2.57588
0.957805,-0.037127,2.394,2.57876
0.965575,-0.037127,2.394,2.58166
0.973346,-0.037127,2.394,2.58457
0.981116,-0.037127,2.394,2.58751
0.995908,-0.0373906,2.411,2.60886
1.01081,-0.0376542,2.428,2.63027
1.02582,-0.0379179,2.445,2.65175
1.03376,-0.0379179,2.445,2.65483
1.04937,-0.038197,2.463,2.6775
1.07281,-0.0387553,2.499,2.71982
1.08093,-0.0387553,2.499,2.72303
1.09688,-0.0390345,2.517,2.7459
1.12173,-0.0396238,2.555,2.79068
1.14683,-0.0402131,2.593,2.83558
1.15525,-0.0402131,2.593,2.83899
1.18162,-0.0408334,2.633,2.88627
1.19965,-0.0411591,2.654,2.91283
1.20827,-0.0411591,2.654,2.91639
1.22651,-0.0414848,2.675,2.94307
1.25459,-0.0421361,2.717,2.99297
1.26341,-0.0421361,2.717,2.99668
1.28253,-0.0424773,2.739,3.0247
1.30179,-0.0428185,2.761,3.0528
1.3212,-0.0431597,2.783,3.08099
1.33023,-0.0431597,2.783,3.08488
1.35033,-0.0435164,2.806,3.11431
1.37058,-0.0438731,2.829,3.14383
1.37976,-0.0438731,2.829,3.14784
1.40073,-0.0442453,2.853,3.17862
1.42185,-0.0446175,2.877,3.20948
1.43119,-0.0446175,2.877,3.21363
1.46506,-0.0453774,2.926,3.2726
1.48716,-0.0457651,2.951,3.30486
1.50992,-0.0461683,2.977,3.33834
1.51958,-0.0461683,2.977,3.34272
1.5426,-0.0465715,3.003,3.37636
1.58026,-0.047409,3.057,3.44162
1.59019,-0.047409,3.057,3.44618
1.61424,-0.0478277,3.084,3.48125
1.62425,-0.0478277,3.084,3.4859
1.63426,-0.0478277,3.084,3.49058
1.6592,-0.0482619,3.112,3.52701
1.68485,-0.0487117,3.141,3.56469
1.69505,-0.0487117,3.141,3.56952
1.70524,-0.0487117,3.141,3.57437
1.73128,-0.0491614,3.17,3.61229
1.74157,-0.0491614,3.17,3.61723
1.73583,-0.0487117,3.141,3.58906
1.7299,-0.0482619,3.112,3.56082
1.74,-0.0482619,3.112,3.56574
1.75011,-0.0482619,3.112,3.57068
1.76021,-0.0482619,3.112,3.57564
1.77031,-0.0482619,3.112,3.58062
1.76439,-0.0478277,3.084,3.55337
1.7744,-0.0478277,3.084,3.55835
1.78441,-0.0478277,3.084,3.56335
1.79442,-0.0478277,3.084,3.56837
1.80443,-0.0478277,3.084,3.57342
1.81444,-0.0478277,3.084,3.57848
1.82445,-0.0478277,3.084,3.58357
1.83446,-0.0478277,3.084,3.58867
1.84447,-0.0478277,3.084,3.5938
1.85448,-0.0478277,3.084,3.59895
1.86449,-0.0478277,3.084,3.60412
1.85809,-0.047409,3.057,3.57771
1.86801,-0.047409,3.057,3.58287
1.87793,-0.047409,3.057,3.58805
1.87118,-0.0469903,3.03,3.56152
1.88101,-0.0469903,3.03,3.5667
1.874,-0.0465715,3.003,3.54006
1.86744,-0.0461683,2.977,3.51454
1.86071,-0.0457651,2.951,3.48894
1.87028,-0.0457651,2.951,3.49406
1.86394,-0.0453774,2.926,3.46955
1.84206,-0.0446175,2.877,3.41648
1.8514,-0.0446175,2.877,3.42152
1.82969,-0.0438731,2.829,3.36941
1.80897,-0.0431597,2.783,3.31954
1.81801,-0.0431597,2.783,3.32447
1.79815,-0.0424773,2.739,3.27678
1.76482,-0.0414848,2.675,3.20499
1.7735,-0.0414848,2.675,3.20978
1.7542,-0.0408334,2.633,3.16411
1.73597,-0.0402131,2.593,3.12071
1.74439,-0.0402131,2.593,3.1254
1.72711,-0.0396238,2.555,3.08424
1.7096,-0.0390345,2.517,3.04295
-1.93066,-0.0341293,2.783,3.38728
-1.92163,-0.0341293,2.783,3.38214
-1.91259,-0.0341293,2.783,3.37702
-1.90356,-0.0341293,2.783,3.37191
-1.89453,-0.0341293,2.783,3.36682
-1.90108,-0.0344114,2.806,3.38953
-1.89197,-0.0344114,2.806,3.38443
-1.88286,-0.0344114,2.806,3.37935
-1.87375,-0.0344114,2.806,3.37428
-1.86465,-0.0344114,2.806,3.36923
-1.87075,-0.0346934,2.829,3.39178
-1.86157,-0.0346934,2.829,3.38672
-1.85238,-0.0346934,2.829,3.38168
-1.8432,-0.0346934,2.829,3.37666
-1.84958,-0.0349878,2.853,3.40026
-1.84032,-0.0349878,2.853,3.39523
-1.83106,-0.0349878,2.853,3.39022
-1.83712,-0.0352821,2.877,3.41371
-1.82778,-0.0352821,2.877,3.40869
-1.81845,-0.0352821,2.877,3.40369
-1.80911,-0.0352821,2.877,3.39871
-1.81478,-0.0355764,2.901,3.42206
-1.82093,-0.035883,2.926,3.44653
-1.81143,-0.035883,2.926,3.44152
-1.80193,-0.035883,2.926,3.43653
-1.79244,-0.035883,2.926,3.43156
-1.78294,-0.035883,2.926,3.42661
-1.78859,-0.0361896,2.951,3.45091
-1.77902,-0.0361896,2.951,3.44596
-1.76944,-0.0361896,2.951,3.44102
-1.75986,-0.0361896,2.951,3.4361
-1.7657,-0.0365084,2.977,3.46144
-1.75604,-0.0365084,2.977,3.45652
-1.73112,-0.0361896,2.951,3.42148
-1.72155,-0.0361896,2.951,3.41664
-1.71197,-0.0361896,2.951,3.41182
-1.70239,-0.0361896,2.951,3.40703
-1.70773,-0.0365084,2.977,3.43223
-1.69806,-0.0365084,2.977,3.42743
-1.6884,-0.0365084,2.977,3.42265
-1.66408,-0.0361896,2.951,3.38805
-1.6545,-0.0361896,2.951,3.38335
-1.64492,-0.0361896,2.951,3.37868
-1.62149,-0.035883,2.926,3.34544
-1.59822,-0.0355764,2.901,3.31231
-1.5888,-0.0355764,2.901,3.30777
-1.57939,-0.0355764,2.901,3.30326
-1.56997,-0.0355764,2.901,3.29877
-1.574,-0.035883,2.926,3.32269
-1.56451,-0.035883,2.926,3.3182
-1.54172,-0.0355764,2.901,3.28542
-1.53231,-0.0355764,2.901,3.28101
-1.52289,-0.0355764,2.901,3.27662
-1.50095,-0.0352821,2.877,3.24519
-1.49162,-0.0352821,2.877,3.24088
-1.48228,-0.0352821,2.877,3.23659
-1.46065,-0.0349878,2.853,3.20536
-1.43918,-0.0346934,2.829,3.17422
-1.43,-0.0346934,2.829,3.17007
-1.39772,-0.0341293,2.783,3.11446
-1.35575,-0.0333199,2.717,3.03665
-1.34693,-0.0333199,2.717,3.03273
-1.31743,-0.0328049,2.675,2.982
-1.2882,-0.0322898,2.633,2.93141
-1.27965,-0.0322898,2.633,2.92767
-1.25179,-0.0317992,2.593,2.87952
-1.22516,-0.0313332,2.555,2.83373
-1.21686,-0.0313332,2.555,2.83015
-1.18208,-0.0306465,2.499,2.76464
-1.15706,-0.030205,2.463,2.72141
-1.14067,-0.0299843,2.445,2.69816
-1.13273,-0.0299843,2.445,2.69481
-1.11697,-0.0297758,2.428,2.67277
-1.10133,-0.0295673,2.411,2.6508
-1.0935,-0.0295673,2.411,2.64755
-1.08568,-0.0295673,2.411,2.64433
-1.07785,-0.0295673,2.411,2.64113
-1.07003,-0.0295673,2.411,2.63794
-1.05471,-0.0293588,2.394,2.6162
-1.04694,-0.0293588,2.394,2.61308
-1.03917,-0.0293588,2.394,2.60998
-1.0314,-0.0293588,2.394,2.60689
-1.02363,-0.0293588,2.394,2.60383
-1.01586,-0.0293588,2.394,2.60078
-1.00809,-0.0293588,2.394,2.59776
-1.00032,-0.0293588,2.394,2.59475
-0.992548,-0.0293588,2.394,2.59177
-0.984778,-0.0293588,2.394,2.5888
-0.977007,-0.0293588,2.394,2.58585
-0.969237,-0.0293588,2.394,2.58293
-0.961466,-0.0293588,2.394,2.58002
-0.953696,-0.0293588,2.394,2.57714
-0.952643,-0.0295673,2.411,2.59255
-0.944817,-0.0295673,2.411,2.58969
-0.936992,-0.0295673,2.411,2.58684
-0.929166,-0.0295673,2.411,2.58402
-0.921341,-0.0295673,2.411,2.58121
-0.913515,-0.0295673,2.411,2.57843
-0.90569,-0.0295673,2.411,2.57567
-0.897864,-0.0295673,2.411,2.57293
-0.896315,-0.0297758,2.428,2.58833
-0.888434,-0.0297758,2.428,2.58561
-0.874388,-0.0295673,2.411,2.56483
-0.866562,-0.0295673,2.411,2.56217
-0.864792,-0.0297758,2.428,2.57758
-0.856911,-0.0297758,2.428,2.57495
-0.84903,-0.0297758,2.428,2.57234
-0.84115,-0.0297758,2.428,2.56975
-0.833269,-0.0297758,2.428,2.56718
-0.825388,-0.0297758,2.428,2.56463
-0.817508,-0.0297758,2.428,2.56211
-0.809627,-0.0297758,2.428,2.5596
-0.801746,-0.0297758,2.428,2.55712
-0.793866,-0.0297758,2.428,2.55466
-0.791488,-0.0299843,2.445,2.57009
-0.783552,-0.0299843,2.445,2.56766
-0.775616,-0.0299843,2.445,2.56525
-0.767681,-0.0299843,2.445,2.56286
-0.759745,-0.0299843,2.445,2.5605
-0.751809,-0.0299843,2.445,2.55815
-0.743873,-0.0299843,2.445,2.55583
-0.735937,-0.0299843,2.445,2.55353
-0.728001,-0.0299843,2.445,2.55126
-0.720065,-0.0299843,2.445,2.549
-0.712129,-0.0299843,2.445,2.54677
-0.704194,-0.0299843,2.445,2.54457
-0.696258,-0.0299843,2.445,2.54238
-0.693389,-0.030205,2.463,2.55892
-0.685395,-0.030205,2.463,2.55677
-0.677401,-0.030205,2.463,2.55463
-0.669406,-0.030205,2.463,2.55253
-0.661412,-0.030205,2.463,2.55044
-0.658193,-0.0304257,2.481,2.567
-0.65014,-0.0304257,2.481,2.56495
-0.642088,-0.0304257,2.481,2.56292
-0.634035,-0.0304257,2.481,2.56092
-0.625982,-0.0304257,2.481,2.55893
-0.622413,-0.0306465,2.499,2.57553
-0.614302,-0.0306465,2.499,2.57358
-0.606191,-0.0306465,2.499,2.57165
-0.598079,-0.0306465,2.499,2.56975
-0.589968,-0.0306465,2.499,2.56788
-0.581857,-0.0306465,2.499,2.56603
-0.577879,-0.0308672,2.517,2.58267
-0.569709,-0.0308672,2.517,2.58085
-0.561539,-0.0308672,2.517,2.57906
-0.55337,-0.0308672,2.517,2.5773
-0.549316,-0.0311002,2.536,2.595
-0.541085,-0.0311002,2.536,2.59327
-0.528861,-0.0308672,2.517,2.57215
-0.520692,-0.0308672,2.517,2.57048
-0.512522,-0.0308672,2.517,2.56884
-0.50816,-0.0311002,2.536,2.5866
-0.499929,-0.0311002,2.536,2.58499
-0.491697,-0.0311002,2.536,2.58341
-0.479844,-0.0308672,2.517,2.56252
-0.471674,-0.0308672,2.517,2.561
-0.463505,-0.0308672,2.517,2.55951
-0.455335,-0.0308672,2.517,2.55804
-0.447166,-0.0308672,2.517,2.5566
-0.438996,-0.0308672,2.517,2.55518
-0.430827,-0.0308672,2.517,2.55379
-0.422657,-0.0308672,2.517,2.55243
-0.414487,-0.0308672,2.517,2.55109
-0.406318,-0.0308672,2.517,2.54977
-0.398148,-0.0308672,2.517,2.54848
-0.389979,-0.0308672,2.517,2.54722
-0.381809,-0.0308672,2.517,2.54598
-0.37364,-0.0308672,2.517,2.54477
-0.36547,-0.0308672,2.517,2.54358
-0.357301,-0.0308672,2.517,2.54242
-0.349131,-0.0308672,2.517,2.54129
-0.340961,-0.0308672,2.517,2.54018
-0.332792,-0.0308672,2.517,2.53909
-0.324622,-0.0308672,2.517,2.53804
-0.316453,-0.0308672,2.517,2.537
-0.308283,-0.0308672,2.517,2.536
-0.300114,-0.0308672,2.517,2.53502
-0.291944,-0.0308672,2.517,2.53406
-0.285917,-0.0311002,2.536,2.55226
-0.277685,-0.0311002,2.536,2.55135
-0.269454,-0.0311002,2.536,2.55046
-0.261223,-0.0311002,2.536,2.54961
-0.252992,-0.0311002,2.536,2.54878
-0.244761,-0.0311002,2.536,2.54797
-0.236529,-0.0311002,2.536,2.5472
-0.228298,-0.0311002,2.536,2.54645
-0.220067,-0.0311002,2.536,2.54572
-0.211836,-0.0311002,2.536,2.54502
-0.203604,-0.0311002,2.536,2.54435
-0.195373,-0.0311002,2.536,2.5437
-0.187142,-0.0311002,2.536,2.54309
-0.180251,-0.0313332,2.555,2.56154
-0.171958,-0.0313332,2.555,2.56097
-0.163665,-0.0313332,2.555,2.56043
-0.156528,-0.0315662,2.574,2.57895
-0.148173,-0.0315662,2.574,2.57845
-0.138787,-0.0313332,2.555,2.55896
-0.130494,-0.0313332,2.555,2.55852
-0.122201,-0.0313332,2.555,2.55811
-0.113908,-0.0313332,2.555,2.55773
-0.105615,-0.0313332,2.555,2.55737
-0.0980459,-0.0315662,2.574,2.57606
-0.0890293,-0.0313332,2.555,2.55674
-0.0807364,-0.0313332,2.555,2.55647
-0.0724435,-0.0313332,2.555,2.55622
-0.0646277,-0.0315662,2.574,2.575
-0.0562731,-0.0315662,2.574,2.57481
-0.0479185,-0.0315662,2.574,2.57464
-0.039564,-0.0315662,2.574,2.5745
-0.0312094,-0.0315662,2.574,2.57438
-0.0228548,-0.0315662,2.574,2.5743
-0.0145003,-0.0315662,2.574,2.57423
-0.00614571,-0.0315662,2.574,2.5742
0.00220886,-0.0315662,2.574,2.57419
0.0105634,-0.0315662,2.574,2.57422
0.018918,-0.0315662,2.574,2.57426
0.0272725,-0.0315662,2.574,2.57434
0.0353641,-0.0313332,2.555,2.55544
0.043657,-0.0313332,2.555,2.55557
0.0519499,-0.0313332,2.555,2.55572
0.0602428,-0.0313332,2.555,2.5559
0.0685357,-0.0313332,2.555,2.55611
0.0768286,-0.0313332,2.555,2.55635
0.0851215,-0.0313332,2.555,2.55661
0.0934144,-0.0313332,2.555,2.5569
0.100951,-0.0311002,2.536,2.5382
0.109182,-0.0311002,2.536,2.53854
0.118293,-0.0313332,2.555,2.55793
0.126586,-0.0313332,2.555,2.55833
0.134879,-0.0313332,2.555,2.55875
0.143172,-0.0313332,2.555,2.5592
0.151465,-0.0313332,2.555,2.55968
0.159758,-0.0313332,2.555,2.56018
0.1693,-0.0315662,2.574,2.57976
0.177655,-0.0315662,2.574,2.58032
0.184636,-0.0313332,2.555,2.56185
0.192929,-0.0313332,2.555,2.56247
0.201222,-0.0313332,2.555,2.5631
0.209515,-0.0313332,2.555,2.56377
0.217808,-0.0313332,2.555,2.56446
0.226101,-0.0313332,2.555,2.56518
0.234394,-0.0313332,2.555,2.56592
0.242687,-0.0313332,2.555,2.56669
0.247247,-0.0308672,2.517,2.5293
0.255416,-0.0308672,2.517,2.53011
0.263586,-0.0308672,2.517,2.53095
0.271755,-0.0308672,2.517,2.53182
0.279925,-0.0308672,2.517,2.53271
0.288094,-0.0308672,2.517,2.53362
0.296264,-0.0308672,2.517,2.53456
0.304434,-0.0308672,2.517,2.53553
0.312603,-0.0308672,2.517,2.53653
0.320773,-0.0308672,2.517,2.53755
0.328942,-0.0308672,2.517,2.53859
nan,nan,nan,NaN
nan,nan,nan,NaN
nan,nan,nan,NaN
nan,nan,nan,NaN
nan,nan,nan,NaN
nan,nan,nan,NaN
nan,nan,nan,NaN
nan,nan,nan,NaN
nan,nan,nan,NaN
nan,nan,nan,NaN
nan,nan,nan,NaN
nan,nan,nan,NaN
nan,nan,nan,NaN
nan,nan,nan,NaN
nan,nan,nan,NaN
nan,nan,nan,NaN
nan,nan,nan,NaN
nan,nan,nan,NaN
nan,nan,nan,NaN
nan,nan,nan,NaN
nan,nan,nan,NaN
nan,nan,nan,NaN
nan,nan,nan,NaN
nan,nan,nan,NaN
nan,nan,nan,NaN
nan,nan,nan,NaN
nan,nan,nan,NaN
nan,nan,nan,NaN
nan,nan,nan,NaN
nan,nan,nan,NaN
nan,nan,nan,NaN
0.603738,-0.0315662,2.574,2.64404
0.612092,-0.0315662,2.574,2.64596
nan,nan,nan,NaN
nan,nan,nan,NaN
nan,nan,nan,NaN
nan,nan,nan,NaN
0.658691,-0.0317992,2.593,2.67554
0.662219,-0.0315662,2.574,2.65801
0.670574,-0.0315662,2.574,2.6601
0.678929,-0.0315662,2.574,2.66222
0.687283,-0.0315662,2.574,2.66436
0.695638,-0.0315662,2.574,2.66653
0.703992,-0.0315662,2.574,2.66872
0.712347,-0.0315662,2.574,2.67094
0.720701,-0.0315662,2.574,2.67318
0.729056,-0.0315662,2.574,2.67544
0.737411,-0.0315662,2.574,2.67773
0.745765,-0.0315662,2.574,2.68004
0.75412,-0.0315662,2.574,2.68238
0.756846,-0.0313332,2.555,2.66492
0.765139,-0.0313332,2.555,2.66729
0.773432,-0.0313332,2.555,2.66968
0.781725,-0.0313332,2.555,2.6721
0.790018,-0.0313332,2.555,2.67453
0.798311,-0.0313332,2.555,2.677
0.806603,-0.0313332,2.555,2.67948
0.814896,-0.0313332,2.555,2.68199
0.829311,-0.0315662,2.574,2.70448
0.837665,-0.0315662,2.574,2.70706
0.84602,-0.0315662,2.574,2.70965
0.854374,-0.0315662,2.574,2.71227
0.862729,-0.0315662,2.574,2.71492
0.871084,-0.0315662,2.574,2.71758
0.872947,-0.0313332,2.555,2.70019
0.881239,-0.0313332,2.555,2.70289
0.889532,-0.0313332,2.555,2.7056
0.897825,-0.0313332,2.555,2.70834
0.906118,-0.0313332,2.555,2.7111
0.907611,-0.0311002,2.536,2.6937
0.908981,-0.0308672,2.517,2.67628
0.910591,-0.0306465,2.499,2.65991
0.918703,-0.0306465,2.499,2.6627
0.920138,-0.0304257,2.481,2.64631
0.921457,-0.030205,2.463,2.6299
0.929451,-0.030205,2.463,2.63271
0.930594,-0.0299843,2.445,2.61628
0.932004,-0.0297758,2.428,2.6009
0.939885,-0.0297758,2.428,2.60374
0.94113,-0.0295673,2.411,2.58834
0.942264,-0.0293588,2.394,2.57293
0.950035,-0.0293588,2.394,2.57578
0.957805,-0.0293588,2.394,2.57866
0.965575,-0.0293588,2.394,2.58156
0.973346,-0.0293588,2.394,2.58447
0.981116,-0.0293588,2.394,2.58741
0.995908,-0.0295673,2.411,2.60876
1.00373,-0.0295673,2.411,2.61176
1.01869,-0.0297758,2.428,2.63321
1.02657,-0.0297758,2.428,2.63627
1.04937,-0.030205,2.463,2.6774
1.06509,-0.0304257,2.481,2.70013
1.07314,-0.0304257,2.481,2.70332
1.09688,-0.0308672,2.517,2.7458
1.12173,-0.0313332,2.555,2.79057
1.14683,-0.0317992,2.593,2.83547
1.15525,-0.0317992,2.593,2.83888
1.18162,-0.0322898,2.633,2.88617
1.19965,-0.0325473,2.654,2.91272
1.20827,-0.0325473,2.654,2.91628
1.22651,-0.0328049,2.675,2.94296
1.25459,-0.0333199,2.717,2.99286
1.26341,-0.0333199,2.717,2.99656
1.28253,-0.0335897,2.739,3.02459
1.30179,-0.0338595,2.761,3.05269
1.3212,-0.0341293,2.783,3.08088
1.33023,-0.0341293,2.783,3.08476
1.35033,-0.0344114,2.806,3.1142
1.37058,-0.0346934,2.829,3.14371
1.37976,-0.0346934,2.829,3.14773
1.40073,-0.0349878,2.853,3.1785
1.42185,-0.0352821,2.877,3.20937
1.43119,-0.0352821,2.877,3.21351
1.46506,-0.035883,2.926,3.27249
1.48716,-0.0361896,2.951,3.30475
1.50992,-0.0365084,2.977,3.33822
1.51958,-0.0365084,2.977,3.3426
1.5426,-0.0368273,3.003,3.37624
1.58026,-0.0374895,3.057,3.44149
1.59019,-0.0374895,3.057,3.44606
1.61424,-0.0378206,3.084,3.48113
1.639,-0.038164,3.112,3.51743
1.6491,-0.038164,3.112,3.52215
1.6592,-0.038164,3.112,3.52689
1.68485,-0.0385196,3.141,3.56456
1.69505,-0.0385196,3.141,3.56939
1.70524,-0.0385196,3.141,3.57424
1.71544,-0.0385196,3.141,3.57912
1.72563,-0.0385196,3.141,3.58402
1.73583,-0.0385196,3.141,3.58894
1.7299,-0.038164,3.112,3.5607
1.74,-0.038164,3.112,3.56562
1.75011,-0.038164,3.112,3.57056
1.74437,-0.0378206,3.084,3.54335
1.75438,-0.0378206,3.084,3.54829
1.76439,-0.0378206,3.084,3.55325
1.7744,-0.0378206,3.084,3.55823
1.78441,-0.0378206,3.084,3.56323
1.79442,-0.0378206,3.084,3.56825
1.80443,-0.0378206,3.084,3.5733
1.81444,-0.0378206,3.084,3.57836
1.82445,-0.0378206,3.084,3.58345
1.83446,-0.0378206,3.084,3.58855
1.82832,-0.0374895,3.057,3.56222
1.83824,-0.0374895,3.057,3.56732
1.84816,-0.0374895,3.057,3.57245
1.84168,-0.0371584,3.03,3.54599
1.85151,-0.0371584,3.03,3.55111
1.86134,-0.0371584,3.03,3.55625
1.85451,-0.0368273,3.003,3.52967
1.86425,-0.0368273,3.003,3.5348
1.85777,-0.0365084,2.977,3.5093
1.85113,-0.0361896,2.951,3.48373
1.84494,-0.035883,2.926,3.45927
1.85444,-0.035883,2.926,3.46435
1.84801,-0.0355764,2.901,3.4398
1.84206,-0.0352821,2.877,3.41637
1.8514,-0.0352821,2.877,3.42141
1.82969,-0.0346934,2.829,3.36931
1.80897,-0.0341293,2.783,3.31943
1.81801,-0.0341293,2.783,3.32437
1.79815,-0.0335897,2.739,3.27668
1.77867,-0.0330624,2.696,3.23005
1.78743,-0.0330624,2.696,3.23487
1.7542,-0.0322898,2.633,3.16401
1.73597,-0.0317992,2.593,3.12062
1.74439,-0.0317992,2.593,3.12531
1.72711,-0.0313332,2.555,3.08414
1.7096,-0.0308672,2.517,3.04285
-1.93066,-0.0250989,2.783,3.38721
-1.92163,-0.0250989,2.783,3.38207
-1.91259,-0.0250989,2.783,3.37694
-1.90356,-0.0250989,2.783,3.37183
-1.89453,-0.0250989,2.783,3.36674
-1.90108,-0.0253064,2.806,3.38945
-1.89197,-0.0253064,2.806,3.38435
-1.88286,-0.0253064,2.806,3.37927
-1.87375,-0.0253064,2.806,3.3742
-1.86465,-0.0253064,2.806,3.36915
-1.87075,-0.0255138,2.829,3.39169
-1.86157,-0.0255138,2.829,3.38664
-1.85238,-0.0255138,2.829,3.3816
-1.8432,-0.0255138,2.829,3.37658
-1.84958,-0.0257302,2.853,3.40018
-1.84032,-0.0257302,2.853,3.39515
-1.83106,-0.0257302,2.853,3.39014
-1.83712,-0.0259467,2.877,3.41362
-1.82778,-0.0259467,2.877,3.40861
-1.81845,-0.0259467,2.877,3.40361
-1.80911,-0.0259467,2.877,3.39863
-1.81478,-0.0261631,2.901,3.42198
-1.82093,-0.0263886,2.926,3.44644
-1.81143,-0.0263886,2.926,3.44143
-1.80193,-0.0263886,2.926,3.43644
-1.79244,-0.0263886,2.926,3.43147
-1.78294,-0.0263886,2.926,3.42652
-1.78859,-0.0266141,2.951,3.45082
-1.77902,-0.0266141,2.951,3.44587
-1.76944,-0.0266141,2.951,3.44093
-1.75986,-0.0266141,2.951,3.43602
-1.7657,-0.0268486,2.977,3.46135
-1.75604,-0.0268486,2.977,3.45643
-1.73112,-0.0266141,2.951,3.42139
-1.72155,-0.0266141,2.951,3.41655
-1.71197,-0.0266141,2.951,3.41174
-1.70239,-0.0266141,2.951,3.40694
-1.70773,-0.0268486,2.977,3.43214
-1.69806,-0.0268486,2.977,3.42734
-1.6884,-0.0268486,2.977,3.42256
-1.66408,-0.0266141,2.951,3.38796
-1.6545,-0.0266141,2.951,3.38326
-1.64492,-0.0266141,2.951,3.37859
-1.62149,-0.0263886,2.926,3.34535
-1.59822,-0.0261631,2.901,3.31222
-1.5888,-0.0261631,2.901,3.30768
-1.57939,-0.0261631,2.901,3.30317
-1.56997,-0.0261631,2.901,3.29868
-1.574,-0.0263886,2.926,3.3226
-1.56451,-0.0263886,2.926,3.31811
-1.54172,-0.0261631,2.901,3.28533
-1.53231,-0.0261631,2.901,3.28092
-1.52289,-0.0261631,2.901,3.27653
-1.50095,-0.0259467,2.877,3.2451
-1.49162,-0.0259467,2.877,3.24079
-1.48228,-0.0259467,2.877,3.2365
-1.46065,-0.0257302,2.853,3.20527
-1.43918,-0.0255138,2.829,3.17414
-1.43,-0.0255138,2.829,3.16998
-1.39772,-0.0250989,2.783,3.11437
-1.35575,-0.0245037,2.717,3.03657
-1.34693,-0.0245037,2.717,3.03264
-1.31743,-0.0241249,2.675,2.98192
-1.2882,-0.0237461,2.633,2.93133
-1.27965,-0.0237461,2.633,2.92759
-1.25179,-0.0233854,2.593,2.87944
-1.22516,-0.0230427,2.555,2.83365
-1.19019,-0.0225376,2.499,2.76804
-1.18208,-0.0225376,2.499,2.76457
-1.15706,-0.022213,2.463,2.72133
-1.14067,-0.0220506,2.445,2.69808
-1.13273,-0.0220506,2.445,2.69473
-1.11697,-0.0218973,2.428,2.67269
-1.10133,-0.021744,2.411,2.65072
-1.0935,-0.021744,2.411,2.64748
-1.08568,-0.021744,2.411,2.64426
-1.07785,-0.021744,2.411,2.64105
-1.07003,-0.021744,2.411,2.63787
-1.05471,-0.0215907,2.394,2.61613
-1.04694,-0.0215907,2.394,2.613
-1.03917,-0.0215907,2.394,2.6099
-1.0314,-0.0215907,2.394,2.60682
-1.02363,-0.0215907,2.394,2.60375
-1.01586,-0.0215907,2.394,2.60071
-1.00809,-0.0215907,2.394,2.59768
-1.00032,-0.0215907,2.394,2.59468
-0.992548,-0.0215907,2.394,2.59169
-0.984778,-0.0215907,2.394,2.58872
-0.977007,-0.0215907,2.394,2.58578
-0.969237,-0.0215907,2.394,2.58285
-0.961466,-0.0215907,2.394,2.57995
-0.953696,-0.0215907,2.394,2.57706
-0.952643,-0.021744,2.411,2.59247
-0.944817,-0.021744,2.411,2.58961
-0.936992,-0.021744,2.411,2.58676
-0.929166,-0.021744,2.411,2.58394
-0.921341,-0.021744,2.411,2.58114
-0.913515,-0.021744,2.411,2.57835
-0.90569,-0.021744,2.411,2.57559
-0.897864,-0.021744,2.411,2.57285
-0.890039,-0.021744,2.411,2.57013
-0.882213,-0.021744,2.411,2.56743
-0.874388,-0.021744,2.411,2.56475
-0.866562,-0.021744,2.411,2.56209
-0.858737,-0.021744,2.411,2.55946
-0.850911,-0.021744,2.411,2.55684
-0.84903,-0.0218973,2.428,2.57226
-0.84115,-0.0218973,2.428,2.56967
-0.833269,-0.0218973,2.428,2.5671
-0.825388,-0.0218973,2.428,2.56455
-0.817508,-0.0218973,2.428,2.56203
-0.809627,-0.0218973,2.428,2.55952
-0.801746,-0.0218973,2.428,2.55704
-0.793866,-0.0218973,2.428,2.55458
-0.791488,-0.0220506,2.445,2.57001
-0.783552,-0.0220506,2.445,2.56758
