-1.70528,0.21415,2.517,3.04781
-1.69711,0.21415,2.517,3.04324
-1.68894,0.21415,2.517,3.03869
-1.68077,0.21415,2.517,3.03416
-1.6726,0.21415,2.517,3.02964
-1.66443,0.21415,2.517,3.02514
-1.66876,0.215767,2.536,3.04346
-1.66053,0.215767,2.536,3.03895
-1.6523,0.215767,2.536,3.03446
-1.65639,0.217383,2.555,3.05269
-1.64809,0.217383,2.555,3.0482
-1.6398,0.217383,2.555,3.04372
-1.63151,0.217383,2.555,3.03926
-1.62322,0.217383,2.555,3.03482
-1.62693,0.219,2.574,3.05292
-1.60663,0.217383,2.555,3.02598
-1.59834,0.217383,2.555,3.02158
-1.59004,0.217383,2.555,3.0172
-1.58175,0.217383,2.555,3.01284
-1.57346,0.217383,2.555,3.0085
-1.56516,0.217383,2.555,3.00417
-1.55687,0.217383,2.555,2.99986
-1.53706,0.215767,2.536,2.97328
-1.52883,0.215767,2.536,2.96904
-1.50921,0.21415,2.517,2.94259
-1.4903,0.212619,2.499,2.9174
-1.46084,0.209556,2.463,2.8713
-1.45285,0.209556,2.463,2.86724
-1.44485,0.209556,2.463,2.86319
-1.42636,0.208025,2.445,2.83827
-1.41842,0.208025,2.445,2.83429
-1.39087,0.205132,2.411,2.79097
-1.38305,0.205132,2.411,2.78708
-1.37522,0.205132,2.411,2.78321
-1.34811,0.202239,2.377,2.74015
-1.3404,0.202239,2.377,2.73636
-1.33268,0.202239,2.377,2.73259
-1.32497,0.202239,2.377,2.72884
-1.31725,0.202239,2.377,2.7251
-1.3189,0.203685,2.394,2.74084
-1.32975,0.206578,2.428,2.77599
-1.32187,0.206578,2.428,2.77222
-1.32319,0.208025,2.445,2.78785
-1.33462,0.211087,2.481,2.82509
-1.32657,0.211087,2.481,2.82129
-1.33765,0.21415,2.517,2.8584
-1.33951,0.215767,2.536,2.87613
-1.34126,0.217383,2.555,2.89383
-1.33296,0.217383,2.555,2.89
-1.34437,0.220617,2.593,2.92911
-1.35656,0.22402,2.633,2.97038
-1.34802,0.22402,2.633,2.96648
-1.33947,0.22402,2.633,2.96261
-1.33093,0.22402,2.633,2.95876
-1.32238,0.22402,2.633,2.95492
-1.30385,0.222318,2.613,2.92869
-1.29537,0.222318,2.613,2.92493
-1.28689,0.222318,2.613,2.92118
-1.26863,0.220617,2.593,2.89512
-1.24174,0.217383,2.555,2.84907
-1.23345,0.217383,2.555,2.84547
-1.21605,0.215767,2.536,2.82075
-1.19876,0.21415,2.517,2.7961
-1.1906,0.21415,2.517,2.79261
-1.17397,0.212619,2.499,2.76919
-1.15746,0.211087,2.481,2.74584
-1.14941,0.211087,2.481,2.74246
-1.13308,0.209556,2.463,2.71922
-1.11686,0.208025,2.445,2.69605
-1.10121,0.206578,2.428,2.67405
-1.09333,0.206578,2.428,2.67081
-1.08545,0.206578,2.428,2.6676
-1.07003,0.205132,2.411,2.64574
-1.0622,0.205132,2.411,2.64259
-1.05437,0.205132,2.411,2.63945
-1.04655,0.205132,2.411,2.63634
-1.03872,0.205132,2.411,2.63324
-1.0309,0.205132,2.411,2.63016
-1.02307,0.205132,2.411,2.6271
-1.01525,0.205132,2.411,2.62407
-1.00742,0.205132,2.411,2.62105
-0.999596,0.205132,2.411,2.61805
-0.99177,0.205132,2.411,2.61507
-0.990883,0.206578,2.428,2.63053
-0.983002,0.206578,2.428,2.62758
-0.968294,0.205132,2.411,2.60626
-0.960468,0.205132,2.411,2.60336
-0.952643,0.205132,2.411,2.60049
-0.951479,0.206578,2.428,2.61595
-0.943599,0.206578,2.428,2.61309
-0.935718,0.206578,2.428,2.61025
-0.927837,0.206578,2.428,2.60744
-0.919957,0.206578,2.428,2.60465
-0.912076,0.206578,2.428,2.60187
-0.904195,0.206578,2.428,2.59912
-0.896315,0.206578,2.428,2.59639
-0.894654,0.208025,2.445,2.61184
-0.886718,0.208025,2.445,2.60913
-0.878783,0.208025,2.445,2.60645
-0.870847,0.208025,2.445,2.60378
-0.862911,0.208025,2.445,2.60114
-0.854975,0.208025,2.445,2.59852
-0.847039,0.208025,2.445,2.59592
-0.839103,0.208025,2.445,2.59334
-0.831167,0.208025,2.445,2.59078
-0.823232,0.208025,2.445,2.58824
-0.815296,0.208025,2.445,2.58573
-0.80736,0.208025,2.445,2.58324
-0.799424,0.208025,2.445,2.58077
-0.797315,0.209556,2.463,2.59731
-0.789321,0.209556,2.463,2.59486
-0.781326,0.209556,2.463,2.59244
-0.773332,0.209556,2.463,2.59004
-0.765338,0.209556,2.463,2.58767
-0.757344,0.209556,2.463,2.58531
-0.754826,0.211087,2.481,2.60186
-0.746773,0.211087,2.481,2.59954
-0.73872,0.211087,2.481,2.59723
-0.730668,0.211087,2.481,2.59496
-0.722615,0.211087,2.481,2.5927
-0.714562,0.211087,2.481,2.59047
-0.706509,0.211087,2.481,2.58826
-0.698457,0.211087,2.481,2.58607
-0.690404,0.211087,2.481,2.58391
-0.682351,0.211087,2.481,2.58177
-0.679191,0.212619,2.499,2.59837
-0.67108,0.212619,2.499,2.59626
-0.662968,0.212619,2.499,2.59417
-0.654857,0.212619,2.499,2.59211
-0.646746,0.212619,2.499,2.59008
-0.638635,0.212619,2.499,2.58806
-0.630524,0.212619,2.499,2.58607
-0.622413,0.212619,2.499,2.58411
-0.614302,0.212619,2.499,2.58216
-0.606191,0.212619,2.499,2.58025
-0.598079,0.212619,2.499,2.57835
-0.589968,0.212619,2.499,2.57648
-0.581857,0.212619,2.499,2.57464
-0.577879,0.21415,2.517,2.59135
-0.569709,0.21415,2.517,2.58954
-0.561539,0.21415,2.517,2.58776
-0.557547,0.215767,2.536,2.60552
-0.549316,0.215767,2.536,2.60377
-0.541085,0.215767,2.536,2.60204
-0.532853,0.215767,2.536,2.60034
-0.524622,0.215767,2.536,2.59867
-0.516391,0.215767,2.536,2.59702
-0.50816,0.215767,2.536,2.5954
-0.499929,0.215767,2.536,2.5938
-0.491697,0.215767,2.536,2.59222
-0.483466,0.215767,2.536,2.59067
-0.471674,0.21415,2.517,2.56975
-0.463505,0.21415,2.517,2.56827
-0.455335,0.21415,2.517,2.5668
-0.447166,0.21415,2.517,2.56537
-0.438996,0.21415,2.517,2.56396
-0.430827,0.21415,2.517,2.56257
-0.419634,0.212619,2.499,2.54289
-0.411523,0.212619,2.499,2.54157
-0.403412,0.212619,2.499,2.54027
-0.395301,0.212619,2.499,2.53899
-0.384401,0.211087,2.481,2.51946
-0.376348,0.211087,2.481,2.51824
-0.368296,0.211087,2.481,2.51705
-0.362857,0.212619,2.499,2.53414
-0.354745,0.212619,2.499,2.53299
-0.346634,0.212619,2.499,2.53187
-0.338523,0.212619,2.499,2.53077
-0.330412,0.212619,2.499,2.5297
-0.322301,0.212619,2.499,2.52865
-0.31419,0.212619,2.499,2.52763
-0.308283,0.21415,2.517,2.54484
-0.300114,0.21415,2.517,2.54386
-0.291944,0.21415,2.517,2.54291
-0.285917,0.215767,2.536,2.56117
-0.277685,0.215767,2.536,2.56027
-0.269454,0.215767,2.536,2.55939
-0.26318,0.217383,2.555,2.5777
-0.254887,0.217383,2.555,2.57687
-0.246594,0.217383,2.555,2.57606
-0.238301,0.217383,2.555,2.57528
-0.230009,0.217383,2.555,2.57453
-0.221716,0.217383,2.555,2.5738
-0.213423,0.217383,2.555,2.5731
-0.20513,0.217383,2.555,2.57242
-0.196837,0.217383,2.555,2.57177
-0.188544,0.217383,2.555,2.57115
-0.180251,0.217383,2.555,2.57056
-0.171958,0.217383,2.555,2.56999
-0.163665,0.217383,2.555,2.56945
-0.155372,0.217383,2.555,2.56893
-0.14708,0.217383,2.555,2.56845
-0.138787,0.217383,2.555,2.56798
-0.130494,0.217383,2.555,2.56755
-0.122201,0.217383,2.555,2.56714
-0.113908,0.217383,2.555,2.56676
-0.105615,0.217383,2.555,2.56641
-0.0965985,0.215767,2.536,2.54699
-0.0883672,0.215767,2.536,2.5467
-0.080136,0.215767,2.536,2.54642
-0.0719048,0.215767,2.536,2.54618
-0.0641506,0.217383,2.555,2.56503
-0.0558577,0.217383,2.555,2.56484
-0.0475648,0.217383,2.555,2.56467
-0.0392719,0.217383,2.555,2.56453
-0.030979,0.217383,2.555,2.56442
-0.0226861,0.217383,2.555,2.56433
-0.0143932,0.217383,2.555,2.56427
-0.00610034,0.217383,2.555,2.56424
0.00219255,0.217383,2.555,2.56423
0.0104854,0.217383,2.555,2.56425
0.0187783,0.217383,2.555,2.5643
0.0270712,0.217383,2.555,2.56437
0.0356271,0.219,2.574,2.58355
0.0439817,0.219,2.574,2.58367
0.0523362,0.219,2.574,2.58383
0.0606908,0.219,2.574,2.58401
0.0690454,0.219,2.574,2.58422
0.0773999,0.219,2.574,2.58446
0.0851215,0.217383,2.555,2.56564
0.0934144,0.217383,2.555,2.56593
0.101707,0.217383,2.555,2.56625
0.11,0.217383,2.555,2.56659
0.118293,0.217383,2.555,2.56696
0.126586,0.217383,2.555,2.56735
0.133876,0.215767,2.536,2.54868
0.142107,0.215767,2.536,2.54913
0.150338,0.215767,2.536,2.5496
0.15857,0.215767,2.536,2.5501
nan,nan,nan,NaN
nan,nan,nan,NaN
nan,nan,nan,NaN
nan,nan,nan,NaN
nan,nan,nan,NaN
nan,nan,nan,NaN
nan,nan,nan,NaN
nan,nan,nan,NaN
nan,nan,nan,NaN
nan,nan,nan,NaN
nan,nan,nan,NaN
nan,nan,nan,NaN
nan,nan,nan,NaN
nan,nan,nan,NaN
nan,nan,nan,NaN
nan,nan,nan,NaN
nan,nan,nan,NaN
nan,nan,nan,NaN
nan,nan,nan,NaN
nan,nan,nan,NaN
nan,nan,nan,NaN
nan,nan,nan,NaN
nan,nan,nan,NaN
nan,nan,nan,NaN
nan,nan,nan,NaN
nan,nan,nan,NaN
nan,nan,nan,NaN
nan,nan,nan,NaN
nan,nan,nan,NaN
nan,nan,nan,NaN
nan,nan,nan,NaN
nan,nan,nan,NaN
nan,nan,nan,NaN
0.408177,0.200878,2.361,2.40443
0.41584,0.200878,2.361,2.40574
0.423503,0.200878,2.361,2.40708
0.431166,0.200878,2.361,2.40844
0.43883,0.200878,2.361,2.40982
0.443467,0.199516,2.345,2.39489
0.451078,0.199516,2.345,2.39631
0.45869,0.199516,2.345,2.39775
0.466301,0.199516,2.345,2.39922
0.473912,0.199516,2.345,2.40071
0.481523,0.199516,2.345,2.40223
0.489135,0.199516,2.345,2.40376
0.496746,0.199516,2.345,2.40533
0.504357,0.199516,2.345,2.40691
0.511969,0.199516,2.345,2.40851
0.51958,0.199516,2.345,2.41014
0.527191,0.199516,2.345,2.4118
0.534802,0.199516,2.345,2.41347
0.538713,0.198155,2.329,2.39869
0.542519,0.196794,2.313,2.38391
0.550027,0.196794,2.313,2.38563
nan,nan,nan,NaN
nan,nan,nan,NaN
0.550271,0.189136,2.223,2.29789
0.557486,0.189136,2.223,2.29963
0.557335,0.186669,2.194,2.27137
0.55751,0.184372,2.167,2.24515
0.564543,0.184372,2.167,2.24691
0.567884,0.183181,2.153,2.23416
0.571401,0.182075,2.14,2.22244
0.578347,0.182075,2.14,2.22424
0.581464,0.180883,2.126,2.21149
0.588364,0.180883,2.126,2.21332
0.595265,0.180883,2.126,2.21516
0.602165,0.180883,2.126,2.21702
0.605341,0.179777,2.113,2.20534
0.6122,0.179777,2.113,2.20723
0.626968,0.182075,2.14,2.23737
0.633914,0.182075,2.14,2.23933
0.644753,0.183181,2.153,2.25492
0.655979,0.184372,2.167,2.27161
0.663013,0.184372,2.167,2.27365
0.674066,0.185478,2.18,2.28936
0.685516,0.186669,2.194,2.30617
0.692637,0.186669,2.194,2.3083
0.709008,0.189136,2.223,2.34098
0.716223,0.189136,2.223,2.34318
0.727994,0.190328,2.237,2.36016
0.735255,0.190328,2.237,2.36241
0.747495,0.191604,2.252,2.38054
0.759832,0.19288,2.267,2.39872
0.76719,0.19288,2.267,2.40106
0.774548,0.19288,2.267,2.40342
0.78708,0.194156,2.282,2.42172
0.794486,0.194156,2.282,2.42413
0.807516,0.195518,2.298,2.44359
0.825968,0.198155,2.329,2.47906
0.833528,0.198155,2.329,2.48159
0.841087,0.198155,2.329,2.48414
0.848646,0.198155,2.329,2.48671
0.856206,0.198155,2.329,2.4893
0.857831,0.196794,2.313,2.47479
0.865339,0.196794,2.313,2.4774
0.872846,0.196794,2.313,2.48003
0.880353,0.196794,2.313,2.48268
0.894003,0.198155,2.329,2.50255
0.901562,0.198155,2.329,2.50526
0.909121,0.198155,2.329,2.50799
0.916681,0.198155,2.329,2.51074
0.930589,0.199516,2.345,2.53078
nan,nan,nan,NaN
0.958719,0.202239,2.377,2.57103
0.966434,0.202239,2.377,2.57391
0.981116,0.203685,2.394,2.59525
0.988886,0.203685,2.394,2.5982
0.996657,0.203685,2.394,2.60116
1.01869,0.206578,2.428,2.64113
1.01938,0.205132,2.411,2.62567
1.02721,0.205132,2.411,2.62872
1.03504,0.205132,2.411,2.63179
1.04286,0.205132,2.411,2.63487
1.0581,0.206578,2.428,2.65658
1.06598,0.206578,2.428,2.65973
1.07386,0.206578,2.428,2.6629
1.07416,0.205132,2.411,2.64742
1.08199,0.205132,2.411,2.6506
1.08981,0.205132,2.411,2.65381
1.09764,0.205132,2.411,2.65703
1.10547,0.205132,2.411,2.66027
1.11329,0.205132,2.411,2.66353
1.12112,0.205132,2.411,2.66682
1.12894,0.205132,2.411,2.67011
1.13677,0.205132,2.411,2.67343
1.14459,0.205132,2.411,2.67677
1.15242,0.205132,2.411,2.68012
1.16024,0.205132,2.411,2.6835
1.16807,0.205132,2.411,2.68689
1.1759,0.205132,2.411,2.6903
1.18372,0.205132,2.411,2.69373
1.19155,0.205132,2.411,2.69718
1.19937,0.205132,2.411,2.70065
1.2072,0.205132,2.411,2.70413
1.22359,0.206578,2.428,2.72673
1.23147,0.206578,2.428,2.73027
1.23935,0.206578,2.428,2.73383
1.25596,0.208025,2.445,2.75658
1.2639,0.208025,2.445,2.76021
1.2812,0.209556,2.463,2.7842
1.29862,0.211087,2.481,2.80826
1.31615,0.212619,2.499,2.83239
1.32426,0.212619,2.499,2.83617
1.3521,0.215767,2.536,2.88202
1.37052,0.217383,2.555,2.90751
1.37881,0.217383,2.555,2.91143
1.39742,0.219,2.574,2.93704
1.41615,0.220617,2.593,2.96274
1.42457,0.220617,2.593,2.96677
1.44404,0.222318,2.613,2.99373
1.47531,0.225807,2.654,3.04487
1.53145,0.233038,2.739,3.14671
1.52797,0.231167,2.717,3.12573
1.53679,0.231167,2.717,3.13005
1.54561,0.231167,2.717,3.13439
1.55442,0.231167,2.717,3.13875
1.56324,0.231167,2.717,3.14313
1.57206,0.231167,2.717,3.14752
1.58088,0.231167,2.717,3.15194
1.5897,0.231167,2.717,3.15637
1.58616,0.22938,2.696,3.13639
1.59491,0.22938,2.696,3.14082
1.59117,0.227593,2.675,3.12078
1.58729,0.225807,2.654,3.10068
1.59591,0.225807,2.654,3.1051
1.60452,0.225807,2.654,3.10953
1.60037,0.22402,2.633,3.08935
1.60892,0.22402,2.633,3.09378
1.61747,0.22402,2.633,3.09824
1.61366,0.222318,2.613,3.07914
1.62214,0.222318,2.613,3.08359
1.60629,0.219,2.574,3.04197
1.61464,0.219,2.574,3.04639
1.62299,0.219,2.574,3.05083
1.63135,0.219,2.574,3.05528
1.6276,0.217383,2.555,3.03716
1.63589,0.217383,2.555,3.04162
1.64419,0.217383,2.555,3.04608
1.64019,0.215767,2.536,3.02788
1.64842,0.215767,2.536,3.03235
1.65665,0.215767,2.536,3.03683
1.65241,0.21415,2.517,3.01854
1.66058,0.21415,2.517,3.02302
1.66875,0.21415,2.517,3.02752
1.66493,0.212619,2.499,3.01035
1.66099,0.211087,2.481,2.99313
1.66904,0.211087,2.481,2.9976
1.66493,0.209556,2.463,2.98031
1.66069,0.208025,2.445,2.96297
-1.74613,0.222318,2.517,3.07143
-1.73796,0.222318,2.517,3.06679
-1.72979,0.222318,2.517,3.06217
-1.72162,0.222318,2.517,3.05756
-1.71345,0.222318,2.517,3.05297
-1.70528,0.222318,2.517,3.04839
-1.69711,0.222318,2.517,3.04383
-1.68894,0.222318,2.517,3.03928
-1.68077,0.222318,2.517,3.03475
-1.6726,0.222318,2.517,3.03023
-1.66443,0.222318,2.517,3.02573
-1.66876,0.223996,2.536,3.04405
-1.66053,0.223996,2.536,3.03955
-1.6523,0.223996,2.536,3.03506
-1.65639,0.225674,2.555,3.05329
-1.64809,0.225674,2.555,3.0488
-1.6398,0.225674,2.555,3.04432
-1.63151,0.225674,2.555,3.03986
-1.62322,0.225674,2.555,3.03542
-1.62693,0.227352,2.574,3.05353
-1.60663,0.225674,2.555,3.02658
-1.59834,0.225674,2.555,3.02219
-1.59004,0.225674,2.555,3.01781
-1.58175,0.225674,2.555,3.01345
-1.57346,0.225674,2.555,3.00911
-1.56516,0.225674,2.555,3.00478
-1.55687,0.225674,2.555,3.00047
-1.54858,0.225674,2.555,2.99617
-1.52883,0.223996,2.536,2.96965
-1.5206,0.223996,2.536,2.96542
-1.50104,0.222318,2.517,2.93902
-1.47152,0.219138,2.481,2.89288
-1.46346,0.219138,2.481,2.88879
-1.44485,0.217548,2.463,2.86379
-1.42636,0.215958,2.445,2.83887
-1.41842,0.215958,2.445,2.83489
-1.39087,0.212955,2.411,2.79156
-1.38305,0.212955,2.411,2.78767
-1.37522,0.212955,2.411,2.78379
-1.34811,0.209952,2.377,2.74073
-1.3404,0.209952,2.377,2.73695
-1.33268,0.209952,2.377,2.73318
-1.32497,0.209952,2.377,2.72942
-1.31725,0.209952,2.377,2.72569
-1.3189,0.211453,2.394,2.74143
-1.32975,0.214457,2.428,2.77658
-1.32187,0.214457,2.428,2.77282
-1.32319,0.215958,2.445,2.78846
-1.33462,0.219138,2.481,2.8257
-1.32657,0.219138,2.481,2.82191
-1.33765,0.222318,2.517,2.85902
-1.33951,0.223996,2.536,2.87676
-1.34126,0.225674,2.555,2.89446
-1.33296,0.225674,2.555,2.89063
-1.34437,0.22903,2.593,2.92975
-1.35656,0.232563,2.633,2.97103
-1.34802,0.232563,2.633,2.96714
-1.33947,0.232563,2.633,2.96327
-1.33093,0.232563,2.633,2.95942
-1.32238,0.232563,2.633,2.95558
-1.30385,0.230797,2.613,2.92935
-1.29537,0.230797,2.613,2.92558
-1.28689,0.230797,2.613,2.92184
-1.26863,0.22903,2.593,2.89578
-1.24174,0.225674,2.555,2.84972
-1.23345,0.225674,2.555,2.84611
-1.21605,0.223996,2.536,2.82139
-1.19876,0.222318,2.517,2.79674
-1.1906,0.222318,2.517,2.79325
-1.17397,0.220728,2.499,2.76982
-1.15746,0.219138,2.481,2.74647
-1.14941,0.219138,2.481,2.74309
-1.13308,0.217548,2.463,2.71984
-1.11686,0.215958,2.445,2.69667
-1.10121,0.214457,2.428,2.67467
-1.09333,0.214457,2.428,2.67143
-1.08545,0.214457,2.428,2.66822
-1.07003,0.212955,2.411,2.64636
-1.0622,0.212955,2.411,2.64321
-1.05437,0.212955,2.411,2.64007
-1.04655,0.212955,2.411,2.63696
-1.03872,0.212955,2.411,2.63386
-1.0309,0.212955,2.411,2.63078
-1.02307,0.212955,2.411,2.62773
-1.01525,0.212955,2.411,2.62469
-1.00742,0.212955,2.411,2.62167
-0.999596,0.212955,2.411,2.61868
-0.99177,0.212955,2.411,2.6157
-0.990883,0.214457,2.428,2.63116
-0.983002,0.214457,2.428,2.62821
-0.975121,0.214457,2.428,2.62527
-0.967241,0.214457,2.428,2.62235
-0.95936,0.214457,2.428,2.61946
-0.951479,0.214457,2.428,2.61658
-0.943599,0.214457,2.428,2.61372
-0.935718,0.214457,2.428,2.61089
-0.927837,0.214457,2.428,2.60808
-0.919957,0.214457,2.428,2.60528
-0.912076,0.214457,2.428,2.60251
-0.904195,0.214457,2.428,2.59976
-0.896315,0.214457,2.428,2.59703
-0.888434,0.214457,2.428,2.59432
-0.880553,0.214457,2.428,2.59163
-0.872672,0.214457,2.428,2.58896
-0.864792,0.214457,2.428,2.58632
-0.856911,0.214457,2.428,2.58369
-0.84903,0.214457,2.428,2.58109
-0.847039,0.215958,2.445,2.59656
-0.839103,0.215958,2.445,2.59398
-0.831167,0.215958,2.445,2.59143
-0.823232,0.215958,2.445,2.58889
-0.815296,0.215958,2.445,2.58638
-0.80736,0.215958,2.445,2.58389
-0.799424,0.215958,2.445,2.58142
-0.797315,0.217548,2.463,2.59796
-0.789321,0.217548,2.463,2.59552
-0.781326,0.217548,2.463,2.5931
-0.773332,0.217548,2.463,2.5907
-0.765338,0.217548,2.463,2.58833
-0.757344,0.217548,2.463,2.58597
-0.754826,0.219138,2.481,2.60253
-0.746773,0.219138,2.481,2.6002
-0.73872,0.219138,2.481,2.5979
-0.730668,0.219138,2.481,2.59562
-0.722615,0.219138,2.481,2.59337
-0.714562,0.219138,2.481,2.59114
-0.706509,0.219138,2.481,2.58893
-0.698457,0.219138,2.481,2.58674
-0.690404,0.219138,2.481,2.58458
-0.682351,0.219138,2.481,2.58244
-0.674299,0.219138,2.481,2.58032
-0.67108,0.220728,2.499,2.59693
-0.662968,0.220728,2.499,2.59485
-0.654857,0.220728,2.499,2.59279
-0.646746,0.220728,2.499,2.59075
-0.638635,0.220728,2.499,2.58874
-0.630524,0.220728,2.499,2.58675
-0.622413,0.220728,2.499,2.58479
-0.614302,0.220728,2.499,2.58284
-0.606191,0.220728,2.499,2.58093
-0.598079,0.220728,2.499,2.57903
-0.589968,0.220728,2.499,2.57717
-0.581857,0.220728,2.499,2.57532
-0.577879,0.222318,2.517,2.59204
-0.569709,0.222318,2.517,2.59023
-0.561539,0.222318,2.517,2.58844
-0.55337,0.222318,2.517,2.58668
-0.549316,0.223996,2.536,2.60446
-0.541085,0.223996,2.536,2.60274
-0.532853,0.223996,2.536,2.60104
-0.524622,0.223996,2.536,2.59936
-0.52026,0.225674,2.555,2.61718
-0.50816,0.223996,2.536,2.59609
-0.499929,0.223996,2.536,2.59449
-0.491697,0.223996,2.536,2.59292
-0.483466,0.223996,2.536,2.59137
-0.475235,0.223996,2.536,2.58985
-0.467004,0.223996,2.536,2.58835
-0.458772,0.223996,2.536,2.58688
-0.447166,0.222318,2.517,2.56606
-0.438996,0.222318,2.517,2.56465
-0.430827,0.222318,2.517,2.56326
-0.422657,0.222318,2.517,2.5619
-0.411523,0.220728,2.499,2.54226
-0.403412,0.220728,2.499,2.54096
-0.395301,0.220728,2.499,2.53968
-0.384401,0.219138,2.481,2.52015
-0.376348,0.219138,2.481,2.51893
-0.368296,0.219138,2.481,2.51774
-0.362857,0.220728,2.499,2.53483
-0.354745,0.220728,2.499,2.53369
-0.346634,0.220728,2.499,2.53256
-0.338523,0.220728,2.499,2.53147
-0.330412,0.220728,2.499,2.53039
-0.322301,0.220728,2.499,2.52935
-0.31419,0.220728,2.499,2.52833
-0.308283,0.222318,2.517,2.54554
-0.300114,0.222318,2.517,2.54456
-0.291944,0.222318,2.517,2.54361
-0.285917,0.223996,2.536,2.56188
-0.277685,0.223996,2.536,2.56097
-0.269454,0.223996,2.536,2.56009
-0.26318,0.225674,2.555,2.57841
-0.254887,0.225674,2.555,2.57758
-0.246594,0.225674,2.555,2.57677
-0.238301,0.225674,2.555,2.57599
-0.230009,0.225674,2.555,2.57524
-0.221716,0.225674,2.555,2.57451
-0.213423,0.225674,2.555,2.57381
-0.20513,0.225674,2.555,2.57314
-0.196837,0.225674,2.555,2.57249
-0.188544,0.225674,2.555,2.57187
-0.180251,0.225674,2.555,2.57127
-0.171958,0.225674,2.555,2.5707
-0.163665,0.225674,2.555,2.57016
-0.155372,0.225674,2.555,2.56965
-0.14708,0.225674,2.555,2.56916
-0.138787,0.225674,2.555,2.5687
-0.130494,0.225674,2.555,2.56826
-0.122201,0.225674,2.555,2.56786
-0.113908,0.225674,2.555,2.56748
-0.105615,0.225674,2.555,2.56712
-0.0973222,0.225674,2.555,2.56679
-0.0890293,0.225674,2.555,2.56649
-0.0807364,0.225674,2.555,2.56622
-0.0724435,0.225674,2.555,2.56597
-0.0641506,0.225674,2.555,2.56575
-0.0558577,0.225674,2.555,2.56556
-0.0475648,0.225674,2.555,2.56539
-0.0392719,0.225674,2.555,2.56525
-0.030979,0.225674,2.555,2.56513
-0.0226861,0.225674,2.555,2.56505
-0.0143932,0.225674,2.555,2.56499
-0.00610034,0.225674,2.555,2.56495
0.00219255,0.225674,2.555,2.56495
0.0104854,0.225674,2.555,2.56497
0.0187783,0.225674,2.555,2.56502
0.0270712,0.225674,2.555,2.56509
0.0356271,0.227352,2.574,2.58427
0.0439817,0.227352,2.574,2.5844
0.0523362,0.227352,2.574,2.58455
0.0606908,0.227352,2.574,2.58473
0.0685357,0.225674,2.555,2.56586
0.0768286,0.225674,2.555,2.5661
0.0851215,0.225674,2.555,2.56636
0.0934144,0.225674,2.555,2.56665
0.101707,0.225674,2.555,2.56696
0.11,0.225674,2.555,2.5673
0.117413,0.223996,2.536,2.54858
0.125645,0.223996,2.536,2.54897
0.133876,0.223996,2.536,2.54939
0.142107,0.223996,2.536,2.54984
0.150338,0.223996,2.536,2.55031
0.157382,0.222318,2.517,2.5317
0.165551,0.222318,2.517,2.53222
nan,nan,nan,NaN
nan,nan,nan,NaN
nan,nan,nan,NaN
nan,nan,nan,NaN
nan,nan,nan,NaN
nan,nan,nan,NaN
nan,nan,nan,NaN
nan,nan,nan,NaN
nan,nan,nan,NaN
nan,nan,nan,NaN
nan,nan,nan,NaN
nan,nan,nan,NaN
nan,nan,nan,NaN
nan,nan,nan,NaN
nan,nan,nan,NaN
nan,nan,nan,NaN
nan,nan,nan,NaN
nan,nan,nan,NaN
nan,nan,nan,NaN
nan,nan,nan,NaN
nan,nan,nan,NaN
nan,nan,nan,NaN
nan,nan,nan,NaN
nan,nan,nan,NaN
nan,nan,nan,NaN
nan,nan,nan,NaN
nan,nan,nan,NaN
nan,nan,nan,NaN
nan,nan,nan,NaN
nan,nan,nan,NaN
nan,nan,nan,NaN
nan,nan,nan,NaN
0.408177,0.208539,2.361,2.40508
0.41584,0.208539,2.361,2.40639
0.423503,0.208539,2.361,2.40773
0.431166,0.208539,2.361,2.40909
0.43883,0.208539,2.361,2.41047
0.446493,0.208539,2.361,2.41188
0.451078,0.207125,2.345,2.39696
0.45869,0.207125,2.345,2.3984
nan,nan,nan,NaN
nan,nan,nan,NaN
0.481523,0.207125,2.345,2.40287
0.489135,0.207125,2.345,2.40441
0.496746,0.207125,2.345,2.40597
0.504357,0.207125,2.345,2.40755
0.511969,0.207125,2.345,2.40916
0.51958,0.207125,2.345,2.41079
0.527191,0.207125,2.345,2.41244
0.534802,0.207125,2.345,2.41411
0.538713,0.205712,2.329,2.39933
0.542519,0.204299,2.313,2.38454
0.550027,0.204299,2.313,2.38626
nan,nan,nan,NaN
nan,nan,nan,NaN
0.550271,0.19635,2.223,2.2985
0.557486,0.19635,2.223,2.30023
0.557335,0.193788,2.194,2.27196
0.55751,0.191403,2.167,2.24574
0.564543,0.191403,2.167,2.24749
0.567884,0.190167,2.153,2.23474
0.571401,0.189019,2.14,2.22302
0.578347,0.189019,2.14,2.22482
0.581464,0.187782,2.126,2.21207
0.584767,0.186634,2.113,2.20035
0.591625,0.186634,2.113,2.20219
0.598483,0.186634,2.113,2.20404
0.605341,0.186634,2.113,2.20591
0.6122,0.186634,2.113,2.2078
0.626968,0.189019,2.14,2.23795
0.633914,0.189019,2.14,2.23991
0.644753,0.190167,2.153,2.2555
0.655979,0.191403,2.167,2.27219
0.663013,0.191403,2.167,2.27423
0.674066,0.192552,2.18,2.28994
0.681142,0.192552,2.18,2.29204
0.688217,0.192552,2.18,2.29415
0.699758,0.193788,2.194,2.31103
0.711712,0.195113,2.209,2.32901
0.723438,0.19635,2.223,2.34598
0.730654,0.19635,2.223,2.34822
0.737869,0.19635,2.223,2.35048
0.749777,0.197586,2.237,2.36757
0.757037,0.197586,2.237,2.36988
0.774548,0.200236,2.267,2.40402
0.78708,0.201561,2.282,2.42232
0.794486,0.201561,2.282,2.42474
0.807516,0.202974,2.298,2.44419
0.820294,0.204299,2.313,2.46264
0.827801,0.204299,2.313,2.46515
0.835309,0.204299,2.313,2.46768
0.842816,0.204299,2.313,2.47023
0.850324,0.204299,2.313,2.4728
0.857831,0.204299,2.313,2.4754
0.859727,0.202974,2.298,2.46194
0.867186,0.202974,2.298,2.46455
0.874644,0.202974,2.298,2.46719
0.882103,0.202974,2.298,2.46984
0.889562,0.202974,2.298,2.47251
0.897021,0.202974,2.298,2.47521
0.910383,0.204299,2.313,2.49409
0.92424,0.205712,2.329,2.51412
0.938201,0.207125,2.345,2.5342
0.945812,0.207125,2.345,2.53702
0.959929,0.208539,2.361,2.5572
0.974149,0.209952,2.377,2.57744
0.981864,0.209952,2.377,2.58036
0.989579,0.209952,2.377,2.58331
1.01156,0.212955,2.411,2.62327
1.01938,0.212955,2.411,2.62629
1.02721,0.212955,2.411,2.62934
1.03504,0.212955,2.411,2.63241
1.04286,0.212955,2.411,2.63549
1.0581,0.214457,2.428,2.65721
1.06598,0.214457,2.428,2.66035
1.07386,0.214457,2.428,2.66352
1.07416,0.212955,2.411,2.64804
1.08199,0.212955,2.411,2.65122
1.08981,0.212955,2.411,2.65442
1.09764,0.212955,2.411,2.65765
1.10547,0.212955,2.411,2.66089
1.11329,0.212955,2.411,2.66415
1.12112,0.212955,2.411,2.66743
1.12894,0.212955,2.411,2.67073
1.13677,0.212955,2.411,2.67404
1.14459,0.212955,2.411,2.67738
1.15242,0.212955,2.411,2.68073
1.16024,0.212955,2.411,2.68411
1.16807,0.212955,2.411,2.6875
1.1759,0.212955,2.411,2.69091
1.18372,0.212955,2.411,2.69434
1.19155,0.212955,2.411,2.69779
1.19937,0.212955,2.411,2.70125
1.2072,0.212955,2.411,2.70474
1.22359,0.214457,2.428,2.72733
1.23147,0.214457,2.428,2.73088
1.23935,0.214457,2.428,2.73444
1.25596,0.215958,2.445,2.75719
1.27321,0.217548,2.463,2.78114
1.2812,0.217548,2.463,2.78481
1.29862,0.219138,2.481,2.80888
1.31615,0.220728,2.499,2.83301
1.32426,0.220728,2.499,2.83679
1.3521,0.223996,2.536,2.88264
1.37052,0.225674,2.555,2.90814
1.37881,0.225674,2.555,2.91206
1.39742,0.227352,2.574,2.93768
1.41615,0.22903,2.593,2.96338
1.42457,0.22903,2.593,2.96741
1.44404,0.230797,2.613,2.99437
1.47531,0.234418,2.654,3.04552
nan,nan,nan,NaN
1.52797,0.239983,2.717,3.1264
1.53679,0.239983,2.717,3.13072
1.54561,0.239983,2.717,3.13506
1.55442,0.239983,2.717,3.13941
1.56324,0.239983,2.717,3.14379
1.57206,0.239983,2.717,3.14818
1.58088,0.239983,2.717,3.1526
1.5897,0.239983,2.717,3.15703
1.58616,0.238128,2.696,3.13704
1.59491,0.238128,2.696,3.14148
1.59117,0.236273,2.675,3.12142
1.58729,0.234418,2.654,3.10132
1.59591,0.234418,2.654,3.10574
1.59183,0.232563,2.633,3.08556
1.57606,0.22903,2.593,3.04304
1.58448,0.22903,2.593,3.0474
1.59289,0.22903,2.593,3.05179
1.60131,0.22903,2.593,3.05619
1.60973,0.22903,2.593,3.06061
1.59443,0.225674,2.555,3.02013
1.60272,0.225674,2.555,3.02451
1.61101,0.225674,2.555,3.02891
1.60727,0.223996,2.536,3.01078
1.6155,0.223996,2.536,3.01518
1.62373,0.223996,2.536,3.0196
1.63196,0.223996,2.536,3.02403
1.6279,0.222318,2.517,3.00579
1.63607,0.222318,2.517,3.01022
1.64424,0.222318,2.517,3.01467
1.64059,0.220728,2.499,2.99754
1.6487,0.220728,2.499,3.00199
1.65682,0.220728,2.499,3.00645
1.65293,0.219138,2.481,2.98924
1.64894,0.217548,2.463,2.97198
1.65693,0.217548,2.463,2.97643
1.65276,0.215958,2.445,2.9591
1.66069,0.215958,2.445,2.96354
-1.73364,0.228837,2.499,3.05006
-1.72553,0.228837,2.499,3.04546
-1.71742,0.228837,2.499,3.04087
-1.7093,0.228837,2.499,3.0363
-1.70119,0.228837,2.499,3.03174
-1.69308,0.228837,2.499,3.02719
-1.68497,0.228837,2.499,3.02266
-1.67686,0.228837,2.499,3.01815
-1.68077,0.230485,2.517,3.03536
-1.6726,0.230485,2.517,3.03084
-1.66443,0.230485,2.517,3.02634
-1.65626,0.230485,2.517,3.02186
-1.66053,0.232225,2.536,3.04016
-1.6523,0.232225,2.536,3.03567
-1.65639,0.233965,2.555,3.05391
-1.64809,0.233965,2.555,3.04942
-1.6398,0.233965,2.555,3.04495
-1.63151,0.233965,2.555,3.04049
-1.62322,0.233965,2.555,3.03605
-1.62693,0.235704,2.574,3.05417
-1.60663,0.233965,2.555,3.02721
-1.59834,0.233965,2.555,3.02282
-1.59004,0.233965,2.555,3.01844
-1.58175,0.233965,2.555,3.01408
-1.57346,0.233965,2.555,3.00974
-1.56516,0.233965,2.555,3.00541
-1.55687,0.233965,2.555,3.0011
-1.54858,0.233965,2.555,2.99681
-1.52883,0.232225,2.536,2.97028
-1.5206,0.232225,2.536,2.96605
-1.50104,0.230485,2.517,2.93965
-1.47152,0.227188,2.481,2.8935
-1.46346,0.227188,2.481,2.88941
-1.44485,0.22554,2.463,2.86441
-1.42636,0.223892,2.445,2.83948
-1.41842,0.223892,2.445,2.8355
-1.40068,0.222335,2.428,2.81185
-1.37329,0.219222,2.394,2.76862
-1.36552,0.219222,2.394,2.76477
-1.34811,0.217665,2.377,2.74133
-1.33137,0.2162,2.361,2.71912
-1.32371,0.2162,2.361,2.71538
-1.32497,0.217665,2.377,2.73003
-1.31725,0.217665,2.377,2.72629
-1.3189,0.219222,2.394,2.74204
-1.32975,0.222335,2.428,2.7772
-1.32187,0.222335,2.428,2.77344
-1.32319,0.223892,2.445,2.78908
-1.33462,0.227188,2.481,2.82634
-1.32657,0.227188,2.481,2.82254
-1.33765,0.230485,2.517,2.85967
-1.33951,0.232225,2.536,2.87742
-1.3612,0.237444,2.593,2.93818
-1.35279,0.237444,2.593,2.93429
-1.35474,0.239276,2.613,2.95302
-1.35656,0.241107,2.633,2.97171
-1.34802,0.241107,2.633,2.96782
-1.35016,0.24303,2.654,2.98759
-1.34154,0.24303,2.654,2.98371
-1.32238,0.241107,2.633,2.95627
-1.31383,0.241107,2.633,2.95245
-1.29537,0.239276,2.613,2.92626
-1.28689,0.239276,2.613,2.92252
-1.26863,0.237444,2.593,2.89645
-1.25098,0.235704,2.574,2.87158
-1.24262,0.235704,2.574,2.86795
-1.22516,0.233965,2.555,2.8432
-1.20781,0.232225,2.536,2.81852
-1.19958,0.232225,2.536,2.815
-1.18243,0.230485,2.517,2.79044
-1.16586,0.228837,2.499,2.76706
-1.15775,0.228837,2.499,2.76365
-1.14136,0.227188,2.481,2.74038
-1.12508,0.22554,2.463,2.71718
-1.10892,0.223892,2.445,2.69404
-1.10099,0.223892,2.445,2.69079
-1.08545,0.222335,2.428,2.66886
-1.07757,0.222335,2.428,2.66567
-1.06969,0.222335,2.428,2.66249
-1.06181,0.222335,2.428,2.65933
-1.05393,0.222335,2.428,2.6562
-1.04605,0.222335,2.428,2.65308
-1.03817,0.222335,2.428,2.64998
-1.03029,0.222335,2.428,2.64691
-1.02241,0.222335,2.428,2.64385
-1.01452,0.222335,2.428,2.64081
-1.00664,0.222335,2.428,2.63779
-0.998763,0.222335,2.428,2.6348
-0.990883,0.222335,2.428,2.63182
-0.983002,0.222335,2.428,2.62886
-0.975121,0.222335,2.428,2.62592
-0.967241,0.222335,2.428,2.62301
-0.95936,0.222335,2.428,2.62011
-0.951479,0.222335,2.428,2.61724
-0.943599,0.222335,2.428,2.61438
-0.935718,0.222335,2.428,2.61155
-0.927837,0.222335,2.428,2.60874
-0.919957,0.222335,2.428,2.60594
-0.912076,0.222335,2.428,2.60317
-0.904195,0.222335,2.428,2.60042
-0.896315,0.222335,2.428,2.59769
-0.888434,0.222335,2.428,2.59498
-0.880553,0.222335,2.428,2.59229
-0.872672,0.222335,2.428,2.58963
-0.864792,0.222335,2.428,2.58698
-0.856911,0.222335,2.428,2.58436
-0.84903,0.222335,2.428,2.58176
-0.84115,0.222335,2.428,2.57918
-0.839103,0.223892,2.445,2.59466
-0.831167,0.223892,2.445,2.5921
-0.823232,0.223892,2.445,2.58957
-0.815296,0.223892,2.445,2.58706
-0.80736,0.223892,2.445,2.58457
-0.799424,0.223892,2.445,2.5821
-0.797315,0.22554,2.463,2.59864
-0.789321,0.22554,2.463,2.5962
-0.781326,0.22554,2.463,2.59378
-0.773332,0.22554,2.463,2.59139
-0.765338,0.22554,2.463,2.58901
-0.757344,0.22554,2.463,2.58666
-0.754826,0.227188,2.481,2.60322
-0.746773,0.227188,2.481,2.60089
-0.73872,0.227188,2.481,2.59859
-0.730668,0.227188,2.481,2.59632
-0.722615,0.227188,2.481,2.59406
-0.714562,0.227188,2.481,2.59183
-0.711635,0.228837,2.499,2.60841
-0.703524,0.228837,2.499,2.60621
-0.690404,0.227188,2.481,2.58527
-0.682351,0.227188,2.481,2.58313
-0.674299,0.227188,2.481,2.58102
-0.67108,0.228837,2.499,2.59764
-0.662968,0.228837,2.499,2.59555
-0.654857,0.228837,2.499,2.59349
-0.646746,0.228837,2.499,2.59146
-0.638635,0.228837,2.499,2.58944
-0.630524,0.228837,2.499,2.58746
-0.622413,0.228837,2.499,2.58549
-0.614302,0.228837,2.499,2.58355
-0.606191,0.228837,2.499,2.58163
-0.598079,0.228837,2.499,2.57974
-0.589968,0.228837,2.499,2.57787
-0.581857,0.228837,2.499,2.57603
-0.577879,0.230485,2.517,2.59275
-0.569709,0.230485,2.517,2.59094
-0.561539,0.230485,2.517,2.58916
-0.55337,0.230485,2.517,2.5874
-0.549316,0.232225,2.536,2.60518
-0.541085,0.232225,2.536,2.60346
-0.532853,0.232225,2.536,2.60176
-0.524622,0.232225,2.536,2.60009
-0.52026,0.233965,2.555,2.61791
-0.511967,0.233965,2.555,2.61627
-0.503674,0.233965,2.555,2.61466
-0.495381,0.233965,2.555,2.61308
-0.487088,0.233965,2.555,2.61152
-0.475235,0.232225,2.536,2.59057
-0.467004,0.232225,2.536,2.58908
-0.458772,0.232225,2.536,2.5876
-0.447166,0.230485,2.517,2.56678
-0.438996,0.230485,2.517,2.56537
-0.430827,0.230485,2.517,2.56399
-0.422657,0.230485,2.517,2.56263
-0.411523,0.228837,2.499,2.54297
-0.403412,0.228837,2.499,2.54167
-0.395301,0.228837,2.499,2.5404
-0.384401,0.227188,2.481,2.52086
-0.376348,0.227188,2.481,2.51965
-0.368296,0.227188,2.481,2.51846
-0.362857,0.228837,2.499,2.53555
-0.354745,0.228837,2.499,2.53441
-0.346634,0.228837,2.499,2.53328
-0.338523,0.228837,2.499,2.53219
-0.330412,0.228837,2.499,2.53111
-0.322301,0.228837,2.499,2.53007
-0.31419,0.228837,2.499,2.52905
-0.308283,0.230485,2.517,2.54626
-0.300114,0.230485,2.517,2.54529
-0.291944,0.230485,2.517,2.54434
-0.283775,0.230485,2.517,2.54341
-0.277685,0.232225,2.536,2.56171
-0.269454,0.232225,2.536,2.56083
-0.261223,0.232225,2.536,2.55997
-0.254887,0.233965,2.555,2.57832
-0.246594,0.233965,2.555,2.57751
-0.238301,0.233965,2.555,2.57673
-0.230009,0.233965,2.555,2.57598
-0.221716,0.233965,2.555,2.57525
-0.213423,0.233965,2.555,2.57455
-0.20513,0.233965,2.555,2.57388
-0.196837,0.233965,2.555,2.57323
-0.188544,0.233965,2.555,2.57261
-0.180251,0.233965,2.555,2.57201
-0.171958,0.233965,2.555,2.57145
-0.163665,0.233965,2.555,2.5709
-0.155372,0.233965,2.555,2.57039
-0.14708,0.233965,2.555,2.5699
-0.138787,0.233965,2.555,2.56944
-0.130494,0.233965,2.555,2.56901
-0.122201,0.233965,2.555,2.5686
-0.113908,0.233965,2.555,2.56822
-0.105615,0.233965,2.555,2.56786
-0.0973222,0.233965,2.555,2.56753
-0.0890293,0.233965,2.555,2.56723
-0.0807364,0.233965,2.555,2.56696
-0.0724435,0.233965,2.555,2.56671
-0.0641506,0.233965,2.555,2.56649
-0.0558577,0.233965,2.555,2.5663
-0.0475648,0.233965,2.555,2.56613
-0.0392719,0.233965,2.555,2.56599
-0.030979,0.233965,2.555,2.56588
-0.0226861,0.233965,2.555,2.56579
-0.0143932,0.233965,2.555,2.56573
-0.00610034,0.233965,2.555,2.5657
0.00219255,0.233965,2.555,2.56569
0.0104854,0.233965,2.555,2.56571
0.0187783,0.233965,2.555,2.56576
0.0270712,0.233965,2.555,2.56583
0.0356271,0.235704,2.574,2.58502
0.0439817,0.235704,2.574,2.58514
0.0519499,0.233965,2.555,2.56622
0.0602428,0.233965,2.555,2.5664
0.0685357,0.233965,2.555,2.56661
0.0768286,0.233965,2.555,2.56684
0.0844885,0.232225,2.536,2.54801
0.0927197,0.232225,2.536,2.5483
0.100951,0.232225,2.536,2.54861
0.109182,0.232225,2.536,2.54895
0.117413,0.232225,2.536,2.54932
0.125645,0.232225,2.536,2.54971
0.132873,0.230485,2.517,2.53102
0.141042,0.230485,2.517,2.53146
0.149212,0.230485,2.517,2.53193
0.157382,0.230485,2.517,2.53243
0.165551,0.230485,2.517,2.53295
nan,nan,nan,NaN
nan,nan,nan,NaN
nan,nan,nan,NaN
nan,nan,nan,NaN
nan,nan,nan,NaN
nan,nan,nan,NaN
nan,nan,nan,NaN
nan,nan,nan,NaN
nan,nan,nan,NaN
nan,nan,nan,NaN
nan,nan,nan,NaN
nan,nan,nan,NaN
nan,nan,nan,NaN
nan,nan,nan,NaN
nan,nan,nan,NaN
nan,nan,nan,NaN
nan,nan,nan,NaN
nan,nan,nan,NaN
nan,nan,nan,NaN
nan,nan,nan,NaN
nan,nan,nan,NaN
nan,nan,nan,NaN
nan,nan,nan,NaN
nan,nan,nan,NaN
nan,nan,nan,NaN
nan,nan,nan,NaN
nan,nan,nan,NaN
nan,nan,nan,NaN
nan,nan,nan,NaN
nan,nan,nan,NaN
nan,nan,nan,NaN
nan,nan,nan,NaN
0.410943,0.217665,2.377,2.42206
0.418658,0.217665,2.377,2.42338
0.426373,0.217665,2.377,2.42473
0.437193,0.219222,2.394,2.44345
0.448123,0.220778,2.411,2.46221
nan,nan,nan,NaN
nan,nan,nan,NaN
nan,nan,nan,NaN
nan,nan,nan,NaN
0.483815,0.219222,2.394,2.45222
0.484809,0.2162,2.361,2.41994
0.492472,0.2162,2.361,2.42149
0.496746,0.214735,2.345,2.40664
0.504357,0.214735,2.345,2.40822
0.511969,0.214735,2.345,2.40982
0.51958,0.214735,2.345,2.41145
0.527191,0.214735,2.345,2.4131
0.534802,0.214735,2.345,2.41478
0.542414,0.214735,2.345,2.41647
0.542519,0.211804,2.313,2.3852
0.550027,0.211804,2.313,2.38691
nan,nan,nan,NaN
nan,nan,nan,NaN
0.550271,0.203563,2.223,2.29912
0.557486,0.203563,2.223,2.30086
0.557335,0.200907,2.194,2.27258
0.55751,0.198435,2.167,2.24635
0.564543,0.198435,2.167,2.2481
0.567884,0.197153,2.153,2.23535
0.571401,0.195963,2.14,2.22362
0.578347,0.195963,2.14,2.22542
0.581464,0.194681,2.126,2.21266
0.584767,0.19349,2.113,2.20095
0.591625,0.19349,2.113,2.20278
0.598483,0.19349,2.113,2.20463
0.605341,0.19349,2.113,2.2065
0.615966,0.194681,2.126,2.22198
0.626968,0.195963,2.14,2.23855
0.633914,0.195963,2.14,2.2405
0.644753,0.197153,2.153,2.2561
0.655979,0.198435,2.167,2.27279
0.663013,0.198435,2.167,2.27483
0.674066,0.199625,2.18,2.29055
0.681142,0.199625,2.18,2.29264
0.688217,0.199625,2.18,2.29475
0.699758,0.200907,2.194,2.31164
0.711712,0.202281,2.209,2.32962
0.723438,0.203563,2.223,2.3466
0.730654,0.203563,2.223,2.34883
0.737869,0.203563,2.223,2.35109
0.749777,0.204845,2.237,2.36818
0.757037,0.204845,2.237,2.37049
nan,nan,nan,NaN
nan,nan,nan,NaN
nan,nan,nan,NaN
nan,nan,nan,NaN
0.820294,0.211804,2.313,2.46327
0.827801,0.211804,2.313,2.46578
0.835309,0.211804,2.313,2.46831
0.842816,0.211804,2.313,2.47086
0.850324,0.211804,2.313,2.47344
0.857831,0.211804,2.313,2.47603
0.859727,0.210431,2.298,2.46256
0.867186,0.210431,2.298,2.46518
0.874644,0.210431,2.298,2.46781
0.882103,0.210431,2.298,2.47046
0.889562,0.210431,2.298,2.47314
0.897021,0.210431,2.298,2.47583
0.910383,0.211804,2.313,2.49472
0.92424,0.213269,2.329,2.51475
0.938201,0.214735,2.345,2.53483
0.945812,0.214735,2.345,2.53766
0.959929,0.2162,2.361,2.55784
0.974149,0.217665,2.377,2.57808
0.981864,0.217665,2.377,2.581
0.989579,0.217665,2.377,2.58395
1.01156,0.220778,2.411,2.62391
1.0122,0.219222,2.394,2.60842
1.01997,0.219222,2.394,2.61144
1.03504,0.220778,2.411,2.63305
1.04286,0.220778,2.411,2.63614
1.05069,0.220778,2.411,2.63924
1.05851,0.220778,2.411,2.64237
1.06634,0.220778,2.411,2.64551
1.07416,0.220778,2.411,2.64868
1.07436,0.219222,2.394,2.63316
1.08213,0.219222,2.394,2.63634
1.0899,0.219222,2.394,2.63954
1.09767,0.219222,2.394,2.64276
1.10544,0.219222,2.394,2.646
1.11321,0.219222,2.394,2.64925
1.12098,0.219222,2.394,2.65253
1.12875,0.219222,2.394,2.65582
1.13652,0.219222,2.394,2.65913
1.14429,0.219222,2.394,2.66246
1.15206,0.219222,2.394,2.66581
1.15983,0.219222,2.394,2.66918
1.1676,0.219222,2.394,2.67256
1.18372,0.220778,2.411,2.69497
1.19155,0.220778,2.411,2.69842
1.19937,0.220778,2.411,2.70188
1.2072,0.220778,2.411,2.70536
1.21502,0.220778,2.411,2.70886
1.22285,0.220778,2.411,2.71238
1.23935,0.222335,2.428,2.73507
1.24723,0.222335,2.428,2.73865
1.27321,0.22554,2.463,2.78178
1.2812,0.22554,2.463,2.78545
1.28919,0.22554,2.463,2.78913
1.30667,0.227188,2.481,2.81325
1.31472,0.227188,2.481,2.817
1.33237,0.228837,2.499,2.84123
1.36033,0.232225,2.536,2.88716
1.36856,0.232225,2.536,2.89105
1.38711,0.233965,2.555,2.91665
1.40578,0.235704,2.574,2.94232
1.41413,0.235704,2.574,2.94632
1.43298,0.237444,2.593,2.97212
1.45252,0.239276,2.613,2.99914
1.47218,0.241107,2.633,3.02624
1.48073,0.241107,2.633,3.03041
1.51303,0.244953,2.675,3.083
1.52171,0.244953,2.675,3.08727
1.5304,0.244953,2.675,3.09156
1.53908,0.244953,2.675,3.09587
1.54776,0.244953,2.675,3.10019
1.55644,0.244953,2.675,3.10454
1.56512,0.244953,2.675,3.1089
1.57381,0.244953,2.675,3.11328
1.58249,0.244953,2.675,3.11768
1.56619,0.241107,2.633,3.07307
1.57474,0.241107,2.633,3.07744
1.58328,0.241107,2.633,3.08182
1.56764,0.237444,2.593,3.03933
1.57606,0.237444,2.593,3.04368
1.58448,0.237444,2.593,3.04805
1.58122,0.235704,2.574,3.03007
1.57784,0.233965,2.555,3.01203
1.58614,0.233965,2.555,3.01639
1.59443,0.233965,2.555,3.02076
1.5908,0.232225,2.536,3.00265
1.59903,0.232225,2.536,3.00701
1.60727,0.232225,2.536,3.0114
1.60339,0.230485,2.517,2.99321
1.61156,0.230485,2.517,2.99759
1.61973,0.230485,2.517,3.00199
1.61626,0.228837,2.499,2.98491
1.62437,0.228837,2.499,2.98931
1.63248,0.228837,2.499,2.99372
1.62878,0.227188,2.481,2.97656
1.63683,0.227188,2.481,2.98097
1.64488,0.227188,2.481,2.9854
1.64094,0.22554,2.463,2.96815
1.64894,0.22554,2.463,2.97258
1.65693,0.22554,2.463,2.97702
1.65276,0.223892,2.445,2.95969
1.64915,0.222335,2.428,2.94352
-1.72115,0.235239,2.481,3.02871
-1.7131,0.235239,2.481,3.02414
-1.70505,0.235239,2.481,3.01958
-1.69699,0.235239,2.481,3.01504
-1.68894,0.235239,2.481,3.01052
-1.68089,0.235239,2.481,3.00601
-1.67283,0.235239,2.481,3.00151
-1.67686,0.236945,2.499,3.01878
-1.66875,0.236945,2.499,3.01428
-1.6726,0.238652,2.517,3.03147
-1.66443,0.238652,2.517,3.02697
-1.65626,0.238652,2.517,3.02249
-1.66053,0.240454,2.536,3.0408
-1.6523,0.240454,2.536,3.03632
-1.65639,0.242255,2.555,3.05456
-1.64809,0.242255,2.555,3.05007
-1.6398,0.242255,2.555,3.0456
-1.63151,0.242255,2.555,3.04114
-1.63529,0.244057,2.574,3.05928
-1.62693,0.244057,2.574,3.05482
-1.61858,0.244057,2.574,3.05038
-1.61022,0.244057,2.574,3.04596
-1.60187,0.244057,2.574,3.04155
-1.59351,0.244057,2.574,3.03716
-1.58516,0.244057,2.574,3.03278
-1.5768,0.244057,2.574,3.02842
-1.56845,0.244057,2.574,3.02408
-1.54858,0.242255,2.555,2.99747
-1.52883,0.240454,2.536,2.97093
-1.5206,0.240454,2.536,2.96671
-1.50104,0.238652,2.517,2.9403
-1.47152,0.235239,2.481,2.89414
-1.46346,0.235239,2.481,2.89006
-1.44485,0.233532,2.463,2.86505
-1.42636,0.231825,2.445,2.84012
-1.41842,0.231825,2.445,2.83614
-1.40068,0.230214,2.428,2.81249
-1.37329,0.22699,2.394,2.76924
-1.36552,0.22699,2.394,2.7654
-1.33904,0.223861,2.361,2.7235
-1.33137,0.223861,2.361,2.71974
-1.32371,0.223861,2.361,2.716
-1.31605,0.223861,2.361,2.71227
-1.30838,0.223861,2.361,2.70856
-1.30954,0.225378,2.377,2.7232
-1.32044,0.228602,2.411,2.7584
-1.31262,0.228602,2.411,2.75466
-1.32319,0.231825,2.445,2.78973
-1.33462,0.235239,2.481,2.827
-1.32657,0.235239,2.481,2.8232
-1.33765,0.238652,2.517,2.86034
-1.34955,0.242255,2.555,2.89965
-1.35123,0.244057,2.574,2.91734
-1.34288,0.244057,2.574,2.91348
-1.35474,0.247754,2.613,2.95372
-1.36738,0.251642,2.654,2.99613
-1.35877,0.251642,2.654,2.99221
-1.35016,0.251642,2.654,2.9883
-1.34154,0.251642,2.654,2.98442
-1.33293,0.251642,2.654,2.98056
-1.32431,0.251642,2.654,2.97672
-1.29537,0.247754,2.613,2.92697
-1.28689,0.247754,2.613,2.92322
-1.27841,0.247754,2.613,2.9195
-1.26021,0.245858,2.593,2.89348
-1.25179,0.245858,2.593,2.88982
-1.23427,0.244057,2.574,2.86504
-1.20781,0.240454,2.536,2.81921
-1.19958,0.240454,2.536,2.81569
-1.19135,0.240454,2.536,2.81219
-1.17426,0.238652,2.517,2.78767
-1.16609,0.238652,2.517,2.78424
-1.14964,0.236945,2.499,2.76094
-1.1333,0.235239,2.481,2.73771
-1.11709,0.233532,2.463,2.71455
-1.10909,0.233532,2.463,2.71127
-1.09305,0.231825,2.445,2.68822
-1.08512,0.231825,2.445,2.685
-1.07718,0.231825,2.445,2.68181
-1.06924,0.231825,2.445,2.67863
-1.05393,0.230214,2.428,2.65687
-1.04605,0.230214,2.428,2.65375
-1.03817,0.230214,2.428,2.65066
-1.0375,0.231825,2.445,2.66612
-1.02956,0.231825,2.445,2.66304
-1.02163,0.231825,2.445,2.65998
-1.01369,0.231825,2.445,2.65694
-1.00576,0.231825,2.445,2.65392
-0.997821,0.231825,2.445,2.65093
-0.989885,0.231825,2.445,2.64795
-0.981949,0.231825,2.445,2.64499
-0.974013,0.231825,2.445,2.64206
-0.966077,0.231825,2.445,2.63914
-0.958141,0.231825,2.445,2.63625
-0.950205,0.231825,2.445,2.63337
-0.935718,0.230214,2.428,2.61223
-0.927837,0.230214,2.428,2.60942
-0.919957,0.230214,2.428,2.60663
-0.912076,0.230214,2.428,2.60386
-0.904195,0.230214,2.428,2.60111
-0.896315,0.230214,2.428,2.59838
-0.888434,0.230214,2.428,2.59567
-0.880553,0.230214,2.428,2.59298
-0.872672,0.230214,2.428,2.59032
-0.864792,0.230214,2.428,2.58767
-0.856911,0.230214,2.428,2.58505
-0.84903,0.230214,2.428,2.58245
-0.84115,0.230214,2.428,2.57987
-0.833269,0.230214,2.428,2.57731
-0.825388,0.230214,2.428,2.57477
-0.817508,0.230214,2.428,2.57226
-0.809627,0.230214,2.428,2.56976
-0.801746,0.230214,2.428,2.56729
-0.799424,0.231825,2.445,2.5828
-0.791488,0.231825,2.445,2.58035
-0.783552,0.231825,2.445,2.57793
-0.775616,0.231825,2.445,2.57553
-0.773332,0.233532,2.463,2.59209
-0.765338,0.233532,2.463,2.58972
-0.757344,0.233532,2.463,2.58737
-0.754826,0.235239,2.481,2.60393
-0.746773,0.235239,2.481,2.60161
-0.73872,0.235239,2.481,2.59931
-0.730668,0.235239,2.481,2.59703
-0.722615,0.235239,2.481,2.59478
-0.714562,0.235239,2.481,2.59255
-0.711635,0.236945,2.499,2.60913
-0.703524,0.236945,2.499,2.60693
-0.690404,0.235239,2.481,2.58599
-0.682351,0.235239,2.481,2.58385
-0.674299,0.235239,2.481,2.58174
-0.666246,0.235239,2.481,2.57965
-0.658193,0.235239,2.481,2.57758
-0.65014,0.235239,2.481,2.57554
-0.646746,0.236945,2.499,2.59219
-0.638635,0.236945,2.499,2.59017
-0.630524,0.236945,2.499,2.58819
-0.622413,0.236945,2.499,2.58622
-0.614302,0.236945,2.499,2.58428
-0.606191,0.236945,2.499,2.58237
-0.598079,0.236945,2.499,2.58047
-0.589968,0.236945,2.499,2.57861
-0.581857,0.236945,2.499,2.57676
-0.573746,0.236945,2.499,2.57494
-0.569709,0.238652,2.517,2.59168
-0.561539,0.238652,2.517,2.5899
-0.55337,0.238652,2.517,2.58814
-0.5452,0.238652,2.517,2.5864
-0.537031,0.238652,2.517,2.58469
-0.532853,0.240454,2.536,2.60251
-0.524622,0.240454,2.536,2.60083
-0.516391,0.240454,2.536,2.59919
-0.50816,0.240454,2.536,2.59756
-0.503674,0.242255,2.555,2.61542
-0.495381,0.242255,2.555,2.61383
-0.487088,0.242255,2.555,2.61227
-0.475235,0.240454,2.536,2.59132
-0.467004,0.240454,2.536,2.58983
-0.458772,0.240454,2.536,2.58836
-0.447166,0.238652,2.517,2.56753
-0.438996,0.238652,2.517,2.56612
-0.430827,0.238652,2.517,2.56473
-0.422657,0.238652,2.517,2.56337
-0.411523,0.236945,2.499,2.54372
-0.403412,0.236945,2.499,2.54242
-0.395301,0.236945,2.499,2.54114
-0.38719,0.236945,2.499,2.53989
-0.379079,0.236945,2.499,2.53867
-0.370968,0.236945,2.499,2.53747
-0.362857,0.236945,2.499,2.5363
-0.354745,0.236945,2.499,2.53515
-0.346634,0.236945,2.499,2.53403
-0.338523,0.236945,2.499,2.53293
-0.330412,0.236945,2.499,2.53186
-0.322301,0.236945,2.499,2.53081
-0.31419,0.236945,2.499,2.52979
-0.306079,0.236945,2.499,2.5288
-0.300114,0.238652,2.517,2.54604
-0.291944,0.238652,2.517,2.54509
-0.283775,0.238652,2.517,2.54416
-0.277685,0.240454,2.536,2.56246
-0.269454,0.240454,2.536,2.56159
-0.261223,0.240454,2.536,2.56073
-0.252992,0.240454,2.536,2.55991
-0.244761,0.240454,2.536,2.55911
-0.238301,0.242255,2.555,2.5775
-0.228298,0.240454,2.536,2.55758
-0.220067,0.240454,2.536,2.55686
-0.211836,0.240454,2.536,2.55617
-0.20513,0.242255,2.555,2.57464
-0.196837,0.242255,2.555,2.574
-0.188544,0.242255,2.555,2.57338
-0.180251,0.242255,2.555,2.57278
-0.171958,0.242255,2.555,2.57221
-0.163665,0.242255,2.555,2.57167
-0.155372,0.242255,2.555,2.57116
-0.14708,0.242255,2.555,2.57067
-0.138787,0.242255,2.555,2.57021
-0.130494,0.242255,2.555,2.56977
-0.122201,0.242255,2.555,2.56937
-0.113908,0.242255,2.555,2.56899
-0.105615,0.242255,2.555,2.56863
-0.0973222,0.242255,2.555,2.5683
-0.0896914,0.244057,2.574,2.5871
-0.0813368,0.244057,2.574,2.58682
-0.0729822,0.244057,2.574,2.58657
-0.0646277,0.244057,2.574,2.58635
-0.0562731,0.244057,2.574,2.58616
-0.0479185,0.244057,2.574,2.58599
-0.039564,0.244057,2.574,2.58585
-0.0312094,0.244057,2.574,2.58573
-0.0228548,0.244057,2.574,2.58565
-0.0145003,0.244057,2.574,2.58559
-0.00614571,0.244057,2.574,2.58555
0.00220886,0.244057,2.574,2.58555
0.0104854,0.242255,2.555,2.56648
0.0187783,0.242255,2.555,2.56653
0.0270712,0.242255,2.555,2.5666
0.0353641,0.242255,2.555,2.5667
0.043657,0.242255,2.555,2.56683
0.0519499,0.242255,2.555,2.56698
0.0597948,0.240454,2.536,2.54808
0.0680261,0.240454,2.536,2.54828
0.0762573,0.240454,2.536,2.54852
0.0844885,0.240454,2.536,2.54877
0.0927197,0.240454,2.536,2.54906
0.100951,0.240454,2.536,2.54937
0.109182,0.240454,2.536,2.54971
0.117413,0.240454,2.536,2.55008
0.125645,0.240454,2.536,2.55047
0.132873,0.238652,2.517,2.53178
0.141042,0.238652,2.517,2.53222
0.149212,0.238652,2.517,2.53269
0.157382,0.238652,2.517,2.53318
0.165551,0.238652,2.517,2.5337
nan,nan,nan,NaN
nan,nan,nan,NaN
nan,nan,nan,NaN
nan,nan,nan,NaN
nan,nan,nan,NaN
nan,nan,nan,NaN
nan,nan,nan,NaN
nan,nan,nan,NaN
nan,nan,nan,NaN
nan,nan,nan,NaN
nan,nan,nan,NaN
nan,nan,nan,NaN
nan,nan,nan,NaN
nan,nan,nan,NaN
nan,nan,nan,NaN
nan,nan,nan,NaN
nan,nan,nan,NaN
nan,nan,nan,NaN
nan,nan,nan,NaN
nan,nan,nan,NaN
nan,nan,nan,NaN
nan,nan,nan,NaN
nan,nan,nan,NaN
nan,nan,nan,NaN
nan,nan,nan,NaN
nan,nan,nan,NaN
nan,nan,nan,NaN
nan,nan,nan,NaN
nan,nan,nan,NaN
nan,nan,nan,NaN
nan,nan,nan,NaN
nan,nan,nan,NaN
0.413882,0.22699,2.394,2.44009
0.421652,0.22699,2.394,2.44142
0.429423,0.22699,2.394,2.44278
0.440297,0.228602,2.411,2.46151
0.448123,0.228602,2.411,2.46292
nan,nan,nan,NaN
nan,nan,nan,NaN
nan,nan,nan,NaN
nan,nan,nan,NaN
0.483815,0.22699,2.394,2.45292
0.488094,0.225378,2.377,2.43704
0.49581,0.225378,2.377,2.4386
0.500135,0.223861,2.361,2.42375
0.507799,0.223861,2.361,2.42534
0.515462,0.223861,2.361,2.42696
0.523125,0.223861,2.361,2.4286
0.530788,0.223861,2.361,2.43026
0.538451,0.223861,2.361,2.43195
0.542414,0.222344,2.345,2.41716
0.546272,0.220827,2.329,2.40238
0.553832,0.220827,2.329,2.40411
nan,nan,nan,NaN
nan,nan,nan,NaN
0.550271,0.210776,2.223,2.29977
0.557486,0.210776,2.223,2.30151
0.557335,0.208027,2.194,2.27322
0.55751,0.205467,2.167,2.24698
0.564543,0.205467,2.167,2.24874
0.567884,0.204139,2.153,2.23597
0.571401,0.202906,2.14,2.22425
0.578347,0.202906,2.14,2.22604
0.581464,0.201579,2.126,2.21328
0.584767,0.200346,2.113,2.20156
0.591625,0.200346,2.113,2.20339
0.598483,0.200346,2.113,2.20524
0.605341,0.200346,2.113,2.20711
0.615966,0.201579,2.126,2.22259
0.626968,0.202906,2.14,2.23917
0.633914,0.202906,2.14,2.24112
0.644753,0.204139,2.153,2.25672
0.655979,0.205467,2.167,2.27341
0.663013,0.205467,2.167,2.27545
0.670046,0.205467,2.167,2.27751
0.681142,0.206699,2.18,2.29327
