-1.66027,0.311925,2.654,3.14603
-1.65165,0.311925,2.654,3.14149
-1.64304,0.311925,2.654,3.13697
-1.62149,0.309456,2.633,3.10768
-1.61295,0.309456,2.633,3.10323
-1.6044,0.309456,2.633,3.0988
-1.58373,0.307106,2.613,3.07088
-1.55174,0.302522,2.574,3.02074
-1.54339,0.302522,2.574,3.01646
-1.51237,0.298056,2.536,2.96773
-1.49287,0.295823,2.517,2.94134
-1.4847,0.295823,2.517,2.9372
-1.45541,0.291592,2.481,2.89113
-1.42636,0.287361,2.445,2.84519
-1.41842,0.287361,2.445,2.84122
-1.39087,0.283365,2.411,2.79781
-1.36354,0.279369,2.377,2.75453
-1.35583,0.279369,2.377,2.75072
-1.33904,0.277488,2.361,2.72843
-1.32235,0.275608,2.345,2.70621
-1.30577,0.273727,2.329,2.68406
-1.29821,0.273727,2.329,2.6804
-1.29065,0.273727,2.329,2.67674
-1.28309,0.273727,2.329,2.67311
-1.2843,0.275608,2.345,2.68782
-1.27668,0.275608,2.345,2.6842
-1.27773,0.277488,2.361,2.69887
-1.28782,0.281367,2.394,2.73293
-1.28005,0.281367,2.394,2.72927
-1.29035,0.285363,2.428,2.76435
-1.30096,0.289476,2.463,2.80047
-1.30241,0.291592,2.481,2.81721
-1.29436,0.291592,2.481,2.81349
-1.30497,0.295823,2.517,2.85057
-1.31638,0.300289,2.555,2.88982
-1.30808,0.300289,2.555,2.88605
-1.31912,0.304755,2.593,2.92517
-1.33093,0.309456,2.633,2.96645
-1.33293,0.311925,2.654,2.98625
-1.32431,0.311925,2.654,2.98242
-1.3157,0.311925,2.654,2.9786
-1.31743,0.314393,2.675,2.99835
-1.30874,0.314393,2.675,2.99454
-1.30006,0.314393,2.675,2.99076
-1.30152,0.316861,2.696,3.01044
-1.2827,0.314393,2.675,2.98325
-1.26401,0.311925,2.654,2.95614
-1.2554,0.311925,2.654,2.95246
-1.24679,0.311925,2.654,2.94881
-1.21904,0.307106,2.613,2.89968
-1.2013,0.304755,2.593,2.87396
-1.19288,0.304755,2.593,2.87045
-1.16711,0.300289,2.555,2.82495
-1.1502,0.298056,2.536,2.80055
-1.14196,0.298056,2.536,2.79718
-1.12524,0.295823,2.517,2.7729
-1.10908,0.293707,2.499,2.74979
-1.10097,0.293707,2.499,2.74653
-1.08499,0.291592,2.481,2.72352
-1.06912,0.289476,2.463,2.70059
-1.06113,0.289476,2.463,2.69743
-1.04544,0.287361,2.445,2.67461
-1.0375,0.287361,2.445,2.67152
-1.02956,0.287361,2.445,2.66845
-1.02163,0.287361,2.445,2.66539
-1.01369,0.287361,2.445,2.66236
-1.00576,0.287361,2.445,2.65935
-0.997821,0.287361,2.445,2.65636
-0.989885,0.287361,2.445,2.65339
-0.975121,0.285363,2.428,2.63201
-0.967241,0.285363,2.428,2.6291
-0.95936,0.285363,2.428,2.62621
-0.951479,0.285363,2.428,2.62334
-0.943599,0.285363,2.428,2.6205
-0.935718,0.285363,2.428,2.61767
-0.921341,0.283365,2.411,2.59655
-0.913515,0.283365,2.411,2.59379
-0.90569,0.283365,2.411,2.59104
-0.897864,0.283365,2.411,2.58832
-0.896315,0.285363,2.428,2.60384
-0.888434,0.285363,2.428,2.60114
-0.880553,0.285363,2.428,2.59846
-0.872672,0.285363,2.428,2.5958
-0.864792,0.285363,2.428,2.59316
-0.856911,0.285363,2.428,2.59054
-0.854975,0.287361,2.445,2.60607
-0.847039,0.287361,2.445,2.60347
-0.839103,0.287361,2.445,2.6009
-0.831167,0.287361,2.445,2.59835
-0.829292,0.289476,2.463,2.61494
-0.8273,0.291592,2.481,2.6315
-0.819247,0.291592,2.481,2.62898
-0.811195,0.291592,2.481,2.62649
-0.808969,0.293707,2.499,2.64305
-0.800858,0.293707,2.499,2.64058
-0.792747,0.293707,2.499,2.63813
-0.790287,0.295823,2.517,2.65469
-0.782118,0.295823,2.517,2.65226
-0.773948,0.295823,2.517,2.64987
-0.765778,0.295823,2.517,2.64749
-0.757609,0.295823,2.517,2.64514
-0.749439,0.295823,2.517,2.64281
-0.746865,0.298056,2.536,2.66044
-0.738634,0.298056,2.536,2.65814
-0.730403,0.298056,2.536,2.65587
-0.722172,0.298056,2.536,2.65361
-0.71394,0.298056,2.536,2.65139
-0.705709,0.298056,2.536,2.64918
-0.697478,0.298056,2.536,2.647
-0.689247,0.298056,2.536,2.64484
-0.681016,0.298056,2.536,2.64271
-0.672784,0.298056,2.536,2.6406
-0.664553,0.298056,2.536,2.63852
-0.656322,0.298056,2.536,2.63645
-0.648091,0.298056,2.536,2.63442
-0.639859,0.298056,2.536,2.6324
-0.631628,0.298056,2.536,2.63042
-0.623397,0.298056,2.536,2.62845
-0.615166,0.298056,2.536,2.62651
-0.602387,0.295823,2.517,2.60493
-0.594218,0.295823,2.517,2.60306
-0.586048,0.295823,2.517,2.6012
-0.577879,0.295823,2.517,2.59937
-0.57401,0.298056,2.536,2.61718
-0.565778,0.298056,2.536,2.61539
-0.557547,0.298056,2.536,2.61362
-0.549316,0.298056,2.536,2.61187
-0.541085,0.298056,2.536,2.61015
-0.532853,0.298056,2.536,2.60846
-0.524622,0.298056,2.536,2.60679
-0.516391,0.298056,2.536,2.60515
-0.50816,0.298056,2.536,2.60353
-0.499929,0.298056,2.536,2.60193
-0.495381,0.300289,2.555,2.61985
-0.483466,0.298056,2.536,2.59882
-0.475235,0.298056,2.536,2.5973
-0.467004,0.298056,2.536,2.59581
-0.458772,0.298056,2.536,2.59434
-0.450541,0.298056,2.536,2.5929
-0.44231,0.298056,2.536,2.59148
-0.434079,0.298056,2.536,2.59009
-0.425848,0.298056,2.536,2.58872
-0.417616,0.298056,2.536,2.58738
-0.409385,0.298056,2.536,2.58606
-0.401154,0.298056,2.536,2.58477
-0.392923,0.298056,2.536,2.58351
-0.384691,0.298056,2.536,2.58227
-0.37646,0.298056,2.536,2.58106
-0.368229,0.298056,2.536,2.57987
-0.359998,0.298056,2.536,2.57871
-0.351766,0.298056,2.536,2.57757
-0.343535,0.298056,2.536,2.57646
-0.335304,0.298056,2.536,2.57538
-0.327073,0.298056,2.536,2.57432
-0.318842,0.298056,2.536,2.57328
-0.31061,0.298056,2.536,2.57228
-0.302379,0.298056,2.536,2.5713
-0.294148,0.298056,2.536,2.57034
-0.285917,0.298056,2.536,2.56941
-0.279766,0.300289,2.555,2.58775
-0.271473,0.300289,2.555,2.58687
-0.26318,0.300289,2.555,2.58601
-0.254887,0.300289,2.555,2.58518
-0.246594,0.300289,2.555,2.58438
-0.238301,0.300289,2.555,2.5836
-0.230009,0.300289,2.555,2.58285
-0.221716,0.300289,2.555,2.58212
-0.213423,0.300289,2.555,2.58142
-0.203604,0.298056,2.536,2.56156
-0.195373,0.298056,2.536,2.56092
-0.187142,0.298056,2.536,2.5603
-0.178911,0.298056,2.536,2.55972
-0.171958,0.300289,2.555,2.57833
-0.163665,0.300289,2.555,2.57779
-0.155372,0.300289,2.555,2.57727
-0.145986,0.298056,2.536,2.55762
-0.137755,0.298056,2.536,2.55717
-0.129523,0.298056,2.536,2.55674
-0.122201,0.300289,2.555,2.57549
-0.113908,0.300289,2.555,2.57511
-0.105615,0.300289,2.555,2.57475
-0.0973222,0.300289,2.555,2.57443
-0.0890293,0.300289,2.555,2.57413
-0.0807364,0.300289,2.555,2.57385
-0.0724435,0.300289,2.555,2.57361
-0.0641506,0.300289,2.555,2.57339
-0.0558577,0.300289,2.555,2.57319
-0.0475648,0.300289,2.555,2.57303
-0.0392719,0.300289,2.555,2.57289
-0.030979,0.300289,2.555,2.57277
-0.0226861,0.300289,2.555,2.57269
-0.0143932,0.300289,2.555,2.57263
-0.00610034,0.300289,2.555,2.57259
0.00219255,0.300289,2.555,2.57259
0.0104854,0.300289,2.555,2.57261
0.0187783,0.300289,2.555,2.57265
0.0270712,0.300289,2.555,2.57273
0.0353641,0.300289,2.555,2.57283
0.0433324,0.298056,2.536,2.55382
0.0515636,0.298056,2.536,2.55398
0.0597948,0.298056,2.536,2.55416
0.0675164,0.295823,2.517,2.53522
0.075686,0.295823,2.517,2.53545
0.0838555,0.295823,2.517,2.53571
0.0920251,0.295823,2.517,2.53599
0.100195,0.295823,2.517,2.5363
0.107589,0.293707,2.499,2.5185
0.1157,0.293707,2.499,2.51886
0.123811,0.293707,2.499,2.51924
0.131923,0.293707,2.499,2.51966
0.140034,0.293707,2.499,2.52009
0.147078,0.291592,2.481,2.5024
0.155131,0.291592,2.481,2.50289
0.163183,0.291592,2.481,2.5034
nan,nan,nan,NaN
nan,nan,nan,NaN
0.185982,0.289476,2.463,2.48692
0.193976,0.289476,2.463,2.48753
0.201971,0.289476,2.463,2.48816
0.209965,0.289476,2.463,2.48883
nan,nan,nan,NaN
nan,nan,nan,NaN
nan,nan,nan,NaN
nan,nan,nan,NaN
nan,nan,nan,NaN
nan,nan,nan,NaN
nan,nan,nan,NaN
nan,nan,nan,NaN
nan,nan,nan,NaN
nan,nan,nan,NaN
nan,nan,nan,NaN
nan,nan,nan,NaN
nan,nan,nan,NaN
nan,nan,nan,NaN
nan,nan,nan,NaN
nan,nan,nan,NaN
nan,nan,nan,NaN
nan,nan,nan,NaN
nan,nan,nan,NaN
nan,nan,nan,NaN
nan,nan,nan,NaN
nan,nan,nan,NaN
nan,nan,nan,NaN
nan,nan,nan,NaN
nan,nan,nan,NaN
nan,nan,nan,NaN
0.445001,0.302522,2.574,2.62964
0.453355,0.302522,2.574,2.63107
0.465118,0.304755,2.593,2.65195
0.473534,0.304755,2.593,2.65344
0.481951,0.304755,2.593,2.65496
0.490367,0.304755,2.593,2.6565
0.495128,0.302522,2.574,2.63859
0.503483,0.302522,2.574,2.64017
0.511837,0.302522,2.574,2.64177
0.516352,0.300289,2.555,2.62389
0.516842,0.295823,2.517,2.58649
0.525012,0.295823,2.517,2.58813
0.533181,0.295823,2.517,2.5898
0.537479,0.293707,2.499,2.57297
0.541661,0.291592,2.481,2.55613
0.549713,0.291592,2.481,2.55785
0.553719,0.289476,2.463,2.54102
0.557609,0.287361,2.445,2.52419
0.565544,0.287361,2.445,2.52595
0.569493,0.285363,2.428,2.51017
0.573331,0.283365,2.411,2.49438
0.581156,0.283365,2.411,2.49619
0.580676,0.279369,2.377,2.4628
0.57651,0.273727,2.329,2.41486
0.584069,0.273727,2.329,2.41667
0.583754,0.270084,2.298,2.38632
0.583237,0.26644,2.267,2.35594
0.590595,0.26644,2.267,2.35777
0.586347,0.261269,2.223,2.31383
0.585819,0.257861,2.194,2.28546
0.592941,0.257861,2.194,2.28729
0.596233,0.256215,2.18,2.27454
0.603309,0.256215,2.18,2.27641
0.610384,0.256215,2.18,2.27829
0.61746,0.256215,2.18,2.2802
0.624536,0.256215,2.18,2.28212
0.631612,0.256215,2.18,2.28407
0.642789,0.257861,2.194,2.30072
0.64991,0.257861,2.194,2.30272
0.661523,0.259624,2.209,2.3205
0.668693,0.259624,2.209,2.32255
0.675863,0.259624,2.209,2.32462
0.683033,0.259624,2.209,2.32672
0.694577,0.261269,2.223,2.34359
0.701792,0.261269,2.223,2.34574
nan,nan,nan,NaN
0.720734,0.262915,2.237,2.3649
0.727994,0.262915,2.237,2.36712
0.735255,0.262915,2.237,2.36937
0.742516,0.262915,2.237,2.37163
nan,nan,nan,NaN
nan,nan,nan,NaN
nan,nan,nan,NaN
nan,nan,nan,NaN
nan,nan,nan,NaN
0.77097,0.257861,2.194,2.33977
0.778091,0.257861,2.194,2.34213
0.785212,0.257861,2.194,2.3445
0.792334,0.257861,2.194,2.3469
0.794353,0.256215,2.18,2.33432
0.801429,0.256215,2.18,2.33674
0.808505,0.256215,2.18,2.33917
0.815581,0.256215,2.18,2.34163
0.82794,0.257861,2.194,2.35915
0.835061,0.257861,2.194,2.36166
0.842182,0.257861,2.194,2.36419
0.849303,0.257861,2.194,2.36674
0.856424,0.257861,2.194,2.3693
0.863545,0.257861,2.194,2.37189
0.876619,0.259624,2.209,2.39072
0.883789,0.259624,2.209,2.39336
0.902252,0.262915,2.237,2.42639
0.92171,0.26644,2.267,2.46167
0.935216,0.268203,2.282,2.48074
0.942623,0.268203,2.282,2.48354
0.95669,0.270084,2.298,2.5038
0.977155,0.273727,2.329,2.54047
0.984715,0.273727,2.329,2.54339
0.992274,0.273727,2.329,2.54633
1.01357,0.277488,2.361,2.58431
1.02123,0.277488,2.361,2.58732
1.03587,0.279369,2.377,2.60791
1.04359,0.279369,2.377,2.61099
1.0513,0.279369,2.377,2.61408
1.05902,0.279369,2.377,2.61719
1.07436,0.281367,2.394,2.63906
1.08213,0.281367,2.394,2.64224
1.0899,0.281367,2.394,2.64543
1.09767,0.281367,2.394,2.64864
1.10544,0.281367,2.394,2.65187
1.11321,0.281367,2.394,2.65512
1.12098,0.281367,2.394,2.65838
1.12875,0.281367,2.394,2.66167
1.14459,0.283365,2.411,2.6839
1.15242,0.283365,2.411,2.68724
1.16024,0.283365,2.411,2.69061
1.16807,0.283365,2.411,2.69399
1.1759,0.283365,2.411,2.6974
1.18372,0.283365,2.411,2.70082
1.19155,0.283365,2.411,2.70426
1.19937,0.283365,2.411,2.70771
1.21571,0.285363,2.428,2.7303
1.22359,0.285363,2.428,2.73382
1.23147,0.285363,2.428,2.73736
1.24803,0.287361,2.445,2.7601
1.25596,0.287361,2.445,2.7637
1.27321,0.289476,2.463,2.78769
1.2812,0.289476,2.463,2.79135
1.29862,0.291592,2.481,2.81546
1.30667,0.291592,2.481,2.81918
1.31472,0.291592,2.481,2.82292
1.33237,0.293707,2.499,2.84719
1.34048,0.293707,2.499,2.85099
1.34859,0.293707,2.499,2.85481
1.36648,0.295823,2.517,2.87925
1.38502,0.298056,2.536,2.9049
1.40369,0.300289,2.555,2.93062
1.41198,0.300289,2.555,2.9346
1.43084,0.302522,2.574,2.96046
1.43919,0.302522,2.574,2.9645
1.44755,0.302522,2.574,2.96857
1.47796,0.307106,2.613,3.01769
1.49782,0.309456,2.633,3.04498
1.50637,0.309456,2.633,3.0492
1.527,0.311925,2.654,3.07778
1.53561,0.311925,2.654,3.08206
1.54422,0.311925,2.654,3.08636
1.55284,0.311925,2.654,3.09068
1.56145,0.311925,2.654,3.09502
1.57007,0.311925,2.654,3.09937
1.57868,0.311925,2.654,3.10375
1.58729,0.311925,2.654,3.10814
1.59591,0.311925,2.654,3.11255
1.60452,0.311925,2.654,3.11697
1.60037,0.309456,2.633,3.09672
1.60892,0.309456,2.633,3.10114
1.61747,0.309456,2.633,3.10558
1.61366,0.307106,2.613,3.08642
1.62214,0.307106,2.613,3.09086
1.61814,0.304755,2.593,3.07163
1.61464,0.302522,2.574,3.05353
1.62299,0.302522,2.574,3.05796
1.61931,0.300289,2.555,3.0398
1.60339,0.295823,2.517,2.99894
1.60004,0.293707,2.499,2.98184
1.60815,0.293707,2.499,2.9862
1.59298,0.289476,2.463,2.9475
1.58927,0.287361,2.445,2.93025
1.59721,0.287361,2.445,2.93457
1.59398,0.285363,2.428,2.91846
1.57943,0.281367,2.394,2.88184
1.5872,0.281367,2.394,2.88611
1.59497,0.281367,2.394,2.89039
1.59136,0.279369,2.377,2.87413
1.59908,0.279369,2.377,2.87841
1.59598,0.277488,2.361,2.8633
1.59277,0.275608,2.345,2.84814
-1.77249,0.30858,2.555,3.12489
-1.76419,0.30858,2.555,3.1202
-1.7559,0.30858,2.555,3.11552
-1.74761,0.30858,2.555,3.11085
-1.73932,0.30858,2.555,3.1062
-1.73102,0.30858,2.555,3.10156
-1.72273,0.30858,2.555,3.09694
-1.71444,0.30858,2.555,3.09234
-1.71883,0.310874,2.574,3.11071
-1.71048,0.310874,2.574,3.1061
-1.70212,0.310874,2.574,3.10151
-1.70627,0.313169,2.593,3.11979
-1.69785,0.313169,2.593,3.11519
-1.68944,0.313169,2.593,3.11062
-1.69399,0.315585,2.613,3.13001
-1.69841,0.318,2.633,3.14935
-1.70334,0.320536,2.654,3.16983
-1.69472,0.320536,2.654,3.16521
-1.68611,0.320536,2.654,3.16061
-1.6775,0.320536,2.654,3.15602
-1.66888,0.320536,2.654,3.15145
-1.66027,0.320536,2.654,3.1469
-1.65165,0.320536,2.654,3.14236
-1.64304,0.320536,2.654,3.13784
-1.63443,0.320536,2.654,3.13334
-1.61295,0.318,2.633,3.1041
-1.6044,0.318,2.633,3.09966
-1.58373,0.315585,2.613,3.07174
-1.55174,0.310874,2.574,3.02159
-1.54339,0.310874,2.574,3.01731
-1.51237,0.306285,2.536,2.96856
-1.49287,0.30399,2.517,2.94217
-1.4847,0.30399,2.517,2.93803
-1.45541,0.299642,2.481,2.89195
-1.42636,0.295294,2.445,2.846
-1.41842,0.295294,2.445,2.84203
-1.39087,0.291188,2.411,2.79861
-1.36354,0.287082,2.377,2.75532
-1.35583,0.287082,2.377,2.75151
-1.33904,0.285149,2.361,2.72922
-1.32235,0.283217,2.345,2.707
-1.30577,0.281285,2.329,2.68485
-1.29821,0.281285,2.329,2.68118
-1.29065,0.281285,2.329,2.67753
-1.28309,0.281285,2.329,2.67389
-1.2843,0.283217,2.345,2.68862
-1.27668,0.283217,2.345,2.68499
-1.27773,0.285149,2.361,2.69967
-1.28782,0.289135,2.394,2.73374
-1.28005,0.289135,2.394,2.73008
-1.29035,0.293241,2.428,2.76517
-1.30096,0.297468,2.463,2.80131
-1.30241,0.299642,2.481,2.81805
-1.29436,0.299642,2.481,2.81434
-1.30497,0.30399,2.517,2.85143
-1.31638,0.30858,2.555,2.89069
-1.30808,0.30858,2.555,2.88692
-1.31912,0.313169,2.593,2.92606
-1.33093,0.318,2.633,2.96735
-1.33293,0.320536,2.654,2.98716
-1.32431,0.320536,2.654,2.98333
-1.3157,0.320536,2.654,2.97952
-1.31743,0.323073,2.675,2.99927
-1.30874,0.323073,2.675,2.99547
-1.30006,0.323073,2.675,2.99168
-1.30152,0.325609,2.696,3.01138
-1.2827,0.323073,2.675,2.98418
-1.26401,0.320536,2.654,2.95706
-1.2554,0.320536,2.654,2.95339
-1.24679,0.320536,2.654,2.94973
-1.21904,0.315585,2.613,2.90059
-1.2013,0.313169,2.593,2.87486
-1.19288,0.313169,2.593,2.87136
-1.16711,0.30858,2.555,2.82584
-1.1502,0.306285,2.536,2.80144
-1.14196,0.306285,2.536,2.79807
-1.12524,0.30399,2.517,2.77378
-1.10908,0.301816,2.499,2.75066
-1.10097,0.301816,2.499,2.7474
-1.08499,0.299642,2.481,2.7244
-1.06912,0.297468,2.463,2.70146
-1.06113,0.297468,2.463,2.6983
-1.04544,0.295294,2.445,2.67547
-1.0375,0.295294,2.445,2.67238
-1.02956,0.295294,2.445,2.66931
-1.02915,0.297468,2.463,2.68589
-1.01369,0.295294,2.445,2.66323
-1.00576,0.295294,2.445,2.66022
-0.997821,0.295294,2.445,2.65723
-0.989885,0.295294,2.445,2.65426
-0.975121,0.293241,2.428,2.63288
-0.967241,0.293241,2.428,2.62997
-0.95936,0.293241,2.428,2.62708
-0.951479,0.293241,2.428,2.62421
-0.943599,0.293241,2.428,2.62136
-0.935718,0.293241,2.428,2.61854
-0.927837,0.293241,2.428,2.61573
-0.919957,0.293241,2.428,2.61295
-0.912076,0.293241,2.428,2.61018
-0.904195,0.293241,2.428,2.60744
-0.896315,0.293241,2.428,2.60472
-0.888434,0.293241,2.428,2.60202
-0.880553,0.293241,2.428,2.59934
-0.872672,0.293241,2.428,2.59668
-0.870847,0.295294,2.445,2.6122
-0.862911,0.295294,2.445,2.60957
-0.854975,0.295294,2.445,2.60695
-0.847039,0.295294,2.445,2.60436
-0.845281,0.297468,2.463,2.62095
-0.837286,0.297468,2.463,2.61838
-0.829292,0.297468,2.463,2.61583
-0.8273,0.299642,2.481,2.63241
-0.819247,0.299642,2.481,2.62989
-0.811195,0.299642,2.481,2.62739
-0.808969,0.301816,2.499,2.64396
-0.800858,0.301816,2.499,2.64149
-0.792747,0.301816,2.499,2.63904
-0.790287,0.30399,2.517,2.65561
-0.782118,0.30399,2.517,2.65319
-0.773948,0.30399,2.517,2.65079
-0.771559,0.306285,2.536,2.66841
-0.763328,0.306285,2.536,2.66604
-0.755097,0.306285,2.536,2.6637
-0.746865,0.306285,2.536,2.66137
-0.738634,0.306285,2.536,2.65908
-0.730403,0.306285,2.536,2.6568
-0.722172,0.306285,2.536,2.65455
-0.71394,0.306285,2.536,2.65232
-0.705709,0.306285,2.536,2.65012
-0.697478,0.306285,2.536,2.64794
-0.689247,0.306285,2.536,2.64578
-0.681016,0.306285,2.536,2.64365
-0.672784,0.306285,2.536,2.64154
-0.664553,0.306285,2.536,2.63946
-0.656322,0.306285,2.536,2.6374
-0.648091,0.306285,2.536,2.63536
-0.639859,0.306285,2.536,2.63335
-0.631628,0.306285,2.536,2.63136
-0.623397,0.306285,2.536,2.6294
-0.615166,0.306285,2.536,2.62746
-0.606935,0.306285,2.536,2.62554
-0.598703,0.306285,2.536,2.62365
-0.590472,0.306285,2.536,2.62179
-0.582241,0.306285,2.536,2.61994
-0.57401,0.306285,2.536,2.61813
-0.565778,0.306285,2.536,2.61634
-0.557547,0.306285,2.536,2.61457
-0.549316,0.306285,2.536,2.61282
-0.541085,0.306285,2.536,2.61111
-0.532853,0.306285,2.536,2.60941
-0.524622,0.306285,2.536,2.60775
-0.516391,0.306285,2.536,2.6061
-0.50816,0.306285,2.536,2.60448
-0.499929,0.306285,2.536,2.60289
-0.495381,0.30858,2.555,2.62081
-0.487088,0.30858,2.555,2.61926
-0.478795,0.30858,2.555,2.61773
-0.470502,0.30858,2.555,2.61622
-0.46221,0.30858,2.555,2.61474
-0.450541,0.306285,2.536,2.59386
-0.44231,0.306285,2.536,2.59244
-0.434079,0.306285,2.536,2.59105
-0.425848,0.306285,2.536,2.58968
-0.417616,0.306285,2.536,2.58834
-0.409385,0.306285,2.536,2.58703
-0.401154,0.306285,2.536,2.58574
-0.392923,0.306285,2.536,2.58447
-0.384691,0.306285,2.536,2.58323
-0.37646,0.306285,2.536,2.58202
-0.368229,0.306285,2.536,2.58083
-0.359998,0.306285,2.536,2.57967
-0.351766,0.306285,2.536,2.57854
-0.343535,0.306285,2.536,2.57743
-0.335304,0.306285,2.536,2.57634
-0.327073,0.306285,2.536,2.57528
-0.318842,0.306285,2.536,2.57425
-0.31061,0.306285,2.536,2.57324
-0.302379,0.306285,2.536,2.57226
-0.294148,0.306285,2.536,2.57131
-0.285917,0.306285,2.536,2.57038
-0.279766,0.30858,2.555,2.58873
-0.271473,0.30858,2.555,2.58785
-0.26318,0.30858,2.555,2.58699
-0.254887,0.30858,2.555,2.58616
-0.246594,0.30858,2.555,2.58535
-0.238301,0.30858,2.555,2.58458
-0.230009,0.30858,2.555,2.58382
-0.221716,0.30858,2.555,2.5831
-0.213423,0.30858,2.555,2.5824
-0.203604,0.306285,2.536,2.56253
-0.195373,0.306285,2.536,2.56189
-0.187142,0.306285,2.536,2.56127
-0.178911,0.306285,2.536,2.56069
-0.171958,0.30858,2.555,2.57931
-0.163665,0.30858,2.555,2.57877
-0.155372,0.30858,2.555,2.57825
-0.145986,0.306285,2.536,2.5586
-0.137755,0.306285,2.536,2.55814
-0.129523,0.306285,2.536,2.55771
-0.122201,0.30858,2.555,2.57647
-0.113908,0.30858,2.555,2.57609
-0.105615,0.30858,2.555,2.57573
-0.0973222,0.30858,2.555,2.57541
-0.0890293,0.30858,2.555,2.57511
-0.0807364,0.30858,2.555,2.57483
-0.0724435,0.30858,2.555,2.57459
-0.0641506,0.30858,2.555,2.57437
-0.0558577,0.30858,2.555,2.57417
-0.0475648,0.30858,2.555,2.57401
-0.0392719,0.30858,2.555,2.57387
-0.030979,0.30858,2.555,2.57375
-0.0226861,0.30858,2.555,2.57367
-0.0143932,0.30858,2.555,2.57361
-0.00610034,0.30858,2.555,2.57357
0.00219255,0.30858,2.555,2.57357
0.0104854,0.30858,2.555,2.57359
0.0187783,0.30858,2.555,2.57364
0.0270712,0.30858,2.555,2.57371
0.0351011,0.306285,2.536,2.55467
0.0433324,0.306285,2.536,2.5548
0.0515636,0.306285,2.536,2.55495
0.0597948,0.306285,2.536,2.55513
0.0675164,0.30399,2.517,2.53619
0.075686,0.30399,2.517,2.53642
0.0838555,0.30399,2.517,2.53668
0.0920251,0.30399,2.517,2.53696
0.100195,0.30399,2.517,2.53727
0.107589,0.301816,2.499,2.51946
0.1157,0.301816,2.499,2.51982
0.123811,0.301816,2.499,2.5202
0.131923,0.301816,2.499,2.52061
0.140034,0.301816,2.499,2.52105
0.147078,0.299642,2.481,2.50335
0.155131,0.299642,2.481,2.50384
0.163183,0.299642,2.481,2.50435
0.171236,0.299642,2.481,2.50489
0.179289,0.299642,2.481,2.50545
0.185982,0.297468,2.463,2.48786
0.193976,0.297468,2.463,2.48847
0.201971,0.297468,2.463,2.48911
0.209965,0.297468,2.463,2.48977
0.217959,0.297468,2.463,2.49045
0.227605,0.299642,2.481,2.50937
0.235658,0.299642,2.481,2.51012
nan,nan,nan,NaN
nan,nan,nan,NaN
nan,nan,nan,NaN
nan,nan,nan,NaN
nan,nan,nan,NaN
nan,nan,nan,NaN
nan,nan,nan,NaN
nan,nan,nan,NaN
nan,nan,nan,NaN
nan,nan,nan,NaN
nan,nan,nan,NaN
nan,nan,nan,NaN
nan,nan,nan,NaN
nan,nan,nan,NaN
nan,nan,nan,NaN
nan,nan,nan,NaN
nan,nan,nan,NaN
nan,nan,nan,NaN
nan,nan,nan,NaN
nan,nan,nan,NaN
nan,nan,nan,NaN
nan,nan,nan,NaN
nan,nan,nan,NaN
nan,nan,nan,NaN
0.456702,0.313169,2.593,2.65147
0.465118,0.313169,2.593,2.65293
0.473534,0.313169,2.593,2.65442
0.481951,0.313169,2.593,2.65594
0.490367,0.313169,2.593,2.65748
0.495128,0.310874,2.574,2.63956
0.503483,0.310874,2.574,2.64114
0.511837,0.310874,2.574,2.64274
0.516352,0.30858,2.555,2.62486
0.520743,0.306285,2.536,2.60697
0.528975,0.306285,2.536,2.60862
0.533181,0.30399,2.517,2.59075
0.537479,0.301816,2.499,2.5739
0.541661,0.299642,2.481,2.55706
0.549713,0.299642,2.481,2.55878
0.553719,0.297468,2.463,2.54194
0.557609,0.295294,2.445,2.5251
0.565544,0.295294,2.445,2.52687
0.569493,0.293241,2.428,2.51108
0.573331,0.291188,2.411,2.49528
0.581156,0.291188,2.411,2.49709
0.580676,0.287082,2.377,2.46368
0.58047,0.283217,2.345,2.43232
0.588082,0.283217,2.345,2.43415
0.583754,0.277541,2.298,2.38717
0.583237,0.273796,2.267,2.35678
0.590595,0.273796,2.267,2.35861
0.59004,0.270173,2.237,2.32923
0.589825,0.266792,2.209,2.3019
0.596994,0.266792,2.209,2.30375
0.600062,0.26498,2.194,2.28996
0.607183,0.26498,2.194,2.29184
0.614304,0.26498,2.194,2.29374
0.621425,0.26498,2.194,2.29565
0.628547,0.26498,2.194,2.29759
0.640014,0.266792,2.209,2.31527
0.651285,0.268482,2.223,2.33195
0.6585,0.268482,2.223,2.33397
0.669908,0.270173,2.237,2.35073
0.677169,0.270173,2.237,2.35281
0.68443,0.270173,2.237,2.35491
nan,nan,nan,NaN
nan,nan,nan,NaN
nan,nan,nan,NaN
nan,nan,nan,NaN
0.725566,0.271985,2.252,2.38158
0.732876,0.271985,2.252,2.38382
0.740185,0.271985,2.252,2.38608
0.747495,0.271985,2.252,2.38835
nan,nan,nan,NaN
nan,nan,nan,NaN
nan,nan,nan,NaN
nan,nan,nan,NaN
nan,nan,nan,NaN
0.776241,0.266792,2.209,2.35657
0.783411,0.266792,2.209,2.35894
0.790581,0.266792,2.209,2.36133
0.792334,0.26498,2.194,2.34769
0.799455,0.26498,2.194,2.3501
0.806576,0.26498,2.194,2.35253
0.813697,0.26498,2.194,2.35498
0.82643,0.266792,2.209,2.37357
0.8336,0.266792,2.209,2.37608
0.84077,0.266792,2.209,2.3786
0.84794,0.266792,2.209,2.38115
0.85511,0.266792,2.209,2.38371
0.862279,0.266792,2.209,2.38629
0.869449,0.266792,2.209,2.38889
0.882175,0.268482,2.223,2.40667
0.88939,0.268482,2.223,2.40932
0.902252,0.270173,2.237,2.42718
0.92171,0.273796,2.267,2.46248
0.935216,0.275608,2.282,2.48155
0.942623,0.275608,2.282,2.48436
0.95669,0.277541,2.298,2.50461
0.977155,0.281285,2.329,2.5413
0.984715,0.281285,2.329,2.54421
0.992274,0.281285,2.329,2.54715
1.01357,0.285149,2.361,2.58514
1.02815,0.287082,2.377,2.6057
1.03587,0.287082,2.377,2.60875
1.04359,0.287082,2.377,2.61182
1.0513,0.287082,2.377,2.61491
1.05902,0.287082,2.377,2.61803
1.07436,0.289135,2.394,2.6399
1.08213,0.289135,2.394,2.64307
1.0899,0.289135,2.394,2.64627
1.09767,0.289135,2.394,2.64947
1.10544,0.289135,2.394,2.6527
1.11321,0.289135,2.394,2.65595
1.12098,0.289135,2.394,2.65922
1.13677,0.291188,2.411,2.68141
1.14459,0.291188,2.411,2.68474
1.15242,0.291188,2.411,2.68808
1.16024,0.291188,2.411,2.69145
1.16807,0.291188,2.411,2.69483
1.1759,0.291188,2.411,2.69823
1.19207,0.293241,2.428,2.7207
1.19995,0.293241,2.428,2.72416
1.20783,0.293241,2.428,2.72764
1.22422,0.295294,2.445,2.75026
1.23216,0.295294,2.445,2.7538
1.24009,0.295294,2.445,2.75736
1.25722,0.297468,2.463,2.78127
1.26521,0.297468,2.463,2.78489
1.28251,0.299642,2.481,2.80891
1.29056,0.299642,2.481,2.8126
1.29862,0.299642,2.481,2.8163
1.31615,0.301816,2.499,2.84048
1.32426,0.301816,2.499,2.84425
1.33237,0.301816,2.499,2.84804
1.35014,0.30399,2.517,2.87238
1.35831,0.30399,2.517,2.87623
1.37679,0.306285,2.536,2.90184
1.3954,0.30858,2.555,2.92752
1.41413,0.310874,2.574,2.95328
1.42248,0.310874,2.574,2.95729
1.43084,0.310874,2.574,2.96132
1.43919,0.310874,2.574,2.96537
1.44755,0.310874,2.574,2.96943
1.47796,0.315585,2.613,3.01857
1.49782,0.318,2.633,3.04586
1.50637,0.318,2.633,3.05007
1.527,0.320536,2.654,3.07866
1.53561,0.320536,2.654,3.08295
1.54422,0.320536,2.654,3.08725
1.55284,0.320536,2.654,3.09156
1.56145,0.320536,2.654,3.0959
1.57007,0.320536,2.654,3.10025
1.57868,0.320536,2.654,3.10462
1.58729,0.320536,2.654,3.10901
1.59591,0.320536,2.654,3.11342
1.60452,0.320536,2.654,3.11784
1.60037,0.318,2.633,3.09758
1.60892,0.318,2.633,3.10201
1.61747,0.318,2.633,3.10645
1.61366,0.315585,2.613,3.08727
1.62214,0.315585,2.613,3.09172
1.61814,0.313169,2.593,3.07248
1.61464,0.310874,2.574,3.05437
1.62299,0.310874,2.574,3.0588
1.61931,0.30858,2.555,3.04063
1.60339,0.30399,2.517,2.99976
1.60004,0.301816,2.499,2.98265
1.60815,0.301816,2.499,2.98701
1.59298,0.297468,2.463,2.94829
1.58927,0.295294,2.445,2.93104
1.59721,0.295294,2.445,2.93535
1.59398,0.293241,2.428,2.91924
1.57943,0.289135,2.394,2.88261
1.5872,0.289135,2.394,2.88687
1.59497,0.289135,2.394,2.89115
1.59136,0.287082,2.377,2.87489
1.59908,0.287082,2.377,2.87916
1.59598,0.285149,2.361,2.86405
1.59277,0.283217,2.345,2.84889
-1.77249,0.31687,2.555,3.12572
-1.76419,0.31687,2.555,3.12103
-1.7559,0.31687,2.555,3.11635
-1.74761,0.31687,2.555,3.11168
-1.73932,0.31687,2.555,3.10703
-1.73102,0.31687,2.555,3.1024
-1.72273,0.31687,2.555,3.09778
-1.71444,0.31687,2.555,3.09317
-1.71883,0.319227,2.574,3.11155
-1.71048,0.319227,2.574,3.10695
-1.70212,0.319227,2.574,3.10235
-1.70627,0.321583,2.593,3.12064
-1.69785,0.321583,2.593,3.11605
-1.68944,0.321583,2.593,3.11147
-1.69399,0.324063,2.613,3.13088
-1.69841,0.326544,2.633,3.15022
-1.70334,0.329148,2.654,3.17071
-1.69472,0.329148,2.654,3.16609
-1.68611,0.329148,2.654,3.16149
-1.6775,0.329148,2.654,3.1569
-1.66888,0.329148,2.654,3.15234
-1.66027,0.329148,2.654,3.14778
-1.65165,0.329148,2.654,3.14325
-1.64304,0.329148,2.654,3.13873
-1.63443,0.329148,2.654,3.13423
-1.61295,0.326544,2.633,3.10498
-1.6044,0.326544,2.633,3.10055
-1.58373,0.324063,2.613,3.07262
-1.55174,0.319227,2.574,3.02246
-1.54339,0.319227,2.574,3.01818
-1.51237,0.314514,2.536,2.96942
-1.49287,0.312157,2.517,2.94302
-1.4847,0.312157,2.517,2.93889
-1.45541,0.307693,2.481,2.89279
-1.42636,0.303228,2.445,2.84683
-1.41842,0.303228,2.445,2.84287
-1.39087,0.299011,2.411,2.79944
-1.36354,0.294795,2.377,2.75613
-1.35583,0.294795,2.377,2.75233
-1.33904,0.29281,2.361,2.73003
-1.33137,0.29281,2.361,2.72628
-1.31474,0.290826,2.345,2.7041
-1.30713,0.290826,2.345,2.70041
-1.29952,0.290826,2.345,2.69673
-1.29191,0.290826,2.345,2.69307
-1.29306,0.29281,2.361,2.70778
-1.28539,0.29281,2.361,2.70413
-1.29559,0.296903,2.394,2.73824
-1.30611,0.30112,2.428,2.77341
-1.29823,0.30112,2.428,2.7697
-1.29938,0.303228,2.445,2.78539
-1.30096,0.30546,2.463,2.80217
-1.31186,0.309925,2.499,2.83937
-1.30375,0.309925,2.499,2.83563
-1.31482,0.314514,2.536,2.87384
-1.32617,0.319227,2.574,2.91309
-1.31781,0.319227,2.574,2.9093
-1.3293,0.324063,2.613,2.94955
-1.33093,0.326544,2.633,2.96828
-1.33293,0.329148,2.654,2.9881
-1.32431,0.329148,2.654,2.98427
-1.32611,0.331753,2.675,3.00404
-1.31743,0.331753,2.675,3.00022
-1.30874,0.331753,2.675,2.99641
-1.31027,0.334357,2.696,3.01613
-1.30152,0.334357,2.696,3.01233
-1.2827,0.331753,2.675,2.98513
-1.27402,0.331753,2.675,2.98141
-1.2554,0.329148,2.654,2.95433
-1.24679,0.329148,2.654,2.95068
-1.22837,0.326544,2.633,2.92373
-1.2013,0.321583,2.593,2.87579
-1.19288,0.321583,2.593,2.87229
-1.17578,0.319227,2.574,2.84778
-1.15881,0.31687,2.555,2.82335
-1.15052,0.31687,2.555,2.81995
-1.12524,0.312157,2.517,2.77469
-1.11707,0.312157,2.517,2.77139
-1.1089,0.312157,2.517,2.7681
-1.08499,0.307693,2.481,2.7253
-1.07693,0.307693,2.481,2.7221
-1.06113,0.30546,2.463,2.6992
-1.05313,0.30546,2.463,2.69606
-1.04514,0.30546,2.463,2.69295
-1.03714,0.30546,2.463,2.68986
-1.02915,0.30546,2.463,2.68679
-1.02116,0.30546,2.463,2.68373
-1.00576,0.303228,2.445,2.66111
-0.997821,0.303228,2.445,2.65812
-0.989885,0.303228,2.445,2.65515
-0.975121,0.30112,2.428,2.63377
-0.967241,0.30112,2.428,2.63086
-0.95936,0.30112,2.428,2.62797
-0.951479,0.30112,2.428,2.6251
-0.943599,0.30112,2.428,2.62226
-0.935718,0.30112,2.428,2.61943
-0.927837,0.30112,2.428,2.61663
-0.919957,0.30112,2.428,2.61384
-0.912076,0.30112,2.428,2.61108
-0.904195,0.30112,2.428,2.60834
-0.896315,0.30112,2.428,2.60562
-0.888434,0.30112,2.428,2.60292
-0.880553,0.30112,2.428,2.60024
-0.872672,0.30112,2.428,2.59758
-0.870847,0.303228,2.445,2.61311
-0.862911,0.303228,2.445,2.61048
-0.854975,0.303228,2.445,2.60786
-0.847039,0.303228,2.445,2.60527
-0.845281,0.30546,2.463,2.62186
-0.837286,0.30546,2.463,2.6193
-0.829292,0.30546,2.463,2.61675
-0.8273,0.307693,2.481,2.63334
-0.819247,0.307693,2.481,2.63082
-0.811195,0.307693,2.481,2.62832
-0.808969,0.309925,2.499,2.6449
-0.800858,0.309925,2.499,2.64243
-0.792747,0.309925,2.499,2.63998
-0.790287,0.312157,2.517,2.65656
-0.788022,0.314514,2.536,2.67417
-0.77979,0.314514,2.536,2.67176
-0.771559,0.314514,2.536,2.66937
-0.763328,0.314514,2.536,2.667
-0.755097,0.314514,2.536,2.66465
-0.746865,0.314514,2.536,2.66233
-0.738634,0.314514,2.536,2.66004
-0.730403,0.314514,2.536,2.65776
-0.722172,0.314514,2.536,2.65551
-0.71394,0.314514,2.536,2.65329
-0.705709,0.314514,2.536,2.65108
-0.697478,0.314514,2.536,2.6489
-0.689247,0.314514,2.536,2.64675
-0.681016,0.314514,2.536,2.64462
-0.672784,0.314514,2.536,2.64251
-0.664553,0.314514,2.536,2.64043
-0.656322,0.314514,2.536,2.63837
-0.648091,0.314514,2.536,2.63633
-0.639859,0.314514,2.536,2.63432
-0.631628,0.314514,2.536,2.63233
-0.623397,0.314514,2.536,2.63037
-0.615166,0.314514,2.536,2.62843
-0.606935,0.314514,2.536,2.62652
-0.598703,0.314514,2.536,2.62463
-0.590472,0.314514,2.536,2.62276
-0.582241,0.314514,2.536,2.62092
-0.57401,0.314514,2.536,2.6191
-0.565778,0.314514,2.536,2.61731
-0.557547,0.314514,2.536,2.61554
-0.549316,0.314514,2.536,2.6138
-0.541085,0.314514,2.536,2.61208
-0.532853,0.314514,2.536,2.61039
-0.528553,0.31687,2.555,2.62827
-0.52026,0.31687,2.555,2.62661
-0.50816,0.314514,2.536,2.60546
-0.499929,0.314514,2.536,2.60387
-0.495381,0.31687,2.555,2.6218
-0.487088,0.31687,2.555,2.62025
-0.478795,0.31687,2.555,2.61872
-0.470502,0.31687,2.555,2.61721
-0.46221,0.31687,2.555,2.61574
-0.450541,0.314514,2.536,2.59484
-0.44231,0.314514,2.536,2.59343
-0.434079,0.314514,2.536,2.59203
-0.425848,0.314514,2.536,2.59067
-0.417616,0.314514,2.536,2.58933
-0.409385,0.314514,2.536,2.58801
-0.401154,0.314514,2.536,2.58672
-0.392923,0.314514,2.536,2.58546
-0.384691,0.314514,2.536,2.58422
-0.37646,0.314514,2.536,2.58301
-0.368229,0.314514,2.536,2.58182
-0.359998,0.314514,2.536,2.58066
-0.351766,0.314514,2.536,2.57953
-0.343535,0.314514,2.536,2.57842
-0.335304,0.314514,2.536,2.57733
-0.327073,0.314514,2.536,2.57627
-0.318842,0.314514,2.536,2.57524
-0.31061,0.314514,2.536,2.57424
-0.302379,0.314514,2.536,2.57326
-0.294148,0.314514,2.536,2.5723
-0.285917,0.314514,2.536,2.57137
-0.277685,0.314514,2.536,2.57047
-0.269454,0.314514,2.536,2.5696
-0.261223,0.314514,2.536,2.56875
-0.254887,0.31687,2.555,2.58716
-0.246594,0.31687,2.555,2.58636
-0.238301,0.31687,2.555,2.58558
-0.230009,0.31687,2.555,2.58483
-0.221716,0.31687,2.555,2.5841
-0.213423,0.31687,2.555,2.58341
-0.203604,0.314514,2.536,2.56353
-0.195373,0.314514,2.536,2.56289
-0.187142,0.314514,2.536,2.56227
-0.178911,0.314514,2.536,2.56168
-0.170679,0.314514,2.536,2.56112
-0.162448,0.314514,2.536,2.56059
-0.154217,0.314514,2.536,2.56008
-0.145986,0.314514,2.536,2.5596
-0.137755,0.314514,2.536,2.55914
-0.129523,0.314514,2.536,2.55871
-0.121292,0.314514,2.536,2.55831
-0.113908,0.31687,2.555,2.57709
-0.105615,0.31687,2.555,2.57674
-0.0973222,0.31687,2.555,2.57641
-0.0890293,0.31687,2.555,2.57611
-0.0807364,0.31687,2.555,2.57584
-0.0724435,0.31687,2.555,2.57559
-0.0641506,0.31687,2.555,2.57537
-0.0558577,0.31687,2.555,2.57518
-0.0475648,0.31687,2.555,2.57501
-0.0392719,0.31687,2.555,2.57487
-0.030979,0.31687,2.555,2.57476
-0.0226861,0.31687,2.555,2.57467
-0.0143932,0.31687,2.555,2.57461
-0.00610034,0.31687,2.555,2.57458
0.00219255,0.31687,2.555,2.57457
0.0104854,0.31687,2.555,2.5746
0.0187783,0.31687,2.555,2.57464
0.0268699,0.314514,2.536,2.55557
0.0351011,0.314514,2.536,2.55567
0.0433324,0.314514,2.536,2.5558
0.0515636,0.314514,2.536,2.55595
0.0597948,0.314514,2.536,2.55613
0.0675164,0.312157,2.517,2.53718
0.075686,0.312157,2.517,2.53741
0.0838555,0.312157,2.517,2.53767
0.0920251,0.312157,2.517,2.53795
0.100195,0.312157,2.517,2.53826
0.107589,0.309925,2.499,2.52044
0.1157,0.309925,2.499,2.5208
0.123811,0.309925,2.499,2.52119
0.131923,0.309925,2.499,2.5216
0.139025,0.307693,2.481,2.50387
0.147078,0.307693,2.481,2.50433
0.155131,0.307693,2.481,2.50482
0.163183,0.307693,2.481,2.50533
0.171236,0.307693,2.481,2.50586
0.179289,0.307693,2.481,2.50643
0.185982,0.30546,2.463,2.48883
0.193976,0.30546,2.463,2.48944
0.201971,0.30546,2.463,2.49007
0.209965,0.30546,2.463,2.49074
0.217959,0.30546,2.463,2.49142
0.227605,0.307693,2.481,2.51035
0.235658,0.307693,2.481,2.51109
0.24371,0.307693,2.481,2.51186
nan,nan,nan,NaN
nan,nan,nan,NaN
nan,nan,nan,NaN
nan,nan,nan,NaN
nan,nan,nan,NaN
nan,nan,nan,NaN
nan,nan,nan,NaN
nan,nan,nan,NaN
nan,nan,nan,NaN
nan,nan,nan,NaN
nan,nan,nan,NaN
nan,nan,nan,NaN
nan,nan,nan,NaN
nan,nan,nan,NaN
nan,nan,nan,NaN
nan,nan,nan,NaN
nan,nan,nan,NaN
nan,nan,nan,NaN
nan,nan,nan,NaN
nan,nan,nan,NaN
nan,nan,nan,NaN
nan,nan,nan,NaN
nan,nan,nan,NaN
0.460224,0.324063,2.613,2.67294
0.468706,0.324063,2.613,2.67441
0.477187,0.324063,2.613,2.67591
0.481951,0.321583,2.593,2.65694
0.490367,0.321583,2.593,2.65848
0.498783,0.321583,2.593,2.66005
0.503483,0.319227,2.574,2.64213
0.511837,0.319227,2.574,2.64374
0.516352,0.31687,2.555,2.62584
0.520743,0.314514,2.536,2.60795
0.528975,0.314514,2.536,2.6096
0.533181,0.312157,2.517,2.59172
0.537479,0.309925,2.499,2.57487
0.541661,0.307693,2.481,2.55801
0.549713,0.307693,2.481,2.55973
0.553719,0.30546,2.463,2.54289
0.561714,0.30546,2.463,2.54464
0.569708,0.30546,2.463,2.54642
0.569493,0.30112,2.428,2.51201
0.573331,0.299011,2.411,2.4962
0.581156,0.299011,2.411,2.49801
0.580676,0.294795,2.377,2.46459
0.58047,0.290826,2.345,2.43322
0.588082,0.290826,2.345,2.43505
0.587564,0.286857,2.313,2.40364
0.595071,0.286857,2.313,2.40549
nan,nan,nan,NaN
nan,nan,nan,NaN
nan,nan,nan,NaN
nan,nan,nan,NaN
nan,nan,nan,NaN
nan,nan,nan,NaN
0.626344,0.277432,2.237,2.33954
0.633605,0.277432,2.237,2.34149
0.640865,0.277432,2.237,2.34347
0.652472,0.279292,2.252,2.36119
0.664176,0.281153,2.267,2.37896
0.671534,0.281153,2.267,2.38103
0.683384,0.283013,2.282,2.39888
0.690791,0.283013,2.282,2.401
0.698198,0.283013,2.282,2.40314
nan,nan,nan,NaN
nan,nan,nan,NaN
nan,nan,nan,NaN
nan,nan,nan,NaN
nan,nan,nan,NaN
nan,nan,nan,NaN
0.755304,0.284997,2.298,2.43567
0.762763,0.284997,2.298,2.438
nan,nan,nan,NaN
nan,nan,nan,NaN
nan,nan,nan,NaN
nan,nan,nan,NaN
nan,nan,nan,NaN
0.791351,0.279292,2.252,2.40328
0.798661,0.279292,2.252,2.40569
0.800602,0.277432,2.237,2.39209
0.802807,0.275696,2.223,2.37955
0.810022,0.275696,2.223,2.38199
0.817237,0.275696,2.223,2.38445
0.824453,0.275696,2.223,2.38693
0.82643,0.273959,2.209,2.37439
0.8336,0.273959,2.209,2.37689
0.84077,0.273959,2.209,2.37942
0.84794,0.273959,2.209,2.38196
0.85511,0.273959,2.209,2.38452
0.862279,0.273959,2.209,2.3871
0.869449,0.273959,2.209,2.3897
0.882175,0.275696,2.223,2.40748
0.88939,0.275696,2.223,2.41014
0.902252,0.277432,2.237,2.428
0.92171,0.281153,2.267,2.46331
0.935216,0.283013,2.282,2.48239
0.942623,0.283013,2.282,2.48519
0.95669,0.284997,2.298,2.50545
0.970443,0.286857,2.313,2.52468
0.97795,0.286857,2.313,2.52758
0.992274,0.288842,2.329,2.548
1.0067,0.290826,2.345,2.56847
1.02123,0.29281,2.361,2.58901
1.0289,0.29281,2.361,2.59204
1.04359,0.294795,2.377,2.61268
1.0513,0.294795,2.377,2.61577
1.05902,0.294795,2.377,2.61888
1.06673,0.294795,2.377,2.62201
1.07445,0.294795,2.377,2.62516
1.08216,0.294795,2.377,2.62833
1.09767,0.296903,2.394,2.65033
1.10544,0.296903,2.394,2.65356
1.11321,0.296903,2.394,2.65681
1.12098,0.296903,2.394,2.66007
1.13677,0.299011,2.411,2.68227
1.14459,0.299011,2.411,2.6856
1.15242,0.299011,2.411,2.68894
1.16024,0.299011,2.411,2.6923
1.16807,0.299011,2.411,2.69568
1.1759,0.299011,2.411,2.69908
1.19207,0.30112,2.428,2.72156
1.19995,0.30112,2.428,2.72502
1.20783,0.30112,2.428,2.7285
1.22422,0.303228,2.445,2.75113
1.23216,0.303228,2.445,2.75467
1.24009,0.303228,2.445,2.75822
1.25722,0.30546,2.463,2.78213
1.26521,0.30546,2.463,2.78576
1.28251,0.307693,2.481,2.80978
1.29056,0.307693,2.481,2.81347
1.29862,0.307693,2.481,2.81717
1.31615,0.309925,2.499,2.84136
1.32426,0.309925,2.499,2.84512
1.33237,0.309925,2.499,2.84891
1.35014,0.312157,2.517,2.87326
1.35831,0.312157,2.517,2.8771
1.37679,0.314514,2.536,2.90272
1.3954,0.31687,2.555,2.92841
1.41413,0.319227,2.574,2.95417
1.42248,0.319227,2.574,2.95818
1.43084,0.319227,2.574,2.96221
1.44982,0.321583,2.593,2.98815
1.45823,0.321583,2.593,2.99224
1.48927,0.326544,2.633,3.04257
1.50977,0.329148,2.654,3.07107
1.51838,0.329148,2.654,3.07531
1.53908,0.331753,2.675,3.10394
1.55991,0.334357,2.696,3.13266
1.56866,0.334357,2.696,3.13702
1.57741,0.334357,2.696,3.14141
1.58616,0.334357,2.696,3.14581
1.59491,0.334357,2.696,3.15023
1.60366,0.334357,2.696,3.15467
1.61241,0.334357,2.696,3.15913
1.62116,0.334357,2.696,3.1636
1.62992,0.334357,2.696,3.1681
1.6259,0.331753,2.675,3.14789
1.63458,0.331753,2.675,3.15239
1.63037,0.329148,2.654,3.13212
1.62601,0.326544,2.633,3.11179
1.63456,0.326544,2.633,3.11626
1.63062,0.324063,2.613,3.09705
1.62656,0.321583,2.593,3.07778
1.62299,0.319227,2.574,3.05966
1.63135,0.319227,2.574,3.0641
1.6155,0.314514,2.536,3.02325
1.61156,0.312157,2.517,3.00497
1.61973,0.312157,2.517,3.00936
1.60462,0.307693,2.481,2.97066
1.60097,0.30546,2.463,2.95344
1.60897,0.30546,2.463,2.95778
1.59398,0.30112,2.428,2.92004
1.59065,0.299011,2.411,2.90387
1.59847,0.299011,2.411,2.90817
1.59497,0.296903,2.394,2.89194
1.60274,0.296903,2.394,2.89623
1.61051,0.296903,2.394,2.90054
1.60679,0.294795,2.377,2.88423
1.60364,0.29281,2.361,2.8691
-1.77249,0.325161,2.555,3.12657
-1.76419,0.325161,2.555,3.12188
-1.7559,0.325161,2.555,3.1172
-1.74761,0.325161,2.555,3.11254
-1.73932,0.325161,2.555,3.10789
-1.73102,0.325161,2.555,3.10326
-1.73554,0.327579,2.574,3.12168
-1.72719,0.327579,2.574,3.11704
-1.73152,0.329997,2.593,3.1354
-1.7231,0.329997,2.593,3.13076
-1.71469,0.329997,2.593,3.12613
-1.71943,0.332542,2.613,3.1456
-1.71095,0.332542,2.613,3.14097
-1.70247,0.332542,2.613,3.13636
-1.70695,0.335087,2.633,3.15574
-1.69841,0.335087,2.633,3.15112
-1.70334,0.33776,2.654,3.17162
-1.69472,0.33776,2.654,3.167
-1.68611,0.33776,2.654,3.1624
-1.6775,0.33776,2.654,3.15781
-1.66888,0.33776,2.654,3.15325
-1.66027,0.33776,2.654,3.1487
-1.65165,0.33776,2.654,3.14416
-1.63004,0.335087,2.633,3.1148
-1.62149,0.335087,2.633,3.11034
-1.60069,0.332542,2.613,3.0823
-1.59221,0.332542,2.613,3.0779
-1.57161,0.329997,2.593,3.05
-1.55174,0.327579,2.574,3.02336
-1.54339,0.327579,2.574,3.01908
-1.51237,0.322743,2.536,2.97031
-1.49287,0.320325,2.517,2.9439
-1.4847,0.320325,2.517,2.93977
-1.45541,0.315743,2.481,2.89366
-1.42636,0.311162,2.445,2.84769
-1.41842,0.311162,2.445,2.84372
-1.40068,0.308998,2.428,2.82003
-1.37329,0.304671,2.394,2.77669
-1.36552,0.304671,2.394,2.77285
-1.34811,0.302508,2.377,2.74937
-1.33137,0.300471,2.361,2.72712
-1.32371,0.300471,2.361,2.72338
-1.31605,0.300471,2.361,2.71967
-1.30838,0.300471,2.361,2.71597
-1.30072,0.300471,2.361,2.71228
-1.30182,0.302508,2.377,2.72697
-1.29411,0.302508,2.377,2.7233
-1.29559,0.304671,2.394,2.73909
-1.30611,0.308998,2.428,2.77427
-1.29823,0.308998,2.428,2.77057
-1.30895,0.313452,2.463,2.80677
-1.31997,0.318034,2.499,2.84402
-1.32131,0.320325,2.517,2.86073
-1.31314,0.320325,2.517,2.85696
-1.32467,0.325161,2.555,2.89629
-1.33596,0.329997,2.593,2.93553
-1.32754,0.329997,2.593,2.93171
-1.33947,0.335087,2.633,2.97307
-1.34154,0.33776,2.654,2.99291
-1.34347,0.340432,2.675,3.01271
-1.33479,0.340432,2.675,3.00885
-1.32611,0.340432,2.675,3.00501
-1.32777,0.343105,2.696,3.02475
-1.31902,0.343105,2.696,3.02092
-1.31027,0.343105,2.696,3.01711
-1.30152,0.343105,2.696,3.01332
-1.29277,0.343105,2.696,3.00955
-1.27402,0.340432,2.675,2.98239
-1.2554,0.33776,2.654,2.9553
-1.24679,0.33776,2.654,2.95166
-1.22837,0.335087,2.633,2.9247
-1.21056,0.332542,2.613,2.89893
-1.20208,0.332542,2.613,2.8954
-1.17578,0.327579,2.574,2.84873
-1.15881,0.325161,2.555,2.82429
-1.15052,0.325161,2.555,2.8209
-1.13373,0.322743,2.536,2.79657
-1.11707,0.320325,2.517,2.77232
-1.1089,0.320325,2.517,2.76904
-1.09286,0.318034,2.499,2.74599
-1.07693,0.315743,2.481,2.72302
-1.06113,0.313452,2.463,2.70011
-1.05313,0.313452,2.463,2.69698
-1.04514,0.313452,2.463,2.69387
-1.03714,0.313452,2.463,2.69078
-1.02915,0.313452,2.463,2.68771
-1.02116,0.313452,2.463,2.68466
-1.00576,0.311162,2.445,2.66203
-0.997821,0.311162,2.445,2.65904
-0.989885,0.311162,2.445,2.65607
-0.981949,0.311162,2.445,2.65312
-0.974013,0.311162,2.445,2.6502
-0.95936,0.308998,2.428,2.62889
-0.951479,0.308998,2.428,2.62602
-0.943599,0.308998,2.428,2.62317
-0.935718,0.308998,2.428,2.62035
-0.927837,0.308998,2.428,2.61755
-0.919957,0.308998,2.428,2.61476
-0.912076,0.308998,2.428,2.612
-0.904195,0.308998,2.428,2.60926
-0.896315,0.308998,2.428,2.60654
-0.888434,0.308998,2.428,2.60384
-0.880553,0.308998,2.428,2.60116
-0.872672,0.308998,2.428,2.5985
-0.870847,0.311162,2.445,2.61404
-0.862911,0.311162,2.445,2.61141
-0.854975,0.311162,2.445,2.6088
-0.847039,0.311162,2.445,2.60621
-0.845281,0.313452,2.463,2.62281
-0.837286,0.313452,2.463,2.62024
-0.829292,0.313452,2.463,2.6177
-0.8273,0.315743,2.481,2.63429
-0.819247,0.315743,2.481,2.63177
-0.811195,0.315743,2.481,2.62928
-0.808969,0.318034,2.499,2.64586
-0.800858,0.318034,2.499,2.64339
-0.792747,0.318034,2.499,2.64095
-0.790287,0.320325,2.517,2.65753
-0.788022,0.322743,2.536,2.67515
-0.77979,0.322743,2.536,2.67274
-0.771559,0.322743,2.536,2.67035
-0.763328,0.322743,2.536,2.66798
-0.755097,0.322743,2.536,2.66564
-0.746865,0.322743,2.536,2.66332
-0.738634,0.322743,2.536,2.66102
-0.730403,0.322743,2.536,2.65875
-0.722172,0.322743,2.536,2.6565
-0.71394,0.322743,2.536,2.65427
-0.705709,0.322743,2.536,2.65207
-0.697478,0.322743,2.536,2.64989
-0.689247,0.322743,2.536,2.64774
-0.681016,0.322743,2.536,2.64561
-0.672784,0.322743,2.536,2.6435
-0.664553,0.322743,2.536,2.64142
-0.656322,0.322743,2.536,2.63936
-0.648091,0.322743,2.536,2.63732
-0.639859,0.322743,2.536,2.63531
-0.631628,0.322743,2.536,2.63333
-0.623397,0.322743,2.536,2.63137
-0.615166,0.322743,2.536,2.62943
-0.606935,0.322743,2.536,2.62751
-0.598703,0.322743,2.536,2.62562
-0.590472,0.322743,2.536,2.62376
-0.582241,0.322743,2.536,2.62192
-0.57401,0.322743,2.536,2.6201
-0.565778,0.322743,2.536,2.61831
-0.557547,0.322743,2.536,2.61655
-0.549316,0.322743,2.536,2.61481
-0.541085,0.322743,2.536,2.61309
-0.532853,0.322743,2.536,2.6114
-0.524622,0.322743,2.536,2.60973
-0.52026,0.325161,2.555,2.62763
-0.511967,0.325161,2.555,2.626
-0.503674,0.325161,2.555,2.62439
-0.495381,0.325161,2.555,2.62281
-0.487088,0.325161,2.555,2.62126
-0.478795,0.325161,2.555,2.61973
-0.470502,0.325161,2.555,2.61823
-0.46221,0.325161,2.555,2.61675
-0.453917,0.325161,2.555,2.6153
-0.44231,0.322743,2.536,2.59444
-0.434079,0.322743,2.536,2.59305
-0.425848,0.322743,2.536,2.59168
-0.417616,0.322743,2.536,2.59034
-0.409385,0.322743,2.536,2.58903
-0.401154,0.322743,2.536,2.58774
-0.392923,0.322743,2.536,2.58647
-0.384691,0.322743,2.536,2.58524
-0.37646,0.322743,2.536,2.58402
-0.368229,0.322743,2.536,2.58284
-0.359998,0.322743,2.536,2.58168
-0.351766,0.322743,2.536,2.58054
-0.343535,0.322743,2.536,2.57943
-0.335304,0.322743,2.536,2.57835
-0.327073,0.322743,2.536,2.57729
-0.318842,0.322743,2.536,2.57626
-0.31061,0.322743,2.536,2.57525
-0.302379,0.322743,2.536,2.57428
-0.294148,0.322743,2.536,2.57332
-0.285917,0.322743,2.536,2.57239
-0.277685,0.322743,2.536,2.57149
-0.269454,0.322743,2.536,2.57062
-0.261223,0.322743,2.536,2.56977
-0.252992,0.322743,2.536,2.56894
-0.244761,0.322743,2.536,2.56814
-0.236529,0.322743,2.536,2.56737
-0.228298,0.322743,2.536,2.56663
-0.220067,0.322743,2.536,2.56591
-0.211836,0.322743,2.536,2.56522
-0.202079,0.320325,2.517,2.54534
-0.193909,0.320325,2.517,2.5447
-0.18574,0.320325,2.517,2.54409
-0.17757,0.320325,2.517,2.54351
-0.169401,0.320325,2.517,2.54295
-0.161231,0.320325,2.517,2.54242
-0.153062,0.320325,2.517,2.54191
-0.144892,0.320325,2.517,2.54144
-0.136723,0.320325,2.517,2.54098
-0.128553,0.320325,2.517,2.54056
-0.120383,0.320325,2.517,2.54016
-0.113061,0.322743,2.536,2.55895
-0.10483,0.322743,2.536,2.5586
-0.0965985,0.322743,2.536,2.55828
-0.0890293,0.325161,2.555,2.57715
-0.0807364,0.325161,2.555,2.57687
-0.0724435,0.325161,2.555,2.57663
-0.0641506,0.325161,2.555,2.57641
-0.0558577,0.325161,2.555,2.57621
-0.0472111,0.322743,2.536,2.55689
-0.0389799,0.322743,2.536,2.55675
-0.030979,0.325161,2.555,2.57579
-0.0226861,0.325161,2.555,2.57571
-0.0143932,0.325161,2.555,2.57565
-0.00610034,0.325161,2.555,2.57561
0.00219255,0.325161,2.555,2.57561
0.0104854,0.325161,2.555,2.57563
0.0187783,0.325161,2.555,2.57568
0.0268699,0.322743,2.536,2.5566
0.0351011,0.322743,2.536,2.5567
0.0433324,0.322743,2.536,2.55682
0.0515636,0.322743,2.536,2.55697
0.0597948,0.322743,2.536,2.55715
0.0680261,0.322743,2.536,2.55736
0.0762573,0.322743,2.536,2.55759
0.0838555,0.320325,2.517,2.53869
0.0920251,0.320325,2.517,2.53897
0.100195,0.320325,2.517,2.53928
0.108364,0.320325,2.517,2.53961
0.1157,0.318034,2.499,2.52181
0.123811,0.318034,2.499,2.5222
0.131923,0.318034,2.499,2.52261
0.139025,0.315743,2.481,2.50487
0.147078,0.315743,2.481,2.50533
0.155131,0.315743,2.481,2.50582
0.163183,0.315743,2.481,2.50633
0.171236,0.315743,2.481,2.50687
0.179289,0.315743,2.481,2.50743
0.187341,0.315743,2.481,2.50802
0.193976,0.313452,2.463,2.49043
0.201971,0.313452,2.463,2.49107
0.209965,0.313452,2.463,2.49173
0.217959,0.313452,2.463,2.49241
0.227605,0.315743,2.481,2.51135
0.235658,0.315743,2.481,2.51209
0.24371,0.315743,2.481,2.51286
nan,nan,nan,NaN
nan,nan,nan,NaN
nan,nan,nan,NaN
nan,nan,nan,NaN
nan,nan,nan,NaN
nan,nan,nan,NaN
nan,nan,nan,NaN
nan,nan,nan,NaN
nan,nan,nan,NaN
nan,nan,nan,NaN
nan,nan,nan,NaN
nan,nan,nan,NaN
nan,nan,nan,NaN
nan,nan,nan,NaN
nan,nan,nan,NaN
nan,nan,nan,NaN
nan,nan,nan,NaN
nan,nan,nan,NaN
nan,nan,nan,NaN
nan,nan,nan,NaN
nan,nan,nan,NaN
nan,nan,nan,NaN
nan,nan,nan,NaN
nan,nan,nan,NaN
nan,nan,nan,NaN
nan,nan,nan,NaN
0.485668,0.332542,2.613,2.67847
0.494149,0.332542,2.613,2.68003
0.498783,0.329997,2.593,2.66108
0.503483,0.327579,2.574,2.64316
0.511837,0.327579,2.574,2.64476
0.516352,0.325161,2.555,2.62686
0.520743,0.322743,2.536,2.60895
0.528975,0.322743,2.536,2.61061
0.533181,0.320325,2.517,2.59272
0.537479,0.318034,2.499,2.57586
0.541661,0.315743,2.481,2.55899
0.549713,0.315743,2.481,2.56071
0.553719,0.313452,2.463,2.54386
0.561714,0.313452,2.463,2.54561
0.569708,0.313452,2.463,2.54739
0.569493,0.308998,2.428,2.51296
0.573331,0.306835,2.411,2.49715
0.581156,0.306835,2.411,2.49896
0.580676,0.302508,2.377,2.46553
0.58047,0.298435,2.345,2.43414
0.588082,0.298435,2.345,2.43597
0.587564,0.294363,2.313,2.40455
0.595071,0.294363,2.313,2.40639
nan,nan,nan,NaN
nan,nan,nan,NaN
nan,nan,nan,NaN
nan,nan,nan,NaN
nan,nan,nan,NaN
nan,nan,nan,NaN
0.626344,0.284691,2.237,2.34041
0.633605,0.284691,2.237,2.34236
0.640865,0.284691,2.237,2.34434
0.652472,0.2866,2.252,2.36207
0.664176,0.288509,2.267,2.37984
0.671534,0.288509,2.267,2.38191
0.683384,0.290418,2.282,2.39977
0.690791,0.290418,2.282,2.40189
0.698198,0.290418,2.282,2.40403
0.71519,0.294363,2.313,2.43888
nan,nan,nan,NaN
nan,nan,nan,NaN
nan,nan,nan,NaN
0.74522,0.294363,2.313,2.44785
0.752727,0.294363,2.313,2.45015
0.755304,0.292454,2.298,2.43656
0.762763,0.292454,2.298,2.43888
0.770222,0.292454,2.298,2.44122
0.772266,0.290418,2.282,2.42657
0.774548,0.288509,2.267,2.41298
0.781906,0.288509,2.267,2.41535
0.789264,0.288509,2.267,2.41774
0.791351,0.2866,2.252,2.40414
0.793341,0.284691,2.237,2.39052
0.800602,0.284691,2.237,2.39294
