-0.18574,0.263154,2.517,2.53753
-0.17757,0.263154,2.517,2.53694
-0.169401,0.263154,2.517,2.53638
-0.161231,0.263154,2.517,2.53585
-0.153062,0.263154,2.517,2.53534
-0.144892,0.263154,2.517,2.53486
-0.136723,0.263154,2.517,2.53441
-0.128553,0.263154,2.517,2.53398
-0.120383,0.263154,2.517,2.53358
-0.112214,0.263154,2.517,2.53321
-0.104044,0.263154,2.517,2.53286
-0.0965985,0.26514,2.536,2.55165
-0.0883672,0.26514,2.536,2.55135
-0.080136,0.26514,2.536,2.55108
-0.0719048,0.26514,2.536,2.55084
-0.0636736,0.26514,2.536,2.55062
-0.0554423,0.26514,2.536,2.55043
-0.0472111,0.26514,2.536,2.55026
-0.0389799,0.26514,2.536,2.55012
-0.0307487,0.26514,2.536,2.55001
-0.0225174,0.26514,2.536,2.54992
-0.0141792,0.263154,2.517,2.53076
-0.00600962,0.263154,2.517,2.53073
0.00215994,0.263154,2.517,2.53072
0.0102556,0.261272,2.499,2.51264
0.0183668,0.261272,2.499,2.51269
0.0264779,0.261272,2.499,2.51276
0.034589,0.261272,2.499,2.51286
0.0427002,0.261272,2.499,2.51298
0.0508113,0.261272,2.499,2.51313
0.058498,0.25939,2.481,2.49521
0.0665507,0.25939,2.481,2.49541
0.0746034,0.25939,2.481,2.49564
0.0826561,0.25939,2.481,2.49589
0.0907089,0.25939,2.481,2.49617
0.0987616,0.25939,2.481,2.49648
0.106814,0.25939,2.481,2.49681
0.114867,0.25939,2.481,2.49717
0.12292,0.25939,2.481,2.49755
0.130972,0.25939,2.481,2.49796
0.139025,0.25939,2.481,2.49839
0.147078,0.25939,2.481,2.49886
0.155131,0.25939,2.481,2.49934
0.163183,0.25939,2.481,2.49985
0.172478,0.261272,2.499,2.51853
nan,nan,nan,NaN
0.19006,0.263154,2.517,2.53785
0.196812,0.261272,2.499,2.52032
0.204923,0.261272,2.499,2.52096
0.213034,0.261272,2.499,2.52164
0.222738,0.263154,2.517,2.5405
0.232651,0.26514,2.536,2.56041
0.240882,0.26514,2.536,2.56118
0.249113,0.26514,2.536,2.56196
0.257344,0.26514,2.536,2.56278
nan,nan,nan,NaN
nan,nan,nan,NaN
nan,nan,nan,NaN
nan,nan,nan,NaN
nan,nan,nan,NaN
nan,nan,nan,NaN
nan,nan,nan,NaN
nan,nan,nan,NaN
nan,nan,nan,NaN
nan,nan,nan,NaN
nan,nan,nan,NaN
nan,nan,nan,NaN
nan,nan,nan,NaN
nan,nan,nan,NaN
nan,nan,nan,NaN
nan,nan,nan,NaN
nan,nan,nan,NaN
nan,nan,nan,NaN
nan,nan,nan,NaN
nan,nan,nan,NaN
nan,nan,nan,NaN
0.451743,0.273191,2.613,2.6658
0.460224,0.273191,2.613,2.66725
0.468706,0.273191,2.613,2.66872
0.477187,0.273191,2.613,2.67023
0.481951,0.2711,2.593,2.65131
0.490367,0.2711,2.593,2.65285
0.498783,0.2711,2.593,2.65442
0.503483,0.269113,2.574,2.63655
0.511837,0.269113,2.574,2.63816
0.520192,0.269113,2.574,2.63979
0.524645,0.267127,2.555,2.62195
0.532938,0.267127,2.555,2.62362
0.541231,0.267127,2.555,2.62532
0.549524,0.267127,2.555,2.62704
0.557817,0.267127,2.555,2.62879
0.566109,0.267127,2.555,2.63056
0.574402,0.267127,2.555,2.63236
0.578362,0.26514,2.536,2.61459
0.586593,0.26514,2.536,2.61643
0.590368,0.263154,2.517,2.59867
0.598538,0.263154,2.517,2.60054
nan,nan,nan,NaN
0.597288,0.255626,2.445,2.52985
0.592599,0.250294,2.394,2.47892
0.60037,0.250294,2.394,2.48079
0.599757,0.246844,2.361,2.44846
0.595071,0.241826,2.313,2.40053
0.602579,0.241826,2.313,2.40241
0.597953,0.237016,2.267,2.35648
0.601306,0.235448,2.252,2.34276
0.608615,0.235448,2.252,2.34464
0.607993,0.232416,2.223,2.31633
0.611334,0.230952,2.209,2.30364
0.618504,0.230952,2.209,2.30555
0.621425,0.229384,2.194,2.29182
0.628547,0.229384,2.194,2.29376
0.640014,0.230952,2.209,2.31141
0.651285,0.232416,2.223,2.32807
0.6585,0.232416,2.223,2.3301
0.665716,0.232416,2.223,2.33215
0.672931,0.232416,2.223,2.33422
0.680146,0.232416,2.223,2.33631
0.687362,0.232416,2.223,2.33842
0.694577,0.232416,2.223,2.34055
0.701792,0.232416,2.223,2.3427
0.709008,0.232416,2.223,2.34487
0.716223,0.232416,2.223,2.34707
0.723438,0.232416,2.223,2.34928
0.730654,0.232416,2.223,2.35151
0.733222,0.230952,2.209,2.33894
0.740392,0.230952,2.209,2.3412
0.747562,0.230952,2.209,2.34347
nan,nan,nan,NaN
nan,nan,nan,NaN
nan,nan,nan,NaN
nan,nan,nan,NaN
0.837317,0.246844,2.361,2.51721
0.84498,0.246844,2.361,2.51977
0.852643,0.246844,2.361,2.52235
0.860307,0.246844,2.361,2.52495
0.86797,0.246844,2.361,2.52757
0.875633,0.246844,2.361,2.53021
0.883296,0.246844,2.361,2.53288
0.896997,0.248517,2.377,2.55274
0.904712,0.248517,2.377,2.55546
0.912428,0.248517,2.377,2.55821
0.926724,0.250294,2.394,2.57928
0.934494,0.250294,2.394,2.58208
0.948955,0.252072,2.411,2.60326
0.963527,0.253849,2.428,2.6245
0.978209,0.255626,2.445,2.6458
0.986145,0.255626,2.445,2.64875
1.0014,0.257508,2.463,2.67123
1.01677,0.25939,2.481,2.69378
1.02482,0.25939,2.481,2.69683
1.03288,0.25939,2.481,2.6999
1.04848,0.261272,2.499,2.7226
1.05659,0.261272,2.499,2.72574
1.0647,0.261272,2.499,2.72889
1.07281,0.261272,2.499,2.73207
1.08093,0.261272,2.499,2.73526
1.08904,0.261272,2.499,2.73848
1.09715,0.261272,2.499,2.74171
1.10526,0.261272,2.499,2.74497
1.10535,0.25939,2.481,2.72845
1.1134,0.25939,2.481,2.73172
1.12146,0.25939,2.481,2.73502
1.12951,0.25939,2.481,2.73833
1.12931,0.257508,2.463,2.72177
1.1373,0.257508,2.463,2.72509
1.13693,0.255626,2.445,2.7085
1.14486,0.255626,2.445,2.71184
1.1528,0.255626,2.445,2.7152
1.16073,0.255626,2.445,2.71858
1.16867,0.255626,2.445,2.72198
1.17661,0.255626,2.445,2.72539
1.18454,0.255626,2.445,2.72883
1.18419,0.253849,2.428,2.71329
1.19207,0.253849,2.428,2.71673
1.19995,0.253849,2.428,2.7202
1.20783,0.253849,2.428,2.72369
1.21571,0.253849,2.428,2.72719
1.22359,0.253849,2.428,2.73071
1.23147,0.253849,2.428,2.73425
1.23935,0.253849,2.428,2.73781
1.25596,0.255626,2.445,2.76058
1.27321,0.257508,2.463,2.78455
1.2812,0.257508,2.463,2.78822
1.28919,0.257508,2.463,2.7919
1.31615,0.261272,2.499,2.83646
1.32426,0.261272,2.499,2.84023
1.3521,0.26514,2.536,2.88613
1.38071,0.269113,2.574,2.9333
1.38907,0.269113,2.574,2.93724
1.42945,0.275282,2.633,3.00862
1.44947,0.277477,2.654,3.03672
1.48116,0.281868,2.696,3.08896
1.48991,0.281868,2.696,3.09317
1.52256,0.286364,2.739,3.14679
1.55605,0.290964,2.783,3.20173
1.56508,0.290964,2.783,3.20613
1.60014,0.295774,2.829,3.26361
1.62297,0.298283,2.853,3.29585
1.63223,0.298283,2.853,3.30042
1.64149,0.298283,2.853,3.30501
1.65075,0.298283,2.853,3.30962
1.66001,0.298283,2.853,3.31425
1.66927,0.298283,2.853,3.31889
1.67853,0.298283,2.853,3.32356
1.68779,0.298283,2.853,3.32825
1.68278,0.295774,2.829,3.30491
1.69196,0.295774,2.829,3.3096
1.70114,0.295774,2.829,3.3143
1.69642,0.293369,2.806,3.29204
1.69155,0.290964,2.783,3.26972
1.70058,0.290964,2.783,3.2744
1.6961,0.288664,2.761,3.25318
1.69147,0.286364,2.739,3.2319
1.70036,0.286364,2.739,3.23657
1.68242,0.281868,2.696,3.19036
1.66482,0.277477,2.654,3.14521
1.64759,0.273191,2.613,3.10112
1.65607,0.273191,2.613,3.10563
1.65181,0.2711,2.593,3.08636
1.63589,0.267127,2.555,3.04558
1.64419,0.267127,2.555,3.05004
1.64019,0.26514,2.536,3.0318
1.62437,0.261272,2.499,2.99196
1.63248,0.261272,2.499,2.99637
1.62878,0.25939,2.481,2.97919
1.62495,0.257508,2.463,2.96195
1.63295,0.257508,2.463,2.96634
1.62895,0.255626,2.445,2.94904
1.6255,0.253849,2.428,2.9329
1.63339,0.253849,2.428,2.93727
1.64127,0.253849,2.428,2.94166
nan,nan,nan,NaN
-1.74613,0.271321,2.517,3.07536
-1.75107,0.273369,2.536,3.09391
-1.74284,0.273369,2.536,3.08926
-1.73461,0.273369,2.536,3.08462
-1.73932,0.275417,2.555,3.10308
-1.7439,0.277465,2.574,3.12148
-1.73554,0.277465,2.574,3.11682
-1.72719,0.277465,2.574,3.11218
-1.73152,0.279514,2.593,3.13049
-1.7231,0.279514,2.593,3.12584
-1.71469,0.279514,2.593,3.12121
-1.71943,0.28167,2.613,3.14063
-1.72405,0.283825,2.633,3.16
-1.7155,0.283825,2.633,3.15534
-1.72057,0.286089,2.654,3.17583
-1.71195,0.286089,2.654,3.17117
-1.70334,0.286089,2.654,3.16653
-1.69472,0.286089,2.654,3.16191
-1.68611,0.286089,2.654,3.1573
-1.6775,0.286089,2.654,3.15271
-1.66888,0.286089,2.654,3.14813
-1.66027,0.286089,2.654,3.14357
-1.65165,0.286089,2.654,3.13903
-1.64304,0.286089,2.654,3.13451
-1.62149,0.283825,2.633,3.10524
-1.61295,0.283825,2.633,3.10078
-1.6044,0.283825,2.633,3.09634
-1.58373,0.28167,2.613,3.06844
-1.55174,0.277465,2.574,3.01834
-1.54339,0.277465,2.574,3.01405
-1.5237,0.275417,2.555,2.98756
-1.49287,0.271321,2.517,2.93897
-1.4847,0.271321,2.517,2.93483
-1.46597,0.269381,2.499,2.90975
-1.43686,0.2655,2.463,2.86381
-1.42886,0.2655,2.463,2.85981
-1.40068,0.261727,2.428,2.81524
-1.38305,0.259895,2.411,2.79165
-1.37522,0.259895,2.411,2.78778
-1.35775,0.258062,2.394,2.76429
-1.33137,0.254505,2.361,2.72243
-1.32371,0.254505,2.361,2.7187
-1.31605,0.254505,2.361,2.71497
-1.30838,0.254505,2.361,2.71127
-1.30954,0.25623,2.377,2.72593
-1.30182,0.25623,2.377,2.72223
-1.29411,0.25623,2.377,2.71855
-1.30479,0.259895,2.411,2.75371
-1.31526,0.26356,2.445,2.7888
-1.30732,0.26356,2.445,2.78506
-1.31852,0.267441,2.481,2.8223
-1.32948,0.271321,2.517,2.85944
-1.34126,0.275417,2.555,2.89877
-1.33296,0.275417,2.555,2.89494
-1.34437,0.279514,2.593,2.93413
-1.35656,0.283825,2.633,2.97549
-1.34802,0.283825,2.633,2.9716
-1.35016,0.286089,2.654,2.9914
-1.35216,0.288353,2.675,3.01116
-1.35402,0.290617,2.696,3.03088
-1.34527,0.290617,2.696,3.02698
-1.33652,0.290617,2.696,3.0231
-1.32777,0.290617,2.696,3.01925
-1.31902,0.290617,2.696,3.01541
-1.31027,0.290617,2.696,3.01159
-1.30152,0.290617,2.696,3.00779
-1.2827,0.288353,2.675,2.98062
-1.25401,0.283825,2.633,2.93015
-1.24547,0.283825,2.633,2.92651
-1.23692,0.283825,2.633,2.92288
-1.21904,0.28167,2.613,2.8971
-1.2013,0.279514,2.593,2.87139
-1.19288,0.279514,2.593,2.86788
-1.16711,0.275417,2.555,2.82241
-1.1502,0.273369,2.536,2.79803
-1.14196,0.273369,2.536,2.79466
-1.11719,0.269381,2.499,2.75058
-1.10109,0.267441,2.481,2.72751
-1.09304,0.267441,2.481,2.72427
-1.07712,0.2655,2.463,2.7013
-1.06131,0.26356,2.445,2.67841
-1.05337,0.26356,2.445,2.67527
-1.03817,0.261727,2.428,2.65358
-1.03029,0.261727,2.428,2.6505
-1.02241,0.261727,2.428,2.64745
-1.01452,0.261727,2.428,2.64442
-1.00664,0.261727,2.428,2.6414
-0.998763,0.261727,2.428,2.63841
-0.990883,0.261727,2.428,2.63544
-0.983002,0.261727,2.428,2.63249
-0.968294,0.259895,2.411,2.61114
-0.960468,0.259895,2.411,2.60825
-0.952643,0.259895,2.411,2.60538
-0.944817,0.259895,2.411,2.60253
-0.936992,0.259895,2.411,2.5997
-0.929166,0.259895,2.411,2.59689
-0.921341,0.259895,2.411,2.5941
-0.913515,0.259895,2.411,2.59133
-0.912076,0.261727,2.428,2.60683
-0.904195,0.261727,2.428,2.60408
-0.896315,0.261727,2.428,2.60136
-0.888434,0.261727,2.428,2.59865
-0.880553,0.261727,2.428,2.59597
-0.872672,0.261727,2.428,2.59331
-0.870847,0.26356,2.445,2.60881
-0.862911,0.26356,2.445,2.60617
-0.854975,0.26356,2.445,2.60355
-0.853275,0.2655,2.463,2.6201
-0.845281,0.2655,2.463,2.61751
-0.837286,0.2655,2.463,2.61494
-0.829292,0.2655,2.463,2.61239
-0.821298,0.2655,2.463,2.60986
-0.813304,0.2655,2.463,2.60736
-0.811195,0.267441,2.481,2.62391
-0.803142,0.267441,2.481,2.62144
-0.795089,0.267441,2.481,2.61898
-0.787037,0.267441,2.481,2.61655
-0.778984,0.267441,2.481,2.61414
-0.770931,0.267441,2.481,2.61175
-0.762878,0.267441,2.481,2.60938
-0.760302,0.269381,2.499,2.62595
-0.752191,0.269381,2.499,2.62362
-0.74408,0.269381,2.499,2.6213
-0.735969,0.269381,2.499,2.61901
-0.727858,0.269381,2.499,2.61674
-0.714562,0.267441,2.481,2.59567
-0.706509,0.267441,2.481,2.59346
-0.698457,0.267441,2.481,2.59128
-0.690404,0.267441,2.481,2.58912
-0.682351,0.267441,2.481,2.58698
-0.674299,0.267441,2.481,2.58487
-0.666246,0.267441,2.481,2.58278
-0.658193,0.267441,2.481,2.58072
-0.65014,0.267441,2.481,2.57868
-0.642088,0.267441,2.481,2.57666
-0.634035,0.267441,2.481,2.57466
-0.621441,0.2655,2.463,2.55403
-0.613446,0.2655,2.463,2.55209
-0.605452,0.2655,2.463,2.55018
-0.597458,0.2655,2.463,2.5483
-0.589464,0.2655,2.463,2.54643
-0.581469,0.2655,2.463,2.5446
-0.573475,0.2655,2.463,2.54278
-0.565481,0.2655,2.463,2.54099
-0.557486,0.2655,2.463,2.53922
-0.549492,0.2655,2.463,2.53748
-0.541498,0.2655,2.463,2.53576
-0.537403,0.267441,2.481,2.55258
-0.52935,0.267441,2.481,2.5509
-0.521297,0.267441,2.481,2.54924
-0.513244,0.267441,2.481,2.54761
-0.505192,0.267441,2.481,2.546
-0.497139,0.267441,2.481,2.54441
-0.492635,0.269381,2.499,2.5613
-0.484524,0.269381,2.499,2.55975
-0.476412,0.269381,2.499,2.55823
-0.471674,0.271321,2.517,2.57515
-0.463505,0.271321,2.517,2.57366
-0.455335,0.271321,2.517,2.5722
-0.447166,0.271321,2.517,2.57077
-0.438996,0.271321,2.517,2.56936
-0.430827,0.271321,2.517,2.56798
-0.422657,0.271321,2.517,2.56662
-0.417616,0.273369,2.536,2.58465
-0.409385,0.273369,2.536,2.58334
-0.401154,0.273369,2.536,2.58204
-0.392923,0.273369,2.536,2.58078
-0.384691,0.273369,2.536,2.57954
-0.37646,0.273369,2.536,2.57832
-0.368229,0.273369,2.536,2.57713
-0.362695,0.275417,2.555,2.59527
-0.354402,0.275417,2.555,2.59412
-0.343535,0.273369,2.536,2.57372
-0.335304,0.273369,2.536,2.57264
-0.327073,0.273369,2.536,2.57158
-0.318842,0.273369,2.536,2.57054
-0.31061,0.273369,2.536,2.56953
-0.302379,0.273369,2.536,2.56855
-0.294148,0.273369,2.536,2.5676
-0.285917,0.273369,2.536,2.56667
-0.277685,0.273369,2.536,2.56576
-0.269454,0.273369,2.536,2.56488
-0.261223,0.273369,2.536,2.56403
-0.252992,0.273369,2.536,2.56321
-0.244761,0.273369,2.536,2.56241
-0.236529,0.273369,2.536,2.56163
-0.226588,0.271321,2.517,2.5417
-0.218418,0.271321,2.517,2.54099
-0.210249,0.271321,2.517,2.5403
-0.202079,0.271321,2.517,2.53963
-0.193909,0.271321,2.517,2.539
-0.18574,0.271321,2.517,2.53839
-0.17757,0.271321,2.517,2.5378
-0.169401,0.271321,2.517,2.53724
-0.161231,0.271321,2.517,2.53671
-0.153062,0.271321,2.517,2.5362
-0.144892,0.271321,2.517,2.53572
-0.136723,0.271321,2.517,2.53527
-0.128553,0.271321,2.517,2.53484
-0.120383,0.271321,2.517,2.53444
-0.113061,0.273369,2.536,2.5532
-0.10483,0.273369,2.536,2.55284
-0.0965985,0.273369,2.536,2.55252
-0.0883672,0.273369,2.536,2.55222
-0.080136,0.273369,2.536,2.55195
-0.0719048,0.273369,2.536,2.5517
-0.0636736,0.273369,2.536,2.55149
-0.0554423,0.273369,2.536,2.55129
-0.0472111,0.273369,2.536,2.55113
-0.0389799,0.273369,2.536,2.55099
-0.0307487,0.273369,2.536,2.55088
-0.0225174,0.273369,2.536,2.55079
-0.0141792,0.271321,2.517,2.53162
-0.00600962,0.271321,2.517,2.53159
0.00215994,0.271321,2.517,2.53158
0.0102556,0.269381,2.499,2.5135
0.0183668,0.269381,2.499,2.51354
0.0264779,0.269381,2.499,2.51362
0.034589,0.269381,2.499,2.51372
0.0427002,0.269381,2.499,2.51384
0.0508113,0.269381,2.499,2.51399
0.058498,0.267441,2.481,2.49606
0.0665507,0.267441,2.481,2.49626
0.0746034,0.267441,2.481,2.49649
0.0826561,0.267441,2.481,2.49674
0.0907089,0.267441,2.481,2.49702
0.0987616,0.267441,2.481,2.49733
0.106814,0.267441,2.481,2.49766
0.114867,0.267441,2.481,2.49802
0.12292,0.267441,2.481,2.4984
0.130972,0.267441,2.481,2.49881
0.139025,0.267441,2.481,2.49924
0.147078,0.267441,2.481,2.4997
0.155131,0.267441,2.481,2.50019
0.163183,0.267441,2.481,2.5007
0.172478,0.269381,2.499,2.51939
nan,nan,nan,NaN
0.19006,0.271321,2.517,2.53871
0.196812,0.269381,2.499,2.52117
0.204923,0.269381,2.499,2.52182
0.213034,0.269381,2.499,2.52249
0.222738,0.271321,2.517,2.54136
0.232651,0.273369,2.536,2.56128
0.240882,0.273369,2.536,2.56204
0.249113,0.273369,2.536,2.56283
0.257344,0.273369,2.536,2.56364
nan,nan,nan,NaN
nan,nan,nan,NaN
nan,nan,nan,NaN
nan,nan,nan,NaN
nan,nan,nan,NaN
nan,nan,nan,NaN
nan,nan,nan,NaN
nan,nan,nan,NaN
nan,nan,nan,NaN
nan,nan,nan,NaN
nan,nan,nan,NaN
nan,nan,nan,NaN
nan,nan,nan,NaN
nan,nan,nan,NaN
nan,nan,nan,NaN
nan,nan,nan,NaN
nan,nan,nan,NaN
nan,nan,nan,NaN
nan,nan,nan,NaN
nan,nan,nan,NaN
nan,nan,nan,NaN
0.451743,0.28167,2.613,2.66668
0.460224,0.28167,2.613,2.66813
0.468706,0.28167,2.613,2.66961
0.473534,0.279514,2.593,2.65066
0.481951,0.279514,2.593,2.65218
0.490367,0.279514,2.593,2.65372
0.495128,0.277465,2.574,2.63583
0.503483,0.277465,2.574,2.63742
0.511837,0.277465,2.574,2.63902
0.516352,0.275417,2.555,2.62116
0.524645,0.275417,2.555,2.62281
0.532938,0.275417,2.555,2.62448
0.537206,0.273369,2.536,2.60665
0.545437,0.273369,2.536,2.60836
0.557817,0.275417,2.555,2.62965
0.566109,0.275417,2.555,2.63142
0.570131,0.273369,2.536,2.61363
0.574029,0.271321,2.517,2.59585
0.582199,0.271321,2.517,2.59766
0.586146,0.269381,2.499,2.58092
0.589977,0.267441,2.481,2.56417
0.59803,0.267441,2.481,2.56603
0.597288,0.26356,2.445,2.53066
0.592599,0.258062,2.394,2.47972
0.60037,0.258062,2.394,2.48159
0.599757,0.254505,2.361,2.44925
0.595071,0.249331,2.313,2.4013
0.602579,0.249331,2.313,2.40317
0.597953,0.244372,2.267,2.35723
0.597301,0.241138,2.237,2.32789
0.604562,0.241138,2.237,2.32977
0.607993,0.239629,2.223,2.31707
0.611334,0.23812,2.209,2.30437
0.618504,0.23812,2.209,2.30628
0.625674,0.23812,2.209,2.30821
0.632844,0.23812,2.209,2.31017
0.640014,0.23812,2.209,2.31214
0.651285,0.239629,2.223,2.3288
0.6585,0.239629,2.223,2.33083
0.665716,0.239629,2.223,2.33288
0.672931,0.239629,2.223,2.33495
0.680146,0.239629,2.223,2.33704
0.683033,0.23812,2.209,2.32442
0.690203,0.23812,2.209,2.32653
0.697373,0.23812,2.209,2.32867
0.709008,0.239629,2.223,2.3456
0.716223,0.239629,2.223,2.34779
0.723438,0.239629,2.223,2.35
0.730654,0.239629,2.223,2.35223
0.733222,0.23812,2.209,2.33966
0.740392,0.23812,2.209,2.34191
0.747562,0.23812,2.209,2.34419
nan,nan,nan,NaN
nan,nan,nan,NaN
nan,nan,nan,NaN
nan,nan,nan,NaN
0.831643,0.25278,2.345,2.50091
0.839254,0.25278,2.345,2.50345
0.846865,0.25278,2.345,2.50601
0.854477,0.25278,2.345,2.5086
0.862088,0.25278,2.345,2.5112
0.869699,0.25278,2.345,2.51382
0.87731,0.25278,2.345,2.51647
0.89096,0.254505,2.361,2.53632
0.898623,0.254505,2.361,2.53902
0.906286,0.254505,2.361,2.54174
0.920143,0.25623,2.377,2.56173
0.927858,0.25623,2.377,2.56451
0.935573,0.25623,2.377,2.56731
0.956781,0.259895,2.411,2.60689
0.971408,0.261727,2.428,2.62818
0.979289,0.261727,2.428,2.6311
0.994081,0.26356,2.445,2.65249
1.00939,0.2655,2.463,2.67502
1.01739,0.2655,2.463,2.67805
1.03288,0.267441,2.481,2.70069
1.04848,0.269381,2.499,2.72339
1.05659,0.269381,2.499,2.72653
1.0647,0.269381,2.499,2.72968
1.07281,0.269381,2.499,2.73286
1.08871,0.271321,2.517,2.75576
1.09688,0.271321,2.517,2.75899
1.10505,0.271321,2.517,2.76225
1.11322,0.271321,2.517,2.76553
1.11337,0.269381,2.499,2.74903
1.1134,0.267441,2.481,2.7325
1.12146,0.267441,2.481,2.73579
1.12951,0.267441,2.481,2.7391
1.13756,0.267441,2.481,2.74243
1.14561,0.267441,2.481,2.74578
1.1453,0.2655,2.463,2.72921
1.15329,0.2655,2.463,2.73257
1.1528,0.26356,2.445,2.71596
1.16073,0.26356,2.445,2.71934
1.16867,0.26356,2.445,2.72273
1.17661,0.26356,2.445,2.72615
1.18454,0.26356,2.445,2.72958
1.19248,0.26356,2.445,2.73304
1.20041,0.26356,2.445,2.73651
1.20835,0.26356,2.445,2.74
1.21629,0.26356,2.445,2.74351
1.22422,0.26356,2.445,2.74704
1.23216,0.26356,2.445,2.75058
1.24009,0.26356,2.445,2.75415
1.24803,0.26356,2.445,2.75773
1.25596,0.26356,2.445,2.76133
1.27321,0.2655,2.463,2.7853
1.2812,0.2655,2.463,2.78897
1.29862,0.267441,2.481,2.81306
1.31615,0.269381,2.499,2.83722
1.32426,0.269381,2.499,2.84099
1.3521,0.273369,2.536,2.8869
1.38071,0.277465,2.574,2.93408
1.38907,0.277465,2.574,2.93802
1.42945,0.283825,2.633,3.00942
1.44947,0.286089,2.654,3.03752
1.48116,0.290617,2.696,3.08977
1.48991,0.290617,2.696,3.09398
1.52256,0.295252,2.739,3.14762
1.55605,0.299995,2.783,3.20256
1.56508,0.299995,2.783,3.20696
1.60014,0.304953,2.829,3.26446
1.63662,0.310128,2.877,3.32443
1.64596,0.310128,2.877,3.32904
1.6553,0.310128,2.877,3.33367
1.66464,0.310128,2.877,3.33831
1.67398,0.310128,2.877,3.34298
1.68331,0.310128,2.877,3.34766
1.69265,0.310128,2.877,3.35237
1.70199,0.310128,2.877,3.35709
1.71133,0.310128,2.877,3.36184
1.70631,0.30754,2.853,3.33852
1.71557,0.30754,2.853,3.34326
1.71032,0.304953,2.829,3.31986
1.7195,0.304953,2.829,3.3246
1.72869,0.304953,2.829,3.32935
1.70961,0.299995,2.783,3.27992
1.70506,0.297623,2.761,3.25867
1.71402,0.297623,2.761,3.26337
1.69552,0.29288,2.717,3.216
1.678,0.288353,2.675,3.17087
1.6602,0.283825,2.633,3.12562
1.66874,0.283825,2.633,3.13017
1.65181,0.279514,2.593,3.08711
1.64806,0.277465,2.574,3.06897
1.65641,0.277465,2.574,3.07346
1.64019,0.273369,2.536,3.03253
1.62437,0.269381,2.499,2.99268
1.63248,0.269381,2.499,2.99709
1.62878,0.267441,2.481,2.9799
1.62495,0.2655,2.463,2.96266
1.63295,0.2655,2.463,2.96705
1.62895,0.26356,2.445,2.94974
1.6255,0.261727,2.428,2.93359
1.63339,0.261727,2.428,2.93796
1.64127,0.261727,2.428,2.94235
nan,nan,nan,NaN
-1.75931,0.281598,2.536,3.09931
-1.75107,0.281598,2.536,3.09465
-1.74284,0.281598,2.536,3.09
-1.73461,0.281598,2.536,3.08536
-1.73932,0.283708,2.555,3.10383
-1.7439,0.285818,2.574,3.12223
-1.74835,0.287927,2.593,3.14059
-1.73994,0.287927,2.593,3.13591
-1.73152,0.287927,2.593,3.13125
-1.73639,0.290148,2.613,3.15072
-1.72791,0.290148,2.613,3.14605
-1.73259,0.292369,2.633,3.16545
-1.7378,0.294701,2.654,3.18598
-1.72918,0.294701,2.654,3.18129
-1.72057,0.294701,2.654,3.17662
-1.71195,0.294701,2.654,3.17196
-1.70334,0.294701,2.654,3.16732
-1.69472,0.294701,2.654,3.1627
-1.68611,0.294701,2.654,3.15809
-1.6775,0.294701,2.654,3.1535
-1.66888,0.294701,2.654,3.14893
-1.66027,0.294701,2.654,3.14437
-1.65165,0.294701,2.654,3.13983
-1.64304,0.294701,2.654,3.13531
-1.62149,0.292369,2.633,3.10603
-1.61295,0.292369,2.633,3.10157
-1.6044,0.292369,2.633,3.09714
-1.58373,0.290148,2.613,3.06923
-1.55174,0.285818,2.574,3.01912
-1.54339,0.285818,2.574,3.01483
-1.5237,0.283708,2.555,2.98834
-1.49287,0.279488,2.517,2.93974
-1.4847,0.279488,2.517,2.9356
-1.46597,0.27749,2.499,2.91051
-1.43686,0.273492,2.463,2.86456
-1.42886,0.273492,2.463,2.86056
-1.40068,0.269606,2.428,2.81599
-1.38305,0.267718,2.411,2.79238
-1.37522,0.267718,2.411,2.78852
-1.35775,0.26583,2.394,2.76503
-1.33137,0.262166,2.361,2.72316
-1.32371,0.262166,2.361,2.71942
-1.31605,0.262166,2.361,2.7157
-1.30838,0.262166,2.361,2.712
-1.30954,0.263943,2.377,2.72666
-1.30182,0.263943,2.377,2.72296
-1.29411,0.263943,2.377,2.71928
-1.30479,0.267718,2.411,2.75446
-1.31526,0.271494,2.445,2.78956
-1.30732,0.271494,2.445,2.78582
-1.31852,0.275491,2.481,2.82307
-1.32948,0.279488,2.517,2.86023
-1.34126,0.283708,2.555,2.89957
-1.33296,0.283708,2.555,2.89574
-1.34437,0.287927,2.593,2.93494
-1.35656,0.292369,2.633,2.97631
-1.34802,0.292369,2.633,2.97243
-1.35016,0.294701,2.654,2.99224
-1.35216,0.297033,2.675,3.01201
-1.35402,0.299365,2.696,3.03173
-1.34527,0.299365,2.696,3.02784
-1.33652,0.299365,2.696,3.02396
-1.32777,0.299365,2.696,3.0201
-1.31902,0.299365,2.696,3.01626
-1.31027,0.299365,2.696,3.01245
-1.30152,0.299365,2.696,3.00865
-1.2827,0.297033,2.675,2.98147
-1.26401,0.294701,2.654,2.95437
-1.2554,0.294701,2.654,2.95069
-1.23692,0.292369,2.633,2.92372
-1.22837,0.292369,2.633,2.92011
-1.2013,0.287927,2.593,2.87222
-1.19288,0.287927,2.593,2.86871
-1.17578,0.285818,2.574,2.84423
-1.1502,0.281598,2.536,2.79885
-1.14196,0.281598,2.536,2.79547
-1.12524,0.279488,2.517,2.7712
-1.10908,0.27749,2.499,2.7481
-1.10097,0.27749,2.499,2.74484
-1.07712,0.273492,2.463,2.7021
-1.06912,0.273492,2.463,2.69892
-1.06113,0.273492,2.463,2.69577
-1.04544,0.271494,2.445,2.67295
-1.0375,0.271494,2.445,2.66986
-1.02241,0.269606,2.428,2.64824
-1.01452,0.269606,2.428,2.64521
-1.00664,0.269606,2.428,2.6422
-0.998763,0.269606,2.428,2.6392
-0.990883,0.269606,2.428,2.63623
-0.983002,0.269606,2.428,2.63328
-0.975121,0.269606,2.428,2.63035
-0.967241,0.269606,2.428,2.62744
-0.95936,0.269606,2.428,2.62455
-0.951479,0.269606,2.428,2.62168
-0.943599,0.269606,2.428,2.61883
-0.935718,0.269606,2.428,2.616
-0.927837,0.269606,2.428,2.61319
-0.919957,0.269606,2.428,2.6104
-0.912076,0.269606,2.428,2.60763
-0.904195,0.269606,2.428,2.60489
-0.896315,0.269606,2.428,2.60216
-0.888434,0.269606,2.428,2.59946
-0.880553,0.269606,2.428,2.59678
-0.872672,0.269606,2.428,2.59411
-0.870847,0.271494,2.445,2.60962
-0.862911,0.271494,2.445,2.60698
-0.861269,0.273492,2.463,2.62354
-0.853275,0.273492,2.463,2.62092
-0.845281,0.273492,2.463,2.61833
-0.837286,0.273492,2.463,2.61576
-0.829292,0.273492,2.463,2.61321
-0.821298,0.273492,2.463,2.61069
-0.813304,0.273492,2.463,2.60819
-0.811195,0.275491,2.481,2.62475
-0.803142,0.275491,2.481,2.62227
-0.795089,0.275491,2.481,2.61981
-0.787037,0.275491,2.481,2.61738
-0.778984,0.275491,2.481,2.61497
-0.770931,0.275491,2.481,2.61258
-0.762878,0.275491,2.481,2.61022
-0.760302,0.27749,2.499,2.6268
-0.752191,0.27749,2.499,2.62446
-0.74408,0.27749,2.499,2.62215
-0.730668,0.275491,2.481,2.60099
-0.722615,0.275491,2.481,2.59874
-0.714562,0.275491,2.481,2.59651
-0.706509,0.275491,2.481,2.5943
-0.698457,0.275491,2.481,2.59212
-0.690404,0.275491,2.481,2.58996
-0.682351,0.275491,2.481,2.58783
-0.674299,0.275491,2.481,2.58572
-0.666246,0.275491,2.481,2.58363
-0.653418,0.273492,2.463,2.56283
-0.645424,0.273492,2.463,2.56081
-0.637429,0.273492,2.463,2.5588
-0.629435,0.273492,2.463,2.55683
-0.621441,0.273492,2.463,2.55487
-0.613446,0.273492,2.463,2.55294
-0.605452,0.273492,2.463,2.55103
-0.597458,0.273492,2.463,2.54914
-0.589464,0.273492,2.463,2.54728
-0.581469,0.273492,2.463,2.54544
-0.573475,0.273492,2.463,2.54363
-0.565481,0.273492,2.463,2.54184
-0.557486,0.273492,2.463,2.54007
-0.549492,0.273492,2.463,2.53833
-0.541498,0.273492,2.463,2.53661
-0.537403,0.275491,2.481,2.55344
-0.52935,0.275491,2.481,2.55176
-0.521297,0.275491,2.481,2.5501
-0.513244,0.275491,2.481,2.54847
-0.508857,0.27749,2.499,2.56533
-0.500746,0.27749,2.499,2.56374
-0.492635,0.27749,2.499,2.56217
-0.484524,0.27749,2.499,2.56062
-0.476412,0.27749,2.499,2.5591
-0.471674,0.279488,2.517,2.57602
-0.463505,0.279488,2.517,2.57454
-0.455335,0.279488,2.517,2.57308
-0.447166,0.279488,2.517,2.57165
-0.44231,0.281598,2.536,2.58964
-0.434079,0.281598,2.536,2.58825
-0.425848,0.281598,2.536,2.58688
-0.417616,0.281598,2.536,2.58554
-0.409385,0.281598,2.536,2.58422
-0.401154,0.281598,2.536,2.58293
-0.392923,0.281598,2.536,2.58166
-0.387574,0.283708,2.555,2.59976
-0.379281,0.283708,2.555,2.59853
-0.370988,0.283708,2.555,2.59733
-0.362695,0.283708,2.555,2.59616
-0.354402,0.283708,2.555,2.59502
-0.346109,0.283708,2.555,2.5939
-0.335304,0.281598,2.536,2.57352
-0.327073,0.281598,2.536,2.57246
-0.318842,0.281598,2.536,2.57143
-0.31061,0.281598,2.536,2.57042
-0.302379,0.281598,2.536,2.56944
-0.294148,0.281598,2.536,2.56849
-0.285917,0.281598,2.536,2.56756
-0.277685,0.281598,2.536,2.56665
-0.269454,0.281598,2.536,2.56577
-0.261223,0.281598,2.536,2.56492
-0.252992,0.281598,2.536,2.5641
-0.244761,0.281598,2.536,2.5633
-0.236529,0.281598,2.536,2.56253
-0.226588,0.279488,2.517,2.54259
-0.218418,0.279488,2.517,2.54187
-0.210249,0.279488,2.517,2.54118
-0.202079,0.279488,2.517,2.54052
-0.193909,0.279488,2.517,2.53988
-0.18574,0.279488,2.517,2.53927
-0.17757,0.279488,2.517,2.53869
-0.169401,0.279488,2.517,2.53813
-0.161231,0.279488,2.517,2.5376
-0.153062,0.279488,2.517,2.53709
-0.144892,0.279488,2.517,2.53661
-0.136723,0.279488,2.517,2.53616
-0.128553,0.279488,2.517,2.53573
-0.120383,0.279488,2.517,2.53533
-0.113061,0.281598,2.536,2.55409
-0.10483,0.281598,2.536,2.55374
-0.0965985,0.281598,2.536,2.55341
-0.0883672,0.281598,2.536,2.55312
-0.080136,0.281598,2.536,2.55284
-0.0719048,0.281598,2.536,2.5526
-0.0636736,0.281598,2.536,2.55238
-0.0554423,0.281598,2.536,2.55219
-0.0472111,0.281598,2.536,2.55202
-0.0389799,0.281598,2.536,2.55188
-0.0307487,0.281598,2.536,2.55177
-0.0225174,0.281598,2.536,2.55169
-0.0141792,0.279488,2.517,2.53251
-0.00600962,0.279488,2.517,2.53248
0.00215994,0.279488,2.517,2.53247
0.0102556,0.27749,2.499,2.51438
0.0183668,0.27749,2.499,2.51443
0.0264779,0.27749,2.499,2.5145
0.034589,0.27749,2.499,2.5146
0.0427002,0.27749,2.499,2.51472
0.0508113,0.27749,2.499,2.51487
0.058498,0.275491,2.481,2.49693
0.0665507,0.275491,2.481,2.49714
0.0746034,0.275491,2.481,2.49736
0.0826561,0.275491,2.481,2.49762
0.0907089,0.275491,2.481,2.4979
0.0987616,0.275491,2.481,2.4982
0.106814,0.275491,2.481,2.49853
0.114867,0.275491,2.481,2.49889
0.12292,0.275491,2.481,2.49927
0.130972,0.275491,2.481,2.49968
0.139025,0.275491,2.481,2.50012
0.147078,0.275491,2.481,2.50058
0.155131,0.275491,2.481,2.50106
0.163183,0.275491,2.481,2.50158
0.172478,0.27749,2.499,2.52027
nan,nan,nan,NaN
0.19006,0.279488,2.517,2.53959
0.196812,0.27749,2.499,2.52205
0.204923,0.27749,2.499,2.5227
0.213034,0.27749,2.499,2.52337
0.222738,0.279488,2.517,2.54225
0.232651,0.281598,2.536,2.56217
0.240882,0.281598,2.536,2.56293
0.249113,0.281598,2.536,2.56372
0.257344,0.281598,2.536,2.56453
0.265575,0.281598,2.536,2.56537
0.273807,0.281598,2.536,2.56624
0.282038,0.281598,2.536,2.56713
nan,nan,nan,NaN
nan,nan,nan,NaN
nan,nan,nan,NaN
nan,nan,nan,NaN
nan,nan,nan,NaN
nan,nan,nan,NaN
nan,nan,nan,NaN
nan,nan,nan,NaN
nan,nan,nan,NaN
nan,nan,nan,NaN
nan,nan,nan,NaN
nan,nan,nan,NaN
nan,nan,nan,NaN
nan,nan,nan,NaN
nan,nan,nan,NaN
nan,nan,nan,NaN
nan,nan,nan,NaN
nan,nan,nan,NaN
nan,nan,nan,NaN
0.456702,0.287927,2.593,2.64861
0.465118,0.287927,2.593,2.65007
0.473534,0.287927,2.593,2.65156
0.481951,0.287927,2.593,2.65308
0.490367,0.287927,2.593,2.65462
0.495128,0.285818,2.574,2.63673
0.503483,0.285818,2.574,2.63831
0.511837,0.285818,2.574,2.63991
0.516352,0.283708,2.555,2.62205
0.524645,0.283708,2.555,2.62369
0.532938,0.283708,2.555,2.62536
0.537206,0.281598,2.536,2.60752
0.545437,0.281598,2.536,2.60923
0.553668,0.281598,2.536,2.61097
0.5619,0.281598,2.536,2.61272
0.565859,0.279488,2.517,2.59492
0.574029,0.279488,2.517,2.59671
0.582199,0.279488,2.517,2.59853
0.586146,0.27749,2.499,2.58178
0.585697,0.273492,2.463,2.54641
0.593691,0.273492,2.463,2.54826
0.597288,0.271494,2.445,2.5315
0.596808,0.267718,2.411,2.49815
0.604633,0.267718,2.411,2.50004
0.599757,0.262166,2.361,2.45005
0.595071,0.256836,2.313,2.40209
0.602579,0.256836,2.313,2.40396
0.597953,0.251728,2.267,2.35801
0.597301,0.248397,2.237,2.32866
0.604562,0.248397,2.237,2.33053
0.607993,0.246843,2.223,2.31783
0.611334,0.245288,2.209,2.30512
0.618504,0.245288,2.209,2.30703
0.625674,0.245288,2.209,2.30896
0.632844,0.245288,2.209,2.31092
0.640014,0.245288,2.209,2.31289
0.651285,0.246843,2.223,2.32956
0.6585,0.246843,2.223,2.33158
0.665716,0.246843,2.223,2.33363
0.672931,0.246843,2.223,2.3357
0.680146,0.246843,2.223,2.33779
0.683033,0.245288,2.209,2.32516
0.690203,0.245288,2.209,2.32728
0.697373,0.245288,2.209,2.32942
0.709008,0.246843,2.223,2.34635
0.716223,0.246843,2.223,2.34854
0.723438,0.246843,2.223,2.35075
0.730654,0.246843,2.223,2.35298
0.737869,0.246843,2.223,2.35523
0.745084,0.246843,2.223,2.3575
0.752299,0.246843,2.223,2.35979
nan,nan,nan,NaN
nan,nan,nan,NaN
nan,nan,nan,NaN
nan,nan,nan,NaN
0.831643,0.260389,2.345,2.50169
0.839254,0.260389,2.345,2.50423
0.846865,0.260389,2.345,2.50679
0.854477,0.260389,2.345,2.50937
0.862088,0.260389,2.345,2.51198
0.869699,0.260389,2.345,2.5146
0.87731,0.260389,2.345,2.51724
0.89096,0.262166,2.361,2.5371
0.898623,0.262166,2.361,2.5398
0.906286,0.262166,2.361,2.54252
0.920143,0.263943,2.377,2.56251
0.927858,0.263943,2.377,2.56529
0.935573,0.263943,2.377,2.56809
0.956781,0.267718,2.411,2.60769
0.971408,0.269606,2.428,2.62897
0.979289,0.269606,2.428,2.6319
0.994081,0.271494,2.445,2.65329
1.00939,0.273492,2.463,2.67583
1.01739,0.273492,2.463,2.67885
1.03288,0.275491,2.481,2.7015
1.04848,0.27749,2.499,2.72421
1.05659,0.27749,2.499,2.72734
1.0647,0.27749,2.499,2.73049
1.07281,0.27749,2.499,2.73367
1.08871,0.279488,2.517,2.75657
1.09688,0.279488,2.517,2.75981
1.10505,0.279488,2.517,2.76307
1.11322,0.279488,2.517,2.76634
1.11337,0.27749,2.499,2.74984
1.12148,0.27749,2.499,2.75313
1.12959,0.27749,2.499,2.75644
1.1377,0.27749,2.499,2.75978
1.13756,0.275491,2.481,2.74323
1.14561,0.275491,2.481,2.74658
1.15367,0.275491,2.481,2.74995
1.15329,0.273492,2.463,2.73336
1.16129,0.273492,2.463,2.73674
1.16928,0.273492,2.463,2.74014
1.17727,0.273492,2.463,2.74356
1.18527,0.273492,2.463,2.747
1.19326,0.273492,2.463,2.75046
1.20126,0.273492,2.463,2.75394
1.20041,0.271494,2.445,2.73728
1.20835,0.271494,2.445,2.74077
1.21629,0.271494,2.445,2.74428
1.22422,0.271494,2.445,2.74781
1.24123,0.273492,2.463,2.77161
1.24922,0.273492,2.463,2.7752
1.24803,0.271494,2.445,2.7585
1.25596,0.271494,2.445,2.7621
1.27321,0.273492,2.463,2.78608
1.2812,0.273492,2.463,2.78974
1.29862,0.275491,2.481,2.81383
1.31615,0.27749,2.499,2.838
1.32426,0.27749,2.499,2.84177
1.3521,0.281598,2.536,2.88769
1.38071,0.285818,2.574,2.93488
1.38907,0.285818,2.574,2.93882
1.42945,0.292369,2.633,3.01023
1.44947,0.294701,2.654,3.03834
1.48116,0.299365,2.696,3.09061
1.48991,0.299365,2.696,3.09481
1.52256,0.304139,2.739,3.14846
1.55605,0.309025,2.783,3.20342
1.56508,0.309025,2.783,3.20781
1.60014,0.314133,2.829,3.26533
1.63662,0.319463,2.877,3.32532
1.64596,0.319463,2.877,3.32992
1.6553,0.319463,2.877,3.33455
1.66464,0.319463,2.877,3.33919
1.67398,0.319463,2.877,3.34386
1.68331,0.319463,2.877,3.34854
1.69265,0.319463,2.877,3.35325
1.70199,0.319463,2.877,3.35797
1.71133,0.319463,2.877,3.36271
1.70631,0.316798,2.853,3.33938
1.71557,0.316798,2.853,3.34412
1.71032,0.314133,2.829,3.32071
1.7195,0.314133,2.829,3.32545
1.72869,0.314133,2.829,3.33021
1.70961,0.309025,2.783,3.28076
1.70506,0.306582,2.761,3.2595
1.71402,0.306582,2.761,3.2642
1.69552,0.301696,2.717,3.21682
1.678,0.297033,2.675,3.17168
1.6602,0.292369,2.633,3.12641
1.66874,0.292369,2.633,3.13095
1.65181,0.287927,2.593,3.08788
1.64806,0.285818,2.574,3.06973
1.65641,0.285818,2.574,3.07423
1.64019,0.281598,2.536,3.03329
1.62437,0.27749,2.499,2.99342
1.63248,0.27749,2.499,2.99783
1.62878,0.275491,2.481,2.98063
1.61308,0.271494,2.445,2.94173
1.62101,0.271494,2.445,2.94609
1.61762,0.269606,2.428,2.92995
1.61412,0.267718,2.411,2.91376
1.62195,0.267718,2.411,2.9181
1.62977,0.267718,2.411,2.92246
1.62605,0.26583,2.394,2.90619
-1.75931,0.289827,2.536,3.10007
-1.75107,0.289827,2.536,3.09541
-1.74284,0.289827,2.536,3.09076
-1.73461,0.289827,2.536,3.08613
-1.73932,0.291999,2.555,3.10459
-1.7439,0.29417,2.574,3.12301
-1.74835,0.296341,2.593,3.14137
-1.73994,0.296341,2.593,3.13669
-1.73152,0.296341,2.593,3.13203
-1.73639,0.298627,2.613,3.15151
-1.72791,0.298627,2.613,3.14684
-1.73259,0.300913,2.633,3.16625
-1.7378,0.303313,2.654,3.18679
-1.72918,0.303313,2.654,3.1821
-1.73418,0.305713,2.675,3.20257
-1.7255,0.305713,2.675,3.19788
-1.71682,0.305713,2.675,3.1932
-1.70813,0.305713,2.675,3.18854
-1.69945,0.305713,2.675,3.1839
-1.69077,0.305713,2.675,3.17927
-1.68209,0.305713,2.675,3.17467
-1.6734,0.305713,2.675,3.17007
-1.66472,0.305713,2.675,3.1655
-1.64304,0.303313,2.654,3.13613
-1.63443,0.303313,2.654,3.13162
-1.61295,0.300913,2.633,3.10239
-1.6044,0.300913,2.633,3.09796
-1.58373,0.298627,2.613,3.07004
-1.56319,0.296341,2.593,3.04221
-1.55478,0.296341,2.593,3.03789
-1.5237,0.291999,2.555,2.98914
-1.50414,0.289827,2.536,2.96272
-1.49591,0.289827,2.536,2.95855
-1.46597,0.285599,2.499,2.91129
-1.44736,0.283541,2.481,2.88628
-1.43931,0.283541,2.481,2.88225
-1.41049,0.279427,2.445,2.83647
-1.38305,0.275541,2.411,2.79315
-1.37522,0.275541,2.411,2.78928
-1.35775,0.273599,2.394,2.76579
-1.3404,0.271656,2.377,2.74237
-1.32371,0.269827,2.361,2.72017
-1.31605,0.269827,2.361,2.71645
-1.30838,0.269827,2.361,2.71275
-1.30954,0.271656,2.377,2.72742
-1.30182,0.271656,2.377,2.72372
-1.29411,0.271656,2.377,2.72004
-1.30479,0.275541,2.411,2.75524
-1.31526,0.279427,2.445,2.79034
-1.30732,0.279427,2.445,2.78661
-1.31852,0.283541,2.481,2.82387
-1.32948,0.287656,2.517,2.86104
-1.34126,0.291999,2.555,2.90039
-1.33296,0.291999,2.555,2.89656
-1.35474,0.298627,2.613,2.95842
-1.35656,0.300913,2.633,2.97716
-1.34802,0.300913,2.633,2.97328
-1.36084,0.305713,2.675,3.01678
-1.36277,0.308113,2.696,3.03653
-1.36457,0.310513,2.717,3.05623
-1.35575,0.310513,2.717,3.0523
-1.34693,0.310513,2.717,3.0484
-1.33811,0.310513,2.717,3.04451
-1.32929,0.310513,2.717,3.04065
-1.31027,0.308113,2.696,3.01333
-1.30152,0.308113,2.696,3.00953
-1.29277,0.308113,2.696,3.00576
-1.27402,0.305713,2.675,2.97862
-1.2554,0.303313,2.654,2.95157
-1.24679,0.303313,2.654,2.94791
-1.23817,0.303313,2.654,2.94428
-1.21056,0.298627,2.613,2.89524
-1.20208,0.298627,2.613,2.8917
-1.17578,0.29417,2.574,2.84508
-1.15881,0.291999,2.555,2.82066
-1.15052,0.291999,2.555,2.81727
-1.12524,0.287656,2.517,2.77204
-1.10908,0.285599,2.499,2.74893
-1.10097,0.285599,2.499,2.74567
-1.08499,0.283541,2.481,2.72267
-1.06912,0.281484,2.463,2.69974
-1.06113,0.281484,2.463,2.69659
-1.04544,0.279427,2.445,2.67377
-1.0375,0.279427,2.445,2.67068
-1.02956,0.279427,2.445,2.6676
-1.02163,0.279427,2.445,2.66455
-1.01369,0.279427,2.445,2.66152
-1.00576,0.279427,2.445,2.65851
-0.997821,0.279427,2.445,2.65551
-0.989885,0.279427,2.445,2.65254
-0.975121,0.277484,2.428,2.63117
-0.967241,0.277484,2.428,2.62826
-0.95936,0.277484,2.428,2.62537
-0.951479,0.277484,2.428,2.6225
-0.943599,0.277484,2.428,2.61965
-0.935718,0.277484,2.428,2.61682
-0.927837,0.277484,2.428,2.61401
-0.919957,0.277484,2.428,2.61123
-0.912076,0.277484,2.428,2.60846
-0.904195,0.277484,2.428,2.60572
-0.896315,0.277484,2.428,2.60299
-0.888434,0.277484,2.428,2.60029
-0.880553,0.277484,2.428,2.59761
-0.872672,0.277484,2.428,2.59494
-0.870847,0.279427,2.445,2.61046
-0.869264,0.281484,2.463,2.62702
-0.861269,0.281484,2.463,2.62438
-0.853275,0.281484,2.463,2.62177
-0.851458,0.283541,2.481,2.63832
-0.837286,0.281484,2.463,2.61661
-0.829292,0.281484,2.463,2.61406
-0.8273,0.283541,2.481,2.63062
-0.819247,0.283541,2.481,2.6281
-0.811195,0.283541,2.481,2.6256
-0.803142,0.283541,2.481,2.62313
-0.795089,0.283541,2.481,2.62067
-0.792747,0.285599,2.499,2.63724
-0.784635,0.285599,2.499,2.63481
-0.776524,0.285599,2.499,2.63241
-0.768413,0.285599,2.499,2.63002
-0.760302,0.285599,2.499,2.62767
-0.752191,0.285599,2.499,2.62533
-0.74408,0.285599,2.499,2.62302
-0.730668,0.283541,2.481,2.60185
-0.722615,0.283541,2.481,2.5996
-0.714562,0.283541,2.481,2.59737
-0.706509,0.283541,2.481,2.59517
-0.698457,0.283541,2.481,2.59299
-0.690404,0.283541,2.481,2.59083
-0.682351,0.283541,2.481,2.5887
-0.674299,0.283541,2.481,2.58659
-0.666246,0.283541,2.481,2.5845
-0.653418,0.281484,2.463,2.5637
-0.645424,0.281484,2.463,2.56167
-0.637429,0.281484,2.463,2.55967
-0.629435,0.281484,2.463,2.55769
-0.621441,0.281484,2.463,2.55574
-0.613446,0.281484,2.463,2.5538
-0.605452,0.281484,2.463,2.5519
-0.597458,0.281484,2.463,2.55001
-0.589464,0.281484,2.463,2.54815
-0.581469,0.281484,2.463,2.54631
-0.573475,0.281484,2.463,2.5445
-0.565481,0.281484,2.463,2.54271
-0.557486,0.281484,2.463,2.54094
-0.549492,0.281484,2.463,2.5392
-0.541498,0.281484,2.463,2.53748
-0.537403,0.283541,2.481,2.55432
-0.52935,0.283541,2.481,2.55264
-0.521297,0.283541,2.481,2.55098
-0.513244,0.283541,2.481,2.54935
-0.508857,0.285599,2.499,2.56622
-0.500746,0.285599,2.499,2.56463
-0.492635,0.285599,2.499,2.56306
-0.484524,0.285599,2.499,2.56151
-0.476412,0.285599,2.499,2.55999
-0.471674,0.287656,2.517,2.57692
-0.463505,0.287656,2.517,2.57544
-0.455335,0.287656,2.517,2.57398
-0.447166,0.287656,2.517,2.57255
-0.44231,0.289827,2.536,2.59055
-0.434079,0.289827,2.536,2.58915
-0.425848,0.289827,2.536,2.58779
-0.417616,0.289827,2.536,2.58645
-0.409385,0.289827,2.536,2.58513
-0.401154,0.289827,2.536,2.58384
-0.392923,0.289827,2.536,2.58257
-0.387574,0.291999,2.555,2.60067
-0.379281,0.291999,2.555,2.59945
-0.370988,0.291999,2.555,2.59825
-0.362695,0.291999,2.555,2.59708
-0.354402,0.291999,2.555,2.59594
-0.346109,0.291999,2.555,2.59482
-0.335304,0.289827,2.536,2.57444
-0.327073,0.289827,2.536,2.57338
-0.318842,0.289827,2.536,2.57234
-0.31061,0.289827,2.536,2.57134
-0.302379,0.289827,2.536,2.57036
-0.294148,0.289827,2.536,2.5694
-0.285917,0.289827,2.536,2.56847
-0.277685,0.289827,2.536,2.56757
-0.269454,0.289827,2.536,2.56669
-0.261223,0.289827,2.536,2.56584
-0.252992,0.289827,2.536,2.56501
-0.244761,0.289827,2.536,2.56422
-0.236529,0.289827,2.536,2.56344
-0.226588,0.287656,2.517,2.5435
-0.218418,0.287656,2.517,2.54278
-0.210249,0.287656,2.517,2.54209
-0.202079,0.287656,2.517,2.54143
-0.193909,0.287656,2.517,2.54079
-0.18574,0.287656,2.517,2.54018
-0.17757,0.287656,2.517,2.5396
-0.169401,0.287656,2.517,2.53904
-0.161231,0.287656,2.517,2.53851
-0.153062,0.287656,2.517,2.538
-0.144892,0.287656,2.517,2.53752
-0.136723,0.287656,2.517,2.53707
-0.128553,0.287656,2.517,2.53664
-0.121292,0.289827,2.536,2.55539
-0.113061,0.289827,2.536,2.55501
-0.10483,0.289827,2.536,2.55466
-0.0965985,0.289827,2.536,2.55433
-0.0883672,0.289827,2.536,2.55404
-0.080136,0.289827,2.536,2.55377
-0.0719048,0.289827,2.536,2.55352
-0.0636736,0.289827,2.536,2.5533
-0.0554423,0.289827,2.536,2.55311
-0.0472111,0.289827,2.536,2.55294
-0.0389799,0.289827,2.536,2.55281
-0.0307487,0.289827,2.536,2.55269
-0.0223487,0.287656,2.517,2.53348
-0.0141792,0.287656,2.517,2.53342
-0.00600962,0.287656,2.517,2.53339
0.00215994,0.287656,2.517,2.53339
0.0102556,0.285599,2.499,2.51529
0.0183668,0.285599,2.499,2.51533
0.0264779,0.285599,2.499,2.51541
0.034589,0.285599,2.499,2.5155
0.0427002,0.285599,2.499,2.51563
0.0508113,0.285599,2.499,2.51578
0.0589224,0.285599,2.499,2.51596
0.0665507,0.283541,2.481,2.49804
0.0746034,0.283541,2.481,2.49826
0.0826561,0.283541,2.481,2.49852
0.0907089,0.283541,2.481,2.4988
0.0987616,0.283541,2.481,2.4991
0.106814,0.283541,2.481,2.49943
0.114867,0.283541,2.481,2.49979
0.12292,0.283541,2.481,2.50017
0.130972,0.283541,2.481,2.50058
0.139025,0.283541,2.481,2.50102
0.147078,0.283541,2.481,2.50148
0.155131,0.283541,2.481,2.50196
0.163183,0.283541,2.481,2.50248
nan,nan,nan,NaN
nan,nan,nan,NaN
0.188701,0.285599,2.499,2.52234
0.196812,0.285599,2.499,2.52296
0.206399,0.287656,2.517,2.54178
0.214568,0.287656,2.517,2.54245
0.222738,0.287656,2.517,2.54316
nan,nan,nan,NaN
nan,nan,nan,NaN
0.249113,0.289827,2.536,2.56464
0.257344,0.289827,2.536,2.56545
0.265575,0.289827,2.536,2.56629
0.273807,0.289827,2.536,2.56715
0.282038,0.289827,2.536,2.56804
nan,nan,nan,NaN
nan,nan,nan,NaN
nan,nan,nan,NaN
nan,nan,nan,NaN
nan,nan,nan,NaN
nan,nan,nan,NaN
nan,nan,nan,NaN
nan,nan,nan,NaN
nan,nan,nan,NaN
nan,nan,nan,NaN
nan,nan,nan,NaN
nan,nan,nan,NaN
nan,nan,nan,NaN
nan,nan,nan,NaN
nan,nan,nan,NaN
nan,nan,nan,NaN
nan,nan,nan,NaN
nan,nan,nan,NaN
nan,nan,nan,NaN
0.456702,0.296341,2.593,2.64954
0.465118,0.296341,2.593,2.651
0.473534,0.296341,2.593,2.65249
0.481951,0.296341,2.593,2.65401
0.490367,0.296341,2.593,2.65555
0.495128,0.29417,2.574,2.63764
0.503483,0.29417,2.574,2.63922
0.511837,0.29417,2.574,2.64083
0.516352,0.291999,2.555,2.62296
0.524645,0.291999,2.555,2.6246
0.532938,0.291999,2.555,2.62627
0.537206,0.289827,2.536,2.60843
0.545437,0.289827,2.536,2.61013
0.553668,0.289827,2.536,2.61187
0.5619,0.289827,2.536,2.61362
0.565859,0.287656,2.517,2.59581
0.574029,0.287656,2.517,2.5976
0.582199,0.287656,2.517,2.59942
0.586146,0.285599,2.499,2.58266
0.585697,0.281484,2.463,2.54728
0.593691,0.281484,2.463,2.54913
0.597288,0.279427,2.445,2.53236
0.596808,0.275541,2.411,2.499
0.604633,0.275541,2.411,2.50088
0.599757,0.269827,2.361,2.45088
0.599188,0.26617,2.329,2.41953
0.606747,0.26617,2.329,2.42141
0.60191,0.260799,2.282,2.37441
0.601306,0.25737,2.252,2.34506
0.608615,0.25737,2.252,2.34695
0.615925,0.25737,2.252,2.34885
0.619083,0.255656,2.237,2.33512
0.622424,0.254056,2.223,2.32243
0.629639,0.254056,2.223,2.32437
0.636855,0.254056,2.223,2.32634
0.64407,0.254056,2.223,2.32833
0.659782,0.25737,2.252,2.36073
0.662648,0.255656,2.237,2.34705
0.669908,0.255656,2.237,2.34911
0.677169,0.255656,2.237,2.35119
0.68443,0.255656,2.237,2.35329
0.691691,0.255656,2.237,2.35541
nan,nan,nan,NaN
0.706212,0.255656,2.237,2.35972
0.713473,0.255656,2.237,2.3619
0.720734,0.255656,2.237,2.3641
0.732876,0.25737,2.252,2.38219
0.740185,0.25737,2.252,2.38445
0.737869,0.254056,2.223,2.356
0.745084,0.254056,2.223,2.35827
0.752299,0.254056,2.223,2.36056
nan,nan,nan,NaN
nan,nan,nan,NaN
nan,nan,nan,NaN
0.824031,0.267999,2.345,2.49998
0.825968,0.26617,2.329,2.48542
0.833528,0.26617,2.329,2.48794
0.841087,0.26617,2.329,2.49048
0.848646,0.26617,2.329,2.49305
0.856206,0.26617,2.329,2.49563
0.863765,0.26617,2.329,2.49823
0.871324,0.26617,2.329,2.50086
0.884922,0.267999,2.345,2.5207
0.892533,0.267999,2.345,2.52338
0.900144,0.267999,2.345,2.52609
0.907756,0.267999,2.345,2.52881
0.915367,0.267999,2.345,2.53155
0.935573,0.271656,2.377,2.5689
0.950035,0.273599,2.394,2.59011
0.964606,0.275541,2.411,2.61138
0.972432,0.275541,2.411,2.61428
0.987169,0.277484,2.428,2.63566
1.00202,0.279427,2.445,2.65709
1.00995,0.279427,2.445,2.6601
1.03288,0.283541,2.481,2.70233
1.04093,0.283541,2.481,2.70542
1.04898,0.283541,2.481,2.70853
1.05703,0.283541,2.481,2.71166
1.07281,0.285599,2.499,2.7345
1.08871,0.287656,2.517,2.75741
1.09688,0.287656,2.517,2.76065
1.09715,0.285599,2.499,2.74414
1.10526,0.285599,2.499,2.74739
1.11337,0.285599,2.499,2.75067
1.12148,0.285599,2.499,2.75396
1.12959,0.285599,2.499,2.75727
1.1377,0.285599,2.499,2.7606
1.13756,0.283541,2.481,2.74405
1.14561,0.283541,2.481,2.7474
1.15367,0.283541,2.481,2.75076
1.15329,0.281484,2.463,2.73417
1.16129,0.281484,2.463,2.73755
1.16928,0.281484,2.463,2.74095
1.17727,0.281484,2.463,2.74437
1.18527,0.281484,2.463,2.74781
1.19326,0.281484,2.463,2.75127
1.20126,0.281484,2.463,2.75475
1.20041,0.279427,2.445,2.73808
1.20835,0.279427,2.445,2.74157
1.21629,0.279427,2.445,2.74508
1.22422,0.279427,2.445,2.7486
1.24123,0.281484,2.463,2.77241
1.24922,0.281484,2.463,2.776
1.25722,0.281484,2.463,2.7796
1.26521,0.281484,2.463,2.78323
1.27321,0.281484,2.463,2.78687
1.2812,0.281484,2.463,2.79053
1.29862,0.283541,2.481,2.81463
1.31615,0.285599,2.499,2.8388
1.32426,0.285599,2.499,2.84257
1.3521,0.289827,2.536,2.88851
1.38071,0.29417,2.574,2.93571
1.38907,0.29417,2.574,2.93965
1.42945,0.300913,2.633,3.01108
1.46094,0.305713,2.675,3.06324
1.48116,0.308113,2.696,3.09147
1.48991,0.308113,2.696,3.09567
1.52256,0.313027,2.739,3.14933
1.56891,0.320684,2.806,3.23078
1.57802,0.320684,2.806,3.23522
1.61371,0.326055,2.853,3.29393
1.65028,0.331541,2.901,3.35397
1.65969,0.331541,2.901,3.35862
1.66911,0.331541,2.901,3.36328
1.67852,0.331541,2.901,3.36796
1.68794,0.331541,2.901,3.37266
1.69736,0.331541,2.901,3.37739
1.70677,0.331541,2.901,3.38213
1.73098,0.334398,2.926,3.41608
1.7256,0.331541,2.901,3.39167
1.72067,0.328798,2.877,3.36837
1.73,0.328798,2.877,3.37315
1.72483,0.326055,2.853,3.34977
1.7195,0.323313,2.829,3.32633
1.72869,0.323313,2.829,3.33109
1.72374,0.320684,2.806,3.30874
1.71864,0.318056,2.783,3.28633
1.70036,0.313027,2.739,3.23903
1.70925,0.313027,2.739,3.24371
1.678,0.305713,2.675,3.1725
1.6602,0.300913,2.633,3.12722
1.66874,0.300913,2.633,3.13176
1.65181,0.296341,2.593,3.08868
1.64806,0.29417,2.574,3.07052
1.65641,0.29417,2.574,3.07501
1.64019,0.289827,2.536,3.03406
1.62437,0.285599,2.499,2.99419
1.63248,0.285599,2.499,2.99859
1.62878,0.283541,2.481,2.98139
1.61308,0.279427,2.445,2.94247
1.62101,0.279427,2.445,2.94683
1.61762,0.277484,2.428,2.93068
1.61412,0.275541,2.411,2.91449
1.62195,0.275541,2.411,2.91883
1.61828,0.273599,2.394,2.90257
1.61451,0.271656,2.377,2.88627
-1.75931,0.298056,2.536,3.10085
-1.76419,0.300289,2.555,3.11939
-1.7559,0.300289,2.555,3.11471
-1.74761,0.300289,2.555,3.11004
-1.75225,0.302522,2.574,3.12848
-1.75677,0.304755,2.593,3.14686
-1.74835,0.304755,2.593,3.14217
-1.73994,0.304755,2.593,3.1375
-1.74487,0.307106,2.613,3.157
-1.74968,0.309456,2.633,3.17645
-1.74114,0.309456,2.633,3.17175
-1.74641,0.311925,2.654,3.19233
-1.75155,0.314393,2.675,3.21285
-1.74286,0.314393,2.675,3.20812
-1.7478,0.316861,2.696,3.22856
-1.73905,0.316861,2.696,3.22383
-1.73029,0.316861,2.696,3.21912
-1.72154,0.316861,2.696,3.21443
-1.71279,0.316861,2.696,3.20975
-1.70404,0.316861,2.696,3.20509
-1.69529,0.316861,2.696,3.20044
-1.68654,0.316861,2.696,3.19582
-1.67779,0.316861,2.696,3.19121
-1.65604,0.314393,2.675,3.16179
-1.64736,0.314393,2.675,3.15725
-1.62581,0.311925,2.654,3.12798
-1.6172,0.311925,2.654,3.12351
-1.60858,0.311925,2.654,3.11906
-1.57525,0.307106,2.613,3.06651
-1.56677,0.307106,2.613,3.06216
-1.53503,0.302522,2.574,3.01219
-1.50414,0.298056,2.536,2.96354
-1.49591,0.298056,2.536,2.95937
-1.46597,0.293707,2.499,2.9121
-1.44736,0.291592,2.481,2.88708
-1.43931,0.291592,2.481,2.88305
-1.41049,0.287361,2.445,2.83726
-1.3928,0.285363,2.428,2.81363
-1.38492,0.285363,2.428,2.80974
-1.35775,0.281367,2.394,2.76657
-1.3404,0.279369,2.377,2.74314
-1.33268,0.279369,2.377,2.73938
-1.32497,0.279369,2.377,2.73564
-1.31725,0.279369,2.377,2.73191
-1.30954,0.279369,2.377,2.7282
-1.31113,0.281367,2.394,2.74399
-1.30336,0.281367,2.394,2.74028
-1.31399,0.285363,2.428,2.77546
-1.32494,0.289476,2.463,2.81169
-1.31694,0.289476,2.463,2.80794
-1.32808,0.293707,2.499,2.84518
-1.33951,0.298056,2.536,2.88348
-1.35123,0.302522,2.574,2.92281
-1.34288,0.302522,2.574,2.91896
-1.35474,0.307106,2.613,2.95929
-1.36738,0.311925,2.654,3.00179
-1.35877,0.311925,2.654,2.99788
-1.36084,0.314393,2.675,3.01767
-1.37339,0.319329,2.717,3.06109
