-1.16295,-0.26054,2.377,2.65903
-1.15523,-0.26054,2.377,2.65567
-1.14752,-0.26054,2.377,2.65232
-1.1398,-0.26054,2.377,2.64899
-1.13209,-0.26054,2.377,2.64568
-1.12437,-0.26054,2.377,2.64239
-1.11666,-0.26054,2.377,2.63912
-1.10894,-0.26054,2.377,2.63586
-1.09381,-0.258786,2.361,2.6149
-1.08615,-0.258786,2.361,2.61171
-1.07849,-0.258786,2.361,2.60853
-1.07082,-0.258786,2.361,2.60537
-1.06316,-0.258786,2.361,2.60223
-1.0555,-0.258786,2.361,2.59911
-1.04073,-0.257032,2.345,2.57841
-1.03312,-0.257032,2.345,2.57535
-1.02551,-0.257032,2.345,2.57231
-1.0179,-0.257032,2.345,2.56928
-1.01029,-0.257032,2.345,2.56628
-1.00268,-0.257032,2.345,2.56329
-0.995066,-0.257032,2.345,2.56032
-0.987455,-0.257032,2.345,2.55737
-0.979844,-0.257032,2.345,2.55444
-0.978866,-0.258786,2.361,2.56894
-0.971203,-0.258786,2.361,2.56603
-0.95701,-0.257032,2.345,2.54577
-0.949399,-0.257032,2.345,2.54292
-0.941787,-0.257032,2.345,2.54009
-0.934176,-0.257032,2.345,2.53728
-0.932887,-0.258786,2.361,2.55178
-0.925224,-0.258786,2.361,2.54899
-0.91756,-0.258786,2.361,2.54621
-0.909897,-0.258786,2.361,2.54346
-0.902234,-0.258786,2.361,2.54073
-0.894571,-0.258786,2.361,2.53802
-0.886907,-0.258786,2.361,2.53533
-0.879244,-0.258786,2.361,2.53266
-0.871581,-0.258786,2.361,2.53001
-0.863918,-0.258786,2.361,2.52738
-0.856255,-0.258786,2.361,2.52477
-0.854342,-0.26054,2.377,2.53927
-0.846627,-0.26054,2.377,2.53669
-0.838912,-0.26054,2.377,2.53412
-0.831197,-0.26054,2.377,2.53158
-0.823481,-0.26054,2.377,2.52906
-0.815766,-0.26054,2.377,2.52656
-0.808051,-0.26054,2.377,2.52408
-0.800336,-0.26054,2.377,2.52162
-0.792621,-0.26054,2.377,2.51918
-0.784906,-0.26054,2.377,2.51676
-0.782749,-0.262403,2.394,2.53235
-0.774979,-0.262403,2.394,2.52996
-0.772656,-0.264266,2.411,2.54554
-0.764831,-0.264266,2.411,2.54317
-0.757005,-0.264266,2.411,2.54083
-0.74918,-0.264266,2.411,2.53851
-0.741354,-0.264266,2.411,2.53621
-0.733529,-0.264266,2.411,2.53393
-0.725703,-0.264266,2.411,2.53168
-0.717878,-0.264266,2.411,2.52945
-0.715059,-0.26613,2.428,2.54506
-0.702227,-0.264266,2.411,2.52505
-0.694401,-0.264266,2.411,2.52289
-0.691417,-0.26613,2.428,2.53852
-0.683536,-0.26613,2.428,2.53638
-0.670925,-0.264266,2.411,2.51653
-0.663099,-0.264266,2.411,2.51445
-0.655274,-0.264266,2.411,2.5124
-0.652013,-0.26613,2.428,2.52807
-0.644133,-0.26613,2.428,2.52605
-0.636252,-0.26613,2.428,2.52405
-0.628371,-0.26613,2.428,2.52207
-0.620491,-0.26613,2.428,2.52012
-0.61261,-0.26613,2.428,2.51819
-0.604729,-0.26613,2.428,2.51629
-0.596848,-0.26613,2.428,2.51441
-0.588968,-0.26613,2.428,2.51255
-0.581087,-0.26613,2.428,2.51071
-0.573206,-0.26613,2.428,2.5089
-0.569284,-0.267993,2.445,2.52466
-0.561348,-0.267993,2.445,2.52289
-0.553412,-0.267993,2.445,2.52113
-0.545476,-0.267993,2.445,2.5194
-0.53754,-0.267993,2.445,2.5177
-0.529605,-0.267993,2.445,2.51601
-0.525509,-0.269966,2.463,2.53287
-0.517515,-0.269966,2.463,2.53122
-0.509521,-0.269966,2.463,2.5296
-0.501526,-0.269966,2.463,2.528
-0.493532,-0.269966,2.463,2.52643
-0.489086,-0.271939,2.481,2.54333
-0.481034,-0.271939,2.481,2.54179
-0.472981,-0.271939,2.481,2.54028
-0.464928,-0.271939,2.481,2.53879
-0.456875,-0.271939,2.481,2.53733
-0.448823,-0.271939,2.481,2.53589
-0.44077,-0.271939,2.481,2.53448
-0.432717,-0.271939,2.481,2.53309
-0.424665,-0.271939,2.481,2.53173
-0.419634,-0.273912,2.499,2.54875
-0.411523,-0.273912,2.499,2.54743
-0.403412,-0.273912,2.499,2.54613
-0.395301,-0.273912,2.499,2.54486
-0.389979,-0.275885,2.517,2.56193
-0.381809,-0.275885,2.517,2.5607
-0.37364,-0.275885,2.517,2.55949
-0.36547,-0.275885,2.517,2.55831
-0.357301,-0.275885,2.517,2.55716
-0.349131,-0.275885,2.517,2.55603
-0.340961,-0.275885,2.517,2.55493
-0.332792,-0.275885,2.517,2.55385
-0.324622,-0.275885,2.517,2.5528
-0.316453,-0.275885,2.517,2.55177
-0.31061,-0.277967,2.536,2.57003
-0.302379,-0.277967,2.536,2.56905
-0.294148,-0.277967,2.536,2.56809
-0.285917,-0.277967,2.536,2.56716
-0.277685,-0.277967,2.536,2.56626
-0.269454,-0.277967,2.536,2.56538
-0.26318,-0.28005,2.555,2.58374
-0.254887,-0.28005,2.555,2.58291
-0.246594,-0.28005,2.555,2.5821
-0.240074,-0.282133,2.574,2.60052
-0.231719,-0.282133,2.574,2.59976
-0.223364,-0.282133,2.574,2.59903
-0.213423,-0.28005,2.555,2.57915
-0.20513,-0.28005,2.555,2.57847
-0.196837,-0.28005,2.555,2.57783
-0.189946,-0.282133,2.574,2.59637
-0.181592,-0.282133,2.574,2.59578
-0.173237,-0.282133,2.574,2.5952
-0.164882,-0.282133,2.574,2.59466
-0.156528,-0.282133,2.574,2.59414
-0.148173,-0.282133,2.574,2.59365
-0.139819,-0.282133,2.574,2.59319
-0.131464,-0.282133,2.574,2.59275
-0.12311,-0.282133,2.574,2.59234
-0.114755,-0.282133,2.574,2.59196
-0.1064,-0.282133,2.574,2.5916
-0.0980459,-0.282133,2.574,2.59127
-0.0896914,-0.282133,2.574,2.59097
-0.0813368,-0.282133,2.574,2.59069
-0.0729822,-0.282133,2.574,2.59044
-0.0641506,-0.28005,2.555,2.5711
-0.0558577,-0.28005,2.555,2.57091
-0.0475648,-0.28005,2.555,2.57074
-0.0392719,-0.28005,2.555,2.5706
-0.030979,-0.28005,2.555,2.57049
-0.0226861,-0.28005,2.555,2.5704
-0.0143932,-0.28005,2.555,2.57034
-0.00610034,-0.28005,2.555,2.57031
0.00219255,-0.28005,2.555,2.5703
0.0104854,-0.28005,2.555,2.57032
0.0187783,-0.28005,2.555,2.57037
0.0272725,-0.282133,2.574,2.58956
0.0356271,-0.282133,2.574,2.58966
0.0439817,-0.282133,2.574,2.58979
0.0523362,-0.282133,2.574,2.58994
0.0606908,-0.282133,2.574,2.59013
0.069555,-0.284215,2.593,2.60946
0.0779713,-0.284215,2.593,2.60969
0.0863875,-0.284215,2.593,2.60996
0.0948037,-0.284215,2.593,2.61025
0.10322,-0.284215,2.593,2.61057
0.112497,-0.286407,2.613,2.63106
0.120978,-0.286407,2.613,2.63143
0.12946,-0.286407,2.613,2.63184
0.137941,-0.286407,2.613,2.63227
0.146422,-0.286407,2.613,2.63272
0.156089,-0.288599,2.633,2.65336
0.164635,-0.288599,2.633,2.65388
0.173181,-0.288599,2.633,2.65442
0.181727,-0.288599,2.633,2.655
0.190273,-0.288599,2.633,2.65559
0.198819,-0.288599,2.633,2.65622
0.207365,-0.288599,2.633,2.65687
0.215911,-0.288599,2.633,2.65755
0.224457,-0.288599,2.633,2.65826
0.233003,-0.288599,2.633,2.659
0.239715,-0.286407,2.613,2.63956
0.248196,-0.286407,2.613,2.64034
0.256677,-0.286407,2.613,2.64115
0.265158,-0.286407,2.613,2.64199
0.271545,-0.284215,2.593,2.62263
0.279961,-0.284215,2.593,2.62351
0.288377,-0.284215,2.593,2.62442
0.296793,-0.284215,2.593,2.62536
0.302973,-0.282133,2.574,2.60708
0.311328,-0.282133,2.574,2.60806
0.319682,-0.282133,2.574,2.60908
0.328037,-0.282133,2.574,2.61011
0.338875,-0.284215,2.593,2.63045
0.347291,-0.284215,2.593,2.63155
0.355707,-0.284215,2.593,2.63267
0.364123,-0.284215,2.593,2.63382
0.372539,-0.284215,2.593,2.635
0.378164,-0.282133,2.574,2.61688
0.386519,-0.282133,2.574,2.6181
0.394873,-0.282133,2.574,2.61935
0.403228,-0.282133,2.574,2.62062
0.414621,-0.284215,2.593,2.64128
0.423037,-0.284215,2.593,2.64261
0.431453,-0.284215,2.593,2.64397
0.439869,-0.284215,2.593,2.64536
0.448286,-0.284215,2.593,2.64677
0.456702,-0.284215,2.593,2.64821
0.465118,-0.284215,2.593,2.64967
0.473534,-0.284215,2.593,2.65116
0.481951,-0.284215,2.593,2.65268
0.490367,-0.284215,2.593,2.65422
0.498783,-0.284215,2.593,2.65579
0.507199,-0.284215,2.593,2.65738
0.515615,-0.284215,2.593,2.659
0.524032,-0.284215,2.593,2.66065
0.532448,-0.284215,2.593,2.66232
0.540864,-0.284215,2.593,2.66401
0.54928,-0.284215,2.593,2.66573
0.557697,-0.284215,2.593,2.66748
0.566113,-0.284215,2.593,2.66925
0.574529,-0.284215,2.593,2.67105
0.578674,-0.282133,2.574,2.65329
0.587028,-0.282133,2.574,2.65512
0.595383,-0.282133,2.574,2.65698
0.603738,-0.282133,2.574,2.65887
0.612092,-0.282133,2.574,2.66078
0.620447,-0.282133,2.574,2.66271
0.628801,-0.282133,2.574,2.66467
0.637156,-0.282133,2.574,2.66665
0.64551,-0.282133,2.574,2.66866
0.653865,-0.282133,2.574,2.6707
0.662219,-0.282133,2.574,2.67275
0.670574,-0.282133,2.574,2.67484
0.678929,-0.282133,2.574,2.67694
0.68221,-0.28005,2.555,2.6593
0.690503,-0.28005,2.555,2.66144
0.698796,-0.28005,2.555,2.6636
0.707089,-0.28005,2.555,2.66579
0.715382,-0.28005,2.555,2.668
0.723674,-0.28005,2.555,2.67024
0.731967,-0.28005,2.555,2.67249
0.74026,-0.28005,2.555,2.67478
0.748553,-0.28005,2.555,2.67709
0.756846,-0.28005,2.555,2.67942
0.759449,-0.277967,2.536,2.66183
0.76768,-0.277967,2.536,2.66419
0.775912,-0.277967,2.536,2.66657
0.784143,-0.277967,2.536,2.66898
0.792374,-0.277967,2.536,2.67141
0.800605,-0.277967,2.536,2.67386
0.802777,-0.275885,2.517,2.65629
0.810946,-0.275885,2.517,2.65877
0.819116,-0.275885,2.517,2.66127
0.821369,-0.273912,2.499,2.64475
0.82948,-0.273912,2.499,2.64728
0.831558,-0.271939,2.481,2.63074
0.839611,-0.271939,2.481,2.6333
0.841514,-0.269966,2.463,2.61675
0.849508,-0.269966,2.463,2.61933
0.857502,-0.269966,2.463,2.62194
0.859171,-0.267993,2.445,2.60538
0.867107,-0.267993,2.445,2.60801
0.868959,-0.26613,2.428,2.59251
0.8707,-0.264266,2.411,2.57699
0.878526,-0.264266,2.411,2.57964
0.880102,-0.262403,2.394,2.56411
0.881567,-0.26054,2.377,2.54856
0.889282,-0.26054,2.377,2.55124
0.896997,-0.26054,2.377,2.55394
0.904712,-0.26054,2.377,2.55666
0.912428,-0.26054,2.377,2.5594
0.913949,-0.258786,2.361,2.54492
0.921612,-0.258786,2.361,2.54768
0.929276,-0.258786,2.361,2.55046
nan,nan,nan,NaN
0.938201,-0.257032,2.345,2.53876
0.945812,-0.257032,2.345,2.54158
0.953423,-0.257032,2.345,2.54443
0.961035,-0.257032,2.345,2.54729
nan,nan,nan,NaN
nan,nan,nan,NaN
nan,nan,nan,NaN
nan,nan,nan,NaN
nan,nan,nan,NaN
nan,nan,nan,NaN
nan,nan,nan,NaN
nan,nan,nan,NaN
nan,nan,nan,NaN
nan,nan,nan,NaN
nan,nan,nan,NaN
nan,nan,nan,NaN
1.62907,-0.395029,3.604,3.97476
1.55837,-0.37519,3.423,3.77971
1.56948,-0.37519,3.423,3.7843
1.61291,-0.382863,3.493,3.86641
1.62425,-0.382863,3.493,3.87115
1.63558,-0.382863,3.493,3.87592
1.6639,-0.386809,3.529,3.92072
1.69292,-0.390864,3.566,3.96675
1.70449,-0.390864,3.566,3.9717
1.69826,-0.386809,3.529,3.93542
1.70971,-0.386809,3.529,3.94038
1.72117,-0.386809,3.529,3.94536
1.71495,-0.382863,3.493,3.91007
1.72628,-0.382863,3.493,3.91506
1.72021,-0.379027,3.458,3.88079
1.71391,-0.37519,3.423,3.84645
1.70789,-0.371464,3.389,3.81316
1.71889,-0.371464,3.389,3.8181
1.72989,-0.371464,3.389,3.82306
1.74088,-0.371464,3.389,3.82805
1.75188,-0.371464,3.389,3.83307
1.76288,-0.371464,3.389,3.83811
nan,nan,nan,NaN
nan,nan,nan,NaN
1.851,-0.382863,3.493,3.97163
1.86233,-0.382863,3.493,3.97692
1.89298,-0.386809,3.529,4.02329
1.90444,-0.386809,3.529,4.02869
1.95661,-0.395029,3.604,4.11985
1.98906,-0.399194,3.642,4.16892
2.00088,-0.399194,3.642,4.17457
2.0127,-0.399194,3.642,4.18025
2.0462,-0.403469,3.681,4.23078
2.05815,-0.403469,3.681,4.23657
2.0701,-0.403469,3.681,4.24239
2.08204,-0.403469,3.681,4.24823
2.09399,-0.403469,3.681,4.2541
2.08363,-0.399194,3.642,4.21486
2.07358,-0.395029,3.604,4.17667
2.08528,-0.395029,3.604,4.18249
2.09698,-0.395029,3.604,4.18834
2.08644,-0.390864,3.566,4.14999
2.05507,-0.382863,3.493,4.07074
2.06641,-0.382863,3.493,4.07648
2.05692,-0.379027,3.458,4.04133
2.02688,-0.371464,3.389,3.9663
2.03788,-0.371464,3.389,3.97193
2.02893,-0.367846,3.356,3.93886
2.00092,-0.360831,3.292,3.86926
2.01161,-0.360831,3.292,3.87479
1.98421,-0.354036,3.23,3.80727
1.95764,-0.347459,3.17,3.74192
1.96793,-0.347459,3.17,3.74731
1.94202,-0.341102,3.112,3.68407
1.91762,-0.335073,3.057,3.6242
1.92754,-0.335073,3.057,3.62946
1.90324,-0.329155,3.003,3.57053
1.89642,-0.326305,2.977,3.54478
1.90609,-0.326305,2.977,3.54995
1.89902,-0.323455,2.951,3.5241
1.89243,-0.320715,2.926,3.49937
1.88567,-0.317975,2.901,3.47458
1.89509,-0.317975,2.901,3.4797
1.88875,-0.315344,2.877,3.456
1.88225,-0.312713,2.853,3.43224
1.89151,-0.312713,2.853,3.43733
1.88479,-0.310083,2.829,3.41347
1.86317,-0.305041,2.783,3.36297
1.8722,-0.305041,2.783,3.36798
1.86637,-0.302629,2.761,3.34635
1.86038,-0.300218,2.739,3.32465
-2.13947,-0.328026,3.084,3.76776
-2.12946,-0.328026,3.084,3.76208
-2.11945,-0.328026,3.084,3.75643
-2.10944,-0.328026,3.084,3.75079
-2.11849,-0.331004,3.112,3.77917
-2.12804,-0.334089,3.141,3.80868
-2.11785,-0.334089,3.141,3.80299
-2.10765,-0.334089,3.141,3.79733
-2.09746,-0.334089,3.141,3.79168
-2.08726,-0.334089,3.141,3.78605
-2.07707,-0.334089,3.141,3.78044
-2.06687,-0.334089,3.141,3.77484
-2.05668,-0.334089,3.141,3.76927
-2.04648,-0.334089,3.141,3.76372
-2.05509,-0.337173,3.17,3.79288
-2.0448,-0.337173,3.17,3.78732
-2.03451,-0.337173,3.17,3.78177
-2.02422,-0.337173,3.17,3.77625
-2.03235,-0.340258,3.199,3.80524
-2.02197,-0.340258,3.199,3.7997
-2.01159,-0.340258,3.199,3.79419
-2.0012,-0.340258,3.199,3.78869
-1.99082,-0.340258,3.199,3.78322
-1.98044,-0.340258,3.199,3.77777
-1.98915,-0.343555,3.23,3.80889
-1.97866,-0.343555,3.23,3.80342
-1.96818,-0.343555,3.23,3.79798
-1.95769,-0.343555,3.23,3.79256
-1.94721,-0.343555,3.23,3.78716
-1.93673,-0.343555,3.23,3.78178
nan,nan,nan,NaN
nan,nan,nan,NaN
nan,nan,nan,NaN
nan,nan,nan,NaN
nan,nan,nan,NaN
nan,nan,nan,NaN
nan,nan,nan,NaN
nan,nan,nan,NaN
nan,nan,nan,NaN
nan,nan,nan,NaN
nan,nan,nan,NaN
nan,nan,nan,NaN
nan,nan,nan,NaN
nan,nan,nan,NaN
nan,nan,nan,NaN
nan,nan,nan,NaN
nan,nan,nan,NaN
nan,nan,nan,NaN
nan,nan,nan,NaN
nan,nan,nan,NaN
nan,nan,nan,NaN
nan,nan,nan,NaN
nan,nan,nan,NaN
nan,nan,nan,NaN
nan,nan,nan,NaN
nan,nan,nan,NaN
nan,nan,nan,NaN
nan,nan,nan,NaN
nan,nan,nan,NaN
nan,nan,nan,NaN
nan,nan,nan,NaN
nan,nan,nan,NaN
-1.17066,-0.252827,2.377,2.66167
-1.16295,-0.252827,2.377,2.65829
-1.15523,-0.252827,2.377,2.65492
-1.14752,-0.252827,2.377,2.65157
-1.1398,-0.252827,2.377,2.64824
-1.13209,-0.252827,2.377,2.64493
-1.12437,-0.252827,2.377,2.64164
-1.11666,-0.252827,2.377,2.63837
-1.10894,-0.252827,2.377,2.63511
-1.09381,-0.251125,2.361,2.61416
-1.08615,-0.251125,2.361,2.61096
-1.07849,-0.251125,2.361,2.60778
-1.07082,-0.251125,2.361,2.60462
-1.06316,-0.251125,2.361,2.60148
-1.0555,-0.251125,2.361,2.59836
-1.04784,-0.251125,2.361,2.59525
-1.03312,-0.249423,2.345,2.5746
-1.02551,-0.249423,2.345,2.57156
-1.0179,-0.249423,2.345,2.56853
-1.01029,-0.249423,2.345,2.56553
-1.00268,-0.249423,2.345,2.56254
-0.995066,-0.249423,2.345,2.55957
-0.987455,-0.249423,2.345,2.55662
-0.979844,-0.249423,2.345,2.55369
-0.978866,-0.251125,2.361,2.56818
-0.971203,-0.251125,2.361,2.56527
-0.95701,-0.249423,2.345,2.54502
-0.949399,-0.249423,2.345,2.54216
-0.941787,-0.249423,2.345,2.53933
-0.934176,-0.249423,2.345,2.53652
-0.932887,-0.251125,2.361,2.55101
-0.925224,-0.251125,2.361,2.54822
-0.91756,-0.251125,2.361,2.54545
-0.909897,-0.251125,2.361,2.5427
-0.902234,-0.251125,2.361,2.53996
-0.894571,-0.251125,2.361,2.53725
-0.886907,-0.251125,2.361,2.53456
-0.879244,-0.251125,2.361,2.53189
-0.871581,-0.251125,2.361,2.52924
-0.863918,-0.251125,2.361,2.52661
-0.856255,-0.251125,2.361,2.524
-0.854342,-0.252827,2.377,2.53849
-0.846627,-0.252827,2.377,2.53591
-0.838912,-0.252827,2.377,2.53334
-0.831197,-0.252827,2.377,2.5308
-0.823481,-0.252827,2.377,2.52827
-0.815766,-0.252827,2.377,2.52577
-0.808051,-0.252827,2.377,2.52329
-0.800336,-0.252827,2.377,2.52083
-0.792621,-0.252827,2.377,2.51839
-0.784906,-0.252827,2.377,2.51597
-0.782749,-0.254635,2.394,2.53156
-0.774979,-0.254635,2.394,2.52916
-0.767208,-0.254635,2.394,2.52679
-0.764831,-0.256443,2.411,2.54237
-0.757005,-0.256443,2.411,2.54003
-0.74918,-0.256443,2.411,2.53771
-0.741354,-0.256443,2.411,2.53541
-0.733529,-0.256443,2.411,2.53313
-0.725703,-0.256443,2.411,2.53088
-0.717878,-0.256443,2.411,2.52864
-0.715059,-0.258251,2.428,2.54425
-0.702227,-0.256443,2.411,2.52424
-0.694401,-0.256443,2.411,2.52208
-0.691417,-0.258251,2.428,2.5377
-0.683536,-0.258251,2.428,2.53557
-0.670925,-0.256443,2.411,2.51572
-0.663099,-0.256443,2.411,2.51364
-0.655274,-0.256443,2.411,2.51159
-0.652013,-0.258251,2.428,2.52725
-0.644133,-0.258251,2.428,2.52523
-0.636252,-0.258251,2.428,2.52323
-0.628371,-0.258251,2.428,2.52126
-0.620491,-0.258251,2.428,2.5193
-0.61261,-0.258251,2.428,2.51737
-0.604729,-0.258251,2.428,2.51547
-0.596848,-0.258251,2.428,2.51358
-0.588968,-0.258251,2.428,2.51172
-0.581087,-0.258251,2.428,2.50989
-0.573206,-0.258251,2.428,2.50808
-0.569284,-0.260059,2.445,2.52383
-0.561348,-0.260059,2.445,2.52206
-0.553412,-0.260059,2.445,2.5203
-0.545476,-0.260059,2.445,2.51857
-0.53754,-0.260059,2.445,2.51686
-0.529605,-0.260059,2.445,2.51518
-0.525509,-0.261974,2.463,2.53203
-0.517515,-0.261974,2.463,2.53038
-0.509521,-0.261974,2.463,2.52876
-0.501526,-0.261974,2.463,2.52716
-0.493532,-0.261974,2.463,2.52558
-0.485538,-0.261974,2.463,2.52403
-0.477544,-0.261974,2.463,2.52251
-0.472981,-0.263888,2.481,2.53943
-0.464928,-0.263888,2.481,2.53794
-0.456875,-0.263888,2.481,2.53648
-0.448823,-0.263888,2.481,2.53504
-0.44077,-0.263888,2.481,2.53363
-0.432717,-0.263888,2.481,2.53224
-0.427746,-0.265803,2.499,2.54924
-0.419634,-0.265803,2.499,2.54789
-0.411523,-0.265803,2.499,2.54657
-0.403412,-0.265803,2.499,2.54527
-0.395301,-0.265803,2.499,2.544
-0.389979,-0.267718,2.517,2.56106
-0.381809,-0.267718,2.517,2.55983
-0.37364,-0.267718,2.517,2.55863
-0.36547,-0.267718,2.517,2.55745
-0.357301,-0.267718,2.517,2.55629
-0.349131,-0.267718,2.517,2.55516
-0.340961,-0.267718,2.517,2.55406
-0.332792,-0.267718,2.517,2.55298
-0.324622,-0.267718,2.517,2.55193
-0.318842,-0.269738,2.536,2.57016
-0.31061,-0.269738,2.536,2.56915
-0.302379,-0.269738,2.536,2.56817
-0.294148,-0.269738,2.536,2.56721
-0.288059,-0.271759,2.555,2.58551
-0.279766,-0.271759,2.555,2.5846
-0.271473,-0.271759,2.555,2.58371
-0.26318,-0.271759,2.555,2.58286
-0.254887,-0.271759,2.555,2.58202
-0.248428,-0.27378,2.574,2.60041
-0.240074,-0.27378,2.574,2.59963
-0.231719,-0.27378,2.574,2.59887
-0.223364,-0.27378,2.574,2.59814
-0.21501,-0.27378,2.574,2.59743
-0.206655,-0.27378,2.574,2.59676
-0.198301,-0.27378,2.574,2.5961
-0.191348,-0.275801,2.593,2.61464
-0.182932,-0.275801,2.593,2.61404
-0.174516,-0.275801,2.593,2.61346
-0.164882,-0.27378,2.574,2.59377
-0.156528,-0.27378,2.574,2.59325
-0.148173,-0.27378,2.574,2.59276
-0.139819,-0.27378,2.574,2.59229
-0.131464,-0.27378,2.574,2.59186
-0.12311,-0.27378,2.574,2.59145
-0.114755,-0.27378,2.574,2.59106
-0.1064,-0.27378,2.574,2.59071
-0.0980459,-0.27378,2.574,2.59038
-0.0896914,-0.27378,2.574,2.59007
-0.0813368,-0.27378,2.574,2.5898
-0.0729822,-0.27378,2.574,2.58955
-0.0646277,-0.27378,2.574,2.58933
-0.0562731,-0.27378,2.574,2.58913
-0.0479185,-0.27378,2.574,2.58896
-0.039564,-0.27378,2.574,2.58882
-0.0312094,-0.27378,2.574,2.58871
-0.0226861,-0.271759,2.555,2.56951
-0.0143932,-0.271759,2.555,2.56945
-0.00610034,-0.271759,2.555,2.56942
0.00219255,-0.271759,2.555,2.56941
0.0104854,-0.271759,2.555,2.56943
0.0187783,-0.271759,2.555,2.56948
0.0270712,-0.271759,2.555,2.56955
0.0356271,-0.27378,2.574,2.58876
0.0439817,-0.27378,2.574,2.58889
0.0523362,-0.27378,2.574,2.58905
0.0606908,-0.27378,2.574,2.58923
0.069555,-0.275801,2.593,2.60855
0.0779713,-0.275801,2.593,2.60879
0.0863875,-0.275801,2.593,2.60906
0.0948037,-0.275801,2.593,2.60935
0.10322,-0.275801,2.593,2.60967
0.112497,-0.277929,2.613,2.63015
0.120978,-0.277929,2.613,2.63052
0.12946,-0.277929,2.613,2.63093
0.137941,-0.277929,2.613,2.63136
0.146422,-0.277929,2.613,2.63182
0.156089,-0.280056,2.633,2.65245
0.164635,-0.280056,2.633,2.65297
0.173181,-0.280056,2.633,2.65351
0.181727,-0.280056,2.633,2.65408
0.190273,-0.280056,2.633,2.65468
0.198819,-0.280056,2.633,2.65531
0.207365,-0.280056,2.633,2.65596
0.215911,-0.280056,2.633,2.65664
0.224457,-0.280056,2.633,2.65735
0.233003,-0.280056,2.633,2.65808
0.241549,-0.280056,2.633,2.65885
0.248196,-0.277929,2.613,2.63943
0.256677,-0.277929,2.613,2.64025
0.265158,-0.277929,2.613,2.64108
0.273639,-0.277929,2.613,2.64195
0.279961,-0.275801,2.593,2.62261
0.288377,-0.275801,2.593,2.62352
0.296793,-0.275801,2.593,2.62446
0.30521,-0.275801,2.593,2.62543
0.313626,-0.275801,2.593,2.62642
0.322042,-0.275801,2.593,2.62744
0.330458,-0.275801,2.593,2.62848
0.338875,-0.275801,2.593,2.62955
0.347291,-0.275801,2.593,2.63065
0.355707,-0.275801,2.593,2.63178
0.364123,-0.275801,2.593,2.63293
0.372539,-0.275801,2.593,2.6341
0.380956,-0.275801,2.593,2.63531
0.389372,-0.275801,2.593,2.63654
0.397788,-0.275801,2.593,2.63779
0.406204,-0.275801,2.593,2.63908
0.414621,-0.275801,2.593,2.64038
0.4263,-0.277929,2.613,2.66209
0.434781,-0.277929,2.613,2.66347
0.439869,-0.275801,2.593,2.64447
0.448286,-0.275801,2.593,2.64588
0.456702,-0.275801,2.593,2.64732
0.465118,-0.275801,2.593,2.64878
0.473534,-0.275801,2.593,2.65027
0.481951,-0.275801,2.593,2.65179
0.490367,-0.275801,2.593,2.65333
0.498783,-0.275801,2.593,2.6549
0.507199,-0.275801,2.593,2.6565
0.515615,-0.275801,2.593,2.65812
0.524032,-0.275801,2.593,2.65976
0.532448,-0.275801,2.593,2.66143
0.540864,-0.275801,2.593,2.66313
0.54928,-0.275801,2.593,2.66485
0.557697,-0.275801,2.593,2.6666
0.566113,-0.275801,2.593,2.66837
0.574529,-0.275801,2.593,2.67017
0.578674,-0.27378,2.574,2.65241
0.587028,-0.27378,2.574,2.65425
0.595383,-0.27378,2.574,2.65611
0.603738,-0.27378,2.574,2.65799
0.612092,-0.27378,2.574,2.6599
0.620447,-0.27378,2.574,2.66184
0.628801,-0.27378,2.574,2.6638
0.637156,-0.27378,2.574,2.66578
0.64551,-0.27378,2.574,2.66779
0.653865,-0.27378,2.574,2.66983
0.662219,-0.27378,2.574,2.67188
0.670574,-0.27378,2.574,2.67397
0.678929,-0.27378,2.574,2.67607
0.68221,-0.271759,2.555,2.65844
0.690503,-0.271759,2.555,2.66058
0.698796,-0.271759,2.555,2.66274
0.707089,-0.271759,2.555,2.66493
0.715382,-0.271759,2.555,2.66714
0.723674,-0.271759,2.555,2.66938
0.731967,-0.271759,2.555,2.67164
0.74026,-0.271759,2.555,2.67392
0.742987,-0.269738,2.536,2.65633
0.751218,-0.269738,2.536,2.65864
0.759449,-0.269738,2.536,2.66098
0.76768,-0.269738,2.536,2.66334
0.775912,-0.269738,2.536,2.66573
0.784143,-0.269738,2.536,2.66813
0.792374,-0.269738,2.536,2.67056
0.794607,-0.267718,2.517,2.65299
0.802777,-0.267718,2.517,2.65545
0.810946,-0.267718,2.517,2.65793
0.813258,-0.265803,2.499,2.64141
0.821369,-0.265803,2.499,2.64392
0.82948,-0.265803,2.499,2.64645
0.831558,-0.263888,2.481,2.62992
0.833519,-0.261974,2.463,2.61338
0.841514,-0.261974,2.463,2.61594
0.849508,-0.261974,2.463,2.61852
0.851236,-0.260059,2.445,2.60197
0.853198,-0.258251,2.428,2.58647
0.861078,-0.258251,2.428,2.58908
0.862875,-0.256443,2.411,2.57357
0.8707,-0.256443,2.411,2.5762
0.878526,-0.256443,2.411,2.57885
0.880102,-0.254635,2.394,2.56333
0.881567,-0.252827,2.377,2.54779
0.889282,-0.252827,2.377,2.55047
0.896997,-0.252827,2.377,2.55317
0.904712,-0.252827,2.377,2.55589
0.912428,-0.252827,2.377,2.55863
0.913949,-0.251125,2.361,2.54415
0.915367,-0.249423,2.345,2.52965
0.922978,-0.249423,2.345,2.53242
0.930589,-0.249423,2.345,2.5352
0.938201,-0.249423,2.345,2.538
0.945812,-0.249423,2.345,2.54083
0.953423,-0.249423,2.345,2.54367
0.961035,-0.249423,2.345,2.54653
nan,nan,nan,NaN
nan,nan,nan,NaN
nan,nan,nan,NaN
nan,nan,nan,NaN
nan,nan,nan,NaN
nan,nan,nan,NaN
nan,nan,nan,NaN
nan,nan,nan,NaN
nan,nan,nan,NaN
nan,nan,nan,NaN
nan,nan,nan,NaN
nan,nan,nan,NaN
1.62907,-0.383335,3.604,3.97362
1.64077,-0.383335,3.604,3.97843
1.65247,-0.383335,3.604,3.98327
1.66416,-0.383335,3.604,3.98813
1.67586,-0.383335,3.604,3.99303
1.68756,-0.383335,3.604,3.99795
1.69926,-0.383335,3.604,4.0029
1.71096,-0.383335,3.604,4.00788
1.72265,-0.383335,3.604,4.01289
1.73435,-0.383335,3.604,4.01793
1.74605,-0.383335,3.604,4.02299
1.73921,-0.379293,3.566,3.98561
1.75079,-0.379293,3.566,3.99067
1.76236,-0.379293,3.566,3.99576
1.75553,-0.375358,3.529,3.95937
1.74896,-0.371529,3.493,3.92402
1.74266,-0.367806,3.458,3.88972
1.75388,-0.367806,3.458,3.89476
1.76511,-0.367806,3.458,3.89983
1.77633,-0.367806,3.458,3.90492
1.78755,-0.367806,3.458,3.91004
1.79878,-0.367806,3.458,3.91518
nan,nan,nan,NaN
nan,nan,nan,NaN
1.88968,-0.379293,3.566,4.05353
1.90125,-0.379293,3.566,4.05894
1.93321,-0.383335,3.604,4.10768
1.96542,-0.387377,3.642,4.15657
1.97724,-0.387377,3.642,4.16217
1.98906,-0.387377,3.642,4.1678
2.02231,-0.391525,3.681,4.21815
2.03425,-0.391525,3.681,4.22389
2.0462,-0.391525,3.681,4.22966
2.05815,-0.391525,3.681,4.23545
2.0701,-0.391525,3.681,4.24127
2.08204,-0.391525,3.681,4.24711
2.09399,-0.391525,3.681,4.25298
2.10594,-0.391525,3.681,4.25888
2.09545,-0.387377,3.642,4.21961
2.08528,-0.383335,3.604,4.18141
2.09698,-0.383335,3.604,4.18725
2.08644,-0.379293,3.566,4.14891
2.07625,-0.375358,3.529,4.11164
2.0877,-0.375358,3.529,4.11743
2.05692,-0.367806,3.458,4.0403
2.04722,-0.364083,3.423,4.00507
2.05833,-0.364083,3.423,4.01076
2.02893,-0.356957,3.356,3.93786
2.00092,-0.35015,3.292,3.86828
2.01161,-0.35015,3.292,3.87381
1.96516,-0.340258,3.199,3.76978
1.95764,-0.337173,3.17,3.74098
1.96793,-0.337173,3.17,3.74637
1.94202,-0.331004,3.112,3.68314
1.91762,-0.325154,3.057,3.62329
1.92754,-0.325154,3.057,3.62855
1.90324,-0.31941,3.003,3.56964
1.89642,-0.316645,2.977,3.5439
1.90609,-0.316645,2.977,3.54908
1.89902,-0.313879,2.951,3.52324
1.89243,-0.31122,2.926,3.49852
1.88567,-0.308561,2.901,3.47373
1.89509,-0.308561,2.901,3.47885
1.88875,-0.306009,2.877,3.45516
1.88225,-0.303456,2.853,3.43141
1.89151,-0.303456,2.853,3.4365
1.86946,-0.298457,2.806,3.38491
1.86317,-0.29601,2.783,3.36216
1.8722,-0.29601,2.783,3.36717
1.86637,-0.29367,2.761,3.34555
1.86038,-0.29133,2.739,3.32386
-2.13947,-0.318019,3.084,3.7669
-2.12946,-0.318019,3.084,3.76122
-2.11945,-0.318019,3.084,3.75557
-2.10944,-0.318019,3.084,3.74993
-2.11849,-0.320906,3.112,3.7783
-2.12804,-0.323897,3.141,3.8078
-2.11785,-0.323897,3.141,3.80211
-2.10765,-0.323897,3.141,3.79644
-2.09746,-0.323897,3.141,3.79079
-2.08726,-0.323897,3.141,3.78516
-2.07707,-0.323897,3.141,3.77955
-2.06687,-0.323897,3.141,3.77396
-2.05668,-0.323897,3.141,3.76838
-2.04648,-0.323897,3.141,3.76283
-2.05509,-0.326887,3.17,3.79198
-2.0448,-0.326887,3.17,3.78642
-2.03451,-0.326887,3.17,3.78087
-2.02422,-0.326887,3.17,3.77534
-2.03235,-0.329877,3.199,3.80432
-2.02197,-0.329877,3.199,3.79879
-2.01159,-0.329877,3.199,3.79327
-2.0012,-0.329877,3.199,3.78778
-1.99082,-0.329877,3.199,3.7823
-1.98044,-0.329877,3.199,3.77684
-1.98915,-0.333074,3.23,3.80796
-1.97866,-0.333074,3.23,3.80249
-1.96818,-0.333074,3.23,3.79705
-1.95769,-0.333074,3.23,3.79162
-1.94721,-0.333074,3.23,3.78622
-1.93673,-0.333074,3.23,3.78084
nan,nan,nan,NaN
nan,nan,nan,NaN
nan,nan,nan,NaN
nan,nan,nan,NaN
nan,nan,nan,NaN
nan,nan,nan,NaN
nan,nan,nan,NaN
nan,nan,nan,NaN
nan,nan,nan,NaN
nan,nan,nan,NaN
nan,nan,nan,NaN
nan,nan,nan,NaN
nan,nan,nan,NaN
nan,nan,nan,NaN
nan,nan,nan,NaN
nan,nan,nan,NaN
nan,nan,nan,NaN
nan,nan,nan,NaN
nan,nan,nan,NaN
nan,nan,nan,NaN
nan,nan,nan,NaN
nan,nan,nan,NaN
nan,nan,nan,NaN
nan,nan,nan,NaN
nan,nan,nan,NaN
nan,nan,nan,NaN
nan,nan,nan,NaN
nan,nan,nan,NaN
nan,nan,nan,NaN
nan,nan,nan,NaN
nan,nan,nan,NaN
nan,nan,nan,NaN
-1.17066,-0.245114,2.377,2.66095
-1.16295,-0.245114,2.377,2.65757
-1.15523,-0.245114,2.377,2.6542
-1.14752,-0.245114,2.377,2.65085
-1.1398,-0.245114,2.377,2.64752
-1.13209,-0.245114,2.377,2.64421
-1.12437,-0.245114,2.377,2.64091
-1.11666,-0.245114,2.377,2.63764
-1.10894,-0.245114,2.377,2.63438
-1.09381,-0.243464,2.361,2.61343
-1.08615,-0.243464,2.361,2.61023
-1.07849,-0.243464,2.361,2.60705
-1.07082,-0.243464,2.361,2.60389
-1.06316,-0.243464,2.361,2.60075
-1.0555,-0.243464,2.361,2.59763
-1.04784,-0.243464,2.361,2.59452
-1.03312,-0.241814,2.345,2.57388
-1.02551,-0.241814,2.345,2.57083
-1.0179,-0.241814,2.345,2.5678
-1.01029,-0.241814,2.345,2.5648
-1.00268,-0.241814,2.345,2.56181
-0.995066,-0.241814,2.345,2.55884
-0.987455,-0.241814,2.345,2.55589
-0.979844,-0.241814,2.345,2.55296
-0.978866,-0.243464,2.361,2.56745
-0.971203,-0.243464,2.361,2.56453
-0.95701,-0.241814,2.345,2.54428
-0.949399,-0.241814,2.345,2.54143
-0.948213,-0.243464,2.361,2.55592
-0.94055,-0.243464,2.361,2.55308
-0.932887,-0.243464,2.361,2.55027
-0.925224,-0.243464,2.361,2.54748
-0.91756,-0.243464,2.361,2.5447
-0.909897,-0.243464,2.361,2.54195
-0.902234,-0.243464,2.361,2.53922
-0.894571,-0.243464,2.361,2.5365
-0.886907,-0.243464,2.361,2.53381
-0.879244,-0.243464,2.361,2.53114
-0.871581,-0.243464,2.361,2.52849
-0.863918,-0.243464,2.361,2.52586
-0.856255,-0.243464,2.361,2.52325
-0.854342,-0.245114,2.377,2.53774
-0.846627,-0.245114,2.377,2.53515
-0.838912,-0.245114,2.377,2.53258
-0.831197,-0.245114,2.377,2.53004
-0.823481,-0.245114,2.377,2.52751
-0.815766,-0.245114,2.377,2.52501
-0.808051,-0.245114,2.377,2.52253
-0.800336,-0.245114,2.377,2.52007
-0.792621,-0.245114,2.377,2.51763
-0.784906,-0.245114,2.377,2.51521
-0.782749,-0.246867,2.394,2.53079
-0.774979,-0.246867,2.394,2.52839
-0.767208,-0.246867,2.394,2.52602
-0.764831,-0.24862,2.411,2.54159
-0.757005,-0.24862,2.411,2.53925
-0.74918,-0.24862,2.411,2.53693
-0.741354,-0.24862,2.411,2.53463
-0.733529,-0.24862,2.411,2.53235
-0.725703,-0.24862,2.411,2.53009
-0.717878,-0.24862,2.411,2.52786
-0.715059,-0.250373,2.428,2.54346
-0.707178,-0.250373,2.428,2.54125
-0.699297,-0.250373,2.428,2.53907
-0.691417,-0.250373,2.428,2.53691
-0.683536,-0.250373,2.428,2.53478
-0.670925,-0.24862,2.411,2.51493
-0.663099,-0.24862,2.411,2.51285
-0.655274,-0.24862,2.411,2.5108
-0.652013,-0.250373,2.428,2.52646
-0.644133,-0.250373,2.428,2.52444
-0.636252,-0.250373,2.428,2.52244
-0.628371,-0.250373,2.428,2.52046
-0.620491,-0.250373,2.428,2.51851
-0.61261,-0.250373,2.428,2.51658
-0.604729,-0.250373,2.428,2.51467
-0.596848,-0.250373,2.428,2.51279
-0.588968,-0.250373,2.428,2.51093
-0.581087,-0.250373,2.428,2.50909
-0.573206,-0.250373,2.428,2.50728
-0.569284,-0.252126,2.445,2.52303
-0.561348,-0.252126,2.445,2.52125
-0.553412,-0.252126,2.445,2.5195
-0.545476,-0.252126,2.445,2.51776
-0.53754,-0.252126,2.445,2.51606
-0.529605,-0.252126,2.445,2.51437
-0.521669,-0.252126,2.445,2.51271
-0.517515,-0.253982,2.463,2.52956
-0.509521,-0.253982,2.463,2.52794
-0.501526,-0.253982,2.463,2.52634
-0.493532,-0.253982,2.463,2.52477
-0.485538,-0.253982,2.463,2.52322
-0.477544,-0.253982,2.463,2.52169
-0.472981,-0.255838,2.481,2.53861
-0.464928,-0.255838,2.481,2.53712
-0.456875,-0.255838,2.481,2.53566
-0.448823,-0.255838,2.481,2.53422
-0.44077,-0.255838,2.481,2.5328
-0.432717,-0.255838,2.481,2.53141
-0.427746,-0.257694,2.499,2.54841
-0.419634,-0.257694,2.499,2.54706
-0.411523,-0.257694,2.499,2.54573
-0.403412,-0.257694,2.499,2.54443
-0.395301,-0.257694,2.499,2.54316
-0.389979,-0.25955,2.517,2.56022
-0.381809,-0.25955,2.517,2.55899
-0.37364,-0.25955,2.517,2.55778
-0.36547,-0.25955,2.517,2.5566
-0.357301,-0.25955,2.517,2.55545
-0.349131,-0.25955,2.517,2.55432
-0.340961,-0.25955,2.517,2.55322
-0.332792,-0.25955,2.517,2.55214
-0.324622,-0.25955,2.517,2.55109
-0.318842,-0.26151,2.536,2.56931
-0.31061,-0.26151,2.536,2.5683
-0.302379,-0.26151,2.536,2.56732
-0.294148,-0.26151,2.536,2.56636
-0.288059,-0.263469,2.555,2.58465
-0.279766,-0.263469,2.555,2.58374
-0.271473,-0.263469,2.555,2.58285
-0.26318,-0.263469,2.555,2.582
-0.254887,-0.263469,2.555,2.58116
-0.248428,-0.265428,2.574,2.59955
-0.240074,-0.265428,2.574,2.59876
-0.233429,-0.267387,2.593,2.61718
-0.223364,-0.265428,2.574,2.59727
-0.21501,-0.265428,2.574,2.59657
-0.206655,-0.265428,2.574,2.59589
-0.198301,-0.265428,2.574,2.59524
-0.191348,-0.267387,2.593,2.61376
-0.182932,-0.267387,2.593,2.61316
-0.174516,-0.267387,2.593,2.61259
-0.164882,-0.265428,2.574,2.5929
-0.156528,-0.265428,2.574,2.59238
-0.148173,-0.265428,2.574,2.59189
-0.139819,-0.265428,2.574,2.59142
-0.131464,-0.265428,2.574,2.59099
-0.12311,-0.265428,2.574,2.59058
-0.114755,-0.265428,2.574,2.59019
-0.107186,-0.267387,2.593,2.60895
-0.0987696,-0.267387,2.593,2.60862
-0.0903534,-0.267387,2.593,2.60832
-0.0819372,-0.267387,2.593,2.60804
-0.073521,-0.267387,2.593,2.60779
-0.0646277,-0.265428,2.574,2.58846
-0.0562731,-0.265428,2.574,2.58826
-0.0479185,-0.265428,2.574,2.58809
-0.039564,-0.265428,2.574,2.58795
-0.0312094,-0.265428,2.574,2.58784
-0.0226861,-0.263469,2.555,2.56865
-0.0143932,-0.263469,2.555,2.56859
-0.00610034,-0.263469,2.555,2.56856
0.00219255,-0.263469,2.555,2.56855
0.0104854,-0.263469,2.555,2.56857
0.0187783,-0.263469,2.555,2.56862
0.0270712,-0.263469,2.555,2.56869
0.0356271,-0.265428,2.574,2.58789
0.0439817,-0.265428,2.574,2.58802
0.0523362,-0.265428,2.574,2.58818
0.0606908,-0.265428,2.574,2.58836
0.0690454,-0.265428,2.574,2.58857
0.0773999,-0.265428,2.574,2.58881
0.0863875,-0.267387,2.593,2.60818
0.0948037,-0.267387,2.593,2.60847
0.10322,-0.267387,2.593,2.60879
0.111636,-0.267387,2.593,2.60914
0.120978,-0.26945,2.613,2.62964
0.12946,-0.26945,2.613,2.63004
0.137941,-0.26945,2.613,2.63048
0.146422,-0.26945,2.613,2.63093
0.154903,-0.26945,2.613,2.63142
0.163384,-0.26945,2.613,2.63193
0.173181,-0.271512,2.633,2.65262
0.181727,-0.271512,2.633,2.65319
0.190273,-0.271512,2.633,2.65379
0.198819,-0.271512,2.633,2.65442
0.207365,-0.271512,2.633,2.65507
0.215911,-0.271512,2.633,2.65575
0.224457,-0.271512,2.633,2.65646
0.233003,-0.271512,2.633,2.6572
0.241549,-0.271512,2.633,2.65796
0.248196,-0.26945,2.613,2.63856
0.256677,-0.26945,2.613,2.63937
0.265158,-0.26945,2.613,2.6402
0.273639,-0.26945,2.613,2.64107
0.279961,-0.267387,2.593,2.62174
0.288377,-0.267387,2.593,2.62265
0.296793,-0.267387,2.593,2.62359
0.30521,-0.267387,2.593,2.62456
0.313626,-0.267387,2.593,2.62555
0.322042,-0.267387,2.593,2.62657
0.330458,-0.267387,2.593,2.62761
0.338875,-0.267387,2.593,2.62868
0.347291,-0.267387,2.593,2.62978
0.355707,-0.267387,2.593,2.63091
0.364123,-0.267387,2.593,2.63206
0.372539,-0.267387,2.593,2.63324
0.380956,-0.267387,2.593,2.63444
0.389372,-0.267387,2.593,2.63567
0.397788,-0.267387,2.593,2.63693
0.406204,-0.267387,2.593,2.63821
0.414621,-0.267387,2.593,2.63952
0.4263,-0.26945,2.613,2.66122
0.434781,-0.26945,2.613,2.66259
0.439869,-0.267387,2.593,2.6436
0.448286,-0.267387,2.593,2.64502
0.456702,-0.267387,2.593,2.64645
0.465118,-0.267387,2.593,2.64792
0.473534,-0.267387,2.593,2.64941
0.481951,-0.267387,2.593,2.65093
0.490367,-0.267387,2.593,2.65247
0.498783,-0.267387,2.593,2.65404
0.507199,-0.267387,2.593,2.65564
0.515615,-0.267387,2.593,2.65726
0.524032,-0.267387,2.593,2.6589
0.532448,-0.267387,2.593,2.66057
0.540864,-0.267387,2.593,2.66227
0.54928,-0.267387,2.593,2.66399
0.557697,-0.267387,2.593,2.66574
0.566113,-0.267387,2.593,2.66751
0.574529,-0.267387,2.593,2.66931
0.582945,-0.267387,2.593,2.67114
0.591362,-0.267387,2.593,2.67299
0.595383,-0.265428,2.574,2.65526
0.603738,-0.265428,2.574,2.65715
0.612092,-0.265428,2.574,2.65906
0.620447,-0.265428,2.574,2.66099
0.628801,-0.265428,2.574,2.66295
0.637156,-0.265428,2.574,2.66494
0.64551,-0.265428,2.574,2.66695
0.653865,-0.265428,2.574,2.66898
0.662219,-0.265428,2.574,2.67104
0.670574,-0.265428,2.574,2.67313
0.678929,-0.265428,2.574,2.67523
0.68221,-0.263469,2.555,2.6576
0.690503,-0.263469,2.555,2.65974
0.698796,-0.263469,2.555,2.66191
0.70183,-0.26151,2.536,2.64429
0.710062,-0.26151,2.536,2.64648
0.718293,-0.26151,2.536,2.6487
0.726524,-0.26151,2.536,2.65095
0.734755,-0.26151,2.536,2.65321
0.742987,-0.26151,2.536,2.65551
0.751218,-0.26151,2.536,2.65782
0.753759,-0.25955,2.517,2.64023
0.761929,-0.25955,2.517,2.64257
0.770098,-0.25955,2.517,2.64494
0.778268,-0.25955,2.517,2.64733
0.786437,-0.25955,2.517,2.64974
0.794607,-0.25955,2.517,2.65218
0.797036,-0.257694,2.499,2.63565
0.805147,-0.257694,2.499,2.63812
0.813258,-0.257694,2.499,2.64061
0.815453,-0.255838,2.481,2.62408
0.823505,-0.255838,2.481,2.62659
0.825525,-0.253982,2.463,2.61005
0.833519,-0.253982,2.463,2.61259
0.835364,-0.252126,2.445,2.59604
0.8433,-0.252126,2.445,2.5986
0.845317,-0.250373,2.428,2.58311
0.853198,-0.250373,2.428,2.58569
0.861078,-0.250373,2.428,2.58831
0.862875,-0.24862,2.411,2.5728
0.864561,-0.246867,2.394,2.55727
0.872331,-0.246867,2.394,2.55991
0.873852,-0.245114,2.377,2.54437
0.881567,-0.245114,2.377,2.54703
0.889282,-0.245114,2.377,2.54971
0.896997,-0.245114,2.377,2.55241
0.898623,-0.243464,2.361,2.53794
0.906286,-0.243464,2.361,2.54066
0.913949,-0.243464,2.361,2.5434
0.915367,-0.241814,2.345,2.52891
0.922978,-0.241814,2.345,2.53168
0.930589,-0.241814,2.345,2.53446
0.938201,-0.241814,2.345,2.53727
0.945812,-0.241814,2.345,2.54009
0.953423,-0.241814,2.345,2.54293
0.961035,-0.241814,2.345,2.5458
nan,nan,nan,NaN
nan,nan,nan,NaN
nan,nan,nan,NaN
nan,nan,nan,NaN
nan,nan,nan,NaN
nan,nan,nan,NaN
nan,nan,nan,NaN
nan,nan,nan,NaN
nan,nan,nan,NaN
nan,nan,nan,NaN
nan,nan,nan,NaN
nan,nan,nan,NaN
nan,nan,nan,NaN
nan,nan,nan,NaN
1.68777,-0.379581,3.681,4.06724
1.69972,-0.379581,3.681,4.07221
1.71167,-0.379581,3.681,4.07721
1.72361,-0.379581,3.681,4.08224
1.73556,-0.379581,3.681,4.0873
1.74751,-0.379581,3.681,4.09239
1.75946,-0.379581,3.681,4.0975
1.75264,-0.375559,3.642,4.05918
1.76446,-0.375559,3.642,4.0643
1.75775,-0.371641,3.604,4.02698
1.76944,-0.371641,3.604,4.0321
1.76236,-0.367722,3.566,3.99468
1.77394,-0.367722,3.566,3.9998
1.78551,-0.367722,3.566,4.00495
nan,nan,nan,NaN
nan,nan,nan,NaN
nan,nan,nan,NaN
nan,nan,nan,NaN
nan,nan,nan,NaN
nan,nan,nan,NaN
nan,nan,nan,NaN
nan,nan,nan,NaN
1.92995,-0.375559,3.642,4.13883
1.94177,-0.375559,3.642,4.14436
1.97451,-0.379581,3.681,4.19435
1.98646,-0.379581,3.681,4.19999
1.99841,-0.379581,3.681,4.20565
2.01036,-0.379581,3.681,4.21134
2.02231,-0.379581,3.681,4.21706
2.03425,-0.379581,3.681,4.2228
2.0462,-0.379581,3.681,4.22857
2.08051,-0.383705,3.721,4.28037
2.09259,-0.383705,3.721,4.28626
2.08204,-0.379581,3.681,4.24603
2.09399,-0.379581,3.681,4.2519
2.10594,-0.379581,3.681,4.2578
2.09545,-0.375559,3.642,4.21854
2.08528,-0.371641,3.604,4.18035
2.09698,-0.371641,3.604,4.1862
2.10868,-0.371641,3.604,4.19207
2.07625,-0.363907,3.529,4.11061
2.0877,-0.363907,3.529,4.1164
2.05692,-0.356585,3.458,4.03929
2.04722,-0.352976,3.423,4.00407
2.05833,-0.352976,3.423,4.00977
2.02893,-0.346067,3.356,3.93688
2.00092,-0.339467,3.292,3.86732
2.01161,-0.339467,3.292,3.87286
1.96516,-0.329877,3.199,3.76886
1.95764,-0.326887,3.17,3.74007
1.96793,-0.326887,3.17,3.74546
1.94202,-0.320906,3.112,3.68225
1.91762,-0.315235,3.057,3.62242
1.92754,-0.315235,3.057,3.62768
1.90324,-0.309666,3.003,3.56879
1.89642,-0.306985,2.977,3.54305
1.90609,-0.306985,2.977,3.54823
1.89902,-0.304304,2.951,3.5224
1.89243,-0.301726,2.926,3.49768
1.88567,-0.299148,2.901,3.4729
1.89509,-0.299148,2.901,3.47803
1.88875,-0.296673,2.877,3.45435
1.88225,-0.294198,2.853,3.4306
1.89151,-0.294198,2.853,3.43569
1.86946,-0.289352,2.806,3.38412
1.86317,-0.28698,2.783,3.36138
1.8722,-0.28698,2.783,3.36639
1.86637,-0.284711,2.761,3.34477
1.86038,-0.282443,2.739,3.32309
-2.13947,-0.308012,3.084,3.76607
-2.12946,-0.308012,3.084,3.76039
-2.1009,-0.305315,3.057,3.72186
-2.09097,-0.305315,3.057,3.71627
-2.09943,-0.308012,3.084,3.74347
-2.08942,-0.308012,3.084,3.73786
-2.07941,-0.308012,3.084,3.73228
-2.0694,-0.308012,3.084,3.72671
-2.05939,-0.308012,3.084,3.72116
-2.04938,-0.308012,3.084,3.71563
-2.03937,-0.308012,3.084,3.71012
-2.02936,-0.308012,3.084,3.70462
-2.01935,-0.308012,3.084,3.69915
-2.02759,-0.310808,3.112,3.72723
-2.01749,-0.310808,3.112,3.72175
-2.02609,-0.313705,3.141,3.75091
-2.0159,-0.313705,3.141,3.74541
-2.0057,-0.313705,3.141,3.73994
-2.01393,-0.316601,3.17,3.76896
-2.00364,-0.316601,3.17,3.76347
-1.99335,-0.316601,3.17,3.758
-1.98306,-0.316601,3.17,3.75256
-1.97277,-0.316601,3.17,3.74713
-1.96248,-0.316601,3.17,3.74172
-1.97006,-0.319497,3.199,3.77052
-1.95967,-0.319497,3.199,3.7651
-1.94929,-0.319497,3.199,3.75971
-1.93891,-0.319497,3.199,3.75434
nan,nan,nan,NaN
nan,nan,nan,NaN
nan,nan,nan,NaN
nan,nan,nan,NaN
nan,nan,nan,NaN
nan,nan,nan,NaN
nan,nan,nan,NaN
nan,nan,nan,NaN
nan,nan,nan,NaN
nan,nan,nan,NaN
nan,nan,nan,NaN
nan,nan,nan,NaN
nan,nan,nan,NaN
nan,nan,nan,NaN
nan,nan,nan,NaN
nan,nan,nan,NaN
nan,nan,nan,NaN
nan,nan,nan,NaN
nan,nan,nan,NaN
nan,nan,nan,NaN
nan,nan,nan,NaN
nan,nan,nan,NaN
nan,nan,nan,NaN
nan,nan,nan,NaN
nan,nan,nan,NaN
nan,nan,nan,NaN
nan,nan,nan,NaN
nan,nan,nan,NaN
nan,nan,nan,NaN
nan,nan,nan,NaN
nan,nan,nan,NaN
nan,nan,nan,NaN
nan,nan,nan,NaN
nan,nan,nan,NaN
-1.17066,-0.237401,2.377,2.66025
-1.16295,-0.237401,2.377,2.65687
-1.15523,-0.237401,2.377,2.6535
-1.14752,-0.237401,2.377,2.65015
-1.1398,-0.237401,2.377,2.64682
-1.13209,-0.237401,2.377,2.6435
-1.12437,-0.237401,2.377,2.64021
-1.11666,-0.237401,2.377,2.63693
-1.10894,-0.237401,2.377,2.63367
-1.09381,-0.235803,2.361,2.61273
-1.08615,-0.235803,2.361,2.60953
-1.07849,-0.235803,2.361,2.60635
-1.07082,-0.235803,2.361,2.60319
-1.06316,-0.235803,2.361,2.60005
-1.0555,-0.235803,2.361,2.59692
-1.04784,-0.235803,2.361,2.59382
-1.03312,-0.234205,2.345,2.57317
-1.02551,-0.234205,2.345,2.57013
-1.0179,-0.234205,2.345,2.5671
-1.01029,-0.234205,2.345,2.56409
-1.00268,-0.234205,2.345,2.5611
-0.995066,-0.234205,2.345,2.55813
-0.987455,-0.234205,2.345,2.55518
-0.979844,-0.234205,2.345,2.55225
-0.972232,-0.234205,2.345,2.54934
-0.971203,-0.235803,2.361,2.56382
-0.96354,-0.235803,2.361,2.56092
-0.955876,-0.235803,2.361,2.55805
-0.948213,-0.235803,2.361,2.5552
-0.94055,-0.235803,2.361,2.55236
-0.932887,-0.235803,2.361,2.54955
-0.925224,-0.235803,2.361,2.54676
-0.91756,-0.235803,2.361,2.54398
-0.909897,-0.235803,2.361,2.54123
-0.902234,-0.235803,2.361,2.53849
-0.894571,-0.235803,2.361,2.53578
-0.886907,-0.235803,2.361,2.53309
-0.879244,-0.235803,2.361,2.53041
-0.871581,-0.235803,2.361,2.52776
-0.863918,-0.235803,2.361,2.52513
-0.862057,-0.237401,2.377,2.53961
-0.854342,-0.237401,2.377,2.537
-0.846627,-0.237401,2.377,2.53442
-0.838912,-0.237401,2.377,2.53185
-0.831197,-0.237401,2.377,2.5293
-0.823481,-0.237401,2.377,2.52678
-0.815766,-0.237401,2.377,2.52427
-0.81383,-0.239099,2.394,2.53983
-0.80606,-0.239099,2.394,2.53735
-0.79829,-0.239099,2.394,2.53489
-0.790519,-0.239099,2.394,2.53245
-0.782749,-0.239099,2.394,2.53004
-0.774979,-0.239099,2.394,2.52765
-0.767208,-0.239099,2.394,2.52527
-0.764831,-0.240796,2.411,2.54084
-0.757005,-0.240796,2.411,2.5385
-0.74918,-0.240796,2.411,2.53617
-0.741354,-0.240796,2.411,2.53387
-0.733529,-0.240796,2.411,2.53159
-0.725703,-0.240796,2.411,2.52934
-0.717878,-0.240796,2.411,2.5271
-0.715059,-0.242494,2.428,2.5427
-0.707178,-0.242494,2.428,2.54049
-0.699297,-0.242494,2.428,2.53831
-0.691417,-0.242494,2.428,2.53615
-0.683536,-0.242494,2.428,2.53401
-0.675655,-0.242494,2.428,2.5319
-0.667775,-0.242494,2.428,2.5298
-0.659894,-0.242494,2.428,2.52774
-0.652013,-0.242494,2.428,2.52569
-0.644133,-0.242494,2.428,2.52367
-0.636252,-0.242494,2.428,2.52167
-0.628371,-0.242494,2.428,2.51969
-0.620491,-0.242494,2.428,2.51774
-0.61261,-0.242494,2.428,2.51581
-0.604729,-0.242494,2.428,2.5139
-0.596848,-0.242494,2.428,2.51201
-0.588968,-0.242494,2.428,2.51015
-0.581087,-0.242494,2.428,2.50832
-0.57722,-0.244192,2.445,2.52405
-0.569284,-0.244192,2.445,2.52225
-0.561348,-0.244192,2.445,2.52047
-0.553412,-0.244192,2.445,2.51871
-0.545476,-0.244192,2.445,2.51698
-0.53754,-0.244192,2.445,2.51527
-0.529605,-0.244192,2.445,2.51359
-0.521669,-0.244192,2.445,2.51193
-0.517515,-0.24599,2.463,2.52877
-0.509521,-0.24599,2.463,2.52715
-0.501526,-0.24599,2.463,2.52555
-0.493532,-0.24599,2.463,2.52398
-0.485538,-0.24599,2.463,2.52242
-0.477544,-0.24599,2.463,2.5209
-0.472981,-0.247788,2.481,2.53781
-0.464928,-0.247788,2.481,2.53632
-0.456875,-0.247788,2.481,2.53486
-0.448823,-0.247788,2.481,2.53342
-0.44077,-0.247788,2.481,2.532
-0.432717,-0.247788,2.481,2.53061
-0.427746,-0.249585,2.499,2.5476
-0.419634,-0.249585,2.499,2.54625
-0.411523,-0.249585,2.499,2.54493
-0.403412,-0.249585,2.499,2.54363
-0.395301,-0.249585,2.499,2.54235
-0.389979,-0.251383,2.517,2.55941
-0.381809,-0.251383,2.517,2.55818
-0.37364,-0.251383,2.517,2.55697
-0.36547,-0.251383,2.517,2.55579
-0.357301,-0.251383,2.517,2.55463
-0.349131,-0.251383,2.517,2.5535
-0.340961,-0.251383,2.517,2.5524
-0.332792,-0.251383,2.517,2.55132
-0.324622,-0.251383,2.517,2.55027
-0.318842,-0.253281,2.536,2.56848
-0.31061,-0.253281,2.536,2.56747
-0.302379,-0.253281,2.536,2.56649
-0.294148,-0.253281,2.536,2.56554
-0.288059,-0.255178,2.555,2.58382
-0.279766,-0.255178,2.555,2.58291
-0.271473,-0.255178,2.555,2.58202
-0.26318,-0.255178,2.555,2.58116
-0.254887,-0.255178,2.555,2.58033
-0.248428,-0.257076,2.574,2.59871
-0.240074,-0.257076,2.574,2.59792
-0.233429,-0.258974,2.593,2.61633
-0.223364,-0.257076,2.574,2.59643
-0.21501,-0.257076,2.574,2.59573
-0.206655,-0.257076,2.574,2.59505
-0.198301,-0.257076,2.574,2.5944
-0.191348,-0.258974,2.593,2.61292
-0.182932,-0.258974,2.593,2.61231
-0.174516,-0.258974,2.593,2.61174
-0.164882,-0.257076,2.574,2.59206
-0.156528,-0.257076,2.574,2.59154
-0.148173,-0.257076,2.574,2.59105
-0.139819,-0.257076,2.574,2.59058
-0.131464,-0.257076,2.574,2.59014
-0.12311,-0.257076,2.574,2.58973
-0.114755,-0.257076,2.574,2.58935
-0.1064,-0.257076,2.574,2.58899
-0.0987696,-0.258974,2.593,2.60777
-0.0903534,-0.258974,2.593,2.60747
-0.0819372,-0.258974,2.593,2.60719
-0.073521,-0.258974,2.593,2.60694
-0.0646277,-0.257076,2.574,2.58761
-0.0562731,-0.257076,2.574,2.58742
-0.0479185,-0.257076,2.574,2.58725
-0.039564,-0.257076,2.574,2.58711
-0.0312094,-0.257076,2.574,2.58699
-0.0226861,-0.255178,2.555,2.56781
-0.0143932,-0.255178,2.555,2.56775
-0.00610034,-0.255178,2.555,2.56772
0.00219255,-0.255178,2.555,2.56771
0.0104854,-0.255178,2.555,2.56773
0.0187783,-0.255178,2.555,2.56778
0.0270712,-0.255178,2.555,2.56785
0.0356271,-0.257076,2.574,2.58705
0.0439817,-0.257076,2.574,2.58718
0.0523362,-0.257076,2.574,2.58734
0.0606908,-0.257076,2.574,2.58752
0.0690454,-0.257076,2.574,2.58773
0.0773999,-0.257076,2.574,2.58796
0.0863875,-0.258974,2.593,2.60733
0.0948037,-0.258974,2.593,2.60762
0.10322,-0.258974,2.593,2.60794
0.111636,-0.258974,2.593,2.60829
0.120978,-0.260971,2.613,2.62879
0.12946,-0.260971,2.613,2.62919
0.137941,-0.260971,2.613,2.62962
0.146422,-0.260971,2.613,2.63008
0.154903,-0.260971,2.613,2.63056
0.163384,-0.260971,2.613,2.63108
0.173181,-0.262968,2.633,2.65176
0.181727,-0.262968,2.633,2.65233
0.190273,-0.262968,2.633,2.65293
0.198819,-0.262968,2.633,2.65356
0.207365,-0.262968,2.633,2.65421
0.215911,-0.262968,2.633,2.65489
0.224457,-0.262968,2.633,2.6556
0.233003,-0.262968,2.633,2.65634
0.241549,-0.262968,2.633,2.6571
0.250095,-0.262968,2.633,2.65789
0.256677,-0.260971,2.613,2.63851
0.265158,-0.260971,2.613,2.63935
0.273639,-0.260971,2.613,2.64022
0.28212,-0.260971,2.613,2.64111
0.290601,-0.260971,2.613,2.64203
0.299083,-0.260971,2.613,2.64298
0.30521,-0.258974,2.593,2.62371
0.313626,-0.258974,2.593,2.62471
0.322042,-0.258974,2.593,2.62572
0.333007,-0.260971,2.613,2.64703
0.338875,-0.258974,2.593,2.62784
0.347291,-0.258974,2.593,2.62894
0.355707,-0.258974,2.593,2.63007
0.364123,-0.258974,2.593,2.63122
0.375413,-0.260971,2.613,2.6527
0.383894,-0.260971,2.613,2.65391
0.392375,-0.260971,2.613,2.65515
0.400856,-0.260971,2.613,2.65642
0.409337,-0.260971,2.613,2.65771
0.417819,-0.260971,2.613,2.65903
0.4263,-0.260971,2.613,2.66038
0.434781,-0.260971,2.613,2.66175
0.443262,-0.260971,2.613,2.66315
0.451743,-0.260971,2.613,2.66457
0.460224,-0.260971,2.613,2.66602
0.468706,-0.260971,2.613,2.6675
0.473534,-0.258974,2.593,2.64858
0.481951,-0.258974,2.593,2.65009
0.490367,-0.258974,2.593,2.65164
0.498783,-0.258974,2.593,2.65321
0.507199,-0.258974,2.593,2.6548
0.515615,-0.258974,2.593,2.65642
0.524032,-0.258974,2.593,2.65807
0.532448,-0.258974,2.593,2.65974
0.540864,-0.258974,2.593,2.66144
0.54928,-0.258974,2.593,2.66316
0.55361,-0.257076,2.574,2.64538
0.561965,-0.257076,2.574,2.64714
0.570319,-0.257076,2.574,2.64893
0.582945,-0.258974,2.593,2.67031
0.591362,-0.258974,2.593,2.67216
0.595383,-0.257076,2.574,2.65444
0.603738,-0.257076,2.574,2.65633
0.61661,-0.258974,2.593,2.67786
0.625027,-0.258974,2.593,2.67981
0.633443,-0.258974,2.593,2.68178
0.641859,-0.258974,2.593,2.68378
0.64551,-0.257076,2.574,2.66613
0.653865,-0.257076,2.574,2.66816
0.662219,-0.257076,2.574,2.67022
0.670574,-0.257076,2.574,2.67231
0.673917,-0.255178,2.555,2.65468
0.68221,-0.255178,2.555,2.65679
0.690503,-0.255178,2.555,2.65894
0.698796,-0.255178,2.555,2.6611
0.70183,-0.253281,2.536,2.64349
0.710062,-0.253281,2.536,2.64568
0.718293,-0.253281,2.536,2.6479
0.726524,-0.253281,2.536,2.65015
0.734755,-0.253281,2.536,2.65242
0.742987,-0.253281,2.536,2.65471
0.751218,-0.253281,2.536,2.65702
0.753759,-0.251383,2.517,2.63944
0.761929,-0.251383,2.517,2.64178
0.770098,-0.251383,2.517,2.64415
0.778268,-0.251383,2.517,2.64654
0.786437,-0.251383,2.517,2.64896
0.794607,-0.251383,2.517,2.65139
0.797036,-0.249585,2.499,2.63487
0.805147,-0.249585,2.499,2.63734
0.813258,-0.249585,2.499,2.63983
0.815453,-0.247788,2.481,2.6233
0.823505,-0.247788,2.481,2.62582
0.825525,-0.24599,2.463,2.60929
0.833519,-0.24599,2.463,2.61183
0.835364,-0.244192,2.445,2.59528
0.8433,-0.244192,2.445,2.59785
0.845317,-0.242494,2.428,2.58235
0.853198,-0.242494,2.428,2.58494
0.861078,-0.242494,2.428,2.58756
