1.39813,0.0112048,2.829,3.15565
1.40731,0.0112048,2.829,3.15973
1.41649,0.0112048,2.829,3.16383
1.42567,0.0112048,2.829,3.16795
1.43486,0.0112048,2.829,3.17209
1.45629,0.0112998,2.853,3.2032
1.47788,0.0113949,2.877,3.23441
1.49962,0.0114899,2.901,3.2657
1.50904,0.0114899,2.901,3.27003
1.51845,0.0114899,2.901,3.27439
1.54104,0.011589,2.926,3.30702
1.55053,0.011589,2.926,3.31146
1.57336,0.011688,2.951,3.34425
1.58294,0.011688,2.951,3.34877
1.59252,0.011688,2.951,3.3533
1.61621,0.011791,2.977,3.38745
1.62587,0.011791,2.977,3.39207
1.63553,0.011791,2.977,3.39671
1.6452,0.011791,2.977,3.40137
1.65486,0.011791,2.977,3.40606
1.66452,0.011791,2.977,3.41076
1.67419,0.011791,2.977,3.41549
1.68385,0.011791,2.977,3.42024
1.69351,0.011791,2.977,3.425
1.70317,0.011791,2.977,3.42979
1.69788,0.011688,2.951,3.4046
1.70745,0.011688,2.951,3.40939
1.71703,0.011688,2.951,3.4142
1.72661,0.011688,2.951,3.41902
1.75149,0.011791,2.977,3.45404
1.76115,0.011791,2.977,3.45895
1.77081,0.011791,2.977,3.46388
1.78047,0.011791,2.977,3.46883
1.79014,0.011791,2.977,3.4738
1.7998,0.011791,2.977,3.47879
1.79366,0.011688,2.951,3.45337
1.80324,0.011688,2.951,3.45835
1.81281,0.011688,2.951,3.46336
1.82239,0.011688,2.951,3.46838
1.83197,0.011688,2.951,3.47342
1.82595,0.011589,2.926,3.44901
1.81976,0.0114899,2.901,3.42454
1.82918,0.0114899,2.901,3.42955
1.80817,0.0112998,2.853,3.37776
1.78749,0.0111137,2.806,3.32699
1.76779,0.0109355,2.761,3.27846
1.77675,0.0109355,2.761,3.2833
1.75725,0.0107612,2.717,3.23576
1.75242,0.010678,2.696,3.21551
1.76117,0.010678,2.696,3.22029
1.74235,0.0105117,2.654,3.17484
1.72392,0.0103493,2.613,3.13046
1.7324,0.0103493,2.613,3.13514
1.71489,0.0101948,2.574,3.09297
1.71053,0.0101195,2.555,3.07474
1.71882,0.0101195,2.555,3.07936
1.70143,0.00996904,2.517,3.03813
1.69737,0.00989775,2.499,3.02096
-1.94661,0.0202187,2.806,3.41516
-1.92163,0.020053,2.783,3.38203
-1.91259,0.020053,2.783,3.37691
-1.88851,0.0198944,2.761,3.34514
-1.87955,0.0198944,2.761,3.34009
-1.87059,0.0198944,2.761,3.33506
-1.84679,0.0197359,2.739,3.30351
-1.82314,0.0195774,2.717,3.27205
-1.81432,0.0195774,2.717,3.26715
-1.79155,0.0194261,2.696,3.23704
-1.7828,0.0194261,2.696,3.23221
-1.76023,0.0192748,2.675,3.20225
-1.75155,0.0192748,2.675,3.19749
-1.74286,0.0192748,2.675,3.19274
-1.72057,0.0191235,2.654,3.16298
-1.71195,0.0191235,2.654,3.1583
-1.70334,0.0191235,2.654,3.15364
-1.69472,0.0191235,2.654,3.149
-1.68611,0.0191235,2.654,3.14437
-1.6775,0.0191235,2.654,3.13976
-1.66888,0.0191235,2.654,3.13516
-1.66027,0.0191235,2.654,3.13059
-1.65165,0.0191235,2.654,3.12603
-1.64304,0.0191235,2.654,3.12148
-1.63443,0.0191235,2.654,3.11696
-1.63868,0.0192748,2.675,3.13708
-1.62999,0.0192748,2.675,3.13255
-1.63404,0.0194261,2.696,3.1526
-1.63795,0.0195774,2.717,3.17259
-1.62913,0.0195774,2.717,3.16805
-1.62031,0.0195774,2.717,3.16352
-1.62454,0.0197359,2.739,3.18459
-1.61565,0.0197359,2.739,3.18007
-1.59385,0.0195774,2.717,3.15005
-1.58504,0.0195774,2.717,3.1456
-1.57622,0.0195774,2.717,3.14117
-1.5674,0.0195774,2.717,3.13675
-1.55858,0.0195774,2.717,3.13235
-1.54976,0.0195774,2.717,3.12798
-1.54094,0.0195774,2.717,3.12362
-1.52028,0.0194261,2.696,3.09517
-1.51153,0.0194261,2.696,3.09088
-1.50278,0.0194261,2.696,3.08661
-1.48239,0.0192748,2.675,3.05835
-1.46214,0.0191235,2.654,3.03017
-1.45353,0.0191235,2.654,3.02602
-1.44491,0.0191235,2.654,3.0219
-1.4363,0.0191235,2.654,3.01779
-1.42768,0.0191235,2.654,3.0137
-1.40784,0.0189721,2.633,2.98581
-1.38867,0.018828,2.613,2.95914
-1.38019,0.018828,2.613,2.95517
-1.3717,0.018828,2.613,2.95122
-1.35279,0.0186839,2.593,2.92473
-1.34437,0.0186839,2.593,2.92085
-1.33596,0.0186839,2.593,2.91698
-1.31781,0.018547,2.574,2.89179
-1.30946,0.018547,2.574,2.88799
-1.3011,0.018547,2.574,2.88421
-1.29275,0.018547,2.574,2.88045
-1.27491,0.0184101,2.555,2.85548
-1.26662,0.0184101,2.555,2.85179
-1.23961,0.0181363,2.517,2.80575
-1.22264,0.0180066,2.499,2.78212
-1.21453,0.0180066,2.499,2.77856
-1.20641,0.0180066,2.499,2.77502
-1.18967,0.0178769,2.481,2.75155
-1.17305,0.0177472,2.463,2.72814
-1.16505,0.0177472,2.463,2.72471
-1.1486,0.0176175,2.445,2.70141
-1.13274,0.017495,2.428,2.67929
-1.12485,0.017495,2.428,2.67597
-1.10915,0.0173725,2.411,2.65395
-1.10133,0.0173725,2.411,2.65069
-1.0935,0.0173725,2.411,2.64745
-1.08568,0.0173725,2.411,2.64422
-1.07785,0.0173725,2.411,2.64102
-1.07003,0.0173725,2.411,2.63784
-1.0622,0.0173725,2.411,2.63467
-1.05437,0.0173725,2.411,2.63153
-1.04655,0.0173725,2.411,2.6284
-1.03872,0.0173725,2.411,2.62529
-1.0309,0.0173725,2.411,2.62221
-1.02307,0.0173725,2.411,2.61914
-1.01525,0.0173725,2.411,2.61609
-1.00742,0.0173725,2.411,2.61307
-0.999596,0.0173725,2.411,2.61006
-0.99177,0.0173725,2.411,2.60707
-0.983945,0.0173725,2.411,2.60411
-0.976119,0.0173725,2.411,2.60116
-0.975121,0.017495,2.428,2.61655
-0.967241,0.017495,2.428,2.61363
-0.95936,0.017495,2.428,2.61072
-0.951479,0.017495,2.428,2.60784
-0.943599,0.017495,2.428,2.60497
-0.935718,0.017495,2.428,2.60213
-0.927837,0.017495,2.428,2.5993
-0.919957,0.017495,2.428,2.5965
-0.912076,0.017495,2.428,2.59372
-0.904195,0.017495,2.428,2.59096
-0.896315,0.017495,2.428,2.58822
-0.894654,0.0176175,2.445,2.6036
-0.886718,0.0176175,2.445,2.60089
-0.878783,0.0176175,2.445,2.59819
-0.870847,0.0176175,2.445,2.59552
-0.862911,0.0176175,2.445,2.59287
-0.854975,0.0176175,2.445,2.59024
-0.847039,0.0176175,2.445,2.58763
-0.839103,0.0176175,2.445,2.58504
-0.831167,0.0176175,2.445,2.58247
-0.829292,0.0177472,2.463,2.59892
-0.821298,0.0177472,2.463,2.59638
-0.813304,0.0177472,2.463,2.59387
-0.805309,0.0177472,2.463,2.59137
-0.797315,0.0177472,2.463,2.5889
-0.789321,0.0177472,2.463,2.58645
-0.787037,0.0178769,2.481,2.6029
-0.778984,0.0178769,2.481,2.60048
-0.770931,0.0178769,2.481,2.59808
-0.762878,0.0178769,2.481,2.5957
-0.754826,0.0178769,2.481,2.59335
-0.746773,0.0178769,2.481,2.59101
-0.73872,0.0178769,2.481,2.5887
-0.730668,0.0178769,2.481,2.58642
-0.722615,0.0178769,2.481,2.58415
-0.714562,0.0178769,2.481,2.58191
-0.706509,0.0178769,2.481,2.5797
-0.698457,0.0178769,2.481,2.5775
-0.690404,0.0178769,2.481,2.57533
-0.682351,0.0178769,2.481,2.57319
-0.674299,0.0178769,2.481,2.57106
-0.666246,0.0178769,2.481,2.56896
-0.658193,0.0178769,2.481,2.56689
-0.65014,0.0178769,2.481,2.56483
-0.642088,0.0178769,2.481,2.5628
-0.634035,0.0178769,2.481,2.5608
-0.625982,0.0178769,2.481,2.55882
-0.622413,0.0180066,2.499,2.57541
-0.614302,0.0180066,2.499,2.57346
-0.606191,0.0180066,2.499,2.57154
-0.598079,0.0180066,2.499,2.56964
-0.589968,0.0180066,2.499,2.56776
-0.581857,0.0180066,2.499,2.56591
-0.573746,0.0180066,2.499,2.56408
-0.565635,0.0180066,2.499,2.56228
-0.557524,0.0180066,2.499,2.5605
-0.549413,0.0180066,2.499,2.55875
-0.541301,0.0180066,2.499,2.55702
-0.53319,0.0180066,2.499,2.55531
-0.525079,0.0180066,2.499,2.55363
-0.516968,0.0180066,2.499,2.55198
-0.508857,0.0180066,2.499,2.55035
-0.500746,0.0180066,2.499,2.54874
-0.492635,0.0180066,2.499,2.54716
-0.484524,0.0180066,2.499,2.5456
-0.472981,0.0178769,2.481,2.52575
-0.464928,0.0178769,2.481,2.52425
-0.456875,0.0178769,2.481,2.52278
-0.448823,0.0178769,2.481,2.52133
-0.443968,0.0180066,2.499,2.53819
-0.435857,0.0180066,2.499,2.53679
-0.427746,0.0180066,2.499,2.53541
-0.419634,0.0180066,2.499,2.53405
-0.411523,0.0180066,2.499,2.53272
-0.403412,0.0180066,2.499,2.53142
-0.395301,0.0180066,2.499,2.53014
-0.389979,0.0181363,2.517,2.5471
-0.381809,0.0181363,2.517,2.54586
-0.37364,0.0181363,2.517,2.54465
-0.368229,0.0182732,2.536,2.56266
-0.359998,0.0182732,2.536,2.56149
-0.351766,0.0182732,2.536,2.56035
-0.343535,0.0182732,2.536,2.55923
-0.335304,0.0182732,2.536,2.55814
-0.327073,0.0182732,2.536,2.55707
-0.318842,0.0182732,2.536,2.55603
-0.31061,0.0182732,2.536,2.55502
-0.302379,0.0182732,2.536,2.55403
-0.294148,0.0182732,2.536,2.55307
-0.285917,0.0182732,2.536,2.55213
-0.279766,0.0184101,2.555,2.57034
-0.271473,0.0184101,2.555,2.56945
-0.26318,0.0184101,2.555,2.56858
-0.254887,0.0184101,2.555,2.56775
-0.246594,0.0184101,2.555,2.56694
-0.238301,0.0184101,2.555,2.56615
-0.230009,0.0184101,2.555,2.5654
-0.221716,0.0184101,2.555,2.56467
-0.213423,0.0184101,2.555,2.56396
-0.20513,0.0184101,2.555,2.56329
-0.196837,0.0184101,2.555,2.56264
-0.188544,0.0184101,2.555,2.56201
-0.180251,0.0184101,2.555,2.56142
-0.171958,0.0184101,2.555,2.56085
-0.163665,0.0184101,2.555,2.5603
-0.155372,0.0184101,2.555,2.55979
-0.14708,0.0184101,2.555,2.5593
-0.138787,0.0184101,2.555,2.55883
-0.130494,0.0184101,2.555,2.5584
-0.122201,0.0184101,2.555,2.55799
-0.113908,0.0184101,2.555,2.5576
-0.105615,0.0184101,2.555,2.55725
-0.0973222,0.0184101,2.555,2.55692
-0.0896914,0.018547,2.574,2.57563
-0.0813368,0.018547,2.574,2.57535
-0.0729822,0.018547,2.574,2.5751
-0.0646277,0.018547,2.574,2.57488
-0.0562731,0.018547,2.574,2.57468
-0.0475648,0.0184101,2.555,2.55551
-0.0392719,0.0184101,2.555,2.55537
-0.030979,0.0184101,2.555,2.55525
-0.0226861,0.0184101,2.555,2.55517
-0.0143932,0.0184101,2.555,2.55511
-0.00610034,0.0184101,2.555,2.55507
0.00219255,0.0184101,2.555,2.55507
0.0104854,0.0184101,2.555,2.55509
0.0187783,0.0184101,2.555,2.55514
0.0270712,0.0184101,2.555,2.55521
0.0351011,0.0182732,2.536,2.53631
0.0433324,0.0182732,2.536,2.53644
0.0515636,0.0182732,2.536,2.53659
0.0597948,0.0182732,2.536,2.53677
0.0680261,0.0182732,2.536,2.53698
0.0762573,0.0182732,2.536,2.53721
0.0844885,0.0182732,2.536,2.53747
0.0927197,0.0182732,2.536,2.53776
0.100951,0.0182732,2.536,2.53807
0.109182,0.0182732,2.536,2.53841
0.117413,0.0182732,2.536,2.53878
0.125645,0.0182732,2.536,2.53918
0.132873,0.0181363,2.517,2.52057
0.141042,0.0181363,2.517,2.52101
0.149212,0.0181363,2.517,2.52148
0.157382,0.0181363,2.517,2.52198
0.164367,0.0180066,2.499,2.50446
0.172478,0.0180066,2.499,2.50501
0.180589,0.0180066,2.499,2.50558
0.19006,0.0181363,2.517,2.52423
0.198229,0.0181363,2.517,2.52486
0.206399,0.0181363,2.517,2.52551
0.214568,0.0181363,2.517,2.52619
0.222738,0.0181363,2.517,2.5269
0.230908,0.0181363,2.517,2.52763
0.239077,0.0181363,2.517,2.52839
0.249113,0.0182732,2.536,2.54827
0.257344,0.0182732,2.536,2.54909
0.265575,0.0182732,2.536,2.54993
nan,nan,nan,NaN
nan,nan,nan,NaN
0.292444,0.0184101,2.555,2.57175
0.300737,0.0184101,2.555,2.5727
0.30903,0.0184101,2.555,2.57369
nan,nan,nan,NaN
nan,nan,nan,NaN
nan,nan,nan,NaN
nan,nan,nan,NaN
nan,nan,nan,NaN
nan,nan,nan,NaN
nan,nan,nan,NaN
nan,nan,nan,NaN
nan,nan,nan,NaN
nan,nan,nan,NaN
nan,nan,nan,NaN
nan,nan,nan,NaN
nan,nan,nan,NaN
nan,nan,nan,NaN
nan,nan,nan,NaN
nan,nan,nan,NaN
nan,nan,nan,NaN
nan,nan,nan,NaN
nan,nan,nan,NaN
nan,nan,nan,NaN
nan,nan,nan,NaN
nan,nan,nan,NaN
nan,nan,nan,NaN
nan,nan,nan,NaN
nan,nan,nan,NaN
nan,nan,nan,NaN
nan,nan,nan,NaN
nan,nan,nan,NaN
nan,nan,nan,NaN
nan,nan,nan,NaN
nan,nan,nan,NaN
nan,nan,nan,NaN
nan,nan,nan,NaN
nan,nan,nan,NaN
nan,nan,nan,NaN
nan,nan,nan,NaN
nan,nan,nan,NaN
nan,nan,nan,NaN
0.627749,0.0182732,2.536,2.6126
0.635981,0.0182732,2.536,2.61459
0.644212,0.0182732,2.536,2.61661
0.652443,0.0182732,2.536,2.61865
nan,nan,nan,NaN
0.673917,0.0184101,2.555,2.64245
0.68221,0.0184101,2.555,2.64457
nan,nan,nan,NaN
0.703992,0.018547,2.574,2.6686
0.712347,0.018547,2.574,2.67082
0.720701,0.018547,2.574,2.67306
0.729056,0.018547,2.574,2.67532
0.737411,0.018547,2.574,2.67761
0.745765,0.018547,2.574,2.67992
0.75412,0.018547,2.574,2.68226
0.762474,0.018547,2.574,2.68462
0.770829,0.018547,2.574,2.68701
0.779183,0.018547,2.574,2.68941
0.787538,0.018547,2.574,2.69185
0.795892,0.018547,2.574,2.6943
0.798311,0.0184101,2.555,2.67688
0.806603,0.0184101,2.555,2.67936
0.814896,0.0184101,2.555,2.68187
0.817068,0.0182732,2.536,2.66444
0.825299,0.0182732,2.536,2.66697
0.83353,0.0182732,2.536,2.66953
0.841761,0.0182732,2.536,2.67211
0.849993,0.0182732,2.536,2.67472
0.851794,0.0181363,2.517,2.65729
0.853814,0.0180066,2.499,2.64089
0.861925,0.0180066,2.499,2.64353
0.870036,0.0180066,2.499,2.64618
0.871822,0.0178769,2.481,2.62978
0.879874,0.0178769,2.481,2.63246
0.887927,0.0178769,2.481,2.63517
0.889479,0.0177472,2.463,2.61875
0.897474,0.0177472,2.463,2.62148
0.905468,0.0177472,2.463,2.62422
0.913462,0.0177472,2.463,2.62699
0.914722,0.0176175,2.445,2.61057
0.922658,0.0176175,2.445,2.61336
0.930594,0.0176175,2.445,2.61617
0.93853,0.0176175,2.445,2.619
0.946466,0.0176175,2.445,2.62186
0.954402,0.0176175,2.445,2.62473
0.955646,0.017495,2.428,2.60936
0.963527,0.017495,2.428,2.61225
0.971408,0.017495,2.428,2.61517
0.979289,0.017495,2.428,2.61811
0.987169,0.017495,2.428,2.62107
1.00202,0.0176175,2.445,2.64242
1.00995,0.0176175,2.445,2.64544
1.02538,0.0177472,2.463,2.66798
1.03338,0.0177472,2.463,2.67106
1.04137,0.0177472,2.463,2.67416
1.05703,0.0178769,2.481,2.69685
1.08054,0.0181363,2.517,2.73919
1.08871,0.0181363,2.517,2.74243
1.10516,0.0182732,2.536,2.76641
1.13008,0.018547,2.574,2.81121
1.15568,0.018828,2.613,2.85722
1.16416,0.018828,2.613,2.86066
1.19104,0.0191235,2.654,2.90907
1.21864,0.0194261,2.696,2.95869
1.22739,0.0194261,2.696,2.96231
1.24577,0.0195774,2.717,2.98905
1.27491,0.0198944,2.761,3.0412
1.28387,0.0198944,2.761,3.04497
1.30313,0.020053,2.783,3.07305
1.31216,0.020053,2.783,3.07689
1.33211,0.0202187,2.806,3.10622
1.34122,0.0202187,2.806,3.11013
1.35033,0.0202187,2.806,3.11407
1.35944,0.0202187,2.806,3.11803
1.36854,0.0202187,2.806,3.12201
1.37765,0.0202187,2.806,3.12602
1.38676,0.0202187,2.806,3.13004
1.39587,0.0202187,2.806,3.13409
1.40498,0.0202187,2.806,3.13815
1.41408,0.0202187,2.806,3.14224
1.42319,0.0202187,2.806,3.14635
1.44404,0.0203844,2.829,3.1763
1.46555,0.0205574,2.853,3.20747
1.48722,0.0207303,2.877,3.23873
1.49655,0.0207303,2.877,3.24303
1.51845,0.0209032,2.901,3.27444
1.54104,0.0210834,2.926,3.30707
1.55053,0.0210834,2.926,3.31151
1.56003,0.0210834,2.926,3.31596
1.58294,0.0212635,2.951,3.34881
1.59252,0.0212635,2.951,3.35335
1.61621,0.0214508,2.977,3.3875
1.62587,0.0214508,2.977,3.39212
1.63553,0.0214508,2.977,3.39676
1.6452,0.0214508,2.977,3.40142
1.65486,0.0214508,2.977,3.40611
1.66452,0.0214508,2.977,3.41081
1.67419,0.0214508,2.977,3.41554
1.68385,0.0214508,2.977,3.42028
1.69351,0.0214508,2.977,3.42505
1.70317,0.0214508,2.977,3.42984
1.69788,0.0212635,2.951,3.40465
1.70745,0.0212635,2.951,3.40944
1.71703,0.0212635,2.951,3.41424
1.72661,0.0212635,2.951,3.41907
1.75149,0.0214508,2.977,3.45408
1.76115,0.0214508,2.977,3.45899
1.77081,0.0214508,2.977,3.46392
1.78047,0.0214508,2.977,3.46887
1.79014,0.0214508,2.977,3.47384
1.7998,0.0214508,2.977,3.47883
1.79366,0.0212635,2.951,3.45341
1.80324,0.0212635,2.951,3.4584
1.81281,0.0212635,2.951,3.4634
1.82239,0.0212635,2.951,3.46842
1.83197,0.0212635,2.951,3.47347
1.82595,0.0210834,2.926,3.44906
1.80471,0.0207303,2.877,3.39625
1.81405,0.0207303,2.877,3.40122
1.80817,0.0205574,2.853,3.3778
1.78749,0.0202187,2.806,3.32704
1.76779,0.0198944,2.761,3.27851
1.77675,0.0198944,2.761,3.28335
1.75725,0.0195774,2.717,3.2358
1.73877,0.0192748,2.675,3.19051
1.74746,0.0192748,2.675,3.19525
1.72856,0.0189721,2.633,3.14976
1.72392,0.018828,2.613,3.1305
1.7324,0.018828,2.613,3.13517
1.71489,0.018547,2.574,3.09301
1.71053,0.0184101,2.555,3.07478
1.71882,0.0184101,2.555,3.0794
1.70143,0.0181363,2.517,3.03817
1.69737,0.0180066,2.499,3.02099
-1.94661,0.0293237,2.806,3.41523
-1.92163,0.0290833,2.783,3.3821
-1.91259,0.0290833,2.783,3.37697
-1.88851,0.0288534,2.761,3.34521
-1.86457,0.0286235,2.739,3.31354
-1.85568,0.0286235,2.739,3.30855
-1.84679,0.0286235,2.739,3.30357
-1.82314,0.0283936,2.717,3.27212
-1.81432,0.0283936,2.717,3.26721
-1.79155,0.0281742,2.696,3.23711
-1.76891,0.0279547,2.675,3.20709
-1.76023,0.0279547,2.675,3.20231
-1.75155,0.0279547,2.675,3.19755
-1.72918,0.0277353,2.654,3.16774
-1.72057,0.0277353,2.654,3.16304
-1.71195,0.0277353,2.654,3.15837
-1.70334,0.0277353,2.654,3.1537
-1.68132,0.0275158,2.633,3.12414
-1.67277,0.0275158,2.633,3.11955
-1.66422,0.0275158,2.633,3.11498
-1.65568,0.0275158,2.633,3.11042
-1.64713,0.0275158,2.633,3.10588
-1.63858,0.0275158,2.633,3.10136
-1.63004,0.0275158,2.633,3.09685
-1.63443,0.0277353,2.654,3.11702
-1.62581,0.0277353,2.654,3.11251
-1.6172,0.0277353,2.654,3.10802
-1.62131,0.0279547,2.675,3.12811
-1.61263,0.0279547,2.675,3.12362
-1.60395,0.0279547,2.675,3.11914
-1.60779,0.0281742,2.696,3.13914
-1.59904,0.0281742,2.696,3.13467
-1.59029,0.0281742,2.696,3.13021
-1.58154,0.0281742,2.696,3.12577
-1.58504,0.0283936,2.717,3.14567
-1.57622,0.0283936,2.717,3.14123
-1.5674,0.0283936,2.717,3.13682
-1.5712,0.0286235,2.739,3.15779
-1.56231,0.0286235,2.739,3.15337
-1.54094,0.0283936,2.717,3.12368
-1.52028,0.0281742,2.696,3.09523
-1.51153,0.0281742,2.696,3.09094
-1.50278,0.0281742,2.696,3.08667
-1.48239,0.0279547,2.675,3.05841
-1.46214,0.0277353,2.654,3.03024
-1.45353,0.0277353,2.654,3.02609
-1.44491,0.0277353,2.654,3.02196
-1.4363,0.0277353,2.654,3.01785
-1.42768,0.0277353,2.654,3.01376
-1.40784,0.0275158,2.633,2.98588
-1.38867,0.0273068,2.613,2.95921
-1.38019,0.0273068,2.613,2.95524
-1.3717,0.0273068,2.613,2.95129
-1.35279,0.0270978,2.593,2.92479
-1.34437,0.0270978,2.593,2.92091
-1.33596,0.0270978,2.593,2.91705
-1.31781,0.0268992,2.574,2.89186
-1.30946,0.0268992,2.574,2.88806
-1.3011,0.0268992,2.574,2.88428
-1.29275,0.0268992,2.574,2.88052
-1.27491,0.0267007,2.555,2.85555
-1.26662,0.0267007,2.555,2.85185
-1.23961,0.0263036,2.517,2.80582
-1.22264,0.0261154,2.499,2.78218
-1.21453,0.0261154,2.499,2.77862
-1.20641,0.0261154,2.499,2.77509
-1.18967,0.0259273,2.481,2.75161
-1.17305,0.0257392,2.463,2.7282
-1.16505,0.0257392,2.463,2.72477
-1.1486,0.0255511,2.445,2.70147
-1.13274,0.0253735,2.428,2.67935
-1.12485,0.0253735,2.428,2.67603
-1.11697,0.0253735,2.428,2.67272
-1.10133,0.0251958,2.411,2.65075
-1.0935,0.0251958,2.411,2.64751
-1.08568,0.0251958,2.411,2.64429
-1.07785,0.0251958,2.411,2.64108
-1.07003,0.0251958,2.411,2.6379
-1.0622,0.0251958,2.411,2.63473
-1.05437,0.0251958,2.411,2.63159
-1.04655,0.0251958,2.411,2.62846
-1.03872,0.0251958,2.411,2.62536
-1.0309,0.0251958,2.411,2.62227
-1.02307,0.0251958,2.411,2.6192
-1.02241,0.0253735,2.428,2.6346
-1.01452,0.0253735,2.428,2.63156
-1.00664,0.0253735,2.428,2.62853
-0.998763,0.0253735,2.428,2.62552
-0.990883,0.0253735,2.428,2.62253
-0.983002,0.0253735,2.428,2.61957
-0.975121,0.0253735,2.428,2.61662
-0.967241,0.0253735,2.428,2.61369
-0.95936,0.0253735,2.428,2.61079
-0.951479,0.0253735,2.428,2.6079
-0.943599,0.0253735,2.428,2.60504
-0.935718,0.0253735,2.428,2.60219
-0.927837,0.0253735,2.428,2.59937
-0.919957,0.0253735,2.428,2.59656
-0.912076,0.0253735,2.428,2.59378
-0.904195,0.0253735,2.428,2.59102
-0.896315,0.0253735,2.428,2.58828
-0.888434,0.0253735,2.428,2.58556
-0.880553,0.0253735,2.428,2.58287
-0.872672,0.0253735,2.428,2.58019
-0.870847,0.0255511,2.445,2.59558
-0.862911,0.0255511,2.445,2.59293
-0.854975,0.0255511,2.445,2.5903
-0.847039,0.0255511,2.445,2.58769
-0.839103,0.0255511,2.445,2.58511
-0.831167,0.0255511,2.445,2.58254
-0.829292,0.0257392,2.463,2.59899
-0.815296,0.0255511,2.445,2.57748
-0.80736,0.0255511,2.445,2.57498
-0.805309,0.0257392,2.463,2.59144
-0.797315,0.0257392,2.463,2.58897
-0.789321,0.0257392,2.463,2.58651
-0.781326,0.0257392,2.463,2.58409
-0.778984,0.0259273,2.481,2.60055
-0.770931,0.0259273,2.481,2.59815
-0.762878,0.0259273,2.481,2.59577
-0.754826,0.0259273,2.481,2.59341
-0.746773,0.0259273,2.481,2.59108
-0.73872,0.0259273,2.481,2.58877
-0.730668,0.0259273,2.481,2.58649
-0.722615,0.0259273,2.481,2.58422
-0.714562,0.0259273,2.481,2.58198
-0.706509,0.0259273,2.481,2.57977
-0.698457,0.0259273,2.481,2.57757
-0.690404,0.0259273,2.481,2.5754
-0.682351,0.0259273,2.481,2.57325
-0.674299,0.0259273,2.481,2.57113
-0.666246,0.0259273,2.481,2.56903
-0.658193,0.0259273,2.481,2.56695
-0.65014,0.0259273,2.481,2.5649
-0.642088,0.0259273,2.481,2.56287
-0.634035,0.0259273,2.481,2.56087
-0.625982,0.0259273,2.481,2.55888
-0.622413,0.0261154,2.499,2.57548
-0.614302,0.0261154,2.499,2.57353
-0.606191,0.0261154,2.499,2.5716
-0.598079,0.0261154,2.499,2.5697
-0.589968,0.0261154,2.499,2.56783
-0.581857,0.0261154,2.499,2.56598
-0.573746,0.0261154,2.499,2.56415
-0.565635,0.0261154,2.499,2.56235
-0.557524,0.0261154,2.499,2.56057
-0.549413,0.0261154,2.499,2.55882
-0.541301,0.0261154,2.499,2.55709
-0.53319,0.0261154,2.499,2.55538
-0.525079,0.0261154,2.499,2.5537
-0.516968,0.0261154,2.499,2.55205
-0.508857,0.0261154,2.499,2.55042
-0.500746,0.0261154,2.499,2.54881
-0.492635,0.0261154,2.499,2.54723
-0.481034,0.0259273,2.481,2.52734
-0.472981,0.0259273,2.481,2.52582
-0.464928,0.0259273,2.481,2.52432
-0.456875,0.0259273,2.481,2.52285
-0.448823,0.0259273,2.481,2.5214
-0.443968,0.0261154,2.499,2.53827
-0.435857,0.0261154,2.499,2.53686
-0.427746,0.0261154,2.499,2.53548
-0.419634,0.0261154,2.499,2.53412
-0.411523,0.0261154,2.499,2.53279
-0.403412,0.0261154,2.499,2.53149
-0.398148,0.0263036,2.517,2.54843
-0.392923,0.0265021,2.536,2.5664
-0.384691,0.0265021,2.536,2.56515
-0.37646,0.0265021,2.536,2.56393
-0.368229,0.0265021,2.536,2.56273
-0.359998,0.0265021,2.536,2.56156
-0.351766,0.0265021,2.536,2.56042
-0.343535,0.0265021,2.536,2.5593
-0.335304,0.0265021,2.536,2.55821
-0.327073,0.0265021,2.536,2.55714
-0.318842,0.0265021,2.536,2.5561
-0.31061,0.0265021,2.536,2.55509
-0.302379,0.0265021,2.536,2.5541
-0.294148,0.0265021,2.536,2.55314
-0.285917,0.0265021,2.536,2.5522
-0.277685,0.0265021,2.536,2.5513
-0.269454,0.0265021,2.536,2.55041
-0.26318,0.0267007,2.555,2.56866
-0.254887,0.0267007,2.555,2.56782
-0.246594,0.0267007,2.555,2.56701
-0.238301,0.0267007,2.555,2.56623
-0.230009,0.0267007,2.555,2.56547
-0.221716,0.0267007,2.555,2.56474
-0.213423,0.0267007,2.555,2.56404
-0.20513,0.0267007,2.555,2.56336
-0.196837,0.0267007,2.555,2.56271
-0.188544,0.0267007,2.555,2.56209
-0.181592,0.0268992,2.574,2.58054
-0.173237,0.0268992,2.574,2.57996
-0.163665,0.0267007,2.555,2.56038
-0.155372,0.0267007,2.555,2.55986
-0.14708,0.0267007,2.555,2.55937
-0.138787,0.0267007,2.555,2.55891
-0.130494,0.0267007,2.555,2.55847
-0.122201,0.0267007,2.555,2.55806
-0.113908,0.0267007,2.555,2.55768
-0.105615,0.0267007,2.555,2.55732
-0.0980459,0.0268992,2.574,2.57601
-0.0896914,0.0268992,2.574,2.5757
-0.0813368,0.0268992,2.574,2.57543
-0.0729822,0.0268992,2.574,2.57518
-0.0646277,0.0268992,2.574,2.57495
-0.0562731,0.0268992,2.574,2.57476
-0.0475648,0.0267007,2.555,2.55558
-0.0392719,0.0267007,2.555,2.55544
-0.030979,0.0267007,2.555,2.55533
-0.0226861,0.0267007,2.555,2.55524
-0.0143932,0.0267007,2.555,2.55518
-0.00610034,0.0267007,2.555,2.55515
0.00219255,0.0267007,2.555,2.55514
0.0104075,0.0265021,2.536,2.53616
0.0186387,0.0265021,2.536,2.53621
0.0268699,0.0265021,2.536,2.53628
0.0351011,0.0265021,2.536,2.53638
0.0433324,0.0265021,2.536,2.53651
0.0515636,0.0265021,2.536,2.53666
0.0597948,0.0265021,2.536,2.53684
0.0680261,0.0265021,2.536,2.53705
0.0762573,0.0265021,2.536,2.53728
0.0844885,0.0265021,2.536,2.53755
0.0927197,0.0265021,2.536,2.53783
0.100951,0.0265021,2.536,2.53815
0.109182,0.0265021,2.536,2.53849
0.117413,0.0265021,2.536,2.53885
0.125645,0.0265021,2.536,2.53925
0.132873,0.0263036,2.517,2.52064
0.141042,0.0263036,2.517,2.52109
0.149212,0.0263036,2.517,2.52156
0.157382,0.0263036,2.517,2.52205
0.164367,0.0261154,2.499,2.50454
0.172478,0.0261154,2.499,2.50508
0.180589,0.0261154,2.499,2.50565
0.19006,0.0263036,2.517,2.5243
0.198229,0.0263036,2.517,2.52493
0.206399,0.0263036,2.517,2.52559
0.214568,0.0263036,2.517,2.52627
0.222738,0.0263036,2.517,2.52697
0.230908,0.0263036,2.517,2.52771
0.239077,0.0263036,2.517,2.52847
0.249113,0.0265021,2.536,2.54834
nan,nan,nan,NaN
nan,nan,nan,NaN
nan,nan,nan,NaN
nan,nan,nan,NaN
nan,nan,nan,NaN
nan,nan,nan,NaN
nan,nan,nan,NaN
nan,nan,nan,NaN
nan,nan,nan,NaN
nan,nan,nan,NaN
nan,nan,nan,NaN
nan,nan,nan,NaN
nan,nan,nan,NaN
nan,nan,nan,NaN
nan,nan,nan,NaN
nan,nan,nan,NaN
nan,nan,nan,NaN
nan,nan,nan,NaN
nan,nan,nan,NaN
nan,nan,nan,NaN
nan,nan,nan,NaN
nan,nan,nan,NaN
nan,nan,nan,NaN
nan,nan,nan,NaN
nan,nan,nan,NaN
nan,nan,nan,NaN
nan,nan,nan,NaN
nan,nan,nan,NaN
nan,nan,nan,NaN
nan,nan,nan,NaN
nan,nan,nan,NaN
nan,nan,nan,NaN
nan,nan,nan,NaN
nan,nan,nan,NaN
nan,nan,nan,NaN
nan,nan,nan,NaN
nan,nan,nan,NaN
nan,nan,nan,NaN
nan,nan,nan,NaN
nan,nan,nan,NaN
nan,nan,nan,NaN
nan,nan,nan,NaN
nan,nan,nan,NaN
nan,nan,nan,NaN
nan,nan,nan,NaN
0.627749,0.0265021,2.536,2.61267
0.635981,0.0265021,2.536,2.61466
0.644212,0.0265021,2.536,2.61668
0.652443,0.0265021,2.536,2.61872
nan,nan,nan,NaN
0.668906,0.0265021,2.536,2.62287
0.677137,0.0265021,2.536,2.62498
0.695638,0.0268992,2.574,2.66648
0.703992,0.0268992,2.574,2.66867
0.712347,0.0268992,2.574,2.67089
0.720701,0.0268992,2.574,2.67313
0.729056,0.0268992,2.574,2.67539
0.737411,0.0268992,2.574,2.67768
0.745765,0.0268992,2.574,2.67999
0.75412,0.0268992,2.574,2.68233
0.762474,0.0268992,2.574,2.68469
0.770829,0.0268992,2.574,2.68708
0.779183,0.0268992,2.574,2.68948
0.787538,0.0268992,2.574,2.69192
0.795892,0.0268992,2.574,2.69437
0.798311,0.0267007,2.555,2.67695
0.806603,0.0267007,2.555,2.67943
0.814896,0.0267007,2.555,2.68194
0.817068,0.0265021,2.536,2.66451
0.825299,0.0265021,2.536,2.66704
0.83353,0.0265021,2.536,2.6696
0.841761,0.0265021,2.536,2.67218
0.849993,0.0265021,2.536,2.67479
0.851794,0.0263036,2.517,2.65735
0.853814,0.0261154,2.499,2.64096
0.861925,0.0261154,2.499,2.6436
0.870036,0.0261154,2.499,2.64625
0.871822,0.0259273,2.481,2.62985
0.879874,0.0259273,2.481,2.63253
0.887927,0.0259273,2.481,2.63523
0.889479,0.0257392,2.463,2.61882
0.897474,0.0257392,2.463,2.62154
0.905468,0.0257392,2.463,2.62429
0.913462,0.0257392,2.463,2.62706
0.914722,0.0255511,2.445,2.61063
0.922658,0.0255511,2.445,2.61342
0.930594,0.0255511,2.445,2.61623
0.93853,0.0255511,2.445,2.61907
0.946466,0.0255511,2.445,2.62192
0.954402,0.0255511,2.445,2.6248
0.955646,0.0253735,2.428,2.60942
0.963527,0.0253735,2.428,2.61232
0.971408,0.0253735,2.428,2.61524
0.979289,0.0253735,2.428,2.61817
0.987169,0.0253735,2.428,2.62113
1.00202,0.0255511,2.445,2.64248
1.00995,0.0255511,2.445,2.6455
1.02538,0.0257392,2.463,2.66804
1.03338,0.0257392,2.463,2.67112
1.04137,0.0257392,2.463,2.67423
1.04937,0.0257392,2.463,2.67735
1.07281,0.0261154,2.499,2.71967
1.08093,0.0261154,2.499,2.72288
1.09688,0.0263036,2.517,2.74575
1.12173,0.0267007,2.555,2.79052
1.14683,0.0270978,2.593,2.83542
1.15525,0.0270978,2.593,2.83884
1.17264,0.0273068,2.613,2.86419
1.19965,0.0277353,2.654,2.91267
1.20827,0.0277353,2.654,2.91623
1.23614,0.0281742,2.696,2.96602
1.26475,0.0286235,2.739,3.01704
1.27364,0.0286235,2.739,3.02078
1.29283,0.0288534,2.761,3.04883
1.30179,0.0288534,2.761,3.05264
1.31075,0.0288534,2.761,3.05647
1.31971,0.0288534,2.761,3.06033
1.32867,0.0288534,2.761,3.0642
1.34829,0.0290833,2.783,3.09254
1.35733,0.0290833,2.783,3.09649
1.35556,0.0288534,2.761,3.07595
1.36452,0.0288534,2.761,3.07991
1.37348,0.0288534,2.761,3.08389
1.38244,0.0288534,2.761,3.0879
1.40249,0.0290833,2.783,3.11656
1.41152,0.0290833,2.783,3.12063
1.4323,0.0293237,2.806,3.15055
1.45322,0.0295641,2.829,3.18056
1.47481,0.0298149,2.853,3.21178
1.48407,0.0298149,2.853,3.21605
1.50589,0.0300657,2.877,3.24742
1.52787,0.0303165,2.901,3.27889
1.53729,0.0303165,2.901,3.28329
1.56003,0.0305777,2.926,3.31604
1.58294,0.030839,2.951,3.34889
1.59252,0.030839,2.951,3.35343
1.60209,0.030839,2.951,3.35798
1.62587,0.0311107,2.977,3.39219
1.63553,0.0311107,2.977,3.39683
1.6452,0.0311107,2.977,3.4015
1.65486,0.0311107,2.977,3.40618
1.66452,0.0311107,2.977,3.41088
1.67419,0.0311107,2.977,3.41561
1.68385,0.0311107,2.977,3.42036
1.69351,0.0311107,2.977,3.42512
1.70317,0.0311107,2.977,3.42991
1.71284,0.0311107,2.977,3.43472
1.7225,0.0311107,2.977,3.43955
1.73216,0.0311107,2.977,3.4444
1.74182,0.0311107,2.977,3.44927
1.75149,0.0311107,2.977,3.45416
1.77653,0.0313824,3.003,3.48928
1.78628,0.0313824,3.003,3.49425
1.78047,0.0311107,2.977,3.46895
1.79014,0.0311107,2.977,3.47392
1.7998,0.0311107,2.977,3.4789
1.79366,0.030839,2.951,3.45349
1.80324,0.030839,2.951,3.45847
1.81281,0.030839,2.951,3.46347
1.80695,0.0305777,2.926,3.43911
1.81645,0.0305777,2.926,3.44411
1.81035,0.0303165,2.901,3.41966
1.80471,0.0300657,2.877,3.39632
1.81405,0.0300657,2.877,3.40129
1.79296,0.0295641,2.829,3.34945
1.77284,0.0290833,2.783,3.29983
1.76779,0.0288534,2.761,3.27857
1.77675,0.0288534,2.761,3.28341
1.75725,0.0283936,2.717,3.23587
1.73877,0.0279547,2.675,3.19057
1.74746,0.0279547,2.675,3.19531
1.72856,0.0275158,2.633,3.14982
1.72392,0.0273068,2.613,3.13056
1.7324,0.0273068,2.613,3.13524
1.71489,0.0268992,2.574,3.09307
1.71053,0.0267007,2.555,3.07484
1.71882,0.0267007,2.555,3.07946
1.70143,0.0263036,2.517,3.03823
1.69737,0.0261154,2.499,3.02105
-1.94661,0.0384287,2.806,3.41532
-1.92163,0.0381137,2.783,3.38219
-1.91259,0.0381137,2.783,3.37706
-1.88851,0.0378124,2.761,3.3453
-1.86457,0.0375111,2.739,3.31363
-1.85568,0.0375111,2.739,3.30864
-1.84679,0.0375111,2.739,3.30366
-1.82314,0.0372098,2.717,3.2722
-1.81432,0.0372098,2.717,3.2673
-1.79155,0.0369222,2.696,3.23719
-1.76891,0.0366346,2.675,3.20718
-1.76023,0.0366346,2.675,3.2024
-1.75155,0.0366346,2.675,3.19764
-1.72918,0.036347,2.654,3.16782
-1.72057,0.036347,2.654,3.16313
-1.71195,0.036347,2.654,3.15845
-1.70334,0.036347,2.654,3.15379
-1.68132,0.0360594,2.633,3.12423
-1.67277,0.0360594,2.633,3.11964
-1.66422,0.0360594,2.633,3.11506
-1.65568,0.0360594,2.633,3.11051
-1.64713,0.0360594,2.633,3.10597
-1.63858,0.0360594,2.633,3.10144
-1.63004,0.0360594,2.633,3.09694
-1.63443,0.036347,2.654,3.11711
-1.62581,0.036347,2.654,3.1126
-1.6172,0.036347,2.654,3.10811
-1.62131,0.0366346,2.675,3.1282
-1.61263,0.0366346,2.675,3.12371
-1.60395,0.0366346,2.675,3.11923
-1.60779,0.0369222,2.696,3.13923
-1.59904,0.0369222,2.696,3.13476
-1.59029,0.0369222,2.696,3.1303
-1.58154,0.0369222,2.696,3.12587
-1.58504,0.0372098,2.717,3.14576
-1.57622,0.0372098,2.717,3.14133
-1.5674,0.0372098,2.717,3.13691
-1.5712,0.0375111,2.739,3.15788
-1.56231,0.0375111,2.739,3.15346
-1.54094,0.0372098,2.717,3.12378
-1.52028,0.0369222,2.696,3.09532
-1.51153,0.0369222,2.696,3.09104
-1.50278,0.0369222,2.696,3.08677
-1.48239,0.0366346,2.675,3.05851
-1.46214,0.036347,2.654,3.03033
-1.45353,0.036347,2.654,3.02618
-1.43348,0.0360594,2.633,2.99814
-1.42493,0.0360594,2.633,2.99407
-1.41639,0.0360594,2.633,2.99001
-1.38645,0.0355116,2.593,2.94061
-1.37804,0.0355116,2.593,2.93665
-1.36962,0.0355116,2.593,2.93271
-1.35123,0.0352514,2.574,2.90733
-1.34288,0.0352514,2.574,2.90345
-1.32467,0.0349912,2.555,2.87819
-1.31638,0.0349912,2.555,2.87439
-1.29836,0.034731,2.536,2.84925
-1.29013,0.034731,2.536,2.84551
-1.2819,0.034731,2.536,2.84179
-1.27366,0.034731,2.536,2.83808
-1.25595,0.0344708,2.517,2.81316
-1.24778,0.0344708,2.517,2.80953
-1.23075,0.0342243,2.499,2.78584
-1.22264,0.0342243,2.499,2.78227
-1.21453,0.0342243,2.499,2.77871
-1.19772,0.0339778,2.481,2.75519
-1.18104,0.0337313,2.463,2.73173
-1.16447,0.0334848,2.445,2.70835
-1.15654,0.0334848,2.445,2.70494
-1.1486,0.0334848,2.445,2.70156
-1.13274,0.0332519,2.428,2.67944
-1.12485,0.0332519,2.428,2.67611
-1.11697,0.0332519,2.428,2.67281
-1.10133,0.0330191,2.411,2.65084
-1.0935,0.0330191,2.411,2.64759
-1.08568,0.0330191,2.411,2.64437
-1.07785,0.0330191,2.411,2.64117
-1.07003,0.0330191,2.411,2.63799
-1.0622,0.0330191,2.411,2.63482
-1.05437,0.0330191,2.411,2.63168
-1.04655,0.0330191,2.411,2.62855
-1.03872,0.0330191,2.411,2.62544
-1.0309,0.0330191,2.411,2.62236
-1.02307,0.0330191,2.411,2.61929
-1.02241,0.0332519,2.428,2.63469
-1.01452,0.0332519,2.428,2.63164
-1.00664,0.0332519,2.428,2.62862
-0.998763,0.0332519,2.428,2.62561
-0.990883,0.0332519,2.428,2.62262
-0.983002,0.0332519,2.428,2.61965
-0.975121,0.0332519,2.428,2.61671
-0.967241,0.0332519,2.428,2.61378
-0.95936,0.0332519,2.428,2.61087
-0.951479,0.0332519,2.428,2.60799
-0.943599,0.0332519,2.428,2.60512
-0.935718,0.0332519,2.428,2.60228
-0.927837,0.0332519,2.428,2.59946
-0.919957,0.0332519,2.428,2.59665
-0.912076,0.0332519,2.428,2.59387
-0.904195,0.0332519,2.428,2.59111
-0.896315,0.0332519,2.428,2.58837
-0.888434,0.0332519,2.428,2.58565
-0.880553,0.0332519,2.428,2.58296
-0.872672,0.0332519,2.428,2.58028
-0.864792,0.0332519,2.428,2.57763
-0.856911,0.0332519,2.428,2.57499
-0.84903,0.0332519,2.428,2.57238
-0.847039,0.0334848,2.445,2.58778
-0.839103,0.0334848,2.445,2.5852
-0.831167,0.0334848,2.445,2.58263
-0.823232,0.0334848,2.445,2.58009
-0.815296,0.0334848,2.445,2.57757
-0.80736,0.0334848,2.445,2.57507
-0.805309,0.0337313,2.463,2.59153
-0.797315,0.0337313,2.463,2.58906
-0.789321,0.0337313,2.463,2.58661
-0.781326,0.0337313,2.463,2.58418
-0.773332,0.0337313,2.463,2.58177
-0.765338,0.0337313,2.463,2.57939
-0.757344,0.0337313,2.463,2.57703
-0.754826,0.0339778,2.481,2.59351
-0.746773,0.0339778,2.481,2.59117
-0.73872,0.0339778,2.481,2.58887
-0.730668,0.0339778,2.481,2.58658
-0.722615,0.0339778,2.481,2.58432
-0.714562,0.0339778,2.481,2.58208
-0.706509,0.0339778,2.481,2.57986
-0.698457,0.0339778,2.481,2.57767
-0.690404,0.0339778,2.481,2.5755
-0.682351,0.0339778,2.481,2.57335
-0.674299,0.0339778,2.481,2.57122
-0.666246,0.0339778,2.481,2.56912
-0.658193,0.0339778,2.481,2.56705
-0.65014,0.0339778,2.481,2.565
-0.646746,0.0342243,2.499,2.58156
-0.638635,0.0342243,2.499,2.57954
-0.630524,0.0342243,2.499,2.57754
-0.622413,0.0342243,2.499,2.57557
-0.614302,0.0342243,2.499,2.57362
-0.606191,0.0342243,2.499,2.5717
-0.598079,0.0342243,2.499,2.5698
-0.589968,0.0342243,2.499,2.56792
-0.581857,0.0342243,2.499,2.56607
-0.573746,0.0342243,2.499,2.56425
-0.565635,0.0342243,2.499,2.56244
-0.557524,0.0342243,2.499,2.56067
-0.549413,0.0342243,2.499,2.55891
-0.541301,0.0342243,2.499,2.55718
-0.53319,0.0342243,2.499,2.55548
-0.525079,0.0342243,2.499,2.5538
-0.516968,0.0342243,2.499,2.55214
-0.508857,0.0342243,2.499,2.55051
-0.497139,0.0339778,2.481,2.53055
-0.489086,0.0339778,2.481,2.52898
-0.481034,0.0339778,2.481,2.52743
-0.472981,0.0339778,2.481,2.52591
-0.464928,0.0339778,2.481,2.52442
-0.46019,0.0342243,2.499,2.54125
-0.452079,0.0342243,2.499,2.53979
-0.443968,0.0342243,2.499,2.53836
-0.435857,0.0342243,2.499,2.53696
-0.427746,0.0342243,2.499,2.53557
-0.419634,0.0342243,2.499,2.53422
-0.411523,0.0342243,2.499,2.53289
-0.403412,0.0342243,2.499,2.53158
-0.398148,0.0344708,2.517,2.54853
-0.389979,0.0344708,2.517,2.54727
-0.384691,0.034731,2.536,2.56525
-0.37646,0.034731,2.536,2.56403
-0.368229,0.034731,2.536,2.56283
-0.359998,0.034731,2.536,2.56166
-0.351766,0.034731,2.536,2.56052
-0.343535,0.034731,2.536,2.5594
-0.335304,0.034731,2.536,2.55831
-0.327073,0.034731,2.536,2.55724
-0.318842,0.034731,2.536,2.5562
-0.31061,0.034731,2.536,2.55519
-0.302379,0.034731,2.536,2.5542
-0.294148,0.034731,2.536,2.55324
-0.285917,0.034731,2.536,2.5523
-0.277685,0.034731,2.536,2.55139
-0.269454,0.034731,2.536,2.55051
-0.26318,0.0349912,2.555,2.56876
-0.254887,0.0349912,2.555,2.56792
-0.246594,0.0349912,2.555,2.56711
-0.240074,0.0352514,2.574,2.58541
-0.231719,0.0352514,2.574,2.58465
-0.223364,0.0352514,2.574,2.58391
-0.213423,0.0349912,2.555,2.56414
-0.20513,0.0349912,2.555,2.56346
-0.198301,0.0352514,2.574,2.58187
-0.189946,0.0352514,2.574,2.58124
-0.181592,0.0352514,2.574,2.58064
-0.173237,0.0352514,2.574,2.58006
-0.163665,0.0349912,2.555,2.56048
-0.155372,0.0349912,2.555,2.55996
-0.14708,0.0349912,2.555,2.55947
-0.138787,0.0349912,2.555,2.55901
-0.130494,0.0349912,2.555,2.55857
-0.122201,0.0349912,2.555,2.55816
-0.113908,0.0349912,2.555,2.55778
-0.105615,0.0349912,2.555,2.55742
-0.0980459,0.0352514,2.574,2.57611
-0.0896914,0.0352514,2.574,2.5758
-0.0813368,0.0352514,2.574,2.57553
-0.0729822,0.0352514,2.574,2.57528
-0.0646277,0.0352514,2.574,2.57505
-0.0562731,0.0352514,2.574,2.57486
-0.0479185,0.0352514,2.574,2.57469
-0.039564,0.0352514,2.574,2.57455
-0.030979,0.0349912,2.555,2.55543
-0.0226861,0.0349912,2.555,2.55534
-0.0143932,0.0349912,2.555,2.55528
-0.00610034,0.0349912,2.555,2.55525
0.00219255,0.0349912,2.555,2.55524
0.0104075,0.034731,2.536,2.53626
0.0186387,0.034731,2.536,2.53631
0.0268699,0.034731,2.536,2.53638
0.0351011,0.034731,2.536,2.53648
0.0433324,0.034731,2.536,2.53661
0.0515636,0.034731,2.536,2.53676
0.0597948,0.034731,2.536,2.53694
0.0680261,0.034731,2.536,2.53715
0.0762573,0.034731,2.536,2.53738
0.0844885,0.034731,2.536,2.53764
0.0927197,0.034731,2.536,2.53793
0.100951,0.034731,2.536,2.53825
0.109182,0.034731,2.536,2.53859
0.116534,0.0344708,2.517,2.51993
0.124703,0.0344708,2.517,2.52032
0.132873,0.0344708,2.517,2.52074
0.141042,0.0344708,2.517,2.52118
0.149212,0.0344708,2.517,2.52165
0.156256,0.0342243,2.499,2.50411
0.164367,0.0342243,2.499,2.50463
0.172478,0.0342243,2.499,2.50518
0.180589,0.0342243,2.499,2.50575
0.19006,0.0344708,2.517,2.5244
0.198229,0.0344708,2.517,2.52503
0.206399,0.0344708,2.517,2.52568
0.214568,0.0344708,2.517,2.52636
0.222738,0.0344708,2.517,2.52707
0.230908,0.0344708,2.517,2.5278
0.239077,0.0344708,2.517,2.52856
0.247247,0.0344708,2.517,2.52935
nan,nan,nan,NaN
nan,nan,nan,NaN
nan,nan,nan,NaN
nan,nan,nan,NaN
nan,nan,nan,NaN
nan,nan,nan,NaN
nan,nan,nan,NaN
nan,nan,nan,NaN
nan,nan,nan,NaN
nan,nan,nan,NaN
nan,nan,nan,NaN
nan,nan,nan,NaN
nan,nan,nan,NaN
nan,nan,nan,NaN
nan,nan,nan,NaN
nan,nan,nan,NaN
nan,nan,nan,NaN
nan,nan,nan,NaN
nan,nan,nan,NaN
nan,nan,nan,NaN
nan,nan,nan,NaN
nan,nan,nan,NaN
nan,nan,nan,NaN
nan,nan,nan,NaN
nan,nan,nan,NaN
nan,nan,nan,NaN
nan,nan,nan,NaN
nan,nan,nan,NaN
nan,nan,nan,NaN
nan,nan,nan,NaN
nan,nan,nan,NaN
nan,nan,nan,NaN
nan,nan,nan,NaN
nan,nan,nan,NaN
nan,nan,nan,NaN
nan,nan,nan,NaN
nan,nan,nan,NaN
nan,nan,nan,NaN
nan,nan,nan,NaN
nan,nan,nan,NaN
nan,nan,nan,NaN
nan,nan,nan,NaN
nan,nan,nan,NaN
nan,nan,nan,NaN
nan,nan,nan,NaN
nan,nan,nan,NaN
nan,nan,nan,NaN
0.639385,0.0344708,2.517,2.59717
0.647555,0.0344708,2.517,2.59919
nan,nan,nan,NaN
0.663894,0.0344708,2.517,2.60331
0.672064,0.0344708,2.517,2.60541
0.690503,0.0349912,2.555,2.64689
0.698796,0.0349912,2.555,2.64907
0.707089,0.0349912,2.555,2.65127
0.720701,0.0352514,2.574,2.67322
0.729056,0.0352514,2.574,2.67549
0.737411,0.0352514,2.574,2.67778
0.745765,0.0352514,2.574,2.68009
0.75412,0.0352514,2.574,2.68243
0.762474,0.0352514,2.574,2.68479
0.770829,0.0352514,2.574,2.68717
0.779183,0.0352514,2.574,2.68958
0.787538,0.0352514,2.574,2.69201
0.795892,0.0352514,2.574,2.69447
0.798311,0.0349912,2.555,2.67704
0.806603,0.0349912,2.555,2.67953
0.808836,0.034731,2.536,2.66209
0.817068,0.034731,2.536,2.6646
0.825299,0.034731,2.536,2.66714
0.83353,0.034731,2.536,2.6697
0.841761,0.034731,2.536,2.67228
0.849993,0.034731,2.536,2.67488
0.851794,0.0344708,2.517,2.65745
0.859963,0.0344708,2.517,2.66008
0.868133,0.0344708,2.517,2.66273
0.870036,0.0342243,2.499,2.64634
0.871822,0.0339778,2.481,2.62994
0.879874,0.0339778,2.481,2.63262
0.887927,0.0339778,2.481,2.63532
0.89598,0.0339778,2.481,2.63805
0.897474,0.0337313,2.463,2.62163
0.905468,0.0337313,2.463,2.62438
0.913462,0.0337313,2.463,2.62715
0.921457,0.0337313,2.463,2.62994
0.929451,0.0337313,2.463,2.63275
0.937445,0.0337313,2.463,2.63559
0.93853,0.0334848,2.445,2.61916
0.946466,0.0334848,2.445,2.62201
0.954402,0.0334848,2.445,2.62489
0.962338,0.0334848,2.445,2.62778
0.970273,0.0334848,2.445,2.6307
0.978209,0.0334848,2.445,2.63364
0.986145,0.0334848,2.445,2.63659
0.994081,0.0334848,2.445,2.63957
1.00202,0.0334848,2.445,2.64257
1.00995,0.0334848,2.445,2.64559
1.02538,0.0337313,2.463,2.66813
1.03338,0.0337313,2.463,2.67121
1.04137,0.0337313,2.463,2.67431
1.04937,0.0337313,2.463,2.67744
1.07281,0.0342243,2.499,2.71976
1.08093,0.0342243,2.499,2.72297
1.09688,0.0344708,2.517,2.74584
1.11339,0.034731,2.536,2.76986
1.13843,0.0352514,2.574,2.81474
1.14678,0.0352514,2.574,2.81813
1.17264,0.0357855,2.613,2.86429
1.19965,0.036347,2.654,2.91277
1.20827,0.036347,2.654,2.91633
1.23614,0.0369222,2.696,2.96611
1.26475,0.0375111,2.739,3.01714
1.27364,0.0375111,2.739,3.02087
1.29283,0.0378124,2.761,3.04893
1.30179,0.0378124,2.761,3.05274
1.31075,0.0378124,2.761,3.05657
1.31971,0.0378124,2.761,3.06042
1.32867,0.0378124,2.761,3.0643
1.34829,0.0381137,2.783,3.09264
1.35733,0.0381137,2.783,3.09659
1.35556,0.0378124,2.761,3.07605
1.36452,0.0378124,2.761,3.08001
1.37348,0.0378124,2.761,3.08399
1.38244,0.0378124,2.761,3.08799
1.40249,0.0381137,2.783,3.11665
1.41152,0.0381137,2.783,3.12073
1.4323,0.0384287,2.806,3.15065
1.45322,0.0387437,2.829,3.18066
1.47481,0.0390724,2.853,3.21188
1.48407,0.0390724,2.853,3.21615
1.50589,0.0394011,2.877,3.24752
1.52787,0.0397298,2.901,3.27899
1.53729,0.0397298,2.901,3.28339
1.56003,0.0400721,2.926,3.31614
1.58294,0.0404145,2.951,3.34899
1.59252,0.0404145,2.951,3.35353
1.60209,0.0404145,2.951,3.35809
1.62587,0.0407706,2.977,3.39229
1.63553,0.0407706,2.977,3.39693
1.6452,0.0407706,2.977,3.4016
1.65486,0.0407706,2.977,3.40628
1.66452,0.0407706,2.977,3.41099
1.67419,0.0407706,2.977,3.41571
1.69855,0.0411267,3.003,3.45033
1.7083,0.0411267,3.003,3.45514
1.71805,0.0411267,3.003,3.45997
1.72779,0.0411267,3.003,3.46482
1.73754,0.0411267,3.003,3.46969
1.74729,0.0411267,3.003,3.47458
1.75704,0.0411267,3.003,3.47949
1.76678,0.0411267,3.003,3.48443
1.77653,0.0411267,3.003,3.48938
1.78628,0.0411267,3.003,3.49435
1.78047,0.0407706,2.977,3.46905
1.79014,0.0407706,2.977,3.47401
1.7998,0.0407706,2.977,3.479
1.79366,0.0404145,2.951,3.45358
1.80324,0.0404145,2.951,3.45857
1.81281,0.0404145,2.951,3.46357
1.80695,0.0400721,2.926,3.43921
1.81645,0.0400721,2.926,3.44421
1.81035,0.0397298,2.901,3.41976
1.80471,0.0394011,2.877,3.39642
1.81405,0.0394011,2.877,3.40139
1.79296,0.0387437,2.829,3.34955
1.77284,0.0381137,2.783,3.29993
1.76779,0.0378124,2.761,3.27866
1.77675,0.0378124,2.761,3.2835
1.75725,0.0372098,2.717,3.23596
1.73877,0.0366346,2.675,3.19066
1.74746,0.0366346,2.675,3.1954
1.72856,0.0360594,2.633,3.14991
1.71072,0.0355116,2.593,3.10668
1.71914,0.0355116,2.593,3.11133
1.71489,0.0352514,2.574,3.09315
1.71053,0.0349912,2.555,3.07492
1.71882,0.0349912,2.555,3.07955
1.70143,0.0344708,2.517,3.03831
1.69737,0.0342243,2.499,3.02113
-1.93066,0.0471441,2.783,3.38744
-1.92163,0.0471441,2.783,3.3823
-1.91259,0.0471441,2.783,3.37718
-1.88851,0.0467714,2.761,3.34541
-1.86457,0.0463987,2.739,3.31375
-1.85568,0.0463987,2.739,3.30875
-1.83196,0.0460261,2.717,3.27724
-1.82314,0.0460261,2.717,3.27232
-1.81432,0.0460261,2.717,3.26741
-1.79155,0.0456703,2.696,3.23731
-1.76891,0.0453146,2.675,3.20729
-1.76023,0.0453146,2.675,3.20251
-1.75155,0.0453146,2.675,3.19775
-1.72918,0.0449588,2.654,3.16793
-1.72057,0.0449588,2.654,3.16324
-1.71195,0.0449588,2.654,3.15856
-1.68986,0.0446031,2.633,3.12895
-1.68132,0.0446031,2.633,3.12434
-1.67277,0.0446031,2.633,3.11975
-1.66422,0.0446031,2.633,3.11518
-1.65568,0.0446031,2.633,3.11062
-1.64713,0.0446031,2.633,3.10608
-1.63858,0.0446031,2.633,3.10155
-1.63004,0.0446031,2.633,3.09705
-1.62149,0.0446031,2.633,3.09256
-1.61295,0.0446031,2.633,3.08809
-1.6044,0.0446031,2.633,3.08363
-1.59585,0.0446031,2.633,3.07919
-1.59997,0.0449588,2.654,3.0993
-1.59135,0.0449588,2.654,3.09486
-1.59526,0.0453146,2.675,3.11489
-1.58658,0.0453146,2.675,3.11045
-1.5779,0.0453146,2.675,3.10603
-1.56922,0.0453146,2.675,3.10163
-1.57278,0.0456703,2.696,3.12156
-1.56403,0.0456703,2.696,3.11716
-1.55528,0.0456703,2.696,3.11278
-1.54653,0.0456703,2.696,3.10842
-1.53778,0.0456703,2.696,3.10407
-1.52903,0.0456703,2.696,3.09975
-1.52028,0.0456703,2.696,3.09544
-1.49976,0.0453146,2.675,3.06708
-1.49107,0.0453146,2.675,3.06284
-1.48239,0.0453146,2.675,3.05862
-1.46214,0.0449588,2.654,3.03044
-1.45353,0.0449588,2.654,3.0263
-1.43348,0.0446031,2.633,2.99826
-1.41411,0.0442643,2.613,2.97144
-1.40563,0.0442643,2.613,2.96741
-1.37629,0.0436036,2.574,2.91917
-1.35784,0.0432818,2.555,2.89372
-1.34955,0.0432818,2.555,2.88984
-1.33128,0.0429599,2.536,2.86452
-1.32305,0.0429599,2.536,2.8607
-1.30497,0.0426381,2.517,2.8355
-1.2968,0.0426381,2.517,2.83175
-1.28863,0.0426381,2.517,2.82802
-1.28046,0.0426381,2.517,2.8243
-1.27229,0.0426381,2.517,2.82061
-1.25508,0.0423331,2.499,2.79679
-1.24697,0.0423331,2.499,2.79316
-1.23886,0.0423331,2.499,2.78955
-1.22188,0.0420282,2.481,2.76589
-1.21383,0.0420282,2.481,2.76234
-1.20578,0.0420282,2.481,2.75881
-1.18904,0.0417233,2.463,2.73531
-1.18104,0.0417233,2.463,2.73184
-1.16447,0.0414184,2.445,2.70846
-1.15654,0.0414184,2.445,2.70505
-1.1486,0.0414184,2.445,2.70167
-1.13274,0.0411304,2.428,2.67955
-1.12485,0.0411304,2.428,2.67622
-1.11697,0.0411304,2.428,2.67292
-1.10909,0.0411304,2.428,2.66964
-1.10121,0.0411304,2.428,2.66637
-1.09333,0.0411304,2.428,2.66313
-1.07785,0.0408424,2.411,2.64128
-1.07003,0.0408424,2.411,2.63809
-1.0622,0.0408424,2.411,2.63493
-1.05437,0.0408424,2.411,2.63179
-1.04655,0.0408424,2.411,2.62866
-1.03872,0.0408424,2.411,2.62555
-1.0309,0.0408424,2.411,2.62247
-1.03029,0.0411304,2.428,2.63787
-1.02241,0.0411304,2.428,2.6348
-1.01452,0.0411304,2.428,2.63176
-1.00664,0.0411304,2.428,2.62873
-0.998763,0.0411304,2.428,2.62572
-0.990883,0.0411304,2.428,2.62273
-0.983002,0.0411304,2.428,2.61977
-0.975121,0.0411304,2.428,2.61682
-0.967241,0.0411304,2.428,2.61389
-0.95936,0.0411304,2.428,2.61099
-0.951479,0.0411304,2.428,2.6081
-0.943599,0.0411304,2.428,2.60524
-0.935718,0.0411304,2.428,2.60239
-0.927837,0.0411304,2.428,2.59957
-0.919957,0.0411304,2.428,2.59677
-0.912076,0.0411304,2.428,2.59399
-0.904195,0.0411304,2.428,2.59122
-0.896315,0.0411304,2.428,2.58849
-0.888434,0.0411304,2.428,2.58577
-0.880553,0.0411304,2.428,2.58307
-0.872672,0.0411304,2.428,2.58039
-0.864792,0.0411304,2.428,2.57774
-0.856911,0.0411304,2.428,2.57511
-0.84903,0.0411304,2.428,2.57249
-0.84115,0.0411304,2.428,2.5699
-0.833269,0.0411304,2.428,2.56734
-0.825388,0.0411304,2.428,2.56479
-0.823232,0.0414184,2.445,2.5802
-0.815296,0.0414184,2.445,2.57768
-0.80736,0.0414184,2.445,2.57518
-0.805309,0.0417233,2.463,2.59165
-0.797315,0.0417233,2.463,2.58917
-0.789321,0.0417233,2.463,2.58672
-0.781326,0.0417233,2.463,2.5843
-0.773332,0.0417233,2.463,2.58189
-0.765338,0.0417233,2.463,2.57951
-0.757344,0.0417233,2.463,2.57715
-0.754826,0.0420282,2.481,2.59362
-0.746773,0.0420282,2.481,2.59129
-0.73872,0.0420282,2.481,2.58898
-0.730668,0.0420282,2.481,2.5867
-0.722615,0.0420282,2.481,2.58443
-0.714562,0.0420282,2.481,2.58219
-0.706509,0.0420282,2.481,2.57998
-0.698457,0.0420282,2.481,2.57778
-0.690404,0.0420282,2.481,2.57561
-0.682351,0.0420282,2.481,2.57347
-0.679191,0.0423331,2.499,2.59
-0.67108,0.0423331,2.499,2.58788
-0.662968,0.0423331,2.499,2.58579
-0.654857,0.0423331,2.499,2.58372
-0.646746,0.0423331,2.499,2.58168
-0.638635,0.0423331,2.499,2.57966
-0.630524,0.0423331,2.499,2.57766
-0.622413,0.0423331,2.499,2.57569
-0.614302,0.0423331,2.499,2.57374
-0.606191,0.0423331,2.499,2.57182
-0.598079,0.0423331,2.499,2.56992
-0.589968,0.0423331,2.499,2.56805
-0.581857,0.0423331,2.499,2.56619
-0.573746,0.0423331,2.499,2.56437
-0.565635,0.0423331,2.499,2.56256
-0.557524,0.0423331,2.499,2.56079
-0.549413,0.0423331,2.499,2.55903
-0.541301,0.0423331,2.499,2.5573
-0.53319,0.0423331,2.499,2.5556
-0.525079,0.0423331,2.499,2.55392
-0.516968,0.0423331,2.499,2.55226
-0.508857,0.0423331,2.499,2.55063
-0.497139,0.0420282,2.481,2.53067
-0.489086,0.0420282,2.481,2.5291
-0.481034,0.0420282,2.481,2.52755
-0.472981,0.0420282,2.481,2.52603
-0.464928,0.0420282,2.481,2.52454
-0.46019,0.0423331,2.499,2.54137
-0.452079,0.0423331,2.499,2.53992
-0.443968,0.0423331,2.499,2.53848
-0.435857,0.0423331,2.499,2.53708
-0.427746,0.0423331,2.499,2.5357
-0.419634,0.0423331,2.499,2.53434
-0.411523,0.0423331,2.499,2.53301
-0.403412,0.0423331,2.499,2.53171
-0.398148,0.0426381,2.517,2.54865
-0.389979,0.0426381,2.517,2.54739
-0.384691,0.0429599,2.536,2.56537
-0.37646,0.0429599,2.536,2.56415
-0.368229,0.0429599,2.536,2.56295
-0.359998,0.0429599,2.536,2.56178
-0.351766,0.0429599,2.536,2.56064
-0.343535,0.0429599,2.536,2.55952
-0.335304,0.0429599,2.536,2.55843
-0.327073,0.0429599,2.536,2.55737
-0.318842,0.0429599,2.536,2.55633
-0.31061,0.0429599,2.536,2.55531
-0.302379,0.0429599,2.536,2.55432
-0.294148,0.0429599,2.536,2.55336
-0.285917,0.0429599,2.536,2.55243
-0.277685,0.0429599,2.536,2.55152
-0.269454,0.0429599,2.536,2.55064
-0.261223,0.0429599,2.536,2.54978
-0.254887,0.0432818,2.555,2.56805
-0.246594,0.0432818,2.555,2.56724
-0.238301,0.0432818,2.555,2.56645
-0.230009,0.0432818,2.555,2.5657
-0.221716,0.0432818,2.555,2.56497
-0.213423,0.0432818,2.555,2.56426
-0.20513,0.0432818,2.555,2.56359
-0.198301,0.0436036,2.574,2.582
-0.189946,0.0436036,2.574,2.58137
-0.180251,0.0432818,2.555,2.56172
-0.171958,0.0432818,2.555,2.56115
-0.163665,0.0432818,2.555,2.5606
-0.155372,0.0432818,2.555,2.56009
-0.14708,0.0432818,2.555,2.5596
-0.138787,0.0432818,2.555,2.55913
