0.909121,0.258613,2.329,2.51349
0.922978,0.260389,2.345,2.53352
0.936939,0.262166,2.361,2.55361
0.944602,0.262166,2.361,2.55643
0.952265,0.262166,2.361,2.55927
0.966434,0.263943,2.377,2.57949
0.988083,0.267718,2.411,2.61933
0.995908,0.267718,2.411,2.62229
1.00373,0.267718,2.411,2.62528
1.01869,0.269606,2.428,2.64681
1.02657,0.269606,2.428,2.64985
1.0417,0.271494,2.445,2.67149
1.04963,0.271494,2.445,2.6746
1.06535,0.273492,2.463,2.69743
1.07335,0.273492,2.463,2.7006
1.08134,0.273492,2.463,2.70379
1.08934,0.273492,2.463,2.70699
1.09733,0.273492,2.463,2.71022
1.1134,0.275491,2.481,2.7333
1.12146,0.275491,2.481,2.73659
1.12951,0.275491,2.481,2.7399
1.13756,0.275491,2.481,2.74323
1.14561,0.275491,2.481,2.74658
1.15367,0.275491,2.481,2.74995
1.16172,0.275491,2.481,2.75333
1.16977,0.275491,2.481,2.75674
1.17782,0.275491,2.481,2.76017
1.18588,0.275491,2.481,2.76361
1.19393,0.275491,2.481,2.76708
1.2107,0.27749,2.499,2.79066
1.21881,0.27749,2.499,2.79419
1.22693,0.27749,2.499,2.79774
1.23504,0.27749,2.499,2.80131
1.24315,0.27749,2.499,2.80489
1.25126,0.27749,2.499,2.8085
1.25937,0.27749,2.499,2.81212
1.26748,0.27749,2.499,2.81576
1.2664,0.275491,2.481,2.79911
1.27446,0.275491,2.481,2.80277
1.28251,0.275491,2.481,2.80644
1.29056,0.275491,2.481,2.81013
1.30804,0.27749,2.499,2.83425
1.32563,0.279488,2.517,2.85844
1.3338,0.279488,2.517,2.86224
1.3521,0.281598,2.536,2.88769
1.37052,0.283708,2.555,2.91322
1.37881,0.283708,2.555,2.91713
1.40774,0.287927,2.593,2.9645
1.438,0.292369,2.633,3.0143
1.46962,0.297033,2.675,3.06653
1.4783,0.297033,2.675,3.0707
1.51033,0.301696,2.717,3.12317
1.55605,0.309025,2.783,3.20342
1.56508,0.309025,2.783,3.20781
1.60014,0.314133,2.829,3.26533
1.62297,0.316798,2.853,3.29758
1.63223,0.316798,2.853,3.30214
1.66911,0.322128,2.901,3.36236
1.67852,0.322128,2.901,3.36705
1.68794,0.322128,2.901,3.37175
1.69736,0.322128,2.901,3.37648
1.69265,0.319463,2.877,3.35325
1.70199,0.319463,2.877,3.35797
1.71133,0.319463,2.877,3.36271
1.72067,0.319463,2.877,3.36747
1.73,0.319463,2.877,3.37225
1.72483,0.316798,2.853,3.34888
1.7195,0.314133,2.829,3.32545
1.72869,0.314133,2.829,3.33021
1.72374,0.311579,2.806,3.30787
1.70506,0.306582,2.761,3.2595
1.71402,0.306582,2.761,3.2642
1.69552,0.301696,2.717,3.21682
1.678,0.297033,2.675,3.17168
1.6602,0.292369,2.633,3.12641
1.66874,0.292369,2.633,3.13095
1.65181,0.287927,2.593,3.08788
1.64806,0.285818,2.574,3.06973
1.65641,0.285818,2.574,3.07423
1.64019,0.281598,2.536,3.03329
1.62437,0.27749,2.499,2.99342
1.63248,0.27749,2.499,2.99783
1.62878,0.275491,2.481,2.98063
1.62495,0.273492,2.463,2.96338
1.63295,0.273492,2.463,2.96777
1.62895,0.271494,2.445,2.95046
1.6255,0.269606,2.428,2.9343
1.63339,0.269606,2.428,2.93868
1.64127,0.269606,2.428,2.94306
1.62605,0.26583,2.394,2.90619
-1.78567,0.29417,2.574,3.14653
-1.77731,0.29417,2.574,3.14179
-1.76896,0.29417,2.574,3.13707
-1.7606,0.29417,2.574,3.13237
-1.75225,0.29417,2.574,3.12768
-1.7439,0.29417,2.574,3.12301
-1.73554,0.29417,2.574,3.11835
-1.72719,0.29417,2.574,3.11371
-1.71883,0.29417,2.574,3.10908
-1.7231,0.296341,2.593,3.12739
-1.71469,0.296341,2.593,3.12276
-1.70627,0.296341,2.593,3.11814
-1.71095,0.298627,2.613,3.13756
-1.70247,0.298627,2.613,3.13295
-1.70695,0.300913,2.633,3.15229
-1.71195,0.303313,2.654,3.17277
-1.71682,0.305713,2.675,3.1932
-1.70813,0.305713,2.675,3.18854
-1.71279,0.308113,2.696,3.2089
-1.71732,0.310513,2.717,3.22919
-1.7085,0.310513,2.717,3.22451
-1.71344,0.313027,2.739,3.24592
-1.70455,0.313027,2.739,3.24123
-1.69566,0.313027,2.739,3.23657
-1.70032,0.315541,2.761,3.25788
-1.69136,0.315541,2.761,3.25321
-1.6824,0.315541,2.761,3.24856
-1.64677,0.310513,2.717,3.19223
-1.61263,0.305713,2.675,3.13842
-1.60395,0.305713,2.675,3.13396
-1.57022,0.300913,2.633,3.08039
-1.53795,0.296341,2.593,3.02931
-1.52953,0.296341,2.593,3.02505
-1.48768,0.289827,2.536,2.9544
-1.46836,0.287656,2.517,2.92816
-1.46019,0.287656,2.517,2.92407
-1.43125,0.283541,2.481,2.87824
-1.3928,0.277484,2.428,2.81284
-1.38492,0.277484,2.428,2.80895
-1.36739,0.275541,2.411,2.78543
-1.34998,0.273599,2.394,2.76198
-1.34221,0.273599,2.394,2.75819
-1.33444,0.273599,2.394,2.75442
-1.32667,0.273599,2.394,2.75066
-1.3189,0.273599,2.394,2.74692
-1.32044,0.275541,2.411,2.76268
-1.31262,0.275541,2.411,2.75895
-1.30479,0.275541,2.411,2.75524
-1.31526,0.279427,2.445,2.79034
-1.30732,0.279427,2.445,2.78661
-1.30895,0.281484,2.463,2.80338
-1.31997,0.285599,2.499,2.84058
-1.32131,0.287656,2.517,2.85725
-1.31314,0.287656,2.517,2.85348
-1.31482,0.289827,2.536,2.87124
-1.32617,0.29417,2.574,2.91045
-1.31781,0.29417,2.574,2.90665
-1.31912,0.296341,2.593,2.9243
-1.32082,0.298627,2.613,2.94304
-1.32238,0.300913,2.633,2.96174
-1.31383,0.300913,2.633,2.95794
-1.30529,0.300913,2.633,2.95415
-1.29674,0.300913,2.633,2.95039
-1.2882,0.300913,2.633,2.94664
-1.27965,0.300913,2.633,2.94291
-1.28124,0.303313,2.654,2.96265
-1.27263,0.303313,2.654,2.95894
-1.25401,0.300913,2.633,2.93186
-1.23601,0.298627,2.613,2.90597
-1.22752,0.298627,2.613,2.90237
-1.20085,0.29417,2.574,2.85553
-1.18369,0.291999,2.555,2.83097
-1.1754,0.291999,2.555,2.82752
-1.14975,0.287656,2.517,2.78208
-1.13341,0.285599,2.499,2.75884
-1.1253,0.285599,2.499,2.75552
-1.10914,0.283541,2.481,2.73239
-1.08512,0.279427,2.445,2.68953
-1.07718,0.279427,2.445,2.68634
-1.06181,0.277484,2.428,2.66451
-1.04655,0.275541,2.411,2.64275
-1.03872,0.275541,2.411,2.63966
-1.0309,0.275541,2.411,2.63659
-1.02307,0.275541,2.411,2.63354
-1.01525,0.275541,2.411,2.63051
-1.00742,0.275541,2.411,2.6275
-0.999596,0.275541,2.411,2.62451
-0.99177,0.275541,2.411,2.62154
-0.983945,0.275541,2.411,2.61859
-0.976119,0.275541,2.411,2.61566
-0.968294,0.275541,2.411,2.61275
-0.960468,0.275541,2.411,2.60986
-0.952643,0.275541,2.411,2.60699
-0.944817,0.275541,2.411,2.60414
-0.936992,0.275541,2.411,2.60131
-0.929166,0.275541,2.411,2.5985
-0.921341,0.275541,2.411,2.59571
-0.907074,0.273599,2.394,2.57466
-0.899304,0.273599,2.394,2.57193
-0.891534,0.273599,2.394,2.56923
-0.883763,0.273599,2.394,2.56654
-0.882213,0.275541,2.411,2.58208
-0.874388,0.275541,2.411,2.57942
-0.866562,0.275541,2.411,2.57678
-0.858737,0.275541,2.411,2.57415
-0.850911,0.275541,2.411,2.57155
-0.843086,0.275541,2.411,2.56898
-0.83526,0.275541,2.411,2.56642
-0.827435,0.275541,2.411,2.56388
-0.819609,0.275541,2.411,2.56137
-0.817508,0.277484,2.428,2.57692
-0.809627,0.277484,2.428,2.57443
-0.801746,0.277484,2.428,2.57196
-0.799424,0.279427,2.445,2.58751
-0.791488,0.279427,2.445,2.58506
-0.783552,0.279427,2.445,2.58265
-0.781326,0.281484,2.463,2.59924
-0.773332,0.281484,2.463,2.59685
-0.765338,0.281484,2.463,2.59448
-0.757344,0.281484,2.463,2.59214
-0.754826,0.283541,2.481,2.60874
-0.746773,0.283541,2.481,2.60642
-0.73872,0.283541,2.481,2.60412
-0.735969,0.285599,2.499,2.62073
-0.727858,0.285599,2.499,2.61846
-0.719746,0.285599,2.499,2.61622
-0.716761,0.287656,2.517,2.63283
-0.71394,0.289827,2.536,2.65047
-0.705709,0.289827,2.536,2.64827
-0.697478,0.289827,2.536,2.64609
-0.689247,0.289827,2.536,2.64393
-0.681016,0.289827,2.536,2.64179
-0.672784,0.289827,2.536,2.63968
-0.664553,0.289827,2.536,2.6376
-0.656322,0.289827,2.536,2.63554
-0.648091,0.289827,2.536,2.6335
-0.635065,0.287656,2.517,2.61177
-0.626896,0.287656,2.517,2.6098
-0.618726,0.287656,2.517,2.60785
-0.610557,0.287656,2.517,2.60592
-0.598079,0.285599,2.499,2.58539
-0.589968,0.285599,2.499,2.58353
-0.581857,0.285599,2.499,2.58169
-0.573746,0.285599,2.499,2.57987
-0.565635,0.285599,2.499,2.57808
-0.557524,0.285599,2.499,2.57632
-0.549413,0.285599,2.499,2.57457
-0.541301,0.285599,2.499,2.57285
-0.53319,0.285599,2.499,2.57116
-0.525079,0.285599,2.499,2.56949
-0.516968,0.285599,2.499,2.56784
-0.508857,0.285599,2.499,2.56622
-0.500746,0.285599,2.499,2.56463
-0.492635,0.285599,2.499,2.56306
-0.484524,0.285599,2.499,2.56151
-0.476412,0.285599,2.499,2.55999
-0.468301,0.285599,2.499,2.55849
-0.463505,0.287656,2.517,2.57544
-0.455335,0.287656,2.517,2.57398
-0.447166,0.287656,2.517,2.57255
-0.438996,0.287656,2.517,2.57114
-0.430827,0.287656,2.517,2.56976
-0.422657,0.287656,2.517,2.5684
-0.417616,0.289827,2.536,2.58645
-0.409385,0.289827,2.536,2.58513
-0.401154,0.289827,2.536,2.58384
-0.392923,0.289827,2.536,2.58257
-0.384691,0.289827,2.536,2.58133
-0.37364,0.287656,2.517,2.56079
-0.36547,0.287656,2.517,2.55961
-0.357301,0.287656,2.517,2.55846
-0.349131,0.287656,2.517,2.55733
-0.340961,0.287656,2.517,2.55623
-0.332792,0.287656,2.517,2.55515
-0.324622,0.287656,2.517,2.5541
-0.31419,0.285599,2.499,2.53481
-0.306079,0.285599,2.499,2.53382
-0.297967,0.285599,2.499,2.53285
-0.289856,0.285599,2.499,2.53191
-0.281745,0.285599,2.499,2.531
-0.273634,0.285599,2.499,2.53011
-0.265523,0.285599,2.499,2.52924
-0.257412,0.285599,2.499,2.5284
-0.249301,0.285599,2.499,2.52759
-0.239452,0.283541,2.481,2.5086
-0.2314,0.283541,2.481,2.50785
-0.224967,0.285599,2.499,2.52531
-0.216856,0.285599,2.499,2.5246
-0.208745,0.285599,2.499,2.52391
-0.200634,0.285599,2.499,2.52326
-0.193909,0.287656,2.517,2.54079
-0.184412,0.285599,2.499,2.52202
-0.1763,0.285599,2.499,2.52144
-0.169401,0.287656,2.517,2.53904
-0.161231,0.287656,2.517,2.53851
-0.153062,0.287656,2.517,2.538
-0.14708,0.291999,2.555,2.57583
-0.138787,0.291999,2.555,2.57537
-0.130494,0.291999,2.555,2.57494
-0.122201,0.291999,2.555,2.57453
-0.113908,0.291999,2.555,2.57415
-0.105615,0.291999,2.555,2.5738
-0.0973222,0.291999,2.555,2.57347
-0.0890293,0.291999,2.555,2.57317
-0.0807364,0.291999,2.555,2.5729
-0.0724435,0.291999,2.555,2.57265
-0.0641506,0.291999,2.555,2.57243
-0.0558577,0.291999,2.555,2.57224
-0.0472111,0.289827,2.536,2.55294
-0.0389799,0.289827,2.536,2.55281
-0.0307487,0.289827,2.536,2.55269
-0.0223487,0.287656,2.517,2.53348
-0.0140778,0.285599,2.499,2.51531
-0.00596664,0.285599,2.499,2.51527
0.00214449,0.285599,2.499,2.51527
0.0101818,0.283541,2.481,2.49717
0.0182345,0.283541,2.481,2.49722
0.0262872,0.283541,2.481,2.49729
0.0343399,0.283541,2.481,2.49739
0.0423926,0.283541,2.481,2.49751
0.0500793,0.281484,2.463,2.47954
0.0580736,0.281484,2.463,2.47971
0.0665507,0.283541,2.481,2.49804
0.0746034,0.283541,2.481,2.49826
0.0826561,0.283541,2.481,2.49852
0.0907089,0.283541,2.481,2.4988
0.0987616,0.283541,2.481,2.4991
0.106814,0.283541,2.481,2.49943
0.114867,0.283541,2.481,2.49979
0.12292,0.283541,2.481,2.50017
0.130022,0.281484,2.463,2.48244
0.138016,0.281484,2.463,2.48287
0.146011,0.281484,2.463,2.48333
0.154005,0.281484,2.463,2.48381
0.161999,0.281484,2.463,2.48432
0.168751,0.279427,2.445,2.46669
0.176687,0.279427,2.445,2.46725
0.184623,0.279427,2.445,2.46783
0.19122,0.277484,2.428,2.45127
0.199101,0.277484,2.428,2.4519
0.206981,0.277484,2.428,2.45255
nan,nan,nan,NaN
nan,nan,nan,NaN
nan,nan,nan,NaN
nan,nan,nan,NaN
nan,nan,nan,NaN
nan,nan,nan,NaN
nan,nan,nan,NaN
nan,nan,nan,NaN
nan,nan,nan,NaN
nan,nan,nan,NaN
nan,nan,nan,NaN
nan,nan,nan,NaN
nan,nan,nan,NaN
nan,nan,nan,NaN
nan,nan,nan,NaN
nan,nan,nan,NaN
nan,nan,nan,NaN
nan,nan,nan,NaN
nan,nan,nan,NaN
nan,nan,nan,NaN
nan,nan,nan,NaN
nan,nan,nan,NaN
nan,nan,nan,NaN
nan,nan,nan,NaN
nan,nan,nan,NaN
nan,nan,nan,NaN
nan,nan,nan,NaN
nan,nan,nan,NaN
0.441799,0.281484,2.463,2.51809
0.449794,0.281484,2.463,2.51951
0.457788,0.281484,2.463,2.52095
0.465782,0.281484,2.463,2.52241
0.473776,0.281484,2.463,2.5239
0.47825,0.279427,2.445,2.50696
0.486186,0.279427,2.445,2.50848
0.494122,0.279427,2.445,2.51003
0.498567,0.277484,2.428,2.49414
0.506447,0.277484,2.428,2.49573
0.514328,0.277484,2.428,2.49734
0.518552,0.275541,2.411,2.48148
0.526378,0.275541,2.411,2.48313
0.534203,0.275541,2.411,2.4848
0.538207,0.273599,2.394,2.46896
0.5421,0.271656,2.377,2.45312
0.549816,0.271656,2.377,2.45484
0.553778,0.269827,2.361,2.44004
0.561441,0.269827,2.361,2.44179
0.569104,0.269827,2.361,2.44356
0.56895,0.26617,2.329,2.41222
0.568836,0.262627,2.298,2.38188
0.576295,0.262627,2.298,2.38367
0.575879,0.259084,2.267,2.35331
0.575519,0.255656,2.237,2.32395
0.582779,0.255656,2.237,2.32576
0.586347,0.254056,2.223,2.31302
0.589825,0.252456,2.209,2.30028
0.596994,0.252456,2.209,2.30213
0.596233,0.249142,2.18,2.27376
0.603309,0.249142,2.18,2.27562
0.606744,0.247656,2.167,2.26393
0.613778,0.247656,2.167,2.26582
0.620811,0.247656,2.167,2.26774
0.627845,0.247656,2.167,2.26967
0.638687,0.249142,2.18,2.28526
0.645763,0.249142,2.18,2.28724
0.652839,0.249142,2.18,2.28925
0.659914,0.249142,2.18,2.29128
0.66699,0.249142,2.18,2.29333
0.674066,0.249142,2.18,2.29539
0.681142,0.249142,2.18,2.29748
0.688217,0.249142,2.18,2.29959
0.704542,0.252456,2.209,2.33234
0.711712,0.252456,2.209,2.33451
0.723438,0.254056,2.223,2.35152
0.721122,0.250742,2.194,2.32304
0.728243,0.250742,2.194,2.32526
0.740392,0.252456,2.209,2.34342
0.747562,0.252456,2.209,2.34569
nan,nan,nan,NaN
nan,nan,nan,NaN
nan,nan,nan,NaN
0.818409,0.26617,2.329,2.48292
0.825968,0.26617,2.329,2.48542
0.833528,0.26617,2.329,2.48794
0.841087,0.26617,2.329,2.49048
0.848646,0.26617,2.329,2.49305
0.856206,0.26617,2.329,2.49563
0.863765,0.26617,2.329,2.49823
0.871324,0.26617,2.329,2.50086
0.878884,0.26617,2.329,2.5035
0.886443,0.26617,2.329,2.50617
0.894003,0.26617,2.329,2.50885
0.901562,0.26617,2.329,2.51155
0.909121,0.26617,2.329,2.51428
0.922978,0.267999,2.345,2.53431
0.930589,0.267999,2.345,2.53709
0.944602,0.269827,2.361,2.55723
0.952265,0.269827,2.361,2.56007
0.966434,0.271656,2.377,2.58029
0.981116,0.273599,2.394,2.60167
0.988886,0.273599,2.394,2.60461
1.00373,0.275541,2.411,2.62609
1.01156,0.275541,2.411,2.62909
1.01938,0.275541,2.411,2.63211
1.03445,0.277484,2.428,2.65373
1.04963,0.279427,2.445,2.67541
1.06535,0.281484,2.463,2.69826
1.07335,0.281484,2.463,2.70142
1.08134,0.281484,2.463,2.70461
1.08934,0.281484,2.463,2.70781
1.09733,0.281484,2.463,2.71104
1.1134,0.283541,2.481,2.73412
1.12146,0.283541,2.481,2.73741
1.12951,0.283541,2.481,2.74072
1.13756,0.283541,2.481,2.74405
1.14561,0.283541,2.481,2.7474
1.15367,0.283541,2.481,2.75076
1.16172,0.283541,2.481,2.75415
1.16977,0.283541,2.481,2.75756
1.17782,0.283541,2.481,2.76098
1.18588,0.283541,2.481,2.76443
1.19393,0.283541,2.481,2.76789
1.2107,0.285599,2.499,2.79148
1.21881,0.285599,2.499,2.79501
1.22693,0.285599,2.499,2.79856
1.23504,0.285599,2.499,2.80212
1.24315,0.285599,2.499,2.80571
1.25126,0.285599,2.499,2.80931
1.25937,0.285599,2.499,2.81293
1.26748,0.285599,2.499,2.81657
1.27559,0.285599,2.499,2.82023
1.2837,0.285599,2.499,2.82391
1.29181,0.285599,2.499,2.82761
1.29993,0.285599,2.499,2.83132
1.30804,0.285599,2.499,2.83505
1.32563,0.287656,2.517,2.85925
1.3338,0.287656,2.517,2.86305
1.3521,0.289827,2.536,2.88851
1.37052,0.291999,2.555,2.91404
1.37881,0.291999,2.555,2.91795
1.40774,0.296341,2.593,2.96533
1.438,0.300913,2.633,3.01514
1.46962,0.305713,2.675,3.06739
1.4783,0.305713,2.675,3.07156
1.51033,0.310513,2.717,3.12404
1.54375,0.315541,2.761,3.17897
1.55271,0.315541,2.761,3.18333
1.60014,0.323313,2.829,3.26622
1.62297,0.326055,2.853,3.29848
1.63223,0.326055,2.853,3.30304
1.66911,0.331541,2.901,3.36328
1.67852,0.331541,2.901,3.36796
1.68794,0.331541,2.901,3.37266
1.68331,0.328798,2.877,3.34945
1.69265,0.328798,2.877,3.35415
1.70199,0.328798,2.877,3.35887
1.69705,0.326055,2.853,3.33555
1.70631,0.326055,2.853,3.34027
1.71557,0.326055,2.853,3.34501
1.71032,0.323313,2.829,3.32159
1.70553,0.320684,2.806,3.29929
1.71463,0.320684,2.806,3.304
1.70961,0.318056,2.783,3.28162
1.69147,0.313027,2.739,3.23438
1.70036,0.313027,2.739,3.23903
1.68242,0.308113,2.696,3.19279
1.66482,0.303313,2.654,3.14759
1.6602,0.300913,2.633,3.12722
1.66874,0.300913,2.633,3.13176
1.65181,0.296341,2.593,3.08868
1.63589,0.291999,2.555,3.04786
1.64419,0.291999,2.555,3.05232
1.6279,0.287656,2.517,3.01133
1.62437,0.285599,2.499,2.99419
1.63248,0.285599,2.499,2.99859
1.62878,0.283541,2.481,2.98139
1.62495,0.281484,2.463,2.96413
1.63295,0.281484,2.463,2.96852
1.62895,0.279427,2.445,2.9512
1.6255,0.277484,2.428,2.93504
1.63339,0.277484,2.428,2.93941
1.64127,0.277484,2.428,2.9438
1.62605,0.273599,2.394,2.90691
-1.75931,0.298056,2.536,3.10085
-1.75107,0.298056,2.536,3.09619
-1.74284,0.298056,2.536,3.09154
-1.73461,0.298056,2.536,3.08691
-1.72638,0.298056,2.536,3.08229
-1.71815,0.298056,2.536,3.07769
-1.70992,0.298056,2.536,3.0731
-1.70169,0.298056,2.536,3.06853
-1.69346,0.298056,2.536,3.06397
-1.69785,0.300289,2.555,3.08235
-1.68956,0.300289,2.555,3.07779
-1.68127,0.300289,2.555,3.07325
-1.69785,0.304755,2.593,3.11436
-1.68944,0.304755,2.593,3.10978
-1.69399,0.307106,2.613,3.12917
-1.69841,0.309456,2.633,3.1485
-1.70334,0.311925,2.654,3.16897
-1.69472,0.311925,2.654,3.16435
-1.71279,0.316861,2.696,3.20975
-1.70404,0.316861,2.696,3.20509
-1.69529,0.316861,2.696,3.20044
-1.69968,0.319329,2.717,3.22071
-1.69086,0.319329,2.717,3.21606
-1.68204,0.319329,2.717,3.21144
-1.68677,0.321915,2.739,3.23279
-1.6644,0.319329,2.717,3.20223
-1.65559,0.319329,2.717,3.19766
-1.63404,0.316861,2.696,3.16842
-1.59997,0.311925,2.654,3.11463
-1.59135,0.311925,2.654,3.11021
-1.57022,0.309456,2.633,3.08124
-1.53795,0.304755,2.593,3.03015
-1.52953,0.304755,2.593,3.02589
-1.48768,0.298056,2.536,2.95522
-1.46836,0.295823,2.517,2.92897
-1.46019,0.295823,2.517,2.92489
-1.43125,0.291592,2.481,2.87904
-1.40255,0.287361,2.445,2.83333
-1.39461,0.287361,2.445,2.82941
-1.36739,0.283365,2.411,2.78621
-1.34998,0.281367,2.394,2.76276
-1.34221,0.281367,2.394,2.75897
-1.33444,0.281367,2.394,2.7552
-1.32667,0.281367,2.394,2.75145
-1.3189,0.281367,2.394,2.74771
-1.32044,0.283365,2.411,2.76347
-1.31262,0.283365,2.411,2.75974
-1.30479,0.283365,2.411,2.75603
-1.31526,0.287361,2.445,2.79115
-1.30732,0.287361,2.445,2.78742
-1.30895,0.289476,2.463,2.8042
-1.31997,0.293707,2.499,2.84141
-1.32131,0.295823,2.517,2.85809
-1.31314,0.295823,2.517,2.85432
-1.31482,0.298056,2.536,2.87209
-1.32617,0.302522,2.574,2.91131
-1.31781,0.302522,2.574,2.90751
-1.31912,0.304755,2.593,2.92517
-1.32082,0.307106,2.613,2.94392
-1.33293,0.311925,2.654,2.98625
-1.32431,0.311925,2.654,2.98242
-1.3157,0.311925,2.654,2.9786
-1.30708,0.311925,2.654,2.97481
-1.29847,0.311925,2.654,2.97103
-1.28986,0.311925,2.654,2.96728
-1.28124,0.311925,2.654,2.96354
-1.27263,0.311925,2.654,2.95983
-1.25401,0.309456,2.633,2.93275
-1.23601,0.307106,2.613,2.90685
-1.22752,0.307106,2.613,2.90326
-1.20085,0.302522,2.574,2.8564
-1.18369,0.300289,2.555,2.83184
-1.1754,0.300289,2.555,2.82838
-1.14975,0.295823,2.517,2.78293
-1.13341,0.293707,2.499,2.75969
-1.1253,0.293707,2.499,2.75637
-1.10914,0.291592,2.481,2.73324
-1.08512,0.287361,2.445,2.69037
-1.07718,0.287361,2.445,2.68718
-1.06181,0.285363,2.428,2.66534
-1.04655,0.283365,2.411,2.64357
-1.03872,0.283365,2.411,2.64049
-1.0309,0.283365,2.411,2.63742
-1.02307,0.283365,2.411,2.63437
-1.01525,0.283365,2.411,2.63134
-1.00742,0.283365,2.411,2.62833
-0.999596,0.283365,2.411,2.62534
-0.99177,0.283365,2.411,2.62237
-0.983945,0.283365,2.411,2.61942
-0.969237,0.281367,2.394,2.59804
-0.961466,0.281367,2.394,2.59515
-0.953696,0.281367,2.394,2.59228
-0.945926,0.281367,2.394,2.58944
-0.938156,0.281367,2.394,2.58661
-0.930385,0.281367,2.394,2.5838
-0.922615,0.281367,2.394,2.58101
-0.914845,0.281367,2.394,2.57824
-0.907074,0.281367,2.394,2.5755
-0.899304,0.281367,2.394,2.57277
-0.891534,0.281367,2.394,2.57007
-0.883763,0.281367,2.394,2.56738
-0.875993,0.281367,2.394,2.56472
-0.868223,0.281367,2.394,2.56207
-0.860452,0.281367,2.394,2.55945
-0.858737,0.283365,2.411,2.575
-0.850911,0.283365,2.411,2.5724
-0.843086,0.283365,2.411,2.56983
-0.83526,0.283365,2.411,2.56727
-0.827435,0.283365,2.411,2.56473
-0.819609,0.283365,2.411,2.56222
-0.817508,0.285363,2.428,2.57778
-0.809627,0.285363,2.428,2.57529
-0.801746,0.285363,2.428,2.57282
-0.799424,0.287361,2.445,2.58837
-0.791488,0.287361,2.445,2.58593
-0.783552,0.287361,2.445,2.58352
-0.781326,0.289476,2.463,2.60012
-0.773332,0.289476,2.463,2.59773
-0.765338,0.289476,2.463,2.59536
-0.757344,0.289476,2.463,2.59302
-0.754826,0.291592,2.481,2.60963
-0.746773,0.291592,2.481,2.60731
-0.73872,0.291592,2.481,2.60501
-0.735969,0.293707,2.499,2.62162
-0.727858,0.293707,2.499,2.61936
-0.719746,0.293707,2.499,2.61712
-0.716761,0.295823,2.517,2.63373
-0.708592,0.295823,2.517,2.63152
-0.705709,0.298056,2.536,2.64918
-0.697478,0.298056,2.536,2.647
-0.689247,0.298056,2.536,2.64484
-0.681016,0.298056,2.536,2.64271
-0.672784,0.298056,2.536,2.6406
-0.664553,0.298056,2.536,2.63852
-0.656322,0.298056,2.536,2.63645
-0.648091,0.298056,2.536,2.63442
-0.639859,0.298056,2.536,2.6324
-0.626896,0.295823,2.517,2.61071
-0.618726,0.295823,2.517,2.60876
-0.610557,0.295823,2.517,2.60683
-0.602387,0.295823,2.517,2.60493
-0.594218,0.295823,2.517,2.60306
-0.586048,0.295823,2.517,2.6012
-0.573746,0.293707,2.499,2.58078
-0.565635,0.293707,2.499,2.57899
-0.557524,0.293707,2.499,2.57723
-0.549413,0.293707,2.499,2.57548
-0.541301,0.293707,2.499,2.57377
-0.53319,0.293707,2.499,2.57207
-0.525079,0.293707,2.499,2.5704
-0.516968,0.293707,2.499,2.56876
-0.508857,0.293707,2.499,2.56714
-0.500746,0.293707,2.499,2.56554
-0.492635,0.293707,2.499,2.56397
-0.484524,0.293707,2.499,2.56243
-0.476412,0.293707,2.499,2.5609
-0.468301,0.293707,2.499,2.55941
-0.463505,0.295823,2.517,2.57636
-0.455335,0.295823,2.517,2.5749
-0.447166,0.295823,2.517,2.57347
-0.438996,0.295823,2.517,2.57207
-0.434079,0.298056,2.536,2.59009
-0.425848,0.298056,2.536,2.58872
-0.417616,0.298056,2.536,2.58738
-0.409385,0.298056,2.536,2.58606
-0.401154,0.298056,2.536,2.58477
-0.392923,0.298056,2.536,2.58351
-0.384691,0.298056,2.536,2.58227
-0.37646,0.298056,2.536,2.58106
-0.368229,0.298056,2.536,2.57987
-0.359998,0.298056,2.536,2.57871
-0.349131,0.295823,2.517,2.55826
-0.340961,0.295823,2.517,2.55716
-0.332792,0.295823,2.517,2.55608
-0.324622,0.295823,2.517,2.55503
-0.31419,0.293707,2.499,2.53574
-0.306079,0.293707,2.499,2.53475
-0.297967,0.293707,2.499,2.53378
-0.289856,0.293707,2.499,2.53284
-0.281745,0.293707,2.499,2.53193
-0.273634,0.293707,2.499,2.53104
-0.265523,0.293707,2.499,2.53017
-0.257412,0.293707,2.499,2.52933
-0.249301,0.293707,2.499,2.52852
-0.239452,0.291592,2.481,2.50953
-0.2314,0.291592,2.481,2.50877
-0.224967,0.293707,2.499,2.52624
-0.216856,0.293707,2.499,2.52553
-0.208745,0.293707,2.499,2.52484
-0.200634,0.293707,2.499,2.52419
-0.192523,0.293707,2.499,2.52356
-0.184412,0.293707,2.499,2.52295
-0.1763,0.293707,2.499,2.52237
-0.169401,0.295823,2.517,2.53998
-0.161231,0.295823,2.517,2.53945
-0.153062,0.295823,2.517,2.53894
-0.145986,0.298056,2.536,2.55762
-0.137755,0.298056,2.536,2.55717
-0.129523,0.298056,2.536,2.55674
-0.122201,0.300289,2.555,2.57549
-0.113908,0.300289,2.555,2.57511
-0.105615,0.300289,2.555,2.57475
-0.0973222,0.300289,2.555,2.57443
-0.0890293,0.300289,2.555,2.57413
-0.0807364,0.300289,2.555,2.57385
-0.0724435,0.300289,2.555,2.57361
-0.0641506,0.300289,2.555,2.57339
-0.0554423,0.298056,2.536,2.55406
-0.0472111,0.298056,2.536,2.55389
-0.0389799,0.298056,2.536,2.55375
-0.0307487,0.298056,2.536,2.55364
-0.0223487,0.295823,2.517,2.53442
-0.0140778,0.293707,2.499,2.51624
-0.00596664,0.293707,2.499,2.51621
0.00214449,0.293707,2.499,2.5162
0.0101818,0.291592,2.481,2.4981
0.0182345,0.291592,2.481,2.49814
0.0262872,0.291592,2.481,2.49822
0.0343399,0.291592,2.481,2.49831
0.0423926,0.291592,2.481,2.49844
0.0500793,0.289476,2.463,2.48046
0.0580736,0.289476,2.463,2.48063
0.0665507,0.291592,2.481,2.49896
0.0746034,0.291592,2.481,2.49919
0.0826561,0.291592,2.481,2.49944
0.0907089,0.291592,2.481,2.49972
0.0987616,0.291592,2.481,2.50003
0.106814,0.291592,2.481,2.50036
0.114867,0.291592,2.481,2.50072
0.12292,0.291592,2.481,2.5011
0.130022,0.289476,2.463,2.48336
0.138016,0.289476,2.463,2.48379
0.146011,0.289476,2.463,2.48425
0.154005,0.289476,2.463,2.48473
0.161999,0.289476,2.463,2.48524
0.168751,0.287361,2.445,2.46761
0.176687,0.287361,2.445,2.46816
0.184623,0.287361,2.445,2.46874
0.192559,0.287361,2.445,2.46935
0.200495,0.287361,2.445,2.46998
0.208431,0.287361,2.445,2.47064
nan,nan,nan,NaN
nan,nan,nan,NaN
nan,nan,nan,NaN
nan,nan,nan,NaN
nan,nan,nan,NaN
nan,nan,nan,NaN
nan,nan,nan,NaN
nan,nan,nan,NaN
nan,nan,nan,NaN
nan,nan,nan,NaN
nan,nan,nan,NaN
nan,nan,nan,NaN
nan,nan,nan,NaN
nan,nan,nan,NaN
nan,nan,nan,NaN
nan,nan,nan,NaN
nan,nan,nan,NaN
nan,nan,nan,NaN
nan,nan,nan,NaN
nan,nan,nan,NaN
nan,nan,nan,NaN
nan,nan,nan,NaN
nan,nan,nan,NaN
nan,nan,nan,NaN
nan,nan,nan,NaN
nan,nan,nan,NaN
nan,nan,nan,NaN
nan,nan,nan,NaN
0.441799,0.289476,2.463,2.519
0.449794,0.289476,2.463,2.52041
0.457788,0.289476,2.463,2.52185
0.465782,0.289476,2.463,2.52331
0.473776,0.289476,2.463,2.5248
0.47825,0.287361,2.445,2.50785
0.486186,0.287361,2.445,2.50938
0.494122,0.287361,2.445,2.51093
0.498567,0.285363,2.428,2.49503
0.506447,0.285363,2.428,2.49662
0.514328,0.285363,2.428,2.49823
0.518552,0.283365,2.411,2.48236
0.526378,0.283365,2.411,2.48401
0.534203,0.283365,2.411,2.48568
0.538207,0.281367,2.394,2.46983
0.5421,0.279369,2.377,2.45399
0.549816,0.279369,2.377,2.4557
0.553778,0.277488,2.361,2.4409
0.561441,0.277488,2.361,2.44265
0.569104,0.277488,2.361,2.44442
0.56895,0.273727,2.329,2.41306
0.568836,0.270084,2.298,2.38271
0.576295,0.270084,2.298,2.38451
0.575879,0.26644,2.267,2.35413
0.575519,0.262915,2.237,2.32476
0.582779,0.262915,2.237,2.32657
0.586347,0.261269,2.223,2.31383
0.589825,0.259624,2.209,2.30108
0.596994,0.259624,2.209,2.30293
0.596233,0.256215,2.18,2.27454
0.603309,0.256215,2.18,2.27641
0.606744,0.254687,2.167,2.26471
0.613778,0.254687,2.167,2.2666
0.620811,0.254687,2.167,2.26852
0.627845,0.254687,2.167,2.27045
0.638687,0.256215,2.18,2.28604
0.645763,0.256215,2.18,2.28802
0.652839,0.256215,2.18,2.29003
0.659914,0.256215,2.18,2.29206
0.66699,0.256215,2.18,2.29411
0.674066,0.256215,2.18,2.29617
0.681142,0.256215,2.18,2.29826
0.688217,0.256215,2.18,2.30037
0.704542,0.259624,2.209,2.33312
0.711712,0.259624,2.209,2.3353
0.723438,0.261269,2.223,2.35231
0.730654,0.261269,2.223,2.35454
0.742516,0.262915,2.237,2.37163
nan,nan,nan,NaN
nan,nan,nan,NaN
nan,nan,nan,NaN
nan,nan,nan,NaN
nan,nan,nan,NaN
0.818409,0.273727,2.329,2.48374
0.825968,0.273727,2.329,2.48624
0.839254,0.275608,2.345,2.50586
0.846865,0.275608,2.345,2.50842
0.854477,0.275608,2.345,2.511
0.862088,0.275608,2.345,2.5136
0.863765,0.273727,2.329,2.49905
0.871324,0.273727,2.329,2.50167
0.878884,0.273727,2.329,2.50432
0.886443,0.273727,2.329,2.50698
0.894003,0.273727,2.329,2.50966
0.907756,0.275608,2.345,2.52963
0.915367,0.275608,2.345,2.53237
0.922978,0.275608,2.345,2.53513
0.930589,0.275608,2.345,2.53791
0.944602,0.277488,2.361,2.55804
0.952265,0.277488,2.361,2.56088
0.966434,0.279369,2.377,2.58112
0.981116,0.281367,2.394,2.6025
0.988886,0.281367,2.394,2.60544
1.00373,0.283365,2.411,2.62692
1.01156,0.283365,2.411,2.62992
1.01938,0.283365,2.411,2.63294
1.03445,0.285363,2.428,2.65456
1.04963,0.287361,2.445,2.67625
1.05757,0.287361,2.445,2.67938
1.0655,0.287361,2.445,2.68252
1.08134,0.289476,2.463,2.70545
1.08934,0.289476,2.463,2.70866
1.09733,0.289476,2.463,2.71188
1.1134,0.291592,2.481,2.73497
1.12146,0.291592,2.481,2.73826
1.12951,0.291592,2.481,2.74156
1.13756,0.291592,2.481,2.74489
1.14561,0.291592,2.481,2.74824
1.15367,0.291592,2.481,2.75161
1.17015,0.293707,2.499,2.77498
1.17826,0.293707,2.499,2.77841
1.18637,0.293707,2.499,2.78186
1.19448,0.293707,2.499,2.78533
1.20259,0.293707,2.499,2.78882
1.2107,0.293707,2.499,2.79232
1.21881,0.293707,2.499,2.79585
1.23576,0.295823,2.517,2.81956
1.24393,0.295823,2.517,2.82315
1.2521,0.295823,2.517,2.82676
1.26027,0.295823,2.517,2.83039
1.26844,0.295823,2.517,2.83403
1.27661,0.295823,2.517,2.8377
1.28478,0.295823,2.517,2.84138
1.2837,0.293707,2.499,2.82474
1.29181,0.293707,2.499,2.82844
1.29993,0.293707,2.499,2.83215
1.31746,0.295823,2.517,2.85631
1.32563,0.295823,2.517,2.86009
1.3338,0.295823,2.517,2.86388
1.3521,0.298056,2.536,2.88934
1.38071,0.302522,2.574,2.93656
1.38907,0.302522,2.574,2.94049
1.40774,0.304755,2.593,2.96618
1.42708,0.307106,2.613,2.9931
1.46962,0.314393,2.675,3.06826
1.4783,0.314393,2.675,3.07243
1.49866,0.316861,2.696,3.10077
1.54375,0.3245,2.761,3.17987
1.55271,0.3245,2.761,3.18423
1.60014,0.332492,2.829,3.26714
1.62297,0.335313,2.853,3.29941
1.63223,0.335313,2.853,3.30397
1.66911,0.340954,2.901,3.36422
1.67852,0.340954,2.901,3.3689
1.68794,0.340954,2.901,3.3736
1.68331,0.338134,2.877,3.35037
1.69265,0.338134,2.877,3.35508
1.70199,0.338134,2.877,3.3598
1.69705,0.335313,2.853,3.33647
1.70631,0.335313,2.853,3.34119
1.71557,0.335313,2.853,3.34593
1.71032,0.332492,2.829,3.3225
1.70553,0.329789,2.806,3.30018
1.71463,0.329789,2.806,3.3049
1.70961,0.327086,2.783,3.28251
1.69147,0.321915,2.739,3.23525
1.70036,0.321915,2.739,3.2399
1.68242,0.316861,2.696,3.19364
1.66482,0.311925,2.654,3.14844
1.6602,0.309456,2.633,3.12805
1.66874,0.309456,2.633,3.1326
1.65181,0.304755,2.593,3.0895
1.63589,0.300289,2.555,3.04866
1.64419,0.300289,2.555,3.05312
1.6279,0.295823,2.517,3.01212
1.62437,0.293707,2.499,2.99497
1.63248,0.293707,2.499,2.99938
1.62878,0.291592,2.481,2.98216
1.62495,0.289476,2.463,2.9649
1.63295,0.289476,2.463,2.96929
1.62895,0.287361,2.445,2.95196
1.6255,0.285363,2.428,2.93579
1.63339,0.285363,2.428,2.94016
1.64127,0.285363,2.428,2.94455
1.6376,0.283365,2.411,2.9283
-1.75931,0.306285,2.536,3.10166
-1.75107,0.306285,2.536,3.09699
-1.74284,0.306285,2.536,3.09235
-1.73461,0.306285,2.536,3.08772
-1.72638,0.306285,2.536,3.0831
-1.71815,0.306285,2.536,3.0785
-1.70992,0.306285,2.536,3.07391
-1.70169,0.306285,2.536,3.06934
-1.69346,0.306285,2.536,3.06478
-1.69785,0.30858,2.555,3.08317
-1.68956,0.30858,2.555,3.07861
-1.68127,0.30858,2.555,3.07407
-1.69785,0.313169,2.593,3.11519
-1.68944,0.313169,2.593,3.11062
-1.69399,0.315585,2.613,3.13001
-1.69841,0.318,2.633,3.14935
-1.70334,0.320536,2.654,3.16983
-1.69472,0.320536,2.654,3.16521
-1.71279,0.325609,2.696,3.21062
-1.70404,0.325609,2.696,3.20596
-1.69529,0.325609,2.696,3.20132
-1.69968,0.328145,2.717,3.2216
-1.69086,0.328145,2.717,3.21695
-1.68204,0.328145,2.717,3.21233
-1.68677,0.330802,2.739,3.23369
-1.6644,0.328145,2.717,3.20313
-1.65559,0.328145,2.717,3.19855
-1.63404,0.325609,2.696,3.16931
-1.59997,0.320536,2.654,3.1155
-1.59135,0.320536,2.654,3.11109
-1.55829,0.315585,2.613,3.0587
-1.52668,0.310874,2.574,3.0088
-1.51832,0.310874,2.574,3.00457
-1.48768,0.306285,2.536,2.95606
-1.46836,0.30399,2.517,2.92981
-1.46019,0.30399,2.517,2.92572
-1.43125,0.299642,2.481,2.87987
-1.40255,0.295294,2.445,2.83414
-1.39461,0.295294,2.445,2.83022
-1.36739,0.291188,2.411,2.78702
-1.34998,0.289135,2.394,2.76356
-1.34221,0.289135,2.394,2.75978
-1.33444,0.289135,2.394,2.75601
-1.32667,0.289135,2.394,2.75225
-1.3189,0.289135,2.394,2.74852
-1.32044,0.291188,2.411,2.76429
-1.31262,0.291188,2.411,2.76056
-1.30479,0.291188,2.411,2.75684
-1.31526,0.295294,2.445,2.79197
-1.30732,0.295294,2.445,2.78824
-1.30895,0.297468,2.463,2.80503
-1.31997,0.301816,2.499,2.84226
-1.32131,0.30399,2.517,2.85894
-1.31314,0.30399,2.517,2.85518
-1.31482,0.306285,2.536,2.87295
-1.32617,0.310874,2.574,2.91219
-1.31781,0.310874,2.574,2.90839
-1.31912,0.313169,2.593,2.92606
-1.32082,0.315585,2.613,2.94481
-1.33293,0.320536,2.654,2.98716
-1.32431,0.320536,2.654,2.98333
-1.3157,0.320536,2.654,2.97952
-1.30708,0.320536,2.654,2.97572
-1.29847,0.320536,2.654,2.97195
-1.28986,0.320536,2.654,2.9682
-1.28124,0.320536,2.654,2.96446
-1.27263,0.320536,2.654,2.96075
-1.25401,0.318,2.633,2.93366
-1.23601,0.315585,2.613,2.90776
-1.22752,0.315585,2.613,2.90417
-1.20085,0.310874,2.574,2.8573
-1.18369,0.30858,2.555,2.83273
-1.1754,0.30858,2.555,2.82928
-1.14975,0.30399,2.517,2.78381
-1.13341,0.301816,2.499,2.76057
-1.1253,0.301816,2.499,2.75725
-1.10914,0.299642,2.481,2.73411
-1.08512,0.295294,2.445,2.69123
-1.07718,0.295294,2.445,2.68804
-1.06181,0.293241,2.428,2.6662
-1.04655,0.291188,2.411,2.64442
-1.03872,0.291188,2.411,2.64134
-1.0309,0.291188,2.411,2.63827
-1.02307,0.291188,2.411,2.63522
-1.01525,0.291188,2.411,2.63219
-1.00742,0.291188,2.411,2.62918
-0.999596,0.291188,2.411,2.6262
-0.99177,0.291188,2.411,2.62323
-0.983945,0.291188,2.411,2.62028
-0.969237,0.289135,2.394,2.5989
-0.961466,0.289135,2.394,2.59601
-0.953696,0.289135,2.394,2.59314
-0.945926,0.289135,2.394,2.59029
-0.938156,0.289135,2.394,2.58746
-0.930385,0.289135,2.394,2.58466
-0.922615,0.289135,2.394,2.58187
-0.914845,0.289135,2.394,2.5791
-0.907074,0.289135,2.394,2.57636
-0.899304,0.289135,2.394,2.57363
-0.891534,0.289135,2.394,2.57093
-0.883763,0.289135,2.394,2.56824
-0.875993,0.289135,2.394,2.56558
-0.868223,0.289135,2.394,2.56294
-0.860452,0.289135,2.394,2.56032
-0.858737,0.291188,2.411,2.57588
-0.850911,0.291188,2.411,2.57328
-0.843086,0.291188,2.411,2.5707
-0.83526,0.291188,2.411,2.56815
-0.827435,0.291188,2.411,2.56561
-0.819609,0.291188,2.411,2.5631
-0.817508,0.293241,2.428,2.57866
-0.809627,0.293241,2.428,2.57617
-0.801746,0.293241,2.428,2.57371
-0.799424,0.295294,2.445,2.58927
-0.791488,0.295294,2.445,2.58683
-0.783552,0.295294,2.445,2.58441
-0.781326,0.297468,2.463,2.60102
-0.773332,0.297468,2.463,2.59863
-0.765338,0.297468,2.463,2.59627
-0.757344,0.297468,2.463,2.59392
-0.754826,0.299642,2.481,2.61054
-0.746773,0.299642,2.481,2.60822
-0.73872,0.299642,2.481,2.60593
-0.735969,0.301816,2.499,2.62255
-0.727858,0.301816,2.499,2.62028
-0.719746,0.301816,2.499,2.61804
-0.716761,0.30399,2.517,2.63466
-0.708592,0.30399,2.517,2.63245
-0.705709,0.306285,2.536,2.65012
-0.697478,0.306285,2.536,2.64794
-0.689247,0.306285,2.536,2.64578
-0.681016,0.306285,2.536,2.64365
-0.672784,0.306285,2.536,2.64154
-0.664553,0.306285,2.536,2.63946
-0.656322,0.306285,2.536,2.6374
-0.648091,0.306285,2.536,2.63536
-0.639859,0.306285,2.536,2.63335
-0.626896,0.30399,2.517,2.61165
-0.618726,0.30399,2.517,2.6097
-0.610557,0.30399,2.517,2.60777
-0.602387,0.30399,2.517,2.60587
-0.594218,0.30399,2.517,2.604
-0.586048,0.30399,2.517,2.60214
-0.577879,0.30399,2.517,2.60032
-0.569709,0.30399,2.517,2.59851
-0.561539,0.30399,2.517,2.59673
-0.549413,0.301816,2.499,2.57642
-0.541301,0.301816,2.499,2.5747
-0.53319,0.301816,2.499,2.57301
-0.525079,0.301816,2.499,2.57134
-0.516968,0.301816,2.499,2.5697
-0.508857,0.301816,2.499,2.56808
-0.500746,0.301816,2.499,2.56648
-0.492635,0.301816,2.499,2.56491
-0.488013,0.30399,2.517,2.58183
-0.479844,0.30399,2.517,2.5803
-0.471674,0.30399,2.517,2.57879
-0.467004,0.306285,2.536,2.59677
-0.458772,0.306285,2.536,2.5953
-0.450541,0.306285,2.536,2.59386
-0.44231,0.306285,2.536,2.59244
-0.434079,0.306285,2.536,2.59105
-0.425848,0.306285,2.536,2.58968
-0.417616,0.306285,2.536,2.58834
-0.409385,0.306285,2.536,2.58703
-0.401154,0.306285,2.536,2.58574
-0.392923,0.306285,2.536,2.58447
-0.384691,0.306285,2.536,2.58323
-0.37646,0.306285,2.536,2.58202
-0.368229,0.306285,2.536,2.58083
-0.359998,0.306285,2.536,2.57967
-0.349131,0.30399,2.517,2.55922
-0.340961,0.30399,2.517,2.55812
-0.332792,0.30399,2.517,2.55704
-0.324622,0.30399,2.517,2.55599
-0.31419,0.301816,2.499,2.53669
-0.306079,0.301816,2.499,2.5357
-0.297967,0.301816,2.499,2.53473
-0.289856,0.301816,2.499,2.53379
-0.281745,0.301816,2.499,2.53288
-0.273634,0.301816,2.499,2.53199
-0.265523,0.301816,2.499,2.53113
-0.257412,0.301816,2.499,2.53029
-0.249301,0.301816,2.499,2.52948
-0.24119,0.301816,2.499,2.52869
-0.233078,0.301816,2.499,2.52793
-0.224967,0.301816,2.499,2.52719
-0.216856,0.301816,2.499,2.52648
-0.208745,0.301816,2.499,2.5258
-0.200634,0.301816,2.499,2.52514
-0.192523,0.301816,2.499,2.52451
-0.184412,0.301816,2.499,2.52391
-0.1763,0.301816,2.499,2.52333
-0.169401,0.30399,2.517,2.54094
-0.161231,0.30399,2.517,2.54041
-0.153062,0.30399,2.517,2.53991
-0.145986,0.306285,2.536,2.5586
-0.137755,0.306285,2.536,2.55814
-0.129523,0.306285,2.536,2.55771
-0.122201,0.30858,2.555,2.57647
-0.113908,0.30858,2.555,2.57609
-0.105615,0.30858,2.555,2.57573
-0.0973222,0.30858,2.555,2.57541
-0.0890293,0.30858,2.555,2.57511
-0.0807364,0.30858,2.555,2.57483
-0.0724435,0.30858,2.555,2.57459
-0.0641506,0.30858,2.555,2.57437
-0.0554423,0.306285,2.536,2.55503
-0.0472111,0.306285,2.536,2.55486
-0.0389799,0.306285,2.536,2.55473
-0.0307487,0.306285,2.536,2.55461
-0.0223487,0.30399,2.517,2.53539
-0.0140778,0.301816,2.499,2.5172
-0.00596664,0.301816,2.499,2.51717
0.00214449,0.301816,2.499,2.51716
0.0101818,0.299642,2.481,2.49905
0.0182345,0.299642,2.481,2.4991
0.0262872,0.299642,2.481,2.49917
0.0343399,0.299642,2.481,2.49927
0.0423926,0.299642,2.481,2.49939
0.0500793,0.297468,2.463,2.4814
0.0580736,0.297468,2.463,2.48158
0.0660679,0.297468,2.463,2.48178
0.0740622,0.297468,2.463,2.482
0.0820565,0.297468,2.463,2.48225
0.0900507,0.297468,2.463,2.48253
0.0987616,0.299642,2.481,2.50098
0.106814,0.299642,2.481,2.50131
0.114867,0.299642,2.481,2.50167
0.12292,0.299642,2.481,2.50205
0.130022,0.297468,2.463,2.4843
0.138016,0.297468,2.463,2.48473
0.146011,0.297468,2.463,2.48519
0.154005,0.297468,2.463,2.48567
0.161999,0.297468,2.463,2.48618
0.168751,0.295294,2.445,2.46854
0.176687,0.295294,2.445,2.4691
0.184623,0.295294,2.445,2.46968
0.192559,0.295294,2.445,2.47028
0.200495,0.295294,2.445,2.47092
0.208431,0.295294,2.445,2.47157
0.216366,0.295294,2.445,2.47225
0.225954,0.297468,2.463,2.49117
0.233948,0.297468,2.463,2.4919
nan,nan,nan,NaN
nan,nan,nan,NaN
nan,nan,nan,NaN
nan,nan,nan,NaN
nan,nan,nan,NaN
nan,nan,nan,NaN
nan,nan,nan,NaN
nan,nan,nan,NaN
nan,nan,nan,NaN
nan,nan,nan,NaN
nan,nan,nan,NaN
nan,nan,nan,NaN
nan,nan,nan,NaN
nan,nan,nan,NaN
nan,nan,nan,NaN
nan,nan,nan,NaN
nan,nan,nan,NaN
nan,nan,nan,NaN
nan,nan,nan,NaN
nan,nan,nan,NaN
nan,nan,nan,NaN
nan,nan,nan,NaN
nan,nan,nan,NaN
nan,nan,nan,NaN
nan,nan,nan,NaN
nan,nan,nan,NaN
0.453081,0.299642,2.481,2.53977
0.461134,0.299642,2.481,2.54122
0.469186,0.299642,2.481,2.54269
0.473776,0.297468,2.463,2.52573
0.47825,0.295294,2.445,2.50877
0.486186,0.295294,2.445,2.5103
0.494122,0.295294,2.445,2.51185
0.498567,0.293241,2.428,2.49595
0.506447,0.293241,2.428,2.49753
0.514328,0.293241,2.428,2.49914
0.518552,0.291188,2.411,2.48327
0.526378,0.291188,2.411,2.48491
0.534203,0.291188,2.411,2.48658
0.538207,0.289135,2.394,2.47073
0.5421,0.287082,2.377,2.45488
0.549816,0.287082,2.377,2.45659
0.553778,0.285149,2.361,2.44178
0.561441,0.285149,2.361,2.44353
0.569104,0.285149,2.361,2.4453
0.56895,0.281285,2.329,2.41393
0.568836,0.277541,2.298,2.38357
0.576295,0.277541,2.298,2.38536
0.579689,0.275608,2.282,2.37055
0.583237,0.273796,2.267,2.35678
0.590595,0.273796,2.267,2.35861
0.593997,0.271985,2.252,2.34485
0.597301,0.270173,2.237,2.33108
0.604562,0.270173,2.237,2.33295
0.607993,0.268482,2.223,2.32023
0.615209,0.268482,2.223,2.32213
0.622424,0.268482,2.223,2.32405
0.629639,0.268482,2.223,2.326
0.636855,0.268482,2.223,2.32796
0.64407,0.268482,2.223,2.32994
0.651285,0.268482,2.223,2.33195
0.6585,0.268482,2.223,2.33397
0.665716,0.268482,2.223,2.33602
0.672931,0.268482,2.223,2.33809
0.680146,0.268482,2.223,2.34017
nan,nan,nan,NaN
nan,nan,nan,NaN
nan,nan,nan,NaN
0.713473,0.270173,2.237,2.36352
0.720734,0.270173,2.237,2.36572
0.732876,0.271985,2.252,2.38382
0.740185,0.271985,2.252,2.38608
0.752474,0.273796,2.267,2.40426
nan,nan,nan,NaN
nan,nan,nan,NaN
nan,nan,nan,NaN
nan,nan,nan,NaN
nan,nan,nan,NaN
0.829654,0.285149,2.361,2.51872
0.837317,0.285149,2.361,2.52126
0.84498,0.285149,2.361,2.52381
0.852643,0.285149,2.361,2.52639
0.854477,0.283217,2.345,2.51185
0.862088,0.283217,2.345,2.51444
0.869699,0.283217,2.345,2.51706
0.87731,0.283217,2.345,2.5197
0.884922,0.283217,2.345,2.52236
0.892533,0.283217,2.345,2.52505
0.900144,0.283217,2.345,2.52775
0.907756,0.283217,2.345,2.53047
0.915367,0.283217,2.345,2.53321
0.922978,0.283217,2.345,2.53597
0.936939,0.285149,2.361,2.55607
0.944602,0.285149,2.361,2.55889
0.952265,0.285149,2.361,2.56173
0.966434,0.287082,2.377,2.58196
0.981116,0.289135,2.394,2.60335
0.988886,0.289135,2.394,2.60629
1.00373,0.291188,2.411,2.62777
1.01156,0.291188,2.411,2.63077
1.01938,0.291188,2.411,2.63379
1.03445,0.293241,2.428,2.65542
1.04963,0.295294,2.445,2.67712
1.05757,0.295294,2.445,2.68024
1.0655,0.295294,2.445,2.68338
1.08134,0.297468,2.463,2.70632
1.08934,0.297468,2.463,2.70952
1.09733,0.297468,2.463,2.71275
1.1134,0.299642,2.481,2.73584
1.12146,0.299642,2.481,2.73913
1.12951,0.299642,2.481,2.74243
1.13756,0.299642,2.481,2.74576
1.15393,0.301816,2.499,2.76905
1.16204,0.301816,2.499,2.77244
1.17015,0.301816,2.499,2.77585
1.17826,0.301816,2.499,2.77928
1.19492,0.30399,2.517,2.80277
1.20308,0.30399,2.517,2.80626
1.21125,0.30399,2.517,2.80978
1.21942,0.30399,2.517,2.81331
1.22759,0.30399,2.517,2.81686
1.23576,0.30399,2.517,2.82043
1.24393,0.30399,2.517,2.82402
1.2521,0.30399,2.517,2.82762
1.26979,0.306285,2.536,2.85262
1.26844,0.30399,2.517,2.8349
1.27661,0.30399,2.517,2.83856
1.28478,0.30399,2.517,2.84225
1.29295,0.30399,2.517,2.84595
1.30112,0.30399,2.517,2.84967
1.30929,0.30399,2.517,2.85341
1.31746,0.30399,2.517,2.85717
1.32563,0.30399,2.517,2.86094
1.3338,0.30399,2.517,2.86474
1.3521,0.306285,2.536,2.8902
1.38071,0.310874,2.574,2.93743
1.38907,0.310874,2.574,2.94136
1.40774,0.313169,2.593,2.96706
1.42708,0.315585,2.613,2.99398
1.46962,0.323073,2.675,3.06917
1.4783,0.323073,2.675,3.07333
1.49866,0.325609,2.696,3.10168
1.54375,0.333459,2.761,3.1808
1.55271,0.333459,2.761,3.18516
1.57412,0.336116,2.783,3.21495
1.62297,0.344571,2.853,3.30036
1.63223,0.344571,2.853,3.30492
1.64149,0.344571,2.853,3.30951
1.65075,0.344571,2.853,3.31411
1.66001,0.344571,2.853,3.31873
1.66927,0.344571,2.853,3.32337
1.67853,0.344571,2.853,3.32803
1.68779,0.344571,2.853,3.33271
1.68278,0.341672,2.829,3.30934
1.69196,0.341672,2.829,3.31402
1.70114,0.341672,2.829,3.31871
1.69642,0.338894,2.806,3.29641
1.69155,0.336116,2.783,3.27405
1.70058,0.336116,2.783,3.27872
1.6961,0.333459,2.761,3.25746
1.67789,0.328145,2.717,3.21015
1.6867,0.328145,2.717,3.21477
1.66931,0.323073,2.675,3.16964
1.65165,0.318,2.633,3.12438
1.64759,0.315585,2.613,3.10514
1.65607,0.315585,2.613,3.10965
1.6397,0.310874,2.574,3.06769
1.63589,0.30858,2.555,3.04949
1.64419,0.30858,2.555,3.05395
1.6279,0.30399,2.517,3.01293
1.61267,0.299642,2.481,2.9742
1.62072,0.299642,2.481,2.97857
1.62878,0.299642,2.481,2.98296
1.61308,0.295294,2.445,2.94402
1.62101,0.295294,2.445,2.94837
1.62895,0.295294,2.445,2.95274
1.6255,0.293241,2.428,2.93657
1.63339,0.293241,2.428,2.94094
1.62977,0.291188,2.411,2.9247
1.62605,0.289135,2.394,2.90842
-1.73364,0.309925,2.499,3.05721
-1.73796,0.312157,2.517,3.07461
-1.72979,0.312157,2.517,3.07
-1.72162,0.312157,2.517,3.0654
-1.71345,0.312157,2.517,3.06082
-1.70528,0.312157,2.517,3.05626
-1.69711,0.312157,2.517,3.05171
-1.68894,0.312157,2.517,3.04717
-1.68077,0.312157,2.517,3.04265
-1.68523,0.314514,2.536,3.06108
-1.67699,0.314514,2.536,3.05655
-1.68127,0.31687,2.555,3.07491
-1.68541,0.319227,2.574,3.09322
-1.67706,0.319227,2.574,3.08867
-1.68102,0.321583,2.593,3.10691
-1.69841,0.326544,2.633,3.15022
-1.70334,0.329148,2.654,3.17071
-1.69472,0.329148,2.654,3.16609
-1.69945,0.331753,2.675,3.18651
-1.70404,0.334357,2.696,3.20686
-1.69529,0.334357,2.696,3.20222
-1.69968,0.336961,2.717,3.22251
-1.69086,0.336961,2.717,3.21786
-1.68204,0.336961,2.717,3.21324
-1.68677,0.33969,2.739,3.23461
-1.6644,0.336961,2.717,3.20404
-1.65559,0.336961,2.717,3.19947
-1.63404,0.334357,2.696,3.17022
-1.59997,0.329148,2.654,3.1164
-1.59135,0.329148,2.654,3.11199
-1.55829,0.324063,2.613,3.05958
-1.52668,0.319227,2.574,3.00967
-1.51832,0.319227,2.574,3.00544
-1.48768,0.314514,2.536,2.95692
-1.46836,0.312157,2.517,2.93067
-1.46019,0.312157,2.517,2.92658
-1.43125,0.307693,2.481,2.88072
-1.40255,0.303228,2.445,2.83498
-1.38492,0.30112,2.428,2.81138
-1.36739,0.299011,2.411,2.78785
-1.34998,0.296903,2.394,2.76439
-1.34221,0.296903,2.394,2.7606
-1.33444,0.296903,2.394,2.75683
-1.32667,0.296903,2.394,2.75308
-1.3189,0.296903,2.394,2.74934
-1.32044,0.299011,2.411,2.76512
-1.31262,0.299011,2.411,2.76139
-1.31399,0.30112,2.428,2.77713
-1.32494,0.30546,2.463,2.81339
-1.32657,0.307693,2.481,2.83016
-1.31852,0.307693,2.481,2.8264
-1.32948,0.312157,2.517,2.86361
-1.33128,0.314514,2.536,2.88141
-1.32305,0.314514,2.536,2.87762
-1.33452,0.319227,2.574,2.9169
-1.33596,0.321583,2.593,2.93459
-1.32754,0.321583,2.593,2.93077
-1.3293,0.324063,2.613,2.94955
-1.33093,0.326544,2.633,2.96828
-1.33293,0.329148,2.654,2.9881
-1.32431,0.329148,2.654,2.98427
-1.3157,0.329148,2.654,2.98046
-1.30708,0.329148,2.654,2.97666
-1.29847,0.329148,2.654,2.97289
-1.28986,0.329148,2.654,2.96914
-1.28124,0.329148,2.654,2.96541
-1.27263,0.329148,2.654,2.96169
-1.25401,0.326544,2.633,2.9346
-1.23601,0.324063,2.613,2.90869
-1.22752,0.324063,2.613,2.9051
-1.20085,0.319227,2.574,2.85822
-1.18369,0.31687,2.555,2.83365
-1.1754,0.31687,2.555,2.83019
-1.14975,0.312157,2.517,2.78472
-1.13341,0.309925,2.499,2.76146
-1.1253,0.309925,2.499,2.75814
-1.10914,0.307693,2.481,2.735
-1.0931,0.30546,2.463,2.71193
-1.08511,0.30546,2.463,2.70871
-1.06924,0.303228,2.445,2.68575
-1.05393,0.30112,2.428,2.66395
-1.04605,0.30112,2.428,2.66084
-1.0309,0.299011,2.411,2.63914
-1.02307,0.299011,2.411,2.6361
-1.01525,0.299011,2.411,2.63307
-1.00742,0.299011,2.411,2.63006
-0.999596,0.299011,2.411,2.62707
-0.99177,0.299011,2.411,2.62411
-0.983945,0.299011,2.411,2.62116
-0.969237,0.296903,2.394,2.59977
-0.961466,0.296903,2.394,2.59688
-0.953696,0.296903,2.394,2.59402
-0.945926,0.296903,2.394,2.59117
-0.938156,0.296903,2.394,2.58834
-0.930385,0.296903,2.394,2.58554
-0.922615,0.296903,2.394,2.58275
-0.914845,0.296903,2.394,2.57999
-0.907074,0.296903,2.394,2.57724
-0.899304,0.296903,2.394,2.57452
-0.891534,0.296903,2.394,2.57181
-0.883763,0.296903,2.394,2.56913
-0.875993,0.296903,2.394,2.56647
-0.868223,0.296903,2.394,2.56382
-0.860452,0.296903,2.394,2.5612
-0.858737,0.299011,2.411,2.57677
-0.850911,0.299011,2.411,2.57418
-0.843086,0.299011,2.411,2.5716
-0.83526,0.299011,2.411,2.56904
-0.827435,0.299011,2.411,2.56651
-0.819609,0.299011,2.411,2.564
-0.817508,0.30112,2.428,2.57957
-0.809627,0.30112,2.428,2.57708
-0.801746,0.30112,2.428,2.57462
-0.799424,0.303228,2.445,2.59018
-0.791488,0.303228,2.445,2.58775
-0.783552,0.303228,2.445,2.58533
-0.781326,0.30546,2.463,2.60195
-0.773332,0.30546,2.463,2.59956
-0.770931,0.307693,2.481,2.61617
-0.762878,0.307693,2.481,2.61381
-0.754826,0.307693,2.481,2.61147
-0.752191,0.309925,2.499,2.62809
-0.74408,0.309925,2.499,2.62578
-0.735969,0.309925,2.499,2.62349
-0.727858,0.309925,2.499,2.62123
-0.719746,0.309925,2.499,2.61899
-0.716761,0.312157,2.517,2.63562
-0.71394,0.314514,2.536,2.65329
-0.705709,0.314514,2.536,2.65108
-0.697478,0.314514,2.536,2.6489
-0.689247,0.314514,2.536,2.64675
-0.681016,0.314514,2.536,2.64462
-0.672784,0.314514,2.536,2.64251
-0.664553,0.314514,2.536,2.64043
-0.656322,0.314514,2.536,2.63837
-0.648091,0.314514,2.536,2.63633
-0.639859,0.314514,2.536,2.63432
-0.631628,0.314514,2.536,2.63233
-0.623397,0.314514,2.536,2.63037
-0.615166,0.314514,2.536,2.62843
-0.602387,0.312157,2.517,2.60684
-0.594218,0.312157,2.517,2.60496
-0.586048,0.312157,2.517,2.60311
-0.577879,0.312157,2.517,2.60128
-0.569709,0.312157,2.517,2.59948
-0.561539,0.312157,2.517,2.5977
-0.55337,0.312157,2.517,2.59595
-0.5452,0.312157,2.517,2.59422
-0.537031,0.312157,2.517,2.59251
-0.528861,0.312157,2.517,2.59084
-0.520692,0.312157,2.517,2.58918
-0.512522,0.312157,2.517,2.58755
-0.500746,0.309925,2.499,2.56745
-0.492635,0.309925,2.499,2.56588
-0.488013,0.312157,2.517,2.58281
-0.479844,0.312157,2.517,2.58128
-0.471674,0.312157,2.517,2.57977
-0.467004,0.314514,2.536,2.59775
-0.458772,0.314514,2.536,2.59628
-0.450541,0.314514,2.536,2.59484
-0.44231,0.314514,2.536,2.59343
-0.434079,0.314514,2.536,2.59203
-0.425848,0.314514,2.536,2.59067
-0.417616,0.314514,2.536,2.58933
-0.409385,0.314514,2.536,2.58801
-0.401154,0.314514,2.536,2.58672
-0.392923,0.314514,2.536,2.58546
-0.384691,0.314514,2.536,2.58422
-0.37646,0.314514,2.536,2.58301
-0.368229,0.314514,2.536,2.58182
-0.359998,0.314514,2.536,2.58066
-0.349131,0.312157,2.517,2.5602
-0.340961,0.312157,2.517,2.5591
-0.332792,0.312157,2.517,2.55802
-0.324622,0.312157,2.517,2.55697
-0.31419,0.309925,2.499,2.53767
-0.306079,0.309925,2.499,2.53668
-0.297967,0.309925,2.499,2.53571
-0.289856,0.309925,2.499,2.53477
-0.281745,0.309925,2.499,2.53386
-0.273634,0.309925,2.499,2.53297
-0.265523,0.309925,2.499,2.53211
-0.257412,0.309925,2.499,2.53127
-0.249301,0.309925,2.499,2.53046
-0.24119,0.309925,2.499,2.52967
-0.233078,0.309925,2.499,2.52891
-0.224967,0.309925,2.499,2.52817
-0.216856,0.309925,2.499,2.52747
-0.208745,0.309925,2.499,2.52678
-0.200634,0.309925,2.499,2.52613
-0.192523,0.309925,2.499,2.52549
-0.184412,0.309925,2.499,2.52489
-0.1763,0.309925,2.499,2.52431
