-0.659574,-0.839425,2.517,2.73404
-0.646746,-0.833422,2.499,2.71254
-0.638635,-0.833422,2.499,2.71062
-0.625982,-0.827419,2.481,2.68921
-0.61793,-0.827419,2.481,2.68734
-0.609877,-0.827419,2.481,2.6855
-0.601824,-0.827419,2.481,2.68369
-0.593771,-0.827419,2.481,2.68189
-0.585719,-0.827419,2.481,2.68012
-0.573475,-0.821416,2.463,2.65894
-0.565481,-0.821416,2.463,2.65723
-0.557486,-0.821416,2.463,2.65554
-0.549492,-0.821416,2.463,2.65387
-0.541498,-0.821416,2.463,2.65223
-0.533504,-0.821416,2.463,2.65061
-0.525509,-0.821416,2.463,2.64901
-0.517515,-0.821416,2.463,2.64744
-0.509521,-0.821416,2.463,2.64588
-0.501526,-0.821416,2.463,2.64436
-0.489925,-0.815413,2.445,2.62354
-0.481989,-0.815413,2.445,2.62207
-0.474054,-0.815413,2.445,2.62062
-0.466118,-0.815413,2.445,2.6192
-0.454996,-0.809744,2.428,2.59959
-0.447115,-0.809744,2.428,2.59823
-0.439235,-0.809744,2.428,2.59688
-0.431354,-0.809744,2.428,2.59556
-0.423473,-0.809744,2.428,2.59426
-0.415593,-0.809744,2.428,2.59299
-0.407712,-0.809744,2.428,2.59174
-0.402631,-0.815413,2.445,2.60865
-0.397601,-0.821416,2.463,2.62663
-0.389606,-0.821416,2.463,2.62543
-0.384401,-0.827419,2.481,2.64344
-0.376348,-0.827419,2.481,2.64228
-0.370968,-0.833422,2.499,2.6603
-0.362857,-0.833422,2.499,2.65918
-0.357301,-0.839425,2.517,2.67724
-0.349131,-0.839425,2.517,2.67616
-0.340961,-0.839425,2.517,2.6751
-0.332792,-0.839425,2.517,2.67407
-0.327073,-0.845762,2.536,2.69325
-0.318842,-0.845762,2.536,2.69226
-0.312937,-0.852098,2.555,2.71146
-0.304645,-0.852098,2.555,2.71052
-0.296352,-0.852098,2.555,2.7096
-0.288059,-0.852098,2.555,2.7087
-0.279766,-0.852098,2.555,2.70783
-0.271473,-0.852098,2.555,2.70699
-0.26318,-0.852098,2.555,2.70617
-0.254887,-0.852098,2.555,2.70538
-0.246594,-0.852098,2.555,2.70461
-0.238301,-0.852098,2.555,2.70386
-0.230009,-0.852098,2.555,2.70315
-0.220067,-0.845762,2.536,2.68236
-0.211836,-0.845762,2.536,2.68169
-0.202079,-0.839425,2.517,2.66097
-0.193909,-0.839425,2.517,2.66036
-0.18574,-0.839425,2.517,2.65978
-0.17757,-0.839425,2.517,2.65922
-0.169401,-0.839425,2.517,2.65869
-0.161231,-0.839425,2.517,2.65818
-0.153062,-0.839425,2.517,2.6577
-0.144892,-0.839425,2.517,2.65724
-0.136723,-0.839425,2.517,2.65681
-0.128553,-0.839425,2.517,2.6564
-0.120383,-0.839425,2.517,2.65602
-0.112214,-0.839425,2.517,2.65566
-0.104044,-0.839425,2.517,2.65532
-0.0958747,-0.839425,2.517,2.65502
-0.0883672,-0.845762,2.536,2.67477
-0.080136,-0.845762,2.536,2.67452
-0.0719048,-0.845762,2.536,2.67428
-0.0636736,-0.845762,2.536,2.67407
-0.0554423,-0.845762,2.536,2.67389
-0.0472111,-0.845762,2.536,2.67373
-0.0389799,-0.845762,2.536,2.6736
-0.030979,-0.852098,2.555,2.69352
-0.0226861,-0.852098,2.555,2.69344
-0.0142862,-0.845762,2.536,2.67335
-0.00605498,-0.845762,2.536,2.67332
0.00217625,-0.845762,2.536,2.67332
0.0104075,-0.845762,2.536,2.67333
0.0186387,-0.845762,2.536,2.67338
0.0268699,-0.845762,2.536,2.67345
0.0351011,-0.845762,2.536,2.67354
0.0433324,-0.845762,2.536,2.67367
0.0515636,-0.845762,2.536,2.67381
0.0597948,-0.845762,2.536,2.67398
0.0680261,-0.845762,2.536,2.67418
0.0762573,-0.845762,2.536,2.6744
0.0844885,-0.845762,2.536,2.67465
0.0927197,-0.845762,2.536,2.67492
0.100951,-0.845762,2.536,2.67522
0.109182,-0.845762,2.536,2.67554
0.117413,-0.845762,2.536,2.67589
0.125645,-0.845762,2.536,2.67627
0.133876,-0.845762,2.536,2.67666
0.141042,-0.839425,2.517,2.65703
0.149212,-0.839425,2.517,2.65748
0.15857,-0.845762,2.536,2.67801
0.166801,-0.845762,2.536,2.67851
0.173721,-0.839425,2.517,2.65897
0.18189,-0.839425,2.517,2.65951
0.19006,-0.839425,2.517,2.66008
0.198229,-0.839425,2.517,2.66068
0.206399,-0.839425,2.517,2.6613
0.214568,-0.839425,2.517,2.66195
0.222738,-0.839425,2.517,2.66262
0.230908,-0.839425,2.517,2.66331
0.240882,-0.845762,2.536,2.68414
0.249113,-0.845762,2.536,2.6849
0.257344,-0.845762,2.536,2.68567
0.265575,-0.845762,2.536,2.68647
0.275858,-0.852098,2.555,2.70743
0.284151,-0.852098,2.555,2.70829
0.292444,-0.852098,2.555,2.70917
0.300737,-0.852098,2.555,2.71008
0.30903,-0.852098,2.555,2.71101
0.317323,-0.852098,2.555,2.71197
0.325615,-0.852098,2.555,2.71295
0.333908,-0.852098,2.555,2.71396
0.344746,-0.858435,2.574,2.73519
0.350494,-0.852098,2.555,2.71605
0.358787,-0.852098,2.555,2.71714
0.36708,-0.852098,2.555,2.71824
0.375373,-0.852098,2.555,2.71938
0.383666,-0.852098,2.555,2.72053
0.391959,-0.852098,2.555,2.72171
0.400252,-0.852098,2.555,2.72292
0.408544,-0.852098,2.555,2.72415
0.416837,-0.852098,2.555,2.72541
0.42513,-0.852098,2.555,2.72669
0.433423,-0.852098,2.555,2.72799
0.441716,-0.852098,2.555,2.72932
0.450009,-0.852098,2.555,2.73068
0.454894,-0.845762,2.536,2.71174
0.463125,-0.845762,2.536,2.71313
0.471356,-0.845762,2.536,2.71455
0.479587,-0.845762,2.536,2.71599
0.487819,-0.845762,2.536,2.71746
0.49605,-0.845762,2.536,2.71895
0.504281,-0.845762,2.536,2.72046
0.512512,-0.845762,2.536,2.722
0.516842,-0.839425,2.517,2.70316
0.521257,-0.833422,2.499,2.68539
0.529368,-0.833422,2.499,2.68697
0.537479,-0.833422,2.499,2.68858
0.54559,-0.833422,2.499,2.69022
0.553702,-0.833422,2.499,2.69187
0.561813,-0.833422,2.499,2.69355
0.569924,-0.833422,2.499,2.69526
0.573871,-0.827419,2.481,2.67756
0.581924,-0.827419,2.481,2.67929
0.589977,-0.827419,2.481,2.68106
0.59803,-0.827419,2.481,2.68284
0.610479,-0.833422,2.499,2.70412
0.618591,-0.833422,2.499,2.70597
0.635981,-0.845762,2.536,2.74792
0.644212,-0.845762,2.536,2.74984
0.652443,-0.845762,2.536,2.75178
0.660674,-0.845762,2.536,2.75374
0.668906,-0.845762,2.536,2.75573
0.68221,-0.852098,2.555,2.7784
0.690503,-0.852098,2.555,2.78045
0.698796,-0.852098,2.555,2.78252
0.707089,-0.852098,2.555,2.78461
0.715382,-0.852098,2.555,2.78673
0.723674,-0.852098,2.555,2.78887
0.731967,-0.852098,2.555,2.79103
0.74026,-0.852098,2.555,2.79322
0.748553,-0.852098,2.555,2.79543
0.756846,-0.852098,2.555,2.79766
0.765139,-0.852098,2.555,2.79992
0.773432,-0.852098,2.555,2.80219
0.781725,-0.852098,2.555,2.80449
0.790018,-0.852098,2.555,2.80682
0.798311,-0.852098,2.555,2.80916
0.800605,-0.845762,2.536,2.79062
0.808836,-0.845762,2.536,2.793
0.817068,-0.845762,2.536,2.79539
0.825299,-0.845762,2.536,2.79781
0.83353,-0.845762,2.536,2.80025
0.841761,-0.845762,2.536,2.80271
0.843624,-0.839425,2.517,2.78417
0.851794,-0.839425,2.517,2.78666
0.859963,-0.839425,2.517,2.78917
0.861925,-0.833422,2.499,2.77173
0.870036,-0.833422,2.499,2.77427
0.878147,-0.833422,2.499,2.77682
0.886258,-0.833422,2.499,2.7794
0.900811,-0.839425,2.517,2.80203
0.908981,-0.839425,2.517,2.80467
0.91715,-0.839425,2.517,2.80733
0.92532,-0.839425,2.517,2.81001
0.933489,-0.839425,2.517,2.81271
nan,nan,nan,NaN
nan,nan,nan,NaN
nan,nan,nan,NaN
nan,nan,nan,NaN
nan,nan,nan,NaN
nan,nan,nan,NaN
nan,nan,nan,NaN
nan,nan,nan,NaN
nan,nan,nan,NaN
nan,nan,nan,NaN
nan,nan,nan,NaN
nan,nan,nan,NaN
nan,nan,nan,NaN
nan,nan,nan,NaN
nan,nan,nan,NaN
nan,nan,nan,NaN
nan,nan,nan,NaN
nan,nan,nan,NaN
nan,nan,nan,NaN
nan,nan,nan,NaN
nan,nan,nan,NaN
nan,nan,nan,NaN
nan,nan,nan,NaN
nan,nan,nan,NaN
nan,nan,nan,NaN
nan,nan,nan,NaN
nan,nan,nan,NaN
nan,nan,nan,NaN
nan,nan,nan,NaN
nan,nan,nan,NaN
nan,nan,nan,NaN
nan,nan,nan,NaN
nan,nan,nan,NaN
nan,nan,nan,NaN
nan,nan,nan,NaN
nan,nan,nan,NaN
nan,nan,nan,NaN
nan,nan,nan,NaN
nan,nan,nan,NaN
nan,nan,nan,NaN
nan,nan,nan,NaN
nan,nan,nan,NaN
nan,nan,nan,NaN
nan,nan,nan,NaN
nan,nan,nan,NaN
1.71243,-1.09789,3.292,3.86976
1.72311,-1.09789,3.292,3.8745
1.7338,-1.09789,3.292,3.87926
1.74448,-1.09789,3.292,3.88405
1.78929,-1.11923,3.356,3.96446
1.80018,-1.11923,3.356,3.96939
1.84723,-1.14158,3.423,4.05369
nan,nan,nan,NaN
nan,nan,nan,NaN
1.98,-1.20194,3.604,4.28414
1.9917,-1.20194,3.604,4.28956
2.0034,-1.20194,3.604,4.29501
2.0151,-1.20194,3.604,4.30048
2.02679,-1.20194,3.604,4.30597
2.03849,-1.20194,3.604,4.31149
2.05019,-1.20194,3.604,4.31703
2.06189,-1.20194,3.604,4.3226
2.07358,-1.20194,3.604,4.32819
2.08528,-1.20194,3.604,4.33381
2.07487,-1.18927,3.566,4.29369
2.06479,-1.17693,3.529,4.25469
2.07625,-1.17693,3.529,4.26026
2.06641,-1.16492,3.493,4.22234
2.05692,-1.15325,3.458,4.18553
2.06815,-1.15325,3.458,4.19106
2.03788,-1.13024,3.389,4.11287
2.02893,-1.11923,3.356,4.07823
2.03982,-1.11923,3.356,4.08366
2.05072,-1.11923,3.356,4.08911
2.02229,-1.09789,3.292,4.0165
2.03298,-1.09789,3.292,4.02189
2.0238,-1.08722,3.26,3.98816
1.97821,-1.0572,3.17,3.88329
1.9885,-1.0572,3.17,3.88854
1.96222,-1.03786,3.112,3.82257
1.93746,-1.01952,3.057,3.76011
1.94739,-1.01952,3.057,3.76523
nan,nan,nan,NaN
1.91575,-0.992836,2.977,3.67673
1.89243,-0.975828,2.926,3.6187
1.90192,-0.975828,2.926,3.62368
1.89509,-0.96749,2.901,3.59767
1.88875,-0.959486,2.877,3.57283
1.89809,-0.959486,2.877,3.57778
1.90743,-0.959486,2.877,3.58274
1.90077,-0.951482,2.853,3.55779
1.91004,-0.951482,2.853,3.56275
1.90315,-0.943478,2.829,3.53771
1.91233,-0.943478,2.829,3.54266
1.92151,-0.943478,2.829,3.54762
-2.21925,-1.05649,3.199,4.03421
-2.20887,-1.05649,3.199,4.02851
-2.19848,-1.05649,3.199,4.02282
-2.1881,-1.05649,3.199,4.01716
-2.17772,-1.05649,3.199,4.01151
-2.18834,-1.06673,3.23,4.04471
-2.17785,-1.06673,3.23,4.03904
-2.1875,-1.07664,3.26,4.07086
-2.17692,-1.07664,3.26,4.06519
-2.16634,-1.07664,3.26,4.05953
-2.17692,-1.08721,3.292,4.09369
-2.16623,-1.08721,3.292,4.08801
-2.15555,-1.08721,3.292,4.08236
-2.14486,-1.08721,3.292,4.07673
-2.13418,-1.08721,3.292,4.07112
-2.12349,-1.08721,3.292,4.06553
-2.13335,-1.09778,3.324,4.09942
-2.12256,-1.09778,3.324,4.09382
-2.11177,-1.09778,3.324,4.08823
-2.10098,-1.09778,3.324,4.08267
-2.11031,-1.10834,3.356,4.11638
-2.09942,-1.10834,3.356,4.11081
-2.08853,-1.10834,3.356,4.10525
-2.07763,-1.10834,3.356,4.09972
-2.06674,-1.10834,3.356,4.09421
-2.05585,-1.10834,3.356,4.08873
-2.06506,-1.11924,3.389,4.12341
-2.05406,-1.11924,3.389,4.11791
-2.04306,-1.11924,3.389,4.11244
nan,nan,nan,NaN
nan,nan,nan,NaN
nan,nan,nan,NaN
nan,nan,nan,NaN
nan,nan,nan,NaN
nan,nan,nan,NaN
nan,nan,nan,NaN
nan,nan,nan,NaN
nan,nan,nan,NaN
nan,nan,nan,NaN
nan,nan,nan,NaN
nan,nan,nan,NaN
nan,nan,nan,NaN
nan,nan,nan,NaN
nan,nan,nan,NaN
nan,nan,nan,NaN
nan,nan,nan,NaN
nan,nan,nan,NaN
nan,nan,nan,NaN
nan,nan,nan,NaN
nan,nan,nan,NaN
nan,nan,nan,NaN
nan,nan,nan,NaN
nan,nan,nan,NaN
nan,nan,nan,NaN
nan,nan,nan,NaN
nan,nan,nan,NaN
nan,nan,nan,NaN
nan,nan,nan,NaN
-1.43,-0.934298,2.829,3.3047
-1.42082,-0.934298,2.829,3.30074
-1.41164,-0.934298,2.829,3.2968
-1.35784,-0.904575,2.739,3.18812
-1.34895,-0.904575,2.739,3.18434
-1.32929,-0.89731,2.717,3.15504
-1.30006,-0.883439,2.675,3.10262
-1.2711,-0.869568,2.633,3.05033
-1.26256,-0.869568,2.633,3.04678
-1.23496,-0.856358,2.593,2.99702
-1.22654,-0.856358,2.593,2.99356
-1.21813,-0.856358,2.593,2.99012
-1.20971,-0.856358,2.593,2.9867
-1.2013,-0.856358,2.593,2.98331
nan,nan,nan,NaN
-1.16711,-0.843808,2.555,2.93295
-1.1502,-0.837533,2.536,2.90787
-1.14196,-0.837533,2.536,2.90462
-1.13373,-0.837533,2.536,2.9014
-1.13393,-0.843808,2.555,2.9199
-1.12564,-0.843808,2.555,2.91669
nan,nan,nan,NaN
-1.10906,-0.843808,2.555,2.91033
-1.10076,-0.843808,2.555,2.90718
-1.10059,-0.850083,2.574,2.92565
-1.09224,-0.850083,2.574,2.92252
-1.08388,-0.850083,2.574,2.9194
-1.07553,-0.850083,2.574,2.91631
-1.06718,-0.850083,2.574,2.91324
-1.05882,-0.850083,2.574,2.91019
-1.04271,-0.843808,2.555,2.8857
-1.03442,-0.843808,2.555,2.88272
-1.02613,-0.843808,2.555,2.87975
-1.01026,-0.837533,2.536,2.85541
-1.00203,-0.837533,2.536,2.85251
-0.993802,-0.837533,2.536,2.84963
-0.978187,-0.831258,2.517,2.82544
-0.970017,-0.831258,2.517,2.82263
-0.954969,-0.825313,2.499,2.79966
-0.933218,-0.813424,2.463,2.75661
-0.925224,-0.813424,2.463,2.75392
-0.904195,-0.801865,2.428,2.71215
-0.896315,-0.801865,2.428,2.70953
-0.888434,-0.801865,2.428,2.70693
-0.880553,-0.801865,2.428,2.70436
-0.872672,-0.801865,2.428,2.7018
-0.864792,-0.801865,2.428,2.69927
-0.856911,-0.801865,2.428,2.69675
-0.84903,-0.801865,2.428,2.69426
-0.84115,-0.801865,2.428,2.69178
-0.839103,-0.80748,2.445,2.70816
-0.831167,-0.80748,2.445,2.70571
-0.823232,-0.80748,2.445,2.70329
-0.821298,-0.813424,2.463,2.72076
-0.819247,-0.819369,2.481,2.73823
-0.811195,-0.819369,2.481,2.73583
-0.808969,-0.825313,2.499,2.75328
-0.800858,-0.825313,2.499,2.75091
-0.792747,-0.825313,2.499,2.74856
-0.790287,-0.831258,2.517,2.76601
-0.788022,-0.837533,2.536,2.78455
-0.77979,-0.837533,2.536,2.78223
-0.771559,-0.837533,2.536,2.77994
-0.763328,-0.837533,2.536,2.77767
-0.755097,-0.837533,2.536,2.77541
-0.74127,-0.831258,2.517,2.75241
-0.7331,-0.831258,2.517,2.75022
-0.724931,-0.831258,2.517,2.74805
-0.716761,-0.831258,2.517,2.74591
-0.708592,-0.831258,2.517,2.74379
-0.700422,-0.831258,2.517,2.74169
-0.692252,-0.831258,2.517,2.73962
-0.684083,-0.831258,2.517,2.73756
-0.675913,-0.831258,2.517,2.73553
-0.667744,-0.831258,2.517,2.73353
-0.654857,-0.825313,2.499,2.71201
-0.646746,-0.825313,2.499,2.71006
-0.638635,-0.825313,2.499,2.70814
-0.625982,-0.819369,2.481,2.68674
-0.61793,-0.819369,2.481,2.68488
-0.609877,-0.819369,2.481,2.68304
-0.601824,-0.819369,2.481,2.68122
-0.593771,-0.819369,2.481,2.67942
-0.585719,-0.819369,2.481,2.67765
-0.573475,-0.813424,2.463,2.65648
-0.565481,-0.813424,2.463,2.65477
-0.557486,-0.813424,2.463,2.65308
-0.549492,-0.813424,2.463,2.65141
-0.541498,-0.813424,2.463,2.64976
-0.533504,-0.813424,2.463,2.64814
-0.525509,-0.813424,2.463,2.64654
-0.513733,-0.80748,2.445,2.62564
-0.505797,-0.80748,2.445,2.6241
-0.497861,-0.80748,2.445,2.62258
-0.486519,-0.801865,2.428,2.60286
-0.478638,-0.801865,2.428,2.6014
-0.470758,-0.801865,2.428,2.59996
-0.459636,-0.796251,2.411,2.58035
-0.45181,-0.796251,2.411,2.57897
-0.443985,-0.796251,2.411,2.57761
-0.436159,-0.796251,2.411,2.57627
-0.428334,-0.796251,2.411,2.57496
-0.420508,-0.796251,2.411,2.57367
-0.412683,-0.796251,2.411,2.5724
-0.404857,-0.796251,2.411,2.57116
-0.397032,-0.796251,2.411,2.56994
-0.391951,-0.801865,2.428,2.58685
-0.38407,-0.801865,2.428,2.58567
-0.378823,-0.80748,2.445,2.60261
-0.373618,-0.813424,2.463,2.62061
-0.368296,-0.819369,2.481,2.63863
-0.360243,-0.819369,2.481,2.63752
-0.354745,-0.825313,2.499,2.65556
-0.346634,-0.825313,2.499,2.65449
-0.338523,-0.825313,2.499,2.65344
-0.332792,-0.831258,2.517,2.67152
-0.324622,-0.831258,2.517,2.67052
-0.316453,-0.831258,2.517,2.66954
-0.31061,-0.837533,2.536,2.68872
-0.302379,-0.837533,2.536,2.68779
-0.294148,-0.837533,2.536,2.68687
-0.285917,-0.837533,2.536,2.68598
-0.277685,-0.837533,2.536,2.68512
-0.269454,-0.837533,2.536,2.68428
-0.261223,-0.837533,2.536,2.68347
-0.252992,-0.837533,2.536,2.68268
-0.246594,-0.843808,2.555,2.70201
-0.238301,-0.843808,2.555,2.70126
-0.230009,-0.843808,2.555,2.70054
-0.220067,-0.837533,2.536,2.67977
-0.211836,-0.837533,2.536,2.67911
-0.202079,-0.831258,2.517,2.6584
-0.193909,-0.831258,2.517,2.6578
-0.18574,-0.831258,2.517,2.65721
-0.17757,-0.831258,2.517,2.65665
-0.169401,-0.831258,2.517,2.65612
-0.161231,-0.831258,2.517,2.65561
-0.153062,-0.831258,2.517,2.65513
-0.144892,-0.831258,2.517,2.65467
-0.136723,-0.831258,2.517,2.65424
-0.128553,-0.831258,2.517,2.65383
-0.120383,-0.831258,2.517,2.65345
-0.112214,-0.831258,2.517,2.65309
-0.104044,-0.831258,2.517,2.65275
-0.0958747,-0.831258,2.517,2.65245
-0.0883672,-0.837533,2.536,2.67218
-0.080136,-0.837533,2.536,2.67192
-0.0719048,-0.837533,2.536,2.67169
-0.0636736,-0.837533,2.536,2.67148
-0.0554423,-0.837533,2.536,2.6713
-0.0472111,-0.837533,2.536,2.67114
-0.0389799,-0.837533,2.536,2.67101
-0.0307487,-0.837533,2.536,2.6709
-0.0226861,-0.843808,2.555,2.69083
-0.0142862,-0.837533,2.536,2.67076
-0.00605498,-0.837533,2.536,2.67073
0.00217625,-0.837533,2.536,2.67072
0.0104075,-0.837533,2.536,2.67074
0.0186387,-0.837533,2.536,2.67079
0.0268699,-0.837533,2.536,2.67086
0.0351011,-0.837533,2.536,2.67095
0.0433324,-0.837533,2.536,2.67107
0.0515636,-0.837533,2.536,2.67122
0.0597948,-0.837533,2.536,2.67139
0.0680261,-0.837533,2.536,2.67159
0.0762573,-0.837533,2.536,2.67181
0.0844885,-0.837533,2.536,2.67206
0.0927197,-0.837533,2.536,2.67233
0.100951,-0.837533,2.536,2.67263
0.109182,-0.837533,2.536,2.67295
0.117413,-0.837533,2.536,2.6733
0.125645,-0.837533,2.536,2.67368
0.133876,-0.837533,2.536,2.67408
0.141042,-0.831258,2.517,2.65446
0.149212,-0.831258,2.517,2.65491
0.15857,-0.837533,2.536,2.67543
0.166801,-0.837533,2.536,2.67593
0.173721,-0.831258,2.517,2.6564
0.18189,-0.831258,2.517,2.65695
0.19006,-0.831258,2.517,2.65752
0.198229,-0.831258,2.517,2.65811
0.206399,-0.831258,2.517,2.65874
0.214568,-0.831258,2.517,2.65938
0.222738,-0.831258,2.517,2.66005
0.230908,-0.831258,2.517,2.66075
0.240882,-0.837533,2.536,2.68156
0.249113,-0.837533,2.536,2.68232
0.257344,-0.837533,2.536,2.68309
0.265575,-0.837533,2.536,2.68389
0.275858,-0.843808,2.555,2.70484
0.284151,-0.843808,2.555,2.70569
0.292444,-0.843808,2.555,2.70658
0.300737,-0.843808,2.555,2.70749
0.30903,-0.843808,2.555,2.70842
0.317323,-0.843808,2.555,2.70938
0.325615,-0.843808,2.555,2.71036
0.333908,-0.843808,2.555,2.71137
0.344746,-0.850083,2.574,2.73258
0.350494,-0.843808,2.555,2.71346
0.358787,-0.843808,2.555,2.71455
0.36708,-0.843808,2.555,2.71566
0.375373,-0.843808,2.555,2.71679
0.383666,-0.843808,2.555,2.71795
0.391959,-0.843808,2.555,2.71913
0.400252,-0.843808,2.555,2.72034
0.408544,-0.843808,2.555,2.72157
0.416837,-0.843808,2.555,2.72283
0.42513,-0.843808,2.555,2.72411
0.433423,-0.843808,2.555,2.72542
0.441716,-0.843808,2.555,2.72675
0.450009,-0.843808,2.555,2.7281
0.454894,-0.837533,2.536,2.70919
0.463125,-0.837533,2.536,2.71058
0.471356,-0.837533,2.536,2.712
0.479587,-0.837533,2.536,2.71344
0.487819,-0.837533,2.536,2.71491
0.49605,-0.837533,2.536,2.7164
0.504281,-0.837533,2.536,2.71791
0.512512,-0.837533,2.536,2.71945
0.516842,-0.831258,2.517,2.70063
0.521257,-0.825313,2.499,2.68288
0.529368,-0.825313,2.499,2.68447
0.537479,-0.825313,2.499,2.68608
0.54559,-0.825313,2.499,2.68772
0.553702,-0.825313,2.499,2.68937
0.561813,-0.825313,2.499,2.69106
0.569924,-0.825313,2.499,2.69276
0.573871,-0.819369,2.481,2.67508
0.581924,-0.819369,2.481,2.67682
0.589977,-0.819369,2.481,2.67858
0.59803,-0.819369,2.481,2.68037
0.610479,-0.825313,2.499,2.70163
0.618591,-0.825313,2.499,2.70348
0.626702,-0.825313,2.499,2.70535
0.639385,-0.831258,2.517,2.72674
0.647555,-0.831258,2.517,2.72866
0.655725,-0.831258,2.517,2.73061
0.663894,-0.831258,2.517,2.73259
0.672064,-0.831258,2.517,2.73458
0.680233,-0.831258,2.517,2.7366
0.693599,-0.837533,2.536,2.75932
0.70183,-0.837533,2.536,2.7614
0.710062,-0.837533,2.536,2.7635
0.718293,-0.837533,2.536,2.76563
0.726524,-0.837533,2.536,2.76778
0.734755,-0.837533,2.536,2.76995
0.742987,-0.837533,2.536,2.77214
0.751218,-0.837533,2.536,2.77436
0.759449,-0.837533,2.536,2.7766
0.76768,-0.837533,2.536,2.77886
0.770098,-0.831258,2.517,2.76031
0.778268,-0.831258,2.517,2.7626
0.786437,-0.831258,2.517,2.76492
0.794607,-0.831258,2.517,2.76725
0.802777,-0.831258,2.517,2.76961
0.810946,-0.831258,2.517,2.77199
0.819116,-0.831258,2.517,2.77439
0.827285,-0.831258,2.517,2.77681
0.82948,-0.825313,2.499,2.75938
0.837591,-0.825313,2.499,2.76183
0.839611,-0.819369,2.481,2.74439
0.847664,-0.819369,2.481,2.74686
0.855716,-0.819369,2.481,2.74936
0.863769,-0.819369,2.481,2.75188
0.878147,-0.825313,2.499,2.7744
0.879874,-0.819369,2.481,2.75697
0.887927,-0.819369,2.481,2.75955
0.89598,-0.819369,2.481,2.76216
0.904033,-0.819369,2.481,2.76478
0.912085,-0.819369,2.481,2.76742
0.920138,-0.819369,2.481,2.77009
0.928191,-0.819369,2.481,2.77277
nan,nan,nan,NaN
nan,nan,nan,NaN
nan,nan,nan,NaN
nan,nan,nan,NaN
nan,nan,nan,NaN
nan,nan,nan,NaN
nan,nan,nan,NaN
nan,nan,nan,NaN
nan,nan,nan,NaN
nan,nan,nan,NaN
nan,nan,nan,NaN
nan,nan,nan,NaN
nan,nan,nan,NaN
nan,nan,nan,NaN
nan,nan,nan,NaN
nan,nan,nan,NaN
nan,nan,nan,NaN
nan,nan,nan,NaN
nan,nan,nan,NaN
nan,nan,nan,NaN
nan,nan,nan,NaN
nan,nan,nan,NaN
nan,nan,nan,NaN
nan,nan,nan,NaN
nan,nan,nan,NaN
nan,nan,nan,NaN
nan,nan,nan,NaN
nan,nan,nan,NaN
nan,nan,nan,NaN
nan,nan,nan,NaN
nan,nan,nan,NaN
nan,nan,nan,NaN
nan,nan,nan,NaN
nan,nan,nan,NaN
nan,nan,nan,NaN
nan,nan,nan,NaN
nan,nan,nan,NaN
nan,nan,nan,NaN
nan,nan,nan,NaN
nan,nan,nan,NaN
1.65346,-1.07664,3.26,3.8106
1.66404,-1.07664,3.26,3.8152
1.67462,-1.07664,3.26,3.81983
1.6852,-1.07664,3.26,3.82448
1.71243,-1.08721,3.292,3.86674
1.72311,-1.08721,3.292,3.87149
1.7338,-1.08721,3.292,3.87625
1.76144,-1.09778,3.324,3.91877
1.77223,-1.09778,3.324,3.92363
1.78302,-1.09778,3.324,3.92852
1.84723,-1.13047,3.423,4.05058
nan,nan,nan,NaN
nan,nan,nan,NaN
1.95913,-1.1777,3.566,4.23574
1.9707,-1.1777,3.566,4.24111
2.0034,-1.19025,3.604,4.29175
2.0151,-1.19025,3.604,4.29722
2.02679,-1.19025,3.604,4.30272
2.03849,-1.19025,3.604,4.30824
2.05019,-1.19025,3.604,4.31379
2.06189,-1.19025,3.604,4.31936
2.07358,-1.19025,3.604,4.32496
2.08528,-1.19025,3.604,4.33058
2.07487,-1.1777,3.566,4.2905
2.06479,-1.16548,3.529,4.25154
2.07625,-1.16548,3.529,4.25711
2.06641,-1.15359,3.493,4.21922
2.03611,-1.13047,3.423,4.14012
2.04722,-1.13047,3.423,4.1456
2.03788,-1.11924,3.389,4.10986
2.02893,-1.10834,3.356,4.07526
2.03982,-1.10834,3.356,4.08069
2.03116,-1.09778,3.324,4.04718
2.02229,-1.08721,3.292,4.0136
2.03298,-1.08721,3.292,4.01899
2.00517,-1.06673,3.23,3.94861
1.97821,-1.04692,3.17,3.8805
1.95212,-1.02776,3.112,3.81466
1.96222,-1.02776,3.112,3.81984
1.92035,-1.00068,3.03,3.72425
1.91299,-0.991763,3.003,3.6961
1.92273,-0.991763,3.003,3.70115
1.91575,-0.983177,2.977,3.67413
1.89243,-0.966333,2.926,3.61615
1.90192,-0.966333,2.926,3.62113
1.89509,-0.958077,2.901,3.59515
1.90451,-0.958077,2.901,3.60012
1.91392,-0.958077,2.901,3.60511
1.90743,-0.950151,2.877,3.58025
1.90077,-0.942225,2.853,3.55533
1.91004,-0.942225,2.853,3.56029
1.9193,-0.942225,2.853,3.56526
1.91233,-0.934298,2.829,3.54022
1.92151,-0.934298,2.829,3.54519
-2.21925,-1.04611,3.199,4.0315
-2.20887,-1.04611,3.199,4.0258
-2.19848,-1.04611,3.199,4.02011
-2.1881,-1.04611,3.199,4.01444
-2.17772,-1.04611,3.199,4.00879
-2.18834,-1.05625,3.23,4.04195
-2.17785,-1.05625,3.23,4.03629
-2.1875,-1.06606,3.26,4.06808
-2.17692,-1.06606,3.26,4.0624
-2.16634,-1.06606,3.26,4.05674
-2.17692,-1.07653,3.292,4.09086
-2.16623,-1.07653,3.292,4.08519
-2.15555,-1.07653,3.292,4.07953
-2.14486,-1.07653,3.292,4.07389
-2.13418,-1.07653,3.292,4.06828
-2.12349,-1.07653,3.292,4.06268
-2.13335,-1.08699,3.324,4.09655
-2.12256,-1.08699,3.324,4.09094
-2.11177,-1.08699,3.324,4.08535
-2.10098,-1.08699,3.324,4.07978
-2.11031,-1.09745,3.356,4.11346
-2.09942,-1.09745,3.356,4.10788
-2.08853,-1.09745,3.356,4.10233
-2.07763,-1.09745,3.356,4.09679
-2.06674,-1.09745,3.356,4.09128
-2.05585,-1.09745,3.356,4.08579
-2.04496,-1.09745,3.356,4.08032
-2.05406,-1.10825,3.389,4.11494
-2.04306,-1.10825,3.389,4.10946
nan,nan,nan,NaN
nan,nan,nan,NaN
nan,nan,nan,NaN
nan,nan,nan,NaN
nan,nan,nan,NaN
nan,nan,nan,NaN
nan,nan,nan,NaN
nan,nan,nan,NaN
nan,nan,nan,NaN
nan,nan,nan,NaN
nan,nan,nan,NaN
nan,nan,nan,NaN
nan,nan,nan,NaN
nan,nan,nan,NaN
nan,nan,nan,NaN
nan,nan,nan,NaN
nan,nan,nan,NaN
nan,nan,nan,NaN
nan,nan,nan,NaN
nan,nan,nan,NaN
nan,nan,nan,NaN
nan,nan,nan,NaN
nan,nan,nan,NaN
nan,nan,nan,NaN
nan,nan,nan,NaN
nan,nan,nan,NaN
nan,nan,nan,NaN
nan,nan,nan,NaN
-1.45139,-0.932967,2.853,3.33415
-1.43,-0.925119,2.829,3.30212
-1.42082,-0.925119,2.829,3.29815
-1.40016,-0.917597,2.806,3.26743
-1.35784,-0.895688,2.739,3.18561
-1.34895,-0.895688,2.739,3.18183
-1.32929,-0.888493,2.717,3.15254
-1.32047,-0.888493,2.717,3.14884
-1.28124,-0.867892,2.654,3.07222
-1.27263,-0.867892,2.654,3.06864
-1.24449,-0.854484,2.613,3.01772
-1.22654,-0.847944,2.593,2.99117
-1.21813,-0.847944,2.593,2.98772
-1.20971,-0.847944,2.593,2.9843
-1.2013,-0.847944,2.593,2.9809
nan,nan,nan,NaN
-1.16711,-0.835517,2.555,2.93057
-1.1502,-0.829304,2.536,2.90551
-1.14196,-0.829304,2.536,2.90226
-1.13373,-0.829304,2.536,2.89903
nan,nan,nan,NaN
nan,nan,nan,NaN
nan,nan,nan,NaN
nan,nan,nan,NaN
nan,nan,nan,NaN
nan,nan,nan,NaN
nan,nan,nan,NaN
-1.06788,-0.829304,2.536,2.87392
-1.05965,-0.829304,2.536,2.87087
-1.05142,-0.829304,2.536,2.86784
-1.04319,-0.829304,2.536,2.86484
-1.04271,-0.835517,2.555,2.88329
-1.03442,-0.835517,2.555,2.8803
-1.0185,-0.829304,2.536,2.85594
-1.01026,-0.829304,2.536,2.85301
-1.00203,-0.829304,2.536,2.85011
-0.986356,-0.823091,2.517,2.82589
-0.971191,-0.817205,2.499,2.80286
-0.96308,-0.817205,2.499,2.80006
-0.948091,-0.811318,2.481,2.77713
-0.926398,-0.799546,2.445,2.73414
-0.918462,-0.799546,2.445,2.73146
-0.904195,-0.793987,2.428,2.70983
-0.896315,-0.793987,2.428,2.70721
-0.888434,-0.793987,2.428,2.70461
-0.880553,-0.793987,2.428,2.70203
-0.872672,-0.793987,2.428,2.69947
-0.858737,-0.788427,2.411,2.67805
-0.850911,-0.788427,2.411,2.67555
-0.843086,-0.788427,2.411,2.67308
-0.84115,-0.793987,2.428,2.68945
-0.833269,-0.793987,2.428,2.68699
-0.825388,-0.793987,2.428,2.68456
-0.823232,-0.799546,2.445,2.70093
-0.821298,-0.805432,2.463,2.71839
-0.813304,-0.805432,2.463,2.71598
-0.805309,-0.805432,2.463,2.7136
-0.803142,-0.811318,2.481,2.73105
-0.795089,-0.811318,2.481,2.72869
-0.787037,-0.811318,2.481,2.72636
-0.784635,-0.817205,2.499,2.74381
-0.782118,-0.823091,2.517,2.76125
-0.773948,-0.823091,2.517,2.75894
-0.765778,-0.823091,2.517,2.75666
-0.757609,-0.823091,2.517,2.7544
-0.749439,-0.823091,2.517,2.75217
-0.74127,-0.823091,2.517,2.74995
-0.7331,-0.823091,2.517,2.74776
-0.724931,-0.823091,2.517,2.7456
-0.716761,-0.823091,2.517,2.74345
-0.708592,-0.823091,2.517,2.74133
-0.700422,-0.823091,2.517,2.73923
-0.692252,-0.823091,2.517,2.73715
-0.684083,-0.823091,2.517,2.73509
-0.67108,-0.817205,2.499,2.71352
-0.662968,-0.817205,2.499,2.71152
-0.654857,-0.817205,2.499,2.70955
-0.646746,-0.817205,2.499,2.7076
-0.638635,-0.817205,2.499,2.70568
-0.625982,-0.811318,2.481,2.6843
-0.61793,-0.811318,2.481,2.68243
-0.609877,-0.811318,2.481,2.68059
-0.601824,-0.811318,2.481,2.67877
-0.589464,-0.805432,2.463,2.65755
-0.581469,-0.805432,2.463,2.65579
-0.573475,-0.805432,2.463,2.65405
-0.565481,-0.805432,2.463,2.65233
-0.553412,-0.799546,2.445,2.63127
-0.545476,-0.799546,2.445,2.62961
-0.53754,-0.799546,2.445,2.62797
-0.529605,-0.799546,2.445,2.62636
-0.521669,-0.799546,2.445,2.62477
-0.513733,-0.799546,2.445,2.62321
-0.505797,-0.799546,2.445,2.62167
-0.497861,-0.799546,2.445,2.62015
-0.486519,-0.793987,2.428,2.60044
-0.478638,-0.793987,2.428,2.59898
-0.470758,-0.793987,2.428,2.59754
-0.459636,-0.788427,2.411,2.57795
-0.45181,-0.788427,2.411,2.57656
-0.443985,-0.788427,2.411,2.5752
-0.436159,-0.788427,2.411,2.57386
-0.428334,-0.788427,2.411,2.57255
-0.420508,-0.788427,2.411,2.57126
-0.412683,-0.788427,2.411,2.56999
-0.404857,-0.788427,2.411,2.56874
-0.397032,-0.788427,2.411,2.56752
-0.391951,-0.793987,2.428,2.58442
-0.38407,-0.793987,2.428,2.58324
-0.378823,-0.799546,2.445,2.60016
-0.373618,-0.805432,2.463,2.61814
-0.368296,-0.811318,2.481,2.63614
-0.360243,-0.811318,2.481,2.63503
-0.354745,-0.817205,2.499,2.65305
-0.346634,-0.817205,2.499,2.65198
-0.338523,-0.817205,2.499,2.65093
-0.332792,-0.823091,2.517,2.66899
-0.324622,-0.823091,2.517,2.66799
-0.316453,-0.823091,2.517,2.667
-0.31061,-0.829304,2.536,2.68617
-0.302379,-0.829304,2.536,2.68523
-0.294148,-0.829304,2.536,2.68432
-0.285917,-0.829304,2.536,2.68343
-0.277685,-0.829304,2.536,2.68256
-0.269454,-0.829304,2.536,2.68172
-0.261223,-0.829304,2.536,2.68091
-0.252992,-0.829304,2.536,2.68012
-0.246594,-0.835517,2.555,2.69943
-0.238301,-0.835517,2.555,2.69869
-0.230009,-0.835517,2.555,2.69797
-0.220067,-0.829304,2.536,2.67721
-0.211836,-0.829304,2.536,2.67655
-0.202079,-0.823091,2.517,2.65586
-0.193909,-0.823091,2.517,2.65525
-0.187142,-0.829304,2.536,2.67471
-0.178911,-0.829304,2.536,2.67414
-0.170679,-0.829304,2.536,2.67361
-0.162448,-0.829304,2.536,2.67309
-0.153062,-0.823091,2.517,2.65258
-0.144892,-0.823091,2.517,2.65212
-0.136723,-0.823091,2.517,2.65169
-0.128553,-0.823091,2.517,2.65128
-0.120383,-0.823091,2.517,2.6509
-0.112214,-0.823091,2.517,2.65054
-0.10483,-0.829304,2.536,2.67021
-0.0965985,-0.829304,2.536,2.6699
-0.0883672,-0.829304,2.536,2.66962
-0.0807364,-0.835517,2.555,2.68936
-0.0719048,-0.829304,2.536,2.66912
-0.0636736,-0.829304,2.536,2.66891
-0.0554423,-0.829304,2.536,2.66873
-0.0472111,-0.829304,2.536,2.66857
-0.0389799,-0.829304,2.536,2.66844
-0.0307487,-0.829304,2.536,2.66833
-0.0226861,-0.835517,2.555,2.68824
-0.0142862,-0.829304,2.536,2.66819
-0.00605498,-0.829304,2.536,2.66816
0.00217625,-0.829304,2.536,2.66815
0.0104075,-0.829304,2.536,2.66817
0.0186387,-0.829304,2.536,2.66822
0.0268699,-0.829304,2.536,2.66829
0.0351011,-0.829304,2.536,2.66838
0.0433324,-0.829304,2.536,2.6685
0.0515636,-0.829304,2.536,2.66865
0.0597948,-0.829304,2.536,2.66882
0.0680261,-0.829304,2.536,2.66902
0.0762573,-0.829304,2.536,2.66924
0.0844885,-0.829304,2.536,2.66949
0.0927197,-0.829304,2.536,2.66976
0.100951,-0.829304,2.536,2.67006
0.109182,-0.829304,2.536,2.67039
0.117413,-0.829304,2.536,2.67074
0.124703,-0.823091,2.517,2.6511
0.132873,-0.823091,2.517,2.65149
0.141042,-0.823091,2.517,2.65192
0.149212,-0.823091,2.517,2.65236
0.157382,-0.823091,2.517,2.65284
0.165551,-0.823091,2.517,2.65333
0.173721,-0.823091,2.517,2.65386
0.18189,-0.823091,2.517,2.6544
0.19006,-0.823091,2.517,2.65497
0.198229,-0.823091,2.517,2.65557
0.206399,-0.823091,2.517,2.65619
0.214568,-0.823091,2.517,2.65684
0.222738,-0.823091,2.517,2.65751
0.230908,-0.823091,2.517,2.65821
0.239077,-0.823091,2.517,2.65893
0.247247,-0.823091,2.517,2.65968
0.255416,-0.823091,2.517,2.66045
0.263586,-0.823091,2.517,2.66125
0.271755,-0.823091,2.517,2.66207
0.279925,-0.823091,2.517,2.66292
0.288094,-0.823091,2.517,2.66379
0.2985,-0.829304,2.536,2.6848
0.306732,-0.829304,2.536,2.68573
0.317323,-0.835517,2.555,2.70681
0.325615,-0.835517,2.555,2.70779
0.333908,-0.835517,2.555,2.7088
0.342201,-0.835517,2.555,2.70984
0.350494,-0.835517,2.555,2.7109
0.358787,-0.835517,2.555,2.71198
0.36708,-0.835517,2.555,2.71309
0.375373,-0.835517,2.555,2.71423
0.383666,-0.835517,2.555,2.71538
0.391959,-0.835517,2.555,2.71657
0.400252,-0.835517,2.555,2.71778
0.408544,-0.835517,2.555,2.71901
0.416837,-0.835517,2.555,2.72027
0.42513,-0.835517,2.555,2.72155
0.433423,-0.835517,2.555,2.72286
0.441716,-0.835517,2.555,2.72419
0.446662,-0.829304,2.536,2.70528
0.451486,-0.823091,2.517,2.68637
0.459655,-0.823091,2.517,2.68776
0.467825,-0.823091,2.517,2.68917
0.479587,-0.829304,2.536,2.71091
0.487819,-0.829304,2.536,2.71238
0.492333,-0.823091,2.517,2.69354
0.500503,-0.823091,2.517,2.69505
0.508672,-0.823091,2.517,2.69657
0.513146,-0.817205,2.499,2.67883
0.521257,-0.817205,2.499,2.6804
0.529368,-0.817205,2.499,2.68199
0.533608,-0.811318,2.481,2.66427
0.541661,-0.811318,2.481,2.66589
0.549713,-0.811318,2.481,2.66754
0.557766,-0.811318,2.481,2.66921
0.565819,-0.811318,2.481,2.67091
0.573871,-0.811318,2.481,2.67263
0.581924,-0.811318,2.481,2.67437
0.589977,-0.811318,2.481,2.67613
0.59803,-0.811318,2.481,2.67792
0.606082,-0.811318,2.481,2.67973
0.614135,-0.811318,2.481,2.68156
0.622188,-0.811318,2.481,2.68342
0.634813,-0.817205,2.499,2.70478
0.642924,-0.817205,2.499,2.70669
0.651035,-0.817205,2.499,2.70863
0.659146,-0.817205,2.499,2.71059
0.672064,-0.823091,2.517,2.73211
0.680233,-0.823091,2.517,2.73413
0.688403,-0.823091,2.517,2.73618
0.696572,-0.823091,2.517,2.73824
0.704742,-0.823091,2.517,2.74033
0.712911,-0.823091,2.517,2.74245
0.721081,-0.823091,2.517,2.74458
0.729251,-0.823091,2.517,2.74674
0.73742,-0.823091,2.517,2.74892
0.74559,-0.823091,2.517,2.75112
0.753759,-0.823091,2.517,2.75335
0.761929,-0.823091,2.517,2.75559
0.770098,-0.823091,2.517,2.75786
0.778268,-0.823091,2.517,2.76016
0.780813,-0.817205,2.499,2.74272
0.788924,-0.817205,2.499,2.74504
0.797036,-0.817205,2.499,2.74738
0.805147,-0.817205,2.499,2.74974
0.8074,-0.811318,2.481,2.73231
0.815453,-0.811318,2.481,2.7347
0.823505,-0.811318,2.481,2.73711
0.831558,-0.811318,2.481,2.73954
0.839611,-0.811318,2.481,2.742
0.847664,-0.811318,2.481,2.74447
0.855716,-0.811318,2.481,2.74697
0.857502,-0.805432,2.463,2.72954
0.865497,-0.805432,2.463,2.73206
0.873491,-0.805432,2.463,2.73461
0.875043,-0.799546,2.445,2.71717
0.882979,-0.799546,2.445,2.71973
0.890915,-0.799546,2.445,2.72232
0.898851,-0.799546,2.445,2.72493
0.920138,-0.811318,2.481,2.76772
0.928191,-0.811318,2.481,2.7704
nan,nan,nan,NaN
nan,nan,nan,NaN
nan,nan,nan,NaN
nan,nan,nan,NaN
nan,nan,nan,NaN
nan,nan,nan,NaN
nan,nan,nan,NaN
nan,nan,nan,NaN
nan,nan,nan,NaN
nan,nan,nan,NaN
nan,nan,nan,NaN
nan,nan,nan,NaN
nan,nan,nan,NaN
nan,nan,nan,NaN
nan,nan,nan,NaN
nan,nan,nan,NaN
nan,nan,nan,NaN
nan,nan,nan,NaN
nan,nan,nan,NaN
nan,nan,nan,NaN
nan,nan,nan,NaN
nan,nan,nan,NaN
nan,nan,nan,NaN
nan,nan,nan,NaN
nan,nan,nan,NaN
nan,nan,nan,NaN
nan,nan,nan,NaN
nan,nan,nan,NaN
nan,nan,nan,NaN
nan,nan,nan,NaN
nan,nan,nan,NaN
nan,nan,nan,NaN
nan,nan,nan,NaN
nan,nan,nan,NaN
nan,nan,nan,NaN
nan,nan,nan,NaN
1.59631,-1.05625,3.23,3.75457
1.60679,-1.05625,3.23,3.75903
1.61727,-1.05625,3.23,3.76353
1.62776,-1.05625,3.23,3.76804
1.63824,-1.05625,3.23,3.77259
1.64872,-1.05625,3.23,3.77715
1.67462,-1.06606,3.26,3.81686
1.6852,-1.06606,3.26,3.82152
1.71243,-1.07653,3.292,3.86375
1.72311,-1.07653,3.292,3.8685
1.7338,-1.07653,3.292,3.87327
1.76144,-1.08699,3.324,3.91576
1.77223,-1.08699,3.324,3.92063
1.78302,-1.08699,3.324,3.92552
nan,nan,nan,NaN
nan,nan,nan,NaN
nan,nan,nan,NaN
1.95913,-1.16613,3.566,4.23254
1.9707,-1.16613,3.566,4.23791
2.0034,-1.17855,3.604,4.28852
2.0151,-1.17855,3.604,4.294
2.02679,-1.17855,3.604,4.2995
2.03849,-1.17855,3.604,4.30503
2.05019,-1.17855,3.604,4.31058
2.06189,-1.17855,3.604,4.31615
2.07358,-1.17855,3.604,4.32175
2.08528,-1.17855,3.604,4.32738
2.07487,-1.16613,3.566,4.28734
2.06479,-1.15403,3.529,4.24841
2.07625,-1.15403,3.529,4.25399
2.06641,-1.14226,3.493,4.21614
2.03611,-1.11936,3.423,4.1371
2.04722,-1.11936,3.423,4.14258
2.03788,-1.10825,3.389,4.10688
2.02893,-1.09745,3.356,4.07231
2.03982,-1.09745,3.356,4.07775
2.03116,-1.08699,3.324,4.04427
2.02229,-1.07653,3.292,4.01072
2.03298,-1.07653,3.292,4.01611
2.00517,-1.05625,3.23,3.94579
1.97821,-1.03663,3.17,3.87774
1.95212,-1.01766,3.112,3.81195
1.96222,-1.01766,3.112,3.81713
1.92035,-0.990848,3.03,3.72162
1.91299,-0.982019,3.003,3.69349
1.92273,-0.982019,3.003,3.69855
1.91575,-0.973517,2.977,3.67156
1.9086,-0.965014,2.951,3.6445
1.91817,-0.965014,2.951,3.64953
1.91142,-0.956839,2.926,3.62361
1.90451,-0.948664,2.901,3.59763
1.91392,-0.948664,2.901,3.60262
1.90743,-0.940815,2.877,3.57778
1.91676,-0.940815,2.877,3.58277
1.9261,-0.940815,2.877,3.58778
1.9193,-0.932967,2.853,3.56283
1.91233,-0.925119,2.829,3.53781
1.92151,-0.925119,2.829,3.54278
-2.24076,-1.04577,3.23,4.06787
-2.23027,-1.04577,3.23,4.0621
-2.21979,-1.04577,3.23,4.05635
-2.20931,-1.04577,3.23,4.05063
-2.19882,-1.04577,3.23,4.04492
-2.18834,-1.04577,3.23,4.03923
-2.19808,-1.05548,3.26,4.07102
-2.1875,-1.05548,3.26,4.06532
-2.17692,-1.05548,3.26,4.05963
-2.1876,-1.06584,3.292,4.09376
-2.17692,-1.06584,3.292,4.08806
-2.16623,-1.06584,3.292,4.08238
-2.15555,-1.06584,3.292,4.07672
-2.14486,-1.06584,3.292,4.07108
-2.13418,-1.06584,3.292,4.06546
-2.14413,-1.0762,3.324,4.09933
-2.13335,-1.0762,3.324,4.0937
-2.12256,-1.0762,3.324,4.08809
-2.11177,-1.0762,3.324,4.08249
-2.10098,-1.0762,3.324,4.07692
-2.11031,-1.08656,3.356,4.11057
-2.09942,-1.08656,3.356,4.10499
-2.08853,-1.08656,3.356,4.09943
-2.07763,-1.08656,3.356,4.09389
-2.06674,-1.08656,3.356,4.08837
-2.05585,-1.08656,3.356,4.08288
-2.04496,-1.08656,3.356,4.0774
-2.05406,-1.09725,3.389,4.11199
-2.04306,-1.09725,3.389,4.10651
nan,nan,nan,NaN
nan,nan,nan,NaN
nan,nan,nan,NaN
nan,nan,nan,NaN
nan,nan,nan,NaN
nan,nan,nan,NaN
nan,nan,nan,NaN
nan,nan,nan,NaN
nan,nan,nan,NaN
nan,nan,nan,NaN
nan,nan,nan,NaN
nan,nan,nan,NaN
nan,nan,nan,NaN
nan,nan,nan,NaN
nan,nan,nan,NaN
nan,nan,nan,NaN
nan,nan,nan,NaN
nan,nan,nan,NaN
nan,nan,nan,NaN
nan,nan,nan,NaN
nan,nan,nan,NaN
nan,nan,nan,NaN
nan,nan,nan,NaN
nan,nan,nan,NaN
nan,nan,nan,NaN
nan,nan,nan,NaN
-1.49464,-0.93925,2.901,3.39587
-1.48523,-0.93925,2.901,3.39174
-1.45139,-0.92371,2.853,3.33157
-1.43,-0.915939,2.829,3.29956
-1.42082,-0.915939,2.829,3.29559
-1.40016,-0.908493,2.806,3.26488
-1.36874,-0.893923,2.761,3.20869
-1.35978,-0.893923,2.761,3.20488
nan,nan,nan,NaN
nan,nan,nan,NaN
-1.28124,-0.85928,2.654,3.0698
-1.27263,-0.85928,2.654,3.06621
-1.24449,-0.846005,2.613,3.01533
-1.21756,-0.833378,2.574,2.96689
-1.2092,-0.833378,2.574,2.96347
-1.20085,-0.833378,2.574,2.96007
nan,nan,nan,NaN
nan,nan,nan,NaN
-1.14975,-0.814924,2.517,2.88467
-1.14158,-0.814924,2.517,2.88142
nan,nan,nan,NaN
nan,nan,nan,NaN
nan,nan,nan,NaN
nan,nan,nan,NaN
nan,nan,nan,NaN
-1.06131,-0.791612,2.445,2.78048
-1.05337,-0.791612,2.445,2.77746
-1.05313,-0.79744,2.463,2.79488
-1.04514,-0.79744,2.463,2.79188
-1.04472,-0.803268,2.481,2.80928
-1.04419,-0.809096,2.499,2.82665
-1.03608,-0.809096,2.499,2.82367
-1.04319,-0.821075,2.536,2.86246
-1.04271,-0.827227,2.555,2.8809
-1.03442,-0.827227,2.555,2.87791
-1.0185,-0.821075,2.536,2.85356
-1.01026,-0.821075,2.536,2.85063
-1.00203,-0.821075,2.536,2.84772
-0.986356,-0.814924,2.517,2.82352
-0.971191,-0.809096,2.499,2.80051
-0.96308,-0.809096,2.499,2.79771
-0.948091,-0.803268,2.481,2.77479
-0.926398,-0.791612,2.445,2.73183
-0.918462,-0.791612,2.445,2.72915
-0.904195,-0.786108,2.428,2.70753
-0.896315,-0.786108,2.428,2.70491
-0.888434,-0.786108,2.428,2.70231
-0.880553,-0.786108,2.428,2.69973
-0.872672,-0.786108,2.428,2.69717
-0.858737,-0.780604,2.411,2.67576
-0.850911,-0.780604,2.411,2.67326
-0.843086,-0.780604,2.411,2.67078
-0.84115,-0.786108,2.428,2.68713
-0.833269,-0.786108,2.428,2.68468
-0.825388,-0.786108,2.428,2.68224
-0.823232,-0.791612,2.445,2.69859
-0.821298,-0.79744,2.463,2.71603
-0.813304,-0.79744,2.463,2.71362
-0.805309,-0.79744,2.463,2.71124
-0.803142,-0.803268,2.481,2.72867
-0.795089,-0.803268,2.481,2.72631
-0.787037,-0.803268,2.481,2.72397
-0.784635,-0.809096,2.499,2.7414
-0.782118,-0.814924,2.517,2.75882
-0.773948,-0.814924,2.517,2.75652
-0.765778,-0.814924,2.517,2.75423
-0.757609,-0.814924,2.517,2.75197
-0.749439,-0.814924,2.517,2.74974
-0.74127,-0.814924,2.517,2.74752
-0.7331,-0.814924,2.517,2.74533
-0.724931,-0.814924,2.517,2.74316
-0.716761,-0.814924,2.517,2.74101
-0.708592,-0.814924,2.517,2.73889
-0.700422,-0.814924,2.517,2.73678
-0.692252,-0.814924,2.517,2.7347
-0.684083,-0.814924,2.517,2.73265
-0.67108,-0.809096,2.499,2.71109
-0.662968,-0.809096,2.499,2.70909
-0.654857,-0.809096,2.499,2.70712
-0.646746,-0.809096,2.499,2.70516
-0.638635,-0.809096,2.499,2.70324
-0.625982,-0.803268,2.481,2.68188
-0.61793,-0.803268,2.481,2.68001
-0.609877,-0.803268,2.481,2.67816
-0.601824,-0.803268,2.481,2.67634
-0.589464,-0.79744,2.463,2.65514
-0.581469,-0.79744,2.463,2.65337
-0.573475,-0.79744,2.463,2.65163
-0.565481,-0.79744,2.463,2.64991
-0.553412,-0.791612,2.445,2.62887
-0.545476,-0.791612,2.445,2.62721
-0.53754,-0.791612,2.445,2.62557
-0.529605,-0.791612,2.445,2.62396
-0.521669,-0.791612,2.445,2.62237
-0.513733,-0.791612,2.445,2.6208
-0.505797,-0.791612,2.445,2.61926
-0.497861,-0.791612,2.445,2.61774
-0.486519,-0.786108,2.428,2.59805
-0.475287,-0.780604,2.411,2.5784
-0.467461,-0.780604,2.411,2.57697
-0.456395,-0.7751,2.394,2.5574
-0.448625,-0.7751,2.394,2.55603
-0.437724,-0.769596,2.377,2.53654
-0.430009,-0.769596,2.377,2.53521
-0.422294,-0.769596,2.377,2.53392
-0.414578,-0.769596,2.377,2.53264
-0.409773,-0.7751,2.394,2.5495
-0.402003,-0.7751,2.394,2.54826
-0.394232,-0.7751,2.394,2.54704
-0.389206,-0.780604,2.411,2.56393
-0.381381,-0.780604,2.411,2.56276
-0.376189,-0.786108,2.428,2.57966
-0.370887,-0.791612,2.445,2.59658
-0.365624,-0.79744,2.463,2.61457
-0.357629,-0.79744,2.463,2.61346
-0.35219,-0.803268,2.481,2.63147
-0.344137,-0.803268,2.481,2.63041
-0.336085,-0.803268,2.481,2.62936
-0.328032,-0.803268,2.481,2.62835
-0.322301,-0.809096,2.499,2.64642
-0.31419,-0.809096,2.499,2.64544
-0.306079,-0.809096,2.499,2.64449
-0.297967,-0.809096,2.499,2.64356
-0.289856,-0.809096,2.499,2.64266
-0.281745,-0.809096,2.499,2.64178
-0.273634,-0.809096,2.499,2.64093
-0.267435,-0.814924,2.517,2.65912
-0.259266,-0.814924,2.517,2.65831
-0.251096,-0.814924,2.517,2.65753
-0.244761,-0.821075,2.536,2.67682
-0.236529,-0.821075,2.536,2.67608
-0.228298,-0.821075,2.536,2.67537
-0.218418,-0.814924,2.517,2.65464
-0.210249,-0.814924,2.517,2.65398
-0.202079,-0.814924,2.517,2.65334
-0.193909,-0.814924,2.517,2.65273
-0.18574,-0.814924,2.517,2.65215
-0.17757,-0.814924,2.517,2.65159
-0.170679,-0.821075,2.536,2.67107
-0.162448,-0.821075,2.536,2.67055
-0.153062,-0.814924,2.517,2.65006
-0.144892,-0.814924,2.517,2.6496
-0.136723,-0.814924,2.517,2.64917
-0.128553,-0.814924,2.517,2.64876
-0.120383,-0.814924,2.517,2.64837
-0.112214,-0.814924,2.517,2.64801
-0.10483,-0.821075,2.536,2.66767
-0.0965985,-0.821075,2.536,2.66736
-0.0883672,-0.821075,2.536,2.66707
-0.080136,-0.821075,2.536,2.66681
-0.0719048,-0.821075,2.536,2.66658
-0.0636736,-0.821075,2.536,2.66637
-0.0554423,-0.821075,2.536,2.66618
-0.0472111,-0.821075,2.536,2.66602
-0.0389799,-0.821075,2.536,2.66589
-0.0307487,-0.821075,2.536,2.66578
-0.0225174,-0.821075,2.536,2.6657
-0.0142862,-0.821075,2.536,2.66565
-0.00600962,-0.814924,2.517,2.64564
0.00215994,-0.814924,2.517,2.64564
0.0103295,-0.814924,2.517,2.64566
0.0184991,-0.814924,2.517,2.6457
0.0266686,-0.814924,2.517,2.64577
0.0348382,-0.814924,2.517,2.64587
0.0430077,-0.814924,2.517,2.64599
0.0511773,-0.814924,2.517,2.64613
0.0593468,-0.814924,2.517,2.6463
0.0675164,-0.814924,2.517,2.6465
0.075686,-0.814924,2.517,2.64672
0.0838555,-0.814924,2.517,2.64696
0.0920251,-0.814924,2.517,2.64724
0.100195,-0.814924,2.517,2.64753
0.109182,-0.821075,2.536,2.66784
0.116534,-0.814924,2.517,2.6482
0.124703,-0.814924,2.517,2.64857
0.132873,-0.814924,2.517,2.64897
0.141042,-0.814924,2.517,2.64939
0.149212,-0.814924,2.517,2.64984
0.157382,-0.814924,2.517,2.65031
0.165551,-0.814924,2.517,2.65081
0.173721,-0.814924,2.517,2.65133
0.18189,-0.814924,2.517,2.65188
0.19006,-0.814924,2.517,2.65245
0.196812,-0.809096,2.499,2.63408
0.204923,-0.809096,2.499,2.6347
0.213034,-0.809096,2.499,2.63534
0.221145,-0.809096,2.499,2.63601
0.229256,-0.809096,2.499,2.6367
0.237367,-0.809096,2.499,2.63742
0.245479,-0.809096,2.499,2.63816
0.25359,-0.809096,2.499,2.63893
0.263586,-0.814924,2.517,2.65873
0.271755,-0.814924,2.517,2.65956
0.279925,-0.814924,2.517,2.6604
0.288094,-0.814924,2.517,2.66128
0.2985,-0.821075,2.536,2.68227
0.306732,-0.821075,2.536,2.6832
0.314963,-0.821075,2.536,2.68415
0.323194,-0.821075,2.536,2.68513
0.331425,-0.821075,2.536,2.68613
0.339657,-0.821075,2.536,2.68716
0.347888,-0.821075,2.536,2.68821
0.356119,-0.821075,2.536,2.68929
0.36435,-0.821075,2.536,2.69039
0.372581,-0.821075,2.536,2.69152
0.380813,-0.821075,2.536,2.69267
0.389044,-0.821075,2.536,2.69385
0.397275,-0.821075,2.536,2.69505
0.408544,-0.827227,2.555,2.71648
0.413738,-0.821075,2.536,2.69752
0.421969,-0.821075,2.536,2.6988
0.4302,-0.821075,2.536,2.7001
0.438431,-0.821075,2.536,2.70142
0.446662,-0.821075,2.536,2.70277
0.451486,-0.814924,2.517,2.68388
0.459655,-0.814924,2.517,2.68527
0.467825,-0.814924,2.517,2.68668
0.479587,-0.821075,2.536,2.70841
0.487819,-0.821075,2.536,2.70988
0.492333,-0.814924,2.517,2.69106
0.500503,-0.814924,2.517,2.69256
0.508672,-0.814924,2.517,2.69409
0.513146,-0.809096,2.499,2.67637
0.521257,-0.809096,2.499,2.67794
0.529368,-0.809096,2.499,2.67953
0.533608,-0.803268,2.481,2.66183
0.541661,-0.803268,2.481,2.66346
0.549713,-0.803268,2.481,2.66511
0.557766,-0.803268,2.481,2.66678
0.561714,-0.79744,2.463,2.64911
0.569708,-0.79744,2.463,2.65082
0.577702,-0.79744,2.463,2.65255
0.585697,-0.79744,2.463,2.6543
0.59803,-0.803268,2.481,2.67549
0.606082,-0.803268,2.481,2.6773
0.614135,-0.803268,2.481,2.67913
0.622188,-0.803268,2.481,2.68099
0.634813,-0.809096,2.499,2.70234
0.642924,-0.809096,2.499,2.70425
0.651035,-0.809096,2.499,2.70619
0.659146,-0.809096,2.499,2.70816
0.667257,-0.809096,2.499,2.71014
0.675369,-0.809096,2.499,2.71215
0.68348,-0.809096,2.499,2.71418
0.691591,-0.809096,2.499,2.71624
0.699702,-0.809096,2.499,2.71831
0.712911,-0.814924,2.517,2.74001
0.721081,-0.814924,2.517,2.74214
0.729251,-0.814924,2.517,2.7443
0.732147,-0.809096,2.499,2.72684
0.740258,-0.809096,2.499,2.72903
0.748369,-0.809096,2.499,2.73124
0.75648,-0.809096,2.499,2.73348
0.764591,-0.809096,2.499,2.73573
0.778268,-0.814924,2.517,2.75773
0.780813,-0.809096,2.499,2.74031
0.788924,-0.809096,2.499,2.74263
0.797036,-0.809096,2.499,2.74498
0.805147,-0.809096,2.499,2.74734
0.8074,-0.803268,2.481,2.72993
0.815453,-0.803268,2.481,2.73232
0.823505,-0.803268,2.481,2.73473
0.831558,-0.803268,2.481,2.73717
0.839611,-0.803268,2.481,2.73963
0.847664,-0.803268,2.481,2.7421
0.855716,-0.803268,2.481,2.7446
0.857502,-0.79744,2.463,2.72719
0.865497,-0.79744,2.463,2.72972
0.873491,-0.79744,2.463,2.73226
0.875043,-0.791612,2.445,2.71484
0.882979,-0.791612,2.445,2.71741
0.890915,-0.791612,2.445,2.72
0.898851,-0.791612,2.445,2.72261
nan,nan,nan,NaN
nan,nan,nan,NaN
nan,nan,nan,NaN
nan,nan,nan,NaN
nan,nan,nan,NaN
nan,nan,nan,NaN
nan,nan,nan,NaN
nan,nan,nan,NaN
nan,nan,nan,NaN
nan,nan,nan,NaN
nan,nan,nan,NaN
nan,nan,nan,NaN
nan,nan,nan,NaN
nan,nan,nan,NaN
nan,nan,nan,NaN
nan,nan,nan,NaN
nan,nan,nan,NaN
nan,nan,nan,NaN
nan,nan,nan,NaN
nan,nan,nan,NaN
nan,nan,nan,NaN
nan,nan,nan,NaN
nan,nan,nan,NaN
nan,nan,nan,NaN
nan,nan,nan,NaN
nan,nan,nan,NaN
nan,nan,nan,NaN
nan,nan,nan,NaN
nan,nan,nan,NaN
nan,nan,nan,NaN
nan,nan,nan,NaN
nan,nan,nan,NaN
nan,nan,nan,NaN
nan,nan,nan,NaN
nan,nan,nan,NaN
nan,nan,nan,NaN
nan,nan,nan,NaN
nan,nan,nan,NaN
1.59631,-1.04577,3.23,3.75163
1.60679,-1.04577,3.23,3.7561
1.61727,-1.04577,3.23,3.7606
1.62776,-1.04577,3.23,3.76512
1.63824,-1.04577,3.23,3.76966
1.64872,-1.04577,3.23,3.77423
1.67462,-1.05548,3.26,3.81392
1.6852,-1.05548,3.26,3.81858
1.71243,-1.06584,3.292,3.86079
1.72311,-1.06584,3.292,3.86554
1.7338,-1.06584,3.292,3.87032
1.76144,-1.0762,3.324,3.91278
1.77223,-1.0762,3.324,3.91765
1.78302,-1.0762,3.324,3.92254
nan,nan,nan,NaN
nan,nan,nan,NaN
nan,nan,nan,NaN
1.95913,-1.15456,3.566,4.22937
1.9707,-1.15456,3.566,4.23474
2.0034,-1.16686,3.604,4.28532
2.0151,-1.16686,3.604,4.2908
2.00542,-1.15456,3.566,4.25101
2.017,-1.15456,3.566,4.25648
2.02857,-1.15456,3.566,4.26198
2.04015,-1.15456,3.566,4.2675
2.05172,-1.15456,3.566,4.27305
2.06329,-1.15456,3.566,4.27861
2.05334,-1.14258,3.529,4.23976
2.06479,-1.14258,3.529,4.24532
2.07625,-1.14258,3.529,4.2509
2.06641,-1.13092,3.493,4.21308
2.03611,-1.10826,3.423,4.13411
2.04722,-1.10826,3.423,4.1396
2.03788,-1.09725,3.389,4.10393
2.02893,-1.08656,3.356,4.06939
2.03982,-1.08656,3.356,4.07483
2.03116,-1.0762,3.324,4.04139
2.02229,-1.06584,3.292,4.00786
2.03298,-1.06584,3.292,4.01326
2.00517,-1.04577,3.23,3.943
1.97821,-1.02634,3.17,3.875
1.95212,-1.00757,3.112,3.80927
1.96222,-1.00757,3.112,3.81445
1.92035,-0.981017,3.03,3.71901
1.91299,-0.972275,3.003,3.69091
1.92273,-0.972275,3.003,3.69598
1.91575,-0.963857,2.977,3.66901
1.9086,-0.955439,2.951,3.64198
1.91817,-0.955439,2.951,3.64701
1.91142,-0.947345,2.926,3.62111
1.90451,-0.93925,2.901,3.59515
1.91392,-0.93925,2.901,3.60015
1.90743,-0.93148,2.877,3.57534
1.91676,-0.93148,2.877,3.58033
1.9261,-0.93148,2.877,3.58534
1.9193,-0.92371,2.853,3.56041
1.91233,-0.915939,2.829,3.53542
1.92151,-0.915939,2.829,3.5404
-2.26157,-1.0449,3.26,4.10294
-2.25099,-1.0449,3.26,4.09712
-2.24041,-1.0449,3.26,4.09131
-2.22983,-1.0449,3.26,4.08553
-2.21924,-1.0449,3.26,4.07976
-2.20866,-1.0449,3.26,4.07402
-2.19808,-1.0449,3.26,4.06829
-2.20897,-1.05516,3.292,4.10246
-2.19829,-1.05516,3.292,4.09672
-2.1876,-1.05516,3.292,4.09099
-2.17692,-1.05516,3.292,4.08529
-2.16623,-1.05516,3.292,4.07961
-2.1765,-1.06542,3.324,4.11354
-2.16571,-1.06542,3.324,4.10785
-2.15492,-1.06542,3.324,4.10217
-2.14413,-1.06542,3.324,4.09651
-2.13335,-1.06542,3.324,4.09087
-2.12256,-1.06542,3.324,4.08526
-2.11177,-1.06542,3.324,4.07966
-2.10098,-1.06542,3.324,4.07409
-2.11031,-1.07568,3.356,4.1077
-2.09942,-1.07568,3.356,4.10212
-2.08853,-1.07568,3.356,4.09655
-2.07763,-1.07568,3.356,4.09101
-2.06674,-1.07568,3.356,4.08549
-2.05585,-1.07568,3.356,4.07999
-2.04496,-1.07568,3.356,4.07451
nan,nan,nan,NaN
nan,nan,nan,NaN
nan,nan,nan,NaN
nan,nan,nan,NaN
nan,nan,nan,NaN
nan,nan,nan,NaN
nan,nan,nan,NaN
nan,nan,nan,NaN
nan,nan,nan,NaN
nan,nan,nan,NaN
nan,nan,nan,NaN
nan,nan,nan,NaN
nan,nan,nan,NaN
nan,nan,nan,NaN
nan,nan,nan,NaN
nan,nan,nan,NaN
nan,nan,nan,NaN
nan,nan,nan,NaN
nan,nan,nan,NaN
nan,nan,nan,NaN
nan,nan,nan,NaN
nan,nan,nan,NaN
nan,nan,nan,NaN
nan,nan,nan,NaN
nan,nan,nan,NaN
nan,nan,nan,NaN
nan,nan,nan,NaN
nan,nan,nan,NaN
-1.49464,-0.929837,2.901,3.39328
