-0.171958,-0.0976577,2.555,2.56264
-0.163665,-0.0976577,2.555,2.5621
-0.154217,-0.0969315,2.536,2.54253
-0.145986,-0.0969315,2.536,2.54205
-0.137755,-0.0969315,2.536,2.54159
-0.129523,-0.0969315,2.536,2.54115
-0.122201,-0.0976577,2.555,2.55978
-0.113908,-0.0976577,2.555,2.5594
-0.105615,-0.0976577,2.555,2.55905
-0.0973222,-0.0976577,2.555,2.55872
-0.0890293,-0.0976577,2.555,2.55842
-0.0807364,-0.0976577,2.555,2.55814
-0.0729822,-0.0983839,2.574,2.57691
-0.0646277,-0.0983839,2.574,2.57669
-0.0562731,-0.0983839,2.574,2.57649
-0.0479185,-0.0983839,2.574,2.57633
-0.039856,-0.0991101,2.593,2.5952
-0.0314398,-0.0991101,2.593,2.59508
-0.0230235,-0.0991101,2.593,2.595
-0.0146073,-0.0991101,2.593,2.59493
-0.00619107,-0.0991101,2.593,2.5949
0.00224232,-0.0998746,2.613,2.61491
0.0107235,-0.0998746,2.613,2.61493
0.0192046,-0.0998746,2.613,2.61498
0.0276858,-0.0998746,2.613,2.61505
0.0361669,-0.0998746,2.613,2.61516
0.0446481,-0.0998746,2.613,2.61529
0.0531292,-0.0998746,2.613,2.61545
0.0616104,-0.0998746,2.613,2.61563
0.0700915,-0.0998746,2.613,2.61585
0.0779713,-0.0991101,2.593,2.59606
0.0863875,-0.0991101,2.593,2.59633
0.0948037,-0.0991101,2.593,2.59662
0.102464,-0.0983839,2.574,2.57792
0.110818,-0.0983839,2.574,2.57826
0.119173,-0.0983839,2.574,2.57863
0.127527,-0.0983839,2.574,2.57903
0.135882,-0.0983839,2.574,2.57946
0.144236,-0.0983839,2.574,2.57991
0.152591,-0.0983839,2.574,2.5804
0.160946,-0.0983839,2.574,2.5809
0.1693,-0.0983839,2.574,2.58144
0.178966,-0.0991101,2.593,2.60106
0.187382,-0.0991101,2.593,2.60165
0.195799,-0.0991101,2.593,2.60227
0.204215,-0.0991101,2.593,2.60292
0.214271,-0.0998746,2.613,2.62367
0.222752,-0.0998746,2.613,2.62438
0.231233,-0.0998746,2.613,2.62511
0.239715,-0.0998746,2.613,2.62587
0.248196,-0.0998746,2.613,2.62666
0.256677,-0.0998746,2.613,2.62748
0.265158,-0.0998746,2.613,2.62832
0.273639,-0.0998746,2.613,2.62919
0.279961,-0.0991101,2.593,2.60995
0.288377,-0.0991101,2.593,2.61087
0.296793,-0.0991101,2.593,2.61181
0.302973,-0.0983839,2.574,2.59364
0.311328,-0.0983839,2.574,2.59463
0.317323,-0.0976577,2.555,2.57648
0.325615,-0.0976577,2.555,2.57752
0.331425,-0.0969315,2.536,2.5594
0.339657,-0.0969315,2.536,2.56048
0.345281,-0.0962052,2.517,2.54239
0.353451,-0.0962052,2.517,2.54352
0.36162,-0.0962052,2.517,2.54466
0.36979,-0.0962052,2.517,2.54584
0.375257,-0.0955173,2.499,2.52882
0.383368,-0.0955173,2.499,2.53004
0.391479,-0.0955173,2.499,2.53128
0.39959,-0.0955173,2.499,2.53255
nan,nan,nan,NaN
nan,nan,nan,NaN
nan,nan,nan,NaN
0.422699,-0.0934533,2.445,2.48303
0.430635,-0.0934533,2.445,2.48439
0.438571,-0.0934533,2.445,2.48578
0.443402,-0.0928035,2.428,2.4699
0.451283,-0.0928035,2.428,2.47133
0.459163,-0.0928035,2.428,2.47278
0.470314,-0.0934533,2.445,2.49158
0.47825,-0.0934533,2.445,2.49309
0.486186,-0.0934533,2.445,2.49462
0.494122,-0.0934533,2.445,2.49618
0.505754,-0.0941413,2.463,2.51615
0.517502,-0.0948293,2.481,2.53617
0.525555,-0.0948293,2.481,2.53783
0.537479,-0.0955173,2.499,2.55793
0.54559,-0.0955173,2.499,2.55965
0.553702,-0.0955173,2.499,2.56139
0.570131,-0.0969315,2.536,2.6011
0.578362,-0.0969315,2.536,2.60292
0.586593,-0.0969315,2.536,2.60476
0.594824,-0.0969315,2.536,2.60663
0.607574,-0.0976577,2.555,2.62806
0.615867,-0.0976577,2.555,2.62999
0.62416,-0.0976577,2.555,2.63195
0.637156,-0.0983839,2.574,2.65351
0.64551,-0.0983839,2.574,2.65553
0.653865,-0.0983839,2.574,2.65757
0.667108,-0.0991101,2.593,2.67927
0.675524,-0.0991101,2.593,2.68138
0.68394,-0.0991101,2.593,2.68351
0.692356,-0.0991101,2.593,2.68567
0.700773,-0.0991101,2.593,2.68785
0.709189,-0.0991101,2.593,2.69006
0.717605,-0.0991101,2.593,2.69229
0.726021,-0.0991101,2.593,2.69455
0.734438,-0.0991101,2.593,2.69683
0.737411,-0.0983839,2.574,2.67935
0.745765,-0.0983839,2.574,2.68166
0.75412,-0.0983839,2.574,2.684
0.762474,-0.0983839,2.574,2.68636
0.770829,-0.0983839,2.574,2.68874
0.779183,-0.0983839,2.574,2.69115
0.787538,-0.0983839,2.574,2.69358
0.790018,-0.0976577,2.555,2.67613
0.798311,-0.0976577,2.555,2.67859
0.806603,-0.0976577,2.555,2.68108
0.814896,-0.0976577,2.555,2.68358
0.823189,-0.0976577,2.555,2.68611
0.831482,-0.0976577,2.555,2.68867
0.83353,-0.0969315,2.536,2.67123
0.841761,-0.0969315,2.536,2.67381
0.849993,-0.0969315,2.536,2.67641
0.858224,-0.0969315,2.536,2.67904
0.859963,-0.0962052,2.517,2.66159
0.868133,-0.0962052,2.517,2.66424
0.870036,-0.0955173,2.499,2.64785
0.871822,-0.0948293,2.481,2.63143
0.879874,-0.0948293,2.481,2.63411
0.887927,-0.0948293,2.481,2.63681
0.882979,-0.0934533,2.445,2.60123
0.890915,-0.0934533,2.445,2.60394
0.892601,-0.0928035,2.428,2.58854
0.900482,-0.0928035,2.428,2.59127
0.902002,-0.0921537,2.411,2.57585
0.909828,-0.0921537,2.411,2.5786
0.911183,-0.0915039,2.394,2.56317
0.912428,-0.0908541,2.377,2.54773
0.920143,-0.0908541,2.377,2.5505
0.921612,-0.0902426,2.361,2.53611
0.929276,-0.0902426,2.361,2.5389
0.936939,-0.0902426,2.361,2.54172
0.944602,-0.0902426,2.361,2.54455
0.952265,-0.0902426,2.361,2.54741
0.959929,-0.0902426,2.361,2.55028
0.967592,-0.0902426,2.361,2.55317
0.981864,-0.0908541,2.377,2.57341
0.996657,-0.0915039,2.394,2.59479
1.01156,-0.0921537,2.411,2.61623
1.01938,-0.0921537,2.411,2.61927
1.04937,-0.0941413,2.463,2.67888
1.0887,-0.0969315,2.536,2.76151
1.09693,-0.0969315,2.536,2.76477
1.15658,-0.101442,2.654,2.89684
1.20252,-0.104691,2.739,2.99318
1.26183,-0.109048,2.853,3.12149
1.27109,-0.109048,2.853,3.12525
1.33599,-0.113787,2.977,3.26502
1.38182,-0.116845,3.057,3.35683
1.39174,-0.116845,3.057,3.36093
1.44018,-0.120056,3.141,3.45751
1.47715,-0.122273,3.199,3.5257
1.5159,-0.124604,3.26,3.59737
1.52648,-0.124604,3.26,3.60184
1.53706,-0.124604,3.26,3.60634
1.54765,-0.124604,3.26,3.61086
1.55823,-0.124604,3.26,3.61541
1.56881,-0.124604,3.26,3.61998
1.57939,-0.124604,3.26,3.62458
1.57534,-0.123458,3.23,3.59581
1.58582,-0.123458,3.23,3.60041
1.59631,-0.123458,3.23,3.60504
1.60679,-0.123458,3.23,3.6097
1.61727,-0.123458,3.23,3.61438
1.61213,-0.122273,3.199,3.58435
1.62252,-0.122273,3.199,3.58903
1.6329,-0.122273,3.199,3.59373
1.64328,-0.122273,3.199,3.59846
1.65367,-0.122273,3.199,3.60322
1.66405,-0.122273,3.199,3.60799
1.67443,-0.122273,3.199,3.61279
1.70114,-0.123458,3.23,3.65267
1.71163,-0.123458,3.23,3.65757
1.72211,-0.123458,3.23,3.66249
1.74869,-0.124604,3.26,3.70149
1.75927,-0.124604,3.26,3.7065
1.76985,-0.124604,3.26,3.71154
1.79791,-0.125827,3.292,3.75307
1.80859,-0.125827,3.292,3.7582
1.80159,-0.124604,3.26,3.72678
1.81217,-0.124604,3.26,3.7319
1.82276,-0.124604,3.26,3.73705
1.83334,-0.124604,3.26,3.74223
1.84392,-0.124604,3.26,3.74742
1.8545,-0.124604,3.26,3.75264
1.86508,-0.124604,3.26,3.75788
1.87566,-0.124604,3.26,3.76314
1.88624,-0.124604,3.26,3.76843
1.89682,-0.124604,3.26,3.77373
1.9074,-0.124604,3.26,3.77906
1.90034,-0.123458,3.23,3.74959
1.91082,-0.123458,3.23,3.75491
1.9213,-0.123458,3.23,3.76026
1.91325,-0.122273,3.199,3.72949
1.92363,-0.122273,3.199,3.73482
1.93401,-0.122273,3.199,3.74018
1.92677,-0.121164,3.17,3.71161
1.93706,-0.121164,3.17,3.71696
1.92953,-0.120056,3.141,3.68828
1.92182,-0.118947,3.112,3.65952
1.93192,-0.118947,3.112,3.66483
1.92455,-0.117877,3.084,3.63715
1.91762,-0.116845,3.057,3.61056
1.92754,-0.116845,3.057,3.61584
1.90324,-0.114781,3.003,3.55718
1.87986,-0.112794,2.951,3.50072
1.85743,-0.110883,2.901,3.44647
1.86684,-0.110883,2.901,3.45155
1.82969,-0.108131,2.829,3.37086
1.80897,-0.106372,2.783,3.32096
1.81801,-0.106372,2.783,3.32589
1.79815,-0.104691,2.739,3.27818
1.77867,-0.103047,2.696,3.23152
1.78743,-0.103047,2.696,3.23634
1.78218,-0.102244,2.675,3.21594
1.76275,-0.100639,2.633,3.17019
1.77129,-0.100639,2.633,3.17495
1.7528,-0.0991101,2.593,3.13142
1.73541,-0.0976577,2.555,3.09018
-2.01252,-0.101469,2.901,3.53218
-2.0031,-0.101469,2.901,3.52683
-1.99369,-0.101469,2.901,3.52149
-1.96786,-0.10063,2.877,3.48708
-1.94218,-0.0997904,2.853,3.45277
-1.93292,-0.0997904,2.853,3.44757
-1.89197,-0.0981465,2.806,3.38568
-1.88286,-0.0981465,2.806,3.3806
-1.87375,-0.0981465,2.806,3.37553
-1.84936,-0.097342,2.783,3.34286
-1.82578,-0.0965725,2.761,3.31148
-1.81682,-0.0965725,2.761,3.30655
-1.80786,-0.0965725,2.761,3.30164
-1.78456,-0.095803,2.739,3.27047
-1.77567,-0.095803,2.739,3.26563
nan,nan,nan,NaN
nan,nan,nan,NaN
nan,nan,nan,NaN
nan,nan,nan,NaN
nan,nan,nan,NaN
nan,nan,nan,NaN
-1.83042,-0.102344,2.926,3.45288
-1.82093,-0.102344,2.926,3.44786
-1.81143,-0.102344,2.926,3.44285
-1.80193,-0.102344,2.926,3.43786
-1.80775,-0.103218,2.951,3.46223
-1.79817,-0.103218,2.951,3.45724
-1.82011,-0.105037,3.003,3.5131
-1.81036,-0.105037,3.003,3.50806
-1.80062,-0.105037,3.003,3.50304
-1.79087,-0.105037,3.003,3.49804
-1.79714,-0.105981,3.03,3.52446
-1.7873,-0.105981,3.03,3.51946
-1.76163,-0.105037,3.003,3.48316
-1.75188,-0.105037,3.003,3.47824
-1.74213,-0.105037,3.003,3.47334
-1.73239,-0.105037,3.003,3.46846
nan,nan,nan,NaN
nan,nan,nan,NaN
nan,nan,nan,NaN
nan,nan,nan,NaN
nan,nan,nan,NaN
nan,nan,nan,NaN
nan,nan,nan,NaN
nan,nan,nan,NaN
nan,nan,nan,NaN
nan,nan,nan,NaN
nan,nan,nan,NaN
nan,nan,nan,NaN
nan,nan,nan,NaN
nan,nan,nan,NaN
nan,nan,nan,NaN
nan,nan,nan,NaN
nan,nan,nan,NaN
nan,nan,nan,NaN
nan,nan,nan,NaN
nan,nan,nan,NaN
nan,nan,nan,NaN
nan,nan,nan,NaN
nan,nan,nan,NaN
nan,nan,nan,NaN
nan,nan,nan,NaN
-1.17904,-0.0837358,2.394,2.6699
-1.17127,-0.0837358,2.394,2.66648
-1.1635,-0.0837358,2.394,2.66308
-1.15572,-0.0837358,2.394,2.65969
-1.1398,-0.0831412,2.377,2.63746
-1.13209,-0.0831412,2.377,2.63413
-1.1168,-0.0825815,2.361,2.61312
-1.10914,-0.0825815,2.361,2.60985
-1.10148,-0.0825815,2.361,2.60661
-1.0864,-0.0820219,2.345,2.58573
-1.07879,-0.0820219,2.345,2.58255
-1.07118,-0.0820219,2.345,2.57938
-1.06357,-0.0820219,2.345,2.57622
-1.04875,-0.0814623,2.329,2.55553
-1.03404,-0.0809026,2.313,2.53491
-1.02653,-0.0809026,2.313,2.53185
-1.01902,-0.0809026,2.313,2.52882
-1.01152,-0.0809026,2.313,2.5258
-1.00401,-0.0809026,2.313,2.52281
-0.996502,-0.0809026,2.313,2.51983
-0.988995,-0.0809026,2.313,2.51687
-0.981488,-0.0809026,2.313,2.51393
-0.980718,-0.0814623,2.329,2.52838
-0.973158,-0.0814623,2.329,2.52545
-0.965599,-0.0814623,2.329,2.52255
-0.95804,-0.0814623,2.329,2.51967
-0.95048,-0.0814623,2.329,2.5168
-0.942921,-0.0814623,2.329,2.51396
-0.941787,-0.0820219,2.345,2.52838
-0.934176,-0.0820219,2.345,2.52556
-0.926565,-0.0820219,2.345,2.52275
-0.918953,-0.0820219,2.345,2.51997
-0.911342,-0.0820219,2.345,2.5172
-0.903731,-0.0820219,2.345,2.51445
-0.89612,-0.0820219,2.345,2.51173
-0.888508,-0.0820219,2.345,2.50902
-0.880897,-0.0820219,2.345,2.50634
-0.873286,-0.0820219,2.345,2.50367
-0.865674,-0.0820219,2.345,2.50103
-0.858063,-0.0820219,2.345,2.4984
-0.850452,-0.0820219,2.345,2.4958
-0.842841,-0.0820219,2.345,2.49322
-0.835229,-0.0820219,2.345,2.49065
-0.827618,-0.0820219,2.345,2.48811
-0.820007,-0.0820219,2.345,2.48559
-0.817938,-0.0825815,2.361,2.50003
-0.810275,-0.0825815,2.361,2.49754
-0.802612,-0.0825815,2.361,2.49506
-0.794949,-0.0825815,2.361,2.49261
-0.787286,-0.0825815,2.361,2.49017
-0.779622,-0.0825815,2.361,2.48776
-0.771959,-0.0825815,2.361,2.48537
-0.764296,-0.0825815,2.361,2.483
-0.756633,-0.0825815,2.361,2.48065
-0.754045,-0.0831412,2.377,2.49512
-0.751668,-0.0837358,2.394,2.51063
-0.743897,-0.0837358,2.394,2.50831
-0.736127,-0.0837358,2.394,2.50602
-0.733529,-0.0843304,2.411,2.52153
-0.725703,-0.0843304,2.411,2.51926
-0.717878,-0.0843304,2.411,2.51702
-0.710052,-0.0843304,2.411,2.5148
-0.702227,-0.0843304,2.411,2.5126
-0.699297,-0.084925,2.428,2.52812
-0.691417,-0.084925,2.428,2.52596
-0.688322,-0.0855196,2.445,2.54148
-0.680386,-0.0855196,2.445,2.53934
-0.67245,-0.0855196,2.445,2.53723
-0.664514,-0.0855196,2.445,2.53514
-0.656578,-0.0855196,2.445,2.53307
-0.653418,-0.0861492,2.463,2.54966
-0.645424,-0.0861492,2.463,2.54762
-0.637429,-0.0861492,2.463,2.54561
-0.634035,-0.0867788,2.481,2.5622
-0.625982,-0.0867788,2.481,2.56022
-0.622413,-0.0874084,2.499,2.57683
-0.614302,-0.0874084,2.499,2.57488
-0.606191,-0.0874084,2.499,2.57296
-0.602387,-0.088038,2.517,2.58958
-0.594218,-0.088038,2.517,2.58769
-0.586048,-0.088038,2.517,2.58583
-0.577879,-0.088038,2.517,2.58399
-0.569709,-0.088038,2.517,2.58217
-0.561539,-0.088038,2.517,2.58038
-0.55337,-0.088038,2.517,2.57862
-0.5452,-0.088038,2.517,2.57687
-0.537031,-0.088038,2.517,2.57516
-0.528861,-0.088038,2.517,2.57347
-0.520692,-0.088038,2.517,2.5718
-0.512522,-0.088038,2.517,2.57016
-0.504353,-0.088038,2.517,2.56854
-0.496183,-0.088038,2.517,2.56695
-0.488013,-0.088038,2.517,2.56538
-0.479844,-0.088038,2.517,2.56384
-0.471674,-0.088038,2.517,2.56233
-0.463505,-0.088038,2.517,2.56084
-0.455335,-0.088038,2.517,2.55937
-0.447166,-0.088038,2.517,2.55793
-0.438996,-0.088038,2.517,2.55651
-0.430827,-0.088038,2.517,2.55512
-0.422657,-0.088038,2.517,2.55376
-0.414487,-0.088038,2.517,2.55242
-0.406318,-0.088038,2.517,2.5511
-0.398148,-0.088038,2.517,2.54982
-0.389979,-0.088038,2.517,2.54855
-0.381809,-0.088038,2.517,2.54732
-0.37364,-0.088038,2.517,2.5461
-0.36547,-0.088038,2.517,2.54492
-0.359998,-0.0887026,2.536,2.56296
-0.351766,-0.0887026,2.536,2.56182
-0.343535,-0.0887026,2.536,2.5607
-0.335304,-0.0887026,2.536,2.55961
-0.327073,-0.0887026,2.536,2.55854
-0.318842,-0.0887026,2.536,2.5575
-0.31061,-0.0887026,2.536,2.55649
-0.302379,-0.0887026,2.536,2.5555
-0.294148,-0.0887026,2.536,2.55454
-0.285917,-0.0887026,2.536,2.55361
-0.277685,-0.0887026,2.536,2.5527
-0.269454,-0.0887026,2.536,2.55182
-0.261223,-0.0887026,2.536,2.55096
-0.252992,-0.0887026,2.536,2.55013
-0.244761,-0.0887026,2.536,2.54933
-0.236529,-0.0887026,2.536,2.54855
-0.228298,-0.0887026,2.536,2.5478
-0.220067,-0.0887026,2.536,2.54708
-0.211836,-0.0887026,2.536,2.54638
-0.203604,-0.0887026,2.536,2.54571
-0.195373,-0.0887026,2.536,2.54506
-0.187142,-0.0887026,2.536,2.54444
-0.178911,-0.0887026,2.536,2.54385
-0.170679,-0.0887026,2.536,2.54328
-0.162448,-0.0887026,2.536,2.54275
-0.154217,-0.0887026,2.536,2.54223
-0.145986,-0.0887026,2.536,2.54175
-0.137755,-0.0887026,2.536,2.54129
-0.129523,-0.0887026,2.536,2.54085
-0.121292,-0.0887026,2.536,2.54045
-0.113061,-0.0887026,2.536,2.54007
-0.105615,-0.0893671,2.555,2.55874
-0.0973222,-0.0893671,2.555,2.55841
-0.0890293,-0.0893671,2.555,2.55811
-0.0807364,-0.0893671,2.555,2.55784
-0.0724435,-0.0893671,2.555,2.55759
-0.0646277,-0.0900317,2.574,2.57639
-0.0562731,-0.0900317,2.574,2.57619
-0.0479185,-0.0900317,2.574,2.57602
-0.039564,-0.0900317,2.574,2.57588
-0.0312094,-0.0900317,2.574,2.57576
-0.0230235,-0.0906963,2.593,2.59469
-0.0146073,-0.0906963,2.593,2.59463
-0.00619107,-0.0906963,2.593,2.59459
0.00224232,-0.0913958,2.613,2.6146
0.0107235,-0.0913958,2.613,2.61462
0.0192046,-0.0913958,2.613,2.61467
0.0276858,-0.0913958,2.613,2.61474
0.0361669,-0.0913958,2.613,2.61485
0.0446481,-0.0913958,2.613,2.61498
0.0531292,-0.0913958,2.613,2.61514
0.0616104,-0.0913958,2.613,2.61532
0.0700915,-0.0913958,2.613,2.61554
0.0779713,-0.0906963,2.593,2.59576
0.0863875,-0.0906963,2.593,2.59602
0.0948037,-0.0906963,2.593,2.59632
0.10322,-0.0906963,2.593,2.59664
0.110818,-0.0900317,2.574,2.57796
0.119173,-0.0900317,2.574,2.57833
0.127527,-0.0900317,2.574,2.57873
0.135882,-0.0900317,2.574,2.57916
0.144236,-0.0900317,2.574,2.57961
0.152591,-0.0900317,2.574,2.58009
0.160946,-0.0900317,2.574,2.5806
0.1693,-0.0900317,2.574,2.58113
0.177655,-0.0900317,2.574,2.58169
0.186009,-0.0900317,2.574,2.58228
0.195799,-0.0906963,2.593,2.60196
0.204215,-0.0906963,2.593,2.60261
0.212631,-0.0906963,2.593,2.60328
0.221047,-0.0906963,2.593,2.60399
0.231233,-0.0913958,2.613,2.6248
0.239715,-0.0913958,2.613,2.62556
0.248196,-0.0913958,2.613,2.62635
0.256677,-0.0913958,2.613,2.62717
0.265158,-0.0913958,2.613,2.62801
0.271545,-0.0906963,2.593,2.60876
0.279961,-0.0906963,2.593,2.60965
0.288377,-0.0906963,2.593,2.61056
0.294619,-0.0900317,2.574,2.59237
0.302973,-0.0900317,2.574,2.59333
0.311328,-0.0900317,2.574,2.59432
0.319682,-0.0900317,2.574,2.59534
0.325615,-0.0893671,2.555,2.57721
0.331425,-0.0887026,2.536,2.5591
0.339657,-0.0887026,2.536,2.56018
0.345281,-0.088038,2.517,2.5421
0.353451,-0.088038,2.517,2.54322
0.36162,-0.088038,2.517,2.54437
0.367146,-0.0874084,2.499,2.52734
0.375257,-0.0874084,2.499,2.52853
0.383368,-0.0874084,2.499,2.52975
0.388659,-0.0867788,2.481,2.51276
0.396712,-0.0867788,2.481,2.51402
nan,nan,nan,NaN
nan,nan,nan,NaN
nan,nan,nan,NaN
0.422699,-0.0855196,2.445,2.48274
0.430635,-0.0855196,2.445,2.48411
0.438571,-0.0855196,2.445,2.48549
0.443402,-0.084925,2.428,2.46962
0.451283,-0.084925,2.428,2.47104
0.459163,-0.084925,2.428,2.47249
0.467044,-0.084925,2.428,2.47397
0.47825,-0.0855196,2.445,2.4928
0.482805,-0.084925,2.428,2.47699
0.490686,-0.084925,2.428,2.47854
0.505754,-0.0861492,2.463,2.51587
0.517502,-0.0867788,2.481,2.53588
0.525555,-0.0867788,2.481,2.53754
0.537479,-0.0874084,2.499,2.55764
0.54559,-0.0874084,2.499,2.55936
0.553702,-0.0874084,2.499,2.5611
0.570131,-0.0887026,2.536,2.60081
0.578362,-0.0887026,2.536,2.60263
0.586593,-0.0887026,2.536,2.60447
0.594824,-0.0887026,2.536,2.60633
0.607574,-0.0893671,2.555,2.62777
0.615867,-0.0893671,2.555,2.6297
0.62416,-0.0893671,2.555,2.63165
0.637156,-0.0900317,2.574,2.65321
0.64551,-0.0900317,2.574,2.65523
0.653865,-0.0900317,2.574,2.65728
0.667108,-0.0906963,2.593,2.67898
0.675524,-0.0906963,2.593,2.68108
0.68394,-0.0906963,2.593,2.68322
0.692356,-0.0906963,2.593,2.68537
0.700773,-0.0906963,2.593,2.68756
0.709189,-0.0906963,2.593,2.68976
0.717605,-0.0906963,2.593,2.69199
0.726021,-0.0906963,2.593,2.69425
0.734438,-0.0906963,2.593,2.69653
0.742854,-0.0906963,2.593,2.69883
0.745765,-0.0900317,2.574,2.68137
0.75412,-0.0900317,2.574,2.68371
0.762474,-0.0900317,2.574,2.68607
0.770829,-0.0900317,2.574,2.68845
0.779183,-0.0900317,2.574,2.69086
0.787538,-0.0900317,2.574,2.69329
0.795892,-0.0900317,2.574,2.69574
0.804247,-0.0900317,2.574,2.69822
0.812602,-0.0900317,2.574,2.70072
0.814896,-0.0893671,2.555,2.68329
0.823189,-0.0893671,2.555,2.68582
0.831482,-0.0893671,2.555,2.68838
0.839775,-0.0893671,2.555,2.69095
0.841761,-0.0887026,2.536,2.67352
0.849993,-0.0887026,2.536,2.67613
0.858224,-0.0887026,2.536,2.67875
0.859963,-0.088038,2.517,2.66131
0.868133,-0.088038,2.517,2.66396
0.870036,-0.0874084,2.499,2.64757
0.871822,-0.0867788,2.481,2.63115
0.879874,-0.0867788,2.481,2.63383
0.887927,-0.0867788,2.481,2.63653
0.882979,-0.0855196,2.445,2.60096
0.890915,-0.0855196,2.445,2.60366
0.892601,-0.084925,2.428,2.58827
0.900482,-0.084925,2.428,2.591
0.902002,-0.0843304,2.411,2.57559
0.909828,-0.0843304,2.411,2.57834
0.911183,-0.0837358,2.394,2.56291
0.912428,-0.0831412,2.377,2.54746
0.920143,-0.0831412,2.377,2.55024
0.921612,-0.0825815,2.361,2.53585
0.929276,-0.0825815,2.361,2.53864
0.936939,-0.0825815,2.361,2.54146
0.938201,-0.0820219,2.345,2.52705
0.945812,-0.0820219,2.345,2.52988
0.959929,-0.0825815,2.361,2.55002
0.967592,-0.0825815,2.361,2.55292
0.981864,-0.0831412,2.377,2.57315
0.996657,-0.0837358,2.394,2.59453
1.01156,-0.0843304,2.411,2.61597
1.01938,-0.0843304,2.411,2.619
1.0417,-0.0855196,2.445,2.65904
1.0887,-0.0887026,2.536,2.76124
1.09693,-0.0887026,2.536,2.76449
1.14743,-0.0920954,2.633,2.87363
1.19286,-0.0950335,2.717,2.96884
1.25121,-0.0989509,2.829,3.09493
1.26039,-0.0989509,2.829,3.09865
1.31311,-0.102344,2.926,3.20877
1.36961,-0.105981,3.03,3.32686
1.37945,-0.105981,3.03,3.33092
1.42688,-0.10885,3.112,3.42526
1.46376,-0.110878,3.17,3.49339
1.48754,-0.111893,3.199,3.52972
1.49792,-0.111893,3.199,3.5341
1.52292,-0.112977,3.23,3.57281
1.5334,-0.112977,3.23,3.57729
1.52907,-0.111893,3.199,3.54742
1.53945,-0.111893,3.199,3.55191
1.56485,-0.112977,3.23,3.59088
1.57534,-0.112977,3.23,3.59546
1.5706,-0.111893,3.199,3.56552
1.58099,-0.111893,3.199,3.5701
1.59137,-0.111893,3.199,3.57471
1.58723,-0.110878,3.17,3.5469
1.59752,-0.110878,3.17,3.55152
1.60781,-0.110878,3.17,3.55616
1.6033,-0.109864,3.141,3.52824
1.61349,-0.109864,3.141,3.53289
1.63868,-0.110878,3.17,3.57022
1.64897,-0.110878,3.17,3.57495
1.65925,-0.110878,3.17,3.57971
1.68482,-0.111893,3.199,3.61728
1.6952,-0.111893,3.199,3.62213
1.70558,-0.111893,3.199,3.627
1.7326,-0.112977,3.23,3.66709
1.74308,-0.112977,3.23,3.67206
1.75356,-0.112977,3.23,3.67704
1.76405,-0.112977,3.23,3.68205
1.79101,-0.114026,3.26,3.72133
1.78501,-0.112977,3.23,3.69215
1.7955,-0.112977,3.23,3.69723
1.82276,-0.114026,3.26,3.73672
1.83334,-0.114026,3.26,3.74189
1.82695,-0.112977,3.23,3.7126
1.83743,-0.112977,3.23,3.71777
1.84792,-0.112977,3.23,3.72296
1.8584,-0.112977,3.23,3.72818
1.86888,-0.112977,3.23,3.73342
1.87937,-0.112977,3.23,3.73867
1.88985,-0.112977,3.23,3.74396
1.8821,-0.111893,3.199,3.71327
1.89248,-0.111893,3.199,3.71855
1.88561,-0.110878,3.17,3.69009
1.8959,-0.110878,3.17,3.69535
1.90619,-0.110878,3.17,3.70064
1.89895,-0.109864,3.141,3.67205
1.90914,-0.109864,3.141,3.67733
1.91934,-0.109864,3.141,3.68264
1.91172,-0.10885,3.112,3.65391
1.90453,-0.10787,3.084,3.62628
1.91454,-0.10787,3.084,3.63155
1.9077,-0.106926,3.057,3.605
1.88375,-0.105037,3.003,3.54648
1.89349,-0.105037,3.003,3.55167
1.88676,-0.104128,2.977,3.52608
1.86394,-0.102344,2.926,3.47077
1.84206,-0.10063,2.877,3.41767
1.8514,-0.10063,2.877,3.42271
1.82969,-0.0989509,2.829,3.37058
1.80897,-0.097342,2.783,3.32069
1.81801,-0.097342,2.783,3.32561
1.79815,-0.095803,2.739,3.2779
1.77867,-0.0942989,2.696,3.23125
1.78743,-0.0942989,2.696,3.23608
1.76819,-0.0928299,2.654,3.19043
1.74936,-0.0913958,2.613,3.14585
1.75784,-0.0913958,2.613,3.15058
1.73996,-0.0900317,2.574,3.10822
1.7225,-0.0887026,2.536,3.06695
-1.99587,-0.0912945,2.877,3.50271
-1.95339,-0.0897713,2.829,3.43904
-1.94421,-0.0897713,2.829,3.43384
-1.93502,-0.0897713,2.829,3.42865
-1.91018,-0.0890414,2.806,3.39564
-1.90108,-0.0890414,2.806,3.39052
-1.87646,-0.0883116,2.783,3.35768
-1.85267,-0.0876135,2.761,3.32613
-1.8437,-0.0876135,2.761,3.32115
-1.83474,-0.0876135,2.761,3.31618
-1.81123,-0.0869154,2.739,3.28485
-1.80234,-0.0869154,2.739,3.27996
-1.79345,-0.0869154,2.739,3.27508
-1.78456,-0.0869154,2.739,3.27022
-1.77567,-0.0869154,2.739,3.26538
-1.76678,-0.0869154,2.739,3.26055
-1.75789,-0.0869154,2.739,3.25574
-1.76305,-0.0876135,2.761,3.27706
-1.78268,-0.0890414,2.806,3.32558
-1.77357,-0.0890414,2.806,3.32071
-1.77893,-0.0897713,2.829,3.34303
-1.79977,-0.0912945,2.877,3.3948
-1.80537,-0.092056,2.901,3.41813
-1.79595,-0.092056,2.901,3.41317
-1.80193,-0.0928493,2.926,3.43759
-1.80775,-0.0936427,2.951,3.46196
-1.79817,-0.0936427,2.951,3.45696
-1.80435,-0.0944677,2.977,3.4824
-1.81036,-0.0952927,3.003,3.50778
-1.80062,-0.0952927,3.003,3.50276
-1.79087,-0.0952927,3.003,3.49776
-1.79714,-0.0961495,3.03,3.52418
-1.7873,-0.0961495,3.03,3.51918
-1.77747,-0.0961495,3.03,3.51419
-1.75188,-0.0952927,3.003,3.47796
-1.74213,-0.0952927,3.003,3.47306
-1.73239,-0.0952927,3.003,3.46818
nan,nan,nan,NaN
nan,nan,nan,NaN
nan,nan,nan,NaN
nan,nan,nan,NaN
nan,nan,nan,NaN
nan,nan,nan,NaN
nan,nan,nan,NaN
nan,nan,nan,NaN
nan,nan,nan,NaN
nan,nan,nan,NaN
nan,nan,nan,NaN
nan,nan,nan,NaN
nan,nan,nan,NaN
nan,nan,nan,NaN
nan,nan,nan,NaN
nan,nan,nan,NaN
nan,nan,nan,NaN
nan,nan,nan,NaN
nan,nan,nan,NaN
nan,nan,nan,NaN
nan,nan,nan,NaN
nan,nan,nan,NaN
nan,nan,nan,NaN
nan,nan,nan,NaN
nan,nan,nan,NaN
nan,nan,nan,NaN
-1.17958,-0.0765071,2.411,2.68518
-1.17176,-0.0765071,2.411,2.68175
-1.15572,-0.0759676,2.394,2.65946
-1.1398,-0.0754282,2.377,2.63723
-1.13209,-0.0754282,2.377,2.6339
-1.12437,-0.0754282,2.377,2.6306
-1.10914,-0.0749205,2.361,2.60962
-1.10148,-0.0749205,2.361,2.60637
-1.0864,-0.0744128,2.345,2.5855
-1.07879,-0.0744128,2.345,2.58232
-1.07118,-0.0744128,2.345,2.57914
-1.06357,-0.0744128,2.345,2.57599
-1.04875,-0.073905,2.329,2.55531
-1.04119,-0.073905,2.329,2.55221
-1.03363,-0.073905,2.329,2.54914
-1.01902,-0.0733973,2.313,2.52859
-1.01152,-0.0733973,2.313,2.52557
-1.00401,-0.0733973,2.313,2.52258
-0.996502,-0.0733973,2.313,2.5196
-0.988995,-0.0733973,2.313,2.51664
-0.981488,-0.0733973,2.313,2.5137
-0.980718,-0.073905,2.329,2.52814
-0.973158,-0.073905,2.329,2.52522
-0.965599,-0.073905,2.329,2.52232
-0.95804,-0.073905,2.329,2.51943
-0.95048,-0.073905,2.329,2.51657
-0.942921,-0.073905,2.329,2.51372
-0.941787,-0.0744128,2.345,2.52815
-0.934176,-0.0744128,2.345,2.52532
-0.926565,-0.0744128,2.345,2.52252
-0.918953,-0.0744128,2.345,2.51973
-0.911342,-0.0744128,2.345,2.51696
-0.903731,-0.0744128,2.345,2.51422
-0.89612,-0.0744128,2.345,2.51149
-0.888508,-0.0744128,2.345,2.50879
-0.880897,-0.0744128,2.345,2.5061
-0.873286,-0.0744128,2.345,2.50344
-0.865674,-0.0744128,2.345,2.50079
-0.858063,-0.0744128,2.345,2.49817
-0.850452,-0.0744128,2.345,2.49556
-0.842841,-0.0744128,2.345,2.49298
-0.835229,-0.0744128,2.345,2.49042
-0.827618,-0.0744128,2.345,2.48787
-0.820007,-0.0744128,2.345,2.48535
-0.817938,-0.0749205,2.361,2.49979
-0.810275,-0.0749205,2.361,2.49729
-0.802612,-0.0749205,2.361,2.49482
-0.794949,-0.0749205,2.361,2.49236
-0.787286,-0.0749205,2.361,2.48993
-0.779622,-0.0749205,2.361,2.48752
-0.771959,-0.0749205,2.361,2.48513
-0.764296,-0.0749205,2.361,2.48276
-0.756633,-0.0749205,2.361,2.48041
-0.754045,-0.0754282,2.377,2.49488
-0.751668,-0.0759676,2.394,2.51038
-0.743897,-0.0759676,2.394,2.50806
-0.736127,-0.0759676,2.394,2.50577
-0.733529,-0.0765071,2.411,2.52128
-0.725703,-0.0765071,2.411,2.51901
-0.717878,-0.0765071,2.411,2.51677
-0.710052,-0.0765071,2.411,2.51455
-0.702227,-0.0765071,2.411,2.51235
-0.699297,-0.0770466,2.428,2.52787
-0.691417,-0.0770466,2.428,2.5257
-0.688322,-0.077586,2.445,2.54123
-0.680386,-0.077586,2.445,2.53909
-0.67245,-0.077586,2.445,2.53697
-0.664514,-0.077586,2.445,2.53488
-0.656578,-0.077586,2.445,2.53281
-0.653418,-0.0781572,2.463,2.5494
-0.645424,-0.0781572,2.463,2.54736
-0.637429,-0.0781572,2.463,2.54535
-0.634035,-0.0787284,2.481,2.56194
-0.625982,-0.0787284,2.481,2.55996
-0.622413,-0.0792996,2.499,2.57657
-0.614302,-0.0792996,2.499,2.57462
-0.606191,-0.0792996,2.499,2.57269
-0.598079,-0.0792996,2.499,2.5708
-0.589968,-0.0792996,2.499,2.56892
-0.586048,-0.0798707,2.517,2.58556
-0.577879,-0.0798707,2.517,2.58372
-0.569709,-0.0798707,2.517,2.58191
-0.561539,-0.0798707,2.517,2.58012
-0.55337,-0.0798707,2.517,2.57835
-0.5452,-0.0798707,2.517,2.57661
-0.537031,-0.0798707,2.517,2.57489
-0.528861,-0.0798707,2.517,2.5732
-0.520692,-0.0798707,2.517,2.57153
-0.512522,-0.0798707,2.517,2.56989
-0.504353,-0.0798707,2.517,2.56828
-0.496183,-0.0798707,2.517,2.56668
-0.488013,-0.0798707,2.517,2.56512
-0.479844,-0.0798707,2.517,2.56358
-0.471674,-0.0798707,2.517,2.56206
-0.463505,-0.0798707,2.517,2.56057
-0.455335,-0.0798707,2.517,2.5591
-0.447166,-0.0798707,2.517,2.55766
-0.438996,-0.0798707,2.517,2.55624
-0.430827,-0.0798707,2.517,2.55485
-0.422657,-0.0798707,2.517,2.55349
-0.414487,-0.0798707,2.517,2.55215
-0.406318,-0.0798707,2.517,2.55084
-0.398148,-0.0798707,2.517,2.54955
-0.389979,-0.0798707,2.517,2.54828
-0.381809,-0.0798707,2.517,2.54705
-0.37364,-0.0798707,2.517,2.54584
-0.36547,-0.0798707,2.517,2.54465
-0.359998,-0.0804737,2.536,2.56269
-0.351766,-0.0804737,2.536,2.56154
-0.343535,-0.0804737,2.536,2.56043
-0.335304,-0.0804737,2.536,2.55934
-0.327073,-0.0804737,2.536,2.55827
-0.318842,-0.0804737,2.536,2.55723
-0.31061,-0.0804737,2.536,2.55622
-0.302379,-0.0804737,2.536,2.55523
-0.294148,-0.0804737,2.536,2.55427
-0.285917,-0.0804737,2.536,2.55334
-0.277685,-0.0804737,2.536,2.55243
-0.269454,-0.0804737,2.536,2.55154
-0.261223,-0.0804737,2.536,2.55069
-0.252992,-0.0804737,2.536,2.54986
-0.244761,-0.0804737,2.536,2.54905
-0.236529,-0.0804737,2.536,2.54828
-0.228298,-0.0804737,2.536,2.54753
-0.220067,-0.0804737,2.536,2.5468
-0.211836,-0.0804737,2.536,2.5461
-0.203604,-0.0804737,2.536,2.54543
-0.195373,-0.0804737,2.536,2.54479
-0.187142,-0.0804737,2.536,2.54417
-0.178911,-0.0804737,2.536,2.54358
-0.170679,-0.0804737,2.536,2.54301
-0.162448,-0.0804737,2.536,2.54247
-0.154217,-0.0804737,2.536,2.54196
-0.145986,-0.0804737,2.536,2.54147
-0.137755,-0.0804737,2.536,2.54101
-0.129523,-0.0804737,2.536,2.54058
-0.121292,-0.0804737,2.536,2.54017
-0.113061,-0.0804737,2.536,2.53979
-0.105615,-0.0810766,2.555,2.55847
-0.0973222,-0.0810766,2.555,2.55814
-0.0890293,-0.0810766,2.555,2.55784
-0.0807364,-0.0810766,2.555,2.55756
-0.0724435,-0.0810766,2.555,2.55731
-0.0646277,-0.0816795,2.574,2.57611
-0.0562731,-0.0816795,2.574,2.57591
-0.0479185,-0.0816795,2.574,2.57574
-0.039564,-0.0816795,2.574,2.5756
-0.0312094,-0.0816795,2.574,2.57548
-0.0228548,-0.0816795,2.574,2.5754
-0.0146073,-0.0822824,2.593,2.59435
-0.00619107,-0.0822824,2.593,2.59431
0.00224232,-0.0829171,2.613,2.61432
0.0108056,-0.0835517,2.633,2.63435
0.0193516,-0.0835517,2.633,2.6344
0.0278977,-0.0835517,2.633,2.63447
0.0364437,-0.0835517,2.633,2.63458
0.0449898,-0.0835517,2.633,2.63471
0.0535359,-0.0835517,2.633,2.63487
0.0616104,-0.0829171,2.613,2.61504
0.0700915,-0.0829171,2.613,2.61525
0.0779713,-0.0822824,2.593,2.59548
0.0863875,-0.0822824,2.593,2.59574
0.0948037,-0.0822824,2.593,2.59604
0.10322,-0.0822824,2.593,2.59636
0.110818,-0.0816795,2.574,2.57768
0.119173,-0.0816795,2.574,2.57805
0.127527,-0.0816795,2.574,2.57845
0.135882,-0.0816795,2.574,2.57888
0.144236,-0.0816795,2.574,2.57933
0.152591,-0.0816795,2.574,2.57981
0.160946,-0.0816795,2.574,2.58032
0.1693,-0.0816795,2.574,2.58085
0.177655,-0.0816795,2.574,2.58142
0.186009,-0.0816795,2.574,2.582
0.195799,-0.0822824,2.593,2.60168
0.204215,-0.0822824,2.593,2.60233
0.212631,-0.0822824,2.593,2.603
0.221047,-0.0822824,2.593,2.60371
0.231233,-0.0829171,2.613,2.62452
0.239715,-0.0829171,2.613,2.62528
0.248196,-0.0829171,2.613,2.62607
0.256677,-0.0829171,2.613,2.62689
0.265158,-0.0829171,2.613,2.62773
0.271545,-0.0822824,2.593,2.60848
0.279961,-0.0822824,2.593,2.60937
0.288377,-0.0822824,2.593,2.61028
0.294619,-0.0816795,2.574,2.59209
0.302973,-0.0816795,2.574,2.59306
0.311328,-0.0816795,2.574,2.59405
0.319682,-0.0816795,2.574,2.59506
0.325615,-0.0810766,2.555,2.57694
0.331425,-0.0804737,2.536,2.55883
0.339657,-0.0804737,2.536,2.55991
0.347888,-0.0804737,2.536,2.56101
0.353451,-0.0798707,2.517,2.54295
0.36162,-0.0798707,2.517,2.5441
0.367146,-0.0792996,2.499,2.52707
0.375257,-0.0792996,2.499,2.52826
0.383368,-0.0792996,2.499,2.52948
0.388659,-0.0787284,2.481,2.51249
0.396712,-0.0787284,2.481,2.51375
nan,nan,nan,NaN
nan,nan,nan,NaN
nan,nan,nan,NaN
nan,nan,nan,NaN
nan,nan,nan,NaN
nan,nan,nan,NaN
0.443402,-0.0770466,2.428,2.46936
0.451283,-0.0770466,2.428,2.47078
0.459163,-0.0770466,2.428,2.47224
0.467044,-0.0770466,2.428,2.47371
nan,nan,nan,NaN
0.482805,-0.0770466,2.428,2.47674
0.490686,-0.0770466,2.428,2.47828
0.502058,-0.077586,2.445,2.49722
0.513748,-0.0781572,2.463,2.51722
0.521742,-0.0781572,2.463,2.51887
0.533608,-0.0787284,2.481,2.53896
0.54559,-0.0792996,2.499,2.55909
0.553702,-0.0792996,2.499,2.56083
0.565859,-0.0798707,2.517,2.58106
0.578362,-0.0804737,2.536,2.60236
0.586593,-0.0804737,2.536,2.6042
0.594824,-0.0804737,2.536,2.60607
0.607574,-0.0810766,2.555,2.6275
0.615867,-0.0810766,2.555,2.62943
0.62416,-0.0810766,2.555,2.63138
0.637156,-0.0816795,2.574,2.65294
0.64551,-0.0816795,2.574,2.65496
0.653865,-0.0816795,2.574,2.65701
0.667108,-0.0822824,2.593,2.6787
0.675524,-0.0822824,2.593,2.68081
0.68394,-0.0822824,2.593,2.68295
0.692356,-0.0822824,2.593,2.6851
0.700773,-0.0822824,2.593,2.68729
0.709189,-0.0822824,2.593,2.68949
0.717605,-0.0822824,2.593,2.69172
0.726021,-0.0822824,2.593,2.69398
0.734438,-0.0822824,2.593,2.69626
0.742854,-0.0822824,2.593,2.69856
0.745765,-0.0816795,2.574,2.6811
0.75412,-0.0816795,2.574,2.68344
0.762474,-0.0816795,2.574,2.6858
0.770829,-0.0816795,2.574,2.68818
0.779183,-0.0816795,2.574,2.69059
0.787538,-0.0816795,2.574,2.69302
0.795892,-0.0816795,2.574,2.69548
0.804247,-0.0816795,2.574,2.69796
0.812602,-0.0816795,2.574,2.70046
0.814896,-0.0810766,2.555,2.68303
0.823189,-0.0810766,2.555,2.68556
0.831482,-0.0810766,2.555,2.68811
0.839775,-0.0810766,2.555,2.69069
0.841761,-0.0804737,2.536,2.67326
0.849993,-0.0804737,2.536,2.67587
0.858224,-0.0804737,2.536,2.67849
0.859963,-0.0798707,2.517,2.66105
0.868133,-0.0798707,2.517,2.6637
0.870036,-0.0792996,2.499,2.64731
0.871822,-0.0787284,2.481,2.6309
0.879874,-0.0787284,2.481,2.63358
0.881485,-0.0781572,2.463,2.61715
0.882979,-0.077586,2.445,2.60071
0.890915,-0.077586,2.445,2.60342
0.892601,-0.0770466,2.428,2.58802
0.894177,-0.0765071,2.411,2.57261
0.902002,-0.0765071,2.411,2.57534
0.909828,-0.0765071,2.411,2.57809
0.911183,-0.0759676,2.394,2.56267
0.906286,-0.0749205,2.361,2.53008
0.913949,-0.0749205,2.361,2.53283
0.921612,-0.0749205,2.361,2.53561
0.922978,-0.0744128,2.345,2.5212
0.930589,-0.0744128,2.345,2.524
0.938201,-0.0744128,2.345,2.52681
0.945812,-0.0744128,2.345,2.52965
0.953423,-0.0744128,2.345,2.5325
0.961035,-0.0744128,2.345,2.53538
0.981864,-0.0754282,2.377,2.57291
0.996657,-0.0759676,2.394,2.59429
1.01156,-0.0765071,2.411,2.61573
1.01938,-0.0765071,2.411,2.61876
1.0417,-0.077586,2.445,2.65879
1.08054,-0.0798707,2.517,2.7403
1.08871,-0.0798707,2.517,2.74353
1.13872,-0.0829171,2.613,2.85155
1.17442,-0.0848845,2.675,2.92268
1.22114,-0.0876135,2.761,3.02026
1.2301,-0.0876135,2.761,3.02389
1.29112,-0.0912945,2.877,3.15475
1.3339,-0.0936427,2.951,3.23983
1.34348,-0.0936427,2.951,3.24378
1.38928,-0.0961495,3.03,3.3347
1.43698,-0.0987516,3.112,3.42917
1.46057,-0.0996718,3.141,3.46541
1.47076,-0.0996718,3.141,3.46972
1.48096,-0.0996718,3.141,3.47405
1.50492,-0.100592,3.17,3.51053
1.51521,-0.100592,3.17,3.51495
1.5255,-0.100592,3.17,3.5194
1.53579,-0.100592,3.17,3.52387
1.54608,-0.100592,3.17,3.52837
1.55636,-0.100592,3.17,3.53289
1.56665,-0.100592,3.17,3.53743
1.56252,-0.0996718,3.141,3.5096
1.57271,-0.0996718,3.141,3.51415
1.56829,-0.0987516,3.112,3.48624
1.57839,-0.0987516,3.112,3.49079
1.58849,-0.0987516,3.112,3.49537
1.59859,-0.0987516,3.112,3.49997
1.62369,-0.0996718,3.141,3.53725
1.63388,-0.0996718,3.141,3.54195
1.64408,-0.0996718,3.141,3.54666
1.65427,-0.0996718,3.141,3.5514
1.66447,-0.0996718,3.141,3.55616
1.69012,-0.100592,3.17,3.59382
1.71597,-0.101512,3.199,3.63159
1.72635,-0.101512,3.199,3.63651
1.73673,-0.101512,3.199,3.64145
1.74712,-0.101512,3.199,3.64641
1.77453,-0.102496,3.23,3.68678
1.78501,-0.102496,3.23,3.69184
1.7955,-0.102496,3.23,3.69692
1.80598,-0.102496,3.23,3.70202
1.81647,-0.102496,3.23,3.70715
1.80941,-0.101512,3.199,3.67667
1.8198,-0.101512,3.199,3.68179
1.83018,-0.101512,3.199,3.68693
1.84056,-0.101512,3.199,3.6921
1.85095,-0.101512,3.199,3.69728
1.86133,-0.101512,3.199,3.70249
1.87171,-0.101512,3.199,3.70772
1.86504,-0.100592,3.17,3.67932
1.87532,-0.100592,3.17,3.68454
1.88561,-0.100592,3.17,3.68979
1.87856,-0.0996718,3.141,3.66126
1.88875,-0.0996718,3.141,3.6665
1.88142,-0.0987516,3.112,3.63786
1.8745,-0.0978631,3.084,3.61032
1.88451,-0.0978631,3.084,3.61552
1.89452,-0.0978631,3.084,3.62075
1.87118,-0.0961495,3.03,3.56251
1.88101,-0.0961495,3.03,3.56768
1.874,-0.0952927,3.003,3.54104
1.86744,-0.0944677,2.977,3.51551
1.8771,-0.0944677,2.977,3.52065
1.87028,-0.0936427,2.951,3.49502
1.86394,-0.0928493,2.926,3.4705
1.84206,-0.0912945,2.877,3.4174
1.8514,-0.0912945,2.877,3.42245
1.82969,-0.0897713,2.829,3.37032
1.80897,-0.0883116,2.783,3.32043
1.81801,-0.0883116,2.783,3.32536
1.79815,-0.0869154,2.739,3.27766
1.77867,-0.0855509,2.696,3.23101
1.78743,-0.0855509,2.696,3.23583
1.76819,-0.0842181,2.654,3.19019
1.74936,-0.0829171,2.613,3.14562
1.75784,-0.0829171,2.613,3.15034
1.73996,-0.0816795,2.574,3.10799
1.7225,-0.0804737,2.536,3.06672
-1.99587,-0.0819591,2.877,3.50248
-1.95339,-0.0805916,2.829,3.43882
-1.94421,-0.0805916,2.829,3.43361
-1.93502,-0.0805916,2.829,3.42842
-1.91018,-0.0799364,2.806,3.39541
-1.90108,-0.0799364,2.806,3.3903
-1.87646,-0.0792812,2.783,3.35745
-1.85267,-0.0786545,2.761,3.32591
-1.8437,-0.0786545,2.761,3.32093
-1.83474,-0.0786545,2.761,3.31596
-1.81123,-0.0780278,2.739,3.28463
-1.80234,-0.0780278,2.739,3.27973
-1.79345,-0.0780278,2.739,3.27486
-1.78456,-0.0780278,2.739,3.27
-1.77567,-0.0780278,2.739,3.26515
-1.76678,-0.0780278,2.739,3.26033
-1.75789,-0.0780278,2.739,3.25552
-1.76305,-0.0786545,2.761,3.27684
-1.78268,-0.0799364,2.806,3.32535
-1.77357,-0.0799364,2.806,3.32048
-1.77893,-0.0805916,2.829,3.3428
-1.79977,-0.0819591,2.877,3.39456
-1.80537,-0.0826428,2.901,3.41789
-1.79595,-0.0826428,2.901,3.41293
-1.80193,-0.0833549,2.926,3.43735
-1.80775,-0.0840671,2.951,3.46171
-1.79817,-0.0840671,2.951,3.45672
-1.80435,-0.0848078,2.977,3.48216
-1.81036,-0.0855485,3.003,3.50753
-1.80062,-0.0855485,3.003,3.50251
-1.79087,-0.0855485,3.003,3.49751
-1.78112,-0.0855485,3.003,3.49252
-1.7873,-0.0863177,3.03,3.51892
-1.77747,-0.0863177,3.03,3.51394
-1.75188,-0.0855485,3.003,3.4777
-1.74213,-0.0855485,3.003,3.4728
-1.71739,-0.0848078,2.977,3.4379
-1.69281,-0.0840671,2.951,3.4031
-1.68323,-0.0840671,2.951,3.39834
-1.67365,-0.0840671,2.951,3.39361
nan,nan,nan,NaN
nan,nan,nan,NaN
nan,nan,nan,NaN
nan,nan,nan,NaN
nan,nan,nan,NaN
nan,nan,nan,NaN
nan,nan,nan,NaN
nan,nan,nan,NaN
nan,nan,nan,NaN
nan,nan,nan,NaN
nan,nan,nan,NaN
nan,nan,nan,NaN
nan,nan,nan,NaN
nan,nan,nan,NaN
nan,nan,nan,NaN
nan,nan,nan,NaN
nan,nan,nan,NaN
nan,nan,nan,NaN
nan,nan,nan,NaN
nan,nan,nan,NaN
nan,nan,nan,NaN
nan,nan,nan,NaN
-1.20415,-0.0696524,2.445,2.72633
-1.17958,-0.0686838,2.411,2.68497
-1.17176,-0.0686838,2.411,2.68154
-1.15572,-0.0681995,2.394,2.65925
-1.1398,-0.0677152,2.377,2.63702
-1.13209,-0.0677152,2.377,2.63369
-1.12437,-0.0677152,2.377,2.63039
-1.10914,-0.0672594,2.361,2.60941
-1.10148,-0.0672594,2.361,2.60617
-1.0864,-0.0668036,2.345,2.5853
-1.07879,-0.0668036,2.345,2.58211
-1.07118,-0.0668036,2.345,2.57894
-1.06357,-0.0668036,2.345,2.57578
-1.04875,-0.0663478,2.329,2.5551
-1.04119,-0.0663478,2.329,2.552
-1.03363,-0.0663478,2.329,2.54893
-1.01902,-0.065892,2.313,2.52838
-1.01152,-0.065892,2.313,2.52537
-1.00401,-0.065892,2.313,2.52237
-0.996502,-0.065892,2.313,2.51939
-0.988995,-0.065892,2.313,2.51643
-0.981488,-0.065892,2.313,2.51349
-0.980718,-0.0663478,2.329,2.52793
-0.973158,-0.0663478,2.329,2.52501
-0.965599,-0.0663478,2.329,2.52211
-0.95804,-0.0663478,2.329,2.51922
-0.95048,-0.0663478,2.329,2.51636
-0.942921,-0.0663478,2.329,2.51351
-0.941787,-0.0668036,2.345,2.52793
-0.934176,-0.0668036,2.345,2.52511
-0.926565,-0.0668036,2.345,2.5223
-0.918953,-0.0668036,2.345,2.51952
-0.911342,-0.0668036,2.345,2.51675
-0.903731,-0.0668036,2.345,2.514
-0.89612,-0.0668036,2.345,2.51128
-0.888508,-0.0668036,2.345,2.50857
-0.880897,-0.0668036,2.345,2.50589
-0.873286,-0.0668036,2.345,2.50322
-0.865674,-0.0668036,2.345,2.50058
-0.858063,-0.0668036,2.345,2.49795
-0.850452,-0.0668036,2.345,2.49535
-0.842841,-0.0668036,2.345,2.49276
-0.835229,-0.0668036,2.345,2.4902
-0.827618,-0.0668036,2.345,2.48766
-0.820007,-0.0668036,2.345,2.48514
-0.817938,-0.0672594,2.361,2.49957
-0.810275,-0.0672594,2.361,2.49708
-0.802612,-0.0672594,2.361,2.4946
-0.794949,-0.0672594,2.361,2.49215
-0.787286,-0.0672594,2.361,2.48971
-0.779622,-0.0672594,2.361,2.4873
-0.771959,-0.0672594,2.361,2.48491
-0.764296,-0.0672594,2.361,2.48254
-0.76176,-0.0677152,2.377,2.497
-0.754045,-0.0677152,2.377,2.49465
-0.751668,-0.0681995,2.394,2.51016
-0.743897,-0.0681995,2.394,2.50784
-0.736127,-0.0681995,2.394,2.50555
-0.733529,-0.0686838,2.411,2.52105
-0.725703,-0.0686838,2.411,2.51879
-0.717878,-0.0686838,2.411,2.51654
-0.715059,-0.0691681,2.428,2.53205
-0.707178,-0.0691681,2.428,2.52984
-0.699297,-0.0691681,2.428,2.52764
-0.696258,-0.0696524,2.445,2.54316
-0.688322,-0.0696524,2.445,2.541
-0.680386,-0.0696524,2.445,2.53886
-0.67245,-0.0696524,2.445,2.53674
-0.669406,-0.0701652,2.463,2.55331
-0.661412,-0.0701652,2.463,2.55123
-0.653418,-0.0701652,2.463,2.54917
-0.65014,-0.0706779,2.481,2.56574
-0.642088,-0.0706779,2.481,2.56371
-0.634035,-0.0706779,2.481,2.56171
-0.630524,-0.0711907,2.499,2.5783
-0.622413,-0.0711907,2.499,2.57633
-0.614302,-0.0711907,2.499,2.57438
-0.606191,-0.0711907,2.499,2.57246
-0.598079,-0.0711907,2.499,2.57056
-0.589968,-0.0711907,2.499,2.56868
-0.586048,-0.0717035,2.517,2.58532
-0.577879,-0.0717035,2.517,2.58348
-0.569709,-0.0717035,2.517,2.58167
-0.561539,-0.0717035,2.517,2.57988
-0.55337,-0.0717035,2.517,2.57811
-0.5452,-0.0717035,2.517,2.57637
-0.537031,-0.0717035,2.517,2.57465
-0.528861,-0.0717035,2.517,2.57296
-0.524622,-0.0722448,2.536,2.5907
-0.516391,-0.0722448,2.536,2.58905
-0.50816,-0.0722448,2.536,2.58742
-0.499929,-0.0722448,2.536,2.58582
-0.491697,-0.0722448,2.536,2.58424
-0.479844,-0.0717035,2.517,2.56333
-0.471674,-0.0717035,2.517,2.56182
-0.463505,-0.0717035,2.517,2.56033
-0.455335,-0.0717035,2.517,2.55886
-0.447166,-0.0717035,2.517,2.55742
-0.438996,-0.0717035,2.517,2.556
-0.430827,-0.0717035,2.517,2.55461
-0.422657,-0.0717035,2.517,2.55325
-0.414487,-0.0717035,2.517,2.55191
-0.406318,-0.0717035,2.517,2.55059
-0.398148,-0.0717035,2.517,2.5493
-0.389979,-0.0717035,2.517,2.54804
-0.381809,-0.0717035,2.517,2.5468
-0.37364,-0.0717035,2.517,2.54559
-0.36547,-0.0717035,2.517,2.54441
-0.359998,-0.0722448,2.536,2.56244
-0.351766,-0.0722448,2.536,2.5613
-0.343535,-0.0722448,2.536,2.56018
-0.335304,-0.0722448,2.536,2.55909
-0.327073,-0.0722448,2.536,2.55802
-0.318842,-0.0722448,2.536,2.55699
-0.31061,-0.0722448,2.536,2.55597
-0.302379,-0.0722448,2.536,2.55499
-0.294148,-0.0722448,2.536,2.55402
-0.285917,-0.0722448,2.536,2.55309
-0.277685,-0.0722448,2.536,2.55218
-0.269454,-0.0722448,2.536,2.5513
-0.261223,-0.0722448,2.536,2.55044
-0.252992,-0.0722448,2.536,2.54961
-0.244761,-0.0722448,2.536,2.54881
-0.236529,-0.0722448,2.536,2.54803
-0.228298,-0.0722448,2.536,2.54728
-0.220067,-0.0722448,2.536,2.54656
-0.211836,-0.0722448,2.536,2.54586
-0.203604,-0.0722448,2.536,2.54519
-0.195373,-0.0722448,2.536,2.54454
-0.187142,-0.0722448,2.536,2.54392
-0.178911,-0.0722448,2.536,2.54333
-0.170679,-0.0722448,2.536,2.54276
-0.162448,-0.0722448,2.536,2.54222
-0.154217,-0.0722448,2.536,2.54171
-0.145986,-0.0722448,2.536,2.54123
-0.137755,-0.0722448,2.536,2.54077
-0.129523,-0.0722448,2.536,2.54033
-0.122201,-0.072786,2.555,2.55896
-0.113908,-0.072786,2.555,2.55857
-0.105615,-0.072786,2.555,2.55822
-0.0973222,-0.072786,2.555,2.55789
-0.0890293,-0.072786,2.555,2.55759
-0.0807364,-0.072786,2.555,2.55731
-0.0724435,-0.072786,2.555,2.55706
-0.0646277,-0.0733273,2.574,2.57586
-0.0562731,-0.0733273,2.574,2.57566
-0.0479185,-0.0733273,2.574,2.57549
-0.039564,-0.0733273,2.574,2.57535
-0.0312094,-0.0733273,2.574,2.57523
-0.0228548,-0.0733273,2.574,2.57515
-0.01472,-0.0744383,2.613,2.6141
-0.00623883,-0.0744383,2.613,2.61407
0.00224232,-0.0744383,2.613,2.61406
0.0108056,-0.0750081,2.633,2.63409
0.0193516,-0.0750081,2.633,2.63414
0.0278977,-0.0750081,2.633,2.63422
0.0364437,-0.0750081,2.633,2.63432
0.0449898,-0.0750081,2.633,2.63445
0.0535359,-0.0750081,2.633,2.63461
0.0616104,-0.0744383,2.613,2.61479
0.0700915,-0.0744383,2.613,2.615
0.0779713,-0.0738686,2.593,2.59522
0.0863875,-0.0738686,2.593,2.59549
0.0948037,-0.0738686,2.593,2.59578
0.10322,-0.0738686,2.593,2.5961
0.110818,-0.0733273,2.574,2.57743
0.119173,-0.0733273,2.574,2.5778
0.127527,-0.0733273,2.574,2.5782
0.134879,-0.072786,2.555,2.55959
0.143172,-0.072786,2.555,2.56004
0.152591,-0.0733273,2.574,2.57956
0.160946,-0.0733273,2.574,2.58007
0.1693,-0.0733273,2.574,2.5806
0.177655,-0.0733273,2.574,2.58117
0.186009,-0.0733273,2.574,2.58175
0.195799,-0.0738686,2.593,2.60143
0.204215,-0.0738686,2.593,2.60208
0.211073,-0.0733273,2.574,2.58368
0.219428,-0.0733273,2.574,2.58438
0.229463,-0.0738686,2.593,2.60418
0.23788,-0.0738686,2.593,2.60494
0.246296,-0.0738686,2.593,2.60572
0.252846,-0.0733273,2.574,2.58743
0.2612,-0.0733273,2.574,2.58826
0.269555,-0.0733273,2.574,2.58911
0.27791,-0.0733273,2.574,2.59
0.286264,-0.0733273,2.574,2.59091
0.294619,-0.0733273,2.574,2.59184
0.302973,-0.0733273,2.574,2.59281
0.30903,-0.072786,2.555,2.57465
0.317323,-0.072786,2.555,2.57566
0.323194,-0.0722448,2.536,2.55753
0.331425,-0.0722448,2.536,2.55859
0.339657,-0.0722448,2.536,2.55966
0.347888,-0.0722448,2.536,2.56077
0.353451,-0.0717035,2.517,2.54271
0.36162,-0.0717035,2.517,2.54386
0.367146,-0.0711907,2.499,2.52683
0.372554,-0.0706779,2.481,2.50981
0.380606,-0.0706779,2.481,2.51102
0.388659,-0.0706779,2.481,2.51225
0.396712,-0.0706779,2.481,2.51351
nan,nan,nan,NaN
nan,nan,nan,NaN
nan,nan,nan,NaN
nan,nan,nan,NaN
nan,nan,nan,NaN
0.435521,-0.0691681,2.428,2.46772
0.443402,-0.0691681,2.428,2.46912
0.451283,-0.0691681,2.428,2.47055
0.459163,-0.0691681,2.428,2.472
0.467044,-0.0691681,2.428,2.47348
nan,nan,nan,NaN
0.482805,-0.0691681,2.428,2.4765
0.490686,-0.0691681,2.428,2.47805
0.502058,-0.0696524,2.445,2.49699
0.513748,-0.0701652,2.463,2.51699
0.521742,-0.0701652,2.463,2.51863
0.533608,-0.0706779,2.481,2.53872
0.54952,-0.0717035,2.517,2.57729
0.55769,-0.0717035,2.517,2.57904
0.565859,-0.0717035,2.517,2.58082
0.574029,-0.0717035,2.517,2.58262
0.582199,-0.0717035,2.517,2.58445
0.594824,-0.0722448,2.536,2.60583
0.603056,-0.0722448,2.536,2.60772
0.615867,-0.072786,2.555,2.62919
0.62416,-0.072786,2.555,2.63114
0.632453,-0.072786,2.555,2.63312
0.64551,-0.0733273,2.574,2.65472
0.653865,-0.0733273,2.574,2.65676
0.662219,-0.0733273,2.574,2.65883
0.670574,-0.0733273,2.574,2.66093
0.678929,-0.0733273,2.574,2.66304
0.692356,-0.0738686,2.593,2.68486
0.700773,-0.0738686,2.593,2.68704
0.709189,-0.0738686,2.593,2.68925
0.717605,-0.0738686,2.593,2.69148
0.726021,-0.0738686,2.593,2.69374
0.734438,-0.0738686,2.593,2.69602
0.742854,-0.0738686,2.593,2.69832
0.745765,-0.0733273,2.574,2.68086
0.75412,-0.0733273,2.574,2.6832
0.762474,-0.0733273,2.574,2.68556
0.770829,-0.0733273,2.574,2.68794
0.779183,-0.0733273,2.574,2.69035
0.787538,-0.0733273,2.574,2.69278
0.795892,-0.0733273,2.574,2.69524
0.804247,-0.0733273,2.574,2.69772
0.812602,-0.0733273,2.574,2.70022
0.814896,-0.072786,2.555,2.68279
0.823189,-0.072786,2.555,2.68532
0.831482,-0.072786,2.555,2.68788
0.839775,-0.072786,2.555,2.69045
0.841761,-0.0722448,2.536,2.67303
0.849993,-0.0722448,2.536,2.67563
0.851794,-0.0717035,2.517,2.65819
0.853814,-0.0711907,2.499,2.64179
0.861925,-0.0711907,2.499,2.64443
0.870036,-0.0711907,2.499,2.64708
0.871822,-0.0706779,2.481,2.63067
0.879874,-0.0706779,2.481,2.63335
0.875043,-0.0696524,2.445,2.5978
0.87684,-0.0691681,2.428,2.58241
0.88472,-0.0691681,2.428,2.58509
0.886351,-0.0686838,2.411,2.56968
0.894177,-0.0686838,2.411,2.57239
0.895642,-0.0681995,2.394,2.55696
0.903413,-0.0681995,2.394,2.5597
0.904712,-0.0677152,2.377,2.54425
0.906286,-0.0672594,2.361,2.52986
0.913949,-0.0672594,2.361,2.53262
0.915367,-0.0668036,2.345,2.51821
0.922978,-0.0668036,2.345,2.52099
0.930589,-0.0668036,2.345,2.52378
0.938201,-0.0668036,2.345,2.5266
0.945812,-0.0668036,2.345,2.52944
0.953423,-0.0668036,2.345,2.53229
0.961035,-0.0668036,2.345,2.53517
0.981864,-0.0677152,2.377,2.5727
0.996657,-0.0681995,2.394,2.59407
1.01156,-0.0686838,2.411,2.61551
1.01938,-0.0686838,2.411,2.61855
1.0417,-0.0696524,2.445,2.65857
1.07281,-0.0711907,2.499,2.72048
1.08093,-0.0711907,2.499,2.72369
1.12172,-0.0733273,2.574,2.80876
1.15598,-0.0750081,2.633,2.87656
1.19239,-0.0768028,2.696,2.94892
1.20114,-0.0768028,2.696,2.95246
1.29112,-0.0819591,2.877,3.15449
1.3339,-0.0840671,2.951,3.23956
1.34348,-0.0840671,2.951,3.24352
1.38928,-0.0863177,3.03,3.33444
1.43698,-0.0886537,3.112,3.42889
1.46057,-0.0894798,3.141,3.46513
1.47076,-0.0894798,3.141,3.46944
1.48096,-0.0894798,3.141,3.47378
1.50492,-0.0903059,3.17,3.51025
1.51521,-0.0903059,3.17,3.51467
1.5255,-0.0903059,3.17,3.51912
1.53579,-0.0903059,3.17,3.52359
1.54608,-0.0903059,3.17,3.52809
1.55636,-0.0903059,3.17,3.53261
1.56665,-0.0903059,3.17,3.53715
1.56252,-0.0894798,3.141,3.50932
1.57271,-0.0894798,3.141,3.51387
1.56829,-0.0886537,3.112,3.48596
1.57839,-0.0886537,3.112,3.49052
1.58849,-0.0886537,3.112,3.4951
1.59859,-0.0886537,3.112,3.4997
1.62369,-0.0894798,3.141,3.53698
1.63388,-0.0894798,3.141,3.54167
1.64408,-0.0894798,3.141,3.54639
1.65427,-0.0894798,3.141,3.55113
1.66447,-0.0894798,3.141,3.55589
1.69012,-0.0903059,3.17,3.59355
1.71597,-0.0911321,3.199,3.63131
1.72635,-0.0911321,3.199,3.63623
1.73673,-0.0911321,3.199,3.64117
1.74712,-0.0911321,3.199,3.64614
1.77453,-0.0920152,3.23,3.68651
1.78501,-0.0920152,3.23,3.69156
1.7955,-0.0920152,3.23,3.69664
1.80598,-0.0920152,3.23,3.70175
1.81647,-0.0920152,3.23,3.70687
1.80941,-0.0911321,3.199,3.6764
1.8198,-0.0911321,3.199,3.68152
1.83018,-0.0911321,3.199,3.68666
1.84056,-0.0911321,3.199,3.69183
1.85095,-0.0911321,3.199,3.69701
1.86133,-0.0911321,3.199,3.70222
1.87171,-0.0911321,3.199,3.70745
1.86504,-0.0903059,3.17,3.67905
1.87532,-0.0903059,3.17,3.68428
1.88561,-0.0903059,3.17,3.68952
