1.29441,-0.359796,2.654,2.97467
1.30303,-0.359796,2.654,2.97843
1.30126,-0.356949,2.633,2.95861
1.30981,-0.356949,2.633,2.96238
1.32887,-0.359796,2.654,2.98983
1.34807,-0.362642,2.675,3.01735
1.35675,-0.362642,2.675,3.02124
1.3981,-0.371319,2.739,3.09753
1.44141,-0.380402,2.806,3.17742
1.45051,-0.380402,2.806,3.18156
1.49655,-0.390027,2.877,3.26633
1.57184,-0.407109,3.003,3.41386
1.65427,-0.425817,3.141,3.57545
1.66447,-0.425817,3.141,3.58017
1.73811,-0.441949,3.26,3.72074
1.80018,-0.454964,3.356,3.83541
1.81108,-0.454964,3.356,3.84054
1.87734,-0.468792,3.458,3.96257
1.92734,-0.478417,3.529,4.04937
1.9388,-0.478417,3.529,4.05483
1.95025,-0.478417,3.529,4.06032
1.98227,-0.483433,3.566,4.10846
2.0151,-0.488585,3.604,4.1579
2.02679,-0.488585,3.604,4.16358
2.05998,-0.493736,3.642,4.21325
2.07181,-0.493736,3.642,4.21904
2.08363,-0.493736,3.642,4.22486
2.11789,-0.499023,3.681,4.27601
2.12983,-0.499023,3.681,4.28194
2.11909,-0.493736,3.642,4.24246
2.10868,-0.488585,3.604,4.20405
2.12037,-0.488585,3.604,4.20993
2.13207,-0.488585,3.604,4.21583
2.09916,-0.478417,3.529,4.13391
2.06815,-0.468792,3.458,4.05645
2.07937,-0.468792,3.458,4.06218
2.04888,-0.459438,3.389,3.98677
2.03982,-0.454964,3.356,3.95356
2.05072,-0.454964,3.356,3.95919
2.02229,-0.446288,3.292,3.88923
1.97555,-0.43368,3.199,3.78477
1.98593,-0.43368,3.199,3.7902
1.96012,-0.425817,3.141,3.72683
1.93456,-0.41809,3.084,3.66447
1.94457,-0.41809,3.084,3.66977
1.92035,-0.410769,3.03,3.61073
1.89642,-0.403584,2.977,3.55272
1.90609,-0.403584,2.977,3.55789
1.89902,-0.400059,2.951,3.53196
1.87626,-0.393281,2.901,3.47719
1.88567,-0.393281,2.901,3.48228
1.87941,-0.390027,2.877,3.45853
1.87299,-0.386773,2.853,3.43472
1.86642,-0.38352,2.829,3.41084
1.8756,-0.38352,2.829,3.41588
1.86946,-0.380402,2.806,3.39312
1.86317,-0.377284,2.783,3.37029
1.8722,-0.377284,2.783,3.37529
1.86637,-0.374301,2.761,3.35359
1.86038,-0.371319,2.739,3.33182
-2.28377,-0.435606,3.292,4.03021
-2.27308,-0.435606,3.292,4.02417
-2.2624,-0.435606,3.292,4.01814
-2.25171,-0.435606,3.292,4.01214
-2.24103,-0.435606,3.292,4.00615
-2.23034,-0.435606,3.292,4.00018
-2.21966,-0.435606,3.292,3.99423
-2.20897,-0.435606,3.292,3.98831
-2.19829,-0.435606,3.292,3.9824
-2.1876,-0.435606,3.292,3.97651
-2.17692,-0.435606,3.292,3.97064
-2.16623,-0.435606,3.292,3.96479
-2.15555,-0.435606,3.292,3.95896
-2.14486,-0.435606,3.292,3.95316
-2.13418,-0.435606,3.292,3.94737
-2.12349,-0.435606,3.292,3.9416
-2.09227,-0.431371,3.26,3.8976
-2.08169,-0.431371,3.26,3.89193
-2.07111,-0.431371,3.26,3.88628
-2.06053,-0.431371,3.26,3.88065
-2.04995,-0.431371,3.26,3.87504
-2.03936,-0.431371,3.26,3.86946
-2.02878,-0.431371,3.26,3.86389
-2.0182,-0.431371,3.26,3.85834
-2.00762,-0.431371,3.26,3.85282
-1.99704,-0.431371,3.26,3.84732
-1.98646,-0.431371,3.26,3.84184
-1.97588,-0.431371,3.26,3.83638
-1.9653,-0.431371,3.26,3.83094
-1.95472,-0.431371,3.26,3.82552
-1.94413,-0.431371,3.26,3.82012
nan,nan,nan,NaN
nan,nan,nan,NaN
nan,nan,nan,NaN
nan,nan,nan,NaN
nan,nan,nan,NaN
nan,nan,nan,NaN
nan,nan,nan,NaN
nan,nan,nan,NaN
nan,nan,nan,NaN
nan,nan,nan,NaN
nan,nan,nan,NaN
nan,nan,nan,NaN
nan,nan,nan,NaN
nan,nan,nan,NaN
nan,nan,nan,NaN
nan,nan,nan,NaN
nan,nan,nan,NaN
nan,nan,nan,NaN
nan,nan,nan,NaN
nan,nan,nan,NaN
nan,nan,nan,NaN
nan,nan,nan,NaN
nan,nan,nan,NaN
nan,nan,nan,NaN
nan,nan,nan,NaN
nan,nan,nan,NaN
nan,nan,nan,NaN
nan,nan,nan,NaN
nan,nan,nan,NaN
nan,nan,nan,NaN
nan,nan,nan,NaN
nan,nan,nan,NaN
nan,nan,nan,NaN
-1.11684,-0.304077,2.298,2.57305
-1.10938,-0.304077,2.298,2.56982
-1.10911,-0.306062,2.313,2.58337
-1.10161,-0.306062,2.313,2.58015
-1.0941,-0.306062,2.313,2.57695
-1.08659,-0.306062,2.313,2.57378
-1.08655,-0.308179,2.329,2.5884
-1.07899,-0.308179,2.329,2.58523
-1.07143,-0.308179,2.329,2.58209
-1.06387,-0.308179,2.329,2.57896
-1.05631,-0.308179,2.329,2.57585
-1.05596,-0.310296,2.345,2.59044
-1.04835,-0.310296,2.345,2.58734
-1.04073,-0.310296,2.345,2.58427
-1.02607,-0.308179,2.329,2.5636
-1.01851,-0.308179,2.329,2.56058
-1.01096,-0.308179,2.329,2.55759
-1.0034,-0.308179,2.329,2.55461
-0.995836,-0.308179,2.329,2.55165
-0.995066,-0.310296,2.345,2.56622
-0.987455,-0.310296,2.345,2.56327
-0.979844,-0.310296,2.345,2.56035
-0.972232,-0.310296,2.345,2.55745
-0.964621,-0.310296,2.345,2.55457
-0.95701,-0.310296,2.345,2.5517
-0.949399,-0.310296,2.345,2.54886
-0.941787,-0.310296,2.345,2.54603
-0.934176,-0.310296,2.345,2.54323
-0.926565,-0.310296,2.345,2.54044
-0.918953,-0.310296,2.345,2.53767
-0.911342,-0.310296,2.345,2.53493
-0.903731,-0.310296,2.345,2.5322
-0.89612,-0.310296,2.345,2.52949
-0.888508,-0.310296,2.345,2.52681
-0.880897,-0.310296,2.345,2.52414
-0.873286,-0.310296,2.345,2.52149
-0.865674,-0.310296,2.345,2.51887
-0.858063,-0.310296,2.345,2.51626
-0.850452,-0.310296,2.345,2.51368
-0.842841,-0.310296,2.345,2.51111
-0.835229,-0.310296,2.345,2.50857
-0.827618,-0.310296,2.345,2.50604
-0.825602,-0.312413,2.361,2.52062
-0.817938,-0.312413,2.361,2.51812
-0.810275,-0.312413,2.361,2.51564
-0.802612,-0.312413,2.361,2.51319
-0.794949,-0.312413,2.361,2.51075
-0.787286,-0.312413,2.361,2.50833
-0.784906,-0.31453,2.377,2.52292
-0.777191,-0.31453,2.377,2.52053
-0.769475,-0.31453,2.377,2.51816
-0.767208,-0.31678,2.394,2.53381
-0.759438,-0.31678,2.394,2.53147
-0.751668,-0.31678,2.394,2.52915
-0.743897,-0.31678,2.394,2.52685
-0.736127,-0.31678,2.394,2.52457
-0.728357,-0.31678,2.394,2.52232
-0.725703,-0.319029,2.411,2.53798
-0.712816,-0.31678,2.394,2.51787
-0.705046,-0.31678,2.394,2.51569
-0.697275,-0.31678,2.394,2.51352
-0.689505,-0.31678,2.394,2.51137
-0.681735,-0.31678,2.394,2.50925
-0.673964,-0.31678,2.394,2.50715
-0.670925,-0.319029,2.411,2.52286
-0.663099,-0.319029,2.411,2.52079
-0.650653,-0.31678,2.394,2.50099
-0.642883,-0.31678,2.394,2.49898
-0.639623,-0.319029,2.411,2.51472
-0.631797,-0.319029,2.411,2.51274
-0.623972,-0.319029,2.411,2.51079
-0.616146,-0.319029,2.411,2.50885
-0.608321,-0.319029,2.411,2.50694
-0.600495,-0.319029,2.411,2.50505
-0.596848,-0.321279,2.428,2.52084
-0.588968,-0.321279,2.428,2.51899
-0.581087,-0.321279,2.428,2.51715
-0.57722,-0.323528,2.445,2.53296
-0.569284,-0.323528,2.445,2.53116
-0.565481,-0.32591,2.463,2.54801
-0.557486,-0.32591,2.463,2.54625
-0.549492,-0.32591,2.463,2.54451
-0.545455,-0.328292,2.481,2.56138
-0.537403,-0.328292,2.481,2.55968
-0.52935,-0.328292,2.481,2.558
-0.525079,-0.330674,2.499,2.57489
-0.516968,-0.330674,2.499,2.57325
-0.508857,-0.330674,2.499,2.57163
-0.500746,-0.330674,2.499,2.57004
-0.492635,-0.330674,2.499,2.56847
-0.484524,-0.330674,2.499,2.56693
-0.476412,-0.330674,2.499,2.56541
-0.471674,-0.333056,2.517,2.58238
-0.463505,-0.333056,2.517,2.5809
-0.458772,-0.33557,2.536,2.59892
-0.450541,-0.33557,2.536,2.59748
-0.44231,-0.33557,2.536,2.59606
-0.434079,-0.33557,2.536,2.59467
-0.425848,-0.33557,2.536,2.59331
-0.417616,-0.33557,2.536,2.59197
-0.409385,-0.33557,2.536,2.59066
-0.401154,-0.33557,2.536,2.58937
-0.392923,-0.33557,2.536,2.58811
-0.384691,-0.33557,2.536,2.58687
-0.37364,-0.333056,2.517,2.56629
-0.36547,-0.333056,2.517,2.56511
-0.357301,-0.333056,2.517,2.56396
-0.349131,-0.333056,2.517,2.56283
-0.340961,-0.333056,2.517,2.56173
-0.332792,-0.333056,2.517,2.56066
-0.324622,-0.333056,2.517,2.55961
-0.316453,-0.333056,2.517,2.55859
-0.308283,-0.333056,2.517,2.55759
-0.297967,-0.330674,2.499,2.53833
-0.289856,-0.330674,2.499,2.53739
-0.281745,-0.330674,2.499,2.53648
-0.273634,-0.330674,2.499,2.53559
-0.265523,-0.330674,2.499,2.53473
-0.257412,-0.330674,2.499,2.53389
-0.249301,-0.330674,2.499,2.53308
-0.24119,-0.330674,2.499,2.5323
-0.233078,-0.330674,2.499,2.53154
-0.224967,-0.330674,2.499,2.5308
-0.215294,-0.328292,2.481,2.51187
-0.207241,-0.328292,2.481,2.51119
-0.199189,-0.328292,2.481,2.51054
-0.191136,-0.328292,2.481,2.50991
-0.183083,-0.328292,2.481,2.50931
-0.175031,-0.328292,2.481,2.50874
-0.165766,-0.32591,2.463,2.48999
-0.157772,-0.32591,2.463,2.48947
-0.149778,-0.32591,2.463,2.48898
-0.141784,-0.32591,2.463,2.48851
-0.134767,-0.328292,2.481,2.50625
-0.126714,-0.328292,2.481,2.50583
-0.118662,-0.328292,2.481,2.50544
-0.111411,-0.330674,2.499,2.52324
-0.1033,-0.330674,2.499,2.5229
-0.0951891,-0.330674,2.499,2.52258
-0.087078,-0.330674,2.499,2.52229
-0.0789668,-0.330674,2.499,2.52202
-0.0708557,-0.330674,2.499,2.52178
-0.0627446,-0.330674,2.499,2.52156
-0.0546334,-0.330674,2.499,2.52137
-0.0468574,-0.333056,2.517,2.53937
-0.0386878,-0.333056,2.517,2.53923
-0.0305183,-0.333056,2.517,2.53912
-0.0223487,-0.333056,2.517,2.53904
-0.0141792,-0.333056,2.517,2.53898
-0.00600962,-0.333056,2.517,2.53895
0.00217625,-0.33557,2.536,2.55811
0.0104075,-0.33557,2.536,2.55813
0.0186387,-0.33557,2.536,2.55817
0.0270712,-0.338084,2.555,2.57741
0.0353641,-0.338084,2.555,2.57751
0.043657,-0.338084,2.555,2.57764
0.0519499,-0.338084,2.555,2.57779
0.0602428,-0.338084,2.555,2.57798
0.0690454,-0.340598,2.574,2.59735
0.0773999,-0.340598,2.574,2.59759
0.0857545,-0.340598,2.574,2.59785
0.0941091,-0.340598,2.574,2.59814
0.102464,-0.340598,2.574,2.59846
0.110818,-0.340598,2.574,2.5988
0.119173,-0.340598,2.574,2.59917
0.127527,-0.340598,2.574,2.59957
0.135882,-0.340598,2.574,2.59999
0.144236,-0.340598,2.574,2.60044
0.152591,-0.340598,2.574,2.60092
0.160946,-0.340598,2.574,2.60142
0.1693,-0.340598,2.574,2.60195
0.178966,-0.343112,2.593,2.62172
0.186009,-0.340598,2.574,2.60309
0.194364,-0.340598,2.574,2.6037
0.202718,-0.340598,2.574,2.60434
0.211073,-0.340598,2.574,2.605
0.219428,-0.340598,2.574,2.60569
0.229463,-0.343112,2.593,2.62565
0.23788,-0.343112,2.593,2.6264
0.246296,-0.343112,2.593,2.62717
0.254712,-0.343112,2.593,2.62798
0.263128,-0.343112,2.593,2.6288
0.271545,-0.343112,2.593,2.62966
0.279961,-0.343112,2.593,2.63054
0.288377,-0.343112,2.593,2.63145
0.296793,-0.343112,2.593,2.63239
0.30521,-0.343112,2.593,2.63335
0.313626,-0.343112,2.593,2.63434
0.322042,-0.343112,2.593,2.63535
0.328037,-0.340598,2.574,2.61708
0.336391,-0.340598,2.574,2.61814
0.344746,-0.340598,2.574,2.61922
0.353101,-0.340598,2.574,2.62034
0.358787,-0.338084,2.555,2.60212
0.36708,-0.338084,2.555,2.60328
0.375373,-0.338084,2.555,2.60446
0.383666,-0.338084,2.555,2.60567
0.391959,-0.338084,2.555,2.60691
0.400252,-0.338084,2.555,2.60817
0.408544,-0.338084,2.555,2.60945
0.416837,-0.338084,2.555,2.61076
0.42513,-0.338084,2.555,2.6121
0.433423,-0.338084,2.555,2.61346
0.441716,-0.338084,2.555,2.61485
0.450009,-0.338084,2.555,2.61626
0.458302,-0.338084,2.555,2.6177
0.470064,-0.340598,2.574,2.63864
0.478419,-0.340598,2.574,2.64015
0.486774,-0.340598,2.574,2.64167
0.495128,-0.340598,2.574,2.64322
0.503483,-0.340598,2.574,2.6448
0.511837,-0.340598,2.574,2.64641
0.520192,-0.340598,2.574,2.64803
0.528546,-0.340598,2.574,2.64969
0.532938,-0.338084,2.555,2.6318
0.541231,-0.338084,2.555,2.63349
0.549524,-0.338084,2.555,2.6352
0.557817,-0.338084,2.555,2.63695
0.566109,-0.338084,2.555,2.63871
0.574402,-0.338084,2.555,2.6405
0.582695,-0.338084,2.555,2.64232
0.590988,-0.338084,2.555,2.64416
0.599281,-0.338084,2.555,2.64603
0.607574,-0.338084,2.555,2.64792
0.615867,-0.338084,2.555,2.64983
0.62416,-0.338084,2.555,2.65177
0.632453,-0.338084,2.555,2.65374
0.640746,-0.338084,2.555,2.65573
0.649038,-0.338084,2.555,2.65774
0.657331,-0.338084,2.555,2.65978
0.665624,-0.338084,2.555,2.66184
0.673917,-0.338084,2.555,2.66392
0.68221,-0.338084,2.555,2.66603
0.690503,-0.338084,2.555,2.66817
0.698796,-0.338084,2.555,2.67033
0.707089,-0.338084,2.555,2.67251
0.715382,-0.338084,2.555,2.67471
0.723674,-0.338084,2.555,2.67694
0.731967,-0.338084,2.555,2.6792
0.74026,-0.338084,2.555,2.68148
0.748553,-0.338084,2.555,2.68378
0.756846,-0.338084,2.555,2.6861
0.765139,-0.338084,2.555,2.68845
0.773432,-0.338084,2.555,2.69082
0.775912,-0.33557,2.536,2.67319
0.784143,-0.33557,2.536,2.67559
0.792374,-0.33557,2.536,2.67801
0.800605,-0.33557,2.536,2.68046
0.802777,-0.333056,2.517,2.66283
0.810946,-0.333056,2.517,2.6653
0.819116,-0.333056,2.517,2.6678
0.827285,-0.333056,2.517,2.67032
0.835455,-0.333056,2.517,2.67286
0.843624,-0.333056,2.517,2.67543
0.845702,-0.330674,2.499,2.65886
0.853814,-0.330674,2.499,2.66146
0.861925,-0.330674,2.499,2.66407
0.870036,-0.330674,2.499,2.6667
0.871822,-0.328292,2.481,2.65013
0.879874,-0.328292,2.481,2.65279
0.887927,-0.328292,2.481,2.65548
0.89598,-0.328292,2.481,2.65818
0.904033,-0.328292,2.481,2.6609
0.912085,-0.328292,2.481,2.66365
0.920138,-0.328292,2.481,2.66642
0.928191,-0.328292,2.481,2.66921
0.929451,-0.32591,2.463,2.65263
0.937445,-0.32591,2.463,2.65545
0.945439,-0.32591,2.463,2.65828
0.953434,-0.32591,2.463,2.66113
0.961428,-0.32591,2.463,2.66401
0.969422,-0.32591,2.463,2.6669
0.977417,-0.32591,2.463,2.66982
0.985411,-0.32591,2.463,2.67276
0.993405,-0.32591,2.463,2.67571
1.0014,-0.32591,2.463,2.67869
1.00939,-0.32591,2.463,2.68169
1.01739,-0.32591,2.463,2.68471
1.02538,-0.32591,2.463,2.68775
1.03338,-0.32591,2.463,2.69081
nan,nan,nan,NaN
nan,nan,nan,NaN
nan,nan,nan,NaN
1.13889,-0.348405,2.633,2.88983
1.14743,-0.348405,2.633,2.89321
1.18364,-0.356741,2.696,2.96592
1.19239,-0.356741,2.696,2.96942
1.2301,-0.365342,2.761,3.04462
1.23906,-0.365342,2.761,3.04826
nan,nan,nan,NaN
1.27747,-0.371297,2.806,3.10539
1.28658,-0.371297,2.806,3.10914
1.29568,-0.371297,2.806,3.11292
1.30479,-0.371297,2.806,3.11673
1.3139,-0.371297,2.806,3.12055
1.32301,-0.371297,2.806,3.1244
1.33211,-0.371297,2.806,3.12826
1.34122,-0.371297,2.806,3.13215
1.35033,-0.371297,2.806,3.13606
1.33764,-0.365342,2.761,3.08964
1.3466,-0.365342,2.761,3.09353
1.34476,-0.362431,2.739,3.07276
1.35365,-0.362431,2.739,3.07666
1.36254,-0.362431,2.739,3.08058
1.38244,-0.365342,2.761,3.1093
1.3914,-0.365342,2.761,3.11329
1.38921,-0.362431,2.739,3.09247
1.3981,-0.362431,2.739,3.09647
1.44141,-0.371297,2.806,3.17634
1.45051,-0.371297,2.806,3.18049
1.49655,-0.380692,2.877,3.26523
1.57184,-0.397364,3.003,3.41271
1.65427,-0.415625,3.141,3.57425
1.66447,-0.415625,3.141,3.57898
1.73811,-0.431371,3.26,3.7195
1.80018,-0.444074,3.356,3.83414
1.81108,-0.444074,3.356,3.83926
1.87734,-0.457571,3.458,3.96126
1.92734,-0.466966,3.529,4.04803
1.9388,-0.466966,3.529,4.0535
1.95025,-0.466966,3.529,4.05899
1.98227,-0.471862,3.566,4.10712
2.0151,-0.47689,3.604,4.15654
2.02679,-0.47689,3.604,4.16223
2.05998,-0.481918,3.642,4.21188
2.07181,-0.481918,3.642,4.21768
2.08363,-0.481918,3.642,4.2235
2.11789,-0.487079,3.681,4.27463
2.12983,-0.487079,3.681,4.28056
2.11909,-0.481918,3.642,4.2411
2.10868,-0.47689,3.604,4.20271
2.12037,-0.47689,3.604,4.20859
2.13207,-0.47689,3.604,4.2145
2.09916,-0.466966,3.529,4.1326
2.06815,-0.457571,3.458,4.05517
2.07937,-0.457571,3.458,4.0609
2.04888,-0.448441,3.389,3.98552
2.03982,-0.444074,3.356,3.95232
2.05072,-0.444074,3.356,3.95795
2.02229,-0.435606,3.292,3.88802
1.97555,-0.4233,3.199,3.78359
1.98593,-0.4233,3.199,3.78902
1.96012,-0.415625,3.141,3.72568
1.93456,-0.408082,3.084,3.66335
1.94457,-0.408082,3.084,3.66864
1.92035,-0.400937,3.03,3.60963
1.89642,-0.393924,2.977,3.55164
1.90609,-0.393924,2.977,3.55681
1.89902,-0.390484,2.951,3.53089
1.87626,-0.383867,2.901,3.47613
1.88567,-0.383867,2.901,3.48122
1.87941,-0.380692,2.877,3.45749
1.87299,-0.377516,2.853,3.43369
1.86642,-0.37434,2.829,3.40982
1.8756,-0.37434,2.829,3.41486
1.86946,-0.371297,2.806,3.39211
1.86317,-0.368253,2.783,3.36929
1.8722,-0.368253,2.783,3.37429
1.86637,-0.365342,2.761,3.3526
1.86038,-0.362431,2.739,3.33084
-2.28377,-0.424924,3.292,4.02907
-2.27308,-0.424924,3.292,4.02303
-2.2624,-0.424924,3.292,4.017
-2.25171,-0.424924,3.292,4.01099
-2.24103,-0.424924,3.292,4.005
-2.23034,-0.424924,3.292,3.99903
-2.21966,-0.424924,3.292,3.99308
-2.20897,-0.424924,3.292,3.98715
-2.19829,-0.424924,3.292,3.98124
-2.1876,-0.424924,3.292,3.97535
-2.17692,-0.424924,3.292,3.96948
-2.16623,-0.424924,3.292,3.96363
-2.15555,-0.424924,3.292,3.9578
-2.14486,-0.424924,3.292,3.95199
-2.13418,-0.424924,3.292,3.94621
-2.12349,-0.424924,3.292,3.94044
-2.11281,-0.424924,3.292,3.93469
-2.10212,-0.424924,3.292,3.92896
-2.09144,-0.424924,3.292,3.92326
-2.08075,-0.424924,3.292,3.91757
-2.07007,-0.424924,3.292,3.91191
-2.05938,-0.424924,3.292,3.90626
-2.0487,-0.424924,3.292,3.90064
-2.03801,-0.424924,3.292,3.89504
-2.02733,-0.424924,3.292,3.88946
-2.01664,-0.424924,3.292,3.8839
-1.98646,-0.420793,3.26,3.84066
-1.97588,-0.420793,3.26,3.8352
-1.98459,-0.424924,3.292,3.86735
-1.9739,-0.424924,3.292,3.86188
-1.96322,-0.424924,3.292,3.85643
nan,nan,nan,NaN
nan,nan,nan,NaN
nan,nan,nan,NaN
nan,nan,nan,NaN
nan,nan,nan,NaN
nan,nan,nan,NaN
nan,nan,nan,NaN
nan,nan,nan,NaN
nan,nan,nan,NaN
nan,nan,nan,NaN
nan,nan,nan,NaN
nan,nan,nan,NaN
nan,nan,nan,NaN
nan,nan,nan,NaN
nan,nan,nan,NaN
nan,nan,nan,NaN
nan,nan,nan,NaN
nan,nan,nan,NaN
nan,nan,nan,NaN
nan,nan,nan,NaN
nan,nan,nan,NaN
nan,nan,nan,NaN
nan,nan,nan,NaN
nan,nan,nan,NaN
nan,nan,nan,NaN
nan,nan,nan,NaN
nan,nan,nan,NaN
nan,nan,nan,NaN
nan,nan,nan,NaN
nan,nan,nan,NaN
nan,nan,nan,NaN
nan,nan,nan,NaN
nan,nan,nan,NaN
-1.1319,-0.300622,2.329,2.60688
-1.12435,-0.300622,2.329,2.60361
-1.11679,-0.300622,2.329,2.60035
-1.10923,-0.300622,2.329,2.59711
-1.10167,-0.300622,2.329,2.59389
-1.09411,-0.300622,2.329,2.59069
-1.08655,-0.300622,2.329,2.58751
-1.07899,-0.300622,2.329,2.58434
-1.07879,-0.302687,2.345,2.59893
-1.07118,-0.302687,2.345,2.59578
-1.06357,-0.302687,2.345,2.59265
-1.05596,-0.302687,2.345,2.58953
-1.04835,-0.302687,2.345,2.58644
-1.04073,-0.302687,2.345,2.58336
-1.03312,-0.302687,2.345,2.58031
-1.02551,-0.302687,2.345,2.57727
-1.0179,-0.302687,2.345,2.57425
-1.01029,-0.302687,2.345,2.57125
-1.00268,-0.302687,2.345,2.56827
-0.995066,-0.302687,2.345,2.56531
-0.987455,-0.302687,2.345,2.56236
-0.979844,-0.302687,2.345,2.55944
-0.972232,-0.302687,2.345,2.55654
-0.964621,-0.302687,2.345,2.55365
-0.95701,-0.302687,2.345,2.55079
-0.949399,-0.302687,2.345,2.54794
-0.941787,-0.302687,2.345,2.54511
-0.934176,-0.302687,2.345,2.54231
-0.926565,-0.302687,2.345,2.53952
-0.918953,-0.302687,2.345,2.53675
-0.911342,-0.302687,2.345,2.53401
-0.903731,-0.302687,2.345,2.53128
-0.89612,-0.302687,2.345,2.52857
-0.888508,-0.302687,2.345,2.52588
-0.880897,-0.302687,2.345,2.52322
-0.873286,-0.302687,2.345,2.52057
-0.865674,-0.302687,2.345,2.51794
-0.858063,-0.302687,2.345,2.51534
-0.850452,-0.302687,2.345,2.51275
-0.842841,-0.302687,2.345,2.51018
-0.835229,-0.302687,2.345,2.50764
-0.827618,-0.302687,2.345,2.50511
-0.825602,-0.304752,2.361,2.51969
-0.817938,-0.304752,2.361,2.51718
-0.810275,-0.304752,2.361,2.5147
-0.802612,-0.304752,2.361,2.51225
-0.794949,-0.304752,2.361,2.50981
-0.787286,-0.304752,2.361,2.50739
-0.779622,-0.304752,2.361,2.505
-0.777191,-0.306818,2.377,2.51958
-0.769475,-0.306818,2.377,2.51721
-0.767208,-0.309012,2.394,2.53285
-0.759438,-0.309012,2.394,2.53051
-0.751668,-0.309012,2.394,2.52819
-0.743897,-0.309012,2.394,2.52589
-0.736127,-0.309012,2.394,2.52361
-0.728357,-0.309012,2.394,2.52135
-0.725703,-0.311206,2.411,2.53701
-0.712816,-0.309012,2.394,2.51691
-0.705046,-0.309012,2.394,2.51472
-0.697275,-0.309012,2.394,2.51255
-0.689505,-0.309012,2.394,2.51041
-0.681735,-0.309012,2.394,2.50828
-0.673964,-0.309012,2.394,2.50618
-0.666194,-0.309012,2.394,2.5041
-0.658424,-0.309012,2.394,2.50205
-0.650653,-0.309012,2.394,2.50001
-0.642883,-0.309012,2.394,2.498
-0.635113,-0.309012,2.394,2.49602
-0.631797,-0.311206,2.411,2.51176
-0.623972,-0.311206,2.411,2.5098
-0.616146,-0.311206,2.411,2.50787
-0.608321,-0.311206,2.411,2.50596
-0.600495,-0.311206,2.411,2.50407
-0.59267,-0.311206,2.411,2.5022
-0.588968,-0.3134,2.428,2.51799
-0.581087,-0.3134,2.428,2.51616
-0.573206,-0.3134,2.428,2.51435
-0.569284,-0.315595,2.445,2.53016
-0.565481,-0.317918,2.463,2.547
-0.557486,-0.317918,2.463,2.54524
-0.549492,-0.317918,2.463,2.5435
-0.545455,-0.320242,2.481,2.56036
-0.537403,-0.320242,2.481,2.55866
-0.52935,-0.320242,2.481,2.55698
-0.525079,-0.322565,2.499,2.57386
-0.516968,-0.322565,2.499,2.57222
-0.508857,-0.322565,2.499,2.5706
-0.500746,-0.322565,2.499,2.56901
-0.492635,-0.322565,2.499,2.56744
-0.484524,-0.322565,2.499,2.56589
-0.476412,-0.322565,2.499,2.56437
-0.471674,-0.324888,2.517,2.58134
-0.463505,-0.324888,2.517,2.57986
-0.458772,-0.327341,2.536,2.59787
-0.450541,-0.327341,2.536,2.59643
-0.44231,-0.327341,2.536,2.59501
-0.434079,-0.327341,2.536,2.59362
-0.425848,-0.327341,2.536,2.59226
-0.417616,-0.327341,2.536,2.59092
-0.409385,-0.327341,2.536,2.5896
-0.401154,-0.327341,2.536,2.58831
-0.392923,-0.327341,2.536,2.58705
-0.384691,-0.327341,2.536,2.58581
-0.37646,-0.327341,2.536,2.5846
-0.368229,-0.327341,2.536,2.58342
-0.357301,-0.324888,2.517,2.56291
-0.349131,-0.324888,2.517,2.56178
-0.340961,-0.324888,2.517,2.56068
-0.332792,-0.324888,2.517,2.55961
-0.324622,-0.324888,2.517,2.55856
-0.316453,-0.324888,2.517,2.55753
-0.308283,-0.324888,2.517,2.55654
-0.300114,-0.324888,2.517,2.55556
-0.289856,-0.322565,2.499,2.53635
-0.281745,-0.322565,2.499,2.53543
-0.273634,-0.322565,2.499,2.53455
-0.265523,-0.322565,2.499,2.53368
-0.257412,-0.322565,2.499,2.53285
-0.249301,-0.322565,2.499,2.53203
-0.24119,-0.322565,2.499,2.53125
-0.233078,-0.322565,2.499,2.53049
-0.224967,-0.322565,2.499,2.52975
-0.215294,-0.320242,2.481,2.51083
-0.207241,-0.320242,2.481,2.51015
-0.199189,-0.320242,2.481,2.5095
-0.191136,-0.320242,2.481,2.50887
-0.183083,-0.320242,2.481,2.50827
-0.175031,-0.320242,2.481,2.5077
-0.166978,-0.320242,2.481,2.50715
-0.158925,-0.320242,2.481,2.50663
-0.150872,-0.320242,2.481,2.50613
-0.14282,-0.320242,2.481,2.50566
-0.134767,-0.320242,2.481,2.50521
-0.126714,-0.320242,2.481,2.50479
-0.118662,-0.320242,2.481,2.5044
-0.111411,-0.322565,2.499,2.52219
-0.1033,-0.322565,2.499,2.52185
-0.0951891,-0.322565,2.499,2.52153
-0.087078,-0.322565,2.499,2.52124
-0.0789668,-0.322565,2.499,2.52097
-0.0708557,-0.322565,2.499,2.52073
-0.0627446,-0.322565,2.499,2.52051
-0.055027,-0.324888,2.517,2.53848
-0.0468574,-0.324888,2.517,2.53831
-0.0386878,-0.324888,2.517,2.53818
-0.0305183,-0.324888,2.517,2.53806
-0.0223487,-0.324888,2.517,2.53798
-0.0141792,-0.324888,2.517,2.53792
-0.00600962,-0.324888,2.517,2.53789
0.00217625,-0.327341,2.536,2.55704
0.0104075,-0.327341,2.536,2.55706
0.0186387,-0.327341,2.536,2.55711
0.0268699,-0.327341,2.536,2.55718
0.0351011,-0.327341,2.536,2.55728
0.0433324,-0.327341,2.536,2.55741
0.0519499,-0.329793,2.555,2.57672
0.0597948,-0.327341,2.536,2.55774
0.0680261,-0.327341,2.536,2.55794
0.0762573,-0.327341,2.536,2.55818
0.0851215,-0.329793,2.555,2.5776
0.0934144,-0.329793,2.555,2.57789
0.101707,-0.329793,2.555,2.5782
0.11,-0.329793,2.555,2.57854
0.118293,-0.329793,2.555,2.57891
0.126586,-0.329793,2.555,2.5793
0.134879,-0.329793,2.555,2.57973
0.144236,-0.332246,2.574,2.59936
0.152591,-0.332246,2.574,2.59984
0.160946,-0.332246,2.574,2.60034
0.1693,-0.332246,2.574,2.60087
0.177655,-0.332246,2.574,2.60143
0.186009,-0.332246,2.574,2.60201
0.195799,-0.334698,2.593,2.62183
0.204215,-0.334698,2.593,2.62248
0.212631,-0.334698,2.593,2.62314
0.221047,-0.334698,2.593,2.62384
0.229463,-0.334698,2.593,2.62456
0.23788,-0.334698,2.593,2.62531
0.246296,-0.334698,2.593,2.62609
0.254712,-0.334698,2.593,2.62689
0.263128,-0.334698,2.593,2.62772
0.271545,-0.334698,2.593,2.62858
0.279961,-0.334698,2.593,2.62946
0.288377,-0.334698,2.593,2.63037
0.296793,-0.334698,2.593,2.6313
0.30521,-0.334698,2.593,2.63227
0.313626,-0.334698,2.593,2.63326
0.322042,-0.334698,2.593,2.63427
0.328037,-0.332246,2.574,2.616
0.336391,-0.332246,2.574,2.61706
0.344746,-0.332246,2.574,2.61815
0.353101,-0.332246,2.574,2.61926
0.358787,-0.329793,2.555,2.60106
0.36708,-0.329793,2.555,2.60222
0.375373,-0.329793,2.555,2.6034
0.383666,-0.329793,2.555,2.60461
0.391959,-0.329793,2.555,2.60584
0.400252,-0.329793,2.555,2.6071
0.408544,-0.329793,2.555,2.60839
0.416837,-0.329793,2.555,2.6097
0.42513,-0.329793,2.555,2.61104
0.433423,-0.329793,2.555,2.6124
0.441716,-0.329793,2.555,2.61379
0.450009,-0.329793,2.555,2.6152
0.458302,-0.329793,2.555,2.61664
0.470064,-0.332246,2.574,2.63758
0.478419,-0.332246,2.574,2.63908
0.486774,-0.332246,2.574,2.64061
0.495128,-0.332246,2.574,2.64216
0.503483,-0.332246,2.574,2.64374
0.511837,-0.332246,2.574,2.64534
0.520192,-0.332246,2.574,2.64697
0.528546,-0.332246,2.574,2.64863
0.532938,-0.329793,2.555,2.63074
0.541231,-0.329793,2.555,2.63244
0.549524,-0.329793,2.555,2.63415
0.557817,-0.329793,2.555,2.6359
0.566109,-0.329793,2.555,2.63766
0.574402,-0.329793,2.555,2.63946
0.582695,-0.329793,2.555,2.64127
0.590988,-0.329793,2.555,2.64311
0.599281,-0.329793,2.555,2.64498
0.607574,-0.329793,2.555,2.64687
0.615867,-0.329793,2.555,2.64879
0.62416,-0.329793,2.555,2.65073
0.632453,-0.329793,2.555,2.65269
0.640746,-0.329793,2.555,2.65468
0.649038,-0.329793,2.555,2.6567
0.657331,-0.329793,2.555,2.65874
0.665624,-0.329793,2.555,2.6608
0.673917,-0.329793,2.555,2.66288
0.68221,-0.329793,2.555,2.665
0.690503,-0.329793,2.555,2.66713
0.698796,-0.329793,2.555,2.66929
0.707089,-0.329793,2.555,2.67147
0.715382,-0.329793,2.555,2.67368
0.723674,-0.329793,2.555,2.67591
0.731967,-0.329793,2.555,2.67816
0.74026,-0.329793,2.555,2.68044
0.748553,-0.329793,2.555,2.68274
0.756846,-0.329793,2.555,2.68507
0.765139,-0.329793,2.555,2.68742
0.773432,-0.329793,2.555,2.68979
0.775912,-0.327341,2.536,2.67217
0.784143,-0.327341,2.536,2.67457
0.792374,-0.327341,2.536,2.677
0.800605,-0.327341,2.536,2.67944
0.802777,-0.324888,2.517,2.66182
0.810946,-0.324888,2.517,2.6643
0.819116,-0.324888,2.517,2.66679
0.827285,-0.324888,2.517,2.66932
0.835455,-0.324888,2.517,2.67186
0.843624,-0.324888,2.517,2.67442
0.845702,-0.322565,2.499,2.65787
0.853814,-0.322565,2.499,2.66046
0.861925,-0.322565,2.499,2.66307
0.870036,-0.322565,2.499,2.66571
0.871822,-0.320242,2.481,2.64915
0.879874,-0.320242,2.481,2.65181
0.887927,-0.320242,2.481,2.65449
0.89598,-0.320242,2.481,2.6572
0.904033,-0.320242,2.481,2.65992
0.912085,-0.320242,2.481,2.66267
0.920138,-0.320242,2.481,2.66544
0.928191,-0.320242,2.481,2.66823
0.929451,-0.317918,2.463,2.65166
0.937445,-0.317918,2.463,2.65448
0.945439,-0.317918,2.463,2.65731
0.953434,-0.317918,2.463,2.66016
0.961428,-0.317918,2.463,2.66304
0.969422,-0.317918,2.463,2.66594
0.977417,-0.317918,2.463,2.66885
0.985411,-0.317918,2.463,2.67179
0.993405,-0.317918,2.463,2.67475
1.0014,-0.317918,2.463,2.67773
1.00939,-0.317918,2.463,2.68073
1.01739,-0.317918,2.463,2.68375
1.02538,-0.317918,2.463,2.68679
1.03338,-0.317918,2.463,2.68985
nan,nan,nan,NaN
nan,nan,nan,NaN
nan,nan,nan,NaN
1.13889,-0.339861,2.633,2.88882
1.14743,-0.339861,2.633,2.8922
1.18364,-0.347993,2.696,2.96488
1.19239,-0.347993,2.696,2.96838
1.2301,-0.356383,2.761,3.04356
1.23906,-0.356383,2.761,3.0472
nan,nan,nan,NaN
1.27747,-0.362192,2.806,3.10431
1.28658,-0.362192,2.806,3.10807
1.29568,-0.362192,2.806,3.11185
1.30479,-0.362192,2.806,3.11565
1.3139,-0.362192,2.806,3.11948
1.32301,-0.362192,2.806,3.12333
1.33211,-0.362192,2.806,3.1272
1.34122,-0.362192,2.806,3.13109
1.35033,-0.362192,2.806,3.135
1.33764,-0.356383,2.761,3.08859
1.3466,-0.356383,2.761,3.09248
1.34476,-0.353544,2.739,3.07172
1.35365,-0.353544,2.739,3.07563
1.36254,-0.353544,2.739,3.07955
1.38244,-0.356383,2.761,3.10826
1.3914,-0.356383,2.761,3.11226
1.40037,-0.356383,2.761,3.11627
1.4323,-0.362192,2.806,3.17117
1.49021,-0.374454,2.901,3.28279
1.49962,-0.374454,2.901,3.28708
1.54857,-0.384264,2.977,3.37761
1.6289,-0.40169,3.112,3.53542
1.68482,-0.412919,3.199,3.63905
1.6952,-0.412919,3.199,3.64387
1.75517,-0.424924,3.292,3.75479
1.83612,-0.441833,3.423,3.90941
1.84723,-0.441833,3.423,3.91464
1.89635,-0.450868,3.493,4.00006
1.92734,-0.455515,3.529,4.04673
1.95913,-0.460291,3.566,4.09468
1.9707,-0.460291,3.566,4.10023
1.98227,-0.460291,3.566,4.1058
2.03634,-0.470101,3.642,4.19903
2.04816,-0.470101,3.642,4.20477
2.05998,-0.470101,3.642,4.21055
2.09399,-0.475135,3.681,4.26149
2.10594,-0.475135,3.681,4.26737
2.11789,-0.475135,3.681,4.27328
2.12983,-0.475135,3.681,4.27922
2.14178,-0.475135,3.681,4.28518
2.13091,-0.470101,3.642,4.2457
2.12037,-0.465196,3.604,4.20728
2.13207,-0.465196,3.604,4.21319
2.12117,-0.460291,3.566,4.17463
2.08908,-0.450868,3.493,4.09495
2.10042,-0.450868,3.493,4.10074
2.06944,-0.441833,3.423,4.02427
2.03982,-0.433184,3.356,3.95111
2.05072,-0.433184,3.356,3.95674
2.02229,-0.424924,3.292,3.88684
1.99469,-0.416921,3.23,3.8191
2.00517,-0.416921,3.23,3.82458
1.97821,-0.409176,3.17,3.75894
1.95212,-0.40169,3.112,3.69549
1.96222,-0.40169,3.112,3.70084
1.93746,-0.39459,3.057,3.6407
1.91299,-0.38762,3.003,3.58159
1.92273,-0.38762,3.003,3.5868
1.91575,-0.384264,2.977,3.56094
1.89243,-0.377681,2.926,3.50505
1.88567,-0.374454,2.901,3.4802
1.89509,-0.374454,2.901,3.48531
1.87299,-0.368258,2.853,3.43269
1.88225,-0.368258,2.853,3.43775
1.89151,-0.368258,2.853,3.44283
1.86946,-0.362192,2.806,3.39112
1.86317,-0.359223,2.783,3.36831
1.8722,-0.359223,2.783,3.37332
1.86637,-0.356383,2.761,3.35163
1.86038,-0.353544,2.739,3.32989
-2.28377,-0.414242,3.292,4.02796
-2.27308,-0.414242,3.292,4.02191
-2.2624,-0.414242,3.292,4.01588
-2.25171,-0.414242,3.292,4.00987
-2.24103,-0.414242,3.292,4.00388
-2.23034,-0.414242,3.292,3.99791
-2.21966,-0.414242,3.292,3.99196
-2.20897,-0.414242,3.292,3.98603
-2.21966,-0.418268,3.324,4.01881
-2.20887,-0.418268,3.324,4.01286
-2.19808,-0.418268,3.324,4.00693
-2.18729,-0.418268,3.324,4.00102
-2.1765,-0.418268,3.324,3.99513
-2.16571,-0.418268,3.324,3.98926
-2.15492,-0.418268,3.324,3.98342
-2.14413,-0.418268,3.324,3.97759
-2.11281,-0.414242,3.292,3.93355
-2.10212,-0.414242,3.292,3.92782
-2.11177,-0.418268,3.324,3.96024
-2.10098,-0.418268,3.324,3.9545
-2.09019,-0.418268,3.324,3.94877
-2.0794,-0.418268,3.324,3.94307
-2.06861,-0.418268,3.324,3.9374
-2.05782,-0.418268,3.324,3.93174
-2.04703,-0.418268,3.324,3.9261
-2.03625,-0.418268,3.324,3.92049
-2.02546,-0.418268,3.324,3.91489
-2.01467,-0.418268,3.324,3.90932
-2.00388,-0.418268,3.324,3.90377
-1.99309,-0.418268,3.324,3.89825
-1.9823,-0.418268,3.324,3.89274
nan,nan,nan,NaN
nan,nan,nan,NaN
nan,nan,nan,NaN
nan,nan,nan,NaN
nan,nan,nan,NaN
nan,nan,nan,NaN
nan,nan,nan,NaN
nan,nan,nan,NaN
nan,nan,nan,NaN
nan,nan,nan,NaN
nan,nan,nan,NaN
nan,nan,nan,NaN
nan,nan,nan,NaN
nan,nan,nan,NaN
nan,nan,nan,NaN
nan,nan,nan,NaN
nan,nan,nan,NaN
nan,nan,nan,NaN
nan,nan,nan,NaN
nan,nan,nan,NaN
nan,nan,nan,NaN
nan,nan,nan,NaN
nan,nan,nan,NaN
nan,nan,nan,NaN
nan,nan,nan,NaN
nan,nan,nan,NaN
nan,nan,nan,NaN
nan,nan,nan,NaN
nan,nan,nan,NaN
nan,nan,nan,NaN
nan,nan,nan,NaN
-1.1549,-0.295078,2.345,2.63057
-1.14729,-0.295078,2.345,2.62724
-1.1319,-0.293065,2.329,2.60602
-1.12435,-0.293065,2.329,2.60274
-1.11679,-0.293065,2.329,2.59949
-1.10923,-0.293065,2.329,2.59625
-1.10167,-0.293065,2.329,2.59303
-1.09411,-0.293065,2.329,2.58983
-1.08655,-0.293065,2.329,2.58664
-1.07899,-0.293065,2.329,2.58348
-1.07879,-0.295078,2.345,2.59805
-1.07118,-0.295078,2.345,2.5949
-1.06357,-0.295078,2.345,2.59177
-1.05596,-0.295078,2.345,2.58866
-1.04835,-0.295078,2.345,2.58556
-1.04073,-0.295078,2.345,2.58248
-1.03312,-0.295078,2.345,2.57943
-1.02551,-0.295078,2.345,2.57639
-1.0179,-0.295078,2.345,2.57337
-1.01029,-0.295078,2.345,2.57037
-1.00268,-0.295078,2.345,2.56738
-0.995066,-0.295078,2.345,2.56442
-0.987455,-0.295078,2.345,2.56148
-0.979844,-0.295078,2.345,2.55855
-0.972232,-0.295078,2.345,2.55565
-0.964621,-0.295078,2.345,2.55276
-0.95701,-0.295078,2.345,2.5499
-0.949399,-0.295078,2.345,2.54705
-0.941787,-0.295078,2.345,2.54422
-0.934176,-0.295078,2.345,2.54141
-0.926565,-0.295078,2.345,2.53863
-0.918953,-0.295078,2.345,2.53586
-0.911342,-0.295078,2.345,2.53311
-0.903731,-0.295078,2.345,2.53038
-0.89612,-0.295078,2.345,2.52767
-0.882446,-0.293065,2.329,2.50776
-0.874887,-0.293065,2.329,2.50511
-0.873286,-0.295078,2.345,2.51967
-0.865674,-0.295078,2.345,2.51704
-0.858063,-0.295078,2.345,2.51443
-0.850452,-0.295078,2.345,2.51184
-0.842841,-0.295078,2.345,2.50928
-0.835229,-0.295078,2.345,2.50673
-0.827618,-0.295078,2.345,2.50421
-0.820007,-0.295078,2.345,2.5017
-0.812395,-0.295078,2.345,2.49922
-0.810275,-0.297091,2.361,2.51379
-0.802612,-0.297091,2.361,2.51133
-0.794949,-0.297091,2.361,2.50889
-0.787286,-0.297091,2.361,2.50647
-0.779622,-0.297091,2.361,2.50408
-0.771959,-0.297091,2.361,2.5017
-0.764296,-0.297091,2.361,2.49935
-0.76176,-0.299105,2.377,2.51394
-0.759438,-0.301244,2.394,2.52957
-0.751668,-0.301244,2.394,2.52725
-0.743897,-0.301244,2.394,2.52495
-0.736127,-0.301244,2.394,2.52267
-0.728357,-0.301244,2.394,2.52041
-0.720586,-0.301244,2.394,2.51818
-0.712816,-0.301244,2.394,2.51597
-0.705046,-0.301244,2.394,2.51378
-0.697275,-0.301244,2.394,2.51161
-0.689505,-0.301244,2.394,2.50946
-0.681735,-0.301244,2.394,2.50734
-0.673964,-0.301244,2.394,2.50524
-0.666194,-0.301244,2.394,2.50316
-0.658424,-0.301244,2.394,2.5011
-0.650653,-0.301244,2.394,2.49907
-0.642883,-0.301244,2.394,2.49705
-0.635113,-0.301244,2.394,2.49507
-0.627342,-0.301244,2.394,2.4931
-0.619572,-0.301244,2.394,2.49116
-0.611802,-0.301244,2.394,2.48923
-0.608321,-0.303383,2.411,2.505
-0.600495,-0.303383,2.411,2.50311
-0.59267,-0.303383,2.411,2.50124
-0.584844,-0.303383,2.411,2.4994
-0.577019,-0.303383,2.411,2.49758
-0.573206,-0.305522,2.428,2.51338
-0.569284,-0.307661,2.445,2.52918
-0.561348,-0.307661,2.445,2.52741
-0.553412,-0.307661,2.445,2.52566
-0.549492,-0.309926,2.463,2.54251
-0.545455,-0.312191,2.481,2.55936
-0.537403,-0.312191,2.481,2.55766
-0.52935,-0.312191,2.481,2.55598
-0.521297,-0.312191,2.481,2.55433
-0.513244,-0.312191,2.481,2.55269
-0.508857,-0.314456,2.499,2.5696
-0.500746,-0.314456,2.499,2.568
-0.492635,-0.314456,2.499,2.56643
-0.484524,-0.314456,2.499,2.56489
-0.479844,-0.316721,2.517,2.58183
-0.471674,-0.316721,2.517,2.58033
-0.463505,-0.316721,2.517,2.57884
-0.458772,-0.319112,2.536,2.59684
-0.450541,-0.319112,2.536,2.5954
-0.44231,-0.319112,2.536,2.59399
-0.434079,-0.319112,2.536,2.5926
-0.425848,-0.319112,2.536,2.59123
-0.417616,-0.319112,2.536,2.58989
-0.409385,-0.319112,2.536,2.58858
-0.401154,-0.319112,2.536,2.58729
-0.392923,-0.319112,2.536,2.58602
-0.384691,-0.319112,2.536,2.58479
-0.37646,-0.319112,2.536,2.58357
-0.368229,-0.319112,2.536,2.58239
-0.359998,-0.319112,2.536,2.58123
-0.351766,-0.319112,2.536,2.58009
-0.343535,-0.319112,2.536,2.57898
-0.335304,-0.319112,2.536,2.5779
-0.327073,-0.319112,2.536,2.57684
-0.318842,-0.319112,2.536,2.57581
-0.31061,-0.319112,2.536,2.5748
-0.302379,-0.319112,2.536,2.57382
-0.291944,-0.316721,2.517,2.55359
-0.283775,-0.316721,2.517,2.55267
-0.275605,-0.316721,2.517,2.55178
-0.267435,-0.316721,2.517,2.55091
-0.259266,-0.316721,2.517,2.55006
-0.251096,-0.316721,2.517,2.54925
-0.24119,-0.314456,2.499,2.53023
-0.233078,-0.314456,2.499,2.52947
-0.224967,-0.314456,2.499,2.52873
-0.215294,-0.312191,2.481,2.50982
-0.207241,-0.312191,2.481,2.50914
-0.199189,-0.312191,2.481,2.50849
-0.191136,-0.312191,2.481,2.50786
-0.183083,-0.312191,2.481,2.50726
-0.175031,-0.312191,2.481,2.50668
-0.166978,-0.312191,2.481,2.50613
-0.158925,-0.312191,2.481,2.50561
-0.150872,-0.312191,2.481,2.50511
-0.14282,-0.312191,2.481,2.50464
-0.134767,-0.312191,2.481,2.50419
-0.126714,-0.312191,2.481,2.50377
-0.119523,-0.314456,2.499,2.52154
-0.111411,-0.314456,2.499,2.52117
-0.1033,-0.314456,2.499,2.52082
-0.0951891,-0.314456,2.499,2.5205
-0.087078,-0.314456,2.499,2.52021
-0.0795356,-0.316721,2.517,2.5381
-0.0713661,-0.316721,2.517,2.53785
-0.0631965,-0.316721,2.517,2.53764
-0.055027,-0.316721,2.517,2.53745
-0.0468574,-0.316721,2.517,2.53728
-0.0386878,-0.316721,2.517,2.53714
-0.0305183,-0.316721,2.517,2.53703
-0.0223487,-0.316721,2.517,2.53695
-0.0141792,-0.316721,2.517,2.53689
-0.00600962,-0.316721,2.517,2.53686
0.00217625,-0.319112,2.536,2.556
0.0104075,-0.319112,2.536,2.55602
0.0186387,-0.319112,2.536,2.55607
0.0268699,-0.319112,2.536,2.55614
0.0351011,-0.319112,2.536,2.55624
0.0433324,-0.319112,2.536,2.55637
0.0519499,-0.321503,2.555,2.57567
0.0597948,-0.319112,2.536,2.5567
0.0680261,-0.319112,2.536,2.5569
0.0762573,-0.319112,2.536,2.55714
0.0851215,-0.321503,2.555,2.57655
0.0934144,-0.321503,2.555,2.57684
0.101707,-0.321503,2.555,2.57716
0.11,-0.321503,2.555,2.5775
0.118293,-0.321503,2.555,2.57786
0.126586,-0.321503,2.555,2.57826
0.134879,-0.321503,2.555,2.57868
0.144236,-0.323894,2.574,2.5983
0.152591,-0.323894,2.574,2.59878
0.160946,-0.323894,2.574,2.59929
0.1693,-0.323894,2.574,2.59982
0.177655,-0.323894,2.574,2.60037
0.186009,-0.323894,2.574,2.60096
0.195799,-0.326284,2.593,2.62077
0.204215,-0.326284,2.593,2.62141
0.212631,-0.326284,2.593,2.62208
0.221047,-0.326284,2.593,2.62278
0.231233,-0.328801,2.613,2.64374
0.239715,-0.328801,2.613,2.64449
0.248196,-0.328801,2.613,2.64528
0.256677,-0.328801,2.613,2.64608
0.265158,-0.328801,2.613,2.64692
0.271545,-0.326284,2.593,2.62752
0.279961,-0.326284,2.593,2.6284
0.288377,-0.326284,2.593,2.62931
0.296793,-0.326284,2.593,2.63025
0.30521,-0.326284,2.593,2.63121
0.313626,-0.326284,2.593,2.6322
0.322042,-0.326284,2.593,2.63322
0.328037,-0.323894,2.574,2.61496
0.336391,-0.323894,2.574,2.61602
0.344746,-0.323894,2.574,2.6171
0.353101,-0.323894,2.574,2.61822
0.358787,-0.321503,2.555,2.60002
0.36708,-0.321503,2.555,2.60118
0.375373,-0.321503,2.555,2.60236
0.383666,-0.321503,2.555,2.60357
0.391959,-0.321503,2.555,2.60481
0.400252,-0.321503,2.555,2.60607
0.408544,-0.321503,2.555,2.60735
0.416837,-0.321503,2.555,2.60867
0.42513,-0.321503,2.555,2.61
0.433423,-0.321503,2.555,2.61137
0.441716,-0.321503,2.555,2.61276
0.450009,-0.321503,2.555,2.61417
0.458302,-0.321503,2.555,2.61561
0.470064,-0.323894,2.574,2.63654
0.478419,-0.323894,2.574,2.63804
0.486774,-0.323894,2.574,2.63957
0.495128,-0.323894,2.574,2.64112
0.503483,-0.323894,2.574,2.6427
0.511837,-0.323894,2.574,2.64431
0.520192,-0.323894,2.574,2.64594
0.528546,-0.323894,2.574,2.64759
0.532938,-0.321503,2.555,2.62972
0.541231,-0.321503,2.555,2.63141
0.549524,-0.321503,2.555,2.63313
0.557817,-0.321503,2.555,2.63487
0.566109,-0.321503,2.555,2.63664
0.574402,-0.321503,2.555,2.63843
0.582695,-0.321503,2.555,2.64025
0.590988,-0.321503,2.555,2.64209
0.599281,-0.321503,2.555,2.64396
0.607574,-0.321503,2.555,2.64585
0.615867,-0.321503,2.555,2.64777
0.62416,-0.321503,2.555,2.64971
0.632453,-0.321503,2.555,2.65168
0.640746,-0.321503,2.555,2.65367
0.649038,-0.321503,2.555,2.65568
0.657331,-0.321503,2.555,2.65772
0.665624,-0.321503,2.555,2.65978
0.673917,-0.321503,2.555,2.66187
0.68221,-0.321503,2.555,2.66398
0.690503,-0.321503,2.555,2.66612
0.698796,-0.321503,2.555,2.66828
0.707089,-0.321503,2.555,2.67046
0.715382,-0.321503,2.555,2.67267
0.723674,-0.321503,2.555,2.6749
0.731967,-0.321503,2.555,2.67716
0.74026,-0.321503,2.555,2.67944
0.748553,-0.321503,2.555,2.68174
0.756846,-0.321503,2.555,2.68407
0.765139,-0.321503,2.555,2.68642
0.773432,-0.321503,2.555,2.68879
0.781725,-0.321503,2.555,2.69119
0.784143,-0.319112,2.536,2.67358
0.792374,-0.319112,2.536,2.676
0.800605,-0.319112,2.536,2.67845
0.808836,-0.319112,2.536,2.68092
0.817068,-0.319112,2.536,2.68342
0.819116,-0.316721,2.517,2.66581
0.827285,-0.316721,2.517,2.66833
0.835455,-0.316721,2.517,2.67088
0.837591,-0.314456,2.499,2.65433
0.845702,-0.314456,2.499,2.6569
0.853814,-0.314456,2.499,2.65949
0.861925,-0.314456,2.499,2.6621
0.863769,-0.312191,2.481,2.64555
0.871822,-0.312191,2.481,2.64819
0.879874,-0.312191,2.481,2.65085
0.887927,-0.312191,2.481,2.65353
0.89598,-0.312191,2.481,2.65624
0.904033,-0.312191,2.481,2.65897
0.912085,-0.312191,2.481,2.66171
0.913462,-0.309926,2.463,2.64515
0.921457,-0.309926,2.463,2.64792
0.929451,-0.309926,2.463,2.65072
0.937445,-0.309926,2.463,2.65353
0.945439,-0.309926,2.463,2.65637
0.953434,-0.309926,2.463,2.65922
0.961428,-0.309926,2.463,2.6621
0.969422,-0.309926,2.463,2.665
0.977417,-0.309926,2.463,2.66791
0.985411,-0.309926,2.463,2.67085
0.986145,-0.307661,2.445,2.65427
0.994081,-0.307661,2.445,2.65723
1.00202,-0.307661,2.445,2.66021
1.00995,-0.307661,2.445,2.66321
1.02538,-0.309926,2.463,2.68586
1.03338,-0.309926,2.463,2.68892
nan,nan,nan,NaN
nan,nan,nan,NaN
nan,nan,nan,NaN
nan,nan,nan,NaN
nan,nan,nan,NaN
nan,nan,nan,NaN
nan,nan,nan,NaN
nan,nan,nan,NaN
nan,nan,nan,NaN
nan,nan,nan,NaN
1.34348,-0.371333,2.951,3.26362
1.35306,-0.371333,2.951,3.26758
1.36264,-0.371333,2.951,3.27156
1.37222,-0.371333,2.951,3.27556
1.39397,-0.374604,2.977,3.30848
1.40363,-0.374604,2.977,3.31256
1.41329,-0.374604,2.977,3.31666
1.41053,-0.371333,2.951,3.29179
1.40808,-0.368187,2.926,3.26798
1.41757,-0.368187,2.926,3.27209
1.41488,-0.365041,2.901,3.24822
1.41251,-0.362021,2.877,3.22543
1.42185,-0.362021,2.877,3.22953
1.43119,-0.362021,2.877,3.23365
1.44053,-0.362021,2.877,3.23779
1.44986,-0.362021,2.877,3.24196
1.4592,-0.362021,2.877,3.24614
1.48079,-0.365041,2.901,3.27747
1.5426,-0.377876,3.003,3.39712
1.55235,-0.377876,3.003,3.40156
1.59019,-0.384671,3.057,3.46726
1.67443,-0.402539,3.199,3.63309
1.7338,-0.414242,3.292,3.74365
1.74448,-0.414242,3.292,3.74861
1.80688,-0.426447,3.389,3.8642
1.8549,-0.43513,3.458,3.94813
1.86612,-0.43513,3.458,3.95342
1.91589,-0.444064,3.529,4.04001
1.9683,-0.453501,3.604,4.13143
1.98,-0.453501,3.604,4.13701
1.9917,-0.453501,3.604,4.14263
2.02452,-0.458283,3.642,4.192
2.05815,-0.46319,3.681,4.24267
2.0701,-0.46319,3.681,4.24848
2.08204,-0.46319,3.681,4.25432
2.11675,-0.468224,3.721,4.30647
2.12882,-0.468224,3.721,4.31242
2.1409,-0.468224,3.721,4.31839
2.12983,-0.46319,3.681,4.27791
2.14178,-0.46319,3.681,4.28387
2.15373,-0.46319,3.681,4.28986
2.12037,-0.453501,3.604,4.206
2.13207,-0.453501,3.604,4.21191
2.12117,-0.44872,3.566,4.17337
2.08908,-0.439534,3.493,4.09371
2.10042,-0.439534,3.493,4.09951
2.06944,-0.430726,3.423,4.02306
2.03982,-0.422295,3.356,3.94993
2.05072,-0.422295,3.356,3.95557
2.02229,-0.414242,3.292,3.88568
2.01322,-0.410215,3.26,3.85343
2.0238,-0.410215,3.26,3.85897
1.97821,-0.39889,3.17,3.75784
1.95212,-0.391592,3.112,3.69441
1.96222,-0.391592,3.112,3.69976
1.93746,-0.384671,3.057,3.63964
1.91299,-0.377876,3.003,3.58055
1.92273,-0.377876,3.003,3.58576
1.91575,-0.374604,2.977,3.55991
1.9086,-0.371333,2.951,3.53398
1.90192,-0.368187,2.926,3.50918
1.91142,-0.368187,2.926,3.51434
1.88875,-0.362021,2.877,3.46057
1.88225,-0.359001,2.853,3.43677
1.89151,-0.359001,2.853,3.44185
1.88479,-0.355981,2.829,3.41795
1.86317,-0.350193,2.783,3.36736
1.8722,-0.350193,2.783,3.37237
1.86637,-0.347424,2.761,3.35069
1.86038,-0.344656,2.739,3.32895
-2.26157,-0.399637,3.26,3.98773
-2.27308,-0.40356,3.292,4.02082
-2.2624,-0.40356,3.292,4.01479
-2.25171,-0.40356,3.292,4.00878
-2.24103,-0.40356,3.292,4.00279
-2.23034,-0.40356,3.292,3.99682
-2.21966,-0.40356,3.292,3.99087
-2.20897,-0.40356,3.292,3.98493
-2.21966,-0.407482,3.324,4.0177
-2.20887,-0.407482,3.324,4.01175
-2.19808,-0.407482,3.324,4.00582
-2.18729,-0.407482,3.324,3.99991
-2.1765,-0.407482,3.324,3.99402
-2.16571,-0.407482,3.324,3.98815
-2.15492,-0.407482,3.324,3.9823
-2.14413,-0.407482,3.324,3.97647
-2.11281,-0.40356,3.292,3.93244
-2.10212,-0.40356,3.292,3.92671
-2.11177,-0.407482,3.324,3.95911
-2.10098,-0.407482,3.324,3.95337
-2.09019,-0.407482,3.324,3.94765
-2.0794,-0.407482,3.324,3.94194
-2.06861,-0.407482,3.324,3.93626
-2.05782,-0.407482,3.324,3.9306
-2.04703,-0.407482,3.324,3.92497
-2.03625,-0.407482,3.324,3.91935
-2.02546,-0.407482,3.324,3.91376
-2.01467,-0.407482,3.324,3.90818
-2.00388,-0.407482,3.324,3.90263
-1.99309,-0.407482,3.324,3.8971
-1.9823,-0.407482,3.324,3.8916
nan,nan,nan,NaN
nan,nan,nan,NaN
nan,nan,nan,NaN
nan,nan,nan,NaN
nan,nan,nan,NaN
nan,nan,nan,NaN
nan,nan,nan,NaN
nan,nan,nan,NaN
nan,nan,nan,NaN
nan,nan,nan,NaN
nan,nan,nan,NaN
nan,nan,nan,NaN
nan,nan,nan,NaN
nan,nan,nan,NaN
nan,nan,nan,NaN
nan,nan,nan,NaN
nan,nan,nan,NaN
nan,nan,nan,NaN
nan,nan,nan,NaN
nan,nan,nan,NaN
nan,nan,nan,NaN
nan,nan,nan,NaN
nan,nan,nan,NaN
nan,nan,nan,NaN
nan,nan,nan,NaN
nan,nan,nan,NaN
nan,nan,nan,NaN
nan,nan,nan,NaN
nan,nan,nan,NaN
nan,nan,nan,NaN
nan,nan,nan,NaN
-1.1549,-0.287469,2.345,2.62973
-1.14729,-0.287469,2.345,2.62639
-1.13968,-0.287469,2.345,2.62308
-1.13207,-0.287469,2.345,2.61978
-1.12446,-0.287469,2.345,2.6165
-1.11685,-0.287469,2.345,2.61324
-1.1168,-0.28943,2.361,2.6278
-1.10162,-0.287469,2.345,2.60677
-1.09401,-0.287469,2.345,2.60356
-1.0864,-0.287469,2.345,2.60037
-1.07879,-0.287469,2.345,2.5972
-1.07118,-0.287469,2.345,2.59405
-1.06357,-0.287469,2.345,2.59091
-1.05596,-0.287469,2.345,2.5878
-1.04835,-0.287469,2.345,2.5847
-1.04073,-0.287469,2.345,2.58163
-1.03312,-0.287469,2.345,2.57857
-1.02551,-0.287469,2.345,2.57553
-1.0179,-0.287469,2.345,2.57251
-1.01029,-0.287469,2.345,2.5695
-1.00268,-0.287469,2.345,2.56652
-0.995066,-0.287469,2.345,2.56356
-0.987455,-0.287469,2.345,2.56061
-0.979844,-0.287469,2.345,2.55769
-0.972232,-0.287469,2.345,2.55478
-0.964621,-0.287469,2.345,2.55189
-0.95701,-0.287469,2.345,2.54903
-0.949399,-0.287469,2.345,2.54618
-0.941787,-0.287469,2.345,2.54335
-0.934176,-0.287469,2.345,2.54054
-0.926565,-0.287469,2.345,2.53775
-0.918953,-0.287469,2.345,2.53498
-0.911342,-0.287469,2.345,2.53223
-0.897565,-0.285507,2.329,2.51225
-0.890005,-0.285507,2.329,2.50955
-0.882446,-0.285507,2.329,2.50688
-0.874887,-0.285507,2.329,2.50423
-0.873286,-0.287469,2.345,2.51879
-0.865674,-0.287469,2.345,2.51616
-0.858063,-0.287469,2.345,2.51355
-0.850452,-0.287469,2.345,2.51096
-0.842841,-0.287469,2.345,2.50839
-0.835229,-0.287469,2.345,2.50585
-0.827618,-0.287469,2.345,2.50332
-0.820007,-0.287469,2.345,2.50081
-0.812395,-0.287469,2.345,2.49833
-0.804784,-0.287469,2.345,2.49586
-0.802612,-0.28943,2.361,2.51043
-0.794949,-0.28943,2.361,2.50799
-0.787286,-0.28943,2.361,2.50558
-0.779622,-0.28943,2.361,2.50318
-0.771959,-0.28943,2.361,2.5008
-0.764296,-0.28943,2.361,2.49845
-0.756633,-0.28943,2.361,2.49611
-0.754045,-0.291392,2.377,2.5107
-0.74633,-0.291392,2.377,2.5084
-0.743897,-0.293476,2.394,2.52403
-0.736127,-0.293476,2.394,2.52175
-0.728357,-0.293476,2.394,2.5195
-0.720586,-0.293476,2.394,2.51726
-0.712816,-0.293476,2.394,2.51505
-0.705046,-0.293476,2.394,2.51286
-0.697275,-0.293476,2.394,2.51069
-0.689505,-0.293476,2.394,2.50854
-0.681735,-0.293476,2.394,2.50642
-0.673964,-0.293476,2.394,2.50431
-0.666194,-0.293476,2.394,2.50223
-0.658424,-0.293476,2.394,2.50018
-0.650653,-0.293476,2.394,2.49814
-0.642883,-0.293476,2.394,2.49613
-0.635113,-0.293476,2.394,2.49414
-0.627342,-0.293476,2.394,2.49217
-0.619572,-0.293476,2.394,2.49023
-0.611802,-0.293476,2.394,2.48831
-0.608321,-0.29556,2.411,2.50406
-0.600495,-0.29556,2.411,2.50217
-0.59267,-0.29556,2.411,2.50031
-0.584844,-0.29556,2.411,2.49846
-0.577019,-0.29556,2.411,2.49664
-0.573206,-0.297644,2.428,2.51244
-0.569284,-0.299727,2.445,2.52823
-0.561348,-0.299727,2.445,2.52645
-0.553412,-0.299727,2.445,2.5247
-0.549492,-0.301934,2.463,2.54155
-0.545455,-0.304141,2.481,2.55839
-0.537403,-0.304141,2.481,2.55669
-0.52935,-0.304141,2.481,2.55501
-0.521297,-0.304141,2.481,2.55335
-0.513244,-0.304141,2.481,2.55172
-0.508857,-0.306347,2.499,2.56862
-0.500746,-0.306347,2.499,2.56702
-0.492635,-0.306347,2.499,2.56545
-0.484524,-0.306347,2.499,2.56391
-0.483466,-0.310883,2.536,2.60032
-0.475235,-0.310883,2.536,2.59881
-0.467004,-0.310883,2.536,2.59731
-0.458772,-0.310883,2.536,2.59585
-0.450541,-0.310883,2.536,2.5944
-0.44231,-0.310883,2.536,2.59299
-0.434079,-0.310883,2.536,2.5916
-0.425848,-0.310883,2.536,2.59023
-0.417616,-0.310883,2.536,2.58889
-0.409385,-0.310883,2.536,2.58757
-0.401154,-0.310883,2.536,2.58628
-0.392923,-0.310883,2.536,2.58502
-0.384691,-0.310883,2.536,2.58378
-0.37646,-0.310883,2.536,2.58257
-0.368229,-0.310883,2.536,2.58138
-0.359998,-0.310883,2.536,2.58022
-0.351766,-0.310883,2.536,2.57909
-0.343535,-0.310883,2.536,2.57798
-0.335304,-0.310883,2.536,2.57689
-0.327073,-0.310883,2.536,2.57583
-0.318842,-0.310883,2.536,2.5748
-0.31061,-0.310883,2.536,2.5738
-0.302379,-0.310883,2.536,2.57281
-0.291944,-0.308554,2.517,2.55259
-0.283775,-0.308554,2.517,2.55167
-0.275605,-0.308554,2.517,2.55078
-0.267435,-0.308554,2.517,2.54991
-0.259266,-0.308554,2.517,2.54906
-0.251096,-0.308554,2.517,2.54824
-0.242927,-0.308554,2.517,2.54745
-0.234757,-0.308554,2.517,2.54669
-0.224967,-0.306347,2.499,2.52774
-0.215294,-0.304141,2.481,2.50883
-0.207241,-0.304141,2.481,2.50815
-0.199189,-0.304141,2.481,2.5075
-0.191136,-0.304141,2.481,2.50687
-0.183083,-0.304141,2.481,2.50627
-0.175031,-0.304141,2.481,2.50569
-0.166978,-0.304141,2.481,2.50514
-0.158925,-0.304141,2.481,2.50462
-0.150872,-0.304141,2.481,2.50412
-0.14282,-0.304141,2.481,2.50365
-0.134767,-0.304141,2.481,2.5032
-0.126714,-0.304141,2.481,2.50278
-0.119523,-0.306347,2.499,2.52054
-0.111411,-0.306347,2.499,2.52017
-0.1033,-0.306347,2.499,2.51983
