-0.460668,-0.183249,2.593,2.63997
-0.452251,-0.183249,2.593,2.63851
-0.443835,-0.183249,2.593,2.63709
-0.435419,-0.183249,2.593,2.63568
-0.430296,-0.184662,2.613,2.65462
-0.418587,-0.183249,2.593,2.63295
-0.41017,-0.183249,2.593,2.63163
-0.401754,-0.183249,2.593,2.63033
-0.393338,-0.183249,2.593,2.62906
-0.384922,-0.183249,2.593,2.62781
-0.376505,-0.183249,2.593,2.62659
-0.368089,-0.183249,2.593,2.6254
-0.359673,-0.183249,2.593,2.62423
-0.351257,-0.183249,2.593,2.62309
-0.34284,-0.183249,2.593,2.62198
-0.334424,-0.183249,2.593,2.62089
-0.328522,-0.184662,2.613,2.64004
-0.320041,-0.184662,2.613,2.639
-0.31156,-0.184662,2.613,2.63798
-0.303079,-0.184662,2.613,2.63699
-0.296853,-0.186076,2.633,2.65621
-0.288307,-0.186076,2.633,2.65527
-0.279761,-0.186076,2.633,2.65435
-0.271215,-0.186076,2.633,2.65346
-0.262669,-0.186076,2.633,2.6526
-0.254122,-0.186076,2.633,2.65177
-0.245576,-0.186076,2.633,2.65097
-0.23703,-0.186076,2.633,2.65019
-0.226749,-0.184662,2.613,2.62931
-0.218268,-0.184662,2.613,2.62859
-0.209786,-0.184662,2.613,2.6279
-0.201305,-0.184662,2.613,2.62724
-0.192824,-0.184662,2.613,2.6266
-0.184343,-0.184662,2.613,2.626
-0.175862,-0.184662,2.613,2.62541
-0.1661,-0.183249,2.593,2.60477
-0.157683,-0.183249,2.593,2.60425
-0.150418,-0.184662,2.613,2.62383
-0.140851,-0.183249,2.593,2.60328
-0.132435,-0.183249,2.593,2.60284
-0.124018,-0.183249,2.593,2.60242
-0.115602,-0.183249,2.593,2.60204
-0.107186,-0.183249,2.593,2.60168
-0.0987696,-0.183249,2.593,2.60134
-0.0903534,-0.183249,2.593,2.60104
-0.0819372,-0.183249,2.593,2.60076
-0.073521,-0.183249,2.593,2.60051
-0.0656069,-0.184662,2.613,2.62034
-0.0571257,-0.184662,2.613,2.62014
-0.0486446,-0.184662,2.613,2.61997
-0.0401634,-0.184662,2.613,2.61982
-0.0316823,-0.184662,2.613,2.61971
-0.0232011,-0.184662,2.613,2.61962
-0.01472,-0.184662,2.613,2.61956
-0.00623883,-0.184662,2.613,2.61952
0.00224232,-0.184662,2.613,2.61952
0.0107235,-0.184662,2.613,2.61954
0.0192046,-0.184662,2.613,2.61959
0.0274739,-0.183249,2.593,2.59961
0.0358901,-0.183249,2.593,2.59971
0.0443063,-0.183249,2.593,2.59984
0.0527226,-0.183249,2.593,2.6
0.0611388,-0.183249,2.593,2.60019
0.069555,-0.183249,2.593,2.6004
0.0779713,-0.183249,2.593,2.60064
0.0870538,-0.184662,2.613,2.62096
0.095535,-0.184662,2.613,2.62126
0.104016,-0.184662,2.613,2.62158
0.112497,-0.184662,2.613,2.62193
0.120978,-0.184662,2.613,2.62231
0.12946,-0.184662,2.613,2.62271
0.137941,-0.184662,2.613,2.62315
0.147543,-0.186076,2.633,2.64369
0.156089,-0.186076,2.633,2.64418
0.164635,-0.186076,2.633,2.6447
0.173181,-0.186076,2.633,2.64524
0.181727,-0.186076,2.633,2.64582
0.190273,-0.186076,2.633,2.64642
0.198819,-0.186076,2.633,2.64704
0.209019,-0.18756,2.654,2.66882
0.217633,-0.18756,2.654,2.66951
0.224457,-0.186076,2.633,2.64909
0.233003,-0.186076,2.633,2.64983
0.241549,-0.186076,2.633,2.6506
0.250095,-0.186076,2.633,2.65139
0.258641,-0.186076,2.633,2.65221
0.267187,-0.186076,2.633,2.65306
0.275734,-0.186076,2.633,2.65393
0.28428,-0.186076,2.633,2.65483
0.292826,-0.186076,2.633,2.65576
0.301372,-0.186076,2.633,2.65672
0.307564,-0.184662,2.613,2.63751
0.316045,-0.184662,2.613,2.63851
0.322042,-0.183249,2.593,2.61934
0.328037,-0.181906,2.574,2.60119
0.336391,-0.181906,2.574,2.60225
0.344746,-0.181906,2.574,2.60335
0.353101,-0.181906,2.574,2.60447
0.358787,-0.180563,2.555,2.58638
0.36708,-0.180563,2.555,2.58754
0.375373,-0.180563,2.555,2.58873
0.383666,-0.180563,2.555,2.58995
0.391959,-0.180563,2.555,2.59119
0.400252,-0.180563,2.555,2.59246
0.408544,-0.180563,2.555,2.59375
0.416837,-0.180563,2.555,2.59507
0.42513,-0.180563,2.555,2.59641
0.433423,-0.180563,2.555,2.59778
0.441716,-0.180563,2.555,2.59918
0.450009,-0.180563,2.555,2.6006
0.458302,-0.180563,2.555,2.60205
0.466595,-0.180563,2.555,2.60352
0.474888,-0.180563,2.555,2.60502
0.48318,-0.180563,2.555,2.60655
0.491473,-0.180563,2.555,2.6081
0.499766,-0.180563,2.555,2.60967
0.508059,-0.180563,2.555,2.61127
0.516352,-0.180563,2.555,2.6129
0.524645,-0.180563,2.555,2.61455
0.528975,-0.179221,2.536,2.59677
0.537206,-0.179221,2.536,2.59846
0.545437,-0.179221,2.536,2.60018
0.553668,-0.179221,2.536,2.60192
0.5619,-0.179221,2.536,2.60368
0.570131,-0.179221,2.536,2.60547
0.582695,-0.180563,2.555,2.62682
0.590988,-0.180563,2.555,2.62867
0.599281,-0.180563,2.555,2.63054
0.607574,-0.180563,2.555,2.63245
0.615867,-0.180563,2.555,2.63437
0.62416,-0.180563,2.555,2.63632
0.632453,-0.180563,2.555,2.6383
0.64551,-0.181906,2.574,2.65993
0.649038,-0.180563,2.555,2.64232
0.657331,-0.180563,2.555,2.64437
0.665624,-0.180563,2.555,2.64645
0.673917,-0.180563,2.555,2.64855
0.677137,-0.179221,2.536,2.63096
0.685368,-0.179221,2.536,2.63309
0.693599,-0.179221,2.536,2.63524
0.70183,-0.179221,2.536,2.63742
0.710062,-0.179221,2.536,2.63962
0.712911,-0.177878,2.517,2.62206
0.721081,-0.177878,2.517,2.62429
0.729251,-0.177878,2.517,2.62654
0.73742,-0.177878,2.517,2.62882
0.74559,-0.177878,2.517,2.63113
0.753759,-0.177878,2.517,2.63345
0.761929,-0.177878,2.517,2.6358
0.770098,-0.177878,2.517,2.63818
0.778268,-0.177878,2.517,2.64057
0.786437,-0.177878,2.517,2.64299
0.794607,-0.177878,2.517,2.64544
0.802777,-0.177878,2.517,2.6479
0.810946,-0.177878,2.517,2.65039
0.819116,-0.177878,2.517,2.6529
0.827285,-0.177878,2.517,2.65543
0.835455,-0.177878,2.517,2.65799
0.843624,-0.177878,2.517,2.66057
0.851794,-0.177878,2.517,2.66317
0.853814,-0.176606,2.499,2.64673
0.861925,-0.176606,2.499,2.64936
0.870036,-0.176606,2.499,2.65201
0.871822,-0.175334,2.481,2.63556
0.879874,-0.175334,2.481,2.63823
0.887927,-0.175334,2.481,2.64093
0.889479,-0.174062,2.463,2.62447
0.897474,-0.174062,2.463,2.62719
0.898851,-0.17279,2.445,2.61071
0.906787,-0.17279,2.445,2.61345
0.908362,-0.171588,2.428,2.59803
0.916243,-0.171588,2.428,2.60079
0.924124,-0.171588,2.428,2.60358
0.925479,-0.170387,2.411,2.58814
0.933304,-0.170387,2.411,2.59095
0.94113,-0.170387,2.411,2.59378
0.942264,-0.169185,2.394,2.57832
0.950035,-0.169185,2.394,2.58117
0.957805,-0.169185,2.394,2.58404
nan,nan,nan,NaN
nan,nan,nan,NaN
0.981116,-0.169185,2.394,2.59277
0.981864,-0.167984,2.377,2.57729
0.989579,-0.167984,2.377,2.58024
0.997294,-0.167984,2.377,2.5832
nan,nan,nan,NaN
nan,nan,nan,NaN
nan,nan,nan,NaN
nan,nan,nan,NaN
nan,nan,nan,NaN
nan,nan,nan,NaN
nan,nan,nan,NaN
nan,nan,nan,NaN
nan,nan,nan,NaN
nan,nan,nan,NaN
nan,nan,nan,NaN
nan,nan,nan,NaN
1.73712,-0.265863,3.762,4.15222
1.74933,-0.265863,3.762,4.15734
1.74234,-0.262965,3.721,4.11713
1.75442,-0.262965,3.721,4.12226
1.7665,-0.262965,3.721,4.12741
1.77858,-0.262965,3.721,4.13259
1.77141,-0.260138,3.681,4.09333
1.78335,-0.260138,3.681,4.09851
1.7953,-0.260138,3.681,4.10372
1.7881,-0.257382,3.642,4.06543
1.79992,-0.257382,3.642,4.07064
nan,nan,nan,NaN
nan,nan,nan,NaN
nan,nan,nan,NaN
nan,nan,nan,NaN
nan,nan,nan,NaN
nan,nan,nan,NaN
nan,nan,nan,NaN
nan,nan,nan,NaN
nan,nan,nan,NaN
nan,nan,nan,NaN
nan,nan,nan,NaN
1.92151,-0.254697,3.604,4.09218
1.93321,-0.254697,3.604,4.09768
1.94491,-0.254697,3.604,4.10321
1.95661,-0.254697,3.604,4.10877
1.9683,-0.254697,3.604,4.11435
1.98,-0.254697,3.604,4.11996
1.9707,-0.252011,3.566,4.0821
1.98227,-0.252011,3.566,4.0877
1.99385,-0.252011,3.566,4.09332
1.98461,-0.249396,3.529,4.05644
1.99607,-0.249396,3.529,4.06206
2.00752,-0.249396,3.529,4.0677
2.01898,-0.249396,3.529,4.07337
2.00972,-0.246852,3.493,4.03744
2.02106,-0.246852,3.493,4.0431
2.03239,-0.246852,3.493,4.04878
2.02325,-0.244379,3.458,4.01386
2.01389,-0.241905,3.423,3.97884
2.025,-0.241905,3.423,3.98448
1.99625,-0.23717,3.356,3.91203
1.98801,-0.234909,3.324,3.88025
1.99879,-0.234909,3.324,3.88579
1.97089,-0.230386,3.26,3.81642
1.9444,-0.226075,3.199,3.75039
1.95478,-0.226075,3.199,3.75578
1.92953,-0.221976,3.141,3.693
1.90453,-0.217948,3.084,3.63122
1.91454,-0.217948,3.084,3.63648
1.9077,-0.21604,3.057,3.60988
1.88375,-0.212224,3.003,3.55127
1.89349,-0.212224,3.003,3.55645
1.87028,-0.208549,2.951,3.49998
1.86394,-0.206782,2.926,3.47541
1.87343,-0.206782,2.926,3.48052
1.86684,-0.205015,2.901,3.45586
1.84521,-0.201623,2.853,3.40369
1.85447,-0.201623,2.853,3.40871
1.86373,-0.201623,2.853,3.41376
1.84214,-0.198302,2.806,3.3625
1.83607,-0.196676,2.783,3.3399
1.84511,-0.196676,2.783,3.34487
1.83948,-0.195121,2.761,3.32338
1.81899,-0.192012,2.717,3.27531
1.8278,-0.192012,2.717,3.28022
1.82243,-0.190528,2.696,3.25975
1.81691,-0.189044,2.675,3.23922
-1.93066,-0.187646,2.783,3.39231
-1.92163,-0.187646,2.783,3.38717
-1.88235,-0.184679,2.739,3.32859
-1.85842,-0.183196,2.717,3.29687
-1.8353,-0.18178,2.696,3.26646
-1.82655,-0.18178,2.696,3.26156
-1.8178,-0.18178,2.696,3.25666
-1.80905,-0.18178,2.696,3.25179
-1.8003,-0.18178,2.696,3.24693
-1.79155,-0.18178,2.696,3.24208
-1.7828,-0.18178,2.696,3.23726
-1.78787,-0.183196,2.717,3.25762
-1.77905,-0.183196,2.717,3.25279
-1.78456,-0.184679,2.739,3.27428
-1.78993,-0.186162,2.761,3.2957
-1.81,-0.189197,2.806,3.34448
-1.80089,-0.189197,2.806,3.33956
-1.83712,-0.193984,2.877,3.41903
-1.85891,-0.197288,2.926,3.47217
-1.84942,-0.197288,2.926,3.46709
-1.87199,-0.200726,2.977,3.52238
-1.89548,-0.2043,3.03,3.57987
-1.90245,-0.20612,3.057,3.60653
-1.89253,-0.20612,3.057,3.60131
-1.89923,-0.207941,3.084,3.62786
-1.90638,-0.209829,3.112,3.65552
-1.89628,-0.209829,3.112,3.65027
-1.88618,-0.209829,3.112,3.64503
-1.87607,-0.209829,3.112,3.63981
-1.86597,-0.209829,3.112,3.63462
-1.85587,-0.209829,3.112,3.62944
-1.82916,-0.207941,3.084,3.59168
-1.81915,-0.207941,3.084,3.58659
-1.80915,-0.207941,3.084,3.58152
nan,nan,nan,NaN
nan,nan,nan,NaN
nan,nan,nan,NaN
nan,nan,nan,NaN
nan,nan,nan,NaN
nan,nan,nan,NaN
nan,nan,nan,NaN
nan,nan,nan,NaN
nan,nan,nan,NaN
nan,nan,nan,NaN
nan,nan,nan,NaN
nan,nan,nan,NaN
nan,nan,nan,NaN
nan,nan,nan,NaN
nan,nan,nan,NaN
nan,nan,nan,NaN
nan,nan,nan,NaN
nan,nan,nan,NaN
nan,nan,nan,NaN
nan,nan,nan,NaN
nan,nan,nan,NaN
nan,nan,nan,NaN
nan,nan,nan,NaN
nan,nan,nan,NaN
nan,nan,nan,NaN
nan,nan,nan,NaN
nan,nan,nan,NaN
nan,nan,nan,NaN
nan,nan,nan,NaN
nan,nan,nan,NaN
nan,nan,nan,NaN
-1.2151,-0.169711,2.517,2.8001
-1.20693,-0.169711,2.517,2.79657
-1.19876,-0.169711,2.517,2.79305
-1.18208,-0.168497,2.499,2.7696
-1.17397,-0.168497,2.499,2.76615
-1.16586,-0.168497,2.499,2.76272
-1.14941,-0.167283,2.481,2.73943
-1.14136,-0.167283,2.481,2.73606
-1.1333,-0.167283,2.481,2.73271
-1.12525,-0.167283,2.481,2.72938
-1.10909,-0.16607,2.463,2.7063
-1.1011,-0.16607,2.463,2.70303
-1.0931,-0.16607,2.463,2.69978
-1.08511,-0.16607,2.463,2.69656
-1.07712,-0.16607,2.463,2.69335
-1.06912,-0.16607,2.463,2.69016
-1.06113,-0.16607,2.463,2.68699
-1.05313,-0.16607,2.463,2.68385
-1.04514,-0.16607,2.463,2.68072
-1.03714,-0.16607,2.463,2.67761
-1.02915,-0.16607,2.463,2.67453
-1.02116,-0.16607,2.463,2.67146
-1.01316,-0.16607,2.463,2.66842
-1.00517,-0.16607,2.463,2.66539
-0.997172,-0.16607,2.463,2.66239
-0.989178,-0.16607,2.463,2.6594
-0.981184,-0.16607,2.463,2.65644
-0.966077,-0.164856,2.445,2.6341
-0.958141,-0.164856,2.445,2.6312
-0.950205,-0.164856,2.445,2.62833
-0.94227,-0.164856,2.445,2.62547
-0.927837,-0.16371,2.428,2.60439
-0.919957,-0.16371,2.428,2.6016
-0.912076,-0.16371,2.428,2.59882
-0.904195,-0.16371,2.428,2.59607
-0.896315,-0.16371,2.428,2.59333
-0.888434,-0.16371,2.428,2.59062
-0.880553,-0.16371,2.428,2.58793
-0.872672,-0.16371,2.428,2.58525
-0.864792,-0.16371,2.428,2.58261
-0.856911,-0.16371,2.428,2.57998
-0.854975,-0.164856,2.445,2.59542
-0.847039,-0.164856,2.445,2.59281
-0.839103,-0.164856,2.445,2.59023
-0.831167,-0.164856,2.445,2.58767
-0.829292,-0.16607,2.463,2.60416
-0.821298,-0.16607,2.463,2.60163
-0.813304,-0.16607,2.463,2.59912
-0.805309,-0.16607,2.463,2.59663
-0.797315,-0.16607,2.463,2.59416
-0.789321,-0.16607,2.463,2.59171
-0.781326,-0.16607,2.463,2.58929
-0.778984,-0.167283,2.481,2.60579
-0.770931,-0.167283,2.481,2.6034
-0.757344,-0.16607,2.463,2.58215
-0.749349,-0.16607,2.463,2.57982
-0.741355,-0.16607,2.463,2.57751
-0.733361,-0.16607,2.463,2.57522
-0.725366,-0.16607,2.463,2.57296
-0.717372,-0.16607,2.463,2.57071
-0.709378,-0.16607,2.463,2.56849
-0.701384,-0.16607,2.463,2.5663
-0.693389,-0.16607,2.463,2.56413
-0.685395,-0.16607,2.463,2.56197
-0.677401,-0.16607,2.463,2.55985
-0.669406,-0.16607,2.463,2.55774
-0.661412,-0.16607,2.463,2.55566
-0.653418,-0.16607,2.463,2.55361
-0.645424,-0.16607,2.463,2.55157
-0.637429,-0.16607,2.463,2.54956
-0.634035,-0.167283,2.481,2.56619
-0.625982,-0.167283,2.481,2.56422
-0.61793,-0.167283,2.481,2.56226
-0.609877,-0.167283,2.481,2.56033
-0.601824,-0.167283,2.481,2.55842
-0.598079,-0.168497,2.499,2.57509
-0.589968,-0.168497,2.499,2.57322
-0.581857,-0.168497,2.499,2.57137
-0.573746,-0.168497,2.499,2.56955
-0.565635,-0.168497,2.499,2.56775
-0.561539,-0.169711,2.517,2.58446
-0.55337,-0.169711,2.517,2.58269
-0.5452,-0.169711,2.517,2.58096
-0.541085,-0.170992,2.536,2.59871
-0.532853,-0.170992,2.536,2.59701
-0.524622,-0.170992,2.536,2.59533
-0.516391,-0.170992,2.536,2.59368
-0.50816,-0.170992,2.536,2.59206
-0.503674,-0.172273,2.555,2.60986
-0.495381,-0.172273,2.555,2.60828
-0.487088,-0.172273,2.555,2.60671
-0.478795,-0.172273,2.555,2.60518
-0.470502,-0.172273,2.555,2.60367
-0.46221,-0.172273,2.555,2.60218
-0.457292,-0.173554,2.574,2.62006
-0.452251,-0.174835,2.593,2.63794
-0.443835,-0.174835,2.593,2.63651
-0.435419,-0.174835,2.593,2.63511
-0.427003,-0.174835,2.593,2.63373
-0.418587,-0.174835,2.593,2.63238
-0.41017,-0.174835,2.593,2.63106
-0.401754,-0.174835,2.593,2.62976
-0.393338,-0.174835,2.593,2.62848
-0.384922,-0.174835,2.593,2.62724
-0.376505,-0.174835,2.593,2.62602
-0.368089,-0.174835,2.593,2.62483
-0.359673,-0.174835,2.593,2.62366
-0.351257,-0.174835,2.593,2.62252
-0.34284,-0.174835,2.593,2.6214
-0.334424,-0.174835,2.593,2.62032
-0.326008,-0.174835,2.593,2.61926
-0.317592,-0.174835,2.593,2.61822
-0.309175,-0.174835,2.593,2.61721
-0.303079,-0.176183,2.613,2.63641
-0.294598,-0.176183,2.613,2.63545
-0.286117,-0.176183,2.613,2.63452
-0.275511,-0.174835,2.593,2.61345
-0.267094,-0.174835,2.593,2.61258
-0.260673,-0.176183,2.613,2.63187
-0.252192,-0.176183,2.613,2.63105
-0.243711,-0.176183,2.613,2.63025
-0.23523,-0.176183,2.613,2.62948
-0.226749,-0.176183,2.613,2.62873
-0.218268,-0.176183,2.613,2.62801
-0.209786,-0.176183,2.613,2.62732
-0.201305,-0.176183,2.613,2.62666
-0.192824,-0.176183,2.613,2.62602
-0.184343,-0.176183,2.613,2.62541
-0.174516,-0.174835,2.593,2.60474
-0.1661,-0.174835,2.593,2.60419
-0.157683,-0.174835,2.593,2.60367
-0.149267,-0.174835,2.593,2.60317
-0.139819,-0.173554,2.574,2.58363
-0.131464,-0.173554,2.574,2.58319
-0.124018,-0.174835,2.593,2.60185
-0.115602,-0.174835,2.593,2.60146
-0.107186,-0.174835,2.593,2.6011
-0.0987696,-0.174835,2.593,2.60076
-0.0903534,-0.174835,2.593,2.60046
-0.0819372,-0.174835,2.593,2.60018
-0.073521,-0.174835,2.593,2.59993
-0.0656069,-0.176183,2.613,2.61975
-0.0566885,-0.174835,2.593,2.59951
-0.0482722,-0.174835,2.593,2.59934
-0.039856,-0.174835,2.593,2.59919
-0.0314398,-0.174835,2.593,2.59908
-0.0232011,-0.176183,2.613,2.61904
-0.01472,-0.176183,2.613,2.61897
-0.00623883,-0.176183,2.613,2.61894
0.00222516,-0.174835,2.593,2.59889
0.0106414,-0.174835,2.593,2.59891
0.0190576,-0.174835,2.593,2.59896
0.0274739,-0.174835,2.593,2.59903
0.0358901,-0.174835,2.593,2.59914
0.0443063,-0.174835,2.593,2.59927
0.0527226,-0.174835,2.593,2.59942
0.0611388,-0.174835,2.593,2.59961
0.069555,-0.174835,2.593,2.59982
0.0779713,-0.174835,2.593,2.60006
0.0863875,-0.174835,2.593,2.60032
0.095535,-0.176183,2.613,2.62067
0.104016,-0.176183,2.613,2.621
0.112497,-0.176183,2.613,2.62135
0.120978,-0.176183,2.613,2.62173
0.12946,-0.176183,2.613,2.62213
0.137941,-0.176183,2.613,2.62256
0.147543,-0.177532,2.633,2.6431
0.156089,-0.177532,2.633,2.64359
0.164635,-0.177532,2.633,2.64411
0.173181,-0.177532,2.633,2.64465
0.181727,-0.177532,2.633,2.64523
0.190273,-0.177532,2.633,2.64583
0.198819,-0.177532,2.633,2.64646
0.207365,-0.177532,2.633,2.64711
0.215911,-0.177532,2.633,2.6478
0.224457,-0.177532,2.633,2.64851
0.233003,-0.177532,2.633,2.64924
0.241549,-0.177532,2.633,2.65001
0.250095,-0.177532,2.633,2.6508
0.258641,-0.177532,2.633,2.65162
0.267187,-0.177532,2.633,2.65247
0.275734,-0.177532,2.633,2.65334
0.28212,-0.176183,2.613,2.63408
0.290601,-0.176183,2.613,2.63501
0.299083,-0.176183,2.613,2.63596
0.30521,-0.174835,2.593,2.61675
0.313626,-0.174835,2.593,2.61774
0.319682,-0.173554,2.574,2.59958
0.328037,-0.173554,2.574,2.60062
0.333908,-0.172273,2.555,2.58248
0.342201,-0.172273,2.555,2.58356
0.350494,-0.172273,2.555,2.58468
0.358787,-0.172273,2.555,2.58581
0.36708,-0.172273,2.555,2.58698
0.375373,-0.172273,2.555,2.58817
0.383666,-0.172273,2.555,2.58938
0.391959,-0.172273,2.555,2.59062
0.400252,-0.172273,2.555,2.59189
0.408544,-0.172273,2.555,2.59319
0.416837,-0.172273,2.555,2.59451
0.42513,-0.172273,2.555,2.59585
0.433423,-0.172273,2.555,2.59722
0.441716,-0.172273,2.555,2.59862
0.450009,-0.172273,2.555,2.60004
0.458302,-0.172273,2.555,2.60149
0.466595,-0.172273,2.555,2.60296
0.474888,-0.172273,2.555,2.60446
0.479587,-0.170992,2.536,2.58661
0.487819,-0.170992,2.536,2.58815
0.49605,-0.170992,2.536,2.58971
0.504281,-0.170992,2.536,2.5913
0.512512,-0.170992,2.536,2.59291
0.520743,-0.170992,2.536,2.59455
0.528975,-0.170992,2.536,2.59622
0.537206,-0.170992,2.536,2.59791
0.545437,-0.170992,2.536,2.59962
0.553668,-0.170992,2.536,2.60136
0.5619,-0.170992,2.536,2.60313
0.570131,-0.170992,2.536,2.60492
0.578362,-0.170992,2.536,2.60673
0.586593,-0.170992,2.536,2.60857
0.599281,-0.172273,2.555,2.62999
0.607574,-0.172273,2.555,2.63189
0.615867,-0.172273,2.555,2.63382
0.62416,-0.172273,2.555,2.63577
0.632453,-0.172273,2.555,2.63775
0.64551,-0.173554,2.574,2.65938
0.653865,-0.173554,2.574,2.66142
0.657331,-0.172273,2.555,2.64382
0.665624,-0.172273,2.555,2.64589
0.673917,-0.172273,2.555,2.64799
0.677137,-0.170992,2.536,2.63041
0.685368,-0.170992,2.536,2.63254
0.693599,-0.170992,2.536,2.63469
0.70183,-0.170992,2.536,2.63687
0.710062,-0.170992,2.536,2.63908
0.718293,-0.170992,2.536,2.6413
0.726524,-0.170992,2.536,2.64355
0.734755,-0.170992,2.536,2.64583
0.742987,-0.170992,2.536,2.64812
0.751218,-0.170992,2.536,2.65045
0.759449,-0.170992,2.536,2.65279
0.76768,-0.170992,2.536,2.65516
0.775912,-0.170992,2.536,2.65755
0.784143,-0.170992,2.536,2.65997
0.792374,-0.170992,2.536,2.6624
0.800605,-0.170992,2.536,2.66486
0.808836,-0.170992,2.536,2.66735
0.817068,-0.170992,2.536,2.66986
0.825299,-0.170992,2.536,2.67239
0.83353,-0.170992,2.536,2.67494
0.841761,-0.170992,2.536,2.67752
0.849993,-0.170992,2.536,2.68012
0.858224,-0.170992,2.536,2.68274
0.859963,-0.169711,2.517,2.66526
0.868133,-0.169711,2.517,2.66791
0.870036,-0.168497,2.499,2.65148
0.878147,-0.168497,2.499,2.65415
0.886258,-0.168497,2.499,2.65685
0.887927,-0.167283,2.481,2.64041
0.889479,-0.16607,2.463,2.62395
0.897474,-0.16607,2.463,2.62667
0.905468,-0.16607,2.463,2.62941
0.906787,-0.164856,2.445,2.61294
0.908362,-0.16371,2.428,2.59752
0.916243,-0.16371,2.428,2.60029
0.924124,-0.16371,2.428,2.60307
0.925479,-0.162563,2.411,2.58764
0.933304,-0.162563,2.411,2.59044
0.94113,-0.162563,2.411,2.59327
0.942264,-0.161417,2.394,2.57782
0.950035,-0.161417,2.394,2.58067
0.957805,-0.161417,2.394,2.58354
nan,nan,nan,NaN
nan,nan,nan,NaN
0.981116,-0.161417,2.394,2.59227
0.981864,-0.160271,2.377,2.5768
0.989579,-0.160271,2.377,2.57974
0.997294,-0.160271,2.377,2.58271
nan,nan,nan,NaN
nan,nan,nan,NaN
nan,nan,nan,NaN
nan,nan,nan,NaN
nan,nan,nan,NaN
nan,nan,nan,NaN
nan,nan,nan,NaN
nan,nan,nan,NaN
nan,nan,nan,NaN
nan,nan,nan,NaN
nan,nan,nan,NaN
nan,nan,nan,NaN
1.64662,-0.24044,3.566,3.93516
1.65819,-0.24044,3.566,3.94002
1.66977,-0.24044,3.566,3.94491
1.68134,-0.24044,3.566,3.94982
1.71096,-0.243002,3.604,3.9969
1.70449,-0.24044,3.566,3.95973
1.69826,-0.237945,3.529,3.92359
1.70971,-0.237945,3.529,3.92856
1.72117,-0.237945,3.529,3.93356
1.71495,-0.235518,3.493,3.89841
1.70899,-0.233158,3.458,3.86429
1.72021,-0.233158,3.458,3.86927
1.73143,-0.233158,3.458,3.87427
nan,nan,nan,NaN
nan,nan,nan,NaN
nan,nan,nan,NaN
nan,nan,nan,NaN
nan,nan,nan,NaN
nan,nan,nan,NaN
nan,nan,nan,NaN
nan,nan,nan,NaN
nan,nan,nan,NaN
1.86233,-0.235518,3.493,3.96545
1.87367,-0.235518,3.493,3.97079
1.90444,-0.237945,3.529,4.01713
1.91589,-0.237945,3.529,4.02257
1.92734,-0.237945,3.529,4.02804
1.9388,-0.237945,3.529,4.03353
1.95025,-0.237945,3.529,4.03905
1.94169,-0.235518,3.493,4.00334
1.95303,-0.235518,3.493,4.00885
1.96437,-0.235518,3.493,4.01438
1.97571,-0.235518,3.493,4.01994
1.98704,-0.235518,3.493,4.02553
1.97836,-0.233158,3.458,3.99074
1.96944,-0.230798,3.423,3.95587
1.98055,-0.230798,3.423,3.96141
1.99166,-0.230798,3.423,3.96698
1.98288,-0.228506,3.389,3.93311
1.97447,-0.226281,3.356,3.90032
1.98536,-0.226281,3.356,3.90584
1.97722,-0.224123,3.324,3.87409
1.94973,-0.219808,3.26,3.80491
1.96031,-0.219808,3.26,3.81035
1.95275,-0.217785,3.23,3.78069
1.92677,-0.21374,3.17,3.71578
1.93706,-0.21374,3.17,3.72113
1.92953,-0.211784,3.141,3.6924
1.90453,-0.207941,3.084,3.63064
1.91454,-0.207941,3.084,3.6359
1.89085,-0.2043,3.03,3.57742
1.88375,-0.202479,3.003,3.55071
1.89349,-0.202479,3.003,3.55589
1.87028,-0.198973,2.951,3.49942
1.86394,-0.197288,2.926,3.47486
1.87343,-0.197288,2.926,3.47996
1.8514,-0.193984,2.877,3.42672
1.84521,-0.192366,2.853,3.40315
1.83887,-0.190747,2.829,3.37951
1.84806,-0.190747,2.829,3.38451
1.84214,-0.189197,2.806,3.36198
1.83607,-0.187646,2.783,3.33938
1.84511,-0.187646,2.783,3.34436
1.83948,-0.186162,2.761,3.32287
1.81899,-0.183196,2.717,3.27481
1.8278,-0.183196,2.717,3.27971
1.82243,-0.18178,2.696,3.25925
1.81691,-0.180364,2.675,3.23872
-1.9154,-0.177203,2.761,3.36501
-1.90643,-0.177203,2.761,3.35991
-1.88235,-0.175791,2.739,3.3281
-1.84405,-0.173032,2.696,3.27091
-1.82101,-0.171684,2.675,3.24055
-1.81232,-0.171684,2.675,3.23568
-1.80364,-0.171684,2.675,3.23082
-1.79496,-0.171684,2.675,3.22598
-1.78628,-0.171684,2.675,3.22116
-1.77759,-0.171684,2.675,3.21636
-1.76891,-0.171684,2.675,3.21156
-1.77405,-0.173032,2.696,3.23197
-1.7653,-0.173032,2.696,3.22717
-1.77023,-0.174379,2.717,3.24749
-1.76141,-0.174379,2.717,3.24269
-1.78097,-0.177203,2.761,3.29035
-1.77201,-0.177203,2.761,3.28551
-1.80647,-0.181568,2.829,3.36148
-1.82778,-0.184648,2.877,3.41351
-1.81845,-0.184648,2.877,3.40851
-1.83992,-0.187793,2.926,3.46151
-1.86233,-0.191066,2.977,3.51672
-1.86885,-0.192735,3.003,3.54228
-1.8591,-0.192735,3.003,3.53715
-1.88261,-0.196201,3.057,3.59555
-1.88922,-0.197934,3.084,3.62207
-1.86276,-0.196201,3.057,3.5852
-1.85284,-0.196201,3.057,3.58005
-1.84292,-0.196201,3.057,3.57493
-1.833,-0.196201,3.057,3.56982
-1.82307,-0.196201,3.057,3.56474
-1.81315,-0.196201,3.057,3.55967
-1.80323,-0.196201,3.057,3.55463
-1.79331,-0.196201,3.057,3.5496
nan,nan,nan,NaN
nan,nan,nan,NaN
nan,nan,nan,NaN
nan,nan,nan,NaN
nan,nan,nan,NaN
nan,nan,nan,NaN
nan,nan,nan,NaN
nan,nan,nan,NaN
nan,nan,nan,NaN
nan,nan,nan,NaN
nan,nan,nan,NaN
nan,nan,nan,NaN
nan,nan,nan,NaN
nan,nan,nan,NaN
nan,nan,nan,NaN
nan,nan,nan,NaN
nan,nan,nan,NaN
nan,nan,nan,NaN
nan,nan,nan,NaN
nan,nan,nan,NaN
nan,nan,nan,NaN
nan,nan,nan,NaN
nan,nan,nan,NaN
nan,nan,nan,NaN
nan,nan,nan,NaN
nan,nan,nan,NaN
nan,nan,nan,NaN
nan,nan,nan,NaN
nan,nan,nan,NaN
nan,nan,nan,NaN
nan,nan,nan,NaN
-1.22428,-0.162763,2.536,2.82075
-1.20693,-0.161543,2.517,2.79608
-1.19876,-0.161543,2.517,2.79257
-1.1906,-0.161543,2.517,2.78907
-1.17397,-0.160388,2.499,2.76567
-1.16586,-0.160388,2.499,2.76224
-1.14941,-0.159233,2.481,2.73895
-1.14136,-0.159233,2.481,2.73558
-1.1333,-0.159233,2.481,2.73223
-1.12525,-0.159233,2.481,2.7289
-1.10909,-0.158078,2.463,2.70582
-1.1011,-0.158078,2.463,2.70255
-1.0931,-0.158078,2.463,2.6993
-1.08511,-0.158078,2.463,2.69607
-1.07712,-0.158078,2.463,2.69287
-1.06912,-0.158078,2.463,2.68968
-1.06113,-0.158078,2.463,2.68651
-1.05313,-0.158078,2.463,2.68336
-1.04514,-0.158078,2.463,2.68024
-1.03714,-0.158078,2.463,2.67713
-1.02915,-0.158078,2.463,2.67404
-1.02116,-0.158078,2.463,2.67098
-1.01316,-0.158078,2.463,2.66793
-1.00517,-0.158078,2.463,2.6649
-0.997172,-0.158078,2.463,2.6619
-0.989178,-0.158078,2.463,2.65892
-0.981184,-0.158078,2.463,2.65595
-0.966077,-0.156922,2.445,2.63362
-0.958141,-0.156922,2.445,2.63072
-0.950205,-0.156922,2.445,2.62784
-0.935718,-0.155831,2.428,2.60673
-0.927837,-0.155831,2.428,2.60391
-0.919957,-0.155831,2.428,2.60111
-0.912076,-0.155831,2.428,2.59834
-0.904195,-0.155831,2.428,2.59558
-0.896315,-0.155831,2.428,2.59285
-0.888434,-0.155831,2.428,2.59013
-0.880553,-0.155831,2.428,2.58744
-0.872672,-0.155831,2.428,2.58477
-0.864792,-0.155831,2.428,2.58212
-0.856911,-0.155831,2.428,2.57949
-0.854975,-0.156922,2.445,2.59492
-0.847039,-0.156922,2.445,2.59232
-0.839103,-0.156922,2.445,2.58974
-0.831167,-0.156922,2.445,2.58718
-0.829292,-0.158078,2.463,2.60367
-0.821298,-0.158078,2.463,2.60113
-0.813304,-0.158078,2.463,2.59862
-0.805309,-0.158078,2.463,2.59613
-0.797315,-0.158078,2.463,2.59366
-0.789321,-0.158078,2.463,2.59121
-0.781326,-0.158078,2.463,2.58879
-0.773332,-0.158078,2.463,2.58639
-0.765338,-0.158078,2.463,2.58401
-0.757344,-0.158078,2.463,2.58165
-0.749349,-0.158078,2.463,2.57932
-0.741355,-0.158078,2.463,2.57701
-0.733361,-0.158078,2.463,2.57472
-0.725366,-0.158078,2.463,2.57245
-0.717372,-0.158078,2.463,2.57021
-0.709378,-0.158078,2.463,2.56799
-0.701384,-0.158078,2.463,2.56579
-0.693389,-0.158078,2.463,2.56362
-0.685395,-0.158078,2.463,2.56147
-0.677401,-0.158078,2.463,2.55934
-0.669406,-0.158078,2.463,2.55724
-0.661412,-0.158078,2.463,2.55516
-0.653418,-0.158078,2.463,2.5531
-0.645424,-0.158078,2.463,2.55106
-0.637429,-0.158078,2.463,2.54905
-0.634035,-0.159233,2.481,2.56568
-0.625982,-0.159233,2.481,2.5637
-0.61793,-0.159233,2.481,2.56175
-0.609877,-0.159233,2.481,2.55982
-0.601824,-0.159233,2.481,2.55791
-0.598079,-0.160388,2.499,2.57457
-0.589968,-0.160388,2.499,2.5727
-0.581857,-0.160388,2.499,2.57085
-0.573746,-0.160388,2.499,2.56903
-0.565635,-0.160388,2.499,2.56723
-0.561539,-0.161543,2.517,2.58393
-0.55337,-0.161543,2.517,2.58217
-0.5452,-0.161543,2.517,2.58043
-0.541085,-0.162763,2.536,2.59818
-0.532853,-0.162763,2.536,2.59648
-0.524622,-0.162763,2.536,2.59481
-0.516391,-0.162763,2.536,2.59315
-0.50816,-0.162763,2.536,2.59153
-0.503674,-0.163982,2.555,2.60933
-0.495381,-0.163982,2.555,2.60774
-0.487088,-0.163982,2.555,2.60618
-0.478795,-0.163982,2.555,2.60464
-0.470502,-0.163982,2.555,2.60313
-0.46221,-0.163982,2.555,2.60164
-0.457292,-0.165202,2.574,2.61952
-0.448938,-0.165202,2.574,2.61807
-0.440583,-0.165202,2.574,2.61665
-0.432229,-0.165202,2.574,2.61526
-0.423874,-0.165202,2.574,2.61389
-0.415519,-0.165202,2.574,2.61255
-0.407165,-0.165202,2.574,2.61124
-0.39881,-0.165202,2.574,2.60995
-0.390456,-0.165202,2.574,2.60868
-0.382101,-0.165202,2.574,2.60745
-0.373747,-0.165202,2.574,2.60623
-0.365392,-0.165202,2.574,2.60505
-0.357037,-0.165202,2.574,2.60389
-0.348683,-0.165202,2.574,2.60276
-0.34284,-0.166421,2.593,2.62086
-0.334424,-0.166421,2.593,2.61977
-0.326008,-0.166421,2.593,2.61871
-0.317592,-0.166421,2.593,2.61767
-0.309175,-0.166421,2.593,2.61666
-0.298555,-0.165202,2.574,2.59652
-0.290201,-0.165202,2.574,2.59557
-0.281846,-0.165202,2.574,2.59465
-0.273492,-0.165202,2.574,2.59376
-0.265137,-0.165202,2.574,2.59289
-0.256783,-0.165202,2.574,2.59205
-0.248428,-0.165202,2.574,2.59123
-0.240074,-0.165202,2.574,2.59044
-0.233429,-0.166421,2.593,2.6088
-0.223364,-0.165202,2.574,2.58895
-0.21501,-0.165202,2.574,2.58824
-0.208181,-0.166421,2.593,2.60666
-0.199764,-0.166421,2.593,2.606
-0.191348,-0.166421,2.593,2.60537
-0.182932,-0.166421,2.593,2.60477
-0.174516,-0.166421,2.593,2.60419
-0.164882,-0.165202,2.574,2.58456
-0.156528,-0.165202,2.574,2.58404
-0.148173,-0.165202,2.574,2.58355
-0.139819,-0.165202,2.574,2.58308
-0.131464,-0.165202,2.574,2.58264
-0.12311,-0.165202,2.574,2.58223
-0.114755,-0.165202,2.574,2.58185
-0.107186,-0.166421,2.593,2.60054
-0.0987696,-0.166421,2.593,2.60021
-0.0903534,-0.166421,2.593,2.59991
-0.0819372,-0.166421,2.593,2.59963
-0.073521,-0.166421,2.593,2.59938
-0.0651047,-0.166421,2.593,2.59915
-0.0566885,-0.166421,2.593,2.59895
-0.0482722,-0.166421,2.593,2.59878
-0.039856,-0.166421,2.593,2.59864
-0.0314398,-0.166421,2.593,2.59853
-0.0232011,-0.167705,2.613,2.61848
-0.01472,-0.167705,2.613,2.61842
-0.00623883,-0.167705,2.613,2.61838
0.00222516,-0.166421,2.593,2.59834
0.0106414,-0.166421,2.593,2.59836
0.0190576,-0.166421,2.593,2.59841
0.0274739,-0.166421,2.593,2.59848
0.0356271,-0.165202,2.574,2.57954
0.0439817,-0.165202,2.574,2.57967
0.0523362,-0.165202,2.574,2.57983
0.0611388,-0.166421,2.593,2.59905
0.069555,-0.166421,2.593,2.59927
0.0779713,-0.166421,2.593,2.5995
0.0863875,-0.166421,2.593,2.59977
0.0948037,-0.166421,2.593,2.60006
0.10322,-0.166421,2.593,2.60038
0.111636,-0.166421,2.593,2.60073
0.120978,-0.167705,2.613,2.62117
0.13045,-0.168988,2.633,2.64164
0.138997,-0.168988,2.633,2.64208
0.147543,-0.168988,2.633,2.64254
0.156089,-0.168988,2.633,2.64303
0.164635,-0.168988,2.633,2.64355
0.173181,-0.168988,2.633,2.64409
0.181727,-0.168988,2.633,2.64467
0.190273,-0.168988,2.633,2.64527
0.198819,-0.168988,2.633,2.6459
0.207365,-0.168988,2.633,2.64655
0.215911,-0.168988,2.633,2.64724
0.224457,-0.168988,2.633,2.64795
0.233003,-0.168988,2.633,2.64869
0.241549,-0.168988,2.633,2.64945
0.250095,-0.168988,2.633,2.65024
0.258641,-0.168988,2.633,2.65106
0.267187,-0.168988,2.633,2.65191
0.275734,-0.168988,2.633,2.65279
0.28212,-0.167705,2.613,2.63353
0.290601,-0.167705,2.613,2.63445
0.299083,-0.167705,2.613,2.6354
0.30521,-0.166421,2.593,2.6162
0.313626,-0.166421,2.593,2.61719
0.319682,-0.165202,2.574,2.59903
0.328037,-0.165202,2.574,2.60007
0.333908,-0.163982,2.555,2.58194
0.342201,-0.163982,2.555,2.58302
0.350494,-0.163982,2.555,2.58414
0.358787,-0.163982,2.555,2.58527
0.36708,-0.163982,2.555,2.58644
0.375373,-0.163982,2.555,2.58763
0.383666,-0.163982,2.555,2.58884
0.391959,-0.163982,2.555,2.59009
0.400252,-0.163982,2.555,2.59135
0.408544,-0.163982,2.555,2.59265
0.416837,-0.163982,2.555,2.59397
0.42513,-0.163982,2.555,2.59531
0.433423,-0.163982,2.555,2.59668
0.441716,-0.163982,2.555,2.59808
0.450009,-0.163982,2.555,2.5995
0.458302,-0.163982,2.555,2.60095
0.466595,-0.163982,2.555,2.60243
0.474888,-0.163982,2.555,2.60393
0.479587,-0.162763,2.536,2.58608
0.487819,-0.162763,2.536,2.58762
0.49605,-0.162763,2.536,2.58918
0.504281,-0.162763,2.536,2.59077
0.512512,-0.162763,2.536,2.59238
0.520743,-0.162763,2.536,2.59402
0.528975,-0.162763,2.536,2.59569
0.537206,-0.162763,2.536,2.59738
0.545437,-0.162763,2.536,2.59909
0.553668,-0.162763,2.536,2.60083
0.5619,-0.162763,2.536,2.6026
0.570131,-0.162763,2.536,2.60439
0.578362,-0.162763,2.536,2.6062
0.586593,-0.162763,2.536,2.60804
0.599281,-0.163982,2.555,2.62946
0.607574,-0.163982,2.555,2.63136
0.615867,-0.163982,2.555,2.63329
0.62416,-0.163982,2.555,2.63524
0.632453,-0.163982,2.555,2.63722
0.64551,-0.165202,2.574,2.65884
0.653865,-0.165202,2.574,2.66088
0.657331,-0.163982,2.555,2.64329
0.665624,-0.163982,2.555,2.64537
0.673917,-0.163982,2.555,2.64747
0.677137,-0.162763,2.536,2.62989
0.685368,-0.162763,2.536,2.63202
0.693599,-0.162763,2.536,2.63417
0.70183,-0.162763,2.536,2.63635
0.710062,-0.162763,2.536,2.63856
0.718293,-0.162763,2.536,2.64078
0.726524,-0.162763,2.536,2.64303
0.734755,-0.162763,2.536,2.64531
0.742987,-0.162763,2.536,2.64761
0.751218,-0.162763,2.536,2.64993
0.759449,-0.162763,2.536,2.65227
0.76768,-0.162763,2.536,2.65464
0.775912,-0.162763,2.536,2.65703
0.784143,-0.162763,2.536,2.65945
0.792374,-0.162763,2.536,2.66189
0.800605,-0.162763,2.536,2.66435
0.808836,-0.162763,2.536,2.66683
0.817068,-0.162763,2.536,2.66934
0.825299,-0.162763,2.536,2.67187
0.83353,-0.162763,2.536,2.67443
0.841761,-0.162763,2.536,2.677
0.849993,-0.162763,2.536,2.6796
0.858224,-0.162763,2.536,2.68223
0.859963,-0.161543,2.517,2.66476
0.868133,-0.161543,2.517,2.6674
0.870036,-0.160388,2.499,2.65098
0.878147,-0.160388,2.499,2.65365
0.886258,-0.160388,2.499,2.65635
0.887927,-0.159233,2.481,2.63991
0.889479,-0.158078,2.463,2.62346
0.897474,-0.158078,2.463,2.62618
0.905468,-0.158078,2.463,2.62892
0.906787,-0.156922,2.445,2.61245
0.908362,-0.155831,2.428,2.59703
0.916243,-0.155831,2.428,2.5998
0.924124,-0.155831,2.428,2.60259
0.925479,-0.15474,2.411,2.58716
0.933304,-0.15474,2.411,2.58997
0.94113,-0.15474,2.411,2.5928
0.942264,-0.153649,2.394,2.57734
0.950035,-0.153649,2.394,2.5802
0.957805,-0.153649,2.394,2.58307
nan,nan,nan,NaN
nan,nan,nan,NaN
0.981116,-0.153649,2.394,2.5918
0.981864,-0.152558,2.377,2.57633
0.989579,-0.152558,2.377,2.57928
0.997294,-0.152558,2.377,2.58225
nan,nan,nan,NaN
nan,nan,nan,NaN
nan,nan,nan,NaN
nan,nan,nan,NaN
nan,nan,nan,NaN
nan,nan,nan,NaN
nan,nan,nan,NaN
nan,nan,nan,NaN
nan,nan,nan,NaN
nan,nan,nan,NaN
nan,nan,nan,NaN
nan,nan,nan,NaN
1.64662,-0.228869,3.566,3.93447
1.65819,-0.228869,3.566,3.93933
1.66977,-0.228869,3.566,3.94422
1.68134,-0.228869,3.566,3.94913
1.71096,-0.231308,3.604,3.99621
1.70449,-0.228869,3.566,3.95904
1.69826,-0.226494,3.529,3.92291
1.70971,-0.226494,3.529,3.92788
1.72117,-0.226494,3.529,3.93288
1.71495,-0.224184,3.493,3.89774
1.70899,-0.221937,3.458,3.86363
1.72021,-0.221937,3.458,3.86861
1.73143,-0.221937,3.458,3.87361
nan,nan,nan,NaN
nan,nan,nan,NaN
nan,nan,nan,NaN
nan,nan,nan,NaN
nan,nan,nan,NaN
nan,nan,nan,NaN
nan,nan,nan,NaN
nan,nan,nan,NaN
1.7784,-0.215391,3.356,3.80419
1.78929,-0.215391,3.356,3.80929
1.83612,-0.219691,3.423,3.89057
1.86612,-0.221937,3.458,3.93566
1.87734,-0.221937,3.458,3.94099
1.88857,-0.221937,3.458,3.94635
1.89979,-0.221937,3.458,3.95174
1.91102,-0.221937,3.458,3.95715
1.92224,-0.221937,3.458,3.96258
1.93346,-0.221937,3.458,3.96803
1.925,-0.219691,3.423,3.9333
1.93611,-0.219691,3.423,3.93875
1.94722,-0.219691,3.423,3.94422
1.95833,-0.219691,3.423,3.94972
1.94988,-0.217509,3.389,3.91595
1.94179,-0.215391,3.356,3.88326
1.95268,-0.215391,3.356,3.88871
1.96357,-0.215391,3.356,3.89419
1.95564,-0.213337,3.324,3.86251
1.96643,-0.213337,3.324,3.86799
1.95818,-0.211283,3.292,3.83619
1.93179,-0.207304,3.23,3.76931
1.94227,-0.207304,3.23,3.77469
1.93401,-0.205315,3.199,3.74382
1.90914,-0.201592,3.141,3.68122
1.91934,-0.201592,3.141,3.68651
1.91172,-0.199731,3.112,3.65775
1.88785,-0.196201,3.057,3.5983
1.89778,-0.196201,3.057,3.60351
1.89085,-0.194468,3.03,3.57687
1.86744,-0.191066,2.977,3.51943
1.8771,-0.191066,2.977,3.52456
1.87028,-0.189398,2.951,3.49889
1.86394,-0.187793,2.926,3.47433
1.87343,-0.187793,2.926,3.47944
1.8514,-0.184648,2.877,3.42621
1.84521,-0.183108,2.853,3.40264
1.83887,-0.181568,2.829,3.379
1.84806,-0.181568,2.829,3.38401
1.84214,-0.180092,2.806,3.36148
1.83607,-0.178615,2.783,3.33889
1.84511,-0.178615,2.783,3.34386
1.83948,-0.177203,2.761,3.32238
1.81899,-0.174379,2.717,3.27433
1.8278,-0.174379,2.717,3.27923
1.82243,-0.173032,2.696,3.25877
1.81691,-0.171684,2.675,3.23825
-1.9154,-0.168244,2.761,3.36455
-1.90643,-0.168244,2.761,3.35945
-1.88235,-0.166904,2.739,3.32765
-1.84405,-0.164284,2.696,3.27046
-1.82101,-0.163004,2.675,3.2401
-1.81232,-0.163004,2.675,3.23523
-1.80364,-0.163004,2.675,3.23037
-1.79496,-0.163004,2.675,3.22553
-1.78628,-0.163004,2.675,3.22071
-1.77759,-0.163004,2.675,3.2159
-1.76891,-0.163004,2.675,3.21111
-1.77405,-0.164284,2.696,3.23151
-1.7653,-0.164284,2.696,3.22671
-1.77023,-0.165563,2.717,3.24703
-1.76141,-0.165563,2.717,3.24223
-1.78097,-0.168244,2.761,3.28988
-1.77201,-0.168244,2.761,3.28503
-1.80647,-0.172388,2.829,3.361
-1.82778,-0.175313,2.877,3.41301
-1.81845,-0.175313,2.877,3.40802
-1.83992,-0.178299,2.926,3.46101
-1.86233,-0.181407,2.977,3.51621
-1.86885,-0.182991,3.003,3.54176
-1.8591,-0.182991,3.003,3.53663
-1.88261,-0.186281,3.057,3.59502
-1.88922,-0.187927,3.084,3.62154
-1.86276,-0.186281,3.057,3.58467
-1.85284,-0.186281,3.057,3.57952
-1.84292,-0.186281,3.057,3.57439
-1.833,-0.186281,3.057,3.56929
-1.82307,-0.186281,3.057,3.5642
-1.81315,-0.186281,3.057,3.55914
-1.80323,-0.186281,3.057,3.55409
-1.79331,-0.186281,3.057,3.54907
nan,nan,nan,NaN
nan,nan,nan,NaN
nan,nan,nan,NaN
nan,nan,nan,NaN
nan,nan,nan,NaN
nan,nan,nan,NaN
nan,nan,nan,NaN
nan,nan,nan,NaN
nan,nan,nan,NaN
nan,nan,nan,NaN
nan,nan,nan,NaN
nan,nan,nan,NaN
nan,nan,nan,NaN
nan,nan,nan,NaN
nan,nan,nan,NaN
nan,nan,nan,NaN
nan,nan,nan,NaN
nan,nan,nan,NaN
nan,nan,nan,NaN
nan,nan,nan,NaN
nan,nan,nan,NaN
nan,nan,nan,NaN
nan,nan,nan,NaN
nan,nan,nan,NaN
nan,nan,nan,NaN
nan,nan,nan,NaN
nan,nan,nan,NaN
nan,nan,nan,NaN
nan,nan,nan,NaN
-1.25003,-0.155692,2.555,2.84866
-1.24174,-0.155692,2.555,2.84503
-1.22428,-0.154534,2.536,2.82029
-1.20693,-0.153376,2.517,2.79562
-1.19876,-0.153376,2.517,2.79211
-1.1906,-0.153376,2.517,2.78861
-1.17397,-0.152279,2.499,2.76521
-1.16586,-0.152279,2.499,2.76178
-1.14941,-0.151182,2.481,2.7385
-1.14136,-0.151182,2.481,2.73513
-1.1333,-0.151182,2.481,2.73177
-1.12525,-0.151182,2.481,2.72844
-1.10909,-0.150085,2.463,2.70536
-1.1011,-0.150085,2.463,2.70209
-1.0931,-0.150085,2.463,2.69885
-1.08511,-0.150085,2.463,2.69562
-1.07712,-0.150085,2.463,2.69241
-1.06912,-0.150085,2.463,2.68922
-1.06113,-0.150085,2.463,2.68605
-1.05313,-0.150085,2.463,2.68291
-1.04514,-0.150085,2.463,2.67978
-1.03714,-0.150085,2.463,2.67667
-1.02915,-0.150085,2.463,2.67358
-1.02116,-0.150085,2.463,2.67052
-1.01316,-0.150085,2.463,2.66747
-1.00517,-0.150085,2.463,2.66444
-0.997172,-0.150085,2.463,2.66144
-0.989178,-0.150085,2.463,2.65845
-0.981184,-0.150085,2.463,2.65549
-0.973189,-0.150085,2.463,2.65254
-0.965195,-0.150085,2.463,2.64962
-0.950205,-0.148989,2.445,2.62738
-0.935718,-0.147953,2.428,2.60627
-0.927837,-0.147953,2.428,2.60345
-0.919957,-0.147953,2.428,2.60065
-0.912076,-0.147953,2.428,2.59788
-0.904195,-0.147953,2.428,2.59512
-0.896315,-0.147953,2.428,2.59238
-0.888434,-0.147953,2.428,2.58967
-0.880553,-0.147953,2.428,2.58698
-0.872672,-0.147953,2.428,2.58431
-0.864792,-0.147953,2.428,2.58165
-0.856911,-0.147953,2.428,2.57903
-0.854975,-0.148989,2.445,2.59446
-0.847039,-0.148989,2.445,2.59185
-0.839103,-0.148989,2.445,2.58927
-0.831167,-0.148989,2.445,2.58671
-0.829292,-0.150085,2.463,2.60319
-0.821298,-0.150085,2.463,2.60066
-0.813304,-0.150085,2.463,2.59815
-0.805309,-0.150085,2.463,2.59565
-0.797315,-0.150085,2.463,2.59318
-0.789321,-0.150085,2.463,2.59074
-0.781326,-0.150085,2.463,2.58831
-0.773332,-0.150085,2.463,2.58591
-0.765338,-0.150085,2.463,2.58353
-0.757344,-0.150085,2.463,2.58117
-0.749349,-0.150085,2.463,2.57884
-0.741355,-0.150085,2.463,2.57653
-0.733361,-0.150085,2.463,2.57424
-0.725366,-0.150085,2.463,2.57197
-0.717372,-0.150085,2.463,2.56973
-0.709378,-0.150085,2.463,2.56751
-0.701384,-0.150085,2.463,2.56531
-0.693389,-0.150085,2.463,2.56314
-0.685395,-0.150085,2.463,2.56099
-0.677401,-0.150085,2.463,2.55886
-0.669406,-0.150085,2.463,2.55676
-0.661412,-0.150085,2.463,2.55467
-0.653418,-0.150085,2.463,2.55262
-0.645424,-0.150085,2.463,2.55058
-0.637429,-0.150085,2.463,2.54857
-0.634035,-0.151182,2.481,2.56519
-0.625982,-0.151182,2.481,2.56322
-0.61793,-0.151182,2.481,2.56126
-0.609877,-0.151182,2.481,2.55933
-0.601824,-0.151182,2.481,2.55742
-0.598079,-0.152279,2.499,2.57408
-0.589968,-0.152279,2.499,2.57221
-0.581857,-0.152279,2.499,2.57036
-0.573746,-0.152279,2.499,2.56854
-0.565635,-0.152279,2.499,2.56674
-0.561539,-0.153376,2.517,2.58344
-0.55337,-0.153376,2.517,2.58167
-0.5452,-0.153376,2.517,2.57993
-0.541085,-0.154534,2.536,2.59768
-0.532853,-0.154534,2.536,2.59598
-0.524622,-0.154534,2.536,2.5943
-0.516391,-0.154534,2.536,2.59265
-0.50816,-0.154534,2.536,2.59102
-0.499929,-0.154534,2.536,2.58942
-0.491697,-0.154534,2.536,2.58785
-0.483466,-0.154534,2.536,2.58629
-0.478795,-0.155692,2.555,2.60413
-0.470502,-0.155692,2.555,2.60262
-0.46221,-0.155692,2.555,2.60113
-0.457292,-0.156849,2.574,2.61901
-0.448938,-0.156849,2.574,2.61756
-0.440583,-0.156849,2.574,2.61614
-0.432229,-0.156849,2.574,2.61475
-0.423874,-0.156849,2.574,2.61338
-0.415519,-0.156849,2.574,2.61204
-0.407165,-0.156849,2.574,2.61072
-0.39881,-0.156849,2.574,2.60943
-0.390456,-0.156849,2.574,2.60817
-0.382101,-0.156849,2.574,2.60693
-0.373747,-0.156849,2.574,2.60572
-0.365392,-0.156849,2.574,2.60453
-0.357037,-0.156849,2.574,2.60337
-0.348683,-0.156849,2.574,2.60224
-0.34284,-0.158007,2.593,2.62034
-0.334424,-0.158007,2.593,2.61925
-0.326008,-0.158007,2.593,2.61819
-0.317592,-0.158007,2.593,2.61715
-0.309175,-0.158007,2.593,2.61614
-0.298555,-0.156849,2.574,2.596
-0.290201,-0.156849,2.574,2.59505
-0.281846,-0.156849,2.574,2.59413
-0.273492,-0.156849,2.574,2.59324
-0.265137,-0.156849,2.574,2.59237
-0.256783,-0.156849,2.574,2.59153
-0.248428,-0.156849,2.574,2.59071
-0.240074,-0.156849,2.574,2.58993
-0.233429,-0.158007,2.593,2.60828
-0.223364,-0.156849,2.574,2.58843
-0.21501,-0.156849,2.574,2.58772
-0.208181,-0.158007,2.593,2.60614
-0.199764,-0.158007,2.593,2.60548
-0.191348,-0.158007,2.593,2.60485
-0.182932,-0.158007,2.593,2.60424
-0.174516,-0.158007,2.593,2.60367
-0.164882,-0.156849,2.574,2.58404
-0.156528,-0.156849,2.574,2.58352
-0.148173,-0.156849,2.574,2.58303
-0.139819,-0.156849,2.574,2.58256
-0.131464,-0.156849,2.574,2.58212
-0.12311,-0.156849,2.574,2.58171
-0.114755,-0.156849,2.574,2.58133
-0.107186,-0.158007,2.593,2.60002
-0.0987696,-0.158007,2.593,2.59969
-0.0903534,-0.158007,2.593,2.59938
-0.0819372,-0.158007,2.593,2.5991
-0.073521,-0.158007,2.593,2.59885
-0.0651047,-0.158007,2.593,2.59863
-0.0566885,-0.158007,2.593,2.59843
-0.0482722,-0.158007,2.593,2.59826
-0.039856,-0.158007,2.593,2.59812
-0.0314398,-0.158007,2.593,2.598
-0.0232011,-0.159226,2.613,2.61795
-0.01472,-0.159226,2.613,2.61789
-0.00623883,-0.159226,2.613,2.61785
0.00222516,-0.158007,2.593,2.59781
0.0106414,-0.158007,2.593,2.59783
0.0190576,-0.158007,2.593,2.59788
0.0274739,-0.158007,2.593,2.59796
0.0356271,-0.156849,2.574,2.57902
0.0439817,-0.156849,2.574,2.57915
0.0523362,-0.156849,2.574,2.57931
0.0611388,-0.158007,2.593,2.59853
0.069555,-0.158007,2.593,2.59874
0.0779713,-0.158007,2.593,2.59898
0.0863875,-0.158007,2.593,2.59925
0.0948037,-0.158007,2.593,2.59954
0.10322,-0.158007,2.593,2.59986
0.111636,-0.158007,2.593,2.60021
0.120978,-0.159226,2.613,2.62064
0.12946,-0.159226,2.613,2.62105
0.137941,-0.159226,2.613,2.62148
0.147543,-0.160445,2.633,2.64201
0.156089,-0.160445,2.633,2.6425
0.164635,-0.160445,2.633,2.64302
0.173181,-0.160445,2.633,2.64356
0.181727,-0.160445,2.633,2.64414
0.190273,-0.160445,2.633,2.64474
0.198819,-0.160445,2.633,2.64537
0.207365,-0.160445,2.633,2.64602
0.215911,-0.160445,2.633,2.64671
0.224457,-0.160445,2.633,2.64742
0.233003,-0.160445,2.633,2.64815
0.241549,-0.160445,2.633,2.64892
0.250095,-0.160445,2.633,2.64971
0.258641,-0.160445,2.633,2.65053
0.267187,-0.160445,2.633,2.65138
0.271545,-0.158007,2.593,2.61196
0.279961,-0.158007,2.593,2.61285
0.288377,-0.158007,2.593,2.61377
0.296793,-0.158007,2.593,2.61471
0.302973,-0.156849,2.574,2.59651
0.311328,-0.156849,2.574,2.5975
0.317323,-0.155692,2.555,2.57933
0.325615,-0.155692,2.555,2.58037
0.333908,-0.155692,2.555,2.58143
0.342201,-0.155692,2.555,2.58251
0.350494,-0.155692,2.555,2.58362
0.356119,-0.154534,2.536,2.56554
0.36435,-0.154534,2.536,2.5667
0.372581,-0.154534,2.536,2.56788
0.383666,-0.155692,2.555,2.58833
0.391959,-0.155692,2.555,2.58957
0.397275,-0.154534,2.536,2.57158
0.405506,-0.154534,2.536,2.57286
0.416837,-0.155692,2.555,2.59346
0.42513,-0.155692,2.555,2.5948
0.433423,-0.155692,2.555,2.59617
0.441716,-0.155692,2.555,2.59757
0.450009,-0.155692,2.555,2.59899
0.454894,-0.154534,2.536,2.58111
0.463125,-0.154534,2.536,2.58257
0.471356,-0.154534,2.536,2.58406
0.479587,-0.154534,2.536,2.58557
0.487819,-0.154534,2.536,2.58711
0.49605,-0.154534,2.536,2.58868
0.500503,-0.153376,2.517,2.57086
0.508672,-0.153376,2.517,2.57246
0.516842,-0.153376,2.517,2.57409
0.528975,-0.154534,2.536,2.59519
0.537206,-0.154534,2.536,2.59688
0.545437,-0.154534,2.536,2.59859
0.553668,-0.154534,2.536,2.60033
0.5619,-0.154534,2.536,2.6021
0.570131,-0.154534,2.536,2.60389
0.578362,-0.154534,2.536,2.6057
0.586593,-0.154534,2.536,2.60754
0.599281,-0.155692,2.555,2.62895
0.607574,-0.155692,2.555,2.63086
0.615867,-0.155692,2.555,2.63279
0.62416,-0.155692,2.555,2.63474
0.632453,-0.155692,2.555,2.63671
0.64551,-0.156849,2.574,2.65834
0.653865,-0.156849,2.574,2.66038
0.657331,-0.155692,2.555,2.64279
0.665624,-0.155692,2.555,2.64487
0.673917,-0.155692,2.555,2.64697
0.68221,-0.155692,2.555,2.64909
0.690503,-0.155692,2.555,2.65124
0.693599,-0.154534,2.536,2.63368
0.70183,-0.154534,2.536,2.63586
0.710062,-0.154534,2.536,2.63806
0.718293,-0.154534,2.536,2.64029
0.726524,-0.154534,2.536,2.64254
0.734755,-0.154534,2.536,2.64481
0.742987,-0.154534,2.536,2.64711
0.751218,-0.154534,2.536,2.64943
0.759449,-0.154534,2.536,2.65178
0.76768,-0.154534,2.536,2.65415
0.775912,-0.154534,2.536,2.65654
0.790018,-0.155692,2.555,2.67888
0.798311,-0.155692,2.555,2.68134
0.806603,-0.155692,2.555,2.68382
0.814896,-0.155692,2.555,2.68632
0.823189,-0.155692,2.555,2.68885
0.831482,-0.155692,2.555,2.6914
0.839775,-0.155692,2.555,2.69397
0.848068,-0.155692,2.555,2.69657
0.856361,-0.155692,2.555,2.69919
0.858224,-0.154534,2.536,2.68174
0.866455,-0.154534,2.536,2.68438
0.874686,-0.154534,2.536,2.68705
0.876303,-0.153376,2.517,2.66959
0.878147,-0.152279,2.499,2.65317
0.886258,-0.152279,2.499,2.65587
0.894369,-0.152279,2.499,2.65859
0.89598,-0.151182,2.481,2.64216
0.904033,-0.151182,2.481,2.6449
0.905468,-0.150085,2.463,2.62845
0.906787,-0.148989,2.445,2.61199
0.908362,-0.147953,2.428,2.59657
0.916243,-0.147953,2.428,2.59934
0.924124,-0.147953,2.428,2.60213
0.932004,-0.147953,2.428,2.60494
0.939885,-0.147953,2.428,2.60777
0.94113,-0.146917,2.411,2.59234
0.948955,-0.146917,2.411,2.59519
0.956781,-0.146917,2.411,2.59806
0.964606,-0.146917,2.411,2.60096
nan,nan,nan,NaN
nan,nan,nan,NaN
0.981116,-0.145881,2.394,2.59135
0.988886,-0.145881,2.394,2.5943
0.996657,-0.145881,2.394,2.59728
nan,nan,nan,NaN
nan,nan,nan,NaN
nan,nan,nan,NaN
nan,nan,nan,NaN
nan,nan,nan,NaN
nan,nan,nan,NaN
nan,nan,nan,NaN
nan,nan,nan,NaN
nan,nan,nan,NaN
nan,nan,nan,NaN
nan,nan,nan,NaN
nan,nan,nan,NaN
nan,nan,nan,NaN
nan,nan,nan,NaN
nan,nan,nan,NaN
nan,nan,nan,NaN
nan,nan,nan,NaN
nan,nan,nan,NaN
nan,nan,nan,NaN
nan,nan,nan,NaN
nan,nan,nan,NaN
nan,nan,nan,NaN
nan,nan,nan,NaN
nan,nan,nan,NaN
nan,nan,nan,NaN
nan,nan,nan,NaN
nan,nan,nan,NaN
nan,nan,nan,NaN
nan,nan,nan,NaN
nan,nan,nan,NaN
nan,nan,nan,NaN
nan,nan,nan,NaN
nan,nan,nan,NaN
nan,nan,nan,NaN
1.7784,-0.204501,3.356,3.80358
1.78929,-0.204501,3.356,3.80869
1.83612,-0.208584,3.423,3.88996
1.86612,-0.210717,3.458,3.93504
1.87734,-0.210717,3.458,3.94038
1.88857,-0.210717,3.458,3.94574
1.89979,-0.210717,3.458,3.95112
1.91102,-0.210717,3.458,3.95653
1.92224,-0.210717,3.458,3.96197
1.93346,-0.210717,3.458,3.96742
1.925,-0.208584,3.423,3.93269
1.93611,-0.208584,3.423,3.93814
1.94722,-0.208584,3.423,3.94362
1.95833,-0.208584,3.423,3.94912
1.94988,-0.206512,3.389,3.91536
1.94179,-0.204501,3.356,3.88267
1.95268,-0.204501,3.356,3.88813
1.96357,-0.204501,3.356,3.89361
1.95564,-0.202551,3.324,3.86193
1.96643,-0.202551,3.324,3.86741
1.95818,-0.200601,3.292,3.83562
1.93179,-0.196823,3.23,3.76875
1.94227,-0.196823,3.23,3.77413
1.93401,-0.194934,3.199,3.74326
1.90914,-0.1914,3.141,3.68067
1.91934,-0.1914,3.141,3.68597
1.91172,-0.189633,3.112,3.65721
1.88785,-0.186281,3.057,3.59777
1.89778,-0.186281,3.057,3.60299
1.89085,-0.184636,3.03,3.57635
1.86744,-0.181407,2.977,3.51891
1.8771,-0.181407,2.977,3.52405
1.87028,-0.179822,2.951,3.49839
1.86394,-0.178299,2.926,3.47383
1.87343,-0.178299,2.926,3.47894
1.8514,-0.175313,2.877,3.42572
1.84521,-0.173851,2.853,3.40215
1.83887,-0.172388,2.829,3.37852
1.84806,-0.172388,2.829,3.38353
1.84214,-0.170987,2.806,3.361
1.83607,-0.169585,2.783,3.33841
1.84511,-0.169585,2.783,3.34339
1.83948,-0.168244,2.761,3.32191
1.81899,-0.165563,2.717,3.27387
1.8278,-0.165563,2.717,3.27878
1.82243,-0.164284,2.696,3.25832
1.81691,-0.163004,2.675,3.2378
-1.9154,-0.159285,2.761,3.36411
-1.90643,-0.159285,2.761,3.35902
-1.86723,-0.156747,2.717,3.30049
-1.84405,-0.155536,2.696,3.27004
-1.82101,-0.154324,2.675,3.23968
-1.81232,-0.154324,2.675,3.2348
-1.78948,-0.153112,2.654,3.20459
-1.78087,-0.153112,2.654,3.19979
-1.77225,-0.153112,2.654,3.195
-1.76364,-0.153112,2.654,3.19023
-1.75502,-0.153112,2.654,3.18548
-1.74641,-0.153112,2.654,3.18074
-1.7378,-0.153112,2.654,3.17602
-1.74286,-0.154324,2.675,3.19641
-1.73418,-0.154324,2.675,3.19168
-1.76678,-0.158016,2.739,3.26322
-1.75789,-0.158016,2.739,3.25842
-1.7771,-0.160555,2.783,3.3059
-1.81254,-0.164593,2.853,3.38408
-1.80328,-0.164593,2.853,3.37913
-1.80911,-0.165978,2.877,3.40258
