-0.593771,0.243289,2.481,2.56264
-0.585719,0.243289,2.481,2.56078
-0.577666,0.243289,2.481,2.55895
-0.569613,0.243289,2.481,2.55715
-0.565635,0.245054,2.499,2.57391
-0.557524,0.245054,2.499,2.57214
-0.549413,0.245054,2.499,2.57039
-0.541301,0.245054,2.499,2.56867
-0.53319,0.245054,2.499,2.56697
-0.525079,0.245054,2.499,2.5653
-0.516968,0.245054,2.499,2.56365
-0.508857,0.245054,2.499,2.56203
-0.500746,0.245054,2.499,2.56043
-0.492635,0.245054,2.499,2.55886
-0.484524,0.245054,2.499,2.55731
-0.476412,0.245054,2.499,2.55578
-0.468301,0.245054,2.499,2.55428
-0.46019,0.245054,2.499,2.55281
-0.452079,0.245054,2.499,2.55136
-0.443968,0.245054,2.499,2.54993
-0.435857,0.245054,2.499,2.54853
-0.427746,0.245054,2.499,2.54716
-0.419634,0.245054,2.499,2.54581
-0.411523,0.245054,2.499,2.54449
-0.403412,0.245054,2.499,2.54319
-0.395301,0.245054,2.499,2.54191
-0.38719,0.245054,2.499,2.54066
-0.381809,0.246819,2.517,2.55773
-0.37364,0.246819,2.517,2.55652
-0.36547,0.246819,2.517,2.55534
-0.359998,0.248683,2.536,2.57347
-0.351766,0.248683,2.536,2.57233
-0.343535,0.248683,2.536,2.57122
-0.335304,0.248683,2.536,2.57013
-0.327073,0.248683,2.536,2.56907
-0.318842,0.248683,2.536,2.56803
-0.312937,0.250546,2.555,2.58626
-0.304645,0.250546,2.555,2.58527
-0.296352,0.250546,2.555,2.5843
-0.288059,0.250546,2.555,2.58337
-0.279766,0.250546,2.555,2.58245
-0.271473,0.250546,2.555,2.58157
-0.26318,0.250546,2.555,2.58071
-0.254887,0.250546,2.555,2.57988
-0.246594,0.250546,2.555,2.57907
-0.238301,0.250546,2.555,2.57829
-0.231719,0.252409,2.574,2.59671
-0.223364,0.252409,2.574,2.59597
-0.21501,0.252409,2.574,2.59527
-0.206655,0.252409,2.574,2.59459
-0.198301,0.252409,2.574,2.59394
-0.189946,0.252409,2.574,2.59331
-0.180251,0.250546,2.555,2.57358
-0.171958,0.250546,2.555,2.57301
-0.163665,0.250546,2.555,2.57247
-0.155372,0.250546,2.555,2.57195
-0.14708,0.250546,2.555,2.57146
-0.139819,0.252409,2.574,2.59012
-0.131464,0.252409,2.574,2.58969
-0.122201,0.250546,2.555,2.57016
-0.113908,0.250546,2.555,2.56978
-0.105615,0.250546,2.555,2.56943
-0.0980459,0.252409,2.574,2.5882
-0.0896914,0.252409,2.574,2.5879
-0.0813368,0.252409,2.574,2.58763
-0.0729822,0.252409,2.574,2.58738
-0.0646277,0.252409,2.574,2.58715
-0.0562731,0.252409,2.574,2.58696
-0.0479185,0.252409,2.574,2.58679
-0.039564,0.252409,2.574,2.58665
-0.0312094,0.252409,2.574,2.58653
-0.0226861,0.250546,2.555,2.56736
-0.0143932,0.250546,2.555,2.5673
-0.00610034,0.250546,2.555,2.56726
0.00219255,0.250546,2.555,2.56726
0.0104854,0.250546,2.555,2.56728
0.0187783,0.250546,2.555,2.56732
0.0270712,0.250546,2.555,2.5674
0.0353641,0.250546,2.555,2.5675
0.043657,0.250546,2.555,2.56763
0.0515636,0.248683,2.536,2.54869
0.0597948,0.248683,2.536,2.54887
0.0680261,0.248683,2.536,2.54907
0.0762573,0.248683,2.536,2.5493
0.0838555,0.246819,2.517,2.53046
0.0920251,0.246819,2.517,2.53075
0.100195,0.246819,2.517,2.53106
0.108364,0.246819,2.517,2.53139
0.1157,0.245054,2.499,2.51365
0.123811,0.245054,2.499,2.51404
0.130972,0.243289,2.481,2.49634
0.138016,0.241524,2.463,2.47866
0.146011,0.241524,2.463,2.47912
0.154005,0.241524,2.463,2.4796
0.160815,0.239759,2.445,2.46199
0.168751,0.239759,2.445,2.46252
nan,nan,nan,NaN
0.183339,0.238092,2.428,2.44653
0.19122,0.238092,2.428,2.44713
0.199101,0.238092,2.428,2.44776
0.206981,0.238092,2.428,2.44841
0.214862,0.238092,2.428,2.44909
0.224302,0.239759,2.445,2.46695
0.230623,0.238092,2.428,2.45052
0.238504,0.238092,2.428,2.45128
0.24811,0.239759,2.445,2.46922
0.256046,0.239759,2.445,2.47003
nan,nan,nan,NaN
nan,nan,nan,NaN
nan,nan,nan,NaN
nan,nan,nan,NaN
nan,nan,nan,NaN
nan,nan,nan,NaN
nan,nan,nan,NaN
nan,nan,nan,NaN
nan,nan,nan,NaN
nan,nan,nan,NaN
nan,nan,nan,NaN
nan,nan,nan,NaN
nan,nan,nan,NaN
nan,nan,nan,NaN
nan,nan,nan,NaN
nan,nan,nan,NaN
nan,nan,nan,NaN
nan,nan,nan,NaN
nan,nan,nan,NaN
nan,nan,nan,NaN
nan,nan,nan,NaN
nan,nan,nan,NaN
nan,nan,nan,NaN
nan,nan,nan,NaN
nan,nan,nan,NaN
nan,nan,nan,NaN
0.470314,0.239759,2.445,2.50134
0.474925,0.238092,2.428,2.48544
0.482805,0.238092,2.428,2.48696
0.48725,0.236425,2.411,2.47108
0.495076,0.236425,2.411,2.47263
0.502901,0.236425,2.411,2.47421
0.510727,0.236425,2.411,2.47582
0.514896,0.234758,2.394,2.45997
0.522667,0.234758,2.394,2.46161
0.530437,0.234758,2.394,2.46327
0.534385,0.233091,2.377,2.44745
0.5421,0.233091,2.377,2.44915
0.546115,0.231522,2.361,2.43437
0.553778,0.231522,2.361,2.4361
0.557636,0.229953,2.345,2.42133
0.565248,0.229953,2.345,2.4231
0.572859,0.229953,2.345,2.42489
0.572549,0.226815,2.313,2.39358
0.580056,0.226815,2.313,2.39539
0.583754,0.225344,2.298,2.38167
0.587096,0.223775,2.282,2.36691
0.594503,0.223775,2.282,2.36876
0.60191,0.223775,2.282,2.37063
0.605311,0.222304,2.267,2.35693
0.612669,0.222304,2.267,2.35883
0.620027,0.222304,2.267,2.36075
0.623234,0.220833,2.252,2.34706
0.630544,0.220833,2.252,2.34901
0.642102,0.222304,2.267,2.36664
0.64946,0.222304,2.267,2.36865
0.656818,0.222304,2.267,2.37068
0.668571,0.223775,2.282,2.38843
0.675978,0.223775,2.282,2.39051
0.683384,0.223775,2.282,2.39262
0.690791,0.223775,2.282,2.39474
0.693609,0.222304,2.267,2.38113
0.700967,0.222304,2.267,2.38329
0.713012,0.223775,2.282,2.40125
0.720418,0.223775,2.282,2.40346
0.723041,0.222304,2.267,2.38987
0.730399,0.222304,2.267,2.39211
0.737757,0.222304,2.267,2.39437
0.740185,0.220833,2.252,2.38079
0.747495,0.220833,2.252,2.38307
0.754804,0.220833,2.252,2.38537
0.762114,0.220833,2.252,2.3877
nan,nan,nan,NaN
nan,nan,nan,NaN
nan,nan,nan,NaN
0.818409,0.228384,2.329,2.47915
0.825968,0.228384,2.329,2.48166
0.839254,0.229953,2.345,2.50125
0.846865,0.229953,2.345,2.50381
0.854477,0.229953,2.345,2.5064
0.862088,0.229953,2.345,2.509
0.869699,0.229953,2.345,2.51163
0.87731,0.229953,2.345,2.51427
0.884922,0.229953,2.345,2.51694
0.886443,0.228384,2.329,2.50244
0.894003,0.228384,2.329,2.50512
0.901562,0.228384,2.329,2.50783
0.909121,0.228384,2.329,2.51056
0.922978,0.229953,2.345,2.53057
0.930589,0.229953,2.345,2.53336
0.944602,0.231522,2.361,2.55347
0.952265,0.231522,2.361,2.55631
0.966434,0.233091,2.377,2.57652
0.981116,0.234758,2.394,2.59787
0.988886,0.234758,2.394,2.60082
1.00373,0.236425,2.411,2.62227
1.01869,0.238092,2.428,2.64379
1.02657,0.238092,2.428,2.64683
1.03445,0.238092,2.428,2.6499
1.04963,0.239759,2.445,2.67156
1.06535,0.241524,2.463,2.69438
1.07335,0.241524,2.463,2.69755
1.08134,0.241524,2.463,2.70074
1.08934,0.241524,2.463,2.70395
1.09733,0.241524,2.463,2.70718
1.09725,0.239759,2.445,2.69062
1.10518,0.239759,2.445,2.69387
1.11312,0.239759,2.445,2.69714
1.12105,0.239759,2.445,2.70042
1.12899,0.239759,2.445,2.70373
1.12902,0.238092,2.428,2.68823
1.12894,0.236425,2.411,2.6727
1.13677,0.236425,2.411,2.67602
1.14459,0.236425,2.411,2.67935
1.14429,0.234758,2.394,2.66379
1.15206,0.234758,2.394,2.66713
1.15983,0.234758,2.394,2.6705
1.15931,0.233091,2.377,2.65489
1.15917,0.231522,2.361,2.64038
1.16684,0.231522,2.361,2.64375
1.1745,0.231522,2.361,2.64714
1.18216,0.231522,2.361,2.65055
1.18983,0.231522,2.361,2.65398
1.19749,0.231522,2.361,2.65742
1.20515,0.231522,2.361,2.66089
1.22103,0.233091,2.377,2.68242
1.22875,0.233091,2.377,2.68594
1.24531,0.234758,2.394,2.70871
1.26198,0.236425,2.411,2.73156
1.28771,0.239759,2.445,2.77375
1.29564,0.239759,2.445,2.77745
1.31318,0.241524,2.463,2.80163
1.35014,0.246819,2.517,2.86689
1.35831,0.246819,2.517,2.87075
1.39742,0.252409,2.574,2.93972
1.42708,0.256233,2.613,2.98831
1.45808,0.260254,2.654,3.03932
1.4667,0.260254,2.654,3.04346
1.48698,0.262313,2.675,3.07173
1.51915,0.266432,2.717,3.12424
1.52797,0.266432,2.717,3.12854
1.54923,0.268589,2.739,3.15822
1.55812,0.268589,2.739,3.16259
1.56701,0.268589,2.739,3.16698
1.56324,0.266432,2.717,3.14592
1.57206,0.266432,2.717,3.15031
1.56866,0.264372,2.696,3.13034
1.56512,0.262313,2.675,3.11031
1.56145,0.260254,2.654,3.09024
1.57007,0.260254,2.654,3.0946
1.57868,0.260254,2.654,3.09898
1.57474,0.258194,2.633,3.07882
1.58328,0.258194,2.633,3.0832
1.57974,0.256233,2.613,3.06415
1.57606,0.254272,2.593,3.04504
1.58448,0.254272,2.593,3.04941
1.58122,0.252409,2.574,3.03141
1.57784,0.250546,2.555,3.01337
1.58614,0.250546,2.555,3.01772
1.58257,0.248683,2.536,2.99961
1.57888,0.246819,2.517,2.98146
1.58705,0.246819,2.517,2.98579
1.58382,0.245054,2.499,2.96876
1.58046,0.243289,2.481,2.95168
1.58851,0.243289,2.481,2.956
1.58498,0.241524,2.463,2.93886
1.59298,0.241524,2.463,2.94317
1.58927,0.239759,2.445,2.92597
1.59721,0.239759,2.445,2.93029
1.59398,0.238092,2.428,2.91422
1.59065,0.236425,2.411,2.8981
1.59847,0.236425,2.411,2.9024
1.6063,0.236425,2.411,2.90672
1.60274,0.234758,2.394,2.89052
1.61051,0.234758,2.394,2.89484
1.60679,0.233091,2.377,2.87858
1.60364,0.231522,2.361,2.86349
-1.73364,0.253163,2.499,3.05198
-1.72553,0.253163,2.499,3.04738
-1.72979,0.254987,2.517,3.06471
-1.72162,0.254987,2.517,3.06011
-1.73932,0.258836,2.555,3.10165
-1.73102,0.258836,2.555,3.09701
-1.74835,0.262686,2.593,3.13837
-1.73994,0.262686,2.593,3.13369
-1.74487,0.264712,2.613,3.15316
-1.76364,0.268866,2.654,3.19788
-1.75502,0.268866,2.654,3.19314
-1.76023,0.270993,2.675,3.21364
-1.7653,0.27312,2.696,3.23408
-1.75655,0.27312,2.696,3.22931
-1.76141,0.275248,2.717,3.24968
-1.75259,0.275248,2.717,3.24491
-1.74377,0.275248,2.717,3.24015
-1.73495,0.275248,2.717,3.23542
-1.72614,0.275248,2.717,3.2307
-1.71732,0.275248,2.717,3.22599
-1.69529,0.27312,2.696,3.19641
-1.68654,0.27312,2.696,3.19178
-1.67779,0.27312,2.696,3.18716
-1.65604,0.270993,2.675,3.15777
-1.64736,0.270993,2.675,3.15323
-1.62581,0.268866,2.654,3.12398
-1.6172,0.268866,2.654,3.11951
-1.59585,0.266738,2.633,3.0904
-1.56319,0.262686,2.593,3.03912
-1.55478,0.262686,2.593,3.0348
-1.5237,0.258836,2.555,2.98608
-1.50414,0.256911,2.536,2.95968
-1.49591,0.256911,2.536,2.95551
-1.46597,0.253163,2.499,2.90829
-1.43686,0.249516,2.463,2.86237
-1.42886,0.249516,2.463,2.85837
-1.40068,0.24597,2.428,2.81382
-1.38305,0.244248,2.411,2.79023
-1.37522,0.244248,2.411,2.78636
-1.35775,0.242526,2.394,2.76289
-1.3404,0.240804,2.377,2.73949
-1.32371,0.239183,2.361,2.7173
-1.31605,0.239183,2.361,2.71358
-1.30838,0.239183,2.361,2.70987
-1.30954,0.240804,2.377,2.72452
-1.30182,0.240804,2.377,2.72082
-1.29411,0.240804,2.377,2.71714
-1.30479,0.244248,2.411,2.75228
-1.31526,0.247693,2.445,2.78734
-1.30732,0.247693,2.445,2.78361
-1.31852,0.25134,2.481,2.82082
-1.32948,0.254987,2.517,2.85794
-1.33128,0.256911,2.536,2.87569
-1.32305,0.256911,2.536,2.87189
-1.33452,0.260761,2.574,2.91109
-1.34626,0.264712,2.613,2.95131
-1.33778,0.264712,2.613,2.94746
-1.35016,0.268866,2.654,2.9898
-1.35216,0.270993,2.675,3.00955
-1.35402,0.27312,2.696,3.02925
-1.34527,0.27312,2.696,3.02535
-1.33652,0.27312,2.696,3.02147
-1.32777,0.27312,2.696,3.01761
-1.31902,0.27312,2.696,3.01377
-1.31027,0.27312,2.696,3.00995
-1.30152,0.27312,2.696,3.00615
-1.29277,0.27312,2.696,3.00238
-1.27402,0.270993,2.675,2.97526
-1.26533,0.270993,2.675,2.97155
-1.24679,0.268866,2.654,2.94457
-1.22837,0.266738,2.633,2.91766
-1.21056,0.264712,2.613,2.89194
-1.20208,0.264712,2.613,2.8884
-1.17578,0.260761,2.574,2.84182
-1.1502,0.256911,2.536,2.79647
-1.14196,0.256911,2.536,2.7931
-1.11719,0.253163,2.499,2.74904
-1.10908,0.253163,2.499,2.74575
-1.10097,0.253163,2.499,2.74249
-1.07712,0.249516,2.463,2.69978
-1.06912,0.249516,2.463,2.6966
-1.06113,0.249516,2.463,2.69344
-1.04544,0.247693,2.445,2.67064
-1.0375,0.247693,2.445,2.66754
-1.02956,0.247693,2.445,2.66447
-1.02163,0.247693,2.445,2.66141
-1.01369,0.247693,2.445,2.65837
-1.00576,0.247693,2.445,2.65536
-1.00517,0.249516,2.463,2.67189
-0.997172,0.249516,2.463,2.66889
-0.989178,0.249516,2.463,2.66591
-0.981184,0.249516,2.463,2.66296
-0.973189,0.249516,2.463,2.66002
-0.965195,0.249516,2.463,2.65711
-0.957201,0.249516,2.463,2.65422
-0.956143,0.25134,2.481,2.67072
-0.941212,0.249516,2.463,2.64849
-0.933218,0.249516,2.463,2.64566
-0.925224,0.249516,2.463,2.64285
-0.917229,0.249516,2.463,2.64006
-0.909235,0.249516,2.463,2.6373
-0.901241,0.249516,2.463,2.63455
-0.893246,0.249516,2.463,2.63183
-0.885252,0.249516,2.463,2.62913
-0.877258,0.249516,2.463,2.62644
-0.862911,0.247693,2.445,2.60461
-0.854975,0.247693,2.445,2.60199
-0.847039,0.247693,2.445,2.59939
-0.839103,0.247693,2.445,2.59682
-0.831167,0.247693,2.445,2.59427
-0.823232,0.247693,2.445,2.59173
-0.815296,0.247693,2.445,2.58922
-0.80736,0.247693,2.445,2.58674
-0.799424,0.247693,2.445,2.58427
-0.791488,0.247693,2.445,2.58183
-0.783552,0.247693,2.445,2.57941
-0.775616,0.247693,2.445,2.57701
-0.767681,0.247693,2.445,2.57463
-0.759745,0.247693,2.445,2.57227
-0.751809,0.247693,2.445,2.56994
-0.743873,0.247693,2.445,2.56763
-0.741355,0.249516,2.463,2.58423
-0.733361,0.249516,2.463,2.58195
-0.725366,0.249516,2.463,2.57969
-0.717372,0.249516,2.463,2.57745
-0.709378,0.249516,2.463,2.57524
-0.701384,0.249516,2.463,2.57305
-0.693389,0.249516,2.463,2.57088
-0.685395,0.249516,2.463,2.56873
-0.682351,0.25134,2.481,2.58537
-0.674299,0.25134,2.481,2.58326
-0.666246,0.25134,2.481,2.58117
-0.658193,0.25134,2.481,2.5791
-0.65014,0.25134,2.481,2.57706
-0.642088,0.25134,2.481,2.57504
-0.634035,0.25134,2.481,2.57304
-0.625982,0.25134,2.481,2.57107
-0.61793,0.25134,2.481,2.56912
-0.609877,0.25134,2.481,2.56719
-0.601824,0.25134,2.481,2.56529
-0.598079,0.253163,2.499,2.58201
-0.589968,0.253163,2.499,2.58015
-0.581857,0.253163,2.499,2.5783
-0.573746,0.253163,2.499,2.57649
-0.565635,0.253163,2.499,2.57469
-0.557524,0.253163,2.499,2.57292
-0.549413,0.253163,2.499,2.57118
-0.541301,0.253163,2.499,2.56946
-0.53319,0.253163,2.499,2.56776
-0.525079,0.253163,2.499,2.56609
-0.516968,0.253163,2.499,2.56444
-0.508857,0.253163,2.499,2.56282
-0.500746,0.253163,2.499,2.56122
-0.492635,0.253163,2.499,2.55964
-0.484524,0.253163,2.499,2.5581
-0.476412,0.253163,2.499,2.55657
-0.468301,0.253163,2.499,2.55507
-0.46019,0.253163,2.499,2.5536
-0.452079,0.253163,2.499,2.55215
-0.443968,0.253163,2.499,2.55073
-0.435857,0.253163,2.499,2.54933
-0.427746,0.253163,2.499,2.54795
-0.419634,0.253163,2.499,2.5466
-0.411523,0.253163,2.499,2.54528
-0.403412,0.253163,2.499,2.54398
-0.395301,0.253163,2.499,2.54271
-0.38719,0.253163,2.499,2.54146
-0.381809,0.254987,2.517,2.55853
-0.37364,0.254987,2.517,2.55733
-0.36547,0.254987,2.517,2.55614
-0.359998,0.256911,2.536,2.57428
-0.351766,0.256911,2.536,2.57314
-0.343535,0.256911,2.536,2.57203
-0.335304,0.256911,2.536,2.57094
-0.327073,0.256911,2.536,2.56988
-0.318842,0.256911,2.536,2.56884
-0.312937,0.258836,2.555,2.58707
-0.304645,0.258836,2.555,2.58608
-0.296352,0.258836,2.555,2.58512
-0.288059,0.258836,2.555,2.58418
-0.279766,0.258836,2.555,2.58327
-0.271473,0.258836,2.555,2.58239
-0.26318,0.258836,2.555,2.58153
-0.254887,0.258836,2.555,2.5807
-0.246594,0.258836,2.555,2.57989
-0.238301,0.258836,2.555,2.57911
-0.230009,0.258836,2.555,2.57836
-0.221716,0.258836,2.555,2.57763
-0.213423,0.258836,2.555,2.57693
-0.20513,0.258836,2.555,2.57626
-0.196837,0.258836,2.555,2.57561
-0.188544,0.258836,2.555,2.57499
-0.180251,0.258836,2.555,2.5744
-0.171958,0.258836,2.555,2.57383
-0.163665,0.258836,2.555,2.57329
-0.155372,0.258836,2.555,2.57277
-0.14708,0.258836,2.555,2.57229
-0.139819,0.260761,2.574,2.59095
-0.131464,0.260761,2.574,2.59051
-0.122201,0.258836,2.555,2.57098
-0.113908,0.258836,2.555,2.5706
-0.105615,0.258836,2.555,2.57025
-0.0980459,0.260761,2.574,2.58903
-0.0896914,0.260761,2.574,2.58873
-0.0813368,0.260761,2.574,2.58845
-0.0729822,0.260761,2.574,2.5882
-0.0646277,0.260761,2.574,2.58798
-0.0562731,0.260761,2.574,2.58779
-0.0479185,0.260761,2.574,2.58762
-0.0392719,0.258836,2.555,2.56838
-0.030979,0.258836,2.555,2.56826
-0.0226861,0.258836,2.555,2.56818
-0.0143932,0.258836,2.555,2.56812
-0.00610034,0.258836,2.555,2.56808
0.00219255,0.258836,2.555,2.56808
0.0104075,0.256911,2.536,2.549
0.0186387,0.256911,2.536,2.54905
0.0268699,0.256911,2.536,2.54912
0.0351011,0.256911,2.536,2.54922
0.0433324,0.256911,2.536,2.54935
0.0515636,0.256911,2.536,2.5495
0.0597948,0.256911,2.536,2.54968
0.0675164,0.254987,2.517,2.53078
0.075686,0.254987,2.517,2.53101
0.0838555,0.254987,2.517,2.53127
0.0920251,0.254987,2.517,2.53156
0.100195,0.254987,2.517,2.53187
0.108364,0.254987,2.517,2.5322
0.1157,0.253163,2.499,2.51445
0.123811,0.253163,2.499,2.51484
0.130972,0.25134,2.481,2.49714
0.138016,0.249516,2.463,2.47945
0.146011,0.249516,2.463,2.47991
0.154005,0.249516,2.463,2.48039
0.160815,0.247693,2.445,2.46277
0.168751,0.247693,2.445,2.4633
0.176687,0.247693,2.445,2.46386
0.183339,0.24597,2.428,2.4473
0.19122,0.24597,2.428,2.44791
0.199101,0.24597,2.428,2.44854
0.206981,0.24597,2.428,2.44919
0.214862,0.24597,2.428,2.44987
0.222743,0.24597,2.428,2.45057
0.230623,0.24597,2.428,2.4513
0.238504,0.24597,2.428,2.45205
nan,nan,nan,NaN
nan,nan,nan,NaN
nan,nan,nan,NaN
nan,nan,nan,NaN
nan,nan,nan,NaN
nan,nan,nan,NaN
nan,nan,nan,NaN
nan,nan,nan,NaN
nan,nan,nan,NaN
nan,nan,nan,NaN
nan,nan,nan,NaN
nan,nan,nan,NaN
nan,nan,nan,NaN
nan,nan,nan,NaN
nan,nan,nan,NaN
nan,nan,nan,NaN
nan,nan,nan,NaN
nan,nan,nan,NaN
nan,nan,nan,NaN
nan,nan,nan,NaN
nan,nan,nan,NaN
nan,nan,nan,NaN
nan,nan,nan,NaN
nan,nan,nan,NaN
nan,nan,nan,NaN
nan,nan,nan,NaN
nan,nan,nan,NaN
nan,nan,nan,NaN
nan,nan,nan,NaN
0.474925,0.24597,2.428,2.48621
0.482805,0.24597,2.428,2.48773
0.490686,0.24597,2.428,2.48927
0.495076,0.244248,2.411,2.47339
0.502901,0.244248,2.411,2.47497
0.510727,0.244248,2.411,2.47657
0.514896,0.242526,2.394,2.46073
0.522667,0.242526,2.394,2.46236
0.530437,0.242526,2.394,2.46403
0.538207,0.242526,2.394,2.46571
0.5421,0.240804,2.377,2.4499
0.549816,0.240804,2.377,2.45161
0.553778,0.239183,2.361,2.43684
0.561441,0.239183,2.361,2.4386
nan,nan,nan,NaN
0.572859,0.237562,2.345,2.42562
0.572549,0.23432,2.313,2.3943
0.580056,0.23432,2.313,2.39611
0.583754,0.232801,2.298,2.38239
0.587096,0.23118,2.282,2.36763
0.594503,0.23118,2.282,2.36947
0.60191,0.23118,2.282,2.37134
0.609316,0.23118,2.282,2.37323
0.616723,0.23118,2.282,2.37515
0.620027,0.22966,2.267,2.36145
0.627386,0.22966,2.267,2.3634
0.634744,0.22966,2.267,2.36536
0.642102,0.22966,2.267,2.36735
0.64946,0.22966,2.267,2.36935
0.661164,0.23118,2.282,2.38707
0.668571,0.23118,2.282,2.38913
0.675978,0.23118,2.282,2.39122
0.683384,0.23118,2.282,2.39332
0.690791,0.23118,2.282,2.39545
0.693609,0.22966,2.267,2.38183
0.700967,0.22966,2.267,2.38399
0.713012,0.23118,2.282,2.40195
0.720418,0.23118,2.282,2.40416
0.723041,0.22966,2.267,2.39057
0.730399,0.22966,2.267,2.39281
0.737757,0.22966,2.267,2.39506
0.740185,0.228141,2.252,2.38148
0.747495,0.228141,2.252,2.38376
0.754804,0.228141,2.252,2.38606
0.762114,0.228141,2.252,2.38838
nan,nan,nan,NaN
nan,nan,nan,NaN
nan,nan,nan,NaN
0.818409,0.235941,2.329,2.47986
0.825968,0.235941,2.329,2.48236
0.839254,0.237562,2.345,2.50196
0.846865,0.237562,2.345,2.50452
0.854477,0.237562,2.345,2.50711
0.862088,0.237562,2.345,2.50971
0.869699,0.237562,2.345,2.51234
0.87731,0.237562,2.345,2.51498
0.884922,0.237562,2.345,2.51765
0.886443,0.235941,2.329,2.50314
0.894003,0.235941,2.329,2.50582
0.901562,0.235941,2.329,2.50853
0.909121,0.235941,2.329,2.51126
0.922978,0.237562,2.345,2.53127
0.930589,0.237562,2.345,2.53406
0.944602,0.239183,2.361,2.55417
0.952265,0.239183,2.361,2.55702
0.973346,0.242526,2.394,2.59566
0.981116,0.242526,2.394,2.59858
0.988886,0.242526,2.394,2.60153
1.00373,0.244248,2.411,2.62299
1.01869,0.24597,2.428,2.64451
1.02657,0.24597,2.428,2.64755
1.0417,0.247693,2.445,2.66918
1.05736,0.249516,2.463,2.69196
1.06535,0.249516,2.463,2.69511
1.07335,0.249516,2.463,2.69828
1.08924,0.25134,2.481,2.72121
1.0973,0.25134,2.481,2.72444
1.09733,0.249516,2.463,2.70791
1.10533,0.249516,2.463,2.71116
1.11332,0.249516,2.463,2.71443
1.12131,0.249516,2.463,2.71771
1.12105,0.247693,2.445,2.70114
1.12899,0.247693,2.445,2.70444
1.12902,0.24597,2.428,2.68894
1.12894,0.244248,2.411,2.6734
1.13677,0.244248,2.411,2.67672
1.14459,0.244248,2.411,2.68005
1.14429,0.242526,2.394,2.66448
1.15206,0.242526,2.394,2.66783
1.15983,0.242526,2.394,2.67119
1.15931,0.240804,2.377,2.65558
1.15917,0.239183,2.361,2.64106
1.16684,0.239183,2.361,2.64443
1.1745,0.239183,2.361,2.64783
1.18216,0.239183,2.361,2.65123
1.18983,0.239183,2.361,2.65466
1.19749,0.239183,2.361,2.6581
1.20515,0.239183,2.361,2.66156
1.22103,0.240804,2.377,2.6831
1.22875,0.240804,2.377,2.68662
1.24531,0.242526,2.394,2.7094
1.26198,0.244248,2.411,2.73224
1.28771,0.247693,2.445,2.77445
1.29564,0.247693,2.445,2.77814
1.31318,0.249516,2.463,2.80233
1.35014,0.254987,2.517,2.86761
1.35831,0.254987,2.517,2.87146
1.39742,0.260761,2.574,2.94045
1.42708,0.264712,2.613,2.98904
1.45808,0.268866,2.654,3.04007
1.4667,0.268866,2.654,3.04421
1.48698,0.270993,2.675,3.07249
1.51915,0.275248,2.717,3.12501
1.52797,0.275248,2.717,3.1293
1.54923,0.277477,2.739,3.15899
1.55812,0.277477,2.739,3.16336
1.56701,0.277477,2.739,3.16775
1.56324,0.275248,2.717,3.14668
1.57206,0.275248,2.717,3.15107
1.56866,0.27312,2.696,3.13109
1.56512,0.270993,2.675,3.11106
1.56145,0.268866,2.654,3.09098
1.57007,0.268866,2.654,3.09534
1.57868,0.268866,2.654,3.09972
1.57474,0.266738,2.633,3.07955
1.58328,0.266738,2.633,3.08393
1.57974,0.264712,2.613,3.06487
1.57606,0.262686,2.593,3.04575
1.58448,0.262686,2.593,3.05012
1.58122,0.260761,2.574,3.03212
1.57784,0.258836,2.555,3.01407
1.58614,0.258836,2.555,3.01842
1.58257,0.256911,2.536,3.00031
1.57888,0.254987,2.517,2.98214
1.58705,0.254987,2.517,2.98648
1.58382,0.253163,2.499,2.96944
1.58046,0.25134,2.481,2.95235
1.57699,0.249516,2.463,2.93522
1.58498,0.249516,2.463,2.93952
1.59298,0.249516,2.463,2.94384
1.57822,0.24597,2.428,2.90628
1.5861,0.24597,2.428,2.91057
1.59398,0.24597,2.428,2.91487
1.59065,0.244248,2.411,2.89875
1.59847,0.244248,2.411,2.90305
1.59497,0.242526,2.394,2.88687
1.59136,0.240804,2.377,2.87064
1.59908,0.240804,2.377,2.87492
1.59598,0.239183,2.361,2.85984
1.59277,0.237562,2.345,2.84471
-1.73364,0.261272,2.499,3.05267
-1.73796,0.263154,2.517,3.07002
-1.74284,0.26514,2.536,3.08854
-1.73461,0.26514,2.536,3.08391
-1.73932,0.267127,2.555,3.10235
-1.75677,0.2711,2.593,3.14378
-1.74835,0.2711,2.593,3.13909
-1.73994,0.2711,2.593,3.13441
-1.75823,0.275282,2.633,3.17802
-1.76364,0.277477,2.654,3.19861
-1.75502,0.277477,2.654,3.19387
-1.76023,0.279673,2.675,3.21438
-1.77905,0.284064,2.717,3.26003
-1.77023,0.284064,2.717,3.25523
-1.77567,0.286364,2.739,3.27676
-1.76678,0.286364,2.739,3.27195
-1.75789,0.286364,2.739,3.26716
-1.749,0.286364,2.739,3.26238
-1.74011,0.286364,2.739,3.25762
-1.73122,0.286364,2.739,3.25288
-1.7085,0.284064,2.717,3.22207
-1.69968,0.284064,2.717,3.2174
-1.69086,0.284064,2.717,3.21275
-1.68204,0.284064,2.717,3.20812
-1.66029,0.281868,2.696,3.17875
-1.63868,0.279673,2.675,3.14946
-1.62999,0.279673,2.675,3.14495
-1.60858,0.277477,2.654,3.11581
-1.58731,0.275282,2.633,3.08675
-1.57876,0.275282,2.633,3.08236
-1.54636,0.2711,2.593,3.03123
-1.51541,0.267127,2.555,2.98259
-1.50711,0.267127,2.555,2.97838
-1.47653,0.263154,2.517,2.92996
-1.44736,0.25939,2.481,2.88401
-1.43931,0.25939,2.481,2.87997
-1.41049,0.255626,2.445,2.83423
-1.38305,0.252072,2.411,2.79093
-1.37522,0.252072,2.411,2.78706
-1.35775,0.250294,2.394,2.76358
-1.33137,0.246844,2.361,2.72173
-1.32371,0.246844,2.361,2.71799
-1.31605,0.246844,2.361,2.71427
-1.30838,0.246844,2.361,2.71056
-1.30954,0.248517,2.377,2.72521
-1.30182,0.248517,2.377,2.72151
-1.29411,0.248517,2.377,2.71783
-1.30479,0.252072,2.411,2.75299
-1.31526,0.255626,2.445,2.78806
-1.30732,0.255626,2.445,2.78432
-1.31852,0.25939,2.481,2.82155
-1.32948,0.263154,2.517,2.85868
-1.34126,0.267127,2.555,2.89799
-1.33296,0.267127,2.555,2.89416
-1.33452,0.269113,2.574,2.91185
-1.34626,0.273191,2.613,2.95209
-1.33778,0.273191,2.613,2.94823
-1.35016,0.277477,2.654,2.99059
-1.35216,0.279673,2.675,3.01034
-1.35402,0.281868,2.696,3.03006
-1.34527,0.281868,2.696,3.02616
-1.35784,0.286364,2.739,3.07048
-1.34895,0.286364,2.739,3.06656
-1.32929,0.284064,2.717,3.03806
-1.32047,0.284064,2.717,3.03421
-1.31166,0.284064,2.717,3.03038
-1.30284,0.284064,2.717,3.02658
-1.28402,0.281868,2.696,2.99943
-1.26533,0.279673,2.675,2.97236
-1.25665,0.279673,2.675,2.96867
-1.23817,0.277477,2.654,2.94173
-1.21056,0.273191,2.613,2.89273
-1.20208,0.273191,2.613,2.88919
-1.17578,0.269113,2.574,2.8426
-1.1502,0.26514,2.536,2.79724
-1.14196,0.26514,2.536,2.79386
-1.11719,0.261272,2.499,2.7498
-1.10908,0.261272,2.499,2.74651
-1.10097,0.261272,2.499,2.74325
-1.07712,0.257508,2.463,2.70053
-1.06912,0.257508,2.463,2.69735
-1.06113,0.257508,2.463,2.69419
-1.04544,0.255626,2.445,2.67139
-1.0375,0.255626,2.445,2.66829
-1.02956,0.255626,2.445,2.66522
-1.02163,0.255626,2.445,2.66216
-1.01369,0.255626,2.445,2.65912
-1.01316,0.257508,2.463,2.67566
-1.00517,0.257508,2.463,2.67265
-0.997172,0.257508,2.463,2.66965
-0.989178,0.257508,2.463,2.66667
-0.981184,0.257508,2.463,2.66372
-0.973189,0.257508,2.463,2.66078
-0.972249,0.25939,2.481,2.6773
-0.964196,0.25939,2.481,2.67438
-0.956143,0.25939,2.481,2.67149
-0.948091,0.25939,2.481,2.66862
-0.933218,0.257508,2.463,2.64643
-0.925224,0.257508,2.463,2.64362
-0.917229,0.257508,2.463,2.64083
-0.909235,0.257508,2.463,2.63807
-0.901241,0.257508,2.463,2.63532
-0.893246,0.257508,2.463,2.6326
-0.885252,0.257508,2.463,2.6299
-0.877258,0.257508,2.463,2.62722
-0.862911,0.255626,2.445,2.60538
-0.854975,0.255626,2.445,2.60276
-0.847039,0.255626,2.445,2.60016
-0.839103,0.255626,2.445,2.59759
-0.831167,0.255626,2.445,2.59504
-0.823232,0.255626,2.445,2.5925
-0.815296,0.255626,2.445,2.59
-0.80736,0.255626,2.445,2.58751
-0.799424,0.255626,2.445,2.58504
-0.791488,0.255626,2.445,2.5826
-0.783552,0.255626,2.445,2.58018
-0.775616,0.255626,2.445,2.57778
-0.767681,0.255626,2.445,2.5754
-0.759745,0.255626,2.445,2.57305
-0.751809,0.255626,2.445,2.57072
-0.743873,0.255626,2.445,2.56841
-0.741355,0.257508,2.463,2.58501
-0.733361,0.257508,2.463,2.58273
-0.725366,0.257508,2.463,2.58047
-0.717372,0.257508,2.463,2.57824
-0.709378,0.257508,2.463,2.57602
-0.701384,0.257508,2.463,2.57383
-0.693389,0.257508,2.463,2.57167
-0.685395,0.257508,2.463,2.56952
-0.677401,0.257508,2.463,2.5674
-0.674299,0.25939,2.481,2.58405
-0.666246,0.25939,2.481,2.58196
-0.658193,0.25939,2.481,2.5799
-0.65014,0.25939,2.481,2.57785
-0.642088,0.25939,2.481,2.57583
-0.634035,0.25939,2.481,2.57384
-0.625982,0.25939,2.481,2.57187
-0.61793,0.25939,2.481,2.56992
-0.609877,0.25939,2.481,2.56799
-0.601824,0.25939,2.481,2.56609
-0.598079,0.261272,2.499,2.58282
-0.589968,0.261272,2.499,2.58095
-0.581857,0.261272,2.499,2.57911
-0.573746,0.261272,2.499,2.57729
-0.565635,0.261272,2.499,2.5755
-0.557524,0.261272,2.499,2.57373
-0.549413,0.261272,2.499,2.57199
-0.541301,0.261272,2.499,2.57027
-0.53319,0.261272,2.499,2.56857
-0.525079,0.261272,2.499,2.5669
-0.516968,0.261272,2.499,2.56525
-0.508857,0.261272,2.499,2.56363
-0.500746,0.261272,2.499,2.56203
-0.492635,0.261272,2.499,2.56046
-0.484524,0.261272,2.499,2.55891
-0.476412,0.261272,2.499,2.55739
-0.468301,0.261272,2.499,2.55589
-0.46019,0.261272,2.499,2.55442
-0.452079,0.261272,2.499,2.55297
-0.443968,0.261272,2.499,2.55154
-0.435857,0.261272,2.499,2.55014
-0.427746,0.261272,2.499,2.54877
-0.419634,0.261272,2.499,2.54742
-0.411523,0.261272,2.499,2.5461
-0.403412,0.261272,2.499,2.5448
-0.395301,0.261272,2.499,2.54353
-0.38719,0.261272,2.499,2.54228
-0.381809,0.263154,2.517,2.55936
-0.37364,0.263154,2.517,2.55815
-0.36547,0.263154,2.517,2.55697
-0.357301,0.263154,2.517,2.55582
-0.349131,0.263154,2.517,2.55469
-0.343535,0.26514,2.536,2.57286
-0.335304,0.26514,2.536,2.57177
-0.327073,0.26514,2.536,2.57071
-0.318842,0.26514,2.536,2.56968
-0.31061,0.26514,2.536,2.56867
-0.302379,0.26514,2.536,2.56769
-0.294148,0.26514,2.536,2.56673
-0.285917,0.26514,2.536,2.5658
-0.277685,0.26514,2.536,2.5649
-0.269454,0.26514,2.536,2.56402
-0.261223,0.26514,2.536,2.56317
-0.254887,0.267127,2.555,2.58154
-0.246594,0.267127,2.555,2.58073
-0.238301,0.267127,2.555,2.57996
-0.230009,0.267127,2.555,2.5792
-0.221716,0.267127,2.555,2.57848
-0.213423,0.267127,2.555,2.57778
-0.20513,0.267127,2.555,2.5771
-0.196837,0.267127,2.555,2.57646
-0.188544,0.267127,2.555,2.57584
-0.180251,0.267127,2.555,2.57524
-0.171958,0.267127,2.555,2.57468
-0.163665,0.267127,2.555,2.57413
-0.155372,0.267127,2.555,2.57362
-0.14708,0.267127,2.555,2.57313
-0.138787,0.267127,2.555,2.57267
-0.130494,0.267127,2.555,2.57224
-0.12311,0.269113,2.574,2.59096
-0.114755,0.269113,2.574,2.59057
-0.1064,0.269113,2.574,2.59022
-0.0980459,0.269113,2.574,2.58989
-0.0896914,0.269113,2.574,2.58958
-0.0813368,0.269113,2.574,2.58931
-0.0729822,0.269113,2.574,2.58906
-0.0646277,0.269113,2.574,2.58884
-0.0562731,0.269113,2.574,2.58864
-0.0479185,0.269113,2.574,2.58847
-0.0392719,0.267127,2.555,2.56923
-0.030979,0.267127,2.555,2.56911
-0.0226861,0.267127,2.555,2.56903
-0.0142862,0.26514,2.536,2.54986
-0.00605498,0.26514,2.536,2.54983
0.00217625,0.26514,2.536,2.54982
0.0104075,0.26514,2.536,2.54984
0.0186387,0.26514,2.536,2.54989
0.0268699,0.26514,2.536,2.54996
0.0351011,0.26514,2.536,2.55006
0.0433324,0.26514,2.536,2.55019
0.0515636,0.26514,2.536,2.55034
0.0593468,0.263154,2.517,2.53141
0.0670336,0.261272,2.499,2.51351
0.0751447,0.261272,2.499,2.51374
0.0832558,0.261272,2.499,2.514
0.091367,0.261272,2.499,2.51428
0.100195,0.263154,2.517,2.5327
0.107589,0.261272,2.499,2.51492
0.1157,0.261272,2.499,2.51528
0.123811,0.261272,2.499,2.51567
0.130972,0.25939,2.481,2.49796
0.138016,0.257508,2.463,2.48027
0.146011,0.257508,2.463,2.48073
0.154005,0.257508,2.463,2.48121
0.160815,0.255626,2.445,2.46358
0.168751,0.255626,2.445,2.46411
0.176687,0.255626,2.445,2.46467
0.183339,0.253849,2.428,2.44811
0.19122,0.253849,2.428,2.44871
0.199101,0.253849,2.428,2.44934
0.206981,0.253849,2.428,2.44999
0.214862,0.253849,2.428,2.45067
0.222743,0.253849,2.428,2.45137
0.230623,0.253849,2.428,2.4521
0.238504,0.253849,2.428,2.45286
0.246385,0.253849,2.428,2.45364
0.256046,0.255626,2.445,2.47163
0.263982,0.255626,2.445,2.47246
nan,nan,nan,NaN
nan,nan,nan,NaN
nan,nan,nan,NaN
nan,nan,nan,NaN
nan,nan,nan,NaN
nan,nan,nan,NaN
nan,nan,nan,NaN
nan,nan,nan,NaN
nan,nan,nan,NaN
nan,nan,nan,NaN
nan,nan,nan,NaN
nan,nan,nan,NaN
nan,nan,nan,NaN
nan,nan,nan,NaN
nan,nan,nan,NaN
nan,nan,nan,NaN
nan,nan,nan,NaN
nan,nan,nan,NaN
nan,nan,nan,NaN
nan,nan,nan,NaN
nan,nan,nan,NaN
nan,nan,nan,NaN
nan,nan,nan,NaN
nan,nan,nan,NaN
nan,nan,nan,NaN
nan,nan,nan,NaN
0.47825,0.255626,2.445,2.50441
0.486186,0.255626,2.445,2.50594
0.494122,0.255626,2.445,2.50749
0.498567,0.253849,2.428,2.49162
0.506447,0.253849,2.428,2.49321
0.510727,0.252072,2.411,2.47736
0.518552,0.252072,2.411,2.47898
nan,nan,nan,NaN
0.534203,0.252072,2.411,2.4823
0.538207,0.250294,2.394,2.46649
0.5421,0.248517,2.377,2.45067
0.549816,0.248517,2.377,2.45238
0.557531,0.248517,2.377,2.45413
0.565246,0.248517,2.377,2.45589
nan,nan,nan,NaN
0.572859,0.245171,2.345,2.42638
0.57651,0.243498,2.329,2.41162
0.584069,0.243498,2.329,2.41343
0.583754,0.240257,2.298,2.38313
0.591212,0.240257,2.298,2.38497
0.598671,0.240257,2.298,2.38683
0.60613,0.240257,2.298,2.38871
0.609316,0.238585,2.282,2.37397
0.616723,0.238585,2.282,2.37588
0.62413,0.238585,2.282,2.37781
0.631537,0.238585,2.282,2.37977
0.638943,0.238585,2.282,2.38174
0.650882,0.240257,2.298,2.40045
0.653757,0.238585,2.282,2.38576
0.661164,0.238585,2.282,2.3878
0.668571,0.238585,2.282,2.38986
0.675978,0.238585,2.282,2.39194
0.683384,0.238585,2.282,2.39405
0.690791,0.238585,2.282,2.39617
0.693609,0.237016,2.267,2.38255
0.700967,0.237016,2.267,2.38471
0.713012,0.238585,2.282,2.40267
0.720418,0.238585,2.282,2.40488
0.723041,0.237016,2.267,2.39129
0.730399,0.237016,2.267,2.39352
0.737757,0.237016,2.267,2.39578
0.740185,0.235448,2.252,2.38219
0.742516,0.23388,2.237,2.36859
0.749777,0.23388,2.237,2.37087
0.757037,0.23388,2.237,2.37318
nan,nan,nan,NaN
nan,nan,nan,NaN
0.794486,0.238585,2.282,2.4281
0.801893,0.238585,2.282,2.43053
0.820294,0.241826,2.313,2.46604
0.839254,0.245171,2.345,2.50269
0.841087,0.243498,2.329,2.48816
0.848646,0.243498,2.329,2.49073
0.856206,0.243498,2.329,2.49332
0.863765,0.243498,2.329,2.49592
0.871324,0.243498,2.329,2.49855
0.878884,0.243498,2.329,2.50119
0.886443,0.243498,2.329,2.50386
0.894003,0.243498,2.329,2.50655
0.901562,0.243498,2.329,2.50925
0.909121,0.243498,2.329,2.51198
0.916681,0.243498,2.329,2.51472
0.930589,0.245171,2.345,2.53478
0.944602,0.246844,2.361,2.5549
0.952265,0.246844,2.361,2.55775
0.973346,0.250294,2.394,2.5964
0.981116,0.250294,2.394,2.59932
0.988886,0.250294,2.394,2.60226
1.00373,0.252072,2.411,2.62373
1.01869,0.253849,2.428,2.64525
1.02657,0.253849,2.428,2.6483
1.0417,0.255626,2.445,2.66993
1.05736,0.257508,2.463,2.69271
1.06535,0.257508,2.463,2.69586
1.07335,0.257508,2.463,2.69903
1.08924,0.25939,2.481,2.72197
1.0973,0.25939,2.481,2.7252
1.09733,0.257508,2.463,2.70866
1.10533,0.257508,2.463,2.7119
1.11332,0.257508,2.463,2.71517
1.12131,0.257508,2.463,2.71846
1.12105,0.255626,2.445,2.70188
1.12899,0.255626,2.445,2.70518
1.13693,0.255626,2.445,2.7085
1.14486,0.255626,2.445,2.71184
1.14478,0.253849,2.428,2.69632
1.15266,0.253849,2.428,2.69968
1.15242,0.252072,2.411,2.68413
1.15206,0.250294,2.394,2.66855
1.15983,0.250294,2.394,2.67191
1.1676,0.250294,2.394,2.67529
1.16703,0.248517,2.377,2.65967
1.17474,0.248517,2.377,2.66306
1.18246,0.248517,2.377,2.66648
1.19017,0.248517,2.377,2.66991
1.19789,0.248517,2.377,2.67335
1.2056,0.248517,2.377,2.67682
1.21332,0.248517,2.377,2.6803
1.22103,0.248517,2.377,2.68381
1.22875,0.248517,2.377,2.68732
1.24531,0.250294,2.394,2.71011
1.26198,0.252072,2.411,2.73296
1.28771,0.255626,2.445,2.77517
1.29564,0.255626,2.445,2.77886
1.32277,0.25939,2.481,2.82354
1.36033,0.26514,2.536,2.89
1.36856,0.26514,2.536,2.89388
1.39742,0.269113,2.574,2.9412
1.438,0.275282,2.633,3.01269
1.46962,0.279673,2.675,3.0649
1.4783,0.279673,2.675,3.06907
1.53479,0.288664,2.761,3.17207
1.55605,0.290964,2.783,3.20173
1.55271,0.288664,2.761,3.18078
1.56167,0.288664,2.761,3.18516
1.58315,0.290964,2.783,3.21498
1.59218,0.290964,2.783,3.21944
1.58856,0.288664,2.761,3.19843
1.59752,0.288664,2.761,3.20289
1.59368,0.286364,2.739,3.18181
1.5897,0.284064,2.717,3.16068
1.58616,0.281868,2.696,3.14067
1.59491,0.281868,2.696,3.14509
1.59117,0.279673,2.675,3.12501
1.58729,0.277477,2.654,3.10487
1.59591,0.277477,2.654,3.10928
1.59183,0.275282,2.633,3.08907
1.58822,0.273191,2.613,3.06999
1.5967,0.273191,2.613,3.07439
1.59289,0.2711,2.593,3.05523
1.58958,0.269113,2.574,3.03721
1.59793,0.269113,2.574,3.04159
1.59443,0.267127,2.555,3.02351
1.57888,0.263154,2.517,2.98285
1.58705,0.263154,2.517,2.98719
1.58382,0.261272,2.499,2.97014
1.58046,0.25939,2.481,2.95305
1.57699,0.257508,2.463,2.93591
1.58498,0.257508,2.463,2.94021
1.59298,0.257508,2.463,2.94453
1.57822,0.253849,2.428,2.90696
1.5861,0.253849,2.428,2.91124
1.58282,0.252072,2.411,2.89513
1.57943,0.250294,2.394,2.87897
1.5872,0.250294,2.394,2.88324
1.59497,0.250294,2.394,2.88753
1.59136,0.248517,2.377,2.87129
1.59908,0.248517,2.377,2.87558
1.59598,0.246844,2.361,2.86049
1.59277,0.245171,2.345,2.84536
-1.74613,0.271321,2.517,3.07536
-1.75107,0.273369,2.536,3.09391
-1.7559,0.275417,2.555,3.11241
-1.74761,0.275417,2.555,3.10773
-1.75225,0.277465,2.574,3.12615
-1.75677,0.279514,2.593,3.14452
-1.76184,0.28167,2.613,3.16404
-1.75336,0.28167,2.613,3.15933
-1.75823,0.283825,2.633,3.17878
-1.77759,0.288353,2.675,3.22469
-1.76891,0.288353,2.675,3.21991
-1.77405,0.290617,2.696,3.24039
-1.77905,0.29288,2.717,3.26081
-1.77023,0.29288,2.717,3.25601
-1.77567,0.295252,2.739,3.27755
-1.76678,0.295252,2.739,3.27274
-1.75789,0.295252,2.739,3.26795
-1.749,0.295252,2.739,3.26317
-1.74011,0.295252,2.739,3.25842
-1.73122,0.295252,2.739,3.25368
-1.72233,0.295252,2.739,3.24896
-1.69968,0.29288,2.717,3.21819
-1.69086,0.29288,2.717,3.21355
-1.68204,0.29288,2.717,3.20891
-1.66029,0.290617,2.696,3.17953
-1.65154,0.290617,2.696,3.17497
-1.64279,0.290617,2.696,3.17043
-1.62131,0.288353,2.675,3.14125
-1.58731,0.283825,2.633,3.08752
-1.57876,0.283825,2.633,3.08314
-1.54636,0.279514,2.593,3.032
-1.51541,0.275417,2.555,2.98334
-1.50711,0.275417,2.555,2.97914
-1.47653,0.271321,2.517,2.93071
-1.44736,0.267441,2.481,2.88474
-1.43931,0.267441,2.481,2.88071
-1.41049,0.26356,2.445,2.83495
-1.38305,0.259895,2.411,2.79165
-1.37522,0.259895,2.411,2.78778
-1.35775,0.258062,2.394,2.76429
-1.33137,0.254505,2.361,2.72243
-1.32371,0.254505,2.361,2.7187
-1.31605,0.254505,2.361,2.71497
-1.30838,0.254505,2.361,2.71127
-1.30954,0.25623,2.377,2.72593
-1.31113,0.258062,2.394,2.7417
-1.30336,0.258062,2.394,2.73799
-1.30479,0.259895,2.411,2.75371
-1.31526,0.26356,2.445,2.7888
-1.30732,0.26356,2.445,2.78506
-1.31852,0.267441,2.481,2.8223
-1.32948,0.271321,2.517,2.85944
-1.34126,0.275417,2.555,2.89877
-1.33296,0.275417,2.555,2.89494
-1.34437,0.279514,2.593,2.93413
-1.35656,0.283825,2.633,2.97549
-1.34802,0.283825,2.633,2.9716
-1.36084,0.288353,2.675,3.01507
-1.36277,0.290617,2.696,3.0348
-1.36457,0.29288,2.717,3.05449
-1.35575,0.29288,2.717,3.05056
-1.35784,0.295252,2.739,3.07132
-1.34895,0.295252,2.739,3.0674
-1.34006,0.295252,2.739,3.0635
-1.33117,0.295252,2.739,3.05962
-1.32228,0.295252,2.739,3.05577
-1.30284,0.29288,2.717,3.02742
-1.28402,0.290617,2.696,3.00026
-1.26533,0.288353,2.675,2.97319
-1.25665,0.288353,2.675,2.9695
-1.22837,0.283825,2.633,2.91927
-1.2013,0.279514,2.593,2.87139
-1.19288,0.279514,2.593,2.86788
-1.16711,0.275417,2.555,2.82241
-1.1502,0.273369,2.536,2.79803
-1.14196,0.273369,2.536,2.79466
-1.11719,0.269381,2.499,2.75058
-1.10109,0.267441,2.481,2.72751
-1.09304,0.267441,2.481,2.72427
-1.07712,0.2655,2.463,2.7013
-1.06131,0.26356,2.445,2.67841
-1.05337,0.26356,2.445,2.67527
-1.04544,0.26356,2.445,2.67216
-1.0375,0.26356,2.445,2.66906
-1.02956,0.26356,2.445,2.66599
-1.02163,0.26356,2.445,2.66293
-1.01369,0.26356,2.445,2.6599
-1.01316,0.2655,2.463,2.67644
-1.00517,0.2655,2.463,2.67343
-0.997172,0.2655,2.463,2.67043
-0.989178,0.2655,2.463,2.66746
-0.981184,0.2655,2.463,2.6645
-0.973189,0.2655,2.463,2.66157
-0.972249,0.267441,2.481,2.67809
-0.964196,0.267441,2.481,2.67517
-0.956143,0.267441,2.481,2.67228
-0.948091,0.267441,2.481,2.66941
-0.933218,0.2655,2.463,2.64722
-0.925224,0.2655,2.463,2.64441
-0.917229,0.2655,2.463,2.64162
-0.909235,0.2655,2.463,2.63886
-0.901241,0.2655,2.463,2.63611
-0.893246,0.2655,2.463,2.63339
-0.878783,0.26356,2.445,2.61146
-0.870847,0.26356,2.445,2.60881
-0.862911,0.26356,2.445,2.60617
-0.854975,0.26356,2.445,2.60355
-0.847039,0.26356,2.445,2.60095
-0.839103,0.26356,2.445,2.59838
-0.831167,0.26356,2.445,2.59583
-0.823232,0.26356,2.445,2.5933
-0.815296,0.26356,2.445,2.59079
-0.80736,0.26356,2.445,2.5883
-0.799424,0.26356,2.445,2.58584
-0.791488,0.26356,2.445,2.5834
-0.783552,0.26356,2.445,2.58098
-0.775616,0.26356,2.445,2.57858
-0.767681,0.26356,2.445,2.5762
-0.759745,0.26356,2.445,2.57385
-0.751809,0.26356,2.445,2.57152
-0.743873,0.26356,2.445,2.56921
-0.741355,0.2655,2.463,2.58582
-0.733361,0.2655,2.463,2.58354
-0.725366,0.2655,2.463,2.58128
-0.717372,0.2655,2.463,2.57905
-0.709378,0.2655,2.463,2.57683
-0.701384,0.2655,2.463,2.57465
-0.693389,0.2655,2.463,2.57248
-0.685395,0.2655,2.463,2.57034
-0.677401,0.2655,2.463,2.56822
-0.674299,0.267441,2.481,2.58487
-0.666246,0.267441,2.481,2.58278
-0.658193,0.267441,2.481,2.58072
-0.65014,0.267441,2.481,2.57868
-0.642088,0.267441,2.481,2.57666
-0.634035,0.267441,2.481,2.57466
-0.625982,0.267441,2.481,2.57269
-0.61793,0.267441,2.481,2.57074
-0.609877,0.267441,2.481,2.56882
-0.601824,0.267441,2.481,2.56692
-0.593771,0.267441,2.481,2.56504
-0.589968,0.269381,2.499,2.58179
-0.581857,0.269381,2.499,2.57995
-0.573746,0.269381,2.499,2.57813
-0.565635,0.269381,2.499,2.57634
-0.557524,0.269381,2.499,2.57457
-0.549413,0.269381,2.499,2.57282
-0.541301,0.269381,2.499,2.5711
-0.53319,0.269381,2.499,2.56941
-0.525079,0.269381,2.499,2.56774
-0.516968,0.269381,2.499,2.56609
-0.508857,0.269381,2.499,2.56447
-0.500746,0.269381,2.499,2.56287
-0.492635,0.269381,2.499,2.5613
-0.484524,0.269381,2.499,2.55975
-0.476412,0.269381,2.499,2.55823
-0.468301,0.269381,2.499,2.55673
-0.46019,0.269381,2.499,2.55526
-0.452079,0.269381,2.499,2.55381
-0.443968,0.269381,2.499,2.55239
-0.435857,0.269381,2.499,2.55099
-0.427746,0.269381,2.499,2.54961
-0.419634,0.269381,2.499,2.54827
-0.411523,0.269381,2.499,2.54694
-0.403412,0.269381,2.499,2.54564
-0.395301,0.269381,2.499,2.54437
-0.38719,0.269381,2.499,2.54312
-0.379079,0.269381,2.499,2.5419
-0.370968,0.269381,2.499,2.54071
-0.36547,0.271321,2.517,2.55783
-0.357301,0.271321,2.517,2.55667
-0.349131,0.271321,2.517,2.55554
-0.343535,0.273369,2.536,2.57372
-0.335304,0.273369,2.536,2.57264
-0.327073,0.273369,2.536,2.57158
-0.318842,0.273369,2.536,2.57054
-0.31061,0.273369,2.536,2.56953
-0.302379,0.273369,2.536,2.56855
-0.294148,0.273369,2.536,2.5676
-0.285917,0.273369,2.536,2.56667
-0.277685,0.273369,2.536,2.56576
-0.269454,0.273369,2.536,2.56488
-0.261223,0.273369,2.536,2.56403
-0.254887,0.275417,2.555,2.58241
-0.244761,0.273369,2.536,2.56241
-0.236529,0.273369,2.536,2.56163
-0.228298,0.273369,2.536,2.56089
-0.221716,0.275417,2.555,2.57935
-0.213423,0.275417,2.555,2.57865
-0.20513,0.275417,2.555,2.57798
-0.196837,0.275417,2.555,2.57733
-0.188544,0.275417,2.555,2.57671
-0.180251,0.275417,2.555,2.57612
-0.171958,0.275417,2.555,2.57555
-0.163665,0.275417,2.555,2.57501
-0.155372,0.275417,2.555,2.57449
-0.14708,0.275417,2.555,2.57401
-0.138787,0.275417,2.555,2.57355
-0.130494,0.275417,2.555,2.57311
-0.12311,0.277465,2.574,2.59184
-0.114755,0.277465,2.574,2.59145
-0.1064,0.277465,2.574,2.5911
-0.0980459,0.277465,2.574,2.59077
-0.0896914,0.277465,2.574,2.59046
-0.0813368,0.277465,2.574,2.59019
-0.0729822,0.277465,2.574,2.58994
-0.0646277,0.277465,2.574,2.58972
-0.0562731,0.277465,2.574,2.58952
-0.0479185,0.277465,2.574,2.58936
-0.0392719,0.275417,2.555,2.5701
-0.030979,0.275417,2.555,2.56999
-0.0226861,0.275417,2.555,2.5699
-0.0142862,0.273369,2.536,2.55073
-0.00605498,0.273369,2.536,2.5507
0.00217625,0.273369,2.536,2.55069
0.0104075,0.273369,2.536,2.55071
0.0186387,0.273369,2.536,2.55076
0.0268699,0.273369,2.536,2.55083
0.0351011,0.273369,2.536,2.55093
0.0433324,0.273369,2.536,2.55106
0.0515636,0.273369,2.536,2.55121
0.0593468,0.271321,2.517,2.53228
0.0670336,0.269381,2.499,2.51437
0.0751447,0.269381,2.499,2.5146
0.0832558,0.269381,2.499,2.51486
0.091367,0.269381,2.499,2.51514
0.100195,0.271321,2.517,2.53356
0.107589,0.269381,2.499,2.51578
0.1157,0.269381,2.499,2.51614
0.123811,0.269381,2.499,2.51652
0.130972,0.267441,2.481,2.49881
0.138016,0.2655,2.463,2.48111
0.146011,0.2655,2.463,2.48157
0.154005,0.2655,2.463,2.48205
0.160815,0.26356,2.445,2.46442
0.168751,0.26356,2.445,2.46495
0.176687,0.26356,2.445,2.4655
0.183339,0.261727,2.428,2.44894
0.19122,0.261727,2.428,2.44954
0.199101,0.261727,2.428,2.45017
0.206981,0.261727,2.428,2.45082
0.214862,0.261727,2.428,2.4515
0.222743,0.261727,2.428,2.4522
0.230623,0.261727,2.428,2.45293
0.238504,0.261727,2.428,2.45369
0.246385,0.261727,2.428,2.45446
0.256046,0.26356,2.445,2.47246
0.263982,0.26356,2.445,2.47329
0.271917,0.26356,2.445,2.47415
nan,nan,nan,NaN
nan,nan,nan,NaN
nan,nan,nan,NaN
nan,nan,nan,NaN
nan,nan,nan,NaN
nan,nan,nan,NaN
nan,nan,nan,NaN
nan,nan,nan,NaN
nan,nan,nan,NaN
nan,nan,nan,NaN
nan,nan,nan,NaN
nan,nan,nan,NaN
nan,nan,nan,NaN
nan,nan,nan,NaN
nan,nan,nan,NaN
nan,nan,nan,NaN
nan,nan,nan,NaN
nan,nan,nan,NaN
nan,nan,nan,NaN
nan,nan,nan,NaN
nan,nan,nan,NaN
nan,nan,nan,NaN
nan,nan,nan,NaN
nan,nan,nan,NaN
nan,nan,nan,NaN
0.47825,0.26356,2.445,2.50524
0.486186,0.26356,2.445,2.50676
0.494122,0.26356,2.445,2.50832
0.498567,0.261727,2.428,2.49244
0.506447,0.261727,2.428,2.49403
0.510727,0.259895,2.411,2.47817
0.518552,0.259895,2.411,2.47979
nan,nan,nan,NaN
0.534203,0.259895,2.411,2.48311
0.538207,0.258062,2.394,2.46729
0.5421,0.25623,2.377,2.45146
0.549816,0.25623,2.377,2.45318
0.557531,0.25623,2.377,2.45492
0.565246,0.25623,2.377,2.45668
nan,nan,nan,NaN
0.572859,0.25278,2.345,2.42716
0.57651,0.251056,2.329,2.41239
0.584069,0.251056,2.329,2.41421
0.583754,0.247714,2.298,2.38389
0.591212,0.247714,2.298,2.38573
0.598671,0.247714,2.298,2.38759
0.60613,0.247714,2.298,2.38947
0.609316,0.245989,2.282,2.37472
0.616723,0.245989,2.282,2.37663
0.62413,0.245989,2.282,2.37857
0.631537,0.245989,2.282,2.38052
0.638943,0.245989,2.282,2.3825
0.650882,0.247714,2.298,2.40121
0.658341,0.247714,2.298,2.40324
0.6658,0.247714,2.298,2.4053
0.677653,0.249331,2.313,2.42309
0.68516,0.249331,2.313,2.4252
0.692668,0.249331,2.313,2.42733
0.700175,0.249331,2.313,2.42948
0.703093,0.247714,2.298,2.41589
0.705605,0.245989,2.282,2.40123
0.713012,0.245989,2.282,2.40342
0.720418,0.245989,2.282,2.40563
0.723041,0.244372,2.267,2.39203
0.730399,0.244372,2.267,2.39426
0.737757,0.244372,2.267,2.39652
0.735255,0.241138,2.237,2.36705
0.742516,0.241138,2.237,2.36931
0.749777,0.241138,2.237,2.3716
0.757037,0.241138,2.237,2.3739
nan,nan,nan,NaN
nan,nan,nan,NaN
0.794486,0.245989,2.282,2.42884
0.801893,0.245989,2.282,2.43127
0.820294,0.249331,2.313,2.46678
0.833528,0.251056,2.329,2.48637
0.841087,0.251056,2.329,2.48891
0.848646,0.251056,2.329,2.49148
0.856206,0.251056,2.329,2.49406
0.863765,0.251056,2.329,2.49667
0.871324,0.251056,2.329,2.4993
0.878884,0.251056,2.329,2.50194
0.886443,0.251056,2.329,2.50461
0.887861,0.249331,2.313,2.49007
0.895368,0.249331,2.313,2.49275
0.902876,0.249331,2.313,2.49546
0.916681,0.251056,2.329,2.51547
0.930589,0.25278,2.345,2.53553
0.944602,0.254505,2.361,2.55565
0.952265,0.254505,2.361,2.5585
0.966434,0.25623,2.377,2.57872
0.981116,0.258062,2.394,2.60008
0.988886,0.258062,2.394,2.60302
1.00373,0.259895,2.411,2.62449
1.02582,0.26356,2.445,2.66455
1.03376,0.26356,2.445,2.66761
1.04937,0.2655,2.463,2.69036
1.06509,0.267441,2.481,2.71317
1.08093,0.269381,2.499,2.73605
1.08904,0.269381,2.499,2.73926
1.09715,0.269381,2.499,2.7425
1.10526,0.269381,2.499,2.74575
1.11337,0.269381,2.499,2.74903
1.1134,0.267441,2.481,2.7325
1.12146,0.267441,2.481,2.73579
1.12951,0.267441,2.481,2.7391
1.13756,0.267441,2.481,2.74243
1.14561,0.267441,2.481,2.74578
1.1453,0.2655,2.463,2.72921
1.15329,0.2655,2.463,2.73257
1.1528,0.26356,2.445,2.71596
1.16073,0.26356,2.445,2.71934
1.16054,0.261727,2.428,2.7038
1.16842,0.261727,2.428,2.70719
1.17631,0.261727,2.428,2.71061
1.1759,0.259895,2.411,2.69503
1.18372,0.259895,2.411,2.69846
1.19155,0.259895,2.411,2.7019
1.19937,0.259895,2.411,2.70536
1.19869,0.258062,2.394,2.68974
1.20646,0.258062,2.394,2.69321
1.21423,0.258062,2.394,2.6967
1.222,0.258062,2.394,2.70021
1.22977,0.258062,2.394,2.70373
1.24632,0.259895,2.411,2.7265
1.25415,0.259895,2.411,2.73008
1.27087,0.261727,2.428,2.75296
1.29719,0.2655,2.463,2.79635
1.30518,0.2655,2.463,2.80006
1.33237,0.269381,2.499,2.84478
1.37052,0.275417,2.555,2.91242
1.37881,0.275417,2.555,2.91633
1.40774,0.279514,2.593,2.9637
1.44947,0.286089,2.654,3.03752
1.49269,0.29288,2.717,3.11384
1.50151,0.29288,2.717,3.11808
1.53479,0.297623,2.761,3.1729
1.55605,0.299995,2.783,3.20256
1.56508,0.299995,2.783,3.20696
1.60014,0.304953,2.829,3.26446
1.62297,0.30754,2.853,3.2967
1.6185,0.304953,2.829,3.2735
1.61445,0.302474,2.806,3.2514
1.61025,0.299995,2.783,3.22924
1.61928,0.299995,2.783,3.23375
1.61544,0.297623,2.761,3.21269
1.61146,0.295252,2.739,3.19157
1.62035,0.295252,2.739,3.19607
1.61616,0.29288,2.717,3.17487
1.59985,0.288353,2.675,3.13022
1.60854,0.288353,2.675,3.13467
1.60452,0.286089,2.654,3.11449
1.60037,0.283825,2.633,3.09426
1.60892,0.283825,2.633,3.09869
1.60518,0.28167,2.613,3.07956
1.60131,0.279514,2.593,3.06039
1.60973,0.279514,2.593,3.0648
1.59443,0.275417,2.555,3.02425
1.5908,0.273369,2.536,3.00611
1.59903,0.273369,2.536,3.01047
1.58382,0.269381,2.499,2.97087
1.59193,0.269381,2.499,2.9752
1.57699,0.2655,2.463,2.93662
1.58498,0.2655,2.463,2.94092
1.59298,0.2655,2.463,2.94524
1.57822,0.261727,2.428,2.90766
1.5861,0.261727,2.428,2.91194
1.58282,0.259895,2.411,2.89582
1.57943,0.258062,2.394,2.87966
1.5872,0.258062,2.394,2.88393
1.59497,0.258062,2.394,2.88821
1.59136,0.25623,2.377,2.87197
1.59908,0.25623,2.377,2.87625
1.59598,0.254505,2.361,2.86116
1.59277,0.25278,2.345,2.84602
-1.74613,0.279488,2.517,3.07609
-1.75107,0.281598,2.536,3.09465
-1.7559,0.283708,2.555,3.11315
-1.74761,0.283708,2.555,3.10848
-1.75225,0.285818,2.574,3.12691
-1.75677,0.287927,2.593,3.14528
-1.76184,0.290148,2.613,3.16481
-1.75336,0.290148,2.613,3.1601
-1.75823,0.292369,2.633,3.17955
-1.77759,0.297033,2.675,3.22548
-1.76891,0.297033,2.675,3.2207
-1.77405,0.299365,2.696,3.24118
-1.79345,0.304139,2.739,3.28802
-1.78456,0.304139,2.739,3.28318
-1.77567,0.304139,2.739,3.27836
