2.02452,-1.19098,3.642,4.33374
2.03634,-1.19098,3.642,4.33927
2.0701,-1.20373,3.681,4.39136
2.08204,-1.20373,3.681,4.397
2.09399,-1.20373,3.681,4.40267
2.10594,-1.20373,3.681,4.40837
2.11789,-1.20373,3.681,4.41409
2.12983,-1.20373,3.681,4.41983
2.14178,-1.20373,3.681,4.4256
2.13091,-1.19098,3.642,4.38445
2.14273,-1.19098,3.642,4.3902
2.13207,-1.17855,3.604,4.35012
2.12117,-1.16613,3.566,4.30994
2.13274,-1.16613,3.566,4.31565
2.12207,-1.15403,3.529,4.27654
2.0906,-1.13081,3.458,4.19608
2.10182,-1.13081,3.458,4.20168
2.09166,-1.11936,3.423,4.16472
2.06161,-1.09745,3.356,4.08869
2.0725,-1.09745,3.356,4.09419
2.0238,-1.06606,3.26,3.98244
1.97821,-1.03663,3.17,3.87774
1.95212,-1.01766,3.112,3.81195
1.96222,-1.01766,3.112,3.81713
1.93746,-0.999678,3.057,3.75478
1.91299,-0.982019,3.003,3.69349
1.92273,-0.982019,3.003,3.69855
1.91575,-0.973517,2.977,3.67156
1.89243,-0.956839,2.926,3.61363
1.90192,-0.956839,2.926,3.61861
1.89509,-0.948664,2.901,3.59265
1.88875,-0.940815,2.877,3.56786
1.89809,-0.940815,2.877,3.57281
1.89151,-0.932967,2.853,3.54794
1.90077,-0.932967,2.853,3.55288
1.91004,-0.932967,2.853,3.55785
1.90315,-0.925119,2.829,3.53286
1.89678,-0.917597,2.806,3.50905
1.90589,-0.917597,2.806,3.51398
-2.19913,-1.02634,3.17,3.9923
-2.18884,-1.02634,3.17,3.98664
-2.19848,-1.03573,3.199,4.01742
-2.1881,-1.03573,3.199,4.01175
-2.17772,-1.03573,3.199,4.0061
-2.16734,-1.03573,3.199,4.00046
-2.17785,-1.04577,3.23,4.03356
-2.16737,-1.04577,3.23,4.02791
-2.15689,-1.04577,3.23,4.02227
-2.1464,-1.04577,3.23,4.01666
-2.15576,-1.05548,3.26,4.04833
-2.14518,-1.05548,3.26,4.0427
-2.13459,-1.05548,3.26,4.0371
-2.14486,-1.06584,3.292,4.07108
-2.13418,-1.06584,3.292,4.06546
-2.12349,-1.06584,3.292,4.05987
-2.13335,-1.0762,3.324,4.0937
-2.12256,-1.0762,3.324,4.08809
-2.11177,-1.0762,3.324,4.08249
-2.10098,-1.0762,3.324,4.07692
-2.09019,-1.0762,3.324,4.07137
-2.0794,-1.0762,3.324,4.06585
-2.06861,-1.0762,3.324,4.06034
-2.05782,-1.0762,3.324,4.05485
-2.04703,-1.0762,3.324,4.04939
-2.03625,-1.0762,3.324,4.04394
-2.02546,-1.0762,3.324,4.03852
nan,nan,nan,NaN
nan,nan,nan,NaN
nan,nan,nan,NaN
nan,nan,nan,NaN
nan,nan,nan,NaN
nan,nan,nan,NaN
nan,nan,nan,NaN
nan,nan,nan,NaN
nan,nan,nan,NaN
nan,nan,nan,NaN
nan,nan,nan,NaN
nan,nan,nan,NaN
nan,nan,nan,NaN
nan,nan,nan,NaN
nan,nan,nan,NaN
nan,nan,nan,NaN
nan,nan,nan,NaN
nan,nan,nan,NaN
nan,nan,nan,NaN
nan,nan,nan,NaN
nan,nan,nan,NaN
nan,nan,nan,NaN
nan,nan,nan,NaN
nan,nan,nan,NaN
nan,nan,nan,NaN
-1.49769,-0.92371,2.853,3.352
-1.48843,-0.92371,2.853,3.34788
-1.46673,-0.915939,2.829,3.31564
-1.45755,-0.915939,2.829,3.31159
-1.44836,-0.915939,2.829,3.30756
-1.42748,-0.908493,2.806,3.27669
-1.39563,-0.893923,2.761,3.22025
-1.38667,-0.893923,2.761,3.21637
-1.35575,-0.879677,2.717,3.16133
-1.33652,-0.872878,2.696,3.13315
-1.32777,-0.872878,2.696,3.12943
-1.31902,-0.872878,2.696,3.12572
nan,nan,nan,NaN
-1.26145,-0.846005,2.613,3.02237
-1.25297,-0.846005,2.613,3.01884
-1.23496,-0.83953,2.593,2.99225
-1.21756,-0.833378,2.574,2.96689
-1.2092,-0.833378,2.574,2.96347
-1.20085,-0.833378,2.574,2.96007
nan,nan,nan,NaN
nan,nan,nan,NaN
nan,nan,nan,NaN
nan,nan,nan,NaN
nan,nan,nan,NaN
nan,nan,nan,NaN
nan,nan,nan,NaN
nan,nan,nan,NaN
nan,nan,nan,NaN
-1.02485,-0.764416,2.361,2.68495
-1.01718,-0.764416,2.361,2.68204
-1.02363,-0.7751,2.394,2.71658
-1.01586,-0.7751,2.394,2.71367
-1.01525,-0.780604,2.411,2.73002
-1.01452,-0.786108,2.428,2.74635
-1.00664,-0.786108,2.428,2.74344
-1.00576,-0.791612,2.445,2.75975
-0.997821,-0.791612,2.445,2.75687
-0.997172,-0.79744,2.463,2.77428
-0.981949,-0.791612,2.445,2.75116
-0.974013,-0.791612,2.445,2.74834
-0.966077,-0.791612,2.445,2.74554
-0.958141,-0.791612,2.445,2.74276
-0.943599,-0.786108,2.428,2.72094
-0.935718,-0.786108,2.428,2.71822
-0.914845,-0.7751,2.394,2.67749
-0.900633,-0.769596,2.377,2.65585
-0.892918,-0.769596,2.377,2.65325
-0.879244,-0.764416,2.361,2.63282
-0.871581,-0.764416,2.361,2.63027
-0.869772,-0.769596,2.377,2.64555
-0.862057,-0.769596,2.377,2.64302
-0.854342,-0.769596,2.377,2.64051
-0.852682,-0.7751,2.394,2.65689
-0.844912,-0.7751,2.394,2.65441
-0.837141,-0.7751,2.394,2.65195
-0.829371,-0.7751,2.394,2.6495
-0.827435,-0.780604,2.411,2.66588
-0.819609,-0.780604,2.411,2.66346
-0.811784,-0.780604,2.411,2.66106
-0.803958,-0.780604,2.411,2.65869
-0.801746,-0.786108,2.428,2.67506
-0.793866,-0.786108,2.428,2.67271
-0.785985,-0.786108,2.428,2.67038
-0.778104,-0.786108,2.428,2.66807
-0.770224,-0.786108,2.428,2.66578
-0.762343,-0.786108,2.428,2.66352
-0.754462,-0.786108,2.428,2.66127
-0.746581,-0.786108,2.428,2.65905
-0.738701,-0.786108,2.428,2.65685
-0.735937,-0.791612,2.445,2.67325
-0.728001,-0.791612,2.445,2.67108
-0.720065,-0.791612,2.445,2.66893
-0.712129,-0.791612,2.445,2.6668
-0.704194,-0.791612,2.445,2.66469
-0.696258,-0.791612,2.445,2.6626
-0.688322,-0.791612,2.445,2.66054
-0.685395,-0.79744,2.463,2.67807
-0.677401,-0.79744,2.463,2.67603
-0.669406,-0.79744,2.463,2.67402
-0.661412,-0.79744,2.463,2.67203
-0.653418,-0.79744,2.463,2.67006
-0.645424,-0.79744,2.463,2.66812
-0.637429,-0.79744,2.463,2.66619
-0.629435,-0.79744,2.463,2.6643
-0.621441,-0.79744,2.463,2.66242
-0.613446,-0.79744,2.463,2.66056
-0.609877,-0.803268,2.481,2.67816
-0.601824,-0.803268,2.481,2.67634
-0.593771,-0.803268,2.481,2.67454
-0.585719,-0.803268,2.481,2.67276
-0.573475,-0.79744,2.463,2.65163
-0.565481,-0.79744,2.463,2.64991
-0.553412,-0.791612,2.445,2.62887
-0.545476,-0.791612,2.445,2.62721
-0.53754,-0.791612,2.445,2.62557
-0.529605,-0.791612,2.445,2.62396
-0.521669,-0.791612,2.445,2.62237
-0.510161,-0.786108,2.428,2.60258
-0.50228,-0.786108,2.428,2.60105
-0.4944,-0.786108,2.428,2.59953
-0.486519,-0.786108,2.428,2.59805
-0.478638,-0.786108,2.428,2.59658
-0.470758,-0.786108,2.428,2.59514
-0.459636,-0.780604,2.411,2.57556
-0.45181,-0.780604,2.411,2.57418
-0.447115,-0.786108,2.428,2.59096
-0.439235,-0.786108,2.428,2.58961
-0.431354,-0.786108,2.428,2.58828
-0.426438,-0.791612,2.445,2.6051
-0.418503,-0.791612,2.445,2.60381
-0.410567,-0.791612,2.445,2.60255
-0.402631,-0.791612,2.445,2.60131
-0.394695,-0.791612,2.445,2.60009
-0.386759,-0.791612,2.445,2.5989
-0.381612,-0.79744,2.463,2.61685
-0.373618,-0.79744,2.463,2.6157
-0.365624,-0.79744,2.463,2.61457
-0.357629,-0.79744,2.463,2.61346
-0.349635,-0.79744,2.463,2.61238
-0.341641,-0.79744,2.463,2.61132
-0.333646,-0.79744,2.463,2.61029
-0.325652,-0.79744,2.463,2.60928
-0.317658,-0.79744,2.463,2.60829
-0.309664,-0.79744,2.463,2.60733
-0.301669,-0.79744,2.463,2.60639
-0.291529,-0.791612,2.445,2.58644
-0.283593,-0.791612,2.445,2.58556
-0.275657,-0.791612,2.445,2.5847
-0.267721,-0.791612,2.445,2.58386
-0.259785,-0.791612,2.445,2.58305
-0.251849,-0.791612,2.445,2.58227
-0.243914,-0.791612,2.445,2.58151
-0.235978,-0.791612,2.445,2.58077
-0.228042,-0.791612,2.445,2.58005
-0.221726,-0.79744,2.463,2.59835
-0.213732,-0.79744,2.463,2.59768
-0.205738,-0.79744,2.463,2.59704
-0.197744,-0.79744,2.463,2.59642
-0.189749,-0.79744,2.463,2.59582
-0.183083,-0.803268,2.481,2.61422
-0.175031,-0.803268,2.481,2.61366
-0.166978,-0.803268,2.481,2.61314
-0.158925,-0.803268,2.481,2.61263
-0.150872,-0.803268,2.481,2.61216
-0.14282,-0.803268,2.481,2.6117
-0.134767,-0.803268,2.481,2.61128
-0.125795,-0.79744,2.463,2.59193
-0.117801,-0.79744,2.463,2.59155
-0.109806,-0.79744,2.463,2.5912
-0.101812,-0.79744,2.463,2.59088
-0.0938178,-0.79744,2.463,2.59058
-0.0858236,-0.79744,2.463,2.5903
-0.078398,-0.803268,2.481,2.60897
-0.0703453,-0.803268,2.481,2.60874
-0.0618407,-0.79744,2.463,2.58961
-0.0538464,-0.79744,2.463,2.58944
-0.0458521,-0.79744,2.463,2.58928
-0.0378578,-0.79744,2.463,2.58915
-0.0298635,-0.79744,2.463,2.58905
-0.0220291,-0.803268,2.481,2.60789
-0.0139764,-0.803268,2.481,2.60783
-0.00592366,-0.803268,2.481,2.6078
0.00212905,-0.803268,2.481,2.6078
0.0101818,-0.803268,2.481,2.60782
0.0182345,-0.803268,2.481,2.60786
0.0262872,-0.803268,2.481,2.60793
0.0343399,-0.803268,2.481,2.60802
0.0427002,-0.809096,2.499,2.62706
0.0508113,-0.809096,2.499,2.62721
0.0589224,-0.809096,2.499,2.62738
0.0675164,-0.814924,2.517,2.6465
0.075686,-0.814924,2.517,2.64672
0.0838555,-0.814924,2.517,2.64696
0.0920251,-0.814924,2.517,2.64724
0.100195,-0.814924,2.517,2.64753
0.108364,-0.814924,2.517,2.64785
0.116534,-0.814924,2.517,2.6482
0.125645,-0.821075,2.536,2.66857
0.133876,-0.821075,2.536,2.66897
0.142107,-0.821075,2.536,2.66939
0.149212,-0.814924,2.517,2.64984
0.157382,-0.814924,2.517,2.65031
0.165551,-0.814924,2.517,2.65081
0.173721,-0.814924,2.517,2.65133
0.18189,-0.814924,2.517,2.65188
0.19006,-0.814924,2.517,2.65245
0.198229,-0.814924,2.517,2.65305
0.204923,-0.809096,2.499,2.6347
0.213034,-0.809096,2.499,2.63534
0.221145,-0.809096,2.499,2.63601
0.229256,-0.809096,2.499,2.6367
0.239077,-0.814924,2.517,2.65642
0.245479,-0.809096,2.499,2.63816
0.25359,-0.809096,2.499,2.63893
0.261701,-0.809096,2.499,2.63972
0.269812,-0.809096,2.499,2.64054
0.277923,-0.809096,2.499,2.64138
0.286034,-0.809096,2.499,2.64224
0.294145,-0.809096,2.499,2.64313
0.302256,-0.809096,2.499,2.64405
0.310368,-0.809096,2.499,2.64499
0.320773,-0.814924,2.517,2.66501
0.328942,-0.814924,2.517,2.66601
0.337112,-0.814924,2.517,2.66703
0.345281,-0.814924,2.517,2.66807
0.353451,-0.814924,2.517,2.66914
0.36162,-0.814924,2.517,2.67024
0.36979,-0.814924,2.517,2.67135
0.37796,-0.814924,2.517,2.6725
0.386129,-0.814924,2.517,2.67367
0.394299,-0.814924,2.517,2.67486
0.405506,-0.821075,2.536,2.69627
0.413738,-0.821075,2.536,2.69752
0.421969,-0.821075,2.536,2.6988
0.4302,-0.821075,2.536,2.7001
0.438431,-0.821075,2.536,2.70142
0.446662,-0.821075,2.536,2.70277
0.454894,-0.821075,2.536,2.70414
0.463125,-0.821075,2.536,2.70554
0.471356,-0.821075,2.536,2.70696
0.479587,-0.821075,2.536,2.70841
0.487819,-0.821075,2.536,2.70988
0.492333,-0.814924,2.517,2.69106
0.500503,-0.814924,2.517,2.69256
0.508672,-0.814924,2.517,2.69409
0.516842,-0.814924,2.517,2.69565
0.521257,-0.809096,2.499,2.67794
0.529368,-0.809096,2.499,2.67953
0.537479,-0.809096,2.499,2.68114
0.54559,-0.809096,2.499,2.68278
0.549713,-0.803268,2.481,2.66511
0.557766,-0.803268,2.481,2.66678
0.565819,-0.803268,2.481,2.66847
0.569708,-0.79744,2.463,2.65082
0.577702,-0.79744,2.463,2.65255
0.585697,-0.79744,2.463,2.6543
0.589352,-0.791612,2.445,2.63667
0.597288,-0.791612,2.445,2.63845
0.605224,-0.791612,2.445,2.64026
0.608896,-0.786108,2.428,2.62372
0.616777,-0.786108,2.428,2.62556
0.624658,-0.786108,2.428,2.62742
0.632538,-0.786108,2.428,2.62931
0.640419,-0.786108,2.428,2.63121
0.652839,-0.791612,2.445,2.65158
0.660775,-0.791612,2.445,2.65354
0.668711,-0.791612,2.445,2.65553
0.676647,-0.791612,2.445,2.65754
0.684582,-0.791612,2.445,2.65957
0.692518,-0.791612,2.445,2.66163
0.705611,-0.79744,2.463,2.68331
0.713605,-0.79744,2.463,2.68543
0.721599,-0.79744,2.463,2.68756
0.724262,-0.791612,2.445,2.67006
0.732198,-0.791612,2.445,2.67223
0.740133,-0.791612,2.445,2.67441
0.753577,-0.79744,2.463,2.69632
0.767137,-0.803268,2.481,2.71829
0.775189,-0.803268,2.481,2.72057
0.783242,-0.803268,2.481,2.72288
0.791295,-0.803268,2.481,2.72521
0.799347,-0.803268,2.481,2.72756
0.813258,-0.809096,2.499,2.74973
0.821369,-0.809096,2.499,2.75214
0.82948,-0.809096,2.499,2.75457
0.837591,-0.809096,2.499,2.75703
0.845702,-0.809096,2.499,2.7595
0.853814,-0.809096,2.499,2.762
0.855716,-0.803268,2.481,2.7446
0.863769,-0.803268,2.481,2.74713
0.871822,-0.803268,2.481,2.74967
0.873491,-0.79744,2.463,2.73226
0.868959,-0.786108,2.428,2.69597
0.87684,-0.786108,2.428,2.69852
0.88472,-0.786108,2.428,2.70109
nan,nan,nan,NaN
nan,nan,nan,NaN
nan,nan,nan,NaN
nan,nan,nan,NaN
nan,nan,nan,NaN
nan,nan,nan,NaN
nan,nan,nan,NaN
nan,nan,nan,NaN
nan,nan,nan,NaN
nan,nan,nan,NaN
nan,nan,nan,NaN
nan,nan,nan,NaN
nan,nan,nan,NaN
nan,nan,nan,NaN
nan,nan,nan,NaN
nan,nan,nan,NaN
nan,nan,nan,NaN
nan,nan,nan,NaN
nan,nan,nan,NaN
nan,nan,nan,NaN
nan,nan,nan,NaN
nan,nan,nan,NaN
nan,nan,nan,NaN
nan,nan,nan,NaN
nan,nan,nan,NaN
nan,nan,nan,NaN
nan,nan,nan,NaN
nan,nan,nan,NaN
nan,nan,nan,NaN
nan,nan,nan,NaN
nan,nan,nan,NaN
nan,nan,nan,NaN
nan,nan,nan,NaN
nan,nan,nan,NaN
nan,nan,nan,NaN
nan,nan,nan,NaN
nan,nan,nan,NaN
nan,nan,nan,NaN
nan,nan,nan,NaN
nan,nan,nan,NaN
1.56252,-1.01695,3.141,3.65261
1.57271,-1.01695,3.141,3.65698
1.58291,-1.01695,3.141,3.66138
1.5931,-1.01695,3.141,3.66579
1.6033,-1.01695,3.141,3.67024
1.61349,-1.01695,3.141,3.6747
1.62369,-1.01695,3.141,3.67919
1.64897,-1.02634,3.17,3.71771
nan,nan,nan,NaN
nan,nan,nan,NaN
1.71163,-1.04577,3.23,3.80213
1.72211,-1.04577,3.23,3.80686
1.7326,-1.04577,3.23,3.81162
nan,nan,nan,NaN
nan,nan,nan,NaN
nan,nan,nan,NaN
nan,nan,nan,NaN
1.9917,-1.16686,3.604,4.27987
2.0034,-1.16686,3.604,4.28532
2.0151,-1.16686,3.604,4.2908
2.04816,-1.17916,3.642,4.34161
2.08204,-1.19179,3.681,4.39375
2.07181,-1.17916,3.642,4.35281
2.08363,-1.17916,3.642,4.35845
2.11789,-1.19179,3.681,4.41085
2.12983,-1.19179,3.681,4.4166
2.14178,-1.19179,3.681,4.42237
2.13091,-1.17916,3.642,4.38125
2.14273,-1.17916,3.642,4.38701
2.13207,-1.16686,3.604,4.34697
2.12117,-1.15456,3.566,4.30682
2.13274,-1.15456,3.566,4.31253
2.12207,-1.14258,3.529,4.27346
2.0906,-1.11959,3.458,4.19307
2.10182,-1.11959,3.458,4.19868
2.09166,-1.10826,3.423,4.16175
2.06161,-1.08656,3.356,4.08578
2.0725,-1.08656,3.356,4.09129
2.0238,-1.05548,3.26,3.97962
1.97821,-1.02634,3.17,3.875
1.95212,-1.00757,3.112,3.80927
1.96222,-1.00757,3.112,3.81445
1.93746,-0.989758,3.057,3.75215
1.91299,-0.972275,3.003,3.69091
1.92273,-0.972275,3.003,3.69598
1.89902,-0.955439,2.951,3.63697
1.89243,-0.947345,2.926,3.61112
1.90192,-0.947345,2.926,3.61611
1.89509,-0.93925,2.901,3.59018
1.88875,-0.93148,2.877,3.56541
1.89809,-0.93148,2.877,3.57037
1.89151,-0.92371,2.853,3.54552
1.90077,-0.92371,2.853,3.55046
1.91004,-0.92371,2.853,3.55543
1.90315,-0.915939,2.829,3.53046
1.89678,-0.908493,2.806,3.50668
1.90589,-0.908493,2.806,3.51161
-2.19913,-1.01606,3.17,3.98967
-2.18884,-1.01606,3.17,3.98401
-2.19848,-1.02535,3.199,4.01476
-2.1881,-1.02535,3.199,4.00908
-2.17772,-1.02535,3.199,4.00342
-2.16734,-1.02535,3.199,3.99779
-2.17785,-1.03529,3.23,4.03085
-2.16737,-1.03529,3.23,4.0252
-2.15689,-1.03529,3.23,4.01956
-2.1464,-1.03529,3.23,4.01395
-2.15576,-1.0449,3.26,4.04558
-2.14518,-1.0449,3.26,4.03995
-2.13459,-1.0449,3.26,4.03434
-2.12401,-1.0449,3.26,4.02875
-2.11343,-1.0449,3.26,4.02319
-2.12349,-1.05516,3.292,4.05707
-2.13335,-1.06542,3.324,4.09087
-2.12256,-1.06542,3.324,4.08526
-2.11177,-1.06542,3.324,4.07966
-2.10098,-1.06542,3.324,4.07409
-2.09019,-1.06542,3.324,4.06854
-2.0794,-1.06542,3.324,4.063
-2.06861,-1.06542,3.324,4.05749
-2.05782,-1.06542,3.324,4.052
-2.04703,-1.06542,3.324,4.04653
-2.03625,-1.06542,3.324,4.04109
nan,nan,nan,NaN
nan,nan,nan,NaN
nan,nan,nan,NaN
nan,nan,nan,NaN
nan,nan,nan,NaN
nan,nan,nan,NaN
nan,nan,nan,NaN
nan,nan,nan,NaN
nan,nan,nan,NaN
nan,nan,nan,NaN
nan,nan,nan,NaN
nan,nan,nan,NaN
nan,nan,nan,NaN
nan,nan,nan,NaN
nan,nan,nan,NaN
nan,nan,nan,NaN
nan,nan,nan,NaN
nan,nan,nan,NaN
nan,nan,nan,NaN
nan,nan,nan,NaN
nan,nan,nan,NaN
nan,nan,nan,NaN
nan,nan,nan,NaN
nan,nan,nan,NaN
nan,nan,nan,NaN
nan,nan,nan,NaN
-1.49769,-0.914452,2.853,3.34947
-1.48843,-0.914452,2.853,3.34533
-1.47917,-0.914452,2.853,3.34122
-1.45755,-0.906759,2.829,3.30906
-1.44836,-0.906759,2.829,3.30503
-1.42748,-0.899387,2.806,3.27418
-1.39563,-0.884964,2.761,3.21777
-1.38667,-0.884964,2.761,3.2139
-1.36673,-0.877912,2.739,3.18446
-1.34693,-0.870861,2.717,3.15511
-1.33811,-0.870861,2.717,3.15135
-1.32929,-0.870861,2.717,3.14762
nan,nan,nan,NaN
-1.2711,-0.843937,2.633,3.04313
-1.26256,-0.843937,2.633,3.03957
-1.23496,-0.831116,2.593,2.98991
-1.21756,-0.825026,2.574,2.96456
-1.2092,-0.825026,2.574,2.96113
-1.20085,-0.825026,2.574,2.95773
nan,nan,nan,NaN
nan,nan,nan,NaN
nan,nan,nan,NaN
nan,nan,nan,NaN
nan,nan,nan,NaN
nan,nan,nan,NaN
nan,nan,nan,NaN
nan,nan,nan,NaN
nan,nan,nan,NaN
-1.02485,-0.756755,2.361,2.68278
-1.01718,-0.756755,2.361,2.67986
-1.02363,-0.767332,2.394,2.71438
-1.01586,-0.767332,2.394,2.71146
-1.01525,-0.772781,2.411,2.72779
-1.01452,-0.77823,2.428,2.7441
-1.00664,-0.77823,2.428,2.7412
-0.998763,-0.77823,2.428,2.73831
-0.990883,-0.77823,2.428,2.73545
-0.983002,-0.77823,2.428,2.7326
-0.975121,-0.77823,2.428,2.72978
-0.967241,-0.77823,2.428,2.72697
-0.95936,-0.77823,2.428,2.72419
-0.951479,-0.77823,2.428,2.72142
-0.936992,-0.772781,2.411,2.69964
-0.929166,-0.772781,2.411,2.69694
-0.908348,-0.761883,2.377,2.65626
-0.894571,-0.756755,2.361,2.63576
-0.886907,-0.756755,2.361,2.63317
-0.873286,-0.751626,2.345,2.61278
-0.865674,-0.751626,2.345,2.61024
-0.863918,-0.756755,2.361,2.62552
-0.856255,-0.756755,2.361,2.62301
-0.848591,-0.756755,2.361,2.62052
-0.846627,-0.761883,2.377,2.63579
-0.844912,-0.767332,2.394,2.65215
-0.837141,-0.767332,2.394,2.64969
-0.829371,-0.767332,2.394,2.64724
-0.827435,-0.772781,2.411,2.6636
-0.819609,-0.772781,2.411,2.66118
-0.811784,-0.772781,2.411,2.65878
-0.803958,-0.772781,2.411,2.6564
-0.801746,-0.77823,2.428,2.67276
-0.793866,-0.77823,2.428,2.6704
-0.780482,-0.772781,2.411,2.64939
-0.772656,-0.772781,2.411,2.64709
-0.764831,-0.772781,2.411,2.64482
-0.757005,-0.772781,2.411,2.64257
-0.74918,-0.772781,2.411,2.64034
-0.741354,-0.772781,2.411,2.63813
-0.738701,-0.77823,2.428,2.65453
-0.73082,-0.77823,2.428,2.65234
-0.722939,-0.77823,2.428,2.65018
-0.715059,-0.77823,2.428,2.64804
-0.707178,-0.77823,2.428,2.64593
-0.699297,-0.77823,2.428,2.64383
-0.691417,-0.77823,2.428,2.64176
-0.683536,-0.77823,2.428,2.63971
-0.680386,-0.783679,2.445,2.65614
-0.67245,-0.783679,2.445,2.65412
-0.664514,-0.783679,2.445,2.65212
-0.656578,-0.783679,2.445,2.65015
-0.648643,-0.783679,2.445,2.64819
-0.640707,-0.783679,2.445,2.64626
-0.632771,-0.783679,2.445,2.64435
-0.624835,-0.783679,2.445,2.64246
-0.616899,-0.783679,2.445,2.6406
-0.608963,-0.783679,2.445,2.63875
-0.601027,-0.783679,2.445,2.63693
-0.593092,-0.783679,2.445,2.63513
-0.585156,-0.783679,2.445,2.63336
-0.57722,-0.783679,2.445,2.63161
-0.569284,-0.783679,2.445,2.62988
-0.561348,-0.783679,2.445,2.62817
-0.549564,-0.77823,2.428,2.60823
-0.541684,-0.77823,2.428,2.60658
-0.533803,-0.77823,2.428,2.60495
-0.525922,-0.77823,2.428,2.60335
-0.518042,-0.77823,2.428,2.60177
-0.506589,-0.772781,2.411,2.582
-0.498764,-0.772781,2.411,2.58048
-0.490938,-0.772781,2.411,2.57898
-0.483112,-0.772781,2.411,2.5775
-0.475287,-0.772781,2.411,2.57605
-0.467461,-0.772781,2.411,2.57461
-0.459636,-0.772781,2.411,2.5732
-0.45181,-0.772781,2.411,2.57182
-0.443985,-0.772781,2.411,2.57045
-0.439235,-0.77823,2.428,2.58723
-0.431354,-0.77823,2.428,2.5859
-0.423473,-0.77823,2.428,2.5846
-0.415593,-0.77823,2.428,2.58332
-0.407712,-0.77823,2.428,2.58206
-0.399831,-0.77823,2.428,2.58083
-0.394695,-0.783679,2.445,2.59768
-0.386759,-0.783679,2.445,2.59649
-0.381612,-0.789448,2.463,2.61443
-0.373618,-0.789448,2.463,2.61327
-0.365624,-0.789448,2.463,2.61214
-0.355016,-0.783679,2.445,2.59195
-0.34708,-0.783679,2.445,2.59088
-0.339144,-0.783679,2.445,2.58983
-0.331208,-0.783679,2.445,2.5888
-0.323272,-0.783679,2.445,2.5878
-0.315336,-0.783679,2.445,2.58682
-0.3074,-0.783679,2.445,2.58586
-0.299465,-0.783679,2.445,2.58493
-0.291529,-0.783679,2.445,2.58402
-0.283593,-0.783679,2.445,2.58314
-0.27374,-0.77823,2.428,2.56432
-0.26586,-0.77823,2.428,2.5635
-0.257979,-0.77823,2.428,2.56269
-0.250098,-0.77823,2.428,2.56191
-0.243914,-0.783679,2.445,2.57908
-0.235978,-0.783679,2.445,2.57835
-0.228042,-0.783679,2.445,2.57763
-0.221726,-0.789448,2.463,2.59591
-0.213732,-0.789448,2.463,2.59524
-0.205738,-0.789448,2.463,2.5946
-0.197744,-0.789448,2.463,2.59397
-0.191136,-0.795217,2.481,2.61233
-0.183083,-0.795217,2.481,2.61175
-0.175031,-0.795217,2.481,2.6112
-0.166978,-0.795217,2.481,2.61067
-0.158925,-0.795217,2.481,2.61017
-0.150872,-0.795217,2.481,2.60969
-0.14282,-0.795217,2.481,2.60924
-0.134767,-0.795217,2.481,2.60881
-0.125795,-0.789448,2.463,2.58948
-0.117801,-0.789448,2.463,2.58911
-0.109806,-0.789448,2.463,2.58876
-0.101812,-0.789448,2.463,2.58843
-0.0938178,-0.789448,2.463,2.58813
-0.0858236,-0.789448,2.463,2.58785
-0.0778293,-0.789448,2.463,2.5876
-0.069835,-0.789448,2.463,2.58737
-0.0618407,-0.789448,2.463,2.58716
-0.0538464,-0.789448,2.463,2.58699
-0.0458521,-0.789448,2.463,2.58683
-0.0378578,-0.789448,2.463,2.5867
-0.0298635,-0.789448,2.463,2.5866
-0.0220291,-0.795217,2.481,2.60542
-0.0139764,-0.795217,2.481,2.60537
-0.00592366,-0.795217,2.481,2.60533
0.00212905,-0.795217,2.481,2.60533
0.0101818,-0.795217,2.481,2.60535
0.0182345,-0.795217,2.481,2.60539
0.0262872,-0.795217,2.481,2.60546
0.0343399,-0.795217,2.481,2.60555
0.0427002,-0.800987,2.499,2.62458
0.0508113,-0.800987,2.499,2.62472
0.0589224,-0.800987,2.499,2.62489
0.0670336,-0.800987,2.499,2.62509
0.0751447,-0.800987,2.499,2.62531
0.0838555,-0.806756,2.517,2.64446
0.0920251,-0.806756,2.517,2.64473
0.100195,-0.806756,2.517,2.64503
0.108364,-0.806756,2.517,2.64535
0.116534,-0.806756,2.517,2.6457
0.124703,-0.806756,2.517,2.64607
0.133876,-0.812846,2.536,2.66645
0.142107,-0.812846,2.536,2.66687
0.149212,-0.806756,2.517,2.64734
0.157382,-0.806756,2.517,2.64781
0.165551,-0.806756,2.517,2.64831
0.173721,-0.806756,2.517,2.64883
0.18189,-0.806756,2.517,2.64938
0.19006,-0.806756,2.517,2.64996
0.198229,-0.806756,2.517,2.65055
0.206399,-0.806756,2.517,2.65118
0.214568,-0.806756,2.517,2.65183
0.222738,-0.806756,2.517,2.6525
0.230908,-0.806756,2.517,2.6532
0.239077,-0.806756,2.517,2.65392
0.245479,-0.800987,2.499,2.63569
0.25359,-0.800987,2.499,2.63645
0.263586,-0.806756,2.517,2.65624
0.271755,-0.806756,2.517,2.65707
0.279925,-0.806756,2.517,2.65791
0.288094,-0.806756,2.517,2.65879
0.296264,-0.806756,2.517,2.65968
0.304434,-0.806756,2.517,2.66061
0.312603,-0.806756,2.517,2.66155
0.320773,-0.806756,2.517,2.66253
0.328942,-0.806756,2.517,2.66352
0.337112,-0.806756,2.517,2.66454
0.345281,-0.806756,2.517,2.66559
0.353451,-0.806756,2.517,2.66666
0.36162,-0.806756,2.517,2.66775
0.36979,-0.806756,2.517,2.66887
0.37796,-0.806756,2.517,2.67002
0.386129,-0.806756,2.517,2.67119
0.394299,-0.806756,2.517,2.67238
0.405506,-0.812846,2.536,2.69378
0.413738,-0.812846,2.536,2.69503
0.421969,-0.812846,2.536,2.69631
0.4302,-0.812846,2.536,2.69761
0.438431,-0.812846,2.536,2.69893
0.446662,-0.812846,2.536,2.70028
0.454894,-0.812846,2.536,2.70166
0.463125,-0.812846,2.536,2.70305
0.471356,-0.812846,2.536,2.70448
0.479587,-0.812846,2.536,2.70592
0.487819,-0.812846,2.536,2.70739
0.492333,-0.806756,2.517,2.68859
0.500503,-0.806756,2.517,2.6901
0.508672,-0.806756,2.517,2.69163
0.516842,-0.806756,2.517,2.69319
0.521257,-0.800987,2.499,2.6755
0.529368,-0.800987,2.499,2.67709
0.537479,-0.800987,2.499,2.67871
0.54559,-0.800987,2.499,2.68035
0.553702,-0.800987,2.499,2.68201
0.561813,-0.800987,2.499,2.68369
0.565819,-0.795217,2.481,2.66606
0.569708,-0.789448,2.463,2.64843
0.577702,-0.789448,2.463,2.65016
0.585697,-0.789448,2.463,2.65191
0.589352,-0.783679,2.445,2.6343
0.597288,-0.783679,2.445,2.63608
0.605224,-0.783679,2.445,2.63789
0.608896,-0.77823,2.428,2.62137
0.616777,-0.77823,2.428,2.62321
0.624658,-0.77823,2.428,2.62508
0.632538,-0.77823,2.428,2.62696
0.640419,-0.77823,2.428,2.62887
0.652839,-0.783679,2.445,2.64922
0.660775,-0.783679,2.445,2.65119
0.668711,-0.783679,2.445,2.65318
0.676647,-0.783679,2.445,2.65519
0.684582,-0.783679,2.445,2.65722
0.692518,-0.783679,2.445,2.65928
0.705611,-0.789448,2.463,2.68095
0.713605,-0.789448,2.463,2.68306
0.721599,-0.789448,2.463,2.6852
0.724262,-0.783679,2.445,2.66772
0.732198,-0.783679,2.445,2.66989
0.740133,-0.783679,2.445,2.67207
0.753577,-0.789448,2.463,2.69397
0.761571,-0.789448,2.463,2.69622
0.769565,-0.789448,2.463,2.69849
0.783242,-0.795217,2.481,2.72051
0.791295,-0.795217,2.481,2.72284
0.799347,-0.795217,2.481,2.7252
0.813258,-0.800987,2.499,2.74736
0.821369,-0.800987,2.499,2.74977
0.82948,-0.800987,2.499,2.7522
0.837591,-0.800987,2.499,2.75466
0.845702,-0.800987,2.499,2.75714
0.853814,-0.800987,2.499,2.75963
0.855716,-0.795217,2.481,2.74226
0.863769,-0.795217,2.481,2.74478
0.871822,-0.795217,2.481,2.74733
0.867107,-0.783679,2.445,2.70999
0.868959,-0.77823,2.428,2.69368
0.87684,-0.77823,2.428,2.69623
0.88472,-0.77823,2.428,2.69881
nan,nan,nan,NaN
nan,nan,nan,NaN
nan,nan,nan,NaN
nan,nan,nan,NaN
nan,nan,nan,NaN
nan,nan,nan,NaN
nan,nan,nan,NaN
nan,nan,nan,NaN
nan,nan,nan,NaN
nan,nan,nan,NaN
nan,nan,nan,NaN
nan,nan,nan,NaN
nan,nan,nan,NaN
nan,nan,nan,NaN
nan,nan,nan,NaN
nan,nan,nan,NaN
nan,nan,nan,NaN
nan,nan,nan,NaN
nan,nan,nan,NaN
nan,nan,nan,NaN
nan,nan,nan,NaN
nan,nan,nan,NaN
nan,nan,nan,NaN
nan,nan,nan,NaN
nan,nan,nan,NaN
nan,nan,nan,NaN
nan,nan,nan,NaN
nan,nan,nan,NaN
nan,nan,nan,NaN
nan,nan,nan,NaN
nan,nan,nan,NaN
nan,nan,nan,NaN
nan,nan,nan,NaN
nan,nan,nan,NaN
nan,nan,nan,NaN
nan,nan,nan,NaN
nan,nan,nan,NaN
nan,nan,nan,NaN
nan,nan,nan,NaN
1.53799,-0.997468,3.112,3.61177
1.54809,-0.997468,3.112,3.61608
1.55819,-0.997468,3.112,3.62042
1.56829,-0.997468,3.112,3.62478
1.57839,-0.997468,3.112,3.62916
1.6033,-1.00676,3.141,3.66743
1.61349,-1.00676,3.141,3.67189
1.62369,-1.00676,3.141,3.67638
1.64897,-1.01606,3.17,3.71488
1.65925,-1.01606,3.17,3.71946
1.66954,-1.01606,3.17,3.72406
1.6952,-1.02535,3.199,3.7628
1.70558,-1.02535,3.199,3.76749
1.71597,-1.02535,3.199,3.7722
nan,nan,nan,NaN
nan,nan,nan,NaN
nan,nan,nan,NaN
nan,nan,nan,NaN
1.9917,-1.15516,3.604,4.27669
2.0034,-1.15516,3.604,4.28215
2.0151,-1.15516,3.604,4.28764
2.04816,-1.16734,3.642,4.33841
2.05998,-1.16734,3.642,4.34401
2.07181,-1.16734,3.642,4.34962
2.08363,-1.16734,3.642,4.35527
2.11789,-1.17985,3.681,4.40763
2.12983,-1.17985,3.681,4.41339
2.14178,-1.17985,3.681,4.41917
2.13091,-1.16734,3.642,4.37809
2.14273,-1.16734,3.642,4.38385
2.13207,-1.15516,3.604,4.34384
2.12117,-1.14298,3.566,4.30373
2.13274,-1.14298,3.566,4.30945
2.12207,-1.13113,3.529,4.27042
2.0906,-1.10837,3.458,4.19009
2.10182,-1.10837,3.458,4.1957
2.09166,-1.09715,3.423,4.15881
2.06161,-1.07568,3.356,4.0829
2.0725,-1.07568,3.356,4.08841
2.0238,-1.0449,3.26,3.97683
1.97821,-1.01606,3.17,3.87229
1.95212,-0.997468,3.112,3.80661
1.96222,-0.997468,3.112,3.8118
1.92035,-0.971185,3.03,3.71643
1.91299,-0.96253,3.003,3.68836
1.92273,-0.96253,3.003,3.69342
1.89902,-0.945863,2.951,3.63446
1.89243,-0.93785,2.926,3.60865
1.90192,-0.93785,2.926,3.61364
1.87941,-0.922145,2.877,3.55804
1.87299,-0.914452,2.853,3.53326
1.88225,-0.914452,2.853,3.53818
1.89151,-0.914452,2.853,3.54311
1.88479,-0.906759,2.829,3.51822
1.89397,-0.906759,2.829,3.52315
1.90315,-0.906759,2.829,3.52809
1.88124,-0.892015,2.783,3.47561
1.89027,-0.892015,2.783,3.4805
-2.21925,-1.01497,3.199,4.02354
-2.20887,-1.01497,3.199,4.01782
-2.21979,-1.02481,3.23,4.051
-2.20931,-1.02481,3.23,4.04526
-2.19882,-1.02481,3.23,4.03955
-2.18834,-1.02481,3.23,4.03385
-2.17785,-1.02481,3.23,4.02817
-2.16737,-1.02481,3.23,4.02251
-2.15689,-1.02481,3.23,4.01688
-2.16634,-1.03433,3.26,4.04851
-2.15576,-1.03433,3.26,4.04286
-2.14518,-1.03433,3.26,4.03723
-2.13459,-1.03433,3.26,4.03162
-2.12401,-1.03433,3.26,4.02602
-2.11343,-1.03433,3.26,4.02045
-2.12349,-1.04448,3.292,4.05431
-2.13335,-1.05463,3.324,4.08808
-2.12256,-1.05463,3.324,4.08246
-2.11177,-1.05463,3.324,4.07686
-2.10098,-1.05463,3.324,4.07128
-2.09019,-1.05463,3.324,4.06573
-2.0794,-1.05463,3.324,4.06019
-2.06861,-1.05463,3.324,4.05467
-2.05782,-1.05463,3.324,4.04918
-2.04703,-1.05463,3.324,4.04371
-2.03625,-1.05463,3.324,4.03826
nan,nan,nan,NaN
nan,nan,nan,NaN
nan,nan,nan,NaN
nan,nan,nan,NaN
nan,nan,nan,NaN
nan,nan,nan,NaN
nan,nan,nan,NaN
nan,nan,nan,NaN
nan,nan,nan,NaN
nan,nan,nan,NaN
nan,nan,nan,NaN
nan,nan,nan,NaN
nan,nan,nan,NaN
nan,nan,nan,NaN
nan,nan,nan,NaN
nan,nan,nan,NaN
nan,nan,nan,NaN
nan,nan,nan,NaN
nan,nan,nan,NaN
nan,nan,nan,NaN
nan,nan,nan,NaN
nan,nan,nan,NaN
nan,nan,nan,NaN
nan,nan,nan,NaN
nan,nan,nan,NaN
-1.53231,-0.920424,2.901,3.40748
-1.49769,-0.905195,2.853,3.34695
-1.48843,-0.905195,2.853,3.34282
-1.47917,-0.905195,2.853,3.3387
-1.45755,-0.89758,2.829,3.30656
-1.44836,-0.89758,2.829,3.30252
-1.42748,-0.890282,2.806,3.27169
-1.39563,-0.876005,2.761,3.21532
-1.38667,-0.876005,2.761,3.21144
-1.36673,-0.869025,2.739,3.18202
-1.34693,-0.862045,2.717,3.15269
-1.33811,-0.862045,2.717,3.14893
-1.32929,-0.862045,2.717,3.14519
nan,nan,nan,NaN
-1.26145,-0.829048,2.613,3.01767
-1.25297,-0.829048,2.613,3.01414
-1.23496,-0.822702,2.593,2.98758
-1.20857,-0.810646,2.555,2.94038
-1.20028,-0.810646,2.555,2.93698
-1.18312,-0.804617,2.536,2.91178
-1.17489,-0.804617,2.536,2.90845
nan,nan,nan,NaN
nan,nan,nan,NaN
nan,nan,nan,NaN
nan,nan,nan,NaN
nan,nan,nan,NaN
nan,nan,nan,NaN
nan,nan,nan,NaN
nan,nan,nan,NaN
-0.997499,-0.729105,2.298,2.6091
-0.99004,-0.729105,2.298,2.60626
-1.00268,-0.744017,2.345,2.65668
-0.995066,-0.744017,2.345,2.65382
-0.994193,-0.749094,2.361,2.66906
-0.993215,-0.75417,2.377,2.68428
-0.9855,-0.75417,2.377,2.68144
-0.984778,-0.759564,2.394,2.69777
-0.977007,-0.759564,2.394,2.69494
-0.969237,-0.759564,2.394,2.69214
-0.968294,-0.764958,2.411,2.70845
-0.960468,-0.764958,2.411,2.70566
-0.952643,-0.764958,2.411,2.70289
-0.938156,-0.759564,2.394,2.6811
-0.923778,-0.75417,2.377,2.65937
-0.916063,-0.75417,2.377,2.6567
-0.902234,-0.749094,2.361,2.63619
-0.888508,-0.744017,2.345,2.61573
-0.880897,-0.744017,2.345,2.61315
-0.867327,-0.738941,2.329,2.59278
-0.859768,-0.738941,2.329,2.59027
-0.858063,-0.744017,2.345,2.60554
-0.856255,-0.749094,2.361,2.62081
-0.848591,-0.749094,2.361,2.61831
-0.840928,-0.749094,2.361,2.61584
-0.838912,-0.75417,2.377,2.6311
-0.831197,-0.75417,2.377,2.62865
-0.823481,-0.75417,2.377,2.62622
-0.821601,-0.759564,2.394,2.64257
-0.81383,-0.759564,2.394,2.64017
-0.811784,-0.764958,2.411,2.65652
-0.803958,-0.764958,2.411,2.65413
-0.796133,-0.764958,2.411,2.65177
-0.788307,-0.764958,2.411,2.64944
-0.780482,-0.764958,2.411,2.64712
-0.772656,-0.764958,2.411,2.64482
-0.759438,-0.759564,2.394,2.62391
-0.751668,-0.759564,2.394,2.62167
-0.74918,-0.764958,2.411,2.63806
-0.741354,-0.764958,2.411,2.63585
-0.733529,-0.764958,2.411,2.63366
-0.720586,-0.759564,2.394,2.61293
-0.712816,-0.759564,2.394,2.6108
-0.705046,-0.759564,2.394,2.60869
-0.702227,-0.764958,2.411,2.62511
-0.694401,-0.764958,2.411,2.62303
-0.686576,-0.764958,2.411,2.62097
-0.683536,-0.770351,2.428,2.63739
-0.675655,-0.770351,2.428,2.63536
-0.667775,-0.770351,2.428,2.63335
-0.659894,-0.770351,2.428,2.63137
-0.652013,-0.770351,2.428,2.6294
-0.644133,-0.770351,2.428,2.62746
-0.636252,-0.770351,2.428,2.62554
-0.628371,-0.770351,2.428,2.62364
-0.620491,-0.770351,2.428,2.62176
-0.61261,-0.770351,2.428,2.61991
-0.604729,-0.770351,2.428,2.61808
-0.596848,-0.770351,2.428,2.61627
-0.588968,-0.770351,2.428,2.61448
-0.581087,-0.770351,2.428,2.61272
-0.573206,-0.770351,2.428,2.61098
-0.565326,-0.770351,2.428,2.60926
-0.557445,-0.770351,2.428,2.60756
-0.549564,-0.770351,2.428,2.60589
-0.541684,-0.770351,2.428,2.60424
-0.533803,-0.770351,2.428,2.60261
-0.52224,-0.764958,2.411,2.58279
-0.514415,-0.764958,2.411,2.58122
-0.506589,-0.764958,2.411,2.57967
-0.495247,-0.759564,2.394,2.55997
-0.487476,-0.759564,2.394,2.55848
-0.479706,-0.759564,2.394,2.55701
-0.471936,-0.759564,2.394,2.55556
-0.467461,-0.764958,2.411,2.57228
-0.459636,-0.764958,2.411,2.57086
-0.45181,-0.764958,2.411,2.56948
-0.443985,-0.764958,2.411,2.56811
-0.436159,-0.764958,2.411,2.56677
-0.428334,-0.764958,2.411,2.56545
-0.423473,-0.770351,2.428,2.58224
-0.415593,-0.770351,2.428,2.58096
-0.407712,-0.770351,2.428,2.5797
-0.399831,-0.770351,2.428,2.57847
-0.391951,-0.770351,2.428,2.57726
-0.38407,-0.770351,2.428,2.57607
-0.378823,-0.775745,2.445,2.59294
-0.370887,-0.775745,2.445,2.59179
-0.362952,-0.775745,2.445,2.59066
-0.355016,-0.775745,2.445,2.58956
-0.34708,-0.775745,2.445,2.58849
-0.339144,-0.775745,2.445,2.58744
-0.331208,-0.775745,2.445,2.58641
-0.323272,-0.775745,2.445,2.5854
-0.315336,-0.775745,2.445,2.58442
-0.3074,-0.775745,2.445,2.58347
-0.299465,-0.775745,2.445,2.58253
-0.291529,-0.775745,2.445,2.58163
-0.283593,-0.775745,2.445,2.58074
-0.27374,-0.770351,2.428,2.56194
-0.26586,-0.770351,2.428,2.56111
-0.257979,-0.770351,2.428,2.56031
-0.250098,-0.770351,2.428,2.55953
-0.243914,-0.775745,2.445,2.57668
-0.235978,-0.775745,2.445,2.57594
-0.228042,-0.775745,2.445,2.57523
-0.221726,-0.781456,2.463,2.59349
-0.213732,-0.781456,2.463,2.59282
-0.207241,-0.787167,2.481,2.61112
-0.199189,-0.787167,2.481,2.61049
-0.191136,-0.787167,2.481,2.60989
-0.183083,-0.787167,2.481,2.60931
-0.175031,-0.787167,2.481,2.60876
-0.166978,-0.787167,2.481,2.60823
-0.158925,-0.787167,2.481,2.60773
-0.150872,-0.787167,2.481,2.60725
-0.14282,-0.787167,2.481,2.6068
-0.134767,-0.787167,2.481,2.60637
-0.125795,-0.781456,2.463,2.58706
-0.117801,-0.781456,2.463,2.58668
-0.109806,-0.781456,2.463,2.58633
-0.101812,-0.781456,2.463,2.586
-0.0938178,-0.781456,2.463,2.5857
-0.0858236,-0.781456,2.463,2.58542
-0.0778293,-0.781456,2.463,2.58517
-0.069835,-0.781456,2.463,2.58494
-0.0618407,-0.781456,2.463,2.58474
-0.0542399,-0.787167,2.481,2.60345
-0.0458521,-0.781456,2.463,2.5844
-0.0378578,-0.781456,2.463,2.58427
-0.0298635,-0.781456,2.463,2.58417
-0.0220291,-0.787167,2.481,2.60298
-0.0139764,-0.787167,2.481,2.60292
-0.00592366,-0.787167,2.481,2.60289
0.00212905,-0.787167,2.481,2.60288
0.0101818,-0.787167,2.481,2.6029
0.0182345,-0.787167,2.481,2.60295
0.0264779,-0.792878,2.499,2.6219
0.034589,-0.792878,2.499,2.62199
0.0427002,-0.792878,2.499,2.62211
0.0508113,-0.792878,2.499,2.62226
0.0589224,-0.792878,2.499,2.62243
0.0670336,-0.792878,2.499,2.62262
0.0751447,-0.792878,2.499,2.62284
0.0838555,-0.798589,2.517,2.64198
0.0920251,-0.798589,2.517,2.64225
0.100195,-0.798589,2.517,2.64255
0.108364,-0.798589,2.517,2.64287
0.116534,-0.798589,2.517,2.64322
0.124703,-0.798589,2.517,2.64359
0.133876,-0.804617,2.536,2.66395
0.142107,-0.804617,2.536,2.66438
0.150338,-0.804617,2.536,2.66483
0.15857,-0.804617,2.536,2.6653
0.166801,-0.804617,2.536,2.66581
0.175032,-0.804617,2.536,2.66633
0.183263,-0.804617,2.536,2.66689
0.191494,-0.804617,2.536,2.66747
0.198229,-0.798589,2.517,2.64808
0.206399,-0.798589,2.517,2.6487
0.214568,-0.798589,2.517,2.64935
0.222738,-0.798589,2.517,2.65003
0.230908,-0.798589,2.517,2.65073
0.239077,-0.798589,2.517,2.65145
0.245479,-0.792878,2.499,2.63323
0.25359,-0.792878,2.499,2.634
0.263586,-0.798589,2.517,2.65377
0.271755,-0.798589,2.517,2.6546
0.279925,-0.798589,2.517,2.65545
0.288094,-0.798589,2.517,2.65632
0.296264,-0.798589,2.517,2.65722
0.304434,-0.798589,2.517,2.65814
0.312603,-0.798589,2.517,2.65909
0.320773,-0.798589,2.517,2.66006
0.328942,-0.798589,2.517,2.66106
0.337112,-0.798589,2.517,2.66208
0.345281,-0.798589,2.517,2.66313
0.353451,-0.798589,2.517,2.6642
0.36162,-0.798589,2.517,2.6653
0.36979,-0.798589,2.517,2.66642
0.37796,-0.798589,2.517,2.66756
0.386129,-0.798589,2.517,2.66873
0.394299,-0.798589,2.517,2.66993
0.405506,-0.804617,2.536,2.69131
0.413738,-0.804617,2.536,2.69256
0.421969,-0.804617,2.536,2.69384
0.4302,-0.804617,2.536,2.69514
0.438431,-0.804617,2.536,2.69647
0.446662,-0.804617,2.536,2.69782
0.454894,-0.804617,2.536,2.69919
0.463125,-0.804617,2.536,2.70059
0.471356,-0.804617,2.536,2.70201
0.479587,-0.804617,2.536,2.70346
0.487819,-0.804617,2.536,2.70493
0.492333,-0.798589,2.517,2.68615
0.500503,-0.798589,2.517,2.68766
0.508672,-0.798589,2.517,2.6892
0.516842,-0.798589,2.517,2.69075
0.521257,-0.792878,2.499,2.67308
0.529368,-0.792878,2.499,2.67468
0.537479,-0.792878,2.499,2.67629
0.54559,-0.792878,2.499,2.67793
0.553702,-0.792878,2.499,2.6796
0.561813,-0.792878,2.499,2.68129
0.565819,-0.787167,2.481,2.66367
0.569708,-0.781456,2.463,2.64606
0.577702,-0.781456,2.463,2.64779
0.585697,-0.781456,2.463,2.64954
0.589352,-0.775745,2.445,2.63195
0.597288,-0.775745,2.445,2.63373
0.605224,-0.775745,2.445,2.63555
0.608896,-0.770351,2.428,2.61904
0.616777,-0.770351,2.428,2.62089
0.624658,-0.770351,2.428,2.62275
0.632538,-0.770351,2.428,2.62464
0.640419,-0.770351,2.428,2.62655
0.6483,-0.770351,2.428,2.62848
0.65618,-0.770351,2.428,2.63044
0.664061,-0.770351,2.428,2.63241
0.671942,-0.770351,2.428,2.63441
0.679823,-0.770351,2.428,2.63643
0.692518,-0.775745,2.445,2.65695
0.705611,-0.781456,2.463,2.67861
0.713605,-0.781456,2.463,2.68072
0.721599,-0.781456,2.463,2.68286
0.724262,-0.775745,2.445,2.6654
0.732198,-0.775745,2.445,2.66757
0.740133,-0.775745,2.445,2.66976
0.753577,-0.781456,2.463,2.69164
0.761571,-0.781456,2.463,2.69389
0.769565,-0.781456,2.463,2.69616
0.777559,-0.781456,2.463,2.69845
0.791295,-0.787167,2.481,2.7205
0.799347,-0.787167,2.481,2.72286
0.813258,-0.792878,2.499,2.745
0.821369,-0.792878,2.499,2.74742
0.82948,-0.792878,2.499,2.74985
0.837591,-0.792878,2.499,2.75231
0.845702,-0.792878,2.499,2.75479
0.853814,-0.792878,2.499,2.75729
0.855716,-0.787167,2.481,2.73994
0.857502,-0.781456,2.463,2.72256
0.865497,-0.781456,2.463,2.72509
0.867107,-0.775745,2.445,2.70771
0.868959,-0.770351,2.428,2.69142
0.87684,-0.770351,2.428,2.69397
0.88472,-0.770351,2.428,2.69655
nan,nan,nan,NaN
nan,nan,nan,NaN
nan,nan,nan,NaN
nan,nan,nan,NaN
nan,nan,nan,NaN
nan,nan,nan,NaN
nan,nan,nan,NaN
nan,nan,nan,NaN
nan,nan,nan,NaN
nan,nan,nan,NaN
nan,nan,nan,NaN
nan,nan,nan,NaN
nan,nan,nan,NaN
nan,nan,nan,NaN
nan,nan,nan,NaN
nan,nan,nan,NaN
nan,nan,nan,NaN
nan,nan,nan,NaN
nan,nan,nan,NaN
nan,nan,nan,NaN
nan,nan,nan,NaN
nan,nan,nan,NaN
nan,nan,nan,NaN
nan,nan,nan,NaN
nan,nan,nan,NaN
nan,nan,nan,NaN
nan,nan,nan,NaN
nan,nan,nan,NaN
nan,nan,nan,NaN
nan,nan,nan,NaN
nan,nan,nan,NaN
nan,nan,nan,NaN
nan,nan,nan,NaN
nan,nan,nan,NaN
nan,nan,nan,NaN
nan,nan,nan,NaN
nan,nan,nan,NaN
nan,nan,nan,NaN
nan,nan,nan,NaN
1.53799,-0.98737,3.112,3.609
1.54809,-0.98737,3.112,3.61331
1.55819,-0.98737,3.112,3.61765
1.56829,-0.98737,3.112,3.62201
1.57839,-0.98737,3.112,3.6264
1.6033,-0.996571,3.141,3.66464
1.61349,-0.996571,3.141,3.66911
1.62369,-0.996571,3.141,3.67361
1.64897,-1.00577,3.17,3.71208
1.65925,-1.00577,3.17,3.71667
1.66954,-1.00577,3.17,3.72127
1.6952,-1.01497,3.199,3.75998
1.70558,-1.01497,3.199,3.76468
1.71597,-1.01497,3.199,3.76939
1.77654,-1.04448,3.292,3.88385
nan,nan,nan,NaN
nan,nan,nan,NaN
nan,nan,nan,NaN
1.9917,-1.14347,3.604,4.27355
2.0034,-1.14347,3.604,4.27901
2.0151,-1.14347,3.604,4.2845
2.04816,-1.15553,3.642,4.33525
2.05998,-1.15553,3.642,4.34085
2.07181,-1.15553,3.642,4.34647
2.08363,-1.15553,3.642,4.35212
2.11789,-1.1679,3.681,4.40445
2.12983,-1.1679,3.681,4.41021
2.14178,-1.1679,3.681,4.41599
2.13091,-1.15553,3.642,4.37495
2.14273,-1.15553,3.642,4.38072
2.13207,-1.14347,3.604,4.34075
2.12117,-1.13141,3.566,4.30067
2.13274,-1.13141,3.566,4.3064
2.12207,-1.11967,3.529,4.2674
2.0906,-1.09715,3.458,4.18713
2.10182,-1.09715,3.458,4.19275
2.09166,-1.08604,3.423,4.15589
2.06161,-1.06479,3.356,4.08004
2.0725,-1.06479,3.356,4.08556
2.0238,-1.03433,3.26,3.97406
1.97821,-1.00577,3.17,3.8696
1.95212,-0.98737,3.112,3.80397
1.96222,-0.98737,3.112,3.80917
1.92035,-0.961353,3.03,3.71387
1.91299,-0.952786,3.003,3.68583
1.92273,-0.952786,3.003,3.6909
1.89902,-0.936288,2.951,3.63198
1.89243,-0.928356,2.926,3.60619
1.90192,-0.928356,2.926,3.61118
1.87941,-0.912809,2.877,3.55564
1.87299,-0.905195,2.853,3.53088
1.88225,-0.905195,2.853,3.5358
1.89151,-0.905195,2.853,3.54074
1.88479,-0.89758,2.829,3.51587
1.89397,-0.89758,2.829,3.5208
1.90315,-0.89758,2.829,3.52574
1.88124,-0.882985,2.783,3.4733
1.89027,-0.882985,2.783,3.4782
-2.21925,-1.00459,3.199,4.02093
-2.20887,-1.00459,3.199,4.01521
-2.19848,-1.00459,3.199,4.00951
-2.20931,-1.01433,3.23,4.04262
-2.19882,-1.01433,3.23,4.0369
-2.18834,-1.01433,3.23,4.0312
-2.17785,-1.01433,3.23,4.02552
-2.16737,-1.01433,3.23,4.01986
-2.15689,-1.01433,3.23,4.01421
-2.16634,-1.02375,3.26,4.04582
-2.15576,-1.02375,3.26,4.04017
-2.14518,-1.02375,3.26,4.03453
-2.13459,-1.02375,3.26,4.02891
-2.12401,-1.02375,3.26,4.02332
-2.11343,-1.02375,3.26,4.01774
-2.12349,-1.0338,3.292,4.05157
-2.11281,-1.0338,3.292,4.04598
-2.12256,-1.04385,3.324,4.07969
-2.11177,-1.04385,3.324,4.07408
-2.10098,-1.04385,3.324,4.0685
-2.09019,-1.04385,3.324,4.06294
-2.0794,-1.04385,3.324,4.0574
-2.06861,-1.04385,3.324,4.05188
-2.05782,-1.04385,3.324,4.04638
-2.04703,-1.04385,3.324,4.04091
-2.03625,-1.04385,3.324,4.03545
nan,nan,nan,NaN
nan,nan,nan,NaN
nan,nan,nan,NaN
nan,nan,nan,NaN
nan,nan,nan,NaN
nan,nan,nan,NaN
nan,nan,nan,NaN
nan,nan,nan,NaN
nan,nan,nan,NaN
nan,nan,nan,NaN
nan,nan,nan,NaN
nan,nan,nan,NaN
nan,nan,nan,NaN
nan,nan,nan,NaN
nan,nan,nan,NaN
nan,nan,nan,NaN
nan,nan,nan,NaN
nan,nan,nan,NaN
nan,nan,nan,NaN
nan,nan,nan,NaN
nan,nan,nan,NaN
nan,nan,nan,NaN
nan,nan,nan,NaN
nan,nan,nan,NaN
nan,nan,nan,NaN
-1.51963,-0.903474,2.877,3.37678
-1.49769,-0.895937,2.853,3.34446
-1.48843,-0.895937,2.853,3.34032
-1.47917,-0.895937,2.853,3.33621
-1.45755,-0.8884,2.829,3.30408
-1.44836,-0.8884,2.829,3.30004
-1.42748,-0.881177,2.806,3.26922
-1.39563,-0.867046,2.761,3.21289
-1.38667,-0.867046,2.761,3.20901
-1.36673,-0.860137,2.739,3.17961
-1.33652,-0.846634,2.696,3.12594
-1.32777,-0.846634,2.696,3.12221
-1.30874,-0.840039,2.675,3.0942
-1.27965,-0.82685,2.633,3.04202
-1.26145,-0.820569,2.613,3.01535
-1.25297,-0.820569,2.613,3.01182
-1.22591,-0.808322,2.574,2.9634
-1.20857,-0.802355,2.555,2.9381
-1.20028,-0.802355,2.555,2.9347
-1.18312,-0.796388,2.536,2.90952
-1.17489,-0.796388,2.536,2.90618
nan,nan,nan,NaN
nan,nan,nan,NaN
nan,nan,nan,NaN
nan,nan,nan,NaN
nan,nan,nan,NaN
nan,nan,nan,NaN
nan,nan,nan,NaN
nan,nan,nan,NaN
-0.97102,-0.702492,2.237,2.53782
-0.96376,-0.702492,2.237,2.53505
-0.982581,-0.721649,2.298,2.60135
-0.975123,-0.721649,2.298,2.59855
-0.980718,-0.731384,2.329,2.63077
-0.979844,-0.736408,2.345,2.64602
-0.972232,-0.736408,2.345,2.64321
-0.964621,-0.736408,2.345,2.64042
-0.970069,-0.746457,2.377,2.67364
-0.962354,-0.746457,2.377,2.67085
-0.954639,-0.746457,2.377,2.66808
-0.946924,-0.746457,2.377,2.66533
-0.939209,-0.746457,2.377,2.6626
-0.931494,-0.746457,2.377,2.65989
-0.91756,-0.741433,2.361,2.63931
-0.909897,-0.741433,2.361,2.63666
-0.890005,-0.731384,2.329,2.59832
-0.882446,-0.731384,2.329,2.59574
-0.874887,-0.731384,2.329,2.59318
-0.867327,-0.731384,2.329,2.59064
-0.859768,-0.731384,2.329,2.58812
-0.852209,-0.731384,2.329,2.58562
-0.850452,-0.736408,2.345,2.60088
-0.842841,-0.736408,2.345,2.5984
-0.840928,-0.741433,2.361,2.61366
-0.838912,-0.746457,2.377,2.6289
-0.831197,-0.746457,2.377,2.62645
-0.823481,-0.746457,2.377,2.62401
-0.821601,-0.751796,2.394,2.64035
-0.81383,-0.751796,2.394,2.63794
-0.811784,-0.757134,2.411,2.65427
-0.803958,-0.757134,2.411,2.65189
-0.796133,-0.757134,2.411,2.64953
-0.788307,-0.757134,2.411,2.64719
-0.780482,-0.757134,2.411,2.64487
-0.772656,-0.757134,2.411,2.64257
-0.759438,-0.751796,2.394,2.62168
-0.751668,-0.751796,2.394,2.61943
-0.74918,-0.757134,2.411,2.6358
-0.741354,-0.757134,2.411,2.63359
-0.733529,-0.757134,2.411,2.63139
-0.720586,-0.751796,2.394,2.61069
-0.712816,-0.751796,2.394,2.60855
-0.705046,-0.751796,2.394,2.60644
-0.702227,-0.757134,2.411,2.62284
-0.694401,-0.757134,2.411,2.62076
-0.686576,-0.757134,2.411,2.61869
-0.683536,-0.762473,2.428,2.6351
-0.675655,-0.762473,2.428,2.63307
-0.667775,-0.762473,2.428,2.63106
-0.659894,-0.762473,2.428,2.62907
-0.652013,-0.762473,2.428,2.6271
-0.644133,-0.762473,2.428,2.62516
-0.636252,-0.762473,2.428,2.62324
-0.628371,-0.762473,2.428,2.62134
-0.620491,-0.762473,2.428,2.61946
-0.61261,-0.762473,2.428,2.6176
-0.604729,-0.762473,2.428,2.61577
-0.596848,-0.762473,2.428,2.61396
-0.588968,-0.762473,2.428,2.61217
-0.581087,-0.762473,2.428,2.6104
-0.573206,-0.762473,2.428,2.60866
-0.565326,-0.762473,2.428,2.60694
-0.557445,-0.762473,2.428,2.60524
-0.549564,-0.762473,2.428,2.60357
-0.541684,-0.762473,2.428,2.60192
-0.533803,-0.762473,2.428,2.60029
-0.52224,-0.757134,2.411,2.58049
-0.514415,-0.757134,2.411,2.57891
-0.506589,-0.757134,2.411,2.57736
-0.495247,-0.751796,2.394,2.55768
-0.487476,-0.751796,2.394,2.55618
-0.479706,-0.751796,2.394,2.55471
-0.471936,-0.751796,2.394,2.55326
-0.467461,-0.757134,2.411,2.56996
-0.459636,-0.757134,2.411,2.56855
-0.45181,-0.757134,2.411,2.56716
-0.443985,-0.757134,2.411,2.56579
-0.436159,-0.757134,2.411,2.56445
-0.428334,-0.757134,2.411,2.56313
-0.423473,-0.762473,2.428,2.5799
-0.415593,-0.762473,2.428,2.57862
-0.407712,-0.762473,2.428,2.57736
-0.399831,-0.762473,2.428,2.57612
-0.391951,-0.762473,2.428,2.57491
-0.38407,-0.762473,2.428,2.57372
-0.378823,-0.767811,2.445,2.59057
-0.370887,-0.767811,2.445,2.58942
-0.362952,-0.767811,2.445,2.5883
-0.355016,-0.767811,2.445,2.5872
-0.34708,-0.767811,2.445,2.58612
-0.339144,-0.767811,2.445,2.58507
-0.331208,-0.767811,2.445,2.58404
-0.323272,-0.767811,2.445,2.58303
-0.315336,-0.767811,2.445,2.58205
-0.3074,-0.767811,2.445,2.5811
-0.299465,-0.767811,2.445,2.58016
-0.291529,-0.767811,2.445,2.57925
-0.283593,-0.767811,2.445,2.57837
-0.27374,-0.762473,2.428,2.55959
-0.26586,-0.762473,2.428,2.55876
-0.257979,-0.762473,2.428,2.55795
-0.250098,-0.762473,2.428,2.55717
-0.243914,-0.767811,2.445,2.57431
-0.235978,-0.767811,2.445,2.57357
-0.228042,-0.767811,2.445,2.57285
-0.221726,-0.773464,2.463,2.5911
-0.213732,-0.773464,2.463,2.59042
-0.205738,-0.773464,2.463,2.58978
-0.197744,-0.773464,2.463,2.58915
-0.189749,-0.773464,2.463,2.58856
-0.181755,-0.773464,2.463,2.58798
-0.173761,-0.773464,2.463,2.58743
-0.166978,-0.779117,2.481,2.60581
-0.158925,-0.779117,2.481,2.60531
-0.150872,-0.779117,2.481,2.60483
-0.14282,-0.779117,2.481,2.60438
-0.134767,-0.779117,2.481,2.60395
-0.125795,-0.773464,2.463,2.58465
-0.117801,-0.773464,2.463,2.58428
-0.109806,-0.773464,2.463,2.58393
-0.101812,-0.773464,2.463,2.5836
-0.0938178,-0.773464,2.463,2.5833
-0.0858236,-0.773464,2.463,2.58302
-0.0778293,-0.773464,2.463,2.58276
-0.069835,-0.773464,2.463,2.58254
-0.0618407,-0.773464,2.463,2.58233
-0.0538464,-0.773464,2.463,2.58215
-0.0458521,-0.773464,2.463,2.582
-0.0378578,-0.773464,2.463,2.58187
-0.0298635,-0.773464,2.463,2.58176
-0.0218693,-0.773464,2.463,2.58168
-0.013875,-0.773464,2.463,2.58163
-0.00592366,-0.779117,2.481,2.60047
0.00212905,-0.779117,2.481,2.60046
0.0101818,-0.779117,2.481,2.60048
0.0182345,-0.779117,2.481,2.60052
0.0262872,-0.779117,2.481,2.60059
0.0343399,-0.779117,2.481,2.60069
0.0423926,-0.779117,2.481,2.6008
0.0508113,-0.784769,2.499,2.61982
0.0589224,-0.784769,2.499,2.61999
0.0670336,-0.784769,2.499,2.62018
0.0751447,-0.784769,2.499,2.6204
0.0838555,-0.790422,2.517,2.63952
0.0920251,-0.790422,2.517,2.6398
0.100195,-0.790422,2.517,2.64009
0.108364,-0.790422,2.517,2.64042
0.116534,-0.790422,2.517,2.64076
0.124703,-0.790422,2.517,2.64114
0.132873,-0.790422,2.517,2.64154
0.141042,-0.790422,2.517,2.64196
0.150338,-0.796388,2.536,2.66235
0.15857,-0.796388,2.536,2.66283
0.166801,-0.796388,2.536,2.66333
0.175032,-0.796388,2.536,2.66386
0.183263,-0.796388,2.536,2.66442
0.191494,-0.796388,2.536,2.665
0.198229,-0.790422,2.517,2.64563
0.206399,-0.790422,2.517,2.64625
0.214568,-0.790422,2.517,2.6469
0.222738,-0.790422,2.517,2.64758
0.230908,-0.790422,2.517,2.64828
0.239077,-0.790422,2.517,2.649
0.247247,-0.790422,2.517,2.64975
0.255416,-0.790422,2.517,2.65053
0.263586,-0.790422,2.517,2.65133
0.271755,-0.790422,2.517,2.65215
0.279925,-0.790422,2.517,2.653
0.288094,-0.790422,2.517,2.65388
0.296264,-0.790422,2.517,2.65477
0.304434,-0.790422,2.517,2.6557
0.312603,-0.790422,2.517,2.65665
0.320773,-0.790422,2.517,2.65762
0.328942,-0.790422,2.517,2.65862
0.337112,-0.790422,2.517,2.65964
0.345281,-0.790422,2.517,2.66069
0.353451,-0.790422,2.517,2.66176
0.36162,-0.790422,2.517,2.66286
0.36979,-0.790422,2.517,2.66398
0.37796,-0.790422,2.517,2.66513
0.386129,-0.790422,2.517,2.6663
0.394299,-0.790422,2.517,2.66749
0.405506,-0.796388,2.536,2.68886
0.413738,-0.796388,2.536,2.69011
0.42513,-0.802355,2.555,2.71156
0.433423,-0.802355,2.555,2.71287
0.441716,-0.802355,2.555,2.71421
0.450009,-0.802355,2.555,2.71557
0.458302,-0.802355,2.555,2.71695
0.466595,-0.802355,2.555,2.71837
0.474888,-0.802355,2.555,2.7198
0.48318,-0.802355,2.555,2.72126
0.491473,-0.802355,2.555,2.72275
0.49605,-0.796388,2.536,2.704
0.504281,-0.796388,2.536,2.70552
0.512512,-0.796388,2.536,2.70706
0.516842,-0.790422,2.517,2.68834
0.525012,-0.790422,2.517,2.68992
0.533181,-0.790422,2.517,2.69153
0.541351,-0.790422,2.517,2.69316
0.54559,-0.784769,2.499,2.67554
0.553702,-0.784769,2.499,2.67721
0.561813,-0.784769,2.499,2.6789
0.569924,-0.784769,2.499,2.68061
0.573871,-0.779117,2.481,2.66303
0.581924,-0.779117,2.481,2.66477
0.585697,-0.773464,2.463,2.6472
0.589352,-0.767811,2.445,2.62962
0.597288,-0.767811,2.445,2.63141
0.605224,-0.767811,2.445,2.63322
0.61316,-0.767811,2.445,2.63506
