-0.404853,-0.345759,2.613,2.66669
-0.393338,-0.343112,2.593,2.64501
-0.382101,-0.340598,2.574,2.6244
-0.373747,-0.340598,2.574,2.6232
-0.365392,-0.340598,2.574,2.62202
-0.354402,-0.338084,2.555,2.60152
-0.346109,-0.338084,2.555,2.60041
-0.337816,-0.338084,2.555,2.59932
-0.329523,-0.338084,2.555,2.59825
-0.32123,-0.338084,2.555,2.59721
-0.312937,-0.338084,2.555,2.5962
-0.304645,-0.338084,2.555,2.59521
-0.296352,-0.338084,2.555,2.59425
-0.288059,-0.338084,2.555,2.59332
-0.279766,-0.338084,2.555,2.59241
-0.269454,-0.33557,2.536,2.57226
-0.261223,-0.33557,2.536,2.57141
-0.252992,-0.33557,2.536,2.57059
-0.244761,-0.33557,2.536,2.56979
-0.236529,-0.33557,2.536,2.56902
-0.228298,-0.33557,2.536,2.56827
-0.220067,-0.33557,2.536,2.56755
-0.211836,-0.33557,2.536,2.56686
-0.203604,-0.33557,2.536,2.5662
-0.193909,-0.333056,2.517,2.54633
-0.18574,-0.333056,2.517,2.54572
-0.178911,-0.33557,2.536,2.56435
-0.169401,-0.333056,2.517,2.54458
-0.161231,-0.333056,2.517,2.54405
-0.153062,-0.333056,2.517,2.54355
-0.144892,-0.333056,2.517,2.54307
-0.137755,-0.33557,2.536,2.56181
-0.129523,-0.33557,2.536,2.56138
-0.122201,-0.338084,2.555,2.58017
-0.113061,-0.33557,2.536,2.5606
-0.10483,-0.33557,2.536,2.56025
-0.0973222,-0.338084,2.555,2.57911
-0.0890293,-0.338084,2.555,2.57881
-0.0807364,-0.338084,2.555,2.57854
-0.0724435,-0.338084,2.555,2.57829
-0.0641506,-0.338084,2.555,2.57807
-0.0562731,-0.340598,2.574,2.59705
-0.0479185,-0.340598,2.574,2.59688
-0.039564,-0.340598,2.574,2.59674
-0.0312094,-0.340598,2.574,2.59662
-0.0228548,-0.340598,2.574,2.59654
-0.0145003,-0.340598,2.574,2.59648
-0.00614571,-0.340598,2.574,2.59644
0.00222516,-0.343112,2.593,2.6156
0.0106414,-0.343112,2.593,2.61562
0.0190576,-0.343112,2.593,2.61567
0.0274739,-0.343112,2.593,2.61575
0.0361669,-0.345759,2.613,2.63602
0.0446481,-0.345759,2.613,2.63615
0.0531292,-0.345759,2.613,2.63631
0.0611388,-0.343112,2.593,2.61632
0.069555,-0.343112,2.593,2.61653
0.0779713,-0.343112,2.593,2.61676
0.0863875,-0.343112,2.593,2.61703
0.0948037,-0.343112,2.593,2.61732
0.10322,-0.343112,2.593,2.61764
0.111636,-0.343112,2.593,2.61798
0.120052,-0.343112,2.593,2.61836
0.128469,-0.343112,2.593,2.61876
0.136885,-0.343112,2.593,2.61918
0.145301,-0.343112,2.593,2.61964
0.152591,-0.340598,2.574,2.60092
0.160946,-0.340598,2.574,2.60142
0.1693,-0.340598,2.574,2.60195
0.177655,-0.340598,2.574,2.60251
0.186009,-0.340598,2.574,2.60309
0.194364,-0.340598,2.574,2.6037
0.202718,-0.340598,2.574,2.60434
0.211073,-0.340598,2.574,2.605
0.219428,-0.340598,2.574,2.60569
0.227782,-0.340598,2.574,2.60641
0.236137,-0.340598,2.574,2.60715
0.244491,-0.340598,2.574,2.60792
0.254712,-0.343112,2.593,2.62798
0.263128,-0.343112,2.593,2.6288
0.271545,-0.343112,2.593,2.62966
0.279961,-0.343112,2.593,2.63054
0.288377,-0.343112,2.593,2.63145
0.296793,-0.343112,2.593,2.63239
0.30521,-0.343112,2.593,2.63335
0.313626,-0.343112,2.593,2.63434
0.322042,-0.343112,2.593,2.63535
0.330458,-0.343112,2.593,2.63639
0.338875,-0.343112,2.593,2.63746
0.344746,-0.340598,2.574,2.61922
0.353101,-0.340598,2.574,2.62034
0.358787,-0.338084,2.555,2.60212
0.36708,-0.338084,2.555,2.60328
0.375373,-0.338084,2.555,2.60446
0.383666,-0.338084,2.555,2.60567
0.391959,-0.338084,2.555,2.60691
0.400252,-0.338084,2.555,2.60817
0.408544,-0.338084,2.555,2.60945
0.416837,-0.338084,2.555,2.61076
0.42513,-0.338084,2.555,2.6121
0.433423,-0.338084,2.555,2.61346
0.441716,-0.338084,2.555,2.61485
0.450009,-0.338084,2.555,2.61626
0.458302,-0.338084,2.555,2.6177
0.466595,-0.338084,2.555,2.61917
0.474888,-0.338084,2.555,2.62066
0.48318,-0.338084,2.555,2.62217
0.491473,-0.338084,2.555,2.62371
0.499766,-0.338084,2.555,2.62528
0.508059,-0.338084,2.555,2.62687
0.516352,-0.338084,2.555,2.62849
0.524645,-0.338084,2.555,2.63013
0.532938,-0.338084,2.555,2.6318
0.541231,-0.338084,2.555,2.63349
0.549524,-0.338084,2.555,2.6352
0.557817,-0.338084,2.555,2.63695
0.566109,-0.338084,2.555,2.63871
0.574402,-0.338084,2.555,2.6405
0.582695,-0.338084,2.555,2.64232
0.590988,-0.338084,2.555,2.64416
0.599281,-0.338084,2.555,2.64603
0.607574,-0.338084,2.555,2.64792
0.615867,-0.338084,2.555,2.64983
0.62416,-0.338084,2.555,2.65177
0.632453,-0.338084,2.555,2.65374
0.640746,-0.338084,2.555,2.65573
0.649038,-0.338084,2.555,2.65774
0.652443,-0.33557,2.536,2.64
0.660674,-0.33557,2.536,2.64204
0.668906,-0.33557,2.536,2.64411
0.677137,-0.33557,2.536,2.64621
0.685368,-0.33557,2.536,2.64833
0.693599,-0.33557,2.536,2.65047
0.70183,-0.33557,2.536,2.65263
0.710062,-0.33557,2.536,2.65482
0.718293,-0.33557,2.536,2.65704
0.726524,-0.33557,2.536,2.65927
0.734755,-0.33557,2.536,2.66154
0.742987,-0.33557,2.536,2.66382
0.751218,-0.33557,2.536,2.66613
0.753759,-0.333056,2.517,2.64847
0.761929,-0.333056,2.517,2.6508
0.770098,-0.333056,2.517,2.65316
0.778268,-0.333056,2.517,2.65554
0.792374,-0.33557,2.536,2.67801
0.800605,-0.33557,2.536,2.68046
0.808836,-0.33557,2.536,2.68293
0.817068,-0.33557,2.536,2.68542
0.819116,-0.333056,2.517,2.6678
0.827285,-0.333056,2.517,2.67032
0.835455,-0.333056,2.517,2.67286
0.843624,-0.333056,2.517,2.67543
0.851794,-0.333056,2.517,2.67802
0.859963,-0.333056,2.517,2.68063
0.868133,-0.333056,2.517,2.68326
0.876303,-0.333056,2.517,2.68591
0.884472,-0.333056,2.517,2.68859
0.892642,-0.333056,2.517,2.69129
0.894369,-0.330674,2.499,2.67474
0.90248,-0.330674,2.499,2.67746
0.910591,-0.330674,2.499,2.68021
0.918703,-0.330674,2.499,2.68298
0.926814,-0.330674,2.499,2.68576
0.934925,-0.330674,2.499,2.68857
0.936243,-0.328292,2.481,2.67202
0.944296,-0.328292,2.481,2.67485
0.945439,-0.32591,2.463,2.65828
0.953434,-0.32591,2.463,2.66113
0.961428,-0.32591,2.463,2.66401
0.969422,-0.32591,2.463,2.6669
0.977417,-0.32591,2.463,2.66982
0.985411,-0.32591,2.463,2.67276
0.993405,-0.32591,2.463,2.67571
1.0014,-0.32591,2.463,2.67869
1.00202,-0.323528,2.445,2.66209
1.00995,-0.323528,2.445,2.66509
1.02538,-0.32591,2.463,2.68775
1.03338,-0.32591,2.463,2.69081
nan,nan,nan,NaN
nan,nan,nan,NaN
nan,nan,nan,NaN
1.08871,-0.333056,2.517,2.76252
1.09688,-0.333056,2.517,2.76575
1.13842,-0.343112,2.593,2.85261
1.14683,-0.343112,2.593,2.85598
1.2203,-0.362431,2.739,3.02036
1.22919,-0.362431,2.739,3.02397
1.24802,-0.365342,2.761,3.05191
1.25698,-0.365342,2.761,3.05559
1.28658,-0.371297,2.806,3.10914
1.32847,-0.380692,2.877,3.19169
1.33781,-0.380692,2.877,3.19559
1.37009,-0.387176,2.926,3.254
1.40363,-0.393924,2.977,3.3148
1.41329,-0.393924,2.977,3.3189
1.43538,-0.397364,3.003,3.35205
1.44513,-0.397364,3.003,3.35624
1.46796,-0.400937,3.03,3.39066
1.46463,-0.397364,3.003,3.36467
1.47437,-0.397364,3.003,3.36893
1.51081,-0.40451,3.057,3.43386
1.52073,-0.40451,3.057,3.43824
1.53065,-0.40451,3.057,3.44264
1.55418,-0.408082,3.084,3.47751
1.5505,-0.40451,3.057,3.45151
1.56042,-0.40451,3.057,3.45598
1.59859,-0.411787,3.112,3.52273
1.65367,-0.4233,3.199,3.62593
1.66405,-0.4233,3.199,3.63068
1.73986,-0.43984,3.324,3.77751
1.80279,-0.45294,3.423,3.89514
1.8139,-0.45294,3.423,3.9003
1.86233,-0.462202,3.493,3.98534
1.89298,-0.466966,3.529,4.03178
1.90444,-0.466966,3.529,4.03717
1.95661,-0.47689,3.604,4.1285
1.9683,-0.47689,3.604,4.13406
2.00088,-0.481918,3.642,4.18329
2.0127,-0.481918,3.642,4.18896
2.02452,-0.481918,3.642,4.19465
2.03634,-0.481918,3.642,4.20037
2.04816,-0.481918,3.642,4.20611
2.03849,-0.47689,3.604,4.16794
2.05019,-0.47689,3.604,4.17367
2.06189,-0.47689,3.604,4.17943
2.07358,-0.47689,3.604,4.18521
2.08528,-0.47689,3.604,4.19102
2.07487,-0.471862,3.566,4.1526
2.08644,-0.471862,3.566,4.1584
2.07625,-0.466966,3.529,4.12101
2.0877,-0.466966,3.529,4.12679
2.05692,-0.457571,3.458,4.04945
2.02688,-0.448441,3.389,3.97425
2.03788,-0.448441,3.389,3.97987
2.02893,-0.444074,3.356,3.94671
2.00092,-0.435606,3.292,3.87695
2.01161,-0.435606,3.292,3.88247
1.96516,-0.4233,3.199,3.77818
1.95764,-0.419462,3.17,3.74929
1.96793,-0.419462,3.17,3.75467
1.92455,-0.408082,3.084,3.65807
1.90068,-0.400937,3.03,3.5992
1.91052,-0.400937,3.03,3.6044
1.87028,-0.390484,2.951,3.51551
1.86394,-0.387176,2.926,3.49079
1.87343,-0.387176,2.926,3.49587
1.8514,-0.380692,2.877,3.44234
1.84521,-0.377516,2.853,3.41862
1.85447,-0.377516,2.853,3.42362
1.84806,-0.37434,2.829,3.39981
1.82704,-0.368253,2.783,3.34944
1.80704,-0.362431,2.739,3.30135
1.81593,-0.362431,2.739,3.30622
1.79618,-0.356741,2.696,3.25913
1.77681,-0.351184,2.654,3.21311
1.78542,-0.351184,2.654,3.21788
1.77984,-0.348405,2.633,3.19717
1.76122,-0.343112,2.593,3.15329
-2.26157,-0.420793,3.26,3.98991
-2.25099,-0.420793,3.26,3.98392
-2.24041,-0.420793,3.26,3.97795
-2.22983,-0.420793,3.26,3.972
-2.21924,-0.420793,3.26,3.96607
-2.20866,-0.420793,3.26,3.96016
-2.19808,-0.420793,3.26,3.95427
-2.1875,-0.420793,3.26,3.9484
-2.17692,-0.420793,3.26,3.94254
-2.16634,-0.420793,3.26,3.93671
-2.15576,-0.420793,3.26,3.9309
-2.14518,-0.420793,3.26,3.9251
-2.13459,-0.420793,3.26,3.91933
-2.12401,-0.420793,3.26,3.91358
-2.11343,-0.420793,3.26,3.90785
-2.10285,-0.420793,3.26,3.90213
-2.09227,-0.420793,3.26,3.89644
-2.08169,-0.420793,3.26,3.89077
-2.07111,-0.420793,3.26,3.88512
-2.06053,-0.420793,3.26,3.87949
-2.04995,-0.420793,3.26,3.87388
-2.03936,-0.420793,3.26,3.86829
-2.02878,-0.420793,3.26,3.86272
-2.0182,-0.420793,3.26,3.85718
-2.00762,-0.420793,3.26,3.85165
-1.99704,-0.420793,3.26,3.84615
-1.98646,-0.420793,3.26,3.84066
-1.99527,-0.424924,3.292,3.87285
-1.98459,-0.424924,3.292,3.86735
-1.9739,-0.424924,3.292,3.86188
-1.96322,-0.424924,3.292,3.85643
nan,nan,nan,NaN
nan,nan,nan,NaN
nan,nan,nan,NaN
nan,nan,nan,NaN
nan,nan,nan,NaN
nan,nan,nan,NaN
nan,nan,nan,NaN
nan,nan,nan,NaN
nan,nan,nan,NaN
nan,nan,nan,NaN
nan,nan,nan,NaN
nan,nan,nan,NaN
nan,nan,nan,NaN
nan,nan,nan,NaN
nan,nan,nan,NaN
nan,nan,nan,NaN
nan,nan,nan,NaN
nan,nan,nan,NaN
nan,nan,nan,NaN
nan,nan,nan,NaN
nan,nan,nan,NaN
nan,nan,nan,NaN
nan,nan,nan,NaN
nan,nan,nan,NaN
nan,nan,nan,NaN
nan,nan,nan,NaN
nan,nan,nan,NaN
nan,nan,nan,NaN
nan,nan,nan,NaN
nan,nan,nan,NaN
nan,nan,nan,NaN
-1.18741,-0.311206,2.411,2.7055
-1.17958,-0.311206,2.411,2.70207
-1.17176,-0.311206,2.411,2.69866
-1.16393,-0.311206,2.411,2.69528
-1.15611,-0.311206,2.411,2.6919
-1.14828,-0.311206,2.411,2.68855
-1.14046,-0.311206,2.411,2.68522
-1.13263,-0.311206,2.411,2.68191
-1.1248,-0.311206,2.411,2.67861
-1.11698,-0.311206,2.411,2.67533
-1.10915,-0.311206,2.411,2.67208
-1.10133,-0.311206,2.411,2.66884
-1.0935,-0.311206,2.411,2.66562
-1.07802,-0.309012,2.394,2.64364
-1.07025,-0.309012,2.394,2.64049
-1.06248,-0.309012,2.394,2.63735
-1.05471,-0.309012,2.394,2.63422
-1.03951,-0.306818,2.377,2.61244
-1.03179,-0.306818,2.377,2.60938
-1.02408,-0.306818,2.377,2.60634
-1.01636,-0.306818,2.377,2.60332
-1.00865,-0.306818,2.377,2.60031
-1.00093,-0.306818,2.377,2.59733
-1.00032,-0.309012,2.394,2.61292
-0.992548,-0.309012,2.394,2.60996
-0.984778,-0.309012,2.394,2.60701
-0.977007,-0.309012,2.394,2.60409
-0.969237,-0.309012,2.394,2.60118
-0.961466,-0.309012,2.394,2.5983
-0.953696,-0.309012,2.394,2.59543
-0.952643,-0.311206,2.411,2.611
-0.944817,-0.311206,2.411,2.60815
-0.936992,-0.311206,2.411,2.60533
-0.929166,-0.311206,2.411,2.60252
-0.921341,-0.311206,2.411,2.59974
-0.913515,-0.311206,2.411,2.59698
-0.90569,-0.311206,2.411,2.59423
-0.897864,-0.311206,2.411,2.59151
-0.890039,-0.311206,2.411,2.58881
-0.882213,-0.311206,2.411,2.58613
-0.880553,-0.3134,2.428,2.60169
-0.872672,-0.3134,2.428,2.59903
-0.864792,-0.3134,2.428,2.5964
-0.856911,-0.3134,2.428,2.59378
-0.84903,-0.3134,2.428,2.59119
-0.84115,-0.3134,2.428,2.58862
-0.839103,-0.315595,2.445,2.60417
-0.831167,-0.315595,2.445,2.60163
-0.823232,-0.315595,2.445,2.5991
-0.815296,-0.315595,2.445,2.5966
-0.80736,-0.315595,2.445,2.59412
-0.805309,-0.317918,2.463,2.61074
-0.797315,-0.317918,2.463,2.60829
-0.789321,-0.317918,2.463,2.60585
-0.781326,-0.317918,2.463,2.60344
-0.773332,-0.317918,2.463,2.60105
-0.765338,-0.317918,2.463,2.59869
-0.757344,-0.317918,2.463,2.59635
-0.749349,-0.317918,2.463,2.59402
-0.741355,-0.317918,2.463,2.59173
-0.733361,-0.317918,2.463,2.58945
-0.725366,-0.317918,2.463,2.5872
-0.717372,-0.317918,2.463,2.58497
-0.709378,-0.317918,2.463,2.58276
-0.701384,-0.317918,2.463,2.58058
-0.693389,-0.317918,2.463,2.57842
-0.685395,-0.317918,2.463,2.57628
-0.677401,-0.317918,2.463,2.57416
-0.669406,-0.317918,2.463,2.57207
-0.661412,-0.317918,2.463,2.57
-0.653418,-0.317918,2.463,2.56796
-0.645424,-0.317918,2.463,2.56593
-0.637429,-0.317918,2.463,2.56393
-0.629435,-0.317918,2.463,2.56196
-0.621441,-0.317918,2.463,2.56001
-0.613446,-0.317918,2.463,2.55808
-0.609877,-0.320242,2.481,2.57485
-0.601824,-0.320242,2.481,2.57296
-0.593771,-0.320242,2.481,2.57109
-0.585719,-0.320242,2.481,2.56924
-0.577666,-0.320242,2.481,2.56741
-0.573746,-0.322565,2.499,2.58423
-0.565635,-0.322565,2.499,2.58244
-0.557524,-0.322565,2.499,2.58067
-0.549413,-0.322565,2.499,2.57893
-0.541301,-0.322565,2.499,2.57722
-0.537031,-0.324888,2.517,2.59408
-0.528861,-0.324888,2.517,2.5924
-0.520692,-0.324888,2.517,2.59075
-0.512522,-0.324888,2.517,2.58912
-0.50816,-0.327341,2.536,2.60704
-0.499929,-0.327341,2.536,2.60545
-0.491697,-0.327341,2.536,2.60388
-0.487088,-0.329793,2.555,2.62184
-0.482356,-0.332246,2.574,2.6398
-0.474001,-0.332246,2.574,2.63828
-0.465647,-0.332246,2.574,2.6368
-0.457292,-0.332246,2.574,2.63533
-0.448938,-0.332246,2.574,2.6339
-0.447259,-0.33728,2.613,2.67237
-0.438777,-0.33728,2.613,2.67096
-0.430296,-0.33728,2.613,2.66958
-0.421815,-0.33728,2.613,2.66823
-0.413334,-0.33728,2.613,2.6669
-0.404853,-0.33728,2.613,2.6656
-0.393338,-0.334698,2.593,2.64393
-0.384922,-0.334698,2.593,2.6427
-0.376505,-0.334698,2.593,2.64148
-0.368089,-0.334698,2.593,2.6403
-0.357037,-0.332246,2.574,2.6198
-0.348683,-0.332246,2.574,2.61867
-0.337816,-0.329793,2.555,2.59825
-0.329523,-0.329793,2.555,2.59719
-0.32123,-0.329793,2.555,2.59615
-0.312937,-0.329793,2.555,2.59513
-0.304645,-0.329793,2.555,2.59415
-0.296352,-0.329793,2.555,2.59319
-0.288059,-0.329793,2.555,2.59225
-0.279766,-0.329793,2.555,2.59134
-0.271473,-0.329793,2.555,2.59046
-0.26318,-0.329793,2.555,2.5896
-0.254887,-0.329793,2.555,2.58878
-0.246594,-0.329793,2.555,2.58797
-0.238301,-0.329793,2.555,2.58719
-0.228298,-0.327341,2.536,2.56721
-0.220067,-0.327341,2.536,2.56649
-0.211836,-0.327341,2.536,2.5658
-0.203604,-0.327341,2.536,2.56513
-0.195373,-0.327341,2.536,2.56449
-0.187142,-0.327341,2.536,2.56388
-0.178911,-0.327341,2.536,2.56329
-0.170679,-0.327341,2.536,2.56273
-0.162448,-0.327341,2.536,2.56219
-0.154217,-0.327341,2.536,2.56169
-0.145986,-0.327341,2.536,2.5612
-0.137755,-0.327341,2.536,2.56075
-0.130494,-0.329793,2.555,2.5795
-0.122201,-0.329793,2.555,2.57909
-0.113908,-0.329793,2.555,2.57871
-0.1064,-0.332246,2.574,2.59753
-0.0980459,-0.332246,2.574,2.59721
-0.0896914,-0.332246,2.574,2.5969
-0.0813368,-0.332246,2.574,2.59663
-0.0729822,-0.332246,2.574,2.59638
-0.0646277,-0.332246,2.574,2.59616
-0.0562731,-0.332246,2.574,2.59596
-0.0482722,-0.334698,2.593,2.61496
-0.039856,-0.334698,2.593,2.61482
-0.0314398,-0.334698,2.593,2.6147
-0.0230235,-0.334698,2.593,2.61461
-0.0146073,-0.334698,2.593,2.61455
-0.00619107,-0.334698,2.593,2.61452
0.00222516,-0.334698,2.593,2.61451
0.0107235,-0.33728,2.613,2.6347
0.0192046,-0.33728,2.613,2.63475
0.0276858,-0.33728,2.613,2.63482
0.0361669,-0.33728,2.613,2.63493
0.0446481,-0.33728,2.613,2.63506
0.0531292,-0.33728,2.613,2.63521
0.0611388,-0.334698,2.593,2.61523
0.069555,-0.334698,2.593,2.61544
0.0779713,-0.334698,2.593,2.61567
0.0863875,-0.334698,2.593,2.61594
0.095535,-0.33728,2.613,2.63641
0.104016,-0.33728,2.613,2.63673
0.111636,-0.334698,2.593,2.61689
0.120052,-0.334698,2.593,2.61727
0.128469,-0.334698,2.593,2.61767
0.136885,-0.334698,2.593,2.61809
0.145301,-0.334698,2.593,2.61855
0.153717,-0.334698,2.593,2.61903
0.162134,-0.334698,2.593,2.61953
0.17055,-0.334698,2.593,2.62007
0.178966,-0.334698,2.593,2.62063
0.186009,-0.332246,2.574,2.60201
0.194364,-0.332246,2.574,2.60262
0.202718,-0.332246,2.574,2.60326
0.211073,-0.332246,2.574,2.60392
0.219428,-0.332246,2.574,2.60461
0.229463,-0.334698,2.593,2.62456
0.23788,-0.334698,2.593,2.62531
0.246296,-0.334698,2.593,2.62609
0.254712,-0.334698,2.593,2.62689
0.263128,-0.334698,2.593,2.62772
0.271545,-0.334698,2.593,2.62858
0.279961,-0.334698,2.593,2.62946
0.288377,-0.334698,2.593,2.63037
0.296793,-0.334698,2.593,2.6313
0.30521,-0.334698,2.593,2.63227
0.313626,-0.334698,2.593,2.63326
0.322042,-0.334698,2.593,2.63427
0.330458,-0.334698,2.593,2.63531
0.338875,-0.334698,2.593,2.63638
0.344746,-0.332246,2.574,2.61815
0.353101,-0.332246,2.574,2.61926
0.358787,-0.329793,2.555,2.60106
0.36708,-0.329793,2.555,2.60222
0.375373,-0.329793,2.555,2.6034
0.383666,-0.329793,2.555,2.60461
0.391959,-0.329793,2.555,2.60584
0.400252,-0.329793,2.555,2.6071
0.408544,-0.329793,2.555,2.60839
0.416837,-0.329793,2.555,2.6097
0.42513,-0.329793,2.555,2.61104
0.433423,-0.329793,2.555,2.6124
0.441716,-0.329793,2.555,2.61379
0.450009,-0.329793,2.555,2.6152
0.458302,-0.329793,2.555,2.61664
0.466595,-0.329793,2.555,2.61811
0.474888,-0.329793,2.555,2.6196
0.48318,-0.329793,2.555,2.62112
0.491473,-0.329793,2.555,2.62266
0.499766,-0.329793,2.555,2.62422
0.508059,-0.329793,2.555,2.62582
0.516352,-0.329793,2.555,2.62743
0.524645,-0.329793,2.555,2.62908
0.532938,-0.329793,2.555,2.63074
0.541231,-0.329793,2.555,2.63244
0.549524,-0.329793,2.555,2.63415
0.561965,-0.332246,2.574,2.6555
0.566109,-0.329793,2.555,2.63766
0.574402,-0.329793,2.555,2.63946
0.582695,-0.329793,2.555,2.64127
0.590988,-0.329793,2.555,2.64311
0.599281,-0.329793,2.555,2.64498
0.607574,-0.329793,2.555,2.64687
0.615867,-0.329793,2.555,2.64879
0.62416,-0.329793,2.555,2.65073
0.632453,-0.329793,2.555,2.65269
0.640746,-0.329793,2.555,2.65468
0.649038,-0.329793,2.555,2.6567
0.652443,-0.327341,2.536,2.63896
0.660674,-0.327341,2.536,2.64101
0.668906,-0.327341,2.536,2.64308
0.677137,-0.327341,2.536,2.64518
0.685368,-0.327341,2.536,2.6473
0.693599,-0.327341,2.536,2.64944
0.70183,-0.327341,2.536,2.65161
0.710062,-0.327341,2.536,2.6538
0.718293,-0.327341,2.536,2.65601
0.726524,-0.327341,2.536,2.65825
0.734755,-0.327341,2.536,2.66051
0.742987,-0.327341,2.536,2.6628
0.751218,-0.327341,2.536,2.6651
0.753759,-0.324888,2.517,2.64745
0.761929,-0.324888,2.517,2.64979
0.770098,-0.324888,2.517,2.65215
0.778268,-0.324888,2.517,2.65453
0.792374,-0.327341,2.536,2.677
0.800605,-0.327341,2.536,2.67944
0.802777,-0.324888,2.517,2.66182
0.810946,-0.324888,2.517,2.6643
0.819116,-0.324888,2.517,2.66679
0.827285,-0.324888,2.517,2.66932
0.835455,-0.324888,2.517,2.67186
0.843624,-0.324888,2.517,2.67442
0.851794,-0.324888,2.517,2.67701
0.859963,-0.324888,2.517,2.67962
0.868133,-0.324888,2.517,2.68226
0.876303,-0.324888,2.517,2.68491
0.884472,-0.324888,2.517,2.68759
0.892642,-0.324888,2.517,2.69029
0.894369,-0.322565,2.499,2.67375
0.90248,-0.322565,2.499,2.67648
0.910591,-0.322565,2.499,2.67922
0.918703,-0.322565,2.499,2.68199
0.926814,-0.322565,2.499,2.68478
0.934925,-0.322565,2.499,2.68759
0.936243,-0.320242,2.481,2.67104
0.944296,-0.320242,2.481,2.67388
0.945439,-0.317918,2.463,2.65731
0.953434,-0.317918,2.463,2.66016
0.961428,-0.317918,2.463,2.66304
0.969422,-0.317918,2.463,2.66594
0.977417,-0.317918,2.463,2.66885
0.985411,-0.317918,2.463,2.67179
0.993405,-0.317918,2.463,2.67475
1.0014,-0.317918,2.463,2.67773
1.00202,-0.315595,2.445,2.66114
1.00995,-0.315595,2.445,2.66414
1.02538,-0.317918,2.463,2.68679
1.03338,-0.317918,2.463,2.68985
nan,nan,nan,NaN
nan,nan,nan,NaN
nan,nan,nan,NaN
1.08871,-0.324888,2.517,2.76155
1.09688,-0.324888,2.517,2.76478
1.13842,-0.334698,2.593,2.85161
1.14683,-0.334698,2.593,2.85498
1.2203,-0.353544,2.739,3.01931
1.22919,-0.353544,2.739,3.02291
1.24802,-0.356383,2.761,3.05085
1.25698,-0.356383,2.761,3.05453
1.28658,-0.362192,2.806,3.10807
1.32847,-0.371356,2.877,3.19059
1.33781,-0.371356,2.877,3.19449
1.37009,-0.377681,2.926,3.25289
1.40363,-0.384264,2.977,3.31366
1.41329,-0.384264,2.977,3.31777
1.43538,-0.38762,3.003,3.35091
1.44513,-0.38762,3.003,3.3551
1.46796,-0.391105,3.03,3.38951
1.46463,-0.38762,3.003,3.36354
1.47437,-0.38762,3.003,3.36779
1.51081,-0.39459,3.057,3.43271
1.52073,-0.39459,3.057,3.43709
1.53065,-0.39459,3.057,3.44149
1.55418,-0.398075,3.084,3.47635
1.56419,-0.398075,3.084,3.48083
1.58849,-0.40169,3.112,3.51699
1.62839,-0.409176,3.17,3.5872
1.6852,-0.420793,3.26,3.69386
1.69578,-0.420793,3.26,3.69869
1.75661,-0.433184,3.356,3.81262
1.82122,-0.44635,3.458,3.93368
1.83245,-0.44635,3.458,3.93889
1.86233,-0.450868,3.493,3.98405
1.91283,-0.460291,3.566,4.07273
1.9244,-0.460291,3.566,4.07818
1.95661,-0.465196,3.604,4.12717
1.98906,-0.470101,3.642,4.1763
2.02231,-0.475135,3.681,4.22673
2.0127,-0.470101,3.642,4.18762
2.02452,-0.470101,3.642,4.19331
2.03634,-0.470101,3.642,4.19903
2.04816,-0.470101,3.642,4.20477
2.03849,-0.465196,3.604,4.16661
2.05019,-0.465196,3.604,4.17235
2.06189,-0.465196,3.604,4.17811
2.05172,-0.460291,3.566,4.13978
2.06329,-0.460291,3.566,4.14553
2.07487,-0.460291,3.566,4.1513
2.06479,-0.455515,3.529,4.11397
2.05507,-0.450868,3.493,4.0777
2.06641,-0.450868,3.493,4.08343
2.05692,-0.44635,3.458,4.0482
2.02688,-0.437444,3.389,3.97302
2.03788,-0.437444,3.389,3.97865
2.00958,-0.429054,3.324,3.90788
1.98147,-0.420793,3.26,3.83809
1.99205,-0.420793,3.26,3.84356
1.96516,-0.412919,3.199,3.77703
1.93973,-0.405433,3.141,3.71387
1.94992,-0.405433,3.141,3.7192
1.92455,-0.398075,3.084,3.65697
1.90068,-0.391105,3.03,3.59812
1.91052,-0.391105,3.03,3.60332
1.88676,-0.384264,2.977,3.54543
1.86394,-0.377681,2.926,3.48975
1.87343,-0.377681,2.926,3.49484
1.86684,-0.374454,2.901,3.47003
1.84521,-0.368258,2.853,3.41761
1.85447,-0.368258,2.853,3.42262
1.84806,-0.365161,2.829,3.39881
1.84214,-0.362192,2.806,3.37614
1.80704,-0.353544,2.739,3.30038
1.81593,-0.353544,2.739,3.30526
1.79618,-0.347993,2.696,3.25818
1.77681,-0.342572,2.654,3.21218
1.78542,-0.342572,2.654,3.21696
1.77984,-0.339861,2.633,3.19625
1.76122,-0.334698,2.593,3.15239
-2.26157,-0.410215,3.26,3.98881
-2.25099,-0.410215,3.26,3.98282
-2.24041,-0.410215,3.26,3.97685
-2.22983,-0.410215,3.26,3.97089
-2.21924,-0.410215,3.26,3.96496
-2.20866,-0.410215,3.26,3.95905
-2.19808,-0.410215,3.26,3.95316
-2.1875,-0.410215,3.26,3.94728
-2.17692,-0.410215,3.26,3.94143
-2.16634,-0.410215,3.26,3.93559
-2.15576,-0.410215,3.26,3.92978
-2.14518,-0.410215,3.26,3.92399
-2.13459,-0.410215,3.26,3.91821
-2.12401,-0.410215,3.26,3.91246
-2.11343,-0.410215,3.26,3.90672
-2.10285,-0.410215,3.26,3.90101
-2.09227,-0.410215,3.26,3.89531
-2.08169,-0.410215,3.26,3.88964
-2.07111,-0.410215,3.26,3.88399
-2.06053,-0.410215,3.26,3.87836
-2.04995,-0.410215,3.26,3.87275
-2.03936,-0.410215,3.26,3.86715
-2.02878,-0.410215,3.26,3.86159
-2.0182,-0.410215,3.26,3.85604
-2.00762,-0.410215,3.26,3.85051
-1.99704,-0.410215,3.26,3.845
-1.98646,-0.410215,3.26,3.83952
-1.99527,-0.414242,3.292,3.87169
-1.98459,-0.414242,3.292,3.86619
-1.9739,-0.414242,3.292,3.86072
-1.96322,-0.414242,3.292,3.85527
nan,nan,nan,NaN
nan,nan,nan,NaN
nan,nan,nan,NaN
nan,nan,nan,NaN
nan,nan,nan,NaN
nan,nan,nan,NaN
nan,nan,nan,NaN
nan,nan,nan,NaN
nan,nan,nan,NaN
nan,nan,nan,NaN
nan,nan,nan,NaN
nan,nan,nan,NaN
nan,nan,nan,NaN
nan,nan,nan,NaN
nan,nan,nan,NaN
nan,nan,nan,NaN
nan,nan,nan,NaN
nan,nan,nan,NaN
nan,nan,nan,NaN
nan,nan,nan,NaN
nan,nan,nan,NaN
nan,nan,nan,NaN
nan,nan,nan,NaN
nan,nan,nan,NaN
nan,nan,nan,NaN
nan,nan,nan,NaN
nan,nan,nan,NaN
nan,nan,nan,NaN
nan,nan,nan,NaN
nan,nan,nan,NaN
nan,nan,nan,NaN
-1.18741,-0.303383,2.411,2.70461
-1.17958,-0.303383,2.411,2.70118
-1.17176,-0.303383,2.411,2.69777
-1.16393,-0.303383,2.411,2.69438
-1.15611,-0.303383,2.411,2.69101
-1.14828,-0.303383,2.411,2.68766
-1.14046,-0.303383,2.411,2.68432
-1.13263,-0.303383,2.411,2.68101
-1.1248,-0.303383,2.411,2.67771
-1.11698,-0.303383,2.411,2.67444
-1.10915,-0.303383,2.411,2.67118
-1.10133,-0.303383,2.411,2.66794
-1.0935,-0.303383,2.411,2.66472
-1.07802,-0.301244,2.394,2.64275
-1.07025,-0.301244,2.394,2.63959
-1.06248,-0.301244,2.394,2.63645
-1.04722,-0.299105,2.377,2.61463
-1.03951,-0.299105,2.377,2.61154
-1.03179,-0.299105,2.377,2.60848
-1.02408,-0.299105,2.377,2.60544
-1.01636,-0.299105,2.377,2.60242
-1.00865,-0.299105,2.377,2.59941
-1.00093,-0.299105,2.377,2.59643
-0.993215,-0.299105,2.377,2.59347
-0.9855,-0.299105,2.377,2.59052
-0.977785,-0.299105,2.377,2.5876
-0.977007,-0.301244,2.394,2.60318
-0.969237,-0.301244,2.394,2.60027
-0.961466,-0.301244,2.394,2.59738
-0.953696,-0.301244,2.394,2.59452
-0.952643,-0.303383,2.411,2.61007
-0.944817,-0.303383,2.411,2.60723
-0.936992,-0.303383,2.411,2.6044
-0.929166,-0.303383,2.411,2.6016
-0.921341,-0.303383,2.411,2.59881
-0.913515,-0.303383,2.411,2.59605
-0.90569,-0.303383,2.411,2.59331
-0.897864,-0.303383,2.411,2.59058
-0.890039,-0.303383,2.411,2.58788
-0.882213,-0.303383,2.411,2.5852
-0.880553,-0.305522,2.428,2.60075
-0.872672,-0.305522,2.428,2.59809
-0.864792,-0.305522,2.428,2.59546
-0.856911,-0.305522,2.428,2.59284
-0.84903,-0.305522,2.428,2.59025
-0.84115,-0.305522,2.428,2.58767
-0.839103,-0.307661,2.445,2.60322
-0.831167,-0.307661,2.445,2.60068
-0.823232,-0.307661,2.445,2.59815
-0.815296,-0.307661,2.445,2.59565
-0.80736,-0.307661,2.445,2.59317
-0.805309,-0.309926,2.463,2.60978
-0.797315,-0.309926,2.463,2.60732
-0.789321,-0.309926,2.463,2.60489
-0.781326,-0.309926,2.463,2.60248
-0.773332,-0.309926,2.463,2.60009
-0.765338,-0.309926,2.463,2.59772
-0.757344,-0.309926,2.463,2.59538
-0.749349,-0.309926,2.463,2.59306
-0.741355,-0.309926,2.463,2.59076
-0.733361,-0.309926,2.463,2.58848
-0.730668,-0.312191,2.481,2.60513
-0.722615,-0.312191,2.481,2.60288
-0.714562,-0.312191,2.481,2.60066
-0.706509,-0.312191,2.481,2.59846
-0.693389,-0.309926,2.463,2.57744
-0.685395,-0.309926,2.463,2.5753
-0.677401,-0.309926,2.463,2.57319
-0.669406,-0.309926,2.463,2.57109
-0.661412,-0.309926,2.463,2.56903
-0.653418,-0.309926,2.463,2.56698
-0.645424,-0.309926,2.463,2.56496
-0.637429,-0.309926,2.463,2.56296
-0.629435,-0.309926,2.463,2.56098
-0.621441,-0.309926,2.463,2.55903
-0.613446,-0.309926,2.463,2.5571
-0.609877,-0.312191,2.481,2.57386
-0.601824,-0.312191,2.481,2.57197
-0.593771,-0.312191,2.481,2.5701
-0.585719,-0.312191,2.481,2.56825
-0.577666,-0.312191,2.481,2.56642
-0.573746,-0.314456,2.499,2.58323
-0.565635,-0.314456,2.499,2.58144
-0.557524,-0.314456,2.499,2.57967
-0.549413,-0.314456,2.499,2.57793
-0.541301,-0.314456,2.499,2.57622
-0.537031,-0.316721,2.517,2.59307
-0.528861,-0.316721,2.517,2.59139
-0.520692,-0.316721,2.517,2.58973
-0.512522,-0.316721,2.517,2.5881
-0.50816,-0.319112,2.536,2.60602
-0.503674,-0.321503,2.555,2.62394
-0.495381,-0.321503,2.555,2.62236
-0.487088,-0.321503,2.555,2.62081
-0.482356,-0.323894,2.574,2.63876
-0.474001,-0.323894,2.574,2.63724
-0.469084,-0.326284,2.593,2.65521
-0.460668,-0.326284,2.593,2.65374
-0.452251,-0.326284,2.593,2.65229
-0.447259,-0.328801,2.613,2.67131
-0.438777,-0.328801,2.613,2.66991
-0.430296,-0.328801,2.613,2.66853
-0.421815,-0.328801,2.613,2.66717
-0.413334,-0.328801,2.613,2.66584
-0.404853,-0.328801,2.613,2.66454
-0.396372,-0.328801,2.613,2.66327
-0.384922,-0.326284,2.593,2.64164
-0.376505,-0.326284,2.593,2.64043
-0.368089,-0.326284,2.593,2.63924
-0.359673,-0.326284,2.593,2.63808
-0.351257,-0.326284,2.593,2.63695
-0.34284,-0.326284,2.593,2.63584
-0.331974,-0.323894,2.574,2.61545
-0.323619,-0.323894,2.574,2.6144
-0.315265,-0.323894,2.574,2.61338
-0.30691,-0.323894,2.574,2.61239
-0.298555,-0.323894,2.574,2.61142
-0.290201,-0.323894,2.574,2.61048
-0.281846,-0.323894,2.574,2.60956
-0.273492,-0.323894,2.574,2.60867
-0.265137,-0.323894,2.574,2.60781
-0.256783,-0.323894,2.574,2.60698
-0.248428,-0.323894,2.574,2.60617
-0.240074,-0.323894,2.574,2.60538
-0.231719,-0.323894,2.574,2.60463
-0.220067,-0.319112,2.536,2.56545
-0.211836,-0.319112,2.536,2.56476
-0.203604,-0.319112,2.536,2.5641
-0.195373,-0.319112,2.536,2.56345
-0.187142,-0.319112,2.536,2.56284
-0.178911,-0.319112,2.536,2.56225
-0.170679,-0.319112,2.536,2.56169
-0.162448,-0.319112,2.536,2.56116
-0.154217,-0.319112,2.536,2.56065
-0.145986,-0.319112,2.536,2.56016
-0.138787,-0.321503,2.555,2.57889
-0.130494,-0.321503,2.555,2.57845
-0.122201,-0.321503,2.555,2.57805
-0.113908,-0.321503,2.555,2.57767
-0.1064,-0.323894,2.574,2.59648
-0.0980459,-0.323894,2.574,2.59615
-0.0896914,-0.323894,2.574,2.59585
-0.0813368,-0.323894,2.574,2.59557
-0.073521,-0.326284,2.593,2.61448
-0.0651047,-0.326284,2.593,2.61426
-0.0566885,-0.326284,2.593,2.61406
-0.0486446,-0.328801,2.613,2.63406
-0.0401634,-0.328801,2.613,2.63391
-0.0316823,-0.328801,2.613,2.6338
-0.0232011,-0.328801,2.613,2.63371
-0.01472,-0.328801,2.613,2.63365
-0.00623883,-0.328801,2.613,2.63361
0.00224232,-0.328801,2.613,2.63361
0.0107235,-0.328801,2.613,2.63363
0.0192046,-0.328801,2.613,2.63368
0.0276858,-0.328801,2.613,2.63375
0.0361669,-0.328801,2.613,2.63385
0.0446481,-0.328801,2.613,2.63398
0.0531292,-0.328801,2.613,2.63414
0.0616104,-0.328801,2.613,2.63433
0.0700915,-0.328801,2.613,2.63454
0.0785727,-0.328801,2.613,2.63478
0.0870538,-0.328801,2.613,2.63504
0.095535,-0.328801,2.613,2.63534
0.104016,-0.328801,2.613,2.63566
0.112497,-0.328801,2.613,2.63601
0.120978,-0.328801,2.613,2.63638
0.12946,-0.328801,2.613,2.63679
0.137941,-0.328801,2.613,2.63722
0.146422,-0.328801,2.613,2.63767
0.153717,-0.326284,2.593,2.61796
0.162134,-0.326284,2.593,2.61847
0.171865,-0.328801,2.613,2.63921
0.180346,-0.328801,2.613,2.63977
0.187382,-0.326284,2.593,2.62016
0.195799,-0.326284,2.593,2.62077
0.204215,-0.326284,2.593,2.62141
0.212631,-0.326284,2.593,2.62208
0.221047,-0.326284,2.593,2.62278
0.229463,-0.326284,2.593,2.6235
0.23788,-0.326284,2.593,2.62425
0.246296,-0.326284,2.593,2.62503
0.254712,-0.326284,2.593,2.62583
0.263128,-0.326284,2.593,2.62666
0.271545,-0.326284,2.593,2.62752
0.279961,-0.326284,2.593,2.6284
0.288377,-0.326284,2.593,2.62931
0.296793,-0.326284,2.593,2.63025
0.30521,-0.326284,2.593,2.63121
0.313626,-0.326284,2.593,2.6322
0.319682,-0.323894,2.574,2.61392
0.328037,-0.323894,2.574,2.61496
0.336391,-0.323894,2.574,2.61602
0.344746,-0.323894,2.574,2.6171
0.350494,-0.321503,2.555,2.59889
0.358787,-0.321503,2.555,2.60002
0.36708,-0.321503,2.555,2.60118
0.375373,-0.321503,2.555,2.60236
0.380813,-0.319112,2.536,2.58421
0.389044,-0.319112,2.536,2.58544
0.397275,-0.319112,2.536,2.58669
0.408544,-0.321503,2.555,2.60735
0.416837,-0.321503,2.555,2.60867
0.42513,-0.321503,2.555,2.61
0.4302,-0.319112,2.536,2.59195
0.438431,-0.319112,2.536,2.59333
0.446662,-0.319112,2.536,2.59473
0.454894,-0.319112,2.536,2.59616
0.466595,-0.321503,2.555,2.61708
0.474888,-0.321503,2.555,2.61857
0.48318,-0.321503,2.555,2.62009
0.491473,-0.321503,2.555,2.62163
0.499766,-0.321503,2.555,2.6232
0.508059,-0.321503,2.555,2.62479
0.516352,-0.321503,2.555,2.62641
0.524645,-0.321503,2.555,2.62805
0.532938,-0.321503,2.555,2.62972
0.541231,-0.321503,2.555,2.63141
0.549524,-0.321503,2.555,2.63313
0.561965,-0.323894,2.574,2.65447
0.566109,-0.321503,2.555,2.63664
0.574402,-0.321503,2.555,2.63843
0.582695,-0.321503,2.555,2.64025
0.590988,-0.321503,2.555,2.64209
0.599281,-0.321503,2.555,2.64396
0.607574,-0.321503,2.555,2.64585
0.615867,-0.321503,2.555,2.64777
0.62416,-0.321503,2.555,2.64971
0.632453,-0.321503,2.555,2.65168
0.640746,-0.321503,2.555,2.65367
0.649038,-0.321503,2.555,2.65568
0.652443,-0.319112,2.536,2.63796
0.660674,-0.319112,2.536,2.64
0.668906,-0.319112,2.536,2.64208
0.677137,-0.319112,2.536,2.64417
0.685368,-0.319112,2.536,2.64629
0.693599,-0.319112,2.536,2.64844
0.70183,-0.319112,2.536,2.6506
0.710062,-0.319112,2.536,2.65279
0.718293,-0.319112,2.536,2.65501
0.726524,-0.319112,2.536,2.65725
0.734755,-0.319112,2.536,2.65951
0.73742,-0.316721,2.517,2.64185
0.74559,-0.316721,2.517,2.64415
0.753759,-0.316721,2.517,2.64646
0.761929,-0.316721,2.517,2.6488
0.770098,-0.316721,2.517,2.65116
0.778268,-0.316721,2.517,2.65355
0.786437,-0.316721,2.517,2.65595
0.794607,-0.316721,2.517,2.65838
0.802777,-0.316721,2.517,2.66084
0.810946,-0.316721,2.517,2.66331
0.819116,-0.316721,2.517,2.66581
0.827285,-0.316721,2.517,2.66833
0.835455,-0.316721,2.517,2.67088
0.843624,-0.316721,2.517,2.67344
0.851794,-0.316721,2.517,2.67603
0.859963,-0.316721,2.517,2.67865
0.868133,-0.316721,2.517,2.68128
0.876303,-0.316721,2.517,2.68394
0.878147,-0.314456,2.499,2.6674
0.886258,-0.314456,2.499,2.67008
0.894369,-0.314456,2.499,2.67279
0.90248,-0.314456,2.499,2.67551
0.910591,-0.314456,2.499,2.67826
0.918703,-0.314456,2.499,2.68103
0.926814,-0.314456,2.499,2.68382
0.934925,-0.314456,2.499,2.68663
0.936243,-0.312191,2.481,2.67009
0.944296,-0.312191,2.481,2.67292
0.945439,-0.309926,2.463,2.65637
0.953434,-0.309926,2.463,2.65922
0.961428,-0.309926,2.463,2.6621
0.969422,-0.309926,2.463,2.665
0.977417,-0.309926,2.463,2.66791
0.985411,-0.309926,2.463,2.67085
0.993405,-0.309926,2.463,2.67381
1.0014,-0.309926,2.463,2.67679
1.00202,-0.307661,2.445,2.66021
1.00995,-0.307661,2.445,2.66321
1.02538,-0.309926,2.463,2.68586
1.03338,-0.309926,2.463,2.68892
nan,nan,nan,NaN
nan,nan,nan,NaN
nan,nan,nan,NaN
nan,nan,nan,NaN
nan,nan,nan,NaN
nan,nan,nan,NaN
nan,nan,nan,NaN
nan,nan,nan,NaN
nan,nan,nan,NaN
nan,nan,nan,NaN
1.34348,-0.371333,2.951,3.26362
1.35306,-0.371333,2.951,3.26758
1.39912,-0.381273,3.03,3.35914
1.40895,-0.381273,3.03,3.36325
1.44407,-0.388068,3.084,3.42739
1.46728,-0.391592,3.112,3.46277
1.47738,-0.391592,3.112,3.46707
1.48749,-0.391592,3.112,3.47138
1.49759,-0.391592,3.112,3.47572
1.50769,-0.391592,3.112,3.48009
1.51779,-0.391592,3.112,3.48448
1.52789,-0.391592,3.112,3.48889
1.53799,-0.391592,3.112,3.49332
1.54809,-0.391592,3.112,3.49778
1.57271,-0.395241,3.141,3.5349
1.58291,-0.395241,3.141,3.53945
1.5931,-0.395241,3.141,3.54402
1.6033,-0.395241,3.141,3.54861
1.64328,-0.402539,3.199,3.61884
1.70174,-0.414242,3.292,3.72891
1.71243,-0.414242,3.292,3.7338
1.77388,-0.426447,3.389,3.84888
1.83966,-0.439534,3.493,3.97223
1.851,-0.439534,3.493,3.97749
1.88153,-0.444064,3.529,4.02383
1.93321,-0.453501,3.604,4.11483
1.94491,-0.453501,3.604,4.12033
1.97724,-0.458283,3.642,4.16937
2.01036,-0.46319,3.681,4.2197
2.02231,-0.46319,3.681,4.2254
2.0127,-0.458283,3.642,4.18631
2.02452,-0.458283,3.642,4.192
2.03634,-0.458283,3.642,4.19772
2.02679,-0.453501,3.604,4.15961
2.03849,-0.453501,3.604,4.16532
2.05019,-0.453501,3.604,4.17106
2.06189,-0.453501,3.604,4.17682
2.05172,-0.44872,3.566,4.13851
2.06329,-0.44872,3.566,4.14426
2.07487,-0.44872,3.566,4.15003
2.06479,-0.444064,3.529,4.11271
2.05507,-0.439534,3.493,4.07646
2.06641,-0.439534,3.493,4.08219
2.05692,-0.43513,3.458,4.04698
2.02688,-0.426447,3.389,3.97183
2.03788,-0.426447,3.389,3.97745
2.00958,-0.418268,3.324,3.90671
1.98147,-0.410215,3.26,3.83694
1.99205,-0.410215,3.26,3.84242
1.96516,-0.402539,3.199,3.77591
1.93973,-0.395241,3.141,3.71277
1.94992,-0.395241,3.141,3.7181
1.92455,-0.388068,3.084,3.65589
1.90068,-0.381273,3.03,3.59706
1.91052,-0.381273,3.03,3.60227
1.88676,-0.374604,2.977,3.54439
1.86394,-0.368187,2.926,3.48874
1.87343,-0.368187,2.926,3.49382
1.86684,-0.365041,2.901,3.46903
1.86074,-0.362021,2.877,3.44536
1.87007,-0.362021,2.877,3.45042
1.84806,-0.355981,2.829,3.39783
1.84214,-0.353087,2.806,3.37517
1.80704,-0.344656,2.739,3.29944
1.81593,-0.344656,2.739,3.30432
1.81017,-0.341888,2.717,3.28263
1.79087,-0.336603,2.675,3.23669
1.79955,-0.336603,2.675,3.2415
1.77984,-0.331318,2.633,3.19536
1.7748,-0.328801,2.613,3.17582
-2.21925,-0.392159,3.199,3.91311
-2.20887,-0.392159,3.199,3.90724
-2.19848,-0.392159,3.199,3.90137
-2.20931,-0.395959,3.23,3.93328
-2.19882,-0.395959,3.23,3.9274
-2.18834,-0.395959,3.23,3.92154
-2.17785,-0.395959,3.23,3.9157
-2.16737,-0.395959,3.23,3.90988
-2.15689,-0.395959,3.23,3.90408
-2.1464,-0.395959,3.23,3.8983
-2.13592,-0.395959,3.23,3.89254
-2.12544,-0.395959,3.23,3.88679
-2.11495,-0.395959,3.23,3.88107
-2.10447,-0.395959,3.23,3.87537
-2.09398,-0.395959,3.23,3.86968
-2.0835,-0.395959,3.23,3.86402
-2.07302,-0.395959,3.23,3.85838
-2.06253,-0.395959,3.23,3.85276
-2.05205,-0.395959,3.23,3.84715
-2.04156,-0.395959,3.23,3.84157
-2.03108,-0.395959,3.23,3.83601
-2.0206,-0.395959,3.23,3.83047
-2.01011,-0.395959,3.23,3.82495
-1.99963,-0.395959,3.23,3.81945
-1.98915,-0.395959,3.23,3.81397
-1.97866,-0.395959,3.23,3.80852
-1.96818,-0.395959,3.23,3.80308
-1.95769,-0.395959,3.23,3.79766
-1.9653,-0.399637,3.26,3.82749
-1.95472,-0.399637,3.26,3.82207
-1.94413,-0.399637,3.26,3.81667
nan,nan,nan,NaN
nan,nan,nan,NaN
nan,nan,nan,NaN
nan,nan,nan,NaN
nan,nan,nan,NaN
nan,nan,nan,NaN
nan,nan,nan,NaN
nan,nan,nan,NaN
nan,nan,nan,NaN
nan,nan,nan,NaN
nan,nan,nan,NaN
nan,nan,nan,NaN
nan,nan,nan,NaN
nan,nan,nan,NaN
nan,nan,nan,NaN
nan,nan,nan,NaN
nan,nan,nan,NaN
nan,nan,nan,NaN
nan,nan,nan,NaN
nan,nan,nan,NaN
nan,nan,nan,NaN
nan,nan,nan,NaN
nan,nan,nan,NaN
nan,nan,nan,NaN
nan,nan,nan,NaN
nan,nan,nan,NaN
nan,nan,nan,NaN
nan,nan,nan,NaN
nan,nan,nan,NaN
nan,nan,nan,NaN
nan,nan,nan,NaN
-1.18741,-0.29556,2.411,2.70374
-1.17958,-0.29556,2.411,2.70031
-1.17176,-0.29556,2.411,2.6969
-1.17214,-0.297644,2.428,2.71251
-1.16426,-0.297644,2.428,2.70911
-1.15638,-0.297644,2.428,2.70573
-1.1485,-0.297644,2.428,2.70237
-1.14062,-0.297644,2.428,2.69903
-1.13274,-0.297644,2.428,2.69571
-1.11698,-0.29556,2.411,2.67356
-1.10915,-0.29556,2.411,2.6703
-1.10133,-0.29556,2.411,2.66706
-1.08579,-0.293476,2.394,2.64505
-1.07802,-0.293476,2.394,2.64187
-1.07025,-0.293476,2.394,2.63871
-1.05494,-0.291392,2.377,2.61685
-1.04722,-0.291392,2.377,2.61375
-1.03951,-0.291392,2.377,2.61067
-1.03179,-0.291392,2.377,2.60761
-1.02408,-0.291392,2.377,2.60457
-1.01636,-0.291392,2.377,2.60154
-1.00865,-0.291392,2.377,2.59854
-1.00093,-0.291392,2.377,2.59555
-0.993215,-0.291392,2.377,2.59259
-0.9855,-0.291392,2.377,2.58964
-0.977785,-0.291392,2.377,2.58672
-0.970069,-0.291392,2.377,2.58381
-0.969237,-0.293476,2.394,2.59938
-0.961466,-0.293476,2.394,2.59649
-0.953696,-0.293476,2.394,2.59363
-0.952643,-0.29556,2.411,2.60918
-0.944817,-0.29556,2.411,2.60633
-0.936992,-0.29556,2.411,2.6035
-0.929166,-0.29556,2.411,2.6007
-0.921341,-0.29556,2.411,2.59791
-0.913515,-0.29556,2.411,2.59515
-0.90569,-0.29556,2.411,2.5924
-0.897864,-0.29556,2.411,2.58968
-0.890039,-0.29556,2.411,2.58698
-0.882213,-0.29556,2.411,2.58429
-0.880553,-0.297644,2.428,2.59984
-0.872672,-0.297644,2.428,2.59718
-0.864792,-0.297644,2.428,2.59454
-0.856911,-0.297644,2.428,2.59192
-0.84903,-0.297644,2.428,2.58933
-0.84115,-0.297644,2.428,2.58676
-0.839103,-0.299727,2.445,2.6023
-0.831167,-0.299727,2.445,2.59975
-0.823232,-0.299727,2.445,2.59722
-0.815296,-0.299727,2.445,2.59472
-0.80736,-0.299727,2.445,2.59224
-0.805309,-0.301934,2.463,2.60884
-0.797315,-0.301934,2.463,2.60639
-0.789321,-0.301934,2.463,2.60395
-0.781326,-0.301934,2.463,2.60154
-0.773332,-0.301934,2.463,2.59915
-0.765338,-0.301934,2.463,2.59678
-0.757344,-0.301934,2.463,2.59444
-0.749349,-0.301934,2.463,2.59211
-0.741355,-0.301934,2.463,2.58981
-0.733361,-0.301934,2.463,2.58754
-0.730668,-0.304141,2.481,2.60418
-0.722615,-0.304141,2.481,2.60193
-0.714562,-0.304141,2.481,2.5997
-0.706509,-0.304141,2.481,2.5975
-0.698457,-0.304141,2.481,2.59532
-0.690404,-0.304141,2.481,2.59317
-0.682351,-0.304141,2.481,2.59104
-0.674299,-0.304141,2.481,2.58893
-0.666246,-0.304141,2.481,2.58684
-0.658193,-0.304141,2.481,2.58478
-0.65014,-0.304141,2.481,2.58274
-0.637429,-0.301934,2.463,2.562
-0.629435,-0.301934,2.463,2.56002
-0.621441,-0.301934,2.463,2.55807
-0.613446,-0.301934,2.463,2.55614
-0.609877,-0.304141,2.481,2.5729
-0.601824,-0.304141,2.481,2.571
-0.593771,-0.304141,2.481,2.56913
-0.585719,-0.304141,2.481,2.56728
-0.577666,-0.304141,2.481,2.56546
-0.573746,-0.306347,2.499,2.58225
-0.565635,-0.306347,2.499,2.58046
-0.557524,-0.306347,2.499,2.5787
-0.549413,-0.306347,2.499,2.57696
-0.541301,-0.306347,2.499,2.57524
-0.537031,-0.308554,2.517,2.59208
-0.528861,-0.308554,2.517,2.5904
-0.520692,-0.308554,2.517,2.58875
-0.512522,-0.308554,2.517,2.58712
-0.50816,-0.310883,2.536,2.60503
-0.503674,-0.313212,2.555,2.62294
-0.495381,-0.313212,2.555,2.62136
-0.487088,-0.313212,2.555,2.61981
-0.482356,-0.315541,2.574,2.63775
-0.474001,-0.315541,2.574,2.63623
-0.469084,-0.317871,2.593,2.65419
-0.460668,-0.317871,2.593,2.65272
-0.452251,-0.317871,2.593,2.65127
-0.447259,-0.320322,2.613,2.67028
-0.438777,-0.320322,2.613,2.66888
-0.430296,-0.320322,2.613,2.6675
-0.421815,-0.320322,2.613,2.66614
-0.413334,-0.320322,2.613,2.66481
-0.404853,-0.320322,2.613,2.66351
-0.396372,-0.320322,2.613,2.66223
-0.387891,-0.320322,2.613,2.66098
-0.379409,-0.320322,2.613,2.65976
-0.370928,-0.320322,2.613,2.65856
-0.362447,-0.320322,2.613,2.65739
-0.353966,-0.320322,2.613,2.65625
-0.34284,-0.317871,2.593,2.63481
-0.331974,-0.315541,2.574,2.61443
-0.323619,-0.315541,2.574,2.61338
-0.315265,-0.315541,2.574,2.61236
-0.30691,-0.315541,2.574,2.61137
-0.298555,-0.315541,2.574,2.6104
-0.290201,-0.315541,2.574,2.60946
-0.281846,-0.315541,2.574,2.60854
-0.275511,-0.317871,2.593,2.6269
-0.267094,-0.317871,2.593,2.62603
-0.258678,-0.317871,2.593,2.62519
-0.248428,-0.315541,2.574,2.60514
-0.240074,-0.315541,2.574,2.60436
-0.231719,-0.315541,2.574,2.6036
-0.220067,-0.310883,2.536,2.56444
-0.211836,-0.310883,2.536,2.56375
-0.203604,-0.310883,2.536,2.56308
-0.195373,-0.310883,2.536,2.56244
-0.187142,-0.310883,2.536,2.56183
-0.178911,-0.310883,2.536,2.56124
-0.170679,-0.310883,2.536,2.56068
-0.162448,-0.310883,2.536,2.56014
-0.154217,-0.310883,2.536,2.55963
-0.145986,-0.310883,2.536,2.55915
-0.138787,-0.313212,2.555,2.57787
-0.130494,-0.313212,2.555,2.57743
-0.122201,-0.313212,2.555,2.57703
-0.113908,-0.313212,2.555,2.57665
-0.1064,-0.315541,2.574,2.59545
-0.0980459,-0.315541,2.574,2.59512
-0.0896914,-0.315541,2.574,2.59482
-0.0813368,-0.315541,2.574,2.59454
-0.073521,-0.317871,2.593,2.61345
-0.0651047,-0.317871,2.593,2.61322
-0.0566885,-0.317871,2.593,2.61303
-0.0486446,-0.320322,2.613,2.63301
-0.0401634,-0.320322,2.613,2.63287
-0.0316823,-0.320322,2.613,2.63275
-0.0232011,-0.320322,2.613,2.63266
-0.01472,-0.320322,2.613,2.6326
-0.00623883,-0.320322,2.613,2.63257
0.00224232,-0.320322,2.613,2.63256
0.0107235,-0.320322,2.613,2.63258
0.0192046,-0.320322,2.613,2.63263
0.0276858,-0.320322,2.613,2.63271
0.0361669,-0.320322,2.613,2.63281
0.0446481,-0.320322,2.613,2.63294
0.0531292,-0.320322,2.613,2.6331
0.0611388,-0.317871,2.593,2.61313
0.069555,-0.317871,2.593,2.61334
0.0779713,-0.317871,2.593,2.61357
0.0870538,-0.320322,2.613,2.634
0.095535,-0.320322,2.613,2.63429
0.104016,-0.320322,2.613,2.63461
0.111636,-0.317871,2.593,2.6148
0.120052,-0.317871,2.593,2.61517
0.128469,-0.317871,2.593,2.61557
0.137941,-0.320322,2.613,2.63617
0.146422,-0.320322,2.613,2.63663
0.153717,-0.317871,2.593,2.61693
0.162134,-0.317871,2.593,2.61744
0.171865,-0.320322,2.613,2.63816
0.180346,-0.320322,2.613,2.63873
0.187382,-0.317871,2.593,2.61912
0.195799,-0.317871,2.593,2.61974
0.204215,-0.317871,2.593,2.62038
0.212631,-0.317871,2.593,2.62105
0.221047,-0.317871,2.593,2.62175
0.229463,-0.317871,2.593,2.62247
0.23788,-0.317871,2.593,2.62322
0.246296,-0.317871,2.593,2.624
0.254712,-0.317871,2.593,2.6248
0.263128,-0.317871,2.593,2.62563
0.271545,-0.317871,2.593,2.62649
0.279961,-0.317871,2.593,2.62737
0.288377,-0.317871,2.593,2.62828
0.296793,-0.317871,2.593,2.62922
0.30521,-0.317871,2.593,2.63018
0.313626,-0.317871,2.593,2.63117
0.319682,-0.315541,2.574,2.6129
0.328037,-0.315541,2.574,2.61393
0.336391,-0.315541,2.574,2.615
0.344746,-0.315541,2.574,2.61608
0.350494,-0.313212,2.555,2.59788
0.358787,-0.313212,2.555,2.59901
0.36708,-0.313212,2.555,2.60017
0.375373,-0.313212,2.555,2.60135
0.380813,-0.310883,2.536,2.58321
0.389044,-0.310883,2.536,2.58443
0.397275,-0.310883,2.536,2.58569
0.408544,-0.313212,2.555,2.60635
0.416837,-0.313212,2.555,2.60766
0.42513,-0.313212,2.555,2.609
0.4302,-0.310883,2.536,2.59095
0.438431,-0.310883,2.536,2.59233
0.446662,-0.310883,2.536,2.59373
0.454894,-0.310883,2.536,2.59516
0.466595,-0.313212,2.555,2.61607
0.474888,-0.313212,2.555,2.61756
0.48318,-0.313212,2.555,2.61908
0.491473,-0.313212,2.555,2.62062
0.499766,-0.313212,2.555,2.62219
0.508059,-0.313212,2.555,2.62379
0.516352,-0.313212,2.555,2.6254
0.524645,-0.313212,2.555,2.62705
0.532938,-0.313212,2.555,2.62872
0.541231,-0.313212,2.555,2.63041
0.55361,-0.315541,2.574,2.6517
0.561965,-0.315541,2.574,2.65346
0.570319,-0.315541,2.574,2.65524
0.574402,-0.313212,2.555,2.63744
0.582695,-0.313212,2.555,2.63925
0.590988,-0.313212,2.555,2.6411
0.599281,-0.313212,2.555,2.64297
0.607574,-0.313212,2.555,2.64486
0.615867,-0.313212,2.555,2.64678
0.62416,-0.313212,2.555,2.64872
0.632453,-0.313212,2.555,2.65068
0.640746,-0.313212,2.555,2.65267
0.649038,-0.313212,2.555,2.65469
0.657331,-0.313212,2.555,2.65673
0.665624,-0.313212,2.555,2.65879
0.673917,-0.313212,2.555,2.66088
0.677137,-0.310883,2.536,2.64319
0.685368,-0.310883,2.536,2.64531
0.693599,-0.310883,2.536,2.64746
0.70183,-0.310883,2.536,2.64962
0.710062,-0.310883,2.536,2.65182
0.718293,-0.310883,2.536,2.65403
0.721081,-0.308554,2.517,2.63637
0.729251,-0.308554,2.517,2.63862
0.73742,-0.308554,2.517,2.64089
0.74559,-0.308554,2.517,2.64318
0.753759,-0.308554,2.517,2.6455
0.761929,-0.308554,2.517,2.64784
0.764591,-0.306347,2.499,2.63124
0.772702,-0.306347,2.499,2.63361
0.786437,-0.308554,2.517,2.65499
0.794607,-0.308554,2.517,2.65742
0.802777,-0.308554,2.517,2.65988
0.810946,-0.308554,2.517,2.66235
0.813258,-0.306347,2.499,2.6458
0.821369,-0.306347,2.499,2.6483
0.835455,-0.308554,2.517,2.66992
0.843624,-0.308554,2.517,2.67249
0.851794,-0.308554,2.517,2.67508
0.859963,-0.308554,2.517,2.67769
0.868133,-0.308554,2.517,2.68033
0.876303,-0.308554,2.517,2.68298
0.878147,-0.306347,2.499,2.66646
0.886258,-0.306347,2.499,2.66914
0.894369,-0.306347,2.499,2.67184
0.90248,-0.306347,2.499,2.67457
0.910591,-0.306347,2.499,2.67732
0.918703,-0.306347,2.499,2.68009
0.926814,-0.306347,2.499,2.68288
0.934925,-0.306347,2.499,2.68569
0.936243,-0.304141,2.481,2.66916
0.944296,-0.304141,2.481,2.672
0.952349,-0.304141,2.481,2.67485
0.960401,-0.304141,2.481,2.67773
0.961428,-0.301934,2.463,2.66118
0.969422,-0.301934,2.463,2.66408
0.977417,-0.301934,2.463,2.667
0.985411,-0.301934,2.463,2.66994
0.993405,-0.301934,2.463,2.6729
1.0014,-0.301934,2.463,2.67588
1.00202,-0.299727,2.445,2.6593
1.00995,-0.299727,2.445,2.6623
nan,nan,nan,NaN
nan,nan,nan,NaN
nan,nan,nan,NaN
nan,nan,nan,NaN
nan,nan,nan,NaN
nan,nan,nan,NaN
nan,nan,nan,NaN
nan,nan,nan,NaN
nan,nan,nan,NaN
nan,nan,nan,NaN
nan,nan,nan,NaN
nan,nan,nan,NaN
1.41678,-0.381494,3.112,3.44054
1.42688,-0.381494,3.112,3.44472
1.46376,-0.388604,3.17,3.51319
1.47405,-0.388604,3.17,3.51749
1.51244,-0.395959,3.23,3.58847
1.52292,-0.395959,3.23,3.59291
1.54765,-0.399637,3.26,3.63077
1.55823,-0.399637,3.26,3.6353
1.53945,-0.392159,3.199,3.57174
1.54984,-0.392159,3.199,3.57622
1.56022,-0.392159,3.199,3.58074
1.5706,-0.392159,3.199,3.58527
1.58099,-0.392159,3.199,3.58983
1.59137,-0.392159,3.199,3.59442
1.58723,-0.388604,3.17,3.5664
1.59752,-0.388604,3.17,3.57099
1.60781,-0.388604,3.17,3.57561
1.6181,-0.388604,3.17,3.58025
1.65921,-0.395959,3.23,3.65276
1.70174,-0.40356,3.292,3.72774
1.71243,-0.40356,3.292,3.73263
1.77388,-0.415451,3.389,3.84767
1.85862,-0.432613,3.529,4.01191
1.87007,-0.432613,3.529,4.01723
1.90125,-0.437149,3.566,4.06475
1.93321,-0.441807,3.604,4.11355
1.96542,-0.446465,3.642,4.16249
1.97724,-0.446465,3.642,4.16809
2.01036,-0.451246,3.681,4.2184
2.02231,-0.451246,3.681,4.22411
2.0127,-0.446465,3.642,4.18503
2.02452,-0.446465,3.642,4.19073
2.03634,-0.446465,3.642,4.19645
2.02679,-0.441807,3.604,4.15835
2.03849,-0.441807,3.604,4.16407
2.05019,-0.441807,3.604,4.16981
2.06189,-0.441807,3.604,4.17557
2.05172,-0.437149,3.566,4.13727
2.06329,-0.437149,3.566,4.14302
2.05334,-0.432613,3.529,4.10575
2.04373,-0.4282,3.493,4.06955
2.03448,-0.423909,3.458,4.03442
2.0457,-0.423909,3.458,4.04009
2.03611,-0.419619,3.423,4.00484
2.00714,-0.411405,3.356,3.932
2.01804,-0.411405,3.356,3.93757
2.00958,-0.407482,3.324,3.90557
1.98147,-0.399637,3.26,3.83582
1.99205,-0.399637,3.26,3.8413
1.96516,-0.392159,3.199,3.77482
1.93973,-0.385049,3.141,3.7117
1.94992,-0.385049,3.141,3.71703
1.92455,-0.378061,3.084,3.65484
1.90068,-0.371441,3.03,3.59604
1.91052,-0.371441,3.03,3.60124
1.88676,-0.364944,2.977,3.54339
1.86394,-0.358692,2.926,3.48775
1.87343,-0.358692,2.926,3.49283
1.86684,-0.355628,2.901,3.46805
1.86074,-0.352685,2.877,3.44439
1.87007,-0.352685,2.877,3.44945
1.84806,-0.346801,2.829,3.39688
1.84214,-0.343982,2.806,3.37423
1.80704,-0.335768,2.739,3.29853
1.81593,-0.335768,2.739,3.3034
1.81017,-0.333071,2.717,3.28173
