-0.640707,-0.307661,2.445,2.54621
-0.632771,-0.307661,2.445,2.54422
-0.624835,-0.307661,2.445,2.54226
-0.616899,-0.307661,2.445,2.54032
-0.608963,-0.307661,2.445,2.53841
-0.601027,-0.307661,2.445,2.53652
-0.593092,-0.307661,2.445,2.53465
-0.585156,-0.307661,2.445,2.5328
-0.57722,-0.307661,2.445,2.53098
-0.569284,-0.307661,2.445,2.52918
-0.565481,-0.309926,2.463,2.54601
-0.557486,-0.309926,2.463,2.54425
-0.549492,-0.309926,2.463,2.54251
-0.541498,-0.309926,2.463,2.5408
-0.533504,-0.309926,2.463,2.5391
-0.525509,-0.309926,2.463,2.53744
-0.517515,-0.309926,2.463,2.53579
-0.509521,-0.309926,2.463,2.53417
-0.505192,-0.312191,2.481,2.55109
-0.497139,-0.312191,2.481,2.5495
-0.489086,-0.312191,2.481,2.54795
-0.481034,-0.312191,2.481,2.54641
-0.476412,-0.314456,2.499,2.56337
-0.471674,-0.316721,2.517,2.58033
-0.463505,-0.316721,2.517,2.57884
-0.455335,-0.316721,2.517,2.57739
-0.447166,-0.316721,2.517,2.57596
-0.438996,-0.316721,2.517,2.57455
-0.430827,-0.316721,2.517,2.57317
-0.422657,-0.316721,2.517,2.57182
-0.414487,-0.316721,2.517,2.57049
-0.409385,-0.319112,2.536,2.58858
-0.398148,-0.316721,2.517,2.5679
-0.389979,-0.316721,2.517,2.56665
-0.381809,-0.316721,2.517,2.56542
-0.37364,-0.316721,2.517,2.56422
-0.36547,-0.316721,2.517,2.56304
-0.357301,-0.316721,2.517,2.56189
-0.349131,-0.316721,2.517,2.56076
-0.340961,-0.316721,2.517,2.55966
-0.332792,-0.316721,2.517,2.55858
-0.322301,-0.314456,2.499,2.53924
-0.31419,-0.314456,2.499,2.53823
-0.303874,-0.312191,2.481,2.51896
-0.295821,-0.312191,2.481,2.518
-0.287769,-0.312191,2.481,2.51707
-0.279716,-0.312191,2.481,2.51616
-0.271663,-0.312191,2.481,2.51528
-0.26361,-0.312191,2.481,2.51442
-0.255558,-0.312191,2.481,2.51359
-0.247505,-0.312191,2.481,2.51278
-0.239452,-0.312191,2.481,2.512
-0.233078,-0.314456,2.499,2.52947
-0.223347,-0.312191,2.481,2.51052
-0.215294,-0.312191,2.481,2.50982
-0.208745,-0.314456,2.499,2.52734
-0.200634,-0.314456,2.499,2.52669
-0.192523,-0.314456,2.499,2.52605
-0.184412,-0.314456,2.499,2.52545
-0.1763,-0.314456,2.499,2.52487
-0.168189,-0.314456,2.499,2.52432
-0.161231,-0.316721,2.517,2.54197
-0.153062,-0.316721,2.517,2.54146
-0.144892,-0.316721,2.517,2.54098
-0.136723,-0.316721,2.517,2.54053
-0.129523,-0.319112,2.536,2.55928
-0.121292,-0.319112,2.536,2.55887
-0.113061,-0.319112,2.536,2.5585
-0.105615,-0.321503,2.555,2.57731
-0.0973222,-0.321503,2.555,2.57699
-0.0890293,-0.321503,2.555,2.57669
-0.0807364,-0.321503,2.555,2.57641
-0.0724435,-0.321503,2.555,2.57617
-0.0641506,-0.321503,2.555,2.57595
-0.0562731,-0.323894,2.574,2.59491
-0.0479185,-0.323894,2.574,2.59474
-0.039564,-0.323894,2.574,2.5946
-0.0312094,-0.323894,2.574,2.59449
-0.0228548,-0.323894,2.574,2.5944
-0.0145003,-0.323894,2.574,2.59434
-0.00614571,-0.323894,2.574,2.59431
0.00220886,-0.323894,2.574,2.5943
0.0105634,-0.323894,2.574,2.59432
0.018918,-0.323894,2.574,2.59437
0.0272725,-0.323894,2.574,2.59444
0.0356271,-0.323894,2.574,2.59454
0.0439817,-0.323894,2.574,2.59467
0.0523362,-0.323894,2.574,2.59483
0.0606908,-0.323894,2.574,2.59501
0.0690454,-0.323894,2.574,2.59522
0.0773999,-0.323894,2.574,2.59545
0.0857545,-0.323894,2.574,2.59572
0.0941091,-0.323894,2.574,2.596
0.102464,-0.323894,2.574,2.59632
0.111636,-0.326284,2.593,2.61583
0.120052,-0.326284,2.593,2.6162
0.128469,-0.326284,2.593,2.6166
0.136885,-0.326284,2.593,2.61703
0.145301,-0.326284,2.593,2.61748
0.153717,-0.326284,2.593,2.61796
0.162134,-0.326284,2.593,2.61847
0.17055,-0.326284,2.593,2.61901
0.178966,-0.326284,2.593,2.61957
0.187382,-0.326284,2.593,2.62016
0.194364,-0.323894,2.574,2.60157
0.202718,-0.323894,2.574,2.60221
0.211073,-0.323894,2.574,2.60287
0.219428,-0.323894,2.574,2.60356
0.227782,-0.323894,2.574,2.60428
0.236137,-0.323894,2.574,2.60502
0.244491,-0.323894,2.574,2.60579
0.252846,-0.323894,2.574,2.60659
0.2612,-0.323894,2.574,2.60741
0.269555,-0.323894,2.574,2.60826
0.27791,-0.323894,2.574,2.60914
0.286264,-0.323894,2.574,2.61004
0.292444,-0.321503,2.555,2.5917
0.300737,-0.321503,2.555,2.59265
0.311328,-0.323894,2.574,2.61291
0.317323,-0.321503,2.555,2.59463
0.325615,-0.321503,2.555,2.59565
0.333908,-0.321503,2.555,2.59671
0.342201,-0.321503,2.555,2.59779
0.350494,-0.321503,2.555,2.59889
0.356119,-0.319112,2.536,2.58069
0.36435,-0.319112,2.536,2.58184
0.372581,-0.319112,2.536,2.58301
0.380813,-0.319112,2.536,2.58421
0.389044,-0.319112,2.536,2.58544
0.397275,-0.319112,2.536,2.58669
0.405506,-0.319112,2.536,2.58797
0.413738,-0.319112,2.536,2.58927
0.421969,-0.319112,2.536,2.5906
0.433423,-0.321503,2.555,2.61137
0.441716,-0.321503,2.555,2.61276
0.446662,-0.319112,2.536,2.59473
0.454894,-0.319112,2.536,2.59616
0.466595,-0.321503,2.555,2.61708
0.474888,-0.321503,2.555,2.61857
0.48318,-0.321503,2.555,2.62009
0.491473,-0.321503,2.555,2.62163
0.499766,-0.321503,2.555,2.6232
0.504281,-0.319112,2.536,2.60527
0.512512,-0.319112,2.536,2.60687
0.524645,-0.321503,2.555,2.62805
0.528975,-0.319112,2.536,2.61016
0.537206,-0.319112,2.536,2.61184
0.545437,-0.319112,2.536,2.61355
0.553668,-0.319112,2.536,2.61528
0.5619,-0.319112,2.536,2.61703
0.565859,-0.316721,2.517,2.59919
0.574029,-0.316721,2.517,2.60098
0.582199,-0.316721,2.517,2.6028
0.590368,-0.316721,2.517,2.60464
0.598538,-0.316721,2.517,2.6065
0.602368,-0.314456,2.499,2.58974
0.610479,-0.314456,2.499,2.59163
0.623046,-0.316721,2.517,2.61224
0.631216,-0.316721,2.517,2.6142
0.639385,-0.316721,2.517,2.61618
0.652443,-0.319112,2.536,2.63796
0.660674,-0.319112,2.536,2.64
0.668906,-0.319112,2.536,2.64208
0.677137,-0.319112,2.536,2.64417
0.690503,-0.321503,2.555,2.66612
0.698796,-0.321503,2.555,2.66828
0.707089,-0.321503,2.555,2.67046
0.720701,-0.323894,2.574,2.69254
0.729056,-0.323894,2.574,2.69479
0.737411,-0.323894,2.574,2.69706
0.745765,-0.323894,2.574,2.69936
0.75412,-0.323894,2.574,2.70168
0.756846,-0.321503,2.555,2.68407
0.765139,-0.321503,2.555,2.68642
0.773432,-0.321503,2.555,2.68879
0.775912,-0.319112,2.536,2.67117
0.778268,-0.316721,2.517,2.65355
0.786437,-0.316721,2.517,2.65595
0.794607,-0.316721,2.517,2.65838
0.797036,-0.314456,2.499,2.64181
0.805147,-0.314456,2.499,2.64427
0.813258,-0.314456,2.499,2.64675
0.815453,-0.312191,2.481,2.63017
0.823505,-0.312191,2.481,2.63268
0.831558,-0.312191,2.481,2.63521
0.833519,-0.309926,2.463,2.61862
0.841514,-0.309926,2.463,2.62118
0.849508,-0.309926,2.463,2.62375
0.851236,-0.307661,2.445,2.60716
0.859171,-0.307661,2.445,2.60976
0.867107,-0.307661,2.445,2.61239
0.875043,-0.307661,2.445,2.61503
0.87684,-0.305522,2.428,2.5995
0.88472,-0.305522,2.428,2.60216
0.892601,-0.305522,2.428,2.60485
0.900482,-0.305522,2.428,2.60757
0.908362,-0.305522,2.428,2.6103
0.909828,-0.303383,2.411,2.59475
0.917653,-0.303383,2.411,2.59751
0.932004,-0.305522,2.428,2.61862
0.933304,-0.303383,2.411,2.60308
0.94113,-0.303383,2.411,2.60589
0.955646,-0.305522,2.428,2.62713
nan,nan,nan,NaN
0.964606,-0.303383,2.411,2.61446
0.972432,-0.303383,2.411,2.61736
0.987169,-0.305522,2.428,2.63876
0.99505,-0.305522,2.428,2.64171
1.00293,-0.305522,2.428,2.64469
1.01789,-0.307661,2.445,2.66623
1.02582,-0.307661,2.445,2.66927
nan,nan,nan,NaN
nan,nan,nan,NaN
nan,nan,nan,NaN
nan,nan,nan,NaN
nan,nan,nan,NaN
nan,nan,nan,NaN
nan,nan,nan,NaN
nan,nan,nan,NaN
nan,nan,nan,NaN
nan,nan,nan,NaN
1.44318,-0.39889,3.17,3.50582
1.45347,-0.39889,3.17,3.51007
1.5201,-0.414242,3.292,3.6496
1.53078,-0.414242,3.292,3.65406
1.55645,-0.418268,3.324,3.69411
1.58233,-0.422295,3.356,3.73428
1.60889,-0.426447,3.389,3.77567
1.61989,-0.426447,3.389,3.78037
1.63089,-0.426447,3.389,3.7851
1.64189,-0.426447,3.389,3.78985
1.65289,-0.426447,3.389,3.79463
1.66389,-0.426447,3.389,3.79943
1.67489,-0.426447,3.389,3.80426
1.68589,-0.426447,3.389,3.80912
1.69689,-0.426447,3.389,3.814
1.70789,-0.426447,3.389,3.81891
1.71889,-0.426447,3.389,3.82384
1.72989,-0.426447,3.389,3.8288
1.77633,-0.43513,3.458,3.91183
1.80565,-0.439534,3.493,3.95659
1.81698,-0.439534,3.493,3.96178
1.86653,-0.44872,3.566,4.04989
1.91813,-0.458283,3.642,4.14167
1.92995,-0.458283,3.642,4.14716
1.96257,-0.46319,3.681,4.19714
1.97451,-0.46319,3.681,4.20274
2.00805,-0.468224,3.721,4.2541
1.99841,-0.46319,3.681,4.21402
2.01036,-0.46319,3.681,4.2197
2.02231,-0.46319,3.681,4.2254
2.03425,-0.46319,3.681,4.23113
2.02452,-0.458283,3.642,4.192
2.03634,-0.458283,3.642,4.19772
2.02679,-0.453501,3.604,4.15961
2.017,-0.44872,3.566,4.12141
2.02857,-0.44872,3.566,4.12708
2.01898,-0.444064,3.529,4.0899
2.00972,-0.439534,3.493,4.05379
2.02106,-0.439534,3.493,4.05942
2.01203,-0.43513,3.458,4.02435
2.00277,-0.430726,3.423,3.98918
2.01389,-0.430726,3.423,3.99477
2.025,-0.430726,3.423,4.00038
1.99625,-0.422295,3.356,3.92761
1.98801,-0.418268,3.324,3.89565
1.99879,-0.418268,3.324,3.90117
1.99024,-0.414242,3.292,3.8691
1.96324,-0.40644,3.23,3.80163
1.97372,-0.40644,3.23,3.80706
1.96516,-0.402539,3.199,3.77591
1.93973,-0.395241,3.141,3.71277
1.94992,-0.395241,3.141,3.7181
1.94202,-0.391592,3.112,3.68908
1.91762,-0.384671,3.057,3.62912
1.92754,-0.384671,3.057,3.63437
1.90324,-0.377876,3.003,3.57535
1.89642,-0.374604,2.977,3.54955
1.90609,-0.374604,2.977,3.55472
1.89902,-0.371333,2.951,3.52882
1.87626,-0.365041,2.901,3.4741
1.88567,-0.365041,2.901,3.4792
1.87941,-0.362021,2.877,3.45549
1.87299,-0.359001,2.853,3.43171
1.86642,-0.355981,2.829,3.40786
1.8756,-0.355981,2.829,3.41289
1.86946,-0.353087,2.806,3.39016
1.86317,-0.350193,2.783,3.36736
1.8722,-0.350193,2.783,3.37237
1.86637,-0.347424,2.761,3.35069
1.86038,-0.344656,2.739,3.32895
-2.21925,-0.392159,3.199,3.91311
-2.20887,-0.392159,3.199,3.90724
-2.19848,-0.392159,3.199,3.90137
-2.20931,-0.395959,3.23,3.93328
-2.19882,-0.395959,3.23,3.9274
-2.18834,-0.395959,3.23,3.92154
-2.17785,-0.395959,3.23,3.9157
-2.1875,-0.399637,3.26,3.9462
-2.19829,-0.40356,3.292,3.97902
-2.1876,-0.40356,3.292,3.97313
-2.17692,-0.40356,3.292,3.96725
-2.18729,-0.407482,3.324,3.99991
-2.1765,-0.407482,3.324,3.99402
-2.16571,-0.407482,3.324,3.98815
-2.15492,-0.407482,3.324,3.9823
-2.16478,-0.411405,3.356,4.01475
-2.15388,-0.411405,3.356,4.00889
-2.14299,-0.411405,3.356,4.00305
-2.1321,-0.411405,3.356,3.99723
-2.1212,-0.411405,3.356,3.99143
-2.11031,-0.411405,3.356,3.98565
-2.09942,-0.411405,3.356,3.97989
-2.08853,-0.411405,3.356,3.97416
-2.05782,-0.407482,3.324,3.9306
-2.04703,-0.407482,3.324,3.92497
-2.03625,-0.407482,3.324,3.91935
-2.02546,-0.407482,3.324,3.91376
-2.01467,-0.407482,3.324,3.90818
-2.00388,-0.407482,3.324,3.90263
-1.99309,-0.407482,3.324,3.8971
-1.9823,-0.407482,3.324,3.8916
nan,nan,nan,NaN
nan,nan,nan,NaN
nan,nan,nan,NaN
nan,nan,nan,NaN
nan,nan,nan,NaN
nan,nan,nan,NaN
nan,nan,nan,NaN
nan,nan,nan,NaN
nan,nan,nan,NaN
nan,nan,nan,NaN
nan,nan,nan,NaN
nan,nan,nan,NaN
nan,nan,nan,NaN
nan,nan,nan,NaN
nan,nan,nan,NaN
nan,nan,nan,NaN
nan,nan,nan,NaN
nan,nan,nan,NaN
nan,nan,nan,NaN
nan,nan,nan,NaN
nan,nan,nan,NaN
nan,nan,nan,NaN
nan,nan,nan,NaN
nan,nan,nan,NaN
nan,nan,nan,NaN
nan,nan,nan,NaN
nan,nan,nan,NaN
nan,nan,nan,NaN
nan,nan,nan,NaN
nan,nan,nan,NaN
nan,nan,nan,NaN
-1.1549,-0.287469,2.345,2.62973
-1.14729,-0.287469,2.345,2.62639
-1.13968,-0.287469,2.345,2.62308
-1.13979,-0.28943,2.361,2.63765
-1.13213,-0.28943,2.361,2.63435
-1.12447,-0.28943,2.361,2.63107
-1.1168,-0.28943,2.361,2.6278
-1.10162,-0.287469,2.345,2.60677
-1.09401,-0.287469,2.345,2.60356
-1.0864,-0.287469,2.345,2.60037
-1.07879,-0.287469,2.345,2.5972
-1.07118,-0.287469,2.345,2.59405
-1.06357,-0.287469,2.345,2.59091
-1.05596,-0.287469,2.345,2.5878
-1.04835,-0.287469,2.345,2.5847
-1.03363,-0.285507,2.329,2.56401
-1.02607,-0.285507,2.329,2.56097
-1.01851,-0.285507,2.329,2.55795
-1.01096,-0.285507,2.329,2.55495
-1.0034,-0.285507,2.329,2.55197
-0.995836,-0.285507,2.329,2.54901
-0.988277,-0.285507,2.329,2.54607
-0.980718,-0.285507,2.329,2.54314
-0.973158,-0.285507,2.329,2.54023
-0.965599,-0.285507,2.329,2.53735
-0.95804,-0.285507,2.329,2.53448
-0.95048,-0.285507,2.329,2.53163
-0.942921,-0.285507,2.329,2.52881
-0.935362,-0.285507,2.329,2.526
-0.927802,-0.285507,2.329,2.52321
-0.920243,-0.285507,2.329,2.52044
-0.912683,-0.285507,2.329,2.51769
-0.905124,-0.285507,2.329,2.51496
-0.897565,-0.285507,2.329,2.51225
-0.890005,-0.285507,2.329,2.50955
-0.876384,-0.283546,2.313,2.48966
-0.868876,-0.283546,2.313,2.48703
-0.861369,-0.283546,2.313,2.48442
-0.853861,-0.283546,2.313,2.48182
-0.846354,-0.283546,2.313,2.47925
-0.838847,-0.283546,2.313,2.4767
-0.831339,-0.283546,2.313,2.47417
-0.818489,-0.281707,2.298,2.45562
-0.81103,-0.281707,2.298,2.45315
-0.803572,-0.281707,2.298,2.45069
-0.796113,-0.281707,2.298,2.44826
-0.788654,-0.281707,2.298,2.44584
-0.781195,-0.281707,2.298,2.44345
-0.773737,-0.281707,2.298,2.44107
-0.77128,-0.283546,2.313,2.45464
-0.763772,-0.283546,2.313,2.45229
-0.756265,-0.283546,2.313,2.44996
-0.748757,-0.283546,2.313,2.44765
-0.74125,-0.283546,2.313,2.44537
-0.733743,-0.283546,2.313,2.4431
-0.726235,-0.283546,2.313,2.44086
-0.7237,-0.285507,2.329,2.4555
-0.72106,-0.287469,2.345,2.47014
-0.713449,-0.287469,2.345,2.46793
-0.705837,-0.287469,2.345,2.46574
-0.70299,-0.28943,2.361,2.48038
-0.700039,-0.291392,2.377,2.49501
-0.692324,-0.291392,2.377,2.49286
-0.684609,-0.291392,2.377,2.49073
-0.686576,-0.29556,2.411,2.52422
-0.67875,-0.29556,2.411,2.5221
-0.670925,-0.29556,2.411,2.52
-0.667775,-0.297644,2.428,2.53569
-0.659894,-0.297644,2.428,2.53362
-0.652013,-0.297644,2.428,2.53158
-0.644133,-0.297644,2.428,2.52956
-0.640707,-0.299727,2.445,2.54526
-0.632771,-0.299727,2.445,2.54328
-0.624835,-0.299727,2.445,2.54131
-0.616899,-0.299727,2.445,2.53938
-0.608963,-0.299727,2.445,2.53746
-0.601027,-0.299727,2.445,2.53557
-0.593092,-0.299727,2.445,2.5337
-0.585156,-0.299727,2.445,2.53185
-0.57722,-0.299727,2.445,2.53003
-0.573475,-0.301934,2.463,2.54684
-0.565481,-0.301934,2.463,2.54505
-0.557486,-0.301934,2.463,2.54329
-0.549492,-0.301934,2.463,2.54155
-0.541498,-0.301934,2.463,2.53983
-0.533504,-0.301934,2.463,2.53814
-0.525509,-0.301934,2.463,2.53647
-0.521297,-0.304141,2.481,2.55335
-0.513244,-0.304141,2.481,2.55172
-0.505192,-0.304141,2.481,2.55011
-0.497139,-0.304141,2.481,2.54853
-0.489086,-0.304141,2.481,2.54697
-0.481034,-0.304141,2.481,2.54544
-0.476412,-0.306347,2.499,2.56239
-0.471674,-0.308554,2.517,2.57934
-0.463505,-0.308554,2.517,2.57785
-0.455335,-0.308554,2.517,2.5764
-0.447166,-0.308554,2.517,2.57497
-0.438996,-0.308554,2.517,2.57356
-0.430827,-0.308554,2.517,2.57218
-0.422657,-0.308554,2.517,2.57082
-0.414487,-0.308554,2.517,2.56949
-0.409385,-0.310883,2.536,2.58757
-0.401154,-0.310883,2.536,2.58628
-0.392923,-0.310883,2.536,2.58502
-0.384691,-0.310883,2.536,2.58378
-0.37364,-0.308554,2.517,2.56322
-0.36547,-0.308554,2.517,2.56204
-0.357301,-0.308554,2.517,2.56089
-0.349131,-0.308554,2.517,2.55976
-0.340961,-0.308554,2.517,2.55866
-0.332792,-0.308554,2.517,2.55759
-0.322301,-0.306347,2.499,2.53825
-0.31419,-0.306347,2.499,2.53724
-0.306079,-0.306347,2.499,2.53624
-0.295821,-0.304141,2.481,2.51702
-0.287769,-0.304141,2.481,2.51608
-0.281745,-0.306347,2.499,2.53342
-0.273634,-0.306347,2.499,2.53253
-0.265523,-0.306347,2.499,2.53167
-0.257412,-0.306347,2.499,2.53083
-0.249301,-0.306347,2.499,2.53002
-0.24119,-0.306347,2.499,2.52923
-0.233078,-0.306347,2.499,2.52847
-0.223347,-0.304141,2.481,2.50953
-0.215294,-0.304141,2.481,2.50883
-0.208745,-0.306347,2.499,2.52635
-0.200634,-0.306347,2.499,2.52569
-0.192523,-0.306347,2.499,2.52506
-0.184412,-0.306347,2.499,2.52445
-0.1763,-0.306347,2.499,2.52387
-0.168189,-0.306347,2.499,2.52332
-0.161231,-0.308554,2.517,2.54096
-0.153062,-0.308554,2.517,2.54046
-0.144892,-0.308554,2.517,2.53998
-0.136723,-0.308554,2.517,2.53953
-0.129523,-0.310883,2.536,2.55827
-0.121292,-0.310883,2.536,2.55786
-0.113061,-0.310883,2.536,2.55748
-0.105615,-0.313212,2.555,2.57629
-0.0973222,-0.313212,2.555,2.57597
-0.0890293,-0.313212,2.555,2.57567
-0.0807364,-0.313212,2.555,2.57539
-0.0724435,-0.313212,2.555,2.57515
-0.0641506,-0.313212,2.555,2.57493
-0.0562731,-0.315541,2.574,2.59388
-0.0479185,-0.315541,2.574,2.59371
-0.039564,-0.315541,2.574,2.59357
-0.0312094,-0.315541,2.574,2.59346
-0.0228548,-0.315541,2.574,2.59337
-0.0145003,-0.315541,2.574,2.59331
-0.00614571,-0.315541,2.574,2.59328
0.00220886,-0.315541,2.574,2.59327
0.0105634,-0.315541,2.574,2.59329
0.018918,-0.315541,2.574,2.59334
0.0272725,-0.315541,2.574,2.59341
0.0356271,-0.315541,2.574,2.59351
0.0439817,-0.315541,2.574,2.59364
0.0523362,-0.315541,2.574,2.5938
0.0606908,-0.315541,2.574,2.59398
0.0690454,-0.315541,2.574,2.59419
0.0773999,-0.315541,2.574,2.59442
0.0857545,-0.315541,2.574,2.59469
0.0941091,-0.315541,2.574,2.59498
0.102464,-0.315541,2.574,2.59529
0.111636,-0.317871,2.593,2.6148
0.120052,-0.317871,2.593,2.61517
0.128469,-0.317871,2.593,2.61557
0.136885,-0.317871,2.593,2.61599
0.145301,-0.317871,2.593,2.61645
0.153717,-0.317871,2.593,2.61693
0.162134,-0.317871,2.593,2.61744
0.17055,-0.317871,2.593,2.61797
0.178966,-0.317871,2.593,2.61853
0.187382,-0.317871,2.593,2.61912
0.194364,-0.315541,2.574,2.60054
0.202718,-0.315541,2.574,2.60118
0.211073,-0.315541,2.574,2.60184
0.219428,-0.315541,2.574,2.60254
0.227782,-0.315541,2.574,2.60325
0.236137,-0.315541,2.574,2.604
0.244491,-0.315541,2.574,2.60477
0.252846,-0.315541,2.574,2.60557
0.2612,-0.315541,2.574,2.60639
0.269555,-0.315541,2.574,2.60724
0.27791,-0.315541,2.574,2.60812
0.286264,-0.315541,2.574,2.60902
0.294619,-0.315541,2.574,2.60995
0.302973,-0.315541,2.574,2.61091
0.311328,-0.315541,2.574,2.61189
0.319682,-0.315541,2.574,2.6129
0.325615,-0.313212,2.555,2.59464
0.333908,-0.313212,2.555,2.59569
0.342201,-0.313212,2.555,2.59677
0.350494,-0.313212,2.555,2.59788
0.356119,-0.310883,2.536,2.57968
0.36435,-0.310883,2.536,2.58083
0.372581,-0.310883,2.536,2.58201
0.380813,-0.310883,2.536,2.58321
0.389044,-0.310883,2.536,2.58443
0.397275,-0.310883,2.536,2.58569
0.405506,-0.310883,2.536,2.58696
0.413738,-0.310883,2.536,2.58827
0.421969,-0.310883,2.536,2.58959
0.433423,-0.313212,2.555,2.61036
0.441716,-0.313212,2.555,2.61175
0.446662,-0.310883,2.536,2.59373
0.454894,-0.310883,2.536,2.59516
0.466595,-0.313212,2.555,2.61607
0.474888,-0.313212,2.555,2.61756
0.48318,-0.313212,2.555,2.61908
0.487819,-0.310883,2.536,2.60114
0.49605,-0.310883,2.536,2.60269
0.504281,-0.310883,2.536,2.60427
0.512512,-0.310883,2.536,2.60588
0.520743,-0.310883,2.536,2.60751
0.528975,-0.310883,2.536,2.60917
0.537206,-0.310883,2.536,2.61085
0.545437,-0.310883,2.536,2.61256
0.553668,-0.310883,2.536,2.61429
0.5619,-0.310883,2.536,2.61604
0.570131,-0.310883,2.536,2.61782
0.578362,-0.310883,2.536,2.61963
0.586593,-0.310883,2.536,2.62146
0.590368,-0.308554,2.517,2.60366
0.598538,-0.308554,2.517,2.60552
0.606707,-0.308554,2.517,2.60741
0.614877,-0.308554,2.517,2.60932
0.623046,-0.308554,2.517,2.61126
0.631216,-0.308554,2.517,2.61322
0.639385,-0.308554,2.517,2.61521
0.652443,-0.310883,2.536,2.63697
0.665624,-0.313212,2.555,2.65879
0.673917,-0.313212,2.555,2.66088
0.68221,-0.313212,2.555,2.66299
0.690503,-0.313212,2.555,2.66513
0.698796,-0.313212,2.555,2.66729
0.707089,-0.313212,2.555,2.66948
0.715382,-0.313212,2.555,2.67168
0.723674,-0.313212,2.555,2.67392
0.737411,-0.315541,2.574,2.69607
0.745765,-0.315541,2.574,2.69837
0.75412,-0.315541,2.574,2.70069
0.756846,-0.313212,2.555,2.68308
0.759449,-0.310883,2.536,2.66547
0.76768,-0.310883,2.536,2.66782
0.775912,-0.310883,2.536,2.6702
0.778268,-0.308554,2.517,2.65258
0.786437,-0.308554,2.517,2.65499
0.788924,-0.306347,2.499,2.63842
0.797036,-0.306347,2.499,2.64086
0.805147,-0.306347,2.499,2.64331
0.8074,-0.304141,2.481,2.62674
0.815453,-0.304141,2.481,2.62923
0.823505,-0.304141,2.481,2.63173
0.825525,-0.301934,2.463,2.61515
0.833519,-0.301934,2.463,2.61769
0.835364,-0.299727,2.445,2.60109
0.8433,-0.299727,2.445,2.60365
0.851236,-0.299727,2.445,2.60624
0.859171,-0.299727,2.445,2.60884
0.867107,-0.299727,2.445,2.61146
0.875043,-0.299727,2.445,2.61411
0.87684,-0.297644,2.428,2.59858
0.88472,-0.297644,2.428,2.60125
0.892601,-0.297644,2.428,2.60394
0.900482,-0.297644,2.428,2.60665
0.908362,-0.297644,2.428,2.60939
0.916243,-0.297644,2.428,2.61214
0.924124,-0.297644,2.428,2.61492
0.932004,-0.297644,2.428,2.61771
0.939885,-0.297644,2.428,2.62053
0.947766,-0.297644,2.428,2.62336
0.955646,-0.297644,2.428,2.62622
nan,nan,nan,NaN
nan,nan,nan,NaN
0.979289,-0.297644,2.428,2.63492
0.987169,-0.297644,2.428,2.63786
0.99505,-0.297644,2.428,2.64081
nan,nan,nan,NaN
nan,nan,nan,NaN
nan,nan,nan,NaN
nan,nan,nan,NaN
nan,nan,nan,NaN
nan,nan,nan,NaN
nan,nan,nan,NaN
nan,nan,nan,NaN
nan,nan,nan,NaN
nan,nan,nan,NaN
nan,nan,nan,NaN
nan,nan,nan,NaN
nan,nan,nan,NaN
1.54289,-0.415451,3.389,3.74679
1.55389,-0.415451,3.389,3.75133
1.62953,-0.432613,3.529,3.91106
1.65819,-0.437149,3.566,3.9569
1.66977,-0.437149,3.566,3.96176
1.68134,-0.437149,3.566,3.96666
1.71096,-0.441807,3.604,4.0139
1.72265,-0.441807,3.604,4.0189
1.73435,-0.441807,3.604,4.02393
1.74605,-0.441807,3.604,4.02898
1.73921,-0.437149,3.566,3.99153
1.73262,-0.432613,3.529,3.95512
1.74408,-0.432613,3.529,3.96015
1.73762,-0.4282,3.493,3.92476
1.73143,-0.423909,3.458,3.89041
1.72502,-0.419619,3.423,3.856
1.73613,-0.419619,3.423,3.86098
1.74724,-0.419619,3.423,3.86599
1.79431,-0.4282,3.493,3.95018
1.82426,-0.432613,3.529,3.99611
1.83571,-0.432613,3.529,4.00135
1.86653,-0.437149,3.566,4.04863
1.91813,-0.446465,3.642,4.14038
1.92995,-0.446465,3.642,4.14587
1.96257,-0.451246,3.681,4.19584
1.99597,-0.45615,3.721,4.2471
2.00805,-0.45615,3.721,4.25278
1.99841,-0.451246,3.681,4.21272
2.01036,-0.451246,3.681,4.2184
2.02231,-0.451246,3.681,4.22411
2.03425,-0.451246,3.681,4.22984
2.02452,-0.446465,3.642,4.19073
2.03634,-0.446465,3.642,4.19645
2.02679,-0.441807,3.604,4.15835
1.99607,-0.432613,3.529,4.07741
2.00752,-0.432613,3.529,4.08303
1.99838,-0.4282,3.493,4.04697
1.98958,-0.423909,3.458,4.01197
2.00081,-0.423909,3.458,4.01755
2.01203,-0.423909,3.458,4.02315
2.00277,-0.419619,3.423,3.988
1.99388,-0.415451,3.389,3.95392
2.00488,-0.415451,3.389,3.95948
1.99625,-0.411405,3.356,3.92645
1.98801,-0.407482,3.324,3.89451
1.99879,-0.407482,3.324,3.90003
1.99024,-0.40356,3.292,3.86797
1.96324,-0.395959,3.23,3.80052
1.97372,-0.395959,3.23,3.80595
1.96516,-0.392159,3.199,3.77482
1.93973,-0.385049,3.141,3.7117
1.94992,-0.385049,3.141,3.71703
1.94202,-0.381494,3.112,3.68802
1.91762,-0.374751,3.057,3.62808
1.92754,-0.374751,3.057,3.63333
1.90324,-0.368132,3.003,3.57433
1.89642,-0.364944,2.977,3.54854
1.90609,-0.364944,2.977,3.55371
1.89902,-0.361757,2.951,3.52782
1.87626,-0.355628,2.901,3.47313
1.87007,-0.352685,2.877,3.44945
1.87941,-0.352685,2.877,3.45452
1.87299,-0.349743,2.853,3.43075
1.86642,-0.346801,2.829,3.40691
1.8756,-0.346801,2.829,3.41195
1.86946,-0.343982,2.806,3.38923
1.86317,-0.341162,2.783,3.36644
1.8722,-0.341162,2.783,3.37144
1.86637,-0.338465,2.761,3.34978
1.84544,-0.333071,2.717,3.30132
-2.19913,-0.378318,3.17,3.87662
-2.18884,-0.378318,3.17,3.8708
-2.17855,-0.378318,3.17,3.86499
-2.1881,-0.381779,3.199,3.8945
-2.17772,-0.381779,3.199,3.88868
-2.16734,-0.381779,3.199,3.88287
-2.15695,-0.381779,3.199,3.87709
-2.16737,-0.385478,3.23,3.90883
-2.17692,-0.389059,3.26,3.93928
-2.16634,-0.389059,3.26,3.93344
-2.17692,-0.392878,3.292,3.96618
-2.16623,-0.392878,3.292,3.96033
-2.15555,-0.392878,3.292,3.95449
-2.14486,-0.392878,3.292,3.94868
-2.15492,-0.396696,3.324,3.98121
-2.14413,-0.396696,3.324,3.97538
-2.13335,-0.396696,3.324,3.96957
-2.12256,-0.396696,3.324,3.96378
-2.11177,-0.396696,3.324,3.95802
-2.10098,-0.396696,3.324,3.95227
-2.09019,-0.396696,3.324,3.94655
-2.0794,-0.396696,3.324,3.94084
-2.06861,-0.396696,3.324,3.93516
-2.05782,-0.396696,3.324,3.9295
-2.04703,-0.396696,3.324,3.92386
-2.03625,-0.396696,3.324,3.91824
-2.02546,-0.396696,3.324,3.91265
-2.01467,-0.396696,3.324,3.90707
-2.00388,-0.396696,3.324,3.90152
-1.99309,-0.396696,3.324,3.89599
-1.9823,-0.396696,3.324,3.89048
nan,nan,nan,NaN
nan,nan,nan,NaN
nan,nan,nan,NaN
nan,nan,nan,NaN
nan,nan,nan,NaN
nan,nan,nan,NaN
nan,nan,nan,NaN
nan,nan,nan,NaN
nan,nan,nan,NaN
nan,nan,nan,NaN
nan,nan,nan,NaN
nan,nan,nan,NaN
nan,nan,nan,NaN
nan,nan,nan,NaN
nan,nan,nan,NaN
nan,nan,nan,NaN
nan,nan,nan,NaN
nan,nan,nan,NaN
nan,nan,nan,NaN
nan,nan,nan,NaN
nan,nan,nan,NaN
nan,nan,nan,NaN
nan,nan,nan,NaN
nan,nan,nan,NaN
nan,nan,nan,NaN
nan,nan,nan,NaN
nan,nan,nan,NaN
nan,nan,nan,NaN
nan,nan,nan,NaN
nan,nan,nan,NaN
nan,nan,nan,NaN
-1.18741,-0.287736,2.411,2.7029
-1.17958,-0.287736,2.411,2.69947
-1.1635,-0.285707,2.394,2.67705
-1.14752,-0.283679,2.377,2.65469
-1.1398,-0.283679,2.377,2.65137
-1.13209,-0.283679,2.377,2.64806
-1.12437,-0.283679,2.377,2.64477
-1.10914,-0.281769,2.361,2.62372
-1.10148,-0.281769,2.361,2.62049
-1.09381,-0.281769,2.361,2.61728
-1.08615,-0.281769,2.361,2.61408
-1.07849,-0.281769,2.361,2.61091
-1.07082,-0.281769,2.361,2.60775
-1.05596,-0.27986,2.345,2.58697
-1.04835,-0.27986,2.345,2.58387
-1.04073,-0.27986,2.345,2.58079
-1.03312,-0.27986,2.345,2.57773
-1.01851,-0.27795,2.329,2.55712
-1.01096,-0.27795,2.329,2.55412
-1.0034,-0.27795,2.329,2.55114
-0.995836,-0.27795,2.329,2.54817
-0.988277,-0.27795,2.329,2.54523
-0.980718,-0.27795,2.329,2.5423
-0.973158,-0.27795,2.329,2.5394
-0.965599,-0.27795,2.329,2.53651
-0.95804,-0.27795,2.329,2.53364
-0.95048,-0.27795,2.329,2.53079
-0.942921,-0.27795,2.329,2.52796
-0.935362,-0.27795,2.329,2.52515
-0.927802,-0.27795,2.329,2.52236
-0.920243,-0.27795,2.329,2.51959
-0.912683,-0.27795,2.329,2.51684
-0.905124,-0.27795,2.329,2.51411
-0.897565,-0.27795,2.329,2.5114
-0.890005,-0.27795,2.329,2.50871
-0.876384,-0.276041,2.313,2.48882
-0.868876,-0.276041,2.313,2.48618
-0.861369,-0.276041,2.313,2.48357
-0.853861,-0.276041,2.313,2.48098
-0.846354,-0.276041,2.313,2.4784
-0.838847,-0.276041,2.313,2.47585
-0.831339,-0.276041,2.313,2.47332
-0.818489,-0.27425,2.298,2.45478
-0.81103,-0.27425,2.298,2.4523
-0.803572,-0.27425,2.298,2.44985
-0.796113,-0.27425,2.298,2.44741
-0.788654,-0.27425,2.298,2.44499
-0.786295,-0.276041,2.313,2.45854
-0.778787,-0.276041,2.313,2.45615
-0.77128,-0.276041,2.313,2.45378
-0.763772,-0.276041,2.313,2.45143
-0.756265,-0.276041,2.313,2.4491
-0.748757,-0.276041,2.313,2.44679
-0.74125,-0.276041,2.313,2.44451
-0.738818,-0.27795,2.329,2.45914
-0.731259,-0.27795,2.329,2.45688
-0.7237,-0.27795,2.329,2.45464
-0.72106,-0.27986,2.345,2.46927
-0.713449,-0.27986,2.345,2.46705
-0.705837,-0.27986,2.345,2.46486
-0.70299,-0.281769,2.361,2.4795
-0.700039,-0.283679,2.377,2.49412
-0.692324,-0.283679,2.377,2.49197
-0.684609,-0.283679,2.377,2.48984
-0.686576,-0.287736,2.411,2.52331
-0.67875,-0.287736,2.411,2.52119
-0.670925,-0.287736,2.411,2.5191
-0.667775,-0.289765,2.428,2.53477
-0.659894,-0.289765,2.428,2.53271
-0.652013,-0.289765,2.428,2.53067
-0.644133,-0.289765,2.428,2.52865
-0.640707,-0.291794,2.445,2.54434
-0.632771,-0.291794,2.445,2.54236
-0.624835,-0.291794,2.445,2.54039
-0.616899,-0.291794,2.445,2.53845
-0.608963,-0.291794,2.445,2.53653
-0.601027,-0.291794,2.445,2.53464
-0.593092,-0.291794,2.445,2.53277
-0.585156,-0.291794,2.445,2.53092
-0.57722,-0.291794,2.445,2.5291
-0.573475,-0.293942,2.463,2.54591
-0.565481,-0.293942,2.463,2.54412
-0.557486,-0.293942,2.463,2.54235
-0.549492,-0.293942,2.463,2.54061
-0.541498,-0.293942,2.463,2.5389
-0.533504,-0.293942,2.463,2.5372
-0.525509,-0.293942,2.463,2.53553
-0.521297,-0.29609,2.481,2.55241
-0.513244,-0.29609,2.481,2.55077
-0.505192,-0.29609,2.481,2.54917
-0.497139,-0.29609,2.481,2.54758
-0.489086,-0.29609,2.481,2.54602
-0.481034,-0.29609,2.481,2.54449
-0.476412,-0.298238,2.499,2.56143
-0.471674,-0.300387,2.517,2.57837
-0.463505,-0.300387,2.517,2.57689
-0.455335,-0.300387,2.517,2.57543
-0.447166,-0.300387,2.517,2.574
-0.438996,-0.300387,2.517,2.57259
-0.430827,-0.300387,2.517,2.57121
-0.422657,-0.300387,2.517,2.56986
-0.414487,-0.300387,2.517,2.56853
-0.409385,-0.302654,2.536,2.5866
-0.401154,-0.302654,2.536,2.58531
-0.392923,-0.302654,2.536,2.58404
-0.384691,-0.302654,2.536,2.58281
-0.37364,-0.300387,2.517,2.56225
-0.36547,-0.300387,2.517,2.56107
-0.357301,-0.300387,2.517,2.55992
-0.349131,-0.300387,2.517,2.55879
-0.340961,-0.300387,2.517,2.55769
-0.332792,-0.300387,2.517,2.55661
-0.322301,-0.298238,2.499,2.53729
-0.31419,-0.298238,2.499,2.53627
-0.306079,-0.298238,2.499,2.53528
-0.295821,-0.29609,2.481,2.51606
-0.287769,-0.29609,2.481,2.51512
-0.281745,-0.298238,2.499,2.53245
-0.273634,-0.298238,2.499,2.53157
-0.265523,-0.298238,2.499,2.5307
-0.257412,-0.298238,2.499,2.52986
-0.249301,-0.298238,2.499,2.52905
-0.24119,-0.298238,2.499,2.52826
-0.233078,-0.298238,2.499,2.5275
-0.224967,-0.298238,2.499,2.52677
-0.216856,-0.298238,2.499,2.52606
-0.208745,-0.298238,2.499,2.52538
-0.200634,-0.298238,2.499,2.52472
-0.192523,-0.298238,2.499,2.52409
-0.18574,-0.300387,2.517,2.54166
-0.17757,-0.300387,2.517,2.54107
-0.169401,-0.300387,2.517,2.54052
-0.162448,-0.302654,2.536,2.55916
-0.154217,-0.302654,2.536,2.55865
-0.145986,-0.302654,2.536,2.55816
-0.137755,-0.302654,2.536,2.55771
-0.129523,-0.302654,2.536,2.55728
-0.121292,-0.302654,2.536,2.55687
-0.113061,-0.302654,2.536,2.5565
-0.105615,-0.304922,2.555,2.5753
-0.0973222,-0.304922,2.555,2.57497
-0.0890293,-0.304922,2.555,2.57467
-0.0807364,-0.304922,2.555,2.5744
-0.0724435,-0.304922,2.555,2.57415
-0.0641506,-0.304922,2.555,2.57393
-0.0562731,-0.307189,2.574,2.59288
-0.0479185,-0.307189,2.574,2.59271
-0.039564,-0.307189,2.574,2.59257
-0.0312094,-0.307189,2.574,2.59245
-0.0228548,-0.307189,2.574,2.59237
-0.0145003,-0.307189,2.574,2.59231
-0.00614571,-0.307189,2.574,2.59227
0.00220886,-0.307189,2.574,2.59227
0.0105634,-0.307189,2.574,2.59229
0.018918,-0.307189,2.574,2.59233
0.0272725,-0.307189,2.574,2.59241
0.0356271,-0.307189,2.574,2.59251
0.0439817,-0.307189,2.574,2.59264
0.0523362,-0.307189,2.574,2.59279
0.0606908,-0.307189,2.574,2.59298
0.0690454,-0.307189,2.574,2.59319
0.0773999,-0.307189,2.574,2.59342
0.0857545,-0.307189,2.574,2.59368
0.0941091,-0.307189,2.574,2.59397
0.102464,-0.307189,2.574,2.59429
0.111636,-0.309457,2.593,2.61379
0.120052,-0.309457,2.593,2.61416
0.128469,-0.309457,2.593,2.61456
0.136885,-0.309457,2.593,2.61499
0.145301,-0.309457,2.593,2.61544
0.153717,-0.309457,2.593,2.61592
0.162134,-0.309457,2.593,2.61643
0.17055,-0.309457,2.593,2.61696
0.178966,-0.309457,2.593,2.61753
0.187382,-0.309457,2.593,2.61811
0.194364,-0.307189,2.574,2.59954
0.202718,-0.307189,2.574,2.60018
0.211073,-0.307189,2.574,2.60084
0.219428,-0.307189,2.574,2.60154
0.227782,-0.307189,2.574,2.60225
0.236137,-0.307189,2.574,2.603
0.246296,-0.309457,2.593,2.62299
0.254712,-0.309457,2.593,2.62379
0.263128,-0.309457,2.593,2.62462
0.271545,-0.309457,2.593,2.62548
0.279961,-0.309457,2.593,2.62636
0.288377,-0.309457,2.593,2.62728
0.296793,-0.309457,2.593,2.62821
0.30521,-0.309457,2.593,2.62918
0.313626,-0.309457,2.593,2.63017
0.319682,-0.307189,2.574,2.6119
0.328037,-0.307189,2.574,2.61294
0.336391,-0.307189,2.574,2.614
0.344746,-0.307189,2.574,2.61509
0.350494,-0.304922,2.555,2.59689
0.356119,-0.302654,2.536,2.5787
0.36435,-0.302654,2.536,2.57985
0.372581,-0.302654,2.536,2.58103
0.380813,-0.302654,2.536,2.58223
0.389044,-0.302654,2.536,2.58346
0.397275,-0.302654,2.536,2.58471
0.405506,-0.302654,2.536,2.58599
0.413738,-0.302654,2.536,2.58729
0.421969,-0.302654,2.536,2.58862
0.433423,-0.304922,2.555,2.60938
0.441716,-0.304922,2.555,2.61077
0.446662,-0.302654,2.536,2.59276
0.454894,-0.302654,2.536,2.59419
0.466595,-0.304922,2.555,2.61509
0.474888,-0.304922,2.555,2.61659
0.48318,-0.304922,2.555,2.6181
0.487819,-0.302654,2.536,2.60017
0.49605,-0.302654,2.536,2.60172
0.504281,-0.302654,2.536,2.6033
0.512512,-0.302654,2.536,2.60491
0.520743,-0.302654,2.536,2.60654
0.528975,-0.302654,2.536,2.6082
0.537206,-0.302654,2.536,2.60988
0.545437,-0.302654,2.536,2.61159
0.553668,-0.302654,2.536,2.61332
0.5619,-0.302654,2.536,2.61508
0.570131,-0.302654,2.536,2.61686
0.578362,-0.302654,2.536,2.61866
0.586593,-0.302654,2.536,2.62049
0.594824,-0.302654,2.536,2.62235
0.603056,-0.302654,2.536,2.62423
0.611287,-0.302654,2.536,2.62613
0.619518,-0.302654,2.536,2.62806
0.627749,-0.302654,2.536,2.63001
0.635981,-0.302654,2.536,2.63199
0.644212,-0.302654,2.536,2.63399
0.657331,-0.304922,2.555,2.65576
0.665624,-0.304922,2.555,2.65783
0.673917,-0.304922,2.555,2.65992
0.68221,-0.304922,2.555,2.66203
0.690503,-0.304922,2.555,2.66417
0.698796,-0.304922,2.555,2.66633
0.707089,-0.304922,2.555,2.66852
0.715382,-0.304922,2.555,2.67073
0.723674,-0.304922,2.555,2.67296
0.737411,-0.307189,2.574,2.69511
0.745765,-0.307189,2.574,2.69741
0.75412,-0.307189,2.574,2.69973
0.756846,-0.304922,2.555,2.68213
0.759449,-0.302654,2.536,2.66452
0.76768,-0.302654,2.536,2.66688
0.775912,-0.302654,2.536,2.66926
0.778268,-0.300387,2.517,2.65165
0.786437,-0.300387,2.517,2.65405
0.788924,-0.298238,2.499,2.63749
0.797036,-0.298238,2.499,2.63993
0.805147,-0.298238,2.499,2.64239
0.8074,-0.29609,2.481,2.62582
0.815453,-0.29609,2.481,2.62831
0.823505,-0.29609,2.481,2.63082
0.825525,-0.293942,2.463,2.61424
0.833519,-0.293942,2.463,2.61678
0.835364,-0.291794,2.445,2.60019
0.8433,-0.291794,2.445,2.60275
0.851236,-0.291794,2.445,2.60534
0.859171,-0.291794,2.445,2.60794
0.867107,-0.291794,2.445,2.61056
0.875043,-0.291794,2.445,2.61321
0.87684,-0.289765,2.428,2.59769
0.88472,-0.289765,2.428,2.60036
0.892601,-0.289765,2.428,2.60305
0.900482,-0.289765,2.428,2.60577
0.908362,-0.289765,2.428,2.6085
0.916243,-0.289765,2.428,2.61125
0.924124,-0.289765,2.428,2.61403
0.932004,-0.289765,2.428,2.61683
0.939885,-0.289765,2.428,2.61964
0.947766,-0.289765,2.428,2.62248
0.955646,-0.289765,2.428,2.62534
nan,nan,nan,NaN
0.978209,-0.291794,2.445,2.64954
0.979289,-0.289765,2.428,2.63404
0.987169,-0.289765,2.428,2.63698
0.99505,-0.289765,2.428,2.63994
1.00995,-0.291794,2.445,2.66142
nan,nan,nan,NaN
nan,nan,nan,NaN
nan,nan,nan,NaN
nan,nan,nan,NaN
nan,nan,nan,NaN
nan,nan,nan,NaN
nan,nan,nan,NaN
nan,nan,nan,NaN
nan,nan,nan,NaN
nan,nan,nan,NaN
nan,nan,nan,NaN
nan,nan,nan,NaN
1.54289,-0.404454,3.389,3.74558
1.55389,-0.404454,3.389,3.75013
1.62953,-0.421162,3.529,3.90981
1.65819,-0.425577,3.566,3.95564
1.66977,-0.425577,3.566,3.9605
1.68134,-0.425577,3.566,3.9654
1.71096,-0.430113,3.604,4.01263
1.72265,-0.430113,3.604,4.01763
1.73435,-0.430113,3.604,4.02266
1.74605,-0.430113,3.604,4.02772
1.73921,-0.425577,3.566,3.99028
1.73262,-0.421162,3.529,3.95388
1.74408,-0.421162,3.529,3.95892
1.73762,-0.416865,3.493,3.92354
1.73143,-0.412688,3.458,3.88921
1.72502,-0.408511,3.423,3.8548
1.73613,-0.408511,3.423,3.85979
1.74724,-0.408511,3.423,3.8648
1.79431,-0.416865,3.493,3.94897
1.82426,-0.421162,3.529,3.99489
1.83571,-0.421162,3.529,4.00013
1.86653,-0.425577,3.566,4.0474
1.91813,-0.434648,3.642,4.13912
1.92995,-0.434648,3.642,4.14461
1.96257,-0.439302,3.681,4.19457
1.97451,-0.439302,3.681,4.20017
1.98646,-0.439302,3.681,4.2058
1.99841,-0.439302,3.681,4.21146
1.98906,-0.434648,3.642,4.17246
2.00088,-0.434648,3.642,4.17811
2.0127,-0.434648,3.642,4.18378
2.0034,-0.430113,3.604,4.14577
2.0151,-0.430113,3.604,4.15144
2.00542,-0.425577,3.566,4.11329
1.97571,-0.416865,3.493,4.03463
1.98704,-0.416865,3.493,4.04019
1.97836,-0.412688,3.458,4.00524
1.96944,-0.408511,3.423,3.9702
1.98055,-0.408511,3.423,3.97573
1.99166,-0.408511,3.423,3.98127
1.98288,-0.404454,3.389,3.94724
1.99388,-0.404454,3.389,3.95278
2.00488,-0.404454,3.389,3.95834
1.99625,-0.400515,3.356,3.92532
1.96887,-0.392878,3.292,3.85591
1.97955,-0.392878,3.292,3.86138
1.97089,-0.389059,3.26,3.82928
1.96324,-0.385478,3.23,3.79945
1.97372,-0.385478,3.23,3.80487
1.96516,-0.381779,3.199,3.77375
1.93973,-0.374857,3.141,3.71065
1.94992,-0.374857,3.141,3.71599
1.94202,-0.371396,3.112,3.68699
1.91762,-0.364832,3.057,3.62707
1.92754,-0.364832,3.057,3.63232
1.92035,-0.36161,3.03,3.60547
1.89642,-0.355284,2.977,3.54756
1.90609,-0.355284,2.977,3.55274
1.88293,-0.349198,2.926,3.49698
1.87626,-0.346214,2.901,3.47218
1.87007,-0.34335,2.877,3.44851
1.87941,-0.34335,2.877,3.45358
1.85724,-0.337622,2.829,3.40097
1.85125,-0.334877,2.806,3.3783
1.86035,-0.334877,2.806,3.3833
1.85414,-0.332132,2.783,3.36054
1.83371,-0.326881,2.739,3.31232
1.8426,-0.326881,2.739,3.31725
1.83662,-0.324255,2.717,3.29551
1.83118,-0.321749,2.696,3.27493
-2.17901,-0.364665,3.141,3.84018
-2.16882,-0.364665,3.141,3.8344
-2.15862,-0.364665,3.141,3.82864
-2.14843,-0.364665,3.141,3.82291
-2.13823,-0.364665,3.141,3.81719
-2.14769,-0.368032,3.17,3.84668
-2.1374,-0.368032,3.17,3.84094
-2.16737,-0.374997,3.23,3.90781
-2.17692,-0.37848,3.26,3.93825
-2.16634,-0.37848,3.26,3.93241
-2.17692,-0.382196,3.292,3.96514
-2.16623,-0.382196,3.292,3.95928
-2.15555,-0.382196,3.292,3.95344
-2.14486,-0.382196,3.292,3.94763
-2.15492,-0.385911,3.324,3.98015
-2.14413,-0.385911,3.324,3.97432
-2.13335,-0.385911,3.324,3.96851
-2.12256,-0.385911,3.324,3.96272
-2.11177,-0.385911,3.324,3.95695
-2.10098,-0.385911,3.324,3.9512
-2.09019,-0.385911,3.324,3.94548
-2.0794,-0.385911,3.324,3.93977
-2.06861,-0.385911,3.324,3.93409
-2.05782,-0.385911,3.324,3.92843
-2.04703,-0.385911,3.324,3.92279
-2.03625,-0.385911,3.324,3.91717
-2.02546,-0.385911,3.324,3.91157
-2.01467,-0.385911,3.324,3.90599
-2.02317,-0.389626,3.356,3.93799
-2.01228,-0.389626,3.356,3.9324
-2.00138,-0.389626,3.356,3.92684
nan,nan,nan,NaN
nan,nan,nan,NaN
nan,nan,nan,NaN
nan,nan,nan,NaN
nan,nan,nan,NaN
nan,nan,nan,NaN
nan,nan,nan,NaN
nan,nan,nan,NaN
nan,nan,nan,NaN
nan,nan,nan,NaN
nan,nan,nan,NaN
nan,nan,nan,NaN
nan,nan,nan,NaN
nan,nan,nan,NaN
nan,nan,nan,NaN
nan,nan,nan,NaN
nan,nan,nan,NaN
nan,nan,nan,NaN
nan,nan,nan,NaN
nan,nan,nan,NaN
nan,nan,nan,NaN
nan,nan,nan,NaN
nan,nan,nan,NaN
nan,nan,nan,NaN
nan,nan,nan,NaN
nan,nan,nan,NaN
nan,nan,nan,NaN
nan,nan,nan,NaN
nan,nan,nan,NaN
nan,nan,nan,NaN
nan,nan,nan,NaN
-1.18741,-0.279913,2.411,2.70208
-1.17958,-0.279913,2.411,2.69865
-1.1635,-0.277939,2.394,2.67623
-1.14752,-0.275966,2.377,2.65388
-1.1398,-0.275966,2.377,2.65055
-1.13209,-0.275966,2.377,2.64725
-1.12437,-0.275966,2.377,2.64396
-1.10914,-0.274108,2.361,2.62291
-1.10148,-0.274108,2.361,2.61968
-1.09381,-0.274108,2.361,2.61646
-1.08615,-0.274108,2.361,2.61327
-1.07849,-0.274108,2.361,2.61009
-1.07082,-0.274108,2.361,2.60694
-1.05596,-0.27225,2.345,2.58615
-1.04835,-0.27225,2.345,2.58306
-1.04073,-0.27225,2.345,2.57998
-1.03312,-0.27225,2.345,2.57691
-1.01851,-0.270393,2.329,2.55631
-1.01096,-0.270393,2.329,2.55331
-1.0034,-0.270393,2.329,2.55032
-0.995836,-0.270393,2.329,2.54736
-0.988277,-0.270393,2.329,2.54441
-0.980718,-0.270393,2.329,2.54149
-0.973158,-0.270393,2.329,2.53858
-0.965599,-0.270393,2.329,2.53569
-0.95804,-0.270393,2.329,2.53282
-0.95048,-0.270393,2.329,2.52997
-0.942921,-0.270393,2.329,2.52714
-0.935362,-0.270393,2.329,2.52433
-0.927802,-0.270393,2.329,2.52154
-0.920243,-0.270393,2.329,2.51877
-0.912683,-0.270393,2.329,2.51602
-0.905124,-0.270393,2.329,2.51329
-0.897565,-0.270393,2.329,2.51057
-0.890005,-0.270393,2.329,2.50788
-0.876384,-0.268535,2.313,2.488
-0.868876,-0.268535,2.313,2.48536
-0.861369,-0.268535,2.313,2.48275
-0.853861,-0.268535,2.313,2.48015
-0.846354,-0.268535,2.313,2.47758
-0.838847,-0.268535,2.313,2.47502
-0.831339,-0.268535,2.313,2.47249
-0.818489,-0.266794,2.298,2.45396
-0.81103,-0.266794,2.298,2.45148
-0.803572,-0.266794,2.298,2.44902
-0.796113,-0.266794,2.298,2.44659
-0.788654,-0.266794,2.298,2.44417
-0.786295,-0.268535,2.313,2.45771
-0.778787,-0.268535,2.313,2.45532
-0.77128,-0.268535,2.313,2.45295
-0.763772,-0.268535,2.313,2.4506
-0.756265,-0.268535,2.313,2.44827
-0.748757,-0.268535,2.313,2.44596
-0.74125,-0.268535,2.313,2.44367
-0.738818,-0.270393,2.329,2.45829
-0.731259,-0.270393,2.329,2.45603
-0.7237,-0.270393,2.329,2.45379
-0.72106,-0.27225,2.345,2.46842
-0.713449,-0.27225,2.345,2.4662
-0.705837,-0.27225,2.345,2.46401
-0.70299,-0.274108,2.361,2.47864
-0.700039,-0.275966,2.377,2.49326
-0.692324,-0.275966,2.377,2.4911
-0.689505,-0.277939,2.394,2.50677
-0.686576,-0.279913,2.411,2.52243
-0.67875,-0.279913,2.411,2.52031
-0.675655,-0.281887,2.428,2.53597
-0.667775,-0.281887,2.428,2.53388
-0.659894,-0.281887,2.428,2.53182
-0.652013,-0.281887,2.428,2.52978
-0.648643,-0.28386,2.445,2.54545
-0.640707,-0.28386,2.445,2.54344
-0.632771,-0.28386,2.445,2.54146
-0.624835,-0.28386,2.445,2.53949
-0.616899,-0.28386,2.445,2.53755
-0.608963,-0.28386,2.445,2.53563
-0.601027,-0.28386,2.445,2.53374
-0.597458,-0.28595,2.463,2.55051
-0.589464,-0.28595,2.463,2.54865
-0.581469,-0.28595,2.463,2.54681
-0.573475,-0.28595,2.463,2.545
-0.565481,-0.28595,2.463,2.54321
-0.557486,-0.28595,2.463,2.54144
-0.549492,-0.28595,2.463,2.5397
-0.541498,-0.28595,2.463,2.53798
-0.533504,-0.28595,2.463,2.53629
-0.52935,-0.28804,2.481,2.55314
-0.521297,-0.28804,2.481,2.55149
-0.513244,-0.28804,2.481,2.54985
-0.505192,-0.28804,2.481,2.54824
-0.497139,-0.28804,2.481,2.54666
-0.492635,-0.29013,2.499,2.56357
-0.484524,-0.29013,2.499,2.56202
-0.479844,-0.292219,2.517,2.57894
-0.471674,-0.292219,2.517,2.57743
-0.463505,-0.292219,2.517,2.57595
-0.455335,-0.292219,2.517,2.57449
-0.447166,-0.292219,2.517,2.57306
-0.438996,-0.292219,2.517,2.57165
-0.430827,-0.292219,2.517,2.57027
-0.422657,-0.292219,2.517,2.56891
-0.414487,-0.292219,2.517,2.56758
-0.409385,-0.294425,2.536,2.58565
-0.401154,-0.294425,2.536,2.58436
-0.392923,-0.294425,2.536,2.58309
-0.384691,-0.294425,2.536,2.58185
-0.37646,-0.294425,2.536,2.58064
-0.368229,-0.294425,2.536,2.57945
-0.359998,-0.294425,2.536,2.57829
-0.349131,-0.292219,2.517,2.55785
-0.340961,-0.292219,2.517,2.55674
-0.332792,-0.292219,2.517,2.55567
-0.322301,-0.29013,2.499,2.53635
-0.31419,-0.29013,2.499,2.53533
-0.306079,-0.29013,2.499,2.53434
-0.297967,-0.29013,2.499,2.53337
-0.289856,-0.29013,2.499,2.53243
-0.281745,-0.29013,2.499,2.53151
-0.273634,-0.29013,2.499,2.53062
-0.265523,-0.29013,2.499,2.52976
-0.257412,-0.29013,2.499,2.52892
-0.249301,-0.29013,2.499,2.52811
-0.24119,-0.29013,2.499,2.52732
-0.234757,-0.292219,2.517,2.54476
-0.226588,-0.292219,2.517,2.54402
-0.218418,-0.292219,2.517,2.5433
-0.210249,-0.292219,2.517,2.54261
-0.202079,-0.292219,2.517,2.54195
-0.193909,-0.292219,2.517,2.54132
-0.18574,-0.292219,2.517,2.5407
-0.17757,-0.292219,2.517,2.54012
-0.169401,-0.292219,2.517,2.53956
-0.162448,-0.294425,2.536,2.5582
-0.154217,-0.294425,2.536,2.55769
-0.145986,-0.294425,2.536,2.5572
-0.137755,-0.294425,2.536,2.55675
-0.129523,-0.294425,2.536,2.55632
-0.122201,-0.296631,2.555,2.57506
-0.113908,-0.296631,2.555,2.57468
-0.105615,-0.296631,2.555,2.57433
-0.0973222,-0.296631,2.555,2.574
-0.0890293,-0.296631,2.555,2.5737
-0.0807364,-0.296631,2.555,2.57343
-0.0724435,-0.296631,2.555,2.57318
-0.0641506,-0.296631,2.555,2.57296
-0.0562731,-0.298837,2.574,2.5919
-0.0479185,-0.298837,2.574,2.59173
-0.039564,-0.298837,2.574,2.59159
-0.0312094,-0.298837,2.574,2.59148
-0.0228548,-0.298837,2.574,2.59139
-0.0145003,-0.298837,2.574,2.59133
-0.00614571,-0.298837,2.574,2.5913
0.00220886,-0.298837,2.574,2.59129
0.0105634,-0.298837,2.574,2.59131
0.018918,-0.298837,2.574,2.59136
0.0272725,-0.298837,2.574,2.59143
0.0356271,-0.298837,2.574,2.59153
0.0439817,-0.298837,2.574,2.59166
0.0523362,-0.298837,2.574,2.59182
0.0606908,-0.298837,2.574,2.592
0.0690454,-0.298837,2.574,2.59221
0.0773999,-0.298837,2.574,2.59245
0.0857545,-0.298837,2.574,2.59271
0.0948037,-0.301043,2.593,2.61214
0.10322,-0.301043,2.593,2.61246
0.111636,-0.301043,2.593,2.6128
0.120052,-0.301043,2.593,2.61318
0.128469,-0.301043,2.593,2.61358
0.136885,-0.301043,2.593,2.614
0.145301,-0.301043,2.593,2.61446
0.153717,-0.301043,2.593,2.61494
0.162134,-0.301043,2.593,2.61545
0.17055,-0.301043,2.593,2.61598
0.178966,-0.301043,2.593,2.61654
0.187382,-0.301043,2.593,2.61713
0.195799,-0.301043,2.593,2.61775
0.204215,-0.301043,2.593,2.61839
0.212631,-0.301043,2.593,2.61906
0.222752,-0.303365,2.613,2.63997
0.231233,-0.303365,2.613,2.64069
0.23788,-0.301043,2.593,2.62123
0.246296,-0.301043,2.593,2.62201
0.254712,-0.301043,2.593,2.62281
0.263128,-0.301043,2.593,2.62365
0.271545,-0.301043,2.593,2.6245
0.279961,-0.301043,2.593,2.62539
0.288377,-0.301043,2.593,2.6263
0.296793,-0.301043,2.593,2.62723
0.30521,-0.301043,2.593,2.6282
0.313626,-0.301043,2.593,2.62919
0.319682,-0.298837,2.574,2.61093
0.328037,-0.298837,2.574,2.61197
0.336391,-0.298837,2.574,2.61303
0.344746,-0.298837,2.574,2.61412
0.353101,-0.298837,2.574,2.61524
0.358787,-0.296631,2.555,2.59706
0.36708,-0.296631,2.555,2.59822
0.372581,-0.294425,2.536,2.58008
0.380813,-0.294425,2.536,2.58128
0.389044,-0.294425,2.536,2.58251
0.397275,-0.294425,2.536,2.58376
0.405506,-0.294425,2.536,2.58504
0.413738,-0.294425,2.536,2.58634
0.421969,-0.294425,2.536,2.58767
0.433423,-0.296631,2.555,2.60842
0.441716,-0.296631,2.555,2.60981
0.446662,-0.294425,2.536,2.59181
0.454894,-0.294425,2.536,2.59324
0.466595,-0.296631,2.555,2.61414
0.474888,-0.296631,2.555,2.61563
0.48318,-0.296631,2.555,2.61715
0.487819,-0.294425,2.536,2.59922
0.49605,-0.294425,2.536,2.60078
0.504281,-0.294425,2.536,2.60236
0.512512,-0.294425,2.536,2.60397
0.520743,-0.294425,2.536,2.6056
0.528975,-0.294425,2.536,2.60726
0.537206,-0.294425,2.536,2.60894
0.545437,-0.294425,2.536,2.61065
0.553668,-0.294425,2.536,2.61238
0.5619,-0.294425,2.536,2.61414
0.570131,-0.294425,2.536,2.61592
0.578362,-0.294425,2.536,2.61773
0.586593,-0.294425,2.536,2.61956
0.594824,-0.294425,2.536,2.62141
0.603056,-0.294425,2.536,2.62329
0.611287,-0.294425,2.536,2.6252
0.619518,-0.294425,2.536,2.62712
0.627749,-0.294425,2.536,2.62908
0.635981,-0.294425,2.536,2.63106
0.644212,-0.294425,2.536,2.63306
0.657331,-0.296631,2.555,2.65483
0.665624,-0.296631,2.555,2.65689
0.673917,-0.296631,2.555,2.65898
0.68221,-0.296631,2.555,2.66109
0.690503,-0.296631,2.555,2.66323
0.698796,-0.296631,2.555,2.6654
0.707089,-0.296631,2.555,2.66758
0.715382,-0.296631,2.555,2.66979
0.723674,-0.296631,2.555,2.67203
0.731967,-0.296631,2.555,2.67428
0.74026,-0.296631,2.555,2.67657
0.748553,-0.296631,2.555,2.67887
0.751218,-0.294425,2.536,2.66126
0.759449,-0.294425,2.536,2.6636
0.76768,-0.294425,2.536,2.66595
0.770098,-0.292219,2.517,2.64835
0.772702,-0.29013,2.499,2.63178
0.780813,-0.29013,2.499,2.63417
0.788924,-0.29013,2.499,2.63658
0.791295,-0.28804,2.481,2.62001
0.799347,-0.28804,2.481,2.62246
0.8074,-0.28804,2.481,2.62492
0.809537,-0.28595,2.463,2.60835
0.817531,-0.28595,2.463,2.61084
0.825525,-0.28595,2.463,2.61336
0.827428,-0.28386,2.445,2.59677
0.835364,-0.28386,2.445,2.59931
0.8433,-0.28386,2.445,2.60188
0.851236,-0.28386,2.445,2.60446
0.859171,-0.28386,2.445,2.60706
0.867107,-0.28386,2.445,2.60969
0.875043,-0.28386,2.445,2.61234
0.87684,-0.281887,2.428,2.59682
0.88472,-0.281887,2.428,2.5995
0.892601,-0.281887,2.428,2.60219
0.900482,-0.281887,2.428,2.6049
0.908362,-0.281887,2.428,2.60764
0.916243,-0.281887,2.428,2.61039
0.924124,-0.281887,2.428,2.61317
0.932004,-0.281887,2.428,2.61597
0.946466,-0.28386,2.445,2.63712
0.954402,-0.28386,2.445,2.63998
0.962338,-0.28386,2.445,2.64286
0.970273,-0.28386,2.445,2.64576
0.978209,-0.28386,2.445,2.64868
0.986145,-0.28386,2.445,2.65162
0.994081,-0.28386,2.445,2.65458
1.00202,-0.28386,2.445,2.65756
1.00995,-0.28386,2.445,2.66057
nan,nan,nan,NaN
nan,nan,nan,NaN
nan,nan,nan,NaN
nan,nan,nan,NaN
nan,nan,nan,NaN
nan,nan,nan,NaN
nan,nan,nan,NaN
nan,nan,nan,NaN
nan,nan,nan,NaN
nan,nan,nan,NaN
nan,nan,nan,NaN
1.70049,-0.436762,3.762,4.15151
1.62347,-0.414006,3.566,3.93998
1.63504,-0.414006,3.566,3.94476
1.69972,-0.427358,3.681,4.07694
1.71167,-0.427358,3.681,4.08194
1.72361,-0.427358,3.681,4.08696
1.73556,-0.427358,3.681,4.09201
1.74751,-0.427358,3.681,4.0971
1.75946,-0.427358,3.681,4.10221
1.77141,-0.427358,3.681,4.10734
1.78335,-0.427358,3.681,4.11251
1.77628,-0.42283,3.642,4.07408
1.76944,-0.418418,3.604,4.03668
1.78114,-0.418418,3.604,4.04183
1.77394,-0.414006,3.566,4.00432
1.74896,-0.405531,3.493,3.92739
1.74266,-0.401468,3.458,3.89304
1.75388,-0.401468,3.458,3.89808
1.76511,-0.401468,3.458,3.90314
1.8128,-0.409711,3.529,3.98848
1.82426,-0.409711,3.529,3.9937
1.83571,-0.409711,3.529,3.99894
1.88642,-0.418418,3.604,4.08931
nan,nan,nan,NaN
1.95062,-0.427358,3.681,4.18776
1.96257,-0.427358,3.681,4.19334
1.97451,-0.427358,3.681,4.19894
1.98646,-0.427358,3.681,4.20457
1.99841,-0.427358,3.681,4.21023
1.98906,-0.42283,3.642,4.17125
2.00088,-0.42283,3.642,4.1769
1.9917,-0.418418,3.604,4.13893
2.0034,-0.418418,3.604,4.14457
2.0151,-0.418418,3.604,4.15024
2.00542,-0.414006,3.566,4.11211
1.97571,-0.405531,3.493,4.03348
1.98704,-0.405531,3.493,4.03904
1.95833,-0.397404,3.423,3.96358
1.96944,-0.397404,3.423,3.96908
1.98055,-0.397404,3.423,3.9746
1.99166,-0.397404,3.423,3.98015
1.98288,-0.393457,3.389,3.94613
