-0.136723,-0.34939,2.517,2.54481
-0.128553,-0.34939,2.517,2.54438
-0.121292,-0.352028,2.536,2.56319
-0.113061,-0.352028,2.536,2.56281
-0.10483,-0.352028,2.536,2.56246
-0.0965985,-0.352028,2.536,2.56214
-0.0883672,-0.352028,2.536,2.56184
-0.0807364,-0.354665,2.555,2.58076
-0.0724435,-0.354665,2.555,2.58052
-0.0636736,-0.352028,2.536,2.56111
-0.0554423,-0.352028,2.536,2.56092
-0.0475648,-0.354665,2.555,2.57994
-0.0392719,-0.354665,2.555,2.5798
-0.0307487,-0.352028,2.536,2.5605
-0.0225174,-0.352028,2.536,2.56042
-0.0143932,-0.354665,2.555,2.57954
-0.00610034,-0.354665,2.555,2.57951
0.00219255,-0.354665,2.555,2.5795
0.0104854,-0.354665,2.555,2.57952
0.0187783,-0.354665,2.555,2.57957
0.0270712,-0.354665,2.555,2.57964
0.0356271,-0.357302,2.574,2.59893
0.0439817,-0.357302,2.574,2.59905
0.0523362,-0.357302,2.574,2.59921
0.0611388,-0.35994,2.593,2.61858
0.069555,-0.35994,2.593,2.61879
0.0779713,-0.35994,2.593,2.61902
0.0870538,-0.362716,2.613,2.63949
0.095535,-0.362716,2.613,2.63978
0.104016,-0.362716,2.613,2.6401
0.112497,-0.362716,2.613,2.64045
0.120978,-0.362716,2.613,2.64083
0.12946,-0.362716,2.613,2.64123
0.137941,-0.362716,2.613,2.64166
0.146422,-0.362716,2.613,2.64212
0.154903,-0.362716,2.613,2.6426
0.163384,-0.362716,2.613,2.64311
0.171865,-0.362716,2.613,2.64365
0.180346,-0.362716,2.613,2.64421
0.187382,-0.35994,2.593,2.62456
0.195799,-0.35994,2.593,2.62517
0.204215,-0.35994,2.593,2.62582
0.212631,-0.35994,2.593,2.62648
0.221047,-0.35994,2.593,2.62718
0.229463,-0.35994,2.593,2.6279
0.23788,-0.35994,2.593,2.62865
0.246296,-0.35994,2.593,2.62942
0.254712,-0.35994,2.593,2.63023
0.263128,-0.35994,2.593,2.63105
0.271545,-0.35994,2.593,2.63191
0.279961,-0.35994,2.593,2.63279
0.288377,-0.35994,2.593,2.6337
0.296793,-0.35994,2.593,2.63463
0.30521,-0.35994,2.593,2.63559
0.313626,-0.35994,2.593,2.63658
0.322042,-0.35994,2.593,2.6376
0.330458,-0.35994,2.593,2.63864
0.338875,-0.35994,2.593,2.6397
0.344746,-0.357302,2.574,2.62145
0.350494,-0.354665,2.555,2.6032
0.358787,-0.354665,2.555,2.60433
0.36708,-0.354665,2.555,2.60549
0.375373,-0.354665,2.555,2.60667
0.383666,-0.354665,2.555,2.60788
0.391959,-0.354665,2.555,2.60911
0.400252,-0.354665,2.555,2.61037
0.405506,-0.352028,2.536,2.59223
0.413738,-0.352028,2.536,2.59353
0.421969,-0.352028,2.536,2.59486
0.4302,-0.352028,2.536,2.59621
0.438431,-0.352028,2.536,2.59758
0.446662,-0.352028,2.536,2.59899
0.454894,-0.352028,2.536,2.60041
0.463125,-0.352028,2.536,2.60187
0.471356,-0.352028,2.536,2.60334
0.479587,-0.352028,2.536,2.60485
0.487819,-0.352028,2.536,2.60637
0.49605,-0.352028,2.536,2.60793
0.504281,-0.352028,2.536,2.60951
0.512512,-0.352028,2.536,2.61111
0.524645,-0.354665,2.555,2.63231
0.532938,-0.354665,2.555,2.63398
0.541231,-0.354665,2.555,2.63567
0.55361,-0.357302,2.574,2.657
0.561965,-0.357302,2.574,2.65875
0.570319,-0.357302,2.574,2.66053
0.578674,-0.357302,2.574,2.66233
0.587028,-0.357302,2.574,2.66416
0.595383,-0.357302,2.574,2.66601
0.608194,-0.35994,2.593,2.68758
0.61661,-0.35994,2.593,2.6895
0.625027,-0.35994,2.593,2.69144
0.633443,-0.35994,2.593,2.69341
0.641859,-0.35994,2.593,2.6954
0.64551,-0.357302,2.574,2.67765
0.653865,-0.357302,2.574,2.67968
0.657331,-0.354665,2.555,2.66193
0.665624,-0.354665,2.555,2.66399
0.673917,-0.354665,2.555,2.66608
0.68221,-0.354665,2.555,2.66819
0.690503,-0.354665,2.555,2.67032
0.698796,-0.354665,2.555,2.67248
0.707089,-0.354665,2.555,2.67466
0.715382,-0.354665,2.555,2.67686
0.718293,-0.352028,2.536,2.65917
0.726524,-0.352028,2.536,2.6614
0.734755,-0.352028,2.536,2.66366
0.742987,-0.352028,2.536,2.66594
0.751218,-0.352028,2.536,2.66825
0.753759,-0.34939,2.517,2.65057
0.761929,-0.34939,2.517,2.6529
0.770098,-0.34939,2.517,2.65526
0.778268,-0.34939,2.517,2.65764
0.786437,-0.34939,2.517,2.66005
0.794607,-0.34939,2.517,2.66247
0.797036,-0.346891,2.499,2.64586
0.805147,-0.346891,2.499,2.64832
0.813258,-0.346891,2.499,2.6508
0.821369,-0.346891,2.499,2.6533
0.82948,-0.346891,2.499,2.65582
0.837591,-0.346891,2.499,2.65836
0.851794,-0.34939,2.517,2.6801
0.853814,-0.346891,2.499,2.66352
0.861925,-0.346891,2.499,2.66613
0.870036,-0.346891,2.499,2.66876
0.878147,-0.346891,2.499,2.67142
0.886258,-0.346891,2.499,2.6741
0.894369,-0.346891,2.499,2.6768
0.90248,-0.346891,2.499,2.67952
0.910591,-0.346891,2.499,2.68226
0.918703,-0.346891,2.499,2.68502
0.926814,-0.346891,2.499,2.68781
0.934925,-0.346891,2.499,2.69062
0.936243,-0.344393,2.481,2.67405
0.944296,-0.344393,2.481,2.67688
0.945439,-0.341894,2.463,2.66028
0.953434,-0.341894,2.463,2.66314
0.961428,-0.341894,2.463,2.66601
0.969422,-0.341894,2.463,2.6689
0.977417,-0.341894,2.463,2.67182
0.985411,-0.341894,2.463,2.67475
0.993405,-0.341894,2.463,2.67771
1.0014,-0.341894,2.463,2.68068
1.00202,-0.339396,2.445,2.66407
1.00995,-0.339396,2.445,2.66706
1.02538,-0.341894,2.463,2.68973
1.03338,-0.341894,2.463,2.69279
nan,nan,nan,NaN
nan,nan,nan,NaN
nan,nan,nan,NaN
1.07314,-0.344393,2.481,2.72499
1.08119,-0.344393,2.481,2.72818
1.08924,-0.344393,2.481,2.73138
1.0973,-0.344393,2.481,2.7346
1.12139,-0.34939,2.517,2.77757
1.12956,-0.34939,2.517,2.78088
1.13773,-0.34939,2.517,2.7842
1.1459,-0.34939,2.517,2.78755
1.16278,-0.352028,2.536,2.81199
1.16224,-0.34939,2.517,2.79431
1.17041,-0.34939,2.517,2.79772
1.17858,-0.34939,2.517,2.80114
1.18675,-0.34939,2.517,2.80459
1.19492,-0.34939,2.517,2.80806
1.21217,-0.352028,2.536,2.83277
1.2204,-0.352028,2.536,2.8363
1.22863,-0.352028,2.536,2.83985
1.23686,-0.352028,2.536,2.84342
1.24509,-0.352028,2.536,2.84701
1.25332,-0.352028,2.536,2.85062
1.27101,-0.354665,2.555,2.87563
1.28881,-0.357302,2.574,2.90072
1.31682,-0.362716,2.613,2.94845
1.3253,-0.362716,2.613,2.95225
1.35471,-0.368407,2.654,3.00245
1.40699,-0.380206,2.739,3.10263
1.41588,-0.380206,2.739,3.10667
1.47158,-0.3927,2.829,3.21295
nan,nan,nan,NaN
nan,nan,nan,NaN
1.71163,-0.448363,3.23,3.68288
1.72211,-0.448363,3.23,3.68776
1.78302,-0.461412,3.324,3.80014
1.79381,-0.461412,3.324,3.80521
1.85834,-0.475154,3.423,3.92379
1.90768,-0.484871,3.493,4.00941
1.91902,-0.484871,3.493,4.01482
1.93036,-0.484871,3.493,4.02025
1.94169,-0.484871,3.493,4.02571
1.95303,-0.484871,3.493,4.03119
1.96437,-0.484871,3.493,4.03669
1.99607,-0.489868,3.529,4.08388
2.00752,-0.489868,3.529,4.08949
2.01898,-0.489868,3.529,4.09513
2.05172,-0.495004,3.566,4.14378
2.06329,-0.495004,3.566,4.14953
2.07487,-0.495004,3.566,4.15529
2.08644,-0.495004,3.566,4.16109
2.07625,-0.489868,3.529,4.12367
2.0877,-0.489868,3.529,4.12945
2.07774,-0.484871,3.493,4.09306
2.04722,-0.475154,3.423,4.01669
2.05833,-0.475154,3.423,4.02236
2.04888,-0.470434,3.389,3.98805
2.03982,-0.465853,3.356,3.95482
2.05072,-0.465853,3.356,3.96045
2.00264,-0.452528,3.26,3.85265
1.97555,-0.44406,3.199,3.78597
1.98593,-0.44406,3.199,3.7914
1.94202,-0.431983,3.112,3.69359
1.90068,-0.420601,3.03,3.60144
1.91052,-0.420601,3.03,3.60664
1.88676,-0.413244,2.977,3.54869
1.84801,-0.402694,2.901,3.46311
1.85743,-0.402694,2.901,3.46814
1.8514,-0.399362,2.877,3.44446
1.82969,-0.3927,2.829,3.39194
1.83887,-0.3927,2.829,3.3969
1.81801,-0.386314,2.783,3.34656
1.8126,-0.38326,2.761,3.32498
1.80704,-0.380206,2.739,3.30334
1.81593,-0.380206,2.739,3.30822
1.81017,-0.377153,2.717,3.28649
1.81899,-0.377153,2.717,3.29136
1.8278,-0.377153,2.717,3.29624
1.82243,-0.374237,2.696,3.27562
1.81691,-0.371322,2.675,3.25495
-2.26157,-0.441949,3.26,3.99219
-2.27308,-0.446288,3.292,4.02534
-2.2624,-0.446288,3.292,4.01931
-2.25171,-0.446288,3.292,4.01331
-2.26281,-0.450626,3.324,4.04628
-2.2737,-0.454964,3.356,4.07915
-2.26281,-0.454964,3.356,4.07309
-2.25192,-0.454964,3.356,4.06705
-2.24102,-0.454964,3.356,4.06102
-2.23013,-0.454964,3.356,4.05502
-2.24106,-0.459438,3.389,4.08886
-2.25243,-0.464047,3.423,4.1238
-2.26424,-0.468792,3.458,4.15985
-2.25302,-0.468792,3.458,4.15375
-2.24179,-0.468792,3.458,4.14767
-2.25315,-0.473537,3.493,4.18353
-2.24181,-0.473537,3.493,4.17744
-2.25346,-0.478417,3.529,4.21436
-2.26551,-0.483433,3.566,4.25237
-2.25394,-0.483433,3.566,4.24621
-2.24236,-0.483433,3.566,4.24008
-2.25456,-0.488585,3.604,4.27909
-2.24286,-0.488585,3.604,4.27293
-2.20764,-0.483433,3.566,4.22182
-2.19607,-0.483433,3.566,4.21578
-2.18449,-0.483433,3.566,4.20976
-2.17292,-0.483433,3.566,4.20376
-2.16134,-0.483433,3.566,4.19779
-2.14977,-0.483433,3.566,4.19185
-2.11601,-0.478417,3.529,4.14249
-2.10456,-0.478417,3.529,4.13665
nan,nan,nan,NaN
nan,nan,nan,NaN
nan,nan,nan,NaN
nan,nan,nan,NaN
nan,nan,nan,NaN
nan,nan,nan,NaN
nan,nan,nan,NaN
nan,nan,nan,NaN
nan,nan,nan,NaN
nan,nan,nan,NaN
nan,nan,nan,NaN
nan,nan,nan,NaN
nan,nan,nan,NaN
nan,nan,nan,NaN
nan,nan,nan,NaN
nan,nan,nan,NaN
nan,nan,nan,NaN
nan,nan,nan,NaN
nan,nan,nan,NaN
nan,nan,nan,NaN
nan,nan,nan,NaN
nan,nan,nan,NaN
nan,nan,nan,NaN
nan,nan,nan,NaN
nan,nan,nan,NaN
nan,nan,nan,NaN
nan,nan,nan,NaN
nan,nan,nan,NaN
nan,nan,nan,NaN
nan,nan,nan,NaN
nan,nan,nan,NaN
-1.18741,-0.326853,2.411,2.70734
-1.17958,-0.326853,2.411,2.70392
-1.17176,-0.326853,2.411,2.70051
-1.17214,-0.329157,2.428,2.71614
-1.16426,-0.329157,2.428,2.71275
-1.15638,-0.329157,2.428,2.70938
-1.14046,-0.326853,2.411,2.68708
-1.13263,-0.326853,2.411,2.68377
-1.13274,-0.329157,2.428,2.69937
-1.11698,-0.326853,2.411,2.6772
-1.10915,-0.326853,2.411,2.67394
-1.10133,-0.326853,2.411,2.67071
-1.0935,-0.326853,2.411,2.66749
-1.09333,-0.329157,2.428,2.68308
-1.08545,-0.329157,2.428,2.67988
-1.07003,-0.326853,2.411,2.65795
-1.0622,-0.326853,2.411,2.65481
-1.04694,-0.324548,2.394,2.63299
-1.03917,-0.324548,2.394,2.62991
-1.0314,-0.324548,2.394,2.62685
-1.02363,-0.324548,2.394,2.62381
-1.01586,-0.324548,2.394,2.62079
-1.00809,-0.324548,2.394,2.61779
-0.993215,-0.322243,2.377,2.59624
-0.9855,-0.322243,2.377,2.5933
-0.977785,-0.322243,2.377,2.59037
-0.96354,-0.320074,2.361,2.57005
-0.955876,-0.320074,2.361,2.56719
-0.948213,-0.320074,2.361,2.56435
-0.94055,-0.320074,2.361,2.56152
-0.932887,-0.320074,2.361,2.55872
-0.925224,-0.320074,2.361,2.55594
-0.91756,-0.320074,2.361,2.55317
-0.903731,-0.317905,2.345,2.53314
-0.89612,-0.317905,2.345,2.53044
-0.888508,-0.317905,2.345,2.52775
-0.880897,-0.317905,2.345,2.52509
-0.873286,-0.317905,2.345,2.52244
-0.865674,-0.317905,2.345,2.51982
-0.858063,-0.317905,2.345,2.51721
-0.856255,-0.320074,2.361,2.53179
-0.848591,-0.320074,2.361,2.5292
-0.840928,-0.320074,2.361,2.52664
-0.833265,-0.320074,2.361,2.5241
-0.825602,-0.320074,2.361,2.52158
-0.817938,-0.320074,2.361,2.51909
-0.815766,-0.322243,2.377,2.53366
-0.81383,-0.324548,2.394,2.54929
-0.80606,-0.324548,2.394,2.54682
-0.79829,-0.324548,2.394,2.54437
-0.796133,-0.326853,2.411,2.56
-0.788307,-0.326853,2.411,2.55757
-0.780482,-0.326853,2.411,2.55517
-0.772656,-0.326853,2.411,2.55279
-0.770224,-0.329157,2.428,2.56842
-0.762343,-0.329157,2.428,2.56607
-0.754462,-0.329157,2.428,2.56374
-0.746581,-0.329157,2.428,2.56143
-0.738701,-0.329157,2.428,2.55914
-0.735937,-0.331462,2.445,2.57478
-0.728001,-0.331462,2.445,2.57252
-0.720065,-0.331462,2.445,2.57029
-0.712129,-0.331462,2.445,2.56808
-0.704194,-0.331462,2.445,2.56589
-0.701384,-0.333902,2.463,2.5826
-0.693389,-0.333902,2.463,2.58044
-0.685395,-0.333902,2.463,2.5783
-0.677401,-0.333902,2.463,2.57619
-0.669406,-0.333902,2.463,2.5741
-0.661412,-0.333902,2.463,2.57203
-0.653418,-0.333902,2.463,2.56998
-0.645424,-0.333902,2.463,2.56796
-0.637429,-0.333902,2.463,2.56596
-0.629435,-0.333902,2.463,2.56399
-0.625982,-0.336342,2.481,2.58076
-0.61793,-0.336342,2.481,2.57882
-0.609877,-0.336342,2.481,2.5769
-0.601824,-0.336342,2.481,2.57501
-0.593771,-0.336342,2.481,2.57314
-0.585719,-0.336342,2.481,2.57129
-0.577666,-0.336342,2.481,2.56947
-0.569613,-0.336342,2.481,2.56767
-0.561561,-0.336342,2.481,2.5659
-0.557524,-0.338783,2.499,2.58275
-0.549413,-0.338783,2.499,2.58101
-0.541301,-0.338783,2.499,2.5793
-0.53319,-0.338783,2.499,2.57761
-0.525079,-0.338783,2.499,2.57594
-0.516968,-0.338783,2.499,2.5743
-0.508857,-0.338783,2.499,2.57269
-0.500746,-0.338783,2.499,2.57109
-0.492635,-0.338783,2.499,2.56953
-0.484524,-0.338783,2.499,2.56798
-0.479844,-0.341223,2.517,2.58495
-0.471674,-0.341223,2.517,2.58345
-0.463505,-0.341223,2.517,2.58197
-0.455335,-0.341223,2.517,2.58051
-0.447166,-0.341223,2.517,2.57909
-0.438996,-0.341223,2.517,2.57768
-0.434079,-0.343799,2.536,2.59575
-0.425848,-0.343799,2.536,2.59439
-0.417616,-0.343799,2.536,2.59305
-0.409385,-0.343799,2.536,2.59173
-0.401154,-0.343799,2.536,2.59045
-0.392923,-0.343799,2.536,2.58919
-0.384691,-0.343799,2.536,2.58795
-0.37364,-0.341223,2.517,2.56736
-0.36547,-0.341223,2.517,2.56618
-0.357301,-0.341223,2.517,2.56503
-0.351766,-0.343799,2.536,2.58326
-0.343535,-0.343799,2.536,2.58215
-0.335304,-0.343799,2.536,2.58107
-0.324622,-0.341223,2.517,2.56068
-0.316453,-0.341223,2.517,2.55966
-0.308283,-0.341223,2.517,2.55866
-0.300114,-0.341223,2.517,2.55769
-0.294148,-0.343799,2.536,2.57605
-0.285917,-0.343799,2.536,2.57512
-0.277685,-0.343799,2.536,2.57422
-0.269454,-0.343799,2.536,2.57334
-0.261223,-0.343799,2.536,2.57249
-0.252992,-0.343799,2.536,2.57167
-0.242927,-0.341223,2.517,2.55161
-0.234757,-0.341223,2.517,2.55085
-0.226588,-0.341223,2.517,2.55011
-0.216856,-0.338783,2.499,2.53117
-0.208745,-0.338783,2.499,2.53048
-0.200634,-0.338783,2.499,2.52983
-0.192523,-0.338783,2.499,2.5292
-0.184412,-0.338783,2.499,2.52859
-0.1763,-0.338783,2.499,2.52801
-0.168189,-0.338783,2.499,2.52746
-0.161231,-0.341223,2.517,2.54514
-0.153062,-0.341223,2.517,2.54463
-0.144892,-0.341223,2.517,2.54415
-0.136723,-0.341223,2.517,2.5437
-0.128553,-0.341223,2.517,2.54328
-0.121292,-0.343799,2.536,2.56207
-0.113061,-0.343799,2.536,2.56169
-0.10483,-0.343799,2.536,2.56134
-0.0965985,-0.343799,2.536,2.56102
-0.0883672,-0.343799,2.536,2.56072
-0.0807364,-0.346374,2.555,2.57964
-0.0724435,-0.346374,2.555,2.57939
-0.0636736,-0.343799,2.536,2.55999
-0.0554423,-0.343799,2.536,2.5598
-0.0475648,-0.346374,2.555,2.57881
-0.0392719,-0.346374,2.555,2.57867
-0.0307487,-0.343799,2.536,2.55938
-0.0225174,-0.343799,2.536,2.5593
-0.0143932,-0.346374,2.555,2.57841
-0.00610034,-0.346374,2.555,2.57838
0.00219255,-0.346374,2.555,2.57837
0.0104854,-0.346374,2.555,2.57839
0.0187783,-0.346374,2.555,2.57844
0.0270712,-0.346374,2.555,2.57851
0.0356271,-0.34895,2.574,2.59779
0.0439817,-0.34895,2.574,2.59792
0.0523362,-0.34895,2.574,2.59807
0.0611388,-0.351526,2.593,2.61743
0.069555,-0.351526,2.593,2.61764
0.0779713,-0.351526,2.593,2.61788
0.0870538,-0.354237,2.613,2.63834
0.095535,-0.354237,2.613,2.63863
0.104016,-0.354237,2.613,2.63895
0.112497,-0.354237,2.613,2.6393
0.120978,-0.354237,2.613,2.63968
0.12946,-0.354237,2.613,2.64008
0.137941,-0.354237,2.613,2.64051
0.146422,-0.354237,2.613,2.64096
0.154903,-0.354237,2.613,2.64145
0.163384,-0.354237,2.613,2.64196
0.171865,-0.354237,2.613,2.6425
0.180346,-0.354237,2.613,2.64306
0.187382,-0.351526,2.593,2.62342
0.195799,-0.351526,2.593,2.62403
0.204215,-0.351526,2.593,2.62468
0.212631,-0.351526,2.593,2.62534
0.221047,-0.351526,2.593,2.62604
0.229463,-0.351526,2.593,2.62676
0.23788,-0.351526,2.593,2.62751
0.246296,-0.351526,2.593,2.62828
0.254712,-0.351526,2.593,2.62909
0.263128,-0.351526,2.593,2.62992
0.271545,-0.351526,2.593,2.63077
0.27791,-0.34895,2.574,2.61237
0.286264,-0.34895,2.574,2.61327
0.294619,-0.34895,2.574,2.6142
0.302973,-0.34895,2.574,2.61515
0.311328,-0.34895,2.574,2.61614
0.319682,-0.34895,2.574,2.61714
0.328037,-0.34895,2.574,2.61818
0.336391,-0.34895,2.574,2.61924
0.344746,-0.34895,2.574,2.62032
0.350494,-0.346374,2.555,2.60209
0.358787,-0.346374,2.555,2.60321
0.36708,-0.346374,2.555,2.60437
0.375373,-0.346374,2.555,2.60555
0.383666,-0.346374,2.555,2.60676
0.391959,-0.346374,2.555,2.60799
0.397275,-0.343799,2.536,2.58985
0.405506,-0.343799,2.536,2.59113
0.413738,-0.343799,2.536,2.59243
0.421969,-0.343799,2.536,2.59375
0.426977,-0.341223,2.517,2.57566
0.435146,-0.341223,2.517,2.57703
0.443316,-0.341223,2.517,2.57842
0.451486,-0.341223,2.517,2.57984
0.463125,-0.343799,2.536,2.60076
0.471356,-0.343799,2.536,2.60224
0.479587,-0.343799,2.536,2.60375
0.487819,-0.343799,2.536,2.60528
0.49605,-0.343799,2.536,2.60683
0.504281,-0.343799,2.536,2.60841
0.512512,-0.343799,2.536,2.61001
0.524645,-0.346374,2.555,2.63121
0.532938,-0.346374,2.555,2.63287
0.541231,-0.346374,2.555,2.63456
0.55361,-0.34895,2.574,2.65589
0.561965,-0.34895,2.574,2.65764
0.570319,-0.34895,2.574,2.65942
0.578674,-0.34895,2.574,2.66122
0.587028,-0.34895,2.574,2.66305
0.595383,-0.34895,2.574,2.66491
0.608194,-0.351526,2.593,2.68647
0.61661,-0.351526,2.593,2.68839
0.625027,-0.351526,2.593,2.69033
0.628801,-0.34895,2.574,2.67257
0.637156,-0.34895,2.574,2.67455
0.64551,-0.34895,2.574,2.67655
0.649038,-0.346374,2.555,2.65881
0.657331,-0.346374,2.555,2.66084
0.665624,-0.346374,2.555,2.6629
0.673917,-0.346374,2.555,2.66499
0.68221,-0.346374,2.555,2.6671
0.690503,-0.346374,2.555,2.66923
0.698796,-0.346374,2.555,2.67139
0.70183,-0.343799,2.536,2.65369
0.710062,-0.343799,2.536,2.65588
0.718293,-0.343799,2.536,2.65809
0.726524,-0.343799,2.536,2.66033
0.734755,-0.343799,2.536,2.66259
0.742987,-0.343799,2.536,2.66487
0.74559,-0.341223,2.517,2.64719
0.753759,-0.341223,2.517,2.6495
0.761929,-0.341223,2.517,2.65184
0.770098,-0.341223,2.517,2.6542
0.778268,-0.341223,2.517,2.65658
0.786437,-0.341223,2.517,2.65899
0.788924,-0.338783,2.499,2.64238
0.797036,-0.338783,2.499,2.64481
0.805147,-0.338783,2.499,2.64727
0.813258,-0.338783,2.499,2.64975
0.821369,-0.338783,2.499,2.65225
0.82948,-0.338783,2.499,2.65477
0.837591,-0.338783,2.499,2.65732
0.845702,-0.338783,2.499,2.65988
0.853814,-0.338783,2.499,2.66247
0.861925,-0.338783,2.499,2.66509
0.870036,-0.338783,2.499,2.66772
0.878147,-0.338783,2.499,2.67038
0.886258,-0.338783,2.499,2.67306
0.894369,-0.338783,2.499,2.67576
0.89598,-0.336342,2.481,2.65919
0.904033,-0.336342,2.481,2.66191
0.912085,-0.336342,2.481,2.66466
0.920138,-0.336342,2.481,2.66742
0.928191,-0.336342,2.481,2.67021
0.936243,-0.336342,2.481,2.67302
0.944296,-0.336342,2.481,2.67585
0.945439,-0.333902,2.463,2.65927
0.953434,-0.333902,2.463,2.66212
0.961428,-0.333902,2.463,2.665
0.969422,-0.333902,2.463,2.66789
0.977417,-0.333902,2.463,2.67081
0.985411,-0.333902,2.463,2.67374
0.993405,-0.333902,2.463,2.6767
1.0014,-0.333902,2.463,2.67968
1.00939,-0.333902,2.463,2.68267
1.01739,-0.333902,2.463,2.68569
1.02538,-0.333902,2.463,2.68873
1.03338,-0.333902,2.463,2.69179
nan,nan,nan,NaN
nan,nan,nan,NaN
nan,nan,nan,NaN
1.07314,-0.336342,2.481,2.72399
1.08119,-0.336342,2.481,2.72717
1.09715,-0.338783,2.499,2.75018
1.10526,-0.338783,2.499,2.75343
1.12985,-0.343799,2.536,2.79751
1.14661,-0.346374,2.555,2.82183
1.1549,-0.346374,2.555,2.82521
1.17185,-0.34895,2.574,2.84964
1.18891,-0.351526,2.593,2.87415
1.20657,-0.354237,2.613,2.89984
1.21505,-0.354237,2.613,2.90338
1.23289,-0.356949,2.633,2.92919
1.25134,-0.359796,2.654,2.95618
1.25995,-0.359796,2.654,2.95984
1.26857,-0.359796,2.654,2.96352
1.28729,-0.362642,2.675,2.99069
1.2858,-0.359796,2.654,2.97093
1.28417,-0.356949,2.633,2.95113
1.29272,-0.356949,2.633,2.95486
1.30126,-0.356949,2.633,2.95861
1.30981,-0.356949,2.633,2.96238
1.32887,-0.359796,2.654,2.98983
1.34807,-0.362642,2.675,3.01735
1.35675,-0.362642,2.675,3.02124
1.37615,-0.365489,2.696,3.0489
1.42959,-0.377284,2.783,3.15137
1.43862,-0.377284,2.783,3.15548
1.49655,-0.390027,2.877,3.26633
nan,nan,nan,NaN
nan,nan,nan,NaN
1.72753,-0.441949,3.26,3.71581
1.73811,-0.441949,3.26,3.72074
1.80018,-0.454964,3.356,3.83541
1.81108,-0.454964,3.356,3.84054
1.87734,-0.468792,3.458,3.96257
1.92734,-0.478417,3.529,4.04937
1.9388,-0.478417,3.529,4.05483
1.93036,-0.473537,3.493,4.0189
1.94169,-0.473537,3.493,4.02436
1.95303,-0.473537,3.493,4.02984
1.96437,-0.473537,3.493,4.03535
1.99607,-0.478417,3.529,4.08253
2.00752,-0.478417,3.529,4.08814
2.01898,-0.478417,3.529,4.09378
2.05172,-0.483433,3.566,4.14242
2.06329,-0.483433,3.566,4.14816
2.07487,-0.483433,3.566,4.15393
2.08644,-0.483433,3.566,4.15972
2.07625,-0.478417,3.529,4.12232
2.0877,-0.478417,3.529,4.1281
2.07774,-0.473537,3.493,4.09174
2.04722,-0.464047,3.423,4.01539
2.05833,-0.464047,3.423,4.02107
2.04888,-0.459438,3.389,3.98677
2.03982,-0.454964,3.356,3.95356
2.05072,-0.454964,3.356,3.95919
2.00264,-0.441949,3.26,3.85142
1.97555,-0.43368,3.199,3.78477
1.98593,-0.43368,3.199,3.7902
1.96012,-0.425817,3.141,3.72683
1.90068,-0.410769,3.03,3.60031
1.91052,-0.410769,3.03,3.60551
1.88676,-0.403584,2.977,3.54757
1.86394,-0.39667,2.926,3.49186
1.87343,-0.39667,2.926,3.49694
1.8514,-0.390027,2.877,3.44339
1.82969,-0.38352,2.829,3.39089
1.83887,-0.38352,2.829,3.39585
1.83303,-0.380402,2.806,3.37318
1.8126,-0.374301,2.761,3.32396
1.82156,-0.374301,2.761,3.32886
1.83052,-0.374301,2.761,3.33377
1.82482,-0.371319,2.739,3.3121
1.81899,-0.368336,2.717,3.29036
1.8278,-0.368336,2.717,3.29524
1.82243,-0.365489,2.696,3.27464
1.83118,-0.365489,2.696,3.27951
-2.26157,-0.431371,3.26,3.99104
-2.27308,-0.435606,3.292,4.02417
-2.2624,-0.435606,3.292,4.01814
-2.25171,-0.435606,3.292,4.01214
-2.26281,-0.43984,3.324,4.04509
-2.2737,-0.444074,3.356,4.07795
-2.26281,-0.444074,3.356,4.07189
-2.25192,-0.444074,3.356,4.06584
-2.24102,-0.444074,3.356,4.05982
-2.23013,-0.444074,3.356,4.05382
-2.24106,-0.448441,3.389,4.08764
-2.25243,-0.45294,3.423,4.12257
-2.26424,-0.457571,3.458,4.1586
-2.25302,-0.457571,3.458,4.1525
-2.24179,-0.457571,3.458,4.14642
-2.25315,-0.462202,3.493,4.18227
-2.24181,-0.462202,3.493,4.17617
-2.25346,-0.466966,3.529,4.21307
-2.26551,-0.471862,3.566,4.25107
-2.25394,-0.471862,3.566,4.24491
-2.24236,-0.471862,3.566,4.23877
-2.25456,-0.47689,3.604,4.27777
-2.24286,-0.47689,3.604,4.27161
-2.20764,-0.471862,3.566,4.22051
-2.19607,-0.471862,3.566,4.21447
-2.18449,-0.471862,3.566,4.20845
-2.17292,-0.471862,3.566,4.20245
-2.16134,-0.471862,3.566,4.19648
-2.14977,-0.471862,3.566,4.19053
-2.13819,-0.471862,3.566,4.1846
-2.12662,-0.471862,3.566,4.1787
nan,nan,nan,NaN
nan,nan,nan,NaN
nan,nan,nan,NaN
nan,nan,nan,NaN
nan,nan,nan,NaN
nan,nan,nan,NaN
nan,nan,nan,NaN
nan,nan,nan,NaN
nan,nan,nan,NaN
nan,nan,nan,NaN
nan,nan,nan,NaN
nan,nan,nan,NaN
nan,nan,nan,NaN
nan,nan,nan,NaN
nan,nan,nan,NaN
nan,nan,nan,NaN
nan,nan,nan,NaN
nan,nan,nan,NaN
nan,nan,nan,NaN
nan,nan,nan,NaN
nan,nan,nan,NaN
nan,nan,nan,NaN
nan,nan,nan,NaN
nan,nan,nan,NaN
nan,nan,nan,NaN
nan,nan,nan,NaN
nan,nan,nan,NaN
nan,nan,nan,NaN
nan,nan,nan,NaN
nan,nan,nan,NaN
nan,nan,nan,NaN
-1.19578,-0.321279,2.428,2.72549
-1.1879,-0.321279,2.428,2.72204
-1.18002,-0.321279,2.428,2.71861
-1.17214,-0.321279,2.428,2.7152
-1.16426,-0.321279,2.428,2.71181
-1.15638,-0.321279,2.428,2.70843
-1.1485,-0.321279,2.428,2.70508
-1.14062,-0.321279,2.428,2.70174
-1.13274,-0.321279,2.428,2.69842
-1.12485,-0.321279,2.428,2.69513
-1.11697,-0.321279,2.428,2.69185
-1.10909,-0.321279,2.428,2.68859
-1.10121,-0.321279,2.428,2.68534
-1.08568,-0.319029,2.411,2.66334
-1.07785,-0.319029,2.411,2.66016
-1.07003,-0.319029,2.411,2.657
-1.0622,-0.319029,2.411,2.65386
-1.04694,-0.31678,2.394,2.63205
-1.03917,-0.31678,2.394,2.62897
-1.0314,-0.31678,2.394,2.6259
-1.02363,-0.31678,2.394,2.62286
-1.01586,-0.31678,2.394,2.61984
-1.00093,-0.31453,2.377,2.59825
-0.993215,-0.31453,2.377,2.59529
-0.9855,-0.31453,2.377,2.59235
-0.977785,-0.31453,2.377,2.58942
-0.96354,-0.312413,2.361,2.56911
-0.955876,-0.312413,2.361,2.56625
-0.948213,-0.312413,2.361,2.5634
-0.94055,-0.312413,2.361,2.56058
-0.932887,-0.312413,2.361,2.55777
-0.925224,-0.312413,2.361,2.55499
-0.911342,-0.310296,2.345,2.53493
-0.903731,-0.310296,2.345,2.5322
-0.89612,-0.310296,2.345,2.52949
-0.888508,-0.310296,2.345,2.52681
-0.880897,-0.310296,2.345,2.52414
-0.873286,-0.310296,2.345,2.52149
-0.865674,-0.310296,2.345,2.51887
-0.858063,-0.310296,2.345,2.51626
-0.856255,-0.312413,2.361,2.53083
-0.848591,-0.312413,2.361,2.52825
-0.840928,-0.312413,2.361,2.52568
-0.833265,-0.312413,2.361,2.52314
-0.831197,-0.31453,2.377,2.5377
-0.823481,-0.31453,2.377,2.53519
-0.815766,-0.31453,2.377,2.53269
-0.81383,-0.31678,2.394,2.54831
-0.80606,-0.31678,2.394,2.54584
-0.79829,-0.31678,2.394,2.54339
-0.796133,-0.319029,2.411,2.55901
-0.788307,-0.319029,2.411,2.55659
-0.780482,-0.319029,2.411,2.55418
-0.772656,-0.319029,2.411,2.5518
-0.770224,-0.321279,2.428,2.56742
-0.762343,-0.321279,2.428,2.56507
-0.754462,-0.321279,2.428,2.56274
-0.746581,-0.321279,2.428,2.56043
-0.738701,-0.321279,2.428,2.55814
-0.735937,-0.323528,2.445,2.57377
-0.728001,-0.323528,2.445,2.57151
-0.720065,-0.323528,2.445,2.56928
-0.712129,-0.323528,2.445,2.56707
-0.709378,-0.32591,2.463,2.58376
-0.701384,-0.32591,2.463,2.58157
-0.693389,-0.32591,2.463,2.57941
-0.685395,-0.32591,2.463,2.57728
-0.677401,-0.32591,2.463,2.57516
-0.669406,-0.32591,2.463,2.57307
-0.661412,-0.32591,2.463,2.571
-0.653418,-0.32591,2.463,2.56896
-0.645424,-0.32591,2.463,2.56694
-0.637429,-0.32591,2.463,2.56494
-0.634035,-0.328292,2.481,2.58169
-0.625982,-0.328292,2.481,2.57973
-0.61793,-0.328292,2.481,2.57778
-0.609877,-0.328292,2.481,2.57587
-0.601824,-0.328292,2.481,2.57397
-0.593771,-0.328292,2.481,2.5721
-0.585719,-0.328292,2.481,2.57025
-0.577666,-0.328292,2.481,2.56843
-0.569613,-0.328292,2.481,2.56663
-0.561561,-0.328292,2.481,2.56486
-0.557524,-0.330674,2.499,2.5817
-0.549413,-0.330674,2.499,2.57996
-0.541301,-0.330674,2.499,2.57825
-0.53319,-0.330674,2.499,2.57656
-0.525079,-0.330674,2.499,2.57489
-0.516968,-0.330674,2.499,2.57325
-0.508857,-0.330674,2.499,2.57163
-0.500746,-0.330674,2.499,2.57004
-0.492635,-0.330674,2.499,2.56847
-0.484524,-0.330674,2.499,2.56693
-0.479844,-0.333056,2.517,2.58389
-0.471674,-0.333056,2.517,2.58238
-0.463505,-0.333056,2.517,2.5809
-0.455335,-0.333056,2.517,2.57945
-0.447166,-0.333056,2.517,2.57802
-0.438996,-0.333056,2.517,2.57661
-0.434079,-0.33557,2.536,2.59467
-0.425848,-0.33557,2.536,2.59331
-0.417616,-0.33557,2.536,2.59197
-0.409385,-0.33557,2.536,2.59066
-0.401154,-0.33557,2.536,2.58937
-0.392923,-0.33557,2.536,2.58811
-0.384691,-0.33557,2.536,2.58687
-0.37364,-0.333056,2.517,2.56629
-0.36547,-0.333056,2.517,2.56511
-0.357301,-0.333056,2.517,2.56396
-0.351766,-0.33557,2.536,2.58218
-0.343535,-0.33557,2.536,2.58107
-0.335304,-0.33557,2.536,2.57999
-0.324622,-0.333056,2.517,2.55961
-0.316453,-0.333056,2.517,2.55859
-0.308283,-0.333056,2.517,2.55759
-0.300114,-0.333056,2.517,2.55662
-0.291944,-0.333056,2.517,2.55567
-0.283775,-0.333056,2.517,2.55475
-0.275605,-0.333056,2.517,2.55385
-0.269454,-0.33557,2.536,2.57226
-0.261223,-0.33557,2.536,2.57141
-0.251096,-0.333056,2.517,2.55133
-0.242927,-0.333056,2.517,2.55054
-0.234757,-0.333056,2.517,2.54977
-0.224967,-0.330674,2.499,2.5308
-0.216856,-0.330674,2.499,2.53009
-0.208745,-0.330674,2.499,2.52941
-0.200634,-0.330674,2.499,2.52875
-0.191136,-0.328292,2.481,2.50991
-0.183083,-0.328292,2.481,2.50931
-0.1763,-0.330674,2.499,2.52694
-0.168189,-0.330674,2.499,2.52639
-0.160078,-0.330674,2.499,2.52586
-0.151967,-0.330674,2.499,2.52536
-0.143856,-0.330674,2.499,2.52488
-0.135745,-0.330674,2.499,2.52444
-0.128553,-0.333056,2.517,2.54219
-0.120383,-0.333056,2.517,2.54179
-0.112214,-0.333056,2.517,2.54142
-0.10483,-0.33557,2.536,2.56025
-0.0965985,-0.33557,2.536,2.55993
-0.0883672,-0.33557,2.536,2.55963
-0.080136,-0.33557,2.536,2.55936
-0.0719048,-0.33557,2.536,2.55912
-0.0636736,-0.33557,2.536,2.5589
-0.0554423,-0.33557,2.536,2.55871
-0.0475648,-0.338084,2.555,2.57771
-0.0392719,-0.338084,2.555,2.57757
-0.0307487,-0.33557,2.536,2.55829
-0.0225174,-0.33557,2.536,2.5582
-0.0142862,-0.33557,2.536,2.55815
-0.00605498,-0.33557,2.536,2.55811
0.00219255,-0.338084,2.555,2.57727
0.0104854,-0.338084,2.555,2.57729
0.0187783,-0.338084,2.555,2.57734
0.0270712,-0.338084,2.555,2.57741
0.0356271,-0.340598,2.574,2.59668
0.0439817,-0.340598,2.574,2.59681
0.0523362,-0.340598,2.574,2.59696
0.0611388,-0.343112,2.593,2.61632
0.069555,-0.343112,2.593,2.61653
0.0779713,-0.343112,2.593,2.61676
0.0863875,-0.343112,2.593,2.61703
0.095535,-0.345759,2.613,2.63751
0.104016,-0.345759,2.613,2.63783
0.112497,-0.345759,2.613,2.63818
0.120978,-0.345759,2.613,2.63855
0.12946,-0.345759,2.613,2.63895
0.137941,-0.345759,2.613,2.63938
0.146422,-0.345759,2.613,2.63984
0.154903,-0.345759,2.613,2.64032
0.163384,-0.345759,2.613,2.64084
0.171865,-0.345759,2.613,2.64137
0.180346,-0.345759,2.613,2.64194
0.188828,-0.345759,2.613,2.64253
0.195799,-0.343112,2.593,2.62292
0.204215,-0.343112,2.593,2.62356
0.212631,-0.343112,2.593,2.62423
0.221047,-0.343112,2.593,2.62493
0.229463,-0.343112,2.593,2.62565
0.23788,-0.343112,2.593,2.6264
0.246296,-0.343112,2.593,2.62717
0.254712,-0.343112,2.593,2.62798
0.263128,-0.343112,2.593,2.6288
0.269555,-0.340598,2.574,2.61039
0.275858,-0.338084,2.555,2.59199
0.284151,-0.338084,2.555,2.59289
0.292444,-0.338084,2.555,2.59381
0.300737,-0.338084,2.555,2.59476
0.30903,-0.338084,2.555,2.59573
0.317323,-0.338084,2.555,2.59673
0.325615,-0.338084,2.555,2.59776
0.333908,-0.338084,2.555,2.59881
0.342201,-0.338084,2.555,2.59989
0.347888,-0.33557,2.536,2.58165
0.356119,-0.33557,2.536,2.58277
0.36435,-0.33557,2.536,2.58392
0.372581,-0.33557,2.536,2.5851
0.380813,-0.33557,2.536,2.58629
0.389044,-0.33557,2.536,2.58752
0.397275,-0.33557,2.536,2.58877
0.405506,-0.33557,2.536,2.59005
0.413738,-0.33557,2.536,2.59135
0.421969,-0.33557,2.536,2.59267
0.426977,-0.333056,2.517,2.57459
0.435146,-0.333056,2.517,2.57596
0.443316,-0.333056,2.517,2.57735
0.451486,-0.333056,2.517,2.57877
0.463125,-0.33557,2.536,2.59969
0.471356,-0.33557,2.536,2.60117
0.479587,-0.33557,2.536,2.60267
0.491473,-0.338084,2.555,2.62371
0.499766,-0.338084,2.555,2.62528
0.508059,-0.338084,2.555,2.62687
0.516352,-0.338084,2.555,2.62849
0.524645,-0.338084,2.555,2.63013
0.532938,-0.338084,2.555,2.6318
0.545256,-0.340598,2.574,2.65307
0.55361,-0.340598,2.574,2.6548
0.561965,-0.340598,2.574,2.65656
0.570319,-0.340598,2.574,2.65834
0.578674,-0.340598,2.574,2.66014
0.587028,-0.340598,2.574,2.66197
0.595383,-0.340598,2.574,2.66383
0.603738,-0.340598,2.574,2.6657
0.612092,-0.340598,2.574,2.66761
0.620447,-0.340598,2.574,2.66954
0.628801,-0.340598,2.574,2.67149
0.637156,-0.340598,2.574,2.67347
0.64551,-0.340598,2.574,2.67548
0.649038,-0.338084,2.555,2.65774
0.657331,-0.338084,2.555,2.65978
0.665624,-0.338084,2.555,2.66184
0.673917,-0.338084,2.555,2.66392
0.68221,-0.338084,2.555,2.66603
0.690503,-0.338084,2.555,2.66817
0.698796,-0.338084,2.555,2.67033
0.70183,-0.33557,2.536,2.65263
0.710062,-0.33557,2.536,2.65482
0.718293,-0.33557,2.536,2.65704
0.726524,-0.33557,2.536,2.65927
0.734755,-0.33557,2.536,2.66154
0.73742,-0.333056,2.517,2.64386
0.74559,-0.333056,2.517,2.64615
0.753759,-0.333056,2.517,2.64847
0.761929,-0.333056,2.517,2.6508
0.770098,-0.333056,2.517,2.65316
0.778268,-0.333056,2.517,2.65554
0.786437,-0.333056,2.517,2.65795
0.788924,-0.330674,2.499,2.64135
0.797036,-0.330674,2.499,2.64379
0.805147,-0.330674,2.499,2.64624
0.813258,-0.330674,2.499,2.64872
0.821369,-0.330674,2.499,2.65122
0.82948,-0.330674,2.499,2.65375
0.837591,-0.330674,2.499,2.6563
0.845702,-0.330674,2.499,2.65886
0.853814,-0.330674,2.499,2.66146
0.861925,-0.330674,2.499,2.66407
0.870036,-0.330674,2.499,2.6667
0.878147,-0.330674,2.499,2.66936
0.886258,-0.330674,2.499,2.67204
0.894369,-0.330674,2.499,2.67474
0.89598,-0.328292,2.481,2.65818
0.904033,-0.328292,2.481,2.6609
0.912085,-0.328292,2.481,2.66365
0.920138,-0.328292,2.481,2.66642
0.928191,-0.328292,2.481,2.66921
0.936243,-0.328292,2.481,2.67202
0.944296,-0.328292,2.481,2.67485
0.945439,-0.32591,2.463,2.65828
0.953434,-0.32591,2.463,2.66113
0.961428,-0.32591,2.463,2.66401
0.969422,-0.32591,2.463,2.6669
0.98456,-0.328292,2.481,2.68933
0.985411,-0.32591,2.463,2.67276
0.993405,-0.32591,2.463,2.67571
1.0014,-0.32591,2.463,2.67869
1.00939,-0.32591,2.463,2.68169
1.01739,-0.32591,2.463,2.68471
1.02538,-0.32591,2.463,2.68775
1.03338,-0.32591,2.463,2.69081
nan,nan,nan,NaN
nan,nan,nan,NaN
nan,nan,nan,NaN
1.07314,-0.328292,2.481,2.72301
1.08119,-0.328292,2.481,2.72619
1.10505,-0.333056,2.517,2.769
1.11322,-0.333056,2.517,2.77227
1.16416,-0.345759,2.613,2.88142
1.17264,-0.345759,2.613,2.88486
1.18112,-0.345759,2.613,2.88832
1.20827,-0.351184,2.654,2.93717
1.23614,-0.356741,2.696,2.98726
1.26475,-0.362431,2.739,3.0386
1.27364,-0.362431,2.739,3.04231
1.29283,-0.365342,2.761,3.07051
1.30179,-0.365342,2.761,3.07429
1.31075,-0.365342,2.761,3.07809
1.33023,-0.368253,2.783,3.10648
1.33926,-0.368253,2.783,3.11036
1.32698,-0.362431,2.739,3.06502
1.33587,-0.362431,2.739,3.06888
1.34476,-0.362431,2.739,3.07276
1.35365,-0.362431,2.739,3.07666
1.36254,-0.362431,2.739,3.08058
1.37143,-0.362431,2.739,3.08452
1.38032,-0.362431,2.739,3.08849
1.3674,-0.356741,2.696,3.04392
1.37615,-0.356741,2.696,3.04786
1.42959,-0.368253,2.783,3.15031
1.43862,-0.368253,2.783,3.15442
1.49655,-0.380692,2.877,3.26523
1.60011,-0.40451,3.057,3.47408
nan,nan,nan,NaN
1.72753,-0.431371,3.26,3.71457
1.73811,-0.431371,3.26,3.7195
1.80018,-0.444074,3.356,3.83414
1.81108,-0.444074,3.356,3.83926
1.87734,-0.457571,3.458,3.96126
1.92734,-0.466966,3.529,4.04803
1.9388,-0.466966,3.529,4.0535
1.93036,-0.462202,3.493,4.01758
1.94169,-0.462202,3.493,4.02304
1.95303,-0.462202,3.493,4.02853
1.96437,-0.462202,3.493,4.03403
1.97571,-0.462202,3.493,4.03957
2.00752,-0.466966,3.529,4.08681
2.01898,-0.466966,3.529,4.09245
2.03043,-0.466966,3.529,4.09812
2.06329,-0.471862,3.566,4.14683
2.07487,-0.471862,3.566,4.1526
2.06479,-0.466966,3.529,4.11525
2.07625,-0.466966,3.529,4.12101
2.0877,-0.466966,3.529,4.12679
2.07774,-0.462202,3.493,4.09044
2.04722,-0.45294,3.423,4.01412
2.05833,-0.45294,3.423,4.0198
2.02893,-0.444074,3.356,3.94671
2.02037,-0.43984,3.324,3.91463
2.03116,-0.43984,3.324,3.92021
2.00264,-0.431371,3.26,3.85022
1.97555,-0.4233,3.199,3.78359
1.98593,-0.4233,3.199,3.78902
1.96012,-0.415625,3.141,3.72568
1.90068,-0.400937,3.03,3.5992
1.91052,-0.400937,3.03,3.6044
1.88676,-0.393924,2.977,3.54649
1.86394,-0.387176,2.926,3.49079
1.87343,-0.387176,2.926,3.49587
1.8514,-0.380692,2.877,3.44234
1.82969,-0.37434,2.829,3.38986
1.83887,-0.37434,2.829,3.39482
1.83303,-0.371297,2.806,3.37217
1.8126,-0.365342,2.761,3.32297
1.82156,-0.365342,2.761,3.32786
1.83052,-0.365342,2.761,3.33278
1.82482,-0.362431,2.739,3.31111
1.81899,-0.35952,2.717,3.28938
1.8278,-0.35952,2.717,3.29427
1.82243,-0.356741,2.696,3.27367
1.83118,-0.356741,2.696,3.27855
-2.26157,-0.420793,3.26,3.98991
-2.27308,-0.424924,3.292,4.02303
-2.2624,-0.424924,3.292,4.017
-2.25171,-0.424924,3.292,4.01099
-2.26281,-0.429054,3.324,4.04393
-2.2737,-0.433184,3.356,4.07678
-2.26281,-0.433184,3.356,4.07071
-2.25192,-0.433184,3.356,4.06467
-2.24102,-0.433184,3.356,4.05864
-2.23013,-0.433184,3.356,4.05264
-2.24106,-0.437444,3.389,4.08645
-2.25243,-0.441833,3.423,4.12136
-2.26424,-0.44635,3.458,4.15738
-2.25302,-0.44635,3.458,4.15128
-2.26448,-0.450868,3.493,4.18715
-2.27637,-0.455515,3.529,4.22412
-2.26491,-0.455515,3.529,4.21796
-2.25346,-0.455515,3.529,4.21182
-2.26551,-0.460291,3.566,4.2498
-2.25394,-0.460291,3.566,4.24364
-2.26626,-0.465196,3.604,4.28266
-2.25456,-0.465196,3.604,4.27648
-2.24286,-0.465196,3.604,4.27032
-2.23117,-0.465196,3.604,4.26419
-2.21947,-0.465196,3.604,4.25808
-2.20777,-0.465196,3.604,4.252
-2.19607,-0.465196,3.604,4.24593
-2.18438,-0.465196,3.604,4.2399
-2.17268,-0.465196,3.604,4.23388
-2.16098,-0.465196,3.604,4.22789
-2.14928,-0.465196,3.604,4.22192
nan,nan,nan,NaN
nan,nan,nan,NaN
nan,nan,nan,NaN
nan,nan,nan,NaN
nan,nan,nan,NaN
nan,nan,nan,NaN
nan,nan,nan,NaN
nan,nan,nan,NaN
nan,nan,nan,NaN
nan,nan,nan,NaN
nan,nan,nan,NaN
nan,nan,nan,NaN
nan,nan,nan,NaN
nan,nan,nan,NaN
nan,nan,nan,NaN
nan,nan,nan,NaN
nan,nan,nan,NaN
nan,nan,nan,NaN
nan,nan,nan,NaN
nan,nan,nan,NaN
nan,nan,nan,NaN
nan,nan,nan,NaN
nan,nan,nan,NaN
nan,nan,nan,NaN
nan,nan,nan,NaN
nan,nan,nan,NaN
nan,nan,nan,NaN
nan,nan,nan,NaN
nan,nan,nan,NaN
nan,nan,nan,NaN
nan,nan,nan,NaN
-1.19578,-0.3134,2.428,2.72457
-1.1879,-0.3134,2.428,2.72112
-1.18002,-0.3134,2.428,2.71769
-1.17214,-0.3134,2.428,2.71428
-1.16426,-0.3134,2.428,2.71089
-1.15638,-0.3134,2.428,2.70751
-1.1485,-0.3134,2.428,2.70415
-1.14062,-0.3134,2.428,2.70082
-1.13274,-0.3134,2.428,2.6975
-1.12485,-0.3134,2.428,2.6942
-1.11697,-0.3134,2.428,2.69092
-1.10909,-0.3134,2.428,2.68766
-1.10121,-0.3134,2.428,2.68441
-1.08568,-0.311206,2.411,2.66242
-1.07785,-0.311206,2.411,2.65924
-1.07003,-0.311206,2.411,2.65607
-1.0622,-0.311206,2.411,2.65293
-1.04694,-0.309012,2.394,2.63112
-1.03917,-0.309012,2.394,2.62804
-1.0314,-0.309012,2.394,2.62498
-1.02363,-0.309012,2.394,2.62193
-1.01586,-0.309012,2.394,2.61891
-1.00093,-0.306818,2.377,2.59733
-0.993215,-0.306818,2.377,2.59437
-0.9855,-0.306818,2.377,2.59142
-0.977785,-0.306818,2.377,2.5885
-0.96354,-0.304752,2.361,2.56819
-0.955876,-0.304752,2.361,2.56533
-0.948213,-0.304752,2.361,2.56248
-0.94055,-0.304752,2.361,2.55965
-0.932887,-0.304752,2.361,2.55685
-0.925224,-0.304752,2.361,2.55406
-0.911342,-0.302687,2.345,2.53401
-0.903731,-0.302687,2.345,2.53128
-0.89612,-0.302687,2.345,2.52857
-0.888508,-0.302687,2.345,2.52588
-0.880897,-0.302687,2.345,2.52322
-0.873286,-0.302687,2.345,2.52057
-0.865674,-0.302687,2.345,2.51794
-0.858063,-0.302687,2.345,2.51534
-0.856255,-0.304752,2.361,2.52989
-0.848591,-0.304752,2.361,2.52731
-0.840928,-0.304752,2.361,2.52475
-0.833265,-0.304752,2.361,2.52221
-0.831197,-0.306818,2.377,2.53676
-0.823481,-0.306818,2.377,2.53424
-0.815766,-0.306818,2.377,2.53175
-0.81383,-0.309012,2.394,2.54736
-0.80606,-0.309012,2.394,2.54489
-0.79829,-0.309012,2.394,2.54244
-0.796133,-0.311206,2.411,2.55805
-0.788307,-0.311206,2.411,2.55562
-0.780482,-0.311206,2.411,2.55322
-0.772656,-0.311206,2.411,2.55084
-0.770224,-0.3134,2.428,2.56645
-0.762343,-0.3134,2.428,2.56409
-0.754462,-0.3134,2.428,2.56176
-0.746581,-0.3134,2.428,2.55945
-0.738701,-0.3134,2.428,2.55716
-0.735937,-0.315595,2.445,2.57279
-0.728001,-0.315595,2.445,2.57053
-0.720065,-0.315595,2.445,2.56829
-0.712129,-0.315595,2.445,2.56608
-0.709378,-0.317918,2.463,2.58276
-0.701384,-0.317918,2.463,2.58058
-0.693389,-0.317918,2.463,2.57842
-0.685395,-0.317918,2.463,2.57628
-0.677401,-0.317918,2.463,2.57416
-0.669406,-0.317918,2.463,2.57207
-0.661412,-0.317918,2.463,2.57
-0.653418,-0.317918,2.463,2.56796
-0.645424,-0.317918,2.463,2.56593
-0.637429,-0.317918,2.463,2.56393
-0.634035,-0.320242,2.481,2.58068
-0.625982,-0.320242,2.481,2.57871
-0.61793,-0.320242,2.481,2.57677
-0.609877,-0.320242,2.481,2.57485
-0.601824,-0.320242,2.481,2.57296
-0.593771,-0.320242,2.481,2.57109
-0.585719,-0.320242,2.481,2.56924
-0.577666,-0.320242,2.481,2.56741
-0.569613,-0.320242,2.481,2.56561
-0.561561,-0.320242,2.481,2.56384
-0.553508,-0.320242,2.481,2.56209
-0.545455,-0.320242,2.481,2.56036
-0.537403,-0.320242,2.481,2.55866
-0.53319,-0.322565,2.499,2.57553
-0.525079,-0.322565,2.499,2.57386
-0.516968,-0.322565,2.499,2.57222
-0.508857,-0.322565,2.499,2.5706
-0.500746,-0.322565,2.499,2.56901
-0.492635,-0.322565,2.499,2.56744
-0.484524,-0.322565,2.499,2.56589
-0.476412,-0.322565,2.499,2.56437
-0.471674,-0.324888,2.517,2.58134
-0.463505,-0.324888,2.517,2.57986
-0.455335,-0.324888,2.517,2.5784
-0.447166,-0.324888,2.517,2.57697
-0.438996,-0.324888,2.517,2.57557
-0.430827,-0.324888,2.517,2.57419
-0.425848,-0.327341,2.536,2.59226
-0.417616,-0.327341,2.536,2.59092
-0.409385,-0.327341,2.536,2.5896
-0.401154,-0.327341,2.536,2.58831
-0.392923,-0.327341,2.536,2.58705
-0.384691,-0.327341,2.536,2.58581
-0.37646,-0.327341,2.536,2.5846
-0.368229,-0.327341,2.536,2.58342
-0.359998,-0.327341,2.536,2.58226
-0.351766,-0.327341,2.536,2.58112
-0.343535,-0.327341,2.536,2.58001
-0.335304,-0.327341,2.536,2.57893
-0.327073,-0.327341,2.536,2.57787
-0.318842,-0.327341,2.536,2.57684
-0.31061,-0.327341,2.536,2.57584
-0.302379,-0.327341,2.536,2.57486
-0.291944,-0.324888,2.517,2.55462
-0.283775,-0.324888,2.517,2.5537
-0.275605,-0.324888,2.517,2.5528
-0.269454,-0.327341,2.536,2.5712
-0.261223,-0.327341,2.536,2.57035
-0.251096,-0.324888,2.517,2.55027
-0.242927,-0.324888,2.517,2.54948
-0.234757,-0.324888,2.517,2.54872
-0.224967,-0.322565,2.499,2.52975
-0.216856,-0.322565,2.499,2.52905
-0.207241,-0.320242,2.481,2.51015
-0.199189,-0.320242,2.481,2.5095
-0.191136,-0.320242,2.481,2.50887
-0.183083,-0.320242,2.481,2.50827
-0.1763,-0.322565,2.499,2.52589
-0.168189,-0.322565,2.499,2.52534
-0.158925,-0.320242,2.481,2.50663
-0.150872,-0.320242,2.481,2.50613
-0.14282,-0.320242,2.481,2.50566
-0.135745,-0.322565,2.499,2.52339
-0.127634,-0.322565,2.499,2.52296
-0.120383,-0.324888,2.517,2.54074
-0.112214,-0.324888,2.517,2.54036
-0.104044,-0.324888,2.517,2.54001
-0.0965985,-0.327341,2.536,2.55886
-0.0883672,-0.327341,2.536,2.55857
-0.080136,-0.327341,2.536,2.55829
-0.0719048,-0.327341,2.536,2.55805
-0.0636736,-0.327341,2.536,2.55783
-0.0554423,-0.327341,2.536,2.55764
-0.0472111,-0.327341,2.536,2.55747
-0.0389799,-0.327341,2.536,2.55734
-0.0307487,-0.327341,2.536,2.55722
-0.0225174,-0.327341,2.536,2.55714
-0.0142862,-0.327341,2.536,2.55708
-0.00605498,-0.327341,2.536,2.55705
0.00219255,-0.329793,2.555,2.5762
0.0104854,-0.329793,2.555,2.57622
0.0187783,-0.329793,2.555,2.57626
0.0270712,-0.329793,2.555,2.57634
0.0353641,-0.329793,2.555,2.57644
0.043657,-0.329793,2.555,2.57657
0.0519499,-0.329793,2.555,2.57672
0.0611388,-0.334698,2.593,2.61523
0.069555,-0.334698,2.593,2.61544
0.0779713,-0.334698,2.593,2.61567
0.0863875,-0.334698,2.593,2.61594
0.0948037,-0.334698,2.593,2.61623
0.10322,-0.334698,2.593,2.61655
0.112497,-0.33728,2.613,2.63708
0.120978,-0.33728,2.613,2.63745
0.12946,-0.33728,2.613,2.63786
0.137941,-0.33728,2.613,2.63829
0.146422,-0.33728,2.613,2.63874
0.154903,-0.33728,2.613,2.63923
0.163384,-0.33728,2.613,2.63974
0.171865,-0.33728,2.613,2.64028
0.180346,-0.33728,2.613,2.64084
0.188828,-0.33728,2.613,2.64144
0.195799,-0.334698,2.593,2.62183
0.204215,-0.334698,2.593,2.62248
0.212631,-0.334698,2.593,2.62314
0.221047,-0.334698,2.593,2.62384
0.229463,-0.334698,2.593,2.62456
0.23788,-0.334698,2.593,2.62531
0.244491,-0.332246,2.574,2.60684
0.252846,-0.332246,2.574,2.60764
0.2612,-0.332246,2.574,2.60846
0.267565,-0.329793,2.555,2.59005
0.275858,-0.329793,2.555,2.59092
0.284151,-0.329793,2.555,2.59182
0.292444,-0.329793,2.555,2.59274
0.300737,-0.329793,2.555,2.59369
0.30903,-0.329793,2.555,2.59467
0.317323,-0.329793,2.555,2.59567
0.325615,-0.329793,2.555,2.59669
0.333908,-0.329793,2.555,2.59775
0.342201,-0.329793,2.555,2.59882
0.347888,-0.327341,2.536,2.5806
0.356119,-0.327341,2.536,2.58172
0.36435,-0.327341,2.536,2.58287
0.372581,-0.327341,2.536,2.58404
0.380813,-0.327341,2.536,2.58524
0.389044,-0.327341,2.536,2.58647
0.397275,-0.327341,2.536,2.58772
0.405506,-0.327341,2.536,2.58899
0.413738,-0.327341,2.536,2.59029
0.421969,-0.327341,2.536,2.59162
0.426977,-0.324888,2.517,2.57355
0.435146,-0.324888,2.517,2.57492
0.443316,-0.324888,2.517,2.57631
0.454894,-0.327341,2.536,2.59719
0.463125,-0.327341,2.536,2.59864
0.471356,-0.327341,2.536,2.60012
0.479587,-0.327341,2.536,2.60162
0.491473,-0.329793,2.555,2.62266
0.499766,-0.329793,2.555,2.62422
0.508059,-0.329793,2.555,2.62582
0.516352,-0.329793,2.555,2.62743
0.528546,-0.332246,2.574,2.64863
0.536901,-0.332246,2.574,2.65031
0.545256,-0.332246,2.574,2.65201
0.55361,-0.332246,2.574,2.65374
0.561965,-0.332246,2.574,2.6555
0.570319,-0.332246,2.574,2.65728
0.578674,-0.332246,2.574,2.65908
0.587028,-0.332246,2.574,2.66091
0.595383,-0.332246,2.574,2.66277
0.603738,-0.332246,2.574,2.66465
0.612092,-0.332246,2.574,2.66656
0.620447,-0.332246,2.574,2.66849
0.628801,-0.332246,2.574,2.67044
0.637156,-0.332246,2.574,2.67242
0.64551,-0.332246,2.574,2.67442
0.649038,-0.329793,2.555,2.6567
0.657331,-0.329793,2.555,2.65874
0.665624,-0.329793,2.555,2.6608
0.673917,-0.329793,2.555,2.66288
0.68221,-0.329793,2.555,2.665
0.690503,-0.329793,2.555,2.66713
0.698796,-0.329793,2.555,2.66929
0.70183,-0.327341,2.536,2.65161
0.710062,-0.327341,2.536,2.6538
0.718293,-0.327341,2.536,2.65601
0.726524,-0.327341,2.536,2.65825
0.734755,-0.327341,2.536,2.66051
0.73742,-0.324888,2.517,2.64285
0.74559,-0.324888,2.517,2.64514
0.753759,-0.324888,2.517,2.64745
0.761929,-0.324888,2.517,2.64979
0.770098,-0.324888,2.517,2.65215
0.772702,-0.322565,2.499,2.63555
0.780813,-0.322565,2.499,2.63794
0.788924,-0.322565,2.499,2.64035
0.797036,-0.322565,2.499,2.64279
0.805147,-0.322565,2.499,2.64524
0.813258,-0.322565,2.499,2.64772
0.815453,-0.320242,2.481,2.63114
0.823505,-0.320242,2.481,2.63364
0.831558,-0.320242,2.481,2.63617
0.839611,-0.320242,2.481,2.63872
0.847664,-0.320242,2.481,2.6413
0.855716,-0.320242,2.481,2.64389
0.863769,-0.320242,2.481,2.64651
0.871822,-0.320242,2.481,2.64915
0.879874,-0.320242,2.481,2.65181
0.887927,-0.320242,2.481,2.65449
0.89598,-0.320242,2.481,2.6572
0.904033,-0.320242,2.481,2.65992
0.912085,-0.320242,2.481,2.66267
0.913462,-0.317918,2.463,2.6461
0.921457,-0.317918,2.463,2.64887
0.929451,-0.317918,2.463,2.65166
0.937445,-0.317918,2.463,2.65448
0.945439,-0.317918,2.463,2.65731
0.953434,-0.317918,2.463,2.66016
0.961428,-0.317918,2.463,2.66304
0.969422,-0.317918,2.463,2.66594
0.977417,-0.317918,2.463,2.66885
0.985411,-0.317918,2.463,2.67179
0.993405,-0.317918,2.463,2.67475
1.0014,-0.317918,2.463,2.67773
1.00939,-0.317918,2.463,2.68073
1.01739,-0.317918,2.463,2.68375
1.02538,-0.317918,2.463,2.68679
1.03338,-0.317918,2.463,2.68985
nan,nan,nan,NaN
nan,nan,nan,NaN
nan,nan,nan,NaN
1.07314,-0.320242,2.481,2.72205
1.08119,-0.320242,2.481,2.72523
1.10505,-0.324888,2.517,2.76803
1.11322,-0.324888,2.517,2.7713
1.16416,-0.33728,2.613,2.88042
1.17264,-0.33728,2.613,2.88385
1.18112,-0.33728,2.613,2.88731
1.20827,-0.342572,2.654,2.93615
1.23614,-0.347993,2.696,2.98623
1.26475,-0.353544,2.739,3.03755
1.27364,-0.353544,2.739,3.04126
1.29283,-0.356383,2.761,3.06945
1.30179,-0.356383,2.761,3.07324
1.31075,-0.356383,2.761,3.07704
1.33023,-0.359223,2.783,3.10542
1.33926,-0.359223,2.783,3.1093
1.32698,-0.353544,2.739,3.06398
1.33587,-0.353544,2.739,3.06784
1.34476,-0.353544,2.739,3.07172
1.35365,-0.353544,2.739,3.07563
1.36254,-0.353544,2.739,3.07955
1.37143,-0.353544,2.739,3.08349
1.38032,-0.353544,2.739,3.08746
1.38921,-0.353544,2.739,3.09144
1.40933,-0.356383,2.761,3.12031
1.45322,-0.365161,2.829,3.20132
1.4624,-0.365161,2.829,3.2055
1.52204,-0.377681,2.926,3.31975
1.60011,-0.39459,3.057,3.47294
1.71694,-0.420793,3.26,3.70845
1.72753,-0.420793,3.26,3.71336
1.77223,-0.429054,3.324,3.79129
1.81788,-0.437444,3.389,3.87058
1.82888,-0.437444,3.389,3.87576
1.89635,-0.450868,3.493,4.00006
1.92734,-0.455515,3.529,4.04673
1.95913,-0.460291,3.566,4.09468
1.95025,-0.455515,3.529,4.05769
1.94169,-0.450868,3.493,4.02175
1.95303,-0.450868,3.493,4.02724
1.96437,-0.450868,3.493,4.03275
1.97571,-0.450868,3.493,4.03829
1.98704,-0.450868,3.493,4.04384
1.99838,-0.450868,3.493,4.04943
2.03043,-0.455515,3.529,4.09683
2.04189,-0.455515,3.529,4.10252
2.05334,-0.455515,3.529,4.10823
2.06479,-0.455515,3.529,4.11397
2.05507,-0.450868,3.493,4.0777
2.06641,-0.450868,3.493,4.08343
2.05692,-0.44635,3.458,4.0482
2.02688,-0.437444,3.389,3.97302
2.03788,-0.437444,3.389,3.97865
2.02893,-0.433184,3.356,3.9455
2.02037,-0.429054,3.324,3.91343
2.03116,-0.429054,3.324,3.91902
2.00264,-0.420793,3.26,3.84905
1.97555,-0.412919,3.199,3.78244
1.98593,-0.412919,3.199,3.78788
1.94202,-0.40169,3.112,3.69017
1.91762,-0.39459,3.057,3.63018
1.92754,-0.39459,3.057,3.63543
1.88676,-0.384264,2.977,3.54543
1.86394,-0.377681,2.926,3.48975
1.87343,-0.377681,2.926,3.49484
1.86684,-0.374454,2.901,3.47003
1.84521,-0.368258,2.853,3.41761
1.85447,-0.368258,2.853,3.42262
1.84806,-0.365161,2.829,3.39881
1.82704,-0.359223,2.783,3.34846
1.82156,-0.356383,2.761,3.32689
1.83052,-0.356383,2.761,3.33181
1.82482,-0.353544,2.739,3.31015
1.83371,-0.353544,2.739,3.31506
1.8426,-0.353544,2.739,3.31999
1.83662,-0.350704,2.717,3.29822
1.83118,-0.347993,2.696,3.27761
-2.26157,-0.410215,3.26,3.98881
-2.27308,-0.414242,3.292,4.02191
-2.2624,-0.414242,3.292,4.01588
-2.25171,-0.414242,3.292,4.00987
-2.26281,-0.418268,3.324,4.0428
-2.2737,-0.422295,3.356,4.07563
-2.26281,-0.422295,3.356,4.06957
-2.25192,-0.422295,3.356,4.06352
-2.24102,-0.422295,3.356,4.05749
-2.23013,-0.422295,3.356,4.05149
-2.24106,-0.426447,3.389,4.08528
-2.25243,-0.430726,3.423,4.12018
-2.26424,-0.43513,3.458,4.15619
-2.25302,-0.43513,3.458,4.15008
-2.26448,-0.439534,3.493,4.18594
-2.27637,-0.444064,3.529,4.2229
-2.26491,-0.444064,3.529,4.21674
-2.25346,-0.444064,3.529,4.2106
-2.26551,-0.44872,3.566,4.24856
-2.25394,-0.44872,3.566,4.2424
-2.26626,-0.453501,3.604,4.2814
-2.25456,-0.453501,3.604,4.27522
-2.26651,-0.458283,3.642,4.31408
