-1.48653,0.756506,2.237,2.79039
-1.47927,0.756506,2.237,2.78652
-1.47201,0.756506,2.237,2.78268
-1.46475,0.756506,2.237,2.77884
-1.46726,0.761579,2.252,2.79363
-1.45995,0.761579,2.252,2.7898
-1.44297,0.756506,2.237,2.76742
-1.43571,0.756506,2.237,2.76364
-1.42845,0.756506,2.237,2.75988
-1.41229,0.751772,2.223,2.73888
-1.40508,0.751772,2.223,2.73517
-1.39786,0.751772,2.223,2.73147
-1.38189,0.747037,2.209,2.7106
-1.37472,0.747037,2.209,2.70695
-1.36755,0.747037,2.209,2.70332
-1.35114,0.741964,2.194,2.68137
-1.33544,0.73723,2.18,2.6607
-1.32837,0.73723,2.18,2.65715
-1.31341,0.732834,2.167,2.6378
-1.30638,0.732834,2.167,2.6343
-1.29935,0.732834,2.167,2.63082
-1.29231,0.732834,2.167,2.62736
-1.27698,0.728099,2.153,2.60695
-1.26232,0.723703,2.14,2.58782
-1.25537,0.723703,2.14,2.58444
-1.24026,0.718968,2.126,2.56418
-1.23336,0.718968,2.126,2.56085
-1.22646,0.718968,2.126,2.55754
-1.2121,0.714572,2.113,2.53862
-1.19783,0.710176,2.1,2.51975
-1.19101,0.710176,2.1,2.51652
-1.17686,0.705779,2.087,2.49774
-1.16336,0.701721,2.075,2.48021
-1.15663,0.701721,2.075,2.47706
-1.14989,0.701721,2.075,2.47392
-1.14316,0.701721,2.075,2.4708
-1.13642,0.701721,2.075,2.46769
-1.12969,0.701721,2.075,2.4646
-1.12295,0.701721,2.075,2.46152
-1.11622,0.701721,2.075,2.45845
-1.10948,0.701721,2.075,2.4554
-1.10275,0.701721,2.075,2.45236
-1.09601,0.701721,2.075,2.44934
-1.09558,0.705779,2.087,2.46048
-1.0888,0.705779,2.087,2.45748
-1.08203,0.705779,2.087,2.45448
-1.07526,0.705779,2.087,2.4515
-1.06848,0.705779,2.087,2.44854
-1.0556,0.701721,2.075,2.43153
-1.04887,0.701721,2.075,2.42861
-1.04213,0.701721,2.075,2.42571
-1.0354,0.701721,2.075,2.42283
-1.02222,0.697325,2.062,2.40479
-1.01553,0.697325,2.062,2.40196
-1.00883,0.697325,2.062,2.39914
-1.00214,0.697325,2.062,2.39633
-0.989656,0.693267,2.05,2.37961
-0.983002,0.693267,2.05,2.37685
-0.976348,0.693267,2.05,2.3741
-0.969694,0.693267,2.05,2.37138
-0.96304,0.693267,2.05,2.36866
-0.950788,0.689209,2.038,2.35212
-0.944174,0.689209,2.038,2.34945
-0.9486,0.697325,2.062,2.37444
-0.936425,0.693267,2.05,2.35797
-0.924329,0.689209,2.038,2.34155
-0.917714,0.689209,2.038,2.33894
-0.911099,0.689209,2.038,2.33635
-0.899159,0.68515,2.026,2.32004
-0.892583,0.68515,2.026,2.3175
-0.886007,0.68515,2.026,2.31498
-0.874222,0.681092,2.014,2.29877
-0.867685,0.681092,2.014,2.29629
-0.861148,0.681092,2.014,2.29383
-0.854611,0.681092,2.014,2.29138
-0.848074,0.681092,2.014,2.28895
-0.846552,0.68515,2.026,2.30016
-0.839976,0.68515,2.026,2.29775
-0.8334,0.68515,2.026,2.29536
-0.831721,0.689209,2.038,2.30656
-0.825106,0.689209,2.038,2.30418
-0.818492,0.689209,2.038,2.30182
-0.811877,0.689209,2.038,2.29948
-0.805262,0.689209,2.038,2.29715
-0.798647,0.689209,2.038,2.29484
-0.792032,0.689209,2.038,2.29255
-0.785417,0.689209,2.038,2.29027
-0.778802,0.689209,2.038,2.28801
-0.772188,0.689209,2.038,2.28577
-0.765573,0.689209,2.038,2.28354
-0.754489,0.68515,2.026,2.2679
-0.747913,0.68515,2.026,2.26572
-0.736946,0.681092,2.014,2.25015
-0.730409,0.681092,2.014,2.24802
-0.723872,0.681092,2.014,2.2459
-0.713061,0.677034,2.002,2.23043
-0.706563,0.677034,2.002,2.22837
-0.695869,0.672976,1.99,2.21297
-0.68941,0.672976,1.99,2.21095
-0.682951,0.672976,1.99,2.20894
-0.672753,0.669256,1.979,2.19475
-0.662289,0.665198,1.967,2.1795
-0.655905,0.665198,1.967,2.17756
-0.64952,0.665198,1.967,2.17565
-0.639539,0.661478,1.956,2.1616
-0.633191,0.661478,1.956,2.15973
-0.626842,0.661478,1.956,2.15787
-0.620493,0.661478,1.956,2.15604
-0.610691,0.657758,1.945,2.1421
-0.604378,0.657758,1.945,2.14031
-0.598065,0.657758,1.945,2.13854
-0.591752,0.657758,1.945,2.13678
-0.585439,0.657758,1.945,2.13504
-0.579126,0.657758,1.945,2.13332
-0.572813,0.657758,1.945,2.13162
-0.5665,0.657758,1.945,2.12993
-0.560187,0.657758,1.945,2.12826
-0.553874,0.657758,1.945,2.1266
-0.544464,0.654038,1.934,2.11295
-0.538187,0.654038,1.934,2.11134
-0.531909,0.654038,1.934,2.10975
-0.525632,0.654038,1.934,2.10818
-0.519355,0.654038,1.934,2.10662
-0.513078,0.654038,1.934,2.10508
-0.5068,0.654038,1.934,2.10356
-0.500523,0.654038,1.934,2.10206
-0.491435,0.650318,1.923,2.08862
-0.485193,0.650318,1.923,2.08716
-0.478951,0.650318,1.923,2.08572
-0.47271,0.650318,1.923,2.0843
-0.466468,0.650318,1.923,2.08289
-0.460227,0.650318,1.923,2.0815
-0.453985,0.650318,1.923,2.08013
-0.447744,0.650318,1.923,2.07878
-0.441502,0.650318,1.923,2.07744
-0.43526,0.650318,1.923,2.07612
-0.426565,0.646598,1.912,2.06296
-0.420359,0.646598,1.912,2.06168
-0.414153,0.646598,1.912,2.06043
-0.407947,0.646598,1.912,2.05919
-0.39964,0.643216,1.902,2.0472
-0.393467,0.643216,1.902,2.04601
-0.387293,0.643216,1.902,2.04483
-0.38112,0.643216,1.902,2.04367
-0.374946,0.643216,1.902,2.04253
-0.368773,0.643216,1.902,2.0414
-0.360503,0.639496,1.891,2.0285
-0.354365,0.639496,1.891,2.02741
-0.348227,0.639496,1.891,2.02635
-0.342089,0.639496,1.891,2.02531
-0.335952,0.639496,1.891,2.02428
-0.329814,0.639496,1.891,2.02327
-0.321965,0.636114,1.881,2.01158
-0.315859,0.636114,1.881,2.01061
-0.309754,0.636114,1.881,2.00966
-0.303649,0.636114,1.881,2.00873
-0.297544,0.636114,1.881,2.00782
-0.291438,0.636114,1.881,2.00692
-0.285333,0.636114,1.881,2.00605
-0.279228,0.636114,1.881,2.00519
-0.274574,0.639496,1.891,2.015
-0.268437,0.639496,1.891,2.01417
-0.262299,0.639496,1.891,2.01336
-0.256161,0.639496,1.891,2.01257
-0.251478,0.643216,1.902,2.0235
-0.245305,0.643216,1.902,2.02275
-0.239131,0.643216,1.902,2.02201
-0.232958,0.643216,1.902,2.02129
-0.226784,0.643216,1.902,2.02058
-0.220611,0.643216,1.902,2.0199
-0.214438,0.643216,1.902,2.01924
-0.209359,0.646598,1.912,2.0292
-0.203153,0.646598,1.912,2.02857
-0.196947,0.646598,1.912,2.02796
-0.190741,0.646598,1.912,2.02737
-0.184536,0.646598,1.912,2.02679
-0.17833,0.646598,1.912,2.02624
-0.172124,0.646598,1.912,2.0257
-0.165918,0.646598,1.912,2.02518
-0.159712,0.646598,1.912,2.02468
-0.153506,0.646598,1.912,2.0242
-0.1473,0.646598,1.912,2.02374
-0.141094,0.646598,1.912,2.0233
-0.134889,0.646598,1.912,2.02288
-0.128683,0.646598,1.912,2.02247
-0.122477,0.646598,1.912,2.02209
-0.116271,0.646598,1.912,2.02172
-0.110065,0.646598,1.912,2.02137
-0.103859,0.646598,1.912,2.02104
-0.0976533,0.646598,1.912,2.02073
-0.0914474,0.646598,1.912,2.02044
-0.0852415,0.646598,1.912,2.02017
-0.0790356,0.646598,1.912,2.01992
-0.0728298,0.646598,1.912,2.01969
-0.0666239,0.646598,1.912,2.01947
-0.060102,0.643216,1.902,2.00872
-0.0539286,0.643216,1.902,2.00854
-0.0477552,0.643216,1.902,2.00839
-0.0415818,0.643216,1.902,2.00825
-0.0352036,0.639496,1.891,1.99652
-0.0290658,0.639496,1.891,1.99642
-0.0229281,0.639496,1.891,1.99634
-0.0167016,0.636114,1.881,1.98572
-0.0105964,0.636114,1.881,1.98568
-0.0044911,0.636114,1.881,1.98565
0.00160558,0.632733,1.871,1.97509
0.00763734,0.629351,1.861,1.96455
0.0136777,0.629351,1.861,1.96458
0.019718,0.629351,1.861,1.96464
0.0256061,0.625631,1.85,1.95309
0.0316108,0.625631,1.85,1.95318
0.0376154,0.625631,1.85,1.95329
0.0434078,0.622587,1.841,1.94391
0.0493833,0.622587,1.841,1.94405
0.0553587,0.622587,1.841,1.94421
0.061001,0.619205,1.831,1.93383
0.0665783,0.615824,1.821,1.92346
0.0724888,0.615824,1.821,1.92368
0.0783994,0.615824,1.821,1.92391
0.0843099,0.615824,1.821,1.92416
0.0902204,0.615824,1.821,1.92443
0.0961309,0.615824,1.821,1.92471
0.102041,0.615824,1.821,1.92502
0.107952,0.615824,1.821,1.92534
0.113862,0.615824,1.821,1.92568
0.119773,0.615824,1.821,1.92604
0.127685,0.625631,1.85,1.95709
0.13369,0.625631,1.85,1.9575
0.139694,0.625631,1.85,1.95791
0.145699,0.625631,1.85,1.95835
0.151704,0.625631,1.85,1.95881
0.157708,0.625631,1.85,1.95928
0.164686,0.629351,1.861,1.97143
0.170727,0.629351,1.861,1.97194
0.176767,0.629351,1.861,1.97247
0.18379,0.632733,1.871,1.98363
0.190877,0.636114,1.881,1.9948
0.196982,0.636114,1.881,1.9954
0.203088,0.636114,1.881,1.99601
0.210305,0.639496,1.891,2.00725
0.218846,0.646598,1.912,2.0302
0.225052,0.646598,1.912,2.03088
0.232589,0.650318,1.923,2.04327
0.23883,0.650318,1.923,2.04399
0.245072,0.650318,1.923,2.04473
0.254189,0.657758,1.945,2.06888
0.261975,0.661478,1.956,2.08137
0.268324,0.661478,1.956,2.08218
0.277902,0.669256,1.979,2.1075
0.284325,0.669256,1.979,2.10836
0.294128,0.677034,2.002,2.13375
0.300626,0.677034,2.002,2.13466
0.310806,0.68515,2.026,2.16118
0.321141,0.693267,2.05,2.18775
0.327795,0.693267,2.05,2.18874
0.336406,0.697325,2.062,2.20256
0.345262,0.701721,2.075,2.21749
0.354033,0.705779,2.087,2.23137
0.360807,0.705779,2.087,2.23246
0.36987,0.710176,2.1,2.24748
0.379018,0.714572,2.113,2.26253
0.385877,0.714572,2.113,2.26369
0.392735,0.714572,2.113,2.26487
0.399593,0.714572,2.113,2.26607
0.406451,0.714572,2.113,2.26729
0.415853,0.718968,2.126,2.28248
0.422753,0.718968,2.126,2.28375
0.427026,0.714572,2.113,2.27106
0.433884,0.714572,2.113,2.27236
0.440743,0.714572,2.113,2.27368
0.447601,0.714572,2.113,2.27502
0.451663,0.710176,2.1,2.26238
0.458479,0.710176,2.1,2.26375
0.468176,0.714572,2.113,2.27916
0.472112,0.710176,2.1,2.26655
0.475963,0.705779,2.087,2.25394
0.482737,0.705779,2.087,2.25538
0.489511,0.705779,2.087,2.25684
0.493431,0.701721,2.075,2.24533
0.500166,0.701721,2.075,2.24682
0.506901,0.701721,2.075,2.24833
0.513636,0.701721,2.075,2.24986
0.51711,0.697325,2.062,2.2373
0.523803,0.697325,2.062,2.23886
0.530496,0.697325,2.062,2.24043
0.530936,0.689209,2.038,2.21593
0.537551,0.689209,2.038,2.21752
0.537758,0.681092,2.014,2.193
0.541052,0.677034,2.002,2.18154
0.54755,0.677034,2.002,2.18316
0.547682,0.669256,1.979,2.1597
0.547666,0.661478,1.956,2.13622
0.554015,0.661478,1.956,2.13785
0.557212,0.657758,1.945,2.12748
0.557151,0.650318,1.923,2.10506
0.563392,0.650318,1.923,2.10672
0.566376,0.646598,1.912,2.09633
0.569587,0.643216,1.902,2.08705
0.57576,0.643216,1.902,2.08874
0.578568,0.639496,1.891,2.07836
0.584706,0.639496,1.891,2.08008
0.590843,0.639496,1.891,2.08181
0.600454,0.643216,1.902,2.09568
0.606627,0.643216,1.902,2.09746
0.612801,0.643216,1.902,2.09925
0.618974,0.643216,1.902,2.10106
0.625148,0.643216,1.902,2.10289
0.62767,0.639496,1.891,2.09256
0.633808,0.639496,1.891,2.09441
0.639945,0.639496,1.891,2.09627
0.646083,0.639496,1.891,2.09816
0.652221,0.639496,1.891,2.10005
0.654877,0.636114,1.881,2.09085
0.660982,0.636114,1.881,2.09277
0.667087,0.636114,1.881,2.09471
0.673193,0.636114,1.881,2.09666
0.675687,0.632733,1.871,2.08747
0.678116,0.629351,1.861,2.07828
0.684156,0.629351,1.861,2.08026
0.690196,0.629351,1.861,2.08225
0.692121,0.625631,1.85,2.07194
0.698126,0.625631,1.85,2.07396
0.704131,0.625631,1.85,2.07599
0.70668,0.622587,1.841,2.06792
0.712656,0.622587,1.841,2.06997
0.714728,0.619205,1.831,2.06078
0.720671,0.619205,1.831,2.06285
0.726614,0.619205,1.831,2.06493
0.728556,0.615824,1.821,2.05574
0.734466,0.615824,1.821,2.05784
0.740377,0.615824,1.821,2.05996
0.746287,0.615824,1.821,2.06209
0.752198,0.615824,1.821,2.06424
0.758108,0.615824,1.821,2.0664
0.764019,0.615824,1.821,2.06858
0.769929,0.615824,1.821,2.07077
0.77584,0.615824,1.821,2.07297
0.781751,0.615824,1.821,2.07519
0.787661,0.615824,1.821,2.07742
0.793572,0.615824,1.821,2.07967
0.799482,0.615824,1.821,2.08193
0.805393,0.615824,1.821,2.08421
0.802838,0.609398,1.802,2.06473
0.808687,0.609398,1.802,2.06701
0.814536,0.609398,1.802,2.06931
0.820385,0.609398,1.802,2.07162
0.826233,0.609398,1.802,2.07394
0.832082,0.609398,1.802,2.07628
0.837931,0.609398,1.802,2.07863
0.84378,0.609398,1.802,2.08099
0.849629,0.609398,1.802,2.08337
0.855478,0.609398,1.802,2.08576
0.861327,0.609398,1.802,2.08817
0.867175,0.609398,1.802,2.09059
0.873024,0.609398,1.802,2.09302
0.883263,0.612442,1.811,2.10593
0.889141,0.612442,1.811,2.10841
0.895019,0.612442,1.811,2.11089
0.900897,0.612442,1.811,2.11339
0.906775,0.612442,1.811,2.1159
0.912653,0.612442,1.811,2.11843
0.918531,0.612442,1.811,2.12097
0.929513,0.615824,1.821,2.13525
0.935424,0.615824,1.821,2.13783
0.941334,0.615824,1.821,2.14042
0.947245,0.615824,1.821,2.14302
0.953155,0.615824,1.821,2.14564
0.959066,0.615824,1.821,2.14828
0.970276,0.619205,1.831,2.16273
0.976219,0.619205,1.831,2.16541
0.992353,0.625631,1.85,2.19059
0.998358,0.625631,1.85,2.19332
1.00436,0.625631,1.85,2.19606
1.01637,0.629351,1.861,2.21188
1.02242,0.629351,1.861,2.21466
1.02846,0.629351,1.861,2.21746
1.04005,0.632733,1.871,2.2322
1.04613,0.632733,1.871,2.23503
1.06345,0.639496,1.891,2.2618
1.07581,0.643216,1.902,2.27787
1.08198,0.643216,1.902,2.28079
1.08815,0.643216,1.902,2.28373
1.10008,0.646598,1.912,2.2987
1.10629,0.646598,1.912,2.30167
1.11249,0.646598,1.912,2.30466
1.1187,0.646598,1.912,2.30767
1.13138,0.650318,1.923,2.32397
1.13762,0.650318,1.923,2.32702
1.14386,0.650318,1.923,2.33008
1.15668,0.654038,1.934,2.34649
1.15634,0.650318,1.923,2.33623
1.16258,0.650318,1.923,2.33933
1.16883,0.650318,1.923,2.34243
1.17507,0.650318,1.923,2.34555
1.17455,0.646598,1.912,2.33525
1.18076,0.646598,1.912,2.33838
1.18696,0.646598,1.912,2.34152
1.19317,0.646598,1.912,2.34467
1.19938,0.646598,1.912,2.34784
1.20558,0.646598,1.912,2.35101
1.21179,0.646598,1.912,2.3542
1.21799,0.646598,1.912,2.3574
1.2242,0.646598,1.912,2.36061
1.2304,0.646598,1.912,2.36384
1.23661,0.646598,1.912,2.36707
1.24997,0.650318,1.923,2.38396
1.25621,0.650318,1.923,2.38724
1.26245,0.650318,1.923,2.39053
1.26869,0.650318,1.923,2.39383
1.28223,0.654038,1.934,2.41086
1.28117,0.650318,1.923,2.40047
1.28742,0.650318,1.923,2.40381
1.29366,0.650318,1.923,2.40715
1.2999,0.650318,1.923,2.41051
1.30614,0.650318,1.923,2.41389
-1.56229,0.768886,2.252,2.84665
-1.55498,0.768886,2.252,2.84265
-1.53736,0.763765,2.237,2.81975
-1.5301,0.763765,2.237,2.8158
-1.52284,0.763765,2.237,2.81186
-1.50609,0.758985,2.223,2.79036
-1.48944,0.754205,2.209,2.76892
-1.48227,0.754205,2.209,2.76507
-1.46508,0.749084,2.194,2.74248
-1.44866,0.744304,2.18,2.72121
-1.44158,0.744304,2.18,2.71745
-1.4345,0.744304,2.18,2.7137
-1.42743,0.744304,2.18,2.70997
-1.42035,0.744304,2.18,2.70625
-1.40485,0.739865,2.167,2.68643
-1.39782,0.739865,2.167,2.68276
-1.39078,0.739865,2.167,2.6791
-1.37481,0.735085,2.153,2.65817
-1.36782,0.735085,2.153,2.65456
-1.36083,0.735085,2.153,2.65097
-1.35384,0.735085,2.153,2.64739
-1.33872,0.730647,2.14,2.62786
-1.33178,0.730647,2.14,2.62432
-1.36755,0.754205,2.209,2.70531
-1.35114,0.749084,2.194,2.68335
-1.33544,0.744304,2.18,2.66267
-1.32837,0.744304,2.18,2.65913
-1.31341,0.739865,2.167,2.63976
-1.30638,0.739865,2.167,2.63627
-1.29935,0.739865,2.167,2.63279
-1.29231,0.739865,2.167,2.62933
-1.27698,0.735085,2.153,2.60891
-1.26232,0.730647,2.14,2.58977
-1.25537,0.730647,2.14,2.58639
-1.24026,0.725867,2.126,2.56613
-1.23336,0.725867,2.126,2.5628
-1.22646,0.725867,2.126,2.55948
-1.2121,0.721428,2.113,2.54055
-1.19783,0.71699,2.1,2.52168
-1.19101,0.71699,2.1,2.51845
-1.17686,0.712551,2.087,2.49966
-1.16336,0.708454,2.075,2.48213
-1.15663,0.708454,2.075,2.47898
-1.14989,0.708454,2.075,2.47584
-1.14316,0.708454,2.075,2.47272
-1.13642,0.708454,2.075,2.46961
-1.12969,0.708454,2.075,2.46652
-1.12295,0.708454,2.075,2.46344
-1.11622,0.708454,2.075,2.46038
-1.10948,0.708454,2.075,2.45733
-1.10275,0.708454,2.075,2.4543
-1.09601,0.708454,2.075,2.45128
-1.09558,0.712551,2.087,2.46244
-1.0888,0.712551,2.087,2.45943
-1.08203,0.712551,2.087,2.45644
-1.07526,0.712551,2.087,2.45346
-1.06848,0.712551,2.087,2.4505
-1.0556,0.708454,2.075,2.43348
-1.04887,0.708454,2.075,2.43057
-1.04213,0.708454,2.075,2.42767
-1.0354,0.708454,2.075,2.42479
-1.02222,0.704016,2.062,2.40674
-1.01553,0.704016,2.062,2.40391
-1.00883,0.704016,2.062,2.40109
-1.00214,0.704016,2.062,2.39828
-0.989656,0.699919,2.05,2.38156
-0.983002,0.699919,2.05,2.3788
-0.976348,0.699919,2.05,2.37606
-0.969694,0.699919,2.05,2.37333
-0.96304,0.699919,2.05,2.37062
-0.950788,0.695821,2.038,2.35406
-0.938614,0.691724,2.026,2.33755
-0.932038,0.691724,2.026,2.33492
-0.919981,0.687627,2.014,2.31849
-0.913444,0.687627,2.014,2.3159
-0.906907,0.687627,2.014,2.31333
-0.895005,0.68353,2.002,2.29701
-0.883182,0.679433,1.99,2.28073
-0.876723,0.679433,1.99,2.27824
-0.870264,0.679433,1.99,2.27576
-0.863804,0.679433,1.99,2.2733
-0.857345,0.679433,1.99,2.27085
-0.850886,0.679433,1.99,2.26842
-0.844427,0.679433,1.99,2.26601
-0.837968,0.679433,1.99,2.26361
-0.831509,0.679433,1.99,2.26122
-0.82505,0.679433,1.99,2.25886
-0.818591,0.679433,1.99,2.25651
-0.812132,0.679433,1.99,2.25417
-0.805673,0.679433,1.99,2.25185
-0.799214,0.679433,1.99,2.24955
-0.797535,0.68353,2.002,2.26081
-0.791037,0.68353,2.002,2.25853
-0.784539,0.68353,2.002,2.25626
-0.778041,0.68353,2.002,2.25401
-0.771543,0.68353,2.002,2.25178
-0.76046,0.679433,1.99,2.23607
-0.754001,0.679433,1.99,2.23389
-0.747542,0.679433,1.99,2.23171
-0.741083,0.679433,1.99,2.22956
-0.734623,0.679433,1.99,2.22742
-0.724139,0.675677,1.979,2.213
-0.717716,0.675677,1.979,2.2109
-0.711293,0.675677,1.979,2.20883
-0.700595,0.67158,1.967,2.19339
-0.694211,0.67158,1.967,2.19136
-0.687827,0.67158,1.967,2.18934
-0.677631,0.667825,1.956,2.17511
-0.671283,0.667825,1.956,2.17314
-0.664934,0.667825,1.956,2.17119
-0.654882,0.664069,1.945,2.15705
-0.648569,0.664069,1.945,2.15515
-0.638623,0.660313,1.934,2.14108
-0.632346,0.660313,1.934,2.13921
-0.626069,0.660313,1.934,2.13737
-0.619791,0.660313,1.934,2.13554
-0.610025,0.656558,1.923,2.12159
-0.603783,0.656558,1.923,2.1198
-0.597542,0.656558,1.923,2.11803
-0.587918,0.652802,1.912,2.10417
-0.581712,0.652802,1.912,2.10245
-0.575506,0.652802,1.912,2.10074
-0.5693,0.652802,1.912,2.09905
-0.563094,0.652802,1.912,2.09737
-0.556888,0.652802,1.912,2.09571
-0.550682,0.652802,1.912,2.09407
-0.541629,0.649388,1.902,2.08151
-0.535455,0.649388,1.902,2.07991
-0.529282,0.649388,1.902,2.07833
-0.520083,0.645632,1.891,2.06475
-0.513945,0.645632,1.891,2.06322
-0.510762,0.649388,1.902,2.07369
-0.504588,0.649388,1.902,2.07218
-0.498415,0.649388,1.902,2.07068
-0.492241,0.649388,1.902,2.06921
-0.483257,0.645632,1.891,2.05579
-0.477119,0.645632,1.891,2.05435
-0.473721,0.649388,1.902,2.06488
-0.467548,0.649388,1.902,2.06347
-0.458706,0.645632,1.891,2.05015
-0.452568,0.645632,1.891,2.04879
-0.446431,0.645632,1.891,2.04744
-0.440293,0.645632,1.891,2.04611
-0.434155,0.645632,1.891,2.0448
-0.428017,0.645632,1.891,2.04351
-0.42188,0.645632,1.891,2.04223
-0.415742,0.645632,1.891,2.04097
-0.409604,0.645632,1.891,2.03973
-0.403467,0.645632,1.891,2.03851
-0.395228,0.642218,1.881,2.02653
-0.389122,0.642218,1.881,2.02534
-0.383017,0.642218,1.881,2.02418
-0.376912,0.642218,1.881,2.02303
-0.370807,0.642218,1.881,2.02191
-0.364701,0.642218,1.881,2.02079
-0.35669,0.638804,1.871,2.00896
-0.350617,0.638804,1.871,2.0079
-0.344544,0.638804,1.871,2.00684
-0.338471,0.638804,1.871,2.00581
-0.330622,0.63539,1.861,1.99408
-0.324582,0.63539,1.861,1.99309
-0.318541,0.63539,1.861,1.99211
-0.312501,0.63539,1.861,1.99115
-0.306461,0.63539,1.861,1.99022
-0.30042,0.63539,1.861,1.98929
-0.29438,0.63539,1.861,1.98839
-0.288339,0.63539,1.861,1.98751
-0.282299,0.63539,1.861,1.98664
-0.276259,0.63539,1.861,1.98579
-0.270218,0.63539,1.861,1.98496
-0.264178,0.63539,1.861,1.98414
-0.258138,0.63539,1.861,1.98335
-0.252097,0.63539,1.861,1.98257
-0.247379,0.638804,1.871,1.99246
-0.241306,0.638804,1.871,1.99172
-0.235234,0.638804,1.871,1.99099
-0.229161,0.638804,1.871,1.99028
-0.22428,0.642218,1.881,2.00023
-0.218175,0.642218,1.881,1.99955
-0.21207,0.642218,1.881,1.99889
-0.205965,0.642218,1.881,1.99826
-0.199859,0.642218,1.881,1.99764
-0.193754,0.642218,1.881,1.99703
-0.187649,0.642218,1.881,1.99645
-0.181544,0.642218,1.881,1.99589
-0.17833,0.652802,1.912,2.02822
-0.172124,0.652802,1.912,2.02769
-0.165918,0.652802,1.912,2.02717
-0.159712,0.652802,1.912,2.02667
-0.153506,0.652802,1.912,2.02619
-0.1473,0.652802,1.912,2.02573
-0.141094,0.652802,1.912,2.02529
-0.134889,0.652802,1.912,2.02487
-0.128683,0.652802,1.912,2.02446
-0.122477,0.652802,1.912,2.02408
-0.116271,0.652802,1.912,2.02371
-0.110065,0.652802,1.912,2.02337
-0.103859,0.652802,1.912,2.02304
-0.0976533,0.652802,1.912,2.02273
-0.0914474,0.652802,1.912,2.02244
-0.0852415,0.652802,1.912,2.02217
-0.0790356,0.652802,1.912,2.02192
-0.0728298,0.652802,1.912,2.02168
-0.0666239,0.652802,1.912,2.02147
-0.060102,0.649388,1.902,2.0107
-0.0539286,0.649388,1.902,2.01053
-0.0477552,0.649388,1.902,2.01037
-0.0415818,0.649388,1.902,2.01023
-0.0352036,0.645632,1.891,1.99849
-0.0290658,0.645632,1.891,1.99839
-0.0229281,0.645632,1.891,1.99831
-0.0167016,0.642218,1.881,1.98768
-0.0105964,0.642218,1.881,1.98764
-0.0044911,0.642218,1.881,1.98762
0.00160558,0.638804,1.871,1.97705
0.00763734,0.63539,1.861,1.96649
0.0136777,0.63539,1.861,1.96653
0.019718,0.63539,1.861,1.96658
0.0256061,0.631634,1.85,1.95502
0.0316108,0.631634,1.85,1.95511
0.0376154,0.631634,1.85,1.95522
0.0434078,0.628561,1.841,1.94583
0.0493833,0.628561,1.841,1.94597
0.0553587,0.628561,1.841,1.94613
0.061001,0.625147,1.831,1.93574
0.0665783,0.621733,1.821,1.92536
0.0724888,0.621733,1.821,1.92558
0.0783994,0.621733,1.821,1.92581
0.0843099,0.621733,1.821,1.92606
0.0902204,0.621733,1.821,1.92633
0.0961309,0.621733,1.821,1.92661
0.102041,0.621733,1.821,1.92692
0.107952,0.621733,1.821,1.92724
0.113862,0.621733,1.821,1.92758
0.119773,0.621733,1.821,1.92794
0.125683,0.621733,1.821,1.92831
0.131594,0.621733,1.821,1.92871
0.137505,0.621733,1.821,1.92912
0.144203,0.625147,1.831,1.94015
0.150146,0.625147,1.831,1.9406
0.156089,0.625147,1.831,1.94106
0.162031,0.625147,1.831,1.94155
0.168892,0.628561,1.841,1.95266
0.174867,0.628561,1.841,1.95319
0.181727,0.631634,1.85,1.96328
0.187731,0.631634,1.85,1.96385
0.193736,0.631634,1.85,1.96443
0.200928,0.63539,1.861,1.97672
0.208081,0.638804,1.871,1.98797
0.216443,0.645632,1.891,2.00987
0.222581,0.645632,1.891,2.01054
0.231258,0.652802,1.912,2.03356
0.23883,0.656558,1.923,2.04598
0.245072,0.656558,1.923,2.04672
0.252751,0.660313,1.934,2.05919
0.261975,0.667825,1.956,2.0834
0.268324,0.667825,1.956,2.08421
0.276217,0.67158,1.967,2.09676
0.284325,0.675677,1.979,2.11041
0.294128,0.68353,2.002,2.13582
0.300626,0.68353,2.002,2.13672
0.310806,0.691724,2.026,2.16328
0.319261,0.695821,2.038,2.17705
0.325876,0.695821,2.038,2.17803
0.336406,0.704016,2.062,2.20469
0.343099,0.704016,2.062,2.20572
0.354033,0.712551,2.087,2.23353
0.360807,0.712551,2.087,2.23461
0.367581,0.712551,2.087,2.23571
0.376686,0.71699,2.1,2.25077
0.383503,0.71699,2.1,2.25192
0.390319,0.71699,2.1,2.25309
0.399593,0.721428,2.113,2.26824
0.406451,0.721428,2.113,2.26946
0.41331,0.721428,2.113,2.27069
0.420168,0.721428,2.113,2.27195
0.427026,0.721428,2.113,2.27323
0.433884,0.721428,2.113,2.27453
0.440743,0.721428,2.113,2.27585
0.447601,0.721428,2.113,2.27719
0.451663,0.71699,2.1,2.26453
0.458479,0.71699,2.1,2.26589
0.465295,0.71699,2.1,2.26728
0.472112,0.71699,2.1,2.26869
0.475963,0.712551,2.087,2.25607
0.482737,0.712551,2.087,2.25751
0.489511,0.712551,2.087,2.25896
0.493431,0.708454,2.075,2.24744
0.500166,0.708454,2.075,2.24893
0.506901,0.708454,2.075,2.25044
0.513636,0.708454,2.075,2.25197
0.51711,0.704016,2.062,2.23939
0.523803,0.704016,2.062,2.24095
0.530496,0.704016,2.062,2.24252
0.530936,0.695821,2.038,2.218
0.537551,0.695821,2.038,2.21959
0.540962,0.691724,2.026,2.20812
0.541052,0.68353,2.002,2.18356
0.54755,0.68353,2.002,2.18518
0.547682,0.675677,1.979,2.1617
0.547666,0.667825,1.956,2.13819
0.554015,0.667825,1.956,2.13983
0.557212,0.664069,1.945,2.12944
0.557151,0.656558,1.923,2.10699
0.563392,0.656558,1.923,2.10865
0.566376,0.652802,1.912,2.09826
0.569587,0.649388,1.902,2.08896
0.57576,0.649388,1.902,2.09065
0.578568,0.645632,1.891,2.08026
0.584706,0.645632,1.891,2.08197
0.590843,0.645632,1.891,2.0837
0.596981,0.645632,1.891,2.08545
0.603119,0.645632,1.891,2.08722
0.609257,0.645632,1.891,2.089
0.615394,0.645632,1.891,2.0908
0.618245,0.642218,1.881,2.08155
0.624351,0.642218,1.881,2.08337
0.630456,0.642218,1.881,2.0852
0.636561,0.642218,1.881,2.08706
0.63925,0.638804,1.871,2.07782
0.645323,0.638804,1.871,2.0797
0.651395,0.638804,1.871,2.08159
0.653954,0.63539,1.861,2.07237
0.659994,0.63539,1.861,2.07428
0.666035,0.63539,1.861,2.07621
0.668103,0.631634,1.85,2.06587
0.674107,0.631634,1.85,2.06782
0.680112,0.631634,1.85,2.06979
0.682779,0.628561,1.841,2.06169
0.688754,0.628561,1.841,2.06367
0.69473,0.628561,1.841,2.06568
0.696899,0.625147,1.831,2.05646
0.699003,0.621733,1.821,2.04724
0.704914,0.621733,1.821,2.04927
0.710824,0.621733,1.821,2.05131
0.712799,0.618318,1.811,2.04209
0.718677,0.618318,1.811,2.04415
0.724555,0.618318,1.811,2.04622
0.730433,0.618318,1.811,2.04831
0.736311,0.618318,1.811,2.05041
0.742189,0.618318,1.811,2.05253
0.748067,0.618318,1.811,2.05466
0.753945,0.618318,1.811,2.05681
0.759823,0.618318,1.811,2.05897
0.761896,0.615246,1.802,2.05091
0.767745,0.615246,1.802,2.05309
0.773594,0.615246,1.802,2.05528
0.779443,0.615246,1.802,2.05749
0.793572,0.621733,1.821,2.08143
0.799482,0.621733,1.821,2.08369
0.805393,0.621733,1.821,2.08597
0.802838,0.615246,1.802,2.06647
0.808687,0.615246,1.802,2.06874
0.814536,0.615246,1.802,2.07104
0.820385,0.615246,1.802,2.07335
0.826233,0.615246,1.802,2.07567
0.832082,0.615246,1.802,2.078
0.837931,0.615246,1.802,2.08035
0.84378,0.615246,1.802,2.08271
0.849629,0.615246,1.802,2.08509
0.855478,0.615246,1.802,2.08748
0.861327,0.615246,1.802,2.08988
0.867175,0.615246,1.802,2.0923
0.873024,0.615246,1.802,2.09473
0.883263,0.618318,1.811,2.10765
0.889141,0.618318,1.811,2.11012
0.895019,0.618318,1.811,2.1126
0.900897,0.618318,1.811,2.1151
0.906775,0.618318,1.811,2.11761
0.912653,0.618318,1.811,2.12014
0.918531,0.618318,1.811,2.12267
0.929513,0.621733,1.821,2.13696
0.935424,0.621733,1.821,2.13954
0.941334,0.621733,1.821,2.14213
0.947245,0.621733,1.821,2.14473
0.953155,0.621733,1.821,2.14735
0.959066,0.621733,1.821,2.14998
0.970276,0.625147,1.831,2.16444
0.976219,0.625147,1.831,2.16711
0.992353,0.631634,1.85,2.19231
0.998358,0.631634,1.85,2.19504
1.00436,0.631634,1.85,2.19777
1.01637,0.63539,1.861,2.21361
1.02242,0.63539,1.861,2.21639
1.02846,0.63539,1.861,2.21918
1.04005,0.638804,1.871,2.23393
1.04613,0.638804,1.871,2.23676
1.06345,0.645632,1.891,2.26355
1.07581,0.649388,1.902,2.27962
1.08198,0.649388,1.902,2.28254
1.08815,0.649388,1.902,2.28547
1.10008,0.652802,1.912,2.30045
1.10629,0.652802,1.912,2.30342
1.11249,0.652802,1.912,2.30641
1.1187,0.652802,1.912,2.30941
1.13138,0.656558,1.923,2.32573
1.13762,0.656558,1.923,2.32877
1.14386,0.656558,1.923,2.33183
1.1501,0.656558,1.923,2.33489
1.15634,0.656558,1.923,2.33797
1.16258,0.656558,1.923,2.34107
1.16214,0.652802,1.912,2.33076
1.16835,0.652802,1.912,2.33387
1.17455,0.652802,1.912,2.33698
1.18076,0.652802,1.912,2.3401
1.18696,0.652802,1.912,2.34324
1.19317,0.652802,1.912,2.34639
1.19938,0.652802,1.912,2.34955
1.20558,0.652802,1.912,2.35273
1.21179,0.652802,1.912,2.35591
1.21162,0.649388,1.902,2.34677
1.2178,0.649388,1.902,2.34997
1.22397,0.649388,1.902,2.35317
1.23014,0.649388,1.902,2.35639
1.23632,0.649388,1.902,2.35962
1.24249,0.649388,1.902,2.36286
1.24866,0.649388,1.902,2.36611
1.25484,0.649388,1.902,2.36937
1.26101,0.649388,1.902,2.37265
1.26718,0.649388,1.902,2.37593
1.27336,0.649388,1.902,2.37923
1.27953,0.649388,1.902,2.38254
1.27827,0.645632,1.891,2.37206
1.28441,0.645632,1.891,2.37538
-1.56229,0.776193,2.252,2.84863
-1.55498,0.776193,2.252,2.84463
-1.53736,0.771024,2.237,2.82172
-1.5301,0.771024,2.237,2.81777
-1.52284,0.771024,2.237,2.81384
-1.50609,0.766198,2.223,2.79233
-1.48944,0.761373,2.209,2.77088
-1.48227,0.761373,2.209,2.76704
-1.46508,0.756203,2.194,2.74444
-1.44866,0.751377,2.18,2.72315
-1.44158,0.751377,2.18,2.7194
-1.4345,0.751377,2.18,2.71565
-1.42743,0.751377,2.18,2.71192
-1.42035,0.751377,2.18,2.7082
-1.40485,0.746897,2.167,2.68837
-1.39782,0.746897,2.167,2.6847
-1.39078,0.746897,2.167,2.68105
-1.37481,0.742071,2.153,2.66011
-1.36782,0.742071,2.153,2.6565
-1.36083,0.742071,2.153,2.65291
-1.35384,0.742071,2.153,2.64933
-1.33872,0.737591,2.14,2.6298
-1.33178,0.737591,2.14,2.62627
-1.32483,0.737591,2.14,2.62275
-1.31789,0.737591,2.14,2.61925
-1.30236,0.732765,2.126,2.59865
-1.29546,0.732765,2.126,2.5952
-1.28856,0.732765,2.126,2.59176
-1.28166,0.732765,2.126,2.58834
-1.27476,0.732765,2.126,2.58493
-1.26786,0.732765,2.126,2.58153
-1.25325,0.728285,2.113,2.56238
-1.23872,0.723804,2.1,2.54329
-1.23191,0.723804,2.1,2.53998
-1.22509,0.723804,2.1,2.53668
-1.21073,0.719323,2.087,2.51771
-1.20396,0.719323,2.087,2.51446
-1.1903,0.715187,2.075,2.49679
-1.17615,0.710707,2.062,2.47796
-1.16946,0.710707,2.062,2.47479
-1.16277,0.710707,2.062,2.47163
-1.14935,0.70657,2.05,2.45413
-1.14269,0.70657,2.05,2.45102
-1.13604,0.70657,2.05,2.44792
-1.12939,0.70657,2.05,2.44484
-1.12273,0.70657,2.05,2.44178
-1.11608,0.70657,2.05,2.43872
-1.10942,0.70657,2.05,2.43569
-1.10277,0.70657,2.05,2.43266
-1.09612,0.70657,2.05,2.42965
-1.08946,0.70657,2.05,2.42666
-1.08281,0.70657,2.05,2.42368
-1.08245,0.710707,2.062,2.43488
-1.07576,0.710707,2.062,2.43192
-1.06285,0.70657,2.05,2.41483
-1.05619,0.70657,2.05,2.41191
-1.04954,0.70657,2.05,2.409
-1.03678,0.702434,2.038,2.39202
-1.03017,0.702434,2.038,2.38916
-1.02355,0.702434,2.038,2.38632
-1.01694,0.702434,2.038,2.38349
-1.00437,0.698298,2.026,2.36666
-0.997797,0.698298,2.026,2.36387
-0.991221,0.698298,2.026,2.3611
-0.984645,0.698298,2.026,2.35835
-0.972276,0.694162,2.014,2.34166
-0.965739,0.694162,2.014,2.33896
-0.959203,0.694162,2.014,2.33626
-0.952666,0.694162,2.014,2.33359
-0.946129,0.694162,2.014,2.33093
-0.933993,0.690026,2.002,2.31441
-0.921936,0.68589,1.99,2.29794
-0.915477,0.68589,1.99,2.29535
-0.909018,0.68589,1.99,2.29278
-0.89757,0.682099,1.979,2.27757
-0.891146,0.682099,1.979,2.27505
-0.879358,0.677963,1.967,2.25876
-0.872974,0.677963,1.967,2.25628
-0.861743,0.674172,1.956,2.24122
-0.855395,0.674172,1.956,2.23878
-0.849046,0.674172,1.956,2.23636
-0.842697,0.674172,1.956,2.23396
-0.836349,0.674172,1.956,2.23157
-0.83,0.674172,1.956,2.2292
-0.823651,0.674172,1.956,2.22685
-0.817303,0.674172,1.956,2.22451
-0.810954,0.674172,1.956,2.22218
-0.804605,0.674172,1.956,2.21987
-0.802746,0.677963,1.967,2.23005
-0.796361,0.677963,1.967,2.22776
-0.789977,0.677963,1.967,2.22549
-0.783592,0.677963,1.967,2.22323
-0.777208,0.677963,1.967,2.22099
-0.770824,0.677963,1.967,2.21876
-0.764439,0.677963,1.967,2.21655
-0.758055,0.677963,1.967,2.21436
-0.75167,0.677963,1.967,2.21218
-0.745286,0.677963,1.967,2.21002
-0.738902,0.677963,1.967,2.20787
-0.732517,0.677963,1.967,2.20574
-0.726133,0.677963,1.967,2.20363
-0.715724,0.674172,1.956,2.18922
-0.709375,0.674172,1.956,2.18716
-0.703026,0.674172,1.956,2.18511
-0.69276,0.67038,1.945,2.17079
-0.686446,0.67038,1.945,2.16879
-0.680134,0.67038,1.945,2.1668
-0.67001,0.666589,1.934,2.15258
-0.663732,0.666589,1.934,2.15064
-0.653716,0.662798,1.923,2.13649
-0.64377,0.659006,1.912,2.12237
-0.637565,0.659006,1.912,2.1205
-0.631359,0.659006,1.912,2.11864
-0.621883,0.65556,1.902,2.10573
-0.61571,0.65556,1.902,2.10392
-0.609536,0.65556,1.902,2.10212
-0.599873,0.651768,1.891,2.08819
-0.593736,0.651768,1.891,2.08643
-0.587598,0.651768,1.891,2.0847
-0.58146,0.651768,1.891,2.08297
-0.57228,0.648322,1.881,2.07026
-0.566175,0.648322,1.881,2.06858
-0.56007,0.648322,1.881,2.06692
-0.553964,0.648322,1.881,2.06527
-0.547859,0.648322,1.881,2.06365
-0.538874,0.644875,1.871,2.05107
-0.532801,0.644875,1.871,2.04948
-0.526728,0.644875,1.871,2.04791
-0.520655,0.644875,1.871,2.04636
-0.514583,0.644875,1.871,2.04482
-0.50851,0.644875,1.871,2.0433
-0.502437,0.644875,1.871,2.0418
-0.496364,0.644875,1.871,2.04031
-0.490291,0.644875,1.871,2.03885
-0.484219,0.644875,1.871,2.03739
-0.478146,0.644875,1.871,2.03596
-0.477119,0.651768,1.891,2.05629
-0.473721,0.65556,1.902,2.06683
-0.467548,0.65556,1.902,2.06542
-0.458706,0.651768,1.891,2.05209
-0.452568,0.651768,1.891,2.05073
-0.446431,0.651768,1.891,2.04939
-0.440293,0.651768,1.891,2.04806
-0.434155,0.651768,1.891,2.04675
-0.428017,0.651768,1.891,2.04545
-0.42188,0.651768,1.891,2.04418
-0.415742,0.651768,1.891,2.04292
-0.409604,0.651768,1.891,2.04168
-0.403467,0.651768,1.891,2.04046
-0.395228,0.648322,1.881,2.02847
-0.389122,0.648322,1.881,2.02729
-0.383017,0.648322,1.881,2.02613
-0.376912,0.648322,1.881,2.02498
-0.370807,0.648322,1.881,2.02385
-0.364701,0.648322,1.881,2.02274
-0.35669,0.644875,1.871,2.0109
-0.350617,0.644875,1.871,2.00984
-0.344544,0.644875,1.871,2.00878
-0.338471,0.644875,1.871,2.00775
-0.330622,0.641428,1.861,1.99601
-0.324582,0.641428,1.861,1.99502
-0.318541,0.641428,1.861,1.99405
-0.312501,0.641428,1.861,1.99309
-0.306461,0.641428,1.861,1.99215
-0.30042,0.641428,1.861,1.99123
-0.29438,0.641428,1.861,1.99033
-0.288339,0.641428,1.861,1.98944
-0.282299,0.641428,1.861,1.98858
-0.276259,0.641428,1.861,1.98773
-0.270218,0.641428,1.861,1.9869
-0.264178,0.641428,1.861,1.98609
-0.258138,0.641428,1.861,1.98529
-0.252097,0.641428,1.861,1.98452
-0.247379,0.644875,1.871,1.99442
-0.241306,0.644875,1.871,1.99367
-0.235234,0.644875,1.871,1.99295
-0.229161,0.644875,1.871,1.99224
-0.22428,0.648322,1.881,2.00219
-0.218175,0.648322,1.881,2.00152
-0.21207,0.648322,1.881,2.00086
-0.205965,0.648322,1.881,2.00023
-0.199859,0.648322,1.881,1.99961
-0.193754,0.648322,1.881,1.99901
-0.187649,0.648322,1.881,1.99842
-0.181544,0.648322,1.881,1.99786
-0.176371,0.651768,1.891,2.00793
-0.170233,0.651768,1.891,2.0074
-0.164096,0.651768,1.891,2.00689
-0.157958,0.651768,1.891,2.0064
-0.151017,0.648322,1.881,1.99532
-0.144912,0.648322,1.881,1.99486
-0.138807,0.648322,1.881,1.99443
-0.132702,0.648322,1.881,1.99401
-0.126596,0.648322,1.881,1.99362
-0.120491,0.648322,1.881,1.99324
-0.114994,0.651768,1.891,2.00347
-0.108856,0.651768,1.891,2.00313
-0.102718,0.651768,1.891,2.00281
-0.0965807,0.651768,1.891,2.0025
-0.090443,0.651768,1.891,2.00221
-0.0843053,0.651768,1.891,2.00195
-0.0781676,0.651768,1.891,2.0017
-0.0720299,0.651768,1.891,2.00147
-0.0658921,0.651768,1.891,2.00126
-0.0597544,0.651768,1.891,2.00106
-0.0536167,0.651768,1.891,2.00089
-0.047479,0.651768,1.891,2.00073
-0.0411226,0.648322,1.881,1.99002
-0.0348312,0.644875,1.871,1.97932
-0.0287584,0.644875,1.871,1.97923
-0.0225644,0.641428,1.861,1.96857
-0.0164264,0.637637,1.85,1.95687
-0.0104217,0.637637,1.85,1.95683
-0.00441708,0.637637,1.85,1.95681
0.00157984,0.634535,1.841,1.94728
0.00751423,0.631088,1.831,1.93672
0.0134572,0.631088,1.831,1.93675
0.0194002,0.631088,1.831,1.9368
0.0252047,0.627641,1.821,1.92629
0.0311152,0.627641,1.821,1.92638
0.0370258,0.627641,1.821,1.92649
0.0427005,0.624195,1.811,1.91603
0.0485785,0.624195,1.811,1.91617
0.0544566,0.624195,1.811,1.91633
0.0600348,0.621093,1.802,1.90698
0.0658837,0.621093,1.802,1.90717
0.0717325,0.621093,1.802,1.90738
0.0775814,0.621093,1.802,1.90761
0.0834302,0.621093,1.802,1.90786
0.089279,0.621093,1.802,1.90812
0.0951279,0.621093,1.802,1.9084
0.100977,0.621093,1.802,1.90871
0.106826,0.621093,1.802,1.90902
0.112674,0.621093,1.802,1.90936
0.118523,0.621093,1.802,1.90971
0.124372,0.621093,1.802,1.91009
0.130221,0.621093,1.802,1.91048
0.13607,0.621093,1.802,1.91088
0.141919,0.621093,1.802,1.91131
0.147767,0.621093,1.802,1.91175
0.153616,0.621093,1.802,1.91221
0.160262,0.624195,1.811,1.92224
0.16614,0.624195,1.811,1.92274
0.172018,0.624195,1.811,1.92326
0.178878,0.627641,1.821,1.93442
0.185803,0.631088,1.831,1.9456
0.191746,0.631088,1.831,1.94618
0.198769,0.634535,1.841,1.9574
0.205745,0.637637,1.85,1.96759
0.214154,0.644875,1.871,1.99057
0.220226,0.644875,1.871,1.99123
0.228718,0.651768,1.891,2.01321
0.236222,0.65556,1.902,2.02563
0.242396,0.65556,1.902,2.02636
0.252751,0.666589,1.934,2.06121
0.260502,0.67038,1.945,2.07372
0.266815,0.67038,1.945,2.07452
0.274672,0.674172,1.956,2.08708
0.284325,0.682099,1.979,2.11247
0.294128,0.690026,2.002,2.13791
0.300626,0.690026,2.002,2.13881
0.308965,0.694162,2.014,2.15256
0.317381,0.698298,2.026,2.16634
0.323957,0.698298,2.026,2.16731
0.334449,0.70657,2.05,2.19399
0.343099,0.710707,2.062,2.20786
0.351997,0.715187,2.075,2.22284
0.358732,0.715187,2.075,2.22392
0.367581,0.719323,2.087,2.23788
0.376686,0.723804,2.1,2.25295
0.383503,0.723804,2.1,2.2541
0.390319,0.723804,2.1,2.25527
0.397135,0.723804,2.1,2.25646
0.403951,0.723804,2.1,2.25767
0.41331,0.728285,2.113,2.27288
0.420168,0.728285,2.113,2.27414
0.427026,0.728285,2.113,2.27542
0.433884,0.728285,2.113,2.27671
0.440743,0.728285,2.113,2.27803
0.447601,0.728285,2.113,2.27937
0.451663,0.723804,2.1,2.26669
0.458479,0.723804,2.1,2.26806
0.465295,0.723804,2.1,2.26945
0.472112,0.723804,2.1,2.27085
0.475963,0.719323,2.087,2.25822
0.482737,0.719323,2.087,2.25965
0.489511,0.719323,2.087,2.26111
0.493431,0.715187,2.075,2.24958
0.500166,0.715187,2.075,2.25106
0.506901,0.715187,2.075,2.25257
0.513636,0.715187,2.075,2.25409
0.51711,0.710707,2.062,2.24151
0.523803,0.710707,2.062,2.24306
0.530496,0.710707,2.062,2.24463
0.530936,0.702434,2.038,2.22008
0.537551,0.702434,2.038,2.22167
0.540962,0.698298,2.026,2.21019
0.541052,0.690026,2.002,2.18561
0.54755,0.690026,2.002,2.18722
0.547682,0.682099,1.979,2.16371
0.547666,0.674172,1.956,2.14018
0.554015,0.674172,1.956,2.14182
0.557212,0.67038,1.945,2.13141
0.560338,0.666589,1.934,2.12101
0.566615,0.666589,1.934,2.12268
0.566376,0.659006,1.912,2.10019
0.569587,0.65556,1.902,2.09088
0.57576,0.65556,1.902,2.09257
0.578568,0.651768,1.891,2.08217
0.584706,0.651768,1.891,2.08388
0.590843,0.651768,1.891,2.08561
0.596981,0.651768,1.891,2.08736
0.603119,0.651768,1.891,2.08912
0.609257,0.651768,1.891,2.0909
0.615394,0.651768,1.891,2.0927
0.618245,0.648322,1.881,2.08344
0.624351,0.648322,1.881,2.08526
0.630456,0.648322,1.881,2.08709
0.636561,0.648322,1.881,2.08895
0.63925,0.644875,1.871,2.0797
0.645323,0.644875,1.871,2.08157
0.651395,0.644875,1.871,2.08346
0.653954,0.641428,1.861,2.07422
0.659994,0.641428,1.861,2.07614
0.666035,0.641428,1.861,2.07806
0.668103,0.637637,1.85,2.06771
0.674107,0.637637,1.85,2.06966
0.680112,0.637637,1.85,2.07163
0.682779,0.634535,1.841,2.06352
0.688754,0.634535,1.841,2.0655
0.69473,0.634535,1.841,2.0675
0.696899,0.631088,1.831,2.05828
0.699003,0.627641,1.821,2.04904
0.704914,0.627641,1.821,2.05107
0.710824,0.627641,1.821,2.05311
0.712799,0.624195,1.811,2.04387
0.718677,0.624195,1.811,2.04593
0.724555,0.624195,1.811,2.048
0.730433,0.624195,1.811,2.05009
0.736311,0.624195,1.811,2.05219
0.742189,0.624195,1.811,2.05431
0.748067,0.624195,1.811,2.05644
0.753945,0.624195,1.811,2.05859
0.759823,0.624195,1.811,2.06075
0.761896,0.621093,1.802,2.05267
0.767745,0.621093,1.802,2.05485
0.773594,0.621093,1.802,2.05704
0.779443,0.621093,1.802,2.05925
0.785291,0.621093,1.802,2.06147
0.79114,0.621093,1.802,2.0637
0.796989,0.621093,1.802,2.06595
0.798383,0.617646,1.792,2.05674
0.804199,0.617646,1.792,2.059
0.810016,0.617646,1.792,2.06128
0.815832,0.617646,1.792,2.06357
0.821648,0.617646,1.792,2.06588
0.827465,0.617646,1.792,2.0682
0.833281,0.617646,1.792,2.07053
0.839097,0.617646,1.792,2.07288
0.844914,0.617646,1.792,2.07524
0.85073,0.617646,1.792,2.07762
0.856547,0.617646,1.792,2.08001
0.862363,0.617646,1.792,2.08241
0.868179,0.617646,1.792,2.08482
0.878873,0.621093,1.802,2.0989
0.884722,0.621093,1.802,2.10136
0.890571,0.621093,1.802,2.10382
0.89642,0.621093,1.802,2.10631
0.902268,0.621093,1.802,2.1088
0.908117,0.621093,1.802,2.11131
0.913966,0.621093,1.802,2.11383
0.919815,0.621093,1.802,2.11637
0.925664,0.621093,1.802,2.11892
0.931513,0.621093,1.802,2.12148
0.937362,0.621093,1.802,2.12405
0.947921,0.624195,1.811,2.13726
0.953799,0.624195,1.811,2.13988
0.959677,0.624195,1.811,2.1425
0.970887,0.627641,1.821,2.15699
0.976797,0.627641,1.821,2.15965
0.982708,0.627641,1.821,2.16233
0.994047,0.631088,1.831,2.17692
0.99999,0.631088,1.831,2.17964
1.00593,0.631088,1.831,2.18237
1.0174,0.634535,1.841,2.19705
1.02838,0.637637,1.85,2.21058
1.03439,0.637637,1.85,2.21338
1.04658,0.641428,1.861,2.22937
1.05827,0.644875,1.871,2.2442
1.06435,0.644875,1.871,2.24707
1.07614,0.648322,1.881,2.26198
1.09433,0.65556,1.902,2.29018
1.1005,0.65556,1.902,2.29313
1.10667,0.65556,1.902,2.2961
1.11285,0.65556,1.902,2.29909
1.1249,0.659006,1.912,2.31418
1.13111,0.659006,1.912,2.31721
1.13732,0.659006,1.912,2.32024
1.14352,0.659006,1.912,2.32329
1.14973,0.659006,1.912,2.32635
1.15593,0.659006,1.912,2.32942
1.16214,0.659006,1.912,2.33251
1.16835,0.659006,1.912,2.33561
1.16841,0.65556,1.902,2.32649
1.17458,0.65556,1.902,2.32959
1.18076,0.65556,1.902,2.33271
1.18693,0.65556,1.902,2.33584
1.1931,0.65556,1.902,2.33899
1.19928,0.65556,1.902,2.34214
1.20545,0.65556,1.902,2.34531
1.21162,0.65556,1.902,2.34849
1.2178,0.65556,1.902,2.35168
1.21689,0.651768,1.891,2.34126
1.22303,0.651768,1.891,2.34446
1.22917,0.651768,1.891,2.34767
1.2353,0.651768,1.891,2.35088
1.23488,0.648322,1.881,2.34167
1.23438,0.644875,1.871,2.33243
1.24046,0.644875,1.871,2.33565
1.24653,0.644875,1.871,2.33888
1.24591,0.641428,1.861,2.3296
1.25195,0.641428,1.861,2.33284
1.25799,0.641428,1.861,2.33608
1.26403,0.641428,1.861,2.33934
-1.54217,0.773411,2.223,2.81393
-1.52529,0.768541,2.209,2.79228
-1.50781,0.763322,2.194,2.76944
-1.50069,0.763322,2.194,2.76557
-1.49356,0.763322,2.194,2.76171
-1.47696,0.758451,2.18,2.74027
-1.45168,0.749057,2.153,2.70257
-1.44469,0.749057,2.153,2.69882
-1.4377,0.749057,2.153,2.69509
-1.42207,0.744535,2.14,2.67511
-1.41513,0.744535,2.14,2.67143
-1.39897,0.739664,2.126,2.6503
-1.38356,0.735141,2.113,2.63048
-1.3767,0.735141,2.113,2.62688
-1.36141,0.730618,2.1,2.60715
-1.34621,0.726095,2.087,2.58748
-1.33944,0.726095,2.087,2.58397
-1.33266,0.726095,2.087,2.58046
-1.32589,0.726095,2.087,2.57697
-1.31912,0.726095,2.087,2.57349
-1.32052,0.730618,2.1,2.58603
-1.30557,0.726095,2.087,2.56657
-1.29879,0.726095,2.087,2.56313
-1.29202,0.726095,2.087,2.55971
-1.28525,0.726095,2.087,2.55629
-1.27847,0.726095,2.087,2.5529
-1.2717,0.726095,2.087,2.54951
-1.26493,0.726095,2.087,2.54614
-1.25815,0.726095,2.087,2.54278
-1.25138,0.726095,2.087,2.53943
-1.23745,0.72192,2.075,2.52152
-1.23071,0.72192,2.075,2.51822
-1.23106,0.726095,2.087,2.52948
-1.22428,0.726095,2.087,2.52619
-1.21051,0.72192,2.075,2.50841
-1.20377,0.72192,2.075,2.50517
-1.19704,0.72192,2.075,2.50194
-1.18285,0.717397,2.062,2.48307
-1.16246,0.709047,2.038,2.45102
-1.15585,0.709047,2.038,2.44789
-1.14923,0.709047,2.038,2.44478
-1.13589,0.704872,2.026,2.4273
-1.12932,0.704872,2.026,2.42423
-1.12274,0.704872,2.026,2.42117
-1.11616,0.704872,2.026,2.41813
-1.10302,0.700697,2.014,2.40079
-1.09648,0.700697,2.014,2.3978
-1.08994,0.700697,2.014,2.39482
-1.0834,0.700697,2.014,2.39185
-1.07687,0.700697,2.014,2.38889
-1.07033,0.700697,2.014,2.38595
-1.07013,0.704872,2.026,2.39723
-1.06356,0.704872,2.026,2.3943
-1.05698,0.704872,2.026,2.39139
-1.04418,0.700697,2.014,2.37434
-1.03765,0.700697,2.014,2.37147
-1.03111,0.700697,2.014,2.36862
-1.01847,0.696523,2.002,2.35169
-1.01197,0.696523,2.002,2.34888
-1.00547,0.696523,2.002,2.34609
-0.992985,0.692348,1.99,2.32926
-0.986526,0.692348,1.99,2.32652
-0.980067,0.692348,1.99,2.32379
-0.973608,0.692348,1.99,2.32107
-0.967149,0.692348,1.99,2.31837
-0.96069,0.692348,1.99,2.31568
-0.954231,0.692348,1.99,2.31301
-0.942533,0.688521,1.979,2.29758
-0.93611,0.688521,1.979,2.29495
-0.929686,0.688521,1.979,2.29234
-0.917665,0.684346,1.967,2.27586
-0.91128,0.684346,1.967,2.27329
-0.904896,0.684346,1.967,2.27074
-0.893487,0.680519,1.956,2.25552
-0.882149,0.676691,1.945,2.24034
-0.875836,0.676691,1.945,2.23786
-0.864605,0.672864,1.934,2.22276
-0.858328,0.672864,1.934,2.22032
-0.852051,0.672864,1.934,2.2179
-0.845774,0.672864,1.934,2.2155
-0.834722,0.669037,1.923,2.20052
-0.82848,0.669037,1.923,2.19816
-0.822238,0.669037,1.923,2.19582
-0.815997,0.669037,1.923,2.19349
-0.809755,0.669037,1.923,2.19117
-0.817303,0.680519,1.956,2.22644
-0.810954,0.680519,1.956,2.22412
-0.804605,0.680519,1.956,2.22181
-0.802746,0.684346,1.967,2.232
-0.796361,0.684346,1.967,2.22971
-0.789977,0.684346,1.967,2.22744
-0.783592,0.684346,1.967,2.22518
-0.777208,0.684346,1.967,2.22294
-0.770824,0.684346,1.967,2.22072
-0.764439,0.684346,1.967,2.21851
-0.758055,0.684346,1.967,2.21632
-0.75167,0.684346,1.967,2.21414
-0.745286,0.684346,1.967,2.21198
-0.738902,0.684346,1.967,2.20984
-0.732517,0.684346,1.967,2.20771
-0.726133,0.684346,1.967,2.2056
-0.715724,0.680519,1.956,2.19119
-0.709375,0.680519,1.956,2.18912
-0.703026,0.680519,1.956,2.18707
-0.69276,0.676691,1.945,2.17275
-0.686446,0.676691,1.945,2.17075
-0.680134,0.676691,1.945,2.16876
-0.67001,0.672864,1.934,2.15453
-0.663732,0.672864,1.934,2.15259
-0.653716,0.669037,1.923,2.13843
-0.64377,0.66521,1.912,2.12431
-0.637565,0.66521,1.912,2.12244
-0.631359,0.66521,1.912,2.12058
-0.621883,0.661731,1.902,2.10766
-0.61571,0.661731,1.902,2.10585
-0.609536,0.661731,1.902,2.10405
-0.599873,0.657904,1.891,2.09011
-0.593736,0.657904,1.891,2.08836
-0.587598,0.657904,1.891,2.08662
-0.58146,0.657904,1.891,2.0849
-0.57228,0.654425,1.881,2.07218
-0.566175,0.654425,1.881,2.0705
-0.56007,0.654425,1.881,2.06884
-0.553964,0.654425,1.881,2.0672
-0.547859,0.654425,1.881,2.06557
-0.538874,0.650946,1.871,2.05299
-0.532801,0.650946,1.871,2.0514
-0.526728,0.650946,1.871,2.04983
-0.520655,0.650946,1.871,2.04828
-0.514583,0.650946,1.871,2.04675
-0.50851,0.650946,1.871,2.04523
-0.502437,0.650946,1.871,2.04373
-0.496364,0.650946,1.871,2.04224
-0.490291,0.650946,1.871,2.04077
-0.484219,0.650946,1.871,2.03932
-0.478146,0.650946,1.871,2.03789
-0.472073,0.650946,1.871,2.03647
-0.466,0.650946,1.871,2.03507
-0.459927,0.650946,1.871,2.03369
-0.453855,0.650946,1.871,2.03233
-0.447782,0.650946,1.871,2.03098
-0.441709,0.650946,1.871,2.02965
-0.435636,0.650946,1.871,2.02834
-0.427267,0.647467,1.861,2.01621
-0.421227,0.647467,1.861,2.01494
-0.415187,0.647467,1.861,2.01368
-0.409146,0.647467,1.861,2.01245
-0.403106,0.647467,1.861,2.01123
-0.397066,0.647467,1.861,2.01002
-0.391025,0.647467,1.861,2.00884
-0.384985,0.647467,1.861,2.00767
-0.378945,0.647467,1.861,2.00652
-0.372904,0.647467,1.861,2.00539
-0.364696,0.64364,1.85,1.99243
-0.358691,0.64364,1.85,1.99134
-0.352686,0.64364,1.85,1.99027
-0.346682,0.64364,1.85,1.98921
-0.340677,0.64364,1.85,1.98817
-0.333044,0.640508,1.841,1.97749
-0.327069,0.640508,1.841,1.97649
-0.321093,0.640508,1.841,1.97551
-0.315118,0.640508,1.841,1.97455
-0.309142,0.640508,1.841,1.9736
-0.303167,0.640508,1.841,1.97267
-0.297192,0.640508,1.841,1.97176
-0.291216,0.640508,1.841,1.97087
-0.285241,0.640508,1.841,1.97
-0.279265,0.640508,1.841,1.96914
-0.271805,0.637029,1.831,1.95761
-0.265862,0.637029,1.831,1.9568
-0.261339,0.640508,1.841,1.96668
-0.255364,0.640508,1.841,1.96589
-0.249388,0.640508,1.841,1.96513
-0.243413,0.640508,1.841,1.96438
-0.237437,0.640508,1.841,1.96365
-0.231462,0.640508,1.841,1.96293
-0.226589,0.64364,1.85,1.97183
-0.220584,0.64364,1.85,1.97115
-0.21458,0.64364,1.85,1.97049
-0.208575,0.64364,1.85,1.96984
-0.20257,0.64364,1.85,1.96921
-0.196566,0.64364,1.85,1.96861
-0.191694,0.647467,1.861,1.97972
-0.185654,0.647467,1.861,1.97914
-0.179613,0.647467,1.861,1.97858
-0.173573,0.647467,1.861,1.97804
-0.167533,0.647467,1.861,1.97752
-0.161492,0.647467,1.861,1.97702
-0.155452,0.647467,1.861,1.97654
-0.149412,0.647467,1.861,1.97607
-0.143371,0.647467,1.861,1.97562
-0.137331,0.647467,1.861,1.97519
-0.131291,0.647467,1.861,1.97478
-0.12525,0.647467,1.861,1.97439
-0.11921,0.647467,1.861,1.97402
-0.113778,0.650946,1.871,1.98427
-0.107705,0.650946,1.871,1.98393
-0.101632,0.650946,1.871,1.98361
-0.0955592,0.650946,1.871,1.98331
-0.0899647,0.654425,1.881,1.99362
-0.0838595,0.654425,1.881,1.99336
-0.0777542,0.654425,1.881,1.99311
-0.071268,0.650946,1.871,1.98228
-0.0651952,0.650946,1.871,1.98208
-0.0591224,0.650946,1.871,1.98188
-0.0527661,0.647467,1.861,1.97112
-0.0467257,0.647467,1.861,1.97097
-0.0406854,0.647467,1.861,1.97083
-0.0342727,0.640508,1.841,1.94954
-0.0282973,0.640508,1.841,1.94944
-0.0223219,0.640508,1.841,1.94937
-0.0162577,0.637029,1.831,1.93872
-0.0102584,0.63355,1.821,1.92809
-0.00434784,0.63355,1.821,1.92807
0.00155409,0.630071,1.811,1.91748
0.00739521,0.62694,1.802,1.90796
0.0132441,0.62694,1.802,1.90799
0.0190929,0.62694,1.802,1.90804
0.0248033,0.623461,1.792,1.89752
0.0306197,0.623461,1.792,1.89761
0.0364361,0.623461,1.792,1.89771
0.0422525,0.623461,1.792,1.89783
0.0480689,0.623461,1.792,1.89797
0.0536146,0.620329,1.783,1.88859
0.0594018,0.620329,1.783,1.88876
0.0648599,0.617198,1.774,1.87942
0.0706179,0.617198,1.774,1.87963
0.0763759,0.617198,1.774,1.87985
0.0821338,0.617198,1.774,1.88009
0.0878918,0.617198,1.774,1.88036
0.0936498,0.617198,1.774,1.88063
0.0994077,0.617198,1.774,1.88093
0.105166,0.617198,1.774,1.88124
0.110924,0.617198,1.774,1.88157
0.116682,0.617198,1.774,1.88192
0.12244,0.617198,1.774,1.88229
