0.263128,-0.343112,2.593,2.6288
0.271545,-0.343112,2.593,2.62966
0.279961,-0.343112,2.593,2.63054
0.288377,-0.343112,2.593,2.63145
0.294619,-0.340598,2.574,2.6131
0.302973,-0.340598,2.574,2.61405
0.311328,-0.340598,2.574,2.61504
0.319682,-0.340598,2.574,2.61604
0.325615,-0.338084,2.555,2.59776
0.333908,-0.338084,2.555,2.59881
0.342201,-0.338084,2.555,2.59989
0.350494,-0.338084,2.555,2.60099
0.356119,-0.33557,2.536,2.58277
0.36435,-0.33557,2.536,2.58392
0.36979,-0.333056,2.517,2.56573
0.37796,-0.333056,2.517,2.56692
0.386129,-0.333056,2.517,2.56813
0.394299,-0.333056,2.517,2.56937
0.402468,-0.333056,2.517,2.57064
0.410638,-0.333056,2.517,2.57193
0.418807,-0.333056,2.517,2.57325
0.426977,-0.333056,2.517,2.57459
0.438431,-0.33557,2.536,2.5954
0.446662,-0.33557,2.536,2.59681
0.454894,-0.33557,2.536,2.59824
0.466595,-0.338084,2.555,2.61917
0.474888,-0.338084,2.555,2.62066
0.48318,-0.338084,2.555,2.62217
0.495128,-0.340598,2.574,2.64322
0.507199,-0.343112,2.593,2.66432
0.515615,-0.343112,2.593,2.66594
0.524032,-0.343112,2.593,2.66758
0.532448,-0.343112,2.593,2.66925
0.540864,-0.343112,2.593,2.67094
0.54928,-0.343112,2.593,2.67266
0.557697,-0.343112,2.593,2.6744
0.566113,-0.343112,2.593,2.67617
0.574529,-0.343112,2.593,2.67796
0.578674,-0.340598,2.574,2.66014
0.587028,-0.340598,2.574,2.66197
0.595383,-0.340598,2.574,2.66383
0.599281,-0.338084,2.555,2.64603
0.607574,-0.338084,2.555,2.64792
0.615867,-0.338084,2.555,2.64983
0.62416,-0.338084,2.555,2.65177
0.632453,-0.338084,2.555,2.65374
0.640746,-0.338084,2.555,2.65573
0.644212,-0.33557,2.536,2.63797
0.652443,-0.33557,2.536,2.64
0.655725,-0.333056,2.517,2.62225
0.663894,-0.333056,2.517,2.6243
0.672064,-0.333056,2.517,2.62638
0.680233,-0.333056,2.517,2.62848
0.68348,-0.330674,2.499,2.6118
0.691591,-0.330674,2.499,2.61393
0.699702,-0.330674,2.499,2.61609
0.707813,-0.330674,2.499,2.61827
0.710768,-0.328292,2.481,2.6016
0.71882,-0.328292,2.481,2.60381
0.726873,-0.328292,2.481,2.60605
0.740258,-0.330674,2.499,2.62723
0.748369,-0.330674,2.499,2.62952
0.751031,-0.328292,2.481,2.61289
0.759084,-0.328292,2.481,2.61521
0.772702,-0.330674,2.499,2.63655
0.780813,-0.330674,2.499,2.63894
0.788924,-0.330674,2.499,2.64135
0.797036,-0.330674,2.499,2.64379
0.805147,-0.330674,2.499,2.64624
0.813258,-0.330674,2.499,2.64872
0.821369,-0.330674,2.499,2.65122
0.82948,-0.330674,2.499,2.65375
0.831558,-0.328292,2.481,2.63716
0.839611,-0.328292,2.481,2.63971
0.841514,-0.32591,2.463,2.62311
0.849508,-0.32591,2.463,2.62569
0.857502,-0.32591,2.463,2.62829
0.859171,-0.323528,2.445,2.61168
0.867107,-0.323528,2.445,2.6143
0.875043,-0.323528,2.445,2.61694
0.87684,-0.321279,2.428,2.60139
0.88472,-0.321279,2.428,2.60406
0.892601,-0.321279,2.428,2.60675
0.894177,-0.319029,2.411,2.59119
0.902002,-0.319029,2.411,2.5939
0.909828,-0.319029,2.411,2.59663
0.917653,-0.319029,2.411,2.59938
0.925479,-0.319029,2.411,2.60216
0.933304,-0.319029,2.411,2.60495
0.94113,-0.319029,2.411,2.60776
0.942264,-0.31678,2.394,2.59219
0.950035,-0.31678,2.394,2.59502
0.957805,-0.31678,2.394,2.59788
0.965575,-0.31678,2.394,2.60075
0.973346,-0.31678,2.394,2.60365
0.981116,-0.31678,2.394,2.60656
0.988886,-0.31678,2.394,2.6095
1.01081,-0.321279,2.428,2.64956
1.01869,-0.321279,2.428,2.65257
nan,nan,nan,NaN
nan,nan,nan,NaN
nan,nan,nan,NaN
nan,nan,nan,NaN
1.28601,-0.390484,2.951,3.24264
1.29559,-0.390484,2.951,3.24645
nan,nan,nan,NaN
1.3994,-0.415625,3.141,3.46366
1.40959,-0.415625,3.141,3.46779
1.4329,-0.419462,3.17,3.504
1.44318,-0.419462,3.17,3.50822
1.49474,-0.431371,3.26,3.61219
1.5201,-0.435606,3.292,3.65208
1.53078,-0.435606,3.292,3.65654
1.55645,-0.43984,3.324,3.69662
1.58233,-0.444074,3.356,3.7368
1.60889,-0.448441,3.389,3.77822
1.61989,-0.448441,3.389,3.78292
1.61501,-0.444074,3.356,3.75076
1.6259,-0.444074,3.356,3.75546
1.62118,-0.43984,3.324,3.72434
1.61626,-0.435606,3.292,3.69315
1.62695,-0.435606,3.292,3.69783
1.63763,-0.435606,3.292,3.70255
1.63229,-0.431371,3.26,3.67125
1.64288,-0.431371,3.26,3.67597
1.60781,-0.419462,3.17,3.57909
1.6181,-0.419462,3.17,3.58373
1.64328,-0.4233,3.199,3.62121
1.66969,-0.427402,3.23,3.66107
1.68018,-0.427402,3.23,3.66586
1.73986,-0.43984,3.324,3.77751
1.75065,-0.43984,3.324,3.78249
1.76144,-0.43984,3.324,3.78749
1.78929,-0.444074,3.356,3.82903
1.83612,-0.45294,3.423,3.91068
1.84723,-0.45294,3.423,3.91591
1.87734,-0.457571,3.458,3.96126
1.90768,-0.462202,3.493,4.00674
1.9388,-0.466966,3.529,4.0535
1.95025,-0.466966,3.529,4.05899
1.96171,-0.466966,3.529,4.0645
1.99385,-0.471862,3.566,4.11272
2.00542,-0.471862,3.566,4.11834
2.03849,-0.47689,3.604,4.16794
2.07181,-0.481918,3.642,4.21768
2.08363,-0.481918,3.642,4.2235
2.09545,-0.481918,3.642,4.22934
2.10727,-0.481918,3.642,4.23521
2.11909,-0.481918,3.642,4.2411
2.10868,-0.47689,3.604,4.20271
2.12037,-0.47689,3.604,4.20859
2.13207,-0.47689,3.604,4.2145
2.12117,-0.471862,3.566,4.17593
2.11061,-0.466966,3.529,4.13843
2.12207,-0.466966,3.529,4.14428
2.0906,-0.457571,3.458,4.06666
2.08055,-0.45294,3.423,4.03122
2.09166,-0.45294,3.423,4.03697
2.06161,-0.444074,3.356,3.96361
2.03298,-0.435606,3.292,3.89359
2.04366,-0.435606,3.292,3.89918
1.99631,-0.4233,3.199,3.79448
1.95212,-0.411787,3.112,3.69661
1.96222,-0.411787,3.112,3.70195
1.92035,-0.400937,3.03,3.60963
1.89642,-0.393924,2.977,3.55164
1.90609,-0.393924,2.977,3.55681
1.88293,-0.387176,2.926,3.50097
1.86074,-0.380692,2.877,3.44738
1.87007,-0.380692,2.877,3.45242
1.86373,-0.377516,2.853,3.42865
1.85724,-0.37434,2.829,3.40481
1.85125,-0.371297,2.806,3.3821
1.86035,-0.371297,2.806,3.3871
1.83948,-0.365342,2.761,3.33771
1.83371,-0.362431,2.739,3.31602
1.8426,-0.362431,2.739,3.32094
1.83662,-0.35952,2.717,3.29917
1.83118,-0.356741,2.696,3.27855
-2.17901,-0.405433,3.141,3.84426
-2.18884,-0.409176,3.17,3.87393
-2.17855,-0.409176,3.17,3.86813
-2.20931,-0.416921,3.23,3.93545
-2.21924,-0.420793,3.26,3.96607
-2.23034,-0.424924,3.292,3.99903
-2.21966,-0.424924,3.292,3.99308
-2.20897,-0.424924,3.292,3.98715
-2.21966,-0.429054,3.324,4.01994
-2.20887,-0.429054,3.324,4.014
-2.19808,-0.429054,3.324,4.00807
-2.18729,-0.429054,3.324,4.00216
-2.1765,-0.429054,3.324,3.99628
-2.16571,-0.429054,3.324,3.99041
-2.17567,-0.433184,3.356,4.02292
-2.16478,-0.433184,3.356,4.01704
-2.15388,-0.433184,3.356,4.01118
-2.14299,-0.433184,3.356,4.00535
-2.15306,-0.437444,3.389,4.03886
-2.14206,-0.437444,3.389,4.033
-2.13106,-0.437444,3.389,4.02717
-2.14133,-0.441833,3.423,4.06171
-2.13022,-0.441833,3.423,4.05586
-2.11911,-0.441833,3.423,4.05003
-2.108,-0.441833,3.423,4.04423
-2.09689,-0.441833,3.423,4.03845
-2.08578,-0.441833,3.423,4.0327
-2.09589,-0.44635,3.458,4.06814
-2.08466,-0.44635,3.458,4.06236
-2.07344,-0.44635,3.458,4.05662
-2.06221,-0.44635,3.458,4.05089
nan,nan,nan,NaN
nan,nan,nan,NaN
nan,nan,nan,NaN
nan,nan,nan,NaN
nan,nan,nan,NaN
nan,nan,nan,NaN
nan,nan,nan,NaN
nan,nan,nan,NaN
nan,nan,nan,NaN
nan,nan,nan,NaN
nan,nan,nan,NaN
nan,nan,nan,NaN
nan,nan,nan,NaN
nan,nan,nan,NaN
nan,nan,nan,NaN
nan,nan,nan,NaN
nan,nan,nan,NaN
nan,nan,nan,NaN
nan,nan,nan,NaN
nan,nan,nan,NaN
nan,nan,nan,NaN
nan,nan,nan,NaN
nan,nan,nan,NaN
nan,nan,nan,NaN
nan,nan,nan,NaN
nan,nan,nan,NaN
nan,nan,nan,NaN
nan,nan,nan,NaN
nan,nan,nan,NaN
nan,nan,nan,NaN
nan,nan,nan,NaN
-1.20415,-0.315595,2.445,2.74365
-1.19622,-0.315595,2.445,2.74018
-1.18002,-0.3134,2.428,2.71769
-1.17214,-0.3134,2.428,2.71428
-1.16426,-0.3134,2.428,2.71089
-1.15638,-0.3134,2.428,2.70751
-1.1485,-0.3134,2.428,2.70415
-1.13263,-0.311206,2.411,2.68191
-1.1248,-0.311206,2.411,2.67861
-1.11698,-0.311206,2.411,2.67533
-1.10915,-0.311206,2.411,2.67208
-1.10133,-0.311206,2.411,2.66884
-1.08579,-0.309012,2.394,2.64682
-1.07802,-0.309012,2.394,2.64364
-1.07025,-0.309012,2.394,2.64049
-1.05494,-0.306818,2.377,2.61862
-1.04722,-0.306818,2.377,2.61552
-1.03951,-0.306818,2.377,2.61244
-1.03179,-0.306818,2.377,2.60938
-1.02408,-0.306818,2.377,2.60634
-1.00952,-0.304752,2.361,2.58579
-1.00186,-0.304752,2.361,2.58281
-0.994193,-0.304752,2.361,2.57985
-0.986529,-0.304752,2.361,2.5769
-0.978866,-0.304752,2.361,2.57398
-0.971203,-0.304752,2.361,2.57108
-0.96354,-0.304752,2.361,2.56819
-0.949399,-0.302687,2.345,2.54794
-0.941787,-0.302687,2.345,2.54511
-0.934176,-0.302687,2.345,2.54231
-0.926565,-0.302687,2.345,2.53952
-0.918953,-0.302687,2.345,2.53675
-0.911342,-0.302687,2.345,2.53401
-0.903731,-0.302687,2.345,2.53128
-0.89612,-0.302687,2.345,2.52857
-0.888508,-0.302687,2.345,2.52588
-0.880897,-0.302687,2.345,2.52322
-0.873286,-0.302687,2.345,2.52057
-0.871581,-0.304752,2.361,2.53512
-0.863918,-0.304752,2.361,2.5325
-0.856255,-0.304752,2.361,2.52989
-0.848591,-0.304752,2.361,2.52731
-0.840928,-0.304752,2.361,2.52475
-0.833265,-0.304752,2.361,2.52221
-0.825602,-0.304752,2.361,2.51969
-0.817938,-0.304752,2.361,2.51718
-0.815766,-0.306818,2.377,2.53175
-0.808051,-0.306818,2.377,2.52927
-0.800336,-0.306818,2.377,2.52682
-0.792621,-0.306818,2.377,2.52438
-0.784906,-0.306818,2.377,2.52197
-0.782749,-0.309012,2.394,2.5376
-0.774979,-0.309012,2.394,2.53522
-0.767208,-0.309012,2.394,2.53285
-0.759438,-0.309012,2.394,2.53051
-0.751668,-0.309012,2.394,2.52819
-0.74918,-0.311206,2.411,2.54382
-0.741354,-0.311206,2.411,2.54153
-0.728357,-0.309012,2.394,2.52135
-0.720586,-0.309012,2.394,2.51912
-0.712816,-0.309012,2.394,2.51691
-0.705046,-0.309012,2.394,2.51472
-0.697275,-0.309012,2.394,2.51255
-0.689505,-0.309012,2.394,2.51041
-0.681735,-0.309012,2.394,2.50828
-0.673964,-0.309012,2.394,2.50618
-0.670925,-0.311206,2.411,2.52189
-0.663099,-0.311206,2.411,2.51982
-0.655274,-0.311206,2.411,2.51777
-0.647448,-0.311206,2.411,2.51574
-0.639623,-0.311206,2.411,2.51374
-0.631797,-0.311206,2.411,2.51176
-0.623972,-0.311206,2.411,2.5098
-0.620491,-0.3134,2.428,2.52555
-0.61261,-0.3134,2.428,2.52363
-0.604729,-0.3134,2.428,2.52173
-0.596848,-0.3134,2.428,2.51985
-0.588968,-0.3134,2.428,2.51799
-0.581087,-0.3134,2.428,2.51616
-0.57722,-0.315595,2.445,2.53196
-0.569284,-0.315595,2.445,2.53016
-0.561348,-0.315595,2.445,2.52839
-0.553412,-0.315595,2.445,2.52664
-0.549492,-0.317918,2.463,2.5435
-0.541498,-0.317918,2.463,2.54178
-0.533504,-0.317918,2.463,2.54009
-0.525509,-0.317918,2.463,2.53842
-0.517515,-0.317918,2.463,2.53678
-0.509521,-0.317918,2.463,2.53516
-0.501526,-0.317918,2.463,2.53357
-0.493532,-0.317918,2.463,2.532
-0.485538,-0.317918,2.463,2.53045
-0.477544,-0.317918,2.463,2.52893
-0.469549,-0.317918,2.463,2.52743
-0.464928,-0.320242,2.481,2.54442
-0.456875,-0.320242,2.481,2.54296
-0.448823,-0.320242,2.481,2.54153
-0.44077,-0.320242,2.481,2.54012
-0.432717,-0.320242,2.481,2.53873
-0.427746,-0.322565,2.499,2.55578
-0.419634,-0.322565,2.499,2.55444
-0.411523,-0.322565,2.499,2.55312
-0.403412,-0.322565,2.499,2.55182
-0.398148,-0.324888,2.517,2.56892
-0.389979,-0.324888,2.517,2.56767
-0.381809,-0.324888,2.517,2.56644
-0.37364,-0.324888,2.517,2.56524
-0.36547,-0.324888,2.517,2.56406
-0.357301,-0.324888,2.517,2.56291
-0.349131,-0.324888,2.517,2.56178
-0.340961,-0.324888,2.517,2.56068
-0.332792,-0.324888,2.517,2.55961
-0.327073,-0.327341,2.536,2.57787
-0.318842,-0.327341,2.536,2.57684
-0.31061,-0.327341,2.536,2.57584
-0.302379,-0.327341,2.536,2.57486
-0.294148,-0.327341,2.536,2.5739
-0.285917,-0.327341,2.536,2.57297
-0.277685,-0.327341,2.536,2.57207
-0.269454,-0.327341,2.536,2.5712
-0.261223,-0.327341,2.536,2.57035
-0.252992,-0.327341,2.536,2.56952
-0.244761,-0.327341,2.536,2.56873
-0.236529,-0.327341,2.536,2.56796
-0.228298,-0.327341,2.536,2.56721
-0.220067,-0.327341,2.536,2.56649
-0.211836,-0.327341,2.536,2.5658
-0.203604,-0.327341,2.536,2.56513
-0.195373,-0.327341,2.536,2.56449
-0.187142,-0.327341,2.536,2.56388
-0.178911,-0.327341,2.536,2.56329
-0.170679,-0.327341,2.536,2.56273
-0.162448,-0.327341,2.536,2.56219
-0.154217,-0.327341,2.536,2.56169
-0.145986,-0.327341,2.536,2.5612
-0.137755,-0.327341,2.536,2.56075
-0.129523,-0.327341,2.536,2.56032
-0.121292,-0.327341,2.536,2.55991
-0.113061,-0.327341,2.536,2.55954
-0.104044,-0.324888,2.517,2.54001
-0.0958747,-0.324888,2.517,2.53969
-0.0877052,-0.324888,2.517,2.5394
-0.0795356,-0.324888,2.517,2.53913
-0.0719048,-0.327341,2.536,2.55805
-0.0636736,-0.327341,2.536,2.55783
-0.0554423,-0.327341,2.536,2.55764
-0.0475648,-0.329793,2.555,2.57664
-0.0392719,-0.329793,2.555,2.5765
-0.030979,-0.329793,2.555,2.57638
-0.0226861,-0.329793,2.555,2.5763
-0.0145003,-0.332246,2.574,2.59539
-0.00614571,-0.332246,2.574,2.59536
0.00220886,-0.332246,2.574,2.59536
0.0105634,-0.332246,2.574,2.59538
0.018918,-0.332246,2.574,2.59542
0.0274739,-0.334698,2.593,2.61466
0.0358901,-0.334698,2.593,2.61476
0.0443063,-0.334698,2.593,2.61489
0.0527226,-0.334698,2.593,2.61504
0.0611388,-0.334698,2.593,2.61523
0.069555,-0.334698,2.593,2.61544
0.0779713,-0.334698,2.593,2.61567
0.0863875,-0.334698,2.593,2.61594
0.0948037,-0.334698,2.593,2.61623
0.10322,-0.334698,2.593,2.61655
0.112497,-0.33728,2.613,2.63708
0.120978,-0.33728,2.613,2.63745
0.12946,-0.33728,2.613,2.63786
0.137941,-0.33728,2.613,2.63829
0.146422,-0.33728,2.613,2.63874
0.153717,-0.334698,2.593,2.61903
0.162134,-0.334698,2.593,2.61953
0.17055,-0.334698,2.593,2.62007
0.178966,-0.334698,2.593,2.62063
0.187382,-0.334698,2.593,2.62122
0.195799,-0.334698,2.593,2.62183
0.204215,-0.334698,2.593,2.62248
0.212631,-0.334698,2.593,2.62314
0.219428,-0.332246,2.574,2.60461
0.227782,-0.332246,2.574,2.60533
0.236137,-0.332246,2.574,2.60607
0.246296,-0.334698,2.593,2.62609
0.254712,-0.334698,2.593,2.62689
0.263128,-0.334698,2.593,2.62772
0.271545,-0.334698,2.593,2.62858
0.279961,-0.334698,2.593,2.62946
0.288377,-0.334698,2.593,2.63037
0.294619,-0.332246,2.574,2.61202
0.302973,-0.332246,2.574,2.61298
0.311328,-0.332246,2.574,2.61396
0.319682,-0.332246,2.574,2.61497
0.325615,-0.329793,2.555,2.59669
0.333908,-0.329793,2.555,2.59775
0.342201,-0.329793,2.555,2.59882
0.350494,-0.329793,2.555,2.59993
0.356119,-0.327341,2.536,2.58172
0.36435,-0.327341,2.536,2.58287
0.36979,-0.324888,2.517,2.56468
0.37796,-0.324888,2.517,2.56587
0.386129,-0.324888,2.517,2.56709
0.394299,-0.324888,2.517,2.56833
0.402468,-0.324888,2.517,2.5696
0.410638,-0.324888,2.517,2.57089
0.418807,-0.324888,2.517,2.57221
0.426977,-0.324888,2.517,2.57355
0.438431,-0.327341,2.536,2.59435
0.446662,-0.327341,2.536,2.59576
0.454894,-0.327341,2.536,2.59719
0.466595,-0.329793,2.555,2.61811
0.474888,-0.329793,2.555,2.6196
0.48318,-0.329793,2.555,2.62112
0.498783,-0.334698,2.593,2.66166
0.507199,-0.334698,2.593,2.66325
0.515615,-0.334698,2.593,2.66487
0.524032,-0.334698,2.593,2.66651
0.532448,-0.334698,2.593,2.66818
0.540864,-0.334698,2.593,2.66987
0.54928,-0.334698,2.593,2.67159
0.557697,-0.334698,2.593,2.67333
0.566113,-0.334698,2.593,2.6751
0.574529,-0.334698,2.593,2.67689
0.578674,-0.332246,2.574,2.65908
0.587028,-0.332246,2.574,2.66091
0.595383,-0.332246,2.574,2.66277
0.599281,-0.329793,2.555,2.64498
0.607574,-0.329793,2.555,2.64687
0.615867,-0.329793,2.555,2.64879
0.62416,-0.329793,2.555,2.65073
0.632453,-0.329793,2.555,2.65269
0.640746,-0.329793,2.555,2.65468
0.644212,-0.327341,2.536,2.63694
0.652443,-0.327341,2.536,2.63896
0.655725,-0.324888,2.517,2.62122
0.663894,-0.324888,2.517,2.62328
0.672064,-0.324888,2.517,2.62536
0.680233,-0.324888,2.517,2.62746
0.68348,-0.322565,2.499,2.61078
0.691591,-0.322565,2.499,2.61292
0.699702,-0.322565,2.499,2.61508
0.707813,-0.322565,2.499,2.61726
0.715924,-0.322565,2.499,2.61947
0.724035,-0.322565,2.499,2.62169
0.732147,-0.322565,2.499,2.62394
0.740258,-0.322565,2.499,2.62622
0.748369,-0.322565,2.499,2.62852
0.75648,-0.322565,2.499,2.63084
0.764591,-0.322565,2.499,2.63318
0.772702,-0.322565,2.499,2.63555
0.780813,-0.322565,2.499,2.63794
0.788924,-0.322565,2.499,2.64035
0.797036,-0.322565,2.499,2.64279
0.805147,-0.322565,2.499,2.64524
0.813258,-0.322565,2.499,2.64772
0.815453,-0.320242,2.481,2.63114
0.823505,-0.320242,2.481,2.63364
0.831558,-0.320242,2.481,2.63617
0.839611,-0.320242,2.481,2.63872
0.841514,-0.317918,2.463,2.62213
0.849508,-0.317918,2.463,2.62471
0.857502,-0.317918,2.463,2.62731
0.859171,-0.315595,2.445,2.61071
0.867107,-0.315595,2.445,2.61333
0.875043,-0.315595,2.445,2.61598
0.87684,-0.3134,2.428,2.60043
0.88472,-0.3134,2.428,2.6031
0.886351,-0.311206,2.411,2.58754
0.894177,-0.311206,2.411,2.59024
0.902002,-0.311206,2.411,2.59295
0.909828,-0.311206,2.411,2.59568
0.917653,-0.311206,2.411,2.59843
0.925479,-0.311206,2.411,2.60121
0.933304,-0.311206,2.411,2.604
0.94113,-0.311206,2.411,2.60682
0.942264,-0.309012,2.394,2.59125
0.950035,-0.309012,2.394,2.59409
0.957805,-0.309012,2.394,2.59694
0.965575,-0.309012,2.394,2.59982
0.973346,-0.309012,2.394,2.60272
0.981116,-0.309012,2.394,2.60563
0.988886,-0.309012,2.394,2.60857
1.01081,-0.3134,2.428,2.64861
1.01869,-0.3134,2.428,2.65163
nan,nan,nan,NaN
nan,nan,nan,NaN
nan,nan,nan,NaN
nan,nan,nan,NaN
1.28601,-0.380908,2.951,3.2415
1.29559,-0.380908,2.951,3.24531
nan,nan,nan,NaN
1.3994,-0.405433,3.141,3.46245
1.40959,-0.405433,3.141,3.46658
1.4329,-0.409176,3.17,3.50279
1.44318,-0.409176,3.17,3.50701
1.49474,-0.420793,3.26,3.61094
1.5201,-0.424924,3.292,3.65082
1.53078,-0.424924,3.292,3.65529
1.55645,-0.429054,3.324,3.69535
1.58233,-0.433184,3.356,3.73552
1.60889,-0.437444,3.389,3.77693
1.61989,-0.437444,3.389,3.78163
1.61501,-0.433184,3.356,3.74948
1.6259,-0.433184,3.356,3.75419
1.62118,-0.429054,3.324,3.72308
1.61626,-0.424924,3.292,3.6919
1.62695,-0.424924,3.292,3.69659
1.63763,-0.424924,3.292,3.70131
1.63229,-0.420793,3.26,3.67002
1.64288,-0.420793,3.26,3.67474
1.65346,-0.420793,3.26,3.67948
1.66404,-0.420793,3.26,3.68425
1.67462,-0.420793,3.26,3.68904
1.70174,-0.424924,3.292,3.73011
1.71243,-0.424924,3.292,3.735
1.73986,-0.429054,3.324,3.77627
1.75065,-0.429054,3.324,3.78125
1.76144,-0.429054,3.324,3.78626
1.78929,-0.433184,3.356,3.82779
1.83612,-0.441833,3.423,3.90941
1.84723,-0.441833,3.423,3.91464
1.89635,-0.450868,3.493,4.00006
1.92734,-0.455515,3.529,4.04673
1.9388,-0.455515,3.529,4.05219
1.95025,-0.455515,3.529,4.05769
1.96171,-0.455515,3.529,4.0632
1.99385,-0.460291,3.566,4.11141
2.00542,-0.460291,3.566,4.11703
2.03849,-0.465196,3.604,4.16661
2.07181,-0.470101,3.642,4.21634
2.08363,-0.470101,3.642,4.22216
2.09545,-0.470101,3.642,4.22801
2.10727,-0.470101,3.642,4.23388
2.11909,-0.470101,3.642,4.23978
2.13091,-0.470101,3.642,4.2457
2.12037,-0.465196,3.604,4.20728
2.13207,-0.465196,3.604,4.21319
2.12117,-0.460291,3.566,4.17463
2.08908,-0.450868,3.493,4.09495
2.10042,-0.450868,3.493,4.10074
2.0906,-0.44635,3.458,4.06541
2.05988,-0.437444,3.389,3.98996
2.07088,-0.437444,3.389,3.99565
2.04195,-0.429054,3.324,3.92462
2.03298,-0.424924,3.292,3.89241
2.04366,-0.424924,3.292,3.898
1.99631,-0.412919,3.199,3.79333
1.95212,-0.40169,3.112,3.69549
1.96222,-0.40169,3.112,3.70084
1.93746,-0.39459,3.057,3.6407
1.89642,-0.384264,2.977,3.55058
1.90609,-0.384264,2.977,3.55575
1.88293,-0.377681,2.926,3.49994
1.87626,-0.374454,2.901,3.47511
1.88567,-0.374454,2.901,3.4802
1.86373,-0.368258,2.853,3.42764
1.85724,-0.365161,2.829,3.40381
1.85125,-0.362192,2.806,3.38111
1.86035,-0.362192,2.806,3.38611
1.83948,-0.356383,2.761,3.33674
1.83371,-0.353544,2.739,3.31506
1.8426,-0.353544,2.739,3.31999
1.83662,-0.350704,2.717,3.29822
1.83118,-0.347993,2.696,3.27761
-2.17901,-0.395241,3.141,3.8432
-2.18884,-0.39889,3.17,3.87286
-2.17855,-0.39889,3.17,3.86705
-2.20931,-0.40644,3.23,3.93435
-2.21924,-0.410215,3.26,3.96496
-2.23034,-0.414242,3.292,3.99791
-2.21966,-0.414242,3.292,3.99196
-2.20897,-0.414242,3.292,3.98603
-2.21966,-0.418268,3.324,4.01881
-2.20887,-0.418268,3.324,4.01286
-2.19808,-0.418268,3.324,4.00693
-2.18729,-0.418268,3.324,4.00102
-2.1765,-0.418268,3.324,3.99513
-2.16571,-0.418268,3.324,3.98926
-2.17567,-0.422295,3.356,4.02177
-2.16478,-0.422295,3.356,4.01588
-2.15388,-0.422295,3.356,4.01002
-2.14299,-0.422295,3.356,4.00418
-2.15306,-0.426447,3.389,4.03768
-2.14206,-0.426447,3.389,4.03183
-2.13106,-0.426447,3.389,4.02599
-2.14133,-0.430726,3.423,4.06051
-2.13022,-0.430726,3.423,4.05466
-2.11911,-0.430726,3.423,4.04884
-2.108,-0.430726,3.423,4.04303
-2.09689,-0.430726,3.423,4.03725
-2.08578,-0.430726,3.423,4.03149
-2.09589,-0.43513,3.458,4.06692
-2.08466,-0.43513,3.458,4.06115
-2.07344,-0.43513,3.458,4.0554
-2.06221,-0.43513,3.458,4.04967
nan,nan,nan,NaN
nan,nan,nan,NaN
nan,nan,nan,NaN
nan,nan,nan,NaN
nan,nan,nan,NaN
nan,nan,nan,NaN
nan,nan,nan,NaN
nan,nan,nan,NaN
nan,nan,nan,NaN
nan,nan,nan,NaN
nan,nan,nan,NaN
nan,nan,nan,NaN
nan,nan,nan,NaN
nan,nan,nan,NaN
nan,nan,nan,NaN
nan,nan,nan,NaN
nan,nan,nan,NaN
nan,nan,nan,NaN
nan,nan,nan,NaN
nan,nan,nan,NaN
nan,nan,nan,NaN
nan,nan,nan,NaN
nan,nan,nan,NaN
nan,nan,nan,NaN
nan,nan,nan,NaN
nan,nan,nan,NaN
nan,nan,nan,NaN
nan,nan,nan,NaN
nan,nan,nan,NaN
nan,nan,nan,NaN
nan,nan,nan,NaN
-1.20415,-0.307661,2.445,2.74275
-1.19622,-0.307661,2.445,2.73927
-1.18002,-0.305522,2.428,2.71679
-1.17214,-0.305522,2.428,2.71338
-1.16426,-0.305522,2.428,2.70999
-1.15638,-0.305522,2.428,2.70661
-1.1485,-0.305522,2.428,2.70325
-1.13263,-0.303383,2.411,2.68101
-1.1248,-0.303383,2.411,2.67771
-1.11698,-0.303383,2.411,2.67444
-1.10915,-0.303383,2.411,2.67118
-1.10133,-0.303383,2.411,2.66794
-1.08579,-0.301244,2.394,2.64593
-1.07802,-0.301244,2.394,2.64275
-1.07025,-0.301244,2.394,2.63959
-1.05494,-0.299105,2.377,2.61772
-1.04722,-0.299105,2.377,2.61463
-1.03951,-0.299105,2.377,2.61154
-1.03179,-0.299105,2.377,2.60848
-1.01718,-0.297091,2.361,2.5879
-1.00952,-0.297091,2.361,2.5849
-1.00186,-0.297091,2.361,2.58192
-0.994193,-0.297091,2.361,2.57895
-0.986529,-0.297091,2.361,2.57601
-0.978866,-0.297091,2.361,2.57308
-0.964621,-0.295078,2.345,2.55276
-0.95701,-0.295078,2.345,2.5499
-0.949399,-0.295078,2.345,2.54705
-0.941787,-0.295078,2.345,2.54422
-0.934176,-0.295078,2.345,2.54141
-0.926565,-0.295078,2.345,2.53863
-0.918953,-0.295078,2.345,2.53586
-0.911342,-0.295078,2.345,2.53311
-0.903731,-0.295078,2.345,2.53038
-0.89612,-0.295078,2.345,2.52767
-0.888508,-0.295078,2.345,2.52498
-0.880897,-0.295078,2.345,2.52232
-0.873286,-0.295078,2.345,2.51967
-0.865674,-0.295078,2.345,2.51704
-0.858063,-0.295078,2.345,2.51443
-0.850452,-0.295078,2.345,2.51184
-0.848591,-0.297091,2.361,2.5264
-0.840928,-0.297091,2.361,2.52384
-0.833265,-0.297091,2.361,2.52129
-0.825602,-0.297091,2.361,2.51877
-0.817938,-0.297091,2.361,2.51627
-0.810275,-0.297091,2.361,2.51379
-0.808051,-0.299105,2.377,2.52835
-0.800336,-0.299105,2.377,2.52589
-0.792621,-0.299105,2.377,2.52346
-0.784906,-0.299105,2.377,2.52105
-0.777191,-0.299105,2.377,2.51865
-0.769475,-0.299105,2.377,2.51628
-0.767208,-0.301244,2.394,2.53191
-0.759438,-0.301244,2.394,2.52957
-0.751668,-0.301244,2.394,2.52725
-0.743897,-0.301244,2.394,2.52495
-0.736127,-0.301244,2.394,2.52267
-0.728357,-0.301244,2.394,2.52041
-0.720586,-0.301244,2.394,2.51818
-0.712816,-0.301244,2.394,2.51597
-0.705046,-0.301244,2.394,2.51378
-0.697275,-0.301244,2.394,2.51161
-0.689505,-0.301244,2.394,2.50946
-0.681735,-0.301244,2.394,2.50734
-0.673964,-0.301244,2.394,2.50524
-0.666194,-0.301244,2.394,2.50316
-0.658424,-0.301244,2.394,2.5011
-0.650653,-0.301244,2.394,2.49907
-0.642883,-0.301244,2.394,2.49705
-0.635113,-0.301244,2.394,2.49507
-0.631797,-0.303383,2.411,2.5108
-0.623972,-0.303383,2.411,2.50884
-0.616146,-0.303383,2.411,2.50691
-0.608321,-0.303383,2.411,2.505
-0.600495,-0.303383,2.411,2.50311
-0.596848,-0.305522,2.428,2.51888
-0.588968,-0.305522,2.428,2.51702
-0.581087,-0.305522,2.428,2.51519
-0.57722,-0.307661,2.445,2.53098
-0.569284,-0.307661,2.445,2.52918
-0.561348,-0.307661,2.445,2.52741
-0.553412,-0.307661,2.445,2.52566
-0.549492,-0.309926,2.463,2.54251
-0.541498,-0.309926,2.463,2.5408
-0.533504,-0.309926,2.463,2.5391
-0.52935,-0.312191,2.481,2.55598
-0.521297,-0.312191,2.481,2.55433
-0.513244,-0.312191,2.481,2.55269
-0.505192,-0.312191,2.481,2.55109
-0.497139,-0.312191,2.481,2.5495
-0.489086,-0.312191,2.481,2.54795
-0.481034,-0.312191,2.481,2.54641
-0.472981,-0.312191,2.481,2.5449
-0.464928,-0.312191,2.481,2.54342
-0.456875,-0.312191,2.481,2.54196
-0.448823,-0.312191,2.481,2.54052
-0.443968,-0.314456,2.499,2.55754
-0.435857,-0.314456,2.499,2.55614
-0.427746,-0.314456,2.499,2.55477
-0.419634,-0.314456,2.499,2.55342
-0.411523,-0.314456,2.499,2.5521
-0.403412,-0.314456,2.499,2.55081
-0.398148,-0.316721,2.517,2.5679
-0.389979,-0.316721,2.517,2.56665
-0.381809,-0.316721,2.517,2.56542
-0.37364,-0.316721,2.517,2.56422
-0.36547,-0.316721,2.517,2.56304
-0.357301,-0.316721,2.517,2.56189
-0.349131,-0.316721,2.517,2.56076
-0.340961,-0.316721,2.517,2.55966
-0.332792,-0.316721,2.517,2.55858
-0.327073,-0.319112,2.536,2.57684
-0.318842,-0.319112,2.536,2.57581
-0.31061,-0.319112,2.536,2.5748
-0.302379,-0.319112,2.536,2.57382
-0.294148,-0.319112,2.536,2.57287
-0.288059,-0.321503,2.555,2.59121
-0.277685,-0.319112,2.536,2.57104
-0.269454,-0.319112,2.536,2.57016
-0.261223,-0.319112,2.536,2.56931
-0.252992,-0.319112,2.536,2.56849
-0.244761,-0.319112,2.536,2.56769
-0.236529,-0.319112,2.536,2.56692
-0.228298,-0.319112,2.536,2.56617
-0.221716,-0.321503,2.555,2.58468
-0.211836,-0.319112,2.536,2.56476
-0.203604,-0.319112,2.536,2.5641
-0.195373,-0.319112,2.536,2.56345
-0.187142,-0.319112,2.536,2.56284
-0.178911,-0.319112,2.536,2.56225
-0.170679,-0.319112,2.536,2.56169
-0.162448,-0.319112,2.536,2.56116
-0.154217,-0.319112,2.536,2.56065
-0.145986,-0.319112,2.536,2.56016
-0.137755,-0.319112,2.536,2.55971
-0.129523,-0.319112,2.536,2.55928
-0.121292,-0.319112,2.536,2.55887
-0.113061,-0.319112,2.536,2.5585
-0.10483,-0.319112,2.536,2.55815
-0.0965985,-0.319112,2.536,2.55782
-0.0883672,-0.319112,2.536,2.55753
-0.080136,-0.319112,2.536,2.55725
-0.0719048,-0.319112,2.536,2.55701
-0.0636736,-0.319112,2.536,2.55679
-0.0558577,-0.321503,2.555,2.57575
-0.0475648,-0.321503,2.555,2.57559
-0.0392719,-0.321503,2.555,2.57545
-0.030979,-0.321503,2.555,2.57533
-0.0226861,-0.321503,2.555,2.57525
-0.0145003,-0.323894,2.574,2.59434
-0.00614571,-0.323894,2.574,2.59431
0.00220886,-0.323894,2.574,2.5943
0.0105634,-0.323894,2.574,2.59432
0.018918,-0.323894,2.574,2.59437
0.0274739,-0.326284,2.593,2.61359
0.0358901,-0.326284,2.593,2.61369
0.0443063,-0.326284,2.593,2.61382
0.0527226,-0.326284,2.593,2.61398
0.0611388,-0.326284,2.593,2.61416
0.069555,-0.326284,2.593,2.61437
0.0779713,-0.326284,2.593,2.61461
0.0863875,-0.326284,2.593,2.61488
0.0948037,-0.326284,2.593,2.61517
0.10322,-0.326284,2.593,2.61549
0.112497,-0.328801,2.613,2.63601
0.120978,-0.328801,2.613,2.63638
0.12946,-0.328801,2.613,2.63679
0.137941,-0.328801,2.613,2.63722
0.146422,-0.328801,2.613,2.63767
0.153717,-0.326284,2.593,2.61796
0.162134,-0.326284,2.593,2.61847
0.17055,-0.326284,2.593,2.61901
0.178966,-0.326284,2.593,2.61957
0.187382,-0.326284,2.593,2.62016
0.195799,-0.326284,2.593,2.62077
0.204215,-0.326284,2.593,2.62141
0.212631,-0.326284,2.593,2.62208
0.219428,-0.323894,2.574,2.60356
0.227782,-0.323894,2.574,2.60428
0.236137,-0.323894,2.574,2.60502
0.246296,-0.326284,2.593,2.62503
0.254712,-0.326284,2.593,2.62583
0.263128,-0.326284,2.593,2.62666
0.271545,-0.326284,2.593,2.62752
0.279961,-0.326284,2.593,2.6284
0.288377,-0.326284,2.593,2.62931
0.294619,-0.323894,2.574,2.61097
0.302973,-0.323894,2.574,2.61193
0.311328,-0.323894,2.574,2.61291
0.319682,-0.323894,2.574,2.61392
0.325615,-0.321503,2.555,2.59565
0.333908,-0.321503,2.555,2.59671
0.342201,-0.321503,2.555,2.59779
0.350494,-0.321503,2.555,2.59889
0.356119,-0.319112,2.536,2.58069
0.36435,-0.319112,2.536,2.58184
0.36979,-0.316721,2.517,2.56366
0.37796,-0.316721,2.517,2.56485
0.386129,-0.316721,2.517,2.56607
0.394299,-0.316721,2.517,2.56731
0.402468,-0.316721,2.517,2.56858
0.410638,-0.316721,2.517,2.56987
0.418807,-0.316721,2.517,2.57119
0.426977,-0.316721,2.517,2.57253
0.438431,-0.319112,2.536,2.59333
0.446662,-0.319112,2.536,2.59473
0.454894,-0.319112,2.536,2.59616
0.463125,-0.319112,2.536,2.59762
0.474888,-0.321503,2.555,2.61857
0.48318,-0.321503,2.555,2.62009
0.495128,-0.323894,2.574,2.64112
0.507199,-0.326284,2.593,2.66221
0.515615,-0.326284,2.593,2.66383
0.524032,-0.326284,2.593,2.66547
0.532448,-0.326284,2.593,2.66714
0.540864,-0.326284,2.593,2.66883
0.54928,-0.326284,2.593,2.67055
0.557697,-0.326284,2.593,2.67229
0.566113,-0.326284,2.593,2.67406
0.570319,-0.323894,2.574,2.65625
0.578674,-0.323894,2.574,2.65805
0.587028,-0.323894,2.574,2.65988
0.590988,-0.321503,2.555,2.64209
0.599281,-0.321503,2.555,2.64396
0.607574,-0.321503,2.555,2.64585
0.615867,-0.321503,2.555,2.64777
0.619518,-0.319112,2.536,2.63001
0.627749,-0.319112,2.536,2.63196
0.635981,-0.319112,2.536,2.63393
0.644212,-0.319112,2.536,2.63593
0.647555,-0.316721,2.517,2.61819
0.655725,-0.316721,2.517,2.62022
0.663894,-0.316721,2.517,2.62228
0.672064,-0.316721,2.517,2.62436
0.680233,-0.316721,2.517,2.62647
0.68348,-0.314456,2.499,2.60979
0.691591,-0.314456,2.499,2.61193
0.699702,-0.314456,2.499,2.61409
0.707813,-0.314456,2.499,2.61627
0.715924,-0.314456,2.499,2.61848
0.724035,-0.314456,2.499,2.62071
0.732147,-0.314456,2.499,2.62296
0.740258,-0.314456,2.499,2.62524
0.748369,-0.314456,2.499,2.62753
0.75648,-0.314456,2.499,2.62986
0.764591,-0.314456,2.499,2.6322
0.772702,-0.314456,2.499,2.63457
0.780813,-0.314456,2.499,2.63696
0.788924,-0.314456,2.499,2.63937
0.797036,-0.314456,2.499,2.64181
0.805147,-0.314456,2.499,2.64427
0.813258,-0.314456,2.499,2.64675
0.815453,-0.312191,2.481,2.63017
0.823505,-0.312191,2.481,2.63268
0.831558,-0.312191,2.481,2.63521
0.839611,-0.312191,2.481,2.63776
0.841514,-0.309926,2.463,2.62118
0.849508,-0.309926,2.463,2.62375
0.857502,-0.309926,2.463,2.62635
0.859171,-0.307661,2.445,2.60976
0.867107,-0.307661,2.445,2.61239
0.875043,-0.307661,2.445,2.61503
0.87684,-0.305522,2.428,2.5995
0.88472,-0.305522,2.428,2.60216
0.886351,-0.303383,2.411,2.58662
0.894177,-0.303383,2.411,2.58931
0.902002,-0.303383,2.411,2.59202
0.909828,-0.303383,2.411,2.59475
0.917653,-0.303383,2.411,2.59751
0.925479,-0.303383,2.411,2.60028
0.933304,-0.303383,2.411,2.60308
0.94113,-0.303383,2.411,2.60589
0.942264,-0.301244,2.394,2.59034
0.950035,-0.301244,2.394,2.59317
0.957805,-0.301244,2.394,2.59603
0.965575,-0.301244,2.394,2.59891
0.973346,-0.301244,2.394,2.6018
0.981116,-0.301244,2.394,2.60472
0.995908,-0.303383,2.411,2.62618
1.01081,-0.305522,2.428,2.64769
1.01869,-0.305522,2.428,2.65071
nan,nan,nan,NaN
nan,nan,nan,NaN
nan,nan,nan,NaN
nan,nan,nan,NaN
nan,nan,nan,NaN
nan,nan,nan,NaN
nan,nan,nan,NaN
nan,nan,nan,NaN
nan,nan,nan,NaN
nan,nan,nan,NaN
1.5743,-0.43513,3.458,3.82433
1.58552,-0.43513,3.458,3.82897
1.61291,-0.439534,3.493,3.87243
1.64099,-0.444064,3.529,3.91713
1.65244,-0.444064,3.529,3.92194
1.6639,-0.444064,3.529,3.92678
1.71096,-0.453501,3.604,4.0152
1.70449,-0.44872,3.566,3.97781
1.69826,-0.444064,3.529,3.94146
1.70971,-0.444064,3.529,3.94641
1.70361,-0.439534,3.493,3.91108
1.69776,-0.43513,3.458,3.87679
1.70899,-0.43513,3.458,3.88172
1.72021,-0.43513,3.458,3.88667
1.71391,-0.430726,3.423,3.85226
1.70789,-0.426447,3.389,3.81891
1.71889,-0.426447,3.389,3.82384
1.72989,-0.426447,3.389,3.8288
1.74088,-0.426447,3.389,3.83378
1.75188,-0.426447,3.389,3.83879
1.76288,-0.426447,3.389,3.84382
1.77388,-0.426447,3.389,3.84888
1.80279,-0.430726,3.423,3.89262
1.8139,-0.430726,3.423,3.89778
1.82501,-0.430726,3.423,3.90296
1.8549,-0.43513,3.458,3.94813
1.86612,-0.43513,3.458,3.95342
1.89635,-0.439534,3.493,3.9988
1.92734,-0.444064,3.529,4.04545
1.9388,-0.444064,3.529,4.05092
1.95025,-0.444064,3.529,4.05642
1.98227,-0.44872,3.566,4.10452
1.99385,-0.44872,3.566,4.11013
2.00542,-0.44872,3.566,4.11575
2.03849,-0.453501,3.604,4.16532
2.07181,-0.458283,3.642,4.21504
2.08363,-0.458283,3.642,4.22086
2.09545,-0.458283,3.642,4.22671
2.10727,-0.458283,3.642,4.23258
2.11909,-0.458283,3.642,4.23848
2.13091,-0.458283,3.642,4.2444
2.12037,-0.453501,3.604,4.206
2.13207,-0.453501,3.604,4.21191
2.12117,-0.44872,3.566,4.17337
2.08908,-0.439534,3.493,4.09371
2.10042,-0.439534,3.493,4.09951
2.0906,-0.43513,3.458,4.0642
2.05988,-0.426447,3.389,3.98877
2.07088,-0.426447,3.389,3.99446
2.04195,-0.418268,3.324,3.92345
2.03298,-0.414242,3.292,3.89125
2.04366,-0.414242,3.292,3.89685
1.99631,-0.402539,3.199,3.79222
1.95212,-0.391592,3.112,3.69441
1.96222,-0.391592,3.112,3.69976
1.93746,-0.384671,3.057,3.63964
1.89642,-0.374604,2.977,3.54955
1.90609,-0.374604,2.977,3.55472
1.88293,-0.368187,2.926,3.49892
1.87626,-0.365041,2.901,3.4741
1.88567,-0.365041,2.901,3.4792
1.87941,-0.362021,2.877,3.45549
1.85724,-0.355981,2.829,3.40284
1.85125,-0.353087,2.806,3.38015
1.86035,-0.353087,2.806,3.38515
1.83948,-0.347424,2.761,3.33579
1.83371,-0.344656,2.739,3.31412
1.8426,-0.344656,2.739,3.31905
1.83662,-0.341888,2.717,3.2973
1.83118,-0.339245,2.696,3.27669
-2.17901,-0.385049,3.141,3.84217
-2.18884,-0.388604,3.17,3.87181
-2.17855,-0.388604,3.17,3.86601
-2.20931,-0.395959,3.23,3.93328
-2.21924,-0.399637,3.26,3.96388
-2.23034,-0.40356,3.292,3.99682
-2.21966,-0.40356,3.292,3.99087
-2.20897,-0.40356,3.292,3.98493
-2.21966,-0.407482,3.324,4.0177
-2.20887,-0.407482,3.324,4.01175
-2.19808,-0.407482,3.324,4.00582
-2.18729,-0.407482,3.324,3.99991
-2.1765,-0.407482,3.324,3.99402
-2.16571,-0.407482,3.324,3.98815
-2.17567,-0.411405,3.356,4.02064
-2.16478,-0.411405,3.356,4.01475
-2.15388,-0.411405,3.356,4.00889
-2.14299,-0.411405,3.356,4.00305
-2.15306,-0.415451,3.389,4.03653
-2.14206,-0.415451,3.389,4.03068
-2.13106,-0.415451,3.389,4.02484
-2.14133,-0.419619,3.423,4.05935
-2.13022,-0.419619,3.423,4.0535
-2.11911,-0.419619,3.423,4.04767
-2.108,-0.419619,3.423,4.04187
-2.09689,-0.419619,3.423,4.03608
-2.08578,-0.419619,3.423,4.03032
-2.09589,-0.423909,3.458,4.06573
-2.08466,-0.423909,3.458,4.05996
-2.07344,-0.423909,3.458,4.05421
-2.06221,-0.423909,3.458,4.04848
nan,nan,nan,NaN
nan,nan,nan,NaN
nan,nan,nan,NaN
nan,nan,nan,NaN
nan,nan,nan,NaN
nan,nan,nan,NaN
nan,nan,nan,NaN
nan,nan,nan,NaN
nan,nan,nan,NaN
nan,nan,nan,NaN
nan,nan,nan,NaN
nan,nan,nan,NaN
nan,nan,nan,NaN
nan,nan,nan,NaN
nan,nan,nan,NaN
nan,nan,nan,NaN
nan,nan,nan,NaN
nan,nan,nan,NaN
nan,nan,nan,NaN
nan,nan,nan,NaN
nan,nan,nan,NaN
nan,nan,nan,NaN
nan,nan,nan,NaN
nan,nan,nan,NaN
nan,nan,nan,NaN
nan,nan,nan,NaN
nan,nan,nan,NaN
nan,nan,nan,NaN
nan,nan,nan,NaN
nan,nan,nan,NaN
nan,nan,nan,NaN
-1.20415,-0.299727,2.445,2.74187
-1.19622,-0.299727,2.445,2.73839
-1.18828,-0.299727,2.445,2.73494
-1.18035,-0.299727,2.445,2.7315
-1.17241,-0.299727,2.445,2.72808
-1.16447,-0.299727,2.445,2.72468
-1.1485,-0.297644,2.428,2.70237
-1.14062,-0.297644,2.428,2.69903
-1.13274,-0.297644,2.428,2.69571
-1.11698,-0.29556,2.411,2.67356
-1.10915,-0.29556,2.411,2.6703
-1.10133,-0.29556,2.411,2.66706
-1.08579,-0.293476,2.394,2.64505
-1.07802,-0.293476,2.394,2.64187
-1.07025,-0.293476,2.394,2.63871
-1.05494,-0.291392,2.377,2.61685
-1.04722,-0.291392,2.377,2.61375
-1.03251,-0.28943,2.361,2.5931
-1.02485,-0.28943,2.361,2.59006
-1.01718,-0.28943,2.361,2.58704
-1.00952,-0.28943,2.361,2.58403
-1.00186,-0.28943,2.361,2.58105
-0.994193,-0.28943,2.361,2.57808
-0.979844,-0.287469,2.345,2.55769
-0.972232,-0.287469,2.345,2.55478
-0.964621,-0.287469,2.345,2.55189
-0.95701,-0.287469,2.345,2.54903
-0.949399,-0.287469,2.345,2.54618
-0.941787,-0.287469,2.345,2.54335
-0.934176,-0.287469,2.345,2.54054
-0.926565,-0.287469,2.345,2.53775
-0.918953,-0.287469,2.345,2.53498
-0.911342,-0.287469,2.345,2.53223
-0.903731,-0.287469,2.345,2.5295
-0.89612,-0.287469,2.345,2.5268
-0.888508,-0.287469,2.345,2.52411
-0.880897,-0.287469,2.345,2.52144
-0.873286,-0.287469,2.345,2.51879
-0.865674,-0.287469,2.345,2.51616
-0.858063,-0.287469,2.345,2.51355
-0.850452,-0.287469,2.345,2.51096
-0.842841,-0.287469,2.345,2.50839
-0.835229,-0.287469,2.345,2.50585
-0.833265,-0.28943,2.361,2.5204
-0.825602,-0.28943,2.361,2.51788
-0.817938,-0.28943,2.361,2.51538
-0.810275,-0.28943,2.361,2.51289
-0.808051,-0.291392,2.377,2.52745
-0.800336,-0.291392,2.377,2.52499
-0.792621,-0.291392,2.377,2.52256
-0.784906,-0.291392,2.377,2.52014
-0.777191,-0.291392,2.377,2.51775
-0.769475,-0.291392,2.377,2.51538
-0.76176,-0.291392,2.377,2.51303
-0.759438,-0.293476,2.394,2.52866
-0.751668,-0.293476,2.394,2.52634
-0.743897,-0.293476,2.394,2.52403
-0.736127,-0.293476,2.394,2.52175
-0.728357,-0.293476,2.394,2.5195
-0.720586,-0.293476,2.394,2.51726
-0.712816,-0.293476,2.394,2.51505
-0.705046,-0.293476,2.394,2.51286
-0.697275,-0.293476,2.394,2.51069
-0.689505,-0.293476,2.394,2.50854
-0.681735,-0.293476,2.394,2.50642
-0.673964,-0.293476,2.394,2.50431
-0.666194,-0.293476,2.394,2.50223
-0.658424,-0.293476,2.394,2.50018
-0.650653,-0.293476,2.394,2.49814
-0.642883,-0.293476,2.394,2.49613
-0.635113,-0.293476,2.394,2.49414
-0.631797,-0.29556,2.411,2.50987
-0.623972,-0.29556,2.411,2.50791
-0.616146,-0.29556,2.411,2.50598
-0.608321,-0.29556,2.411,2.50406
-0.600495,-0.29556,2.411,2.50217
-0.596848,-0.297644,2.428,2.51794
-0.588968,-0.297644,2.428,2.51608
-0.581087,-0.297644,2.428,2.51425
-0.57722,-0.299727,2.445,2.53003
-0.569284,-0.299727,2.445,2.52823
-0.561348,-0.299727,2.445,2.52645
-0.553412,-0.299727,2.445,2.5247
-0.549492,-0.301934,2.463,2.54155
-0.541498,-0.301934,2.463,2.53983
-0.533504,-0.301934,2.463,2.53814
-0.52935,-0.304141,2.481,2.55501
-0.521297,-0.304141,2.481,2.55335
-0.513244,-0.304141,2.481,2.55172
-0.505192,-0.304141,2.481,2.55011
-0.497139,-0.304141,2.481,2.54853
-0.489086,-0.304141,2.481,2.54697
-0.481034,-0.304141,2.481,2.54544
-0.472981,-0.304141,2.481,2.54393
-0.464928,-0.304141,2.481,2.54244
-0.456875,-0.304141,2.481,2.54098
-0.448823,-0.304141,2.481,2.53955
-0.443968,-0.306347,2.499,2.55655
-0.435857,-0.306347,2.499,2.55516
-0.427746,-0.306347,2.499,2.55378
-0.419634,-0.306347,2.499,2.55244
-0.411523,-0.306347,2.499,2.55112
-0.403412,-0.306347,2.499,2.54982
-0.398148,-0.308554,2.517,2.56691
-0.389979,-0.308554,2.517,2.56565
-0.381809,-0.308554,2.517,2.56442
-0.37364,-0.308554,2.517,2.56322
-0.36547,-0.308554,2.517,2.56204
-0.357301,-0.308554,2.517,2.56089
-0.351766,-0.310883,2.536,2.57909
-0.343535,-0.310883,2.536,2.57798
-0.335304,-0.310883,2.536,2.57689
-0.327073,-0.310883,2.536,2.57583
-0.318842,-0.310883,2.536,2.5748
-0.31061,-0.310883,2.536,2.5738
-0.302379,-0.310883,2.536,2.57281
-0.294148,-0.310883,2.536,2.57186
-0.288059,-0.313212,2.555,2.59019
-0.279766,-0.313212,2.555,2.58928
-0.269454,-0.310883,2.536,2.56915
-0.261223,-0.310883,2.536,2.5683
-0.252992,-0.310883,2.536,2.56748
-0.246594,-0.313212,2.555,2.58591
-0.238301,-0.313212,2.555,2.58513
-0.230009,-0.313212,2.555,2.58438
-0.221716,-0.313212,2.555,2.58366
-0.211836,-0.310883,2.536,2.56375
-0.203604,-0.310883,2.536,2.56308
-0.195373,-0.310883,2.536,2.56244
-0.187142,-0.310883,2.536,2.56183
-0.178911,-0.310883,2.536,2.56124
-0.170679,-0.310883,2.536,2.56068
-0.162448,-0.310883,2.536,2.56014
-0.154217,-0.310883,2.536,2.55963
-0.145986,-0.310883,2.536,2.55915
-0.137755,-0.310883,2.536,2.5587
-0.129523,-0.310883,2.536,2.55827
-0.121292,-0.310883,2.536,2.55786
-0.113061,-0.310883,2.536,2.55748
-0.10483,-0.310883,2.536,2.55713
-0.0965985,-0.310883,2.536,2.55681
-0.0883672,-0.310883,2.536,2.55651
-0.080136,-0.310883,2.536,2.55624
-0.0719048,-0.310883,2.536,2.556
-0.0636736,-0.310883,2.536,2.55578
-0.0558577,-0.313212,2.555,2.57473
-0.0475648,-0.313212,2.555,2.57457
-0.0392719,-0.313212,2.555,2.57443
-0.030979,-0.313212,2.555,2.57431
-0.0226861,-0.313212,2.555,2.57423
-0.0145003,-0.315541,2.574,2.59331
-0.00614571,-0.315541,2.574,2.59328
0.00220886,-0.315541,2.574,2.59327
0.0105634,-0.315541,2.574,2.59329
0.018918,-0.315541,2.574,2.59334
0.0272725,-0.315541,2.574,2.59341
0.0358901,-0.317871,2.593,2.61266
0.0443063,-0.317871,2.593,2.61279
0.0523362,-0.315541,2.574,2.5938
0.0606908,-0.315541,2.574,2.59398
0.0690454,-0.315541,2.574,2.59419
0.0773999,-0.315541,2.574,2.59442
0.0857545,-0.315541,2.574,2.59469
0.0941091,-0.315541,2.574,2.59498
0.102464,-0.315541,2.574,2.59529
0.111636,-0.317871,2.593,2.6148
0.120052,-0.317871,2.593,2.61517
0.128469,-0.317871,2.593,2.61557
0.136885,-0.317871,2.593,2.61599
0.145301,-0.317871,2.593,2.61645
0.153717,-0.317871,2.593,2.61693
0.162134,-0.317871,2.593,2.61744
0.17055,-0.317871,2.593,2.61797
0.178966,-0.317871,2.593,2.61853
0.187382,-0.317871,2.593,2.61912
0.195799,-0.317871,2.593,2.61974
0.204215,-0.317871,2.593,2.62038
0.212631,-0.317871,2.593,2.62105
0.219428,-0.315541,2.574,2.60254
0.227782,-0.315541,2.574,2.60325
0.236137,-0.315541,2.574,2.604
0.246296,-0.317871,2.593,2.624
0.254712,-0.317871,2.593,2.6248
0.263128,-0.317871,2.593,2.62563
0.271545,-0.317871,2.593,2.62649
0.279961,-0.317871,2.593,2.62737
0.288377,-0.317871,2.593,2.62828
0.294619,-0.315541,2.574,2.60995
0.302973,-0.315541,2.574,2.61091
0.311328,-0.315541,2.574,2.61189
0.319682,-0.315541,2.574,2.6129
0.328037,-0.315541,2.574,2.61393
0.336391,-0.315541,2.574,2.615
0.342201,-0.313212,2.555,2.59677
0.350494,-0.313212,2.555,2.59788
0.356119,-0.310883,2.536,2.57968
0.36435,-0.310883,2.536,2.58083
0.36979,-0.308554,2.517,2.56266
0.37796,-0.308554,2.517,2.56385
0.386129,-0.308554,2.517,2.56507
0.394299,-0.308554,2.517,2.56631
0.402468,-0.308554,2.517,2.56758
0.410638,-0.308554,2.517,2.56888
0.418807,-0.308554,2.517,2.57019
0.426977,-0.308554,2.517,2.57154
0.438431,-0.310883,2.536,2.59233
0.446662,-0.310883,2.536,2.59373
0.454894,-0.310883,2.536,2.59516
0.463125,-0.310883,2.536,2.59662
0.474888,-0.313212,2.555,2.61756
0.48318,-0.313212,2.555,2.61908
0.495128,-0.315541,2.574,2.64011
0.507199,-0.317871,2.593,2.66119
0.515615,-0.317871,2.593,2.66281
0.524032,-0.317871,2.593,2.66445
0.532448,-0.317871,2.593,2.66612
0.540864,-0.317871,2.593,2.66781
0.54928,-0.317871,2.593,2.66953
0.557697,-0.317871,2.593,2.67128
0.566113,-0.317871,2.593,2.67305
0.570319,-0.315541,2.574,2.65524
0.578674,-0.315541,2.574,2.65705
0.587028,-0.315541,2.574,2.65888
0.590988,-0.313212,2.555,2.6411
0.599281,-0.313212,2.555,2.64297
0.607574,-0.313212,2.555,2.64486
0.615867,-0.313212,2.555,2.64678
0.619518,-0.310883,2.536,2.62902
0.627749,-0.310883,2.536,2.63097
0.635981,-0.310883,2.536,2.63295
0.644212,-0.310883,2.536,2.63495
0.647555,-0.308554,2.517,2.61722
0.655725,-0.308554,2.517,2.61925
0.663894,-0.308554,2.517,2.62131
0.672064,-0.308554,2.517,2.62339
0.680233,-0.308554,2.517,2.62549
0.688403,-0.308554,2.517,2.62762
0.691591,-0.306347,2.499,2.61097
0.699702,-0.306347,2.499,2.61313
0.707813,-0.306347,2.499,2.61531
0.715924,-0.306347,2.499,2.61752
0.724035,-0.306347,2.499,2.61975
0.732147,-0.306347,2.499,2.622
0.740258,-0.306347,2.499,2.62428
0.748369,-0.306347,2.499,2.62658
0.75648,-0.306347,2.499,2.6289
0.764591,-0.306347,2.499,2.63124
0.772702,-0.306347,2.499,2.63361
0.780813,-0.306347,2.499,2.636
0.788924,-0.306347,2.499,2.63842
0.797036,-0.306347,2.499,2.64086
0.805147,-0.306347,2.499,2.64331
0.813258,-0.306347,2.499,2.6458
0.821369,-0.306347,2.499,2.6483
0.82948,-0.306347,2.499,2.65083
0.831558,-0.304141,2.481,2.63427
0.833519,-0.301934,2.463,2.61769
0.841514,-0.301934,2.463,2.62024
0.849508,-0.301934,2.463,2.62282
0.857502,-0.301934,2.463,2.62542
0.859171,-0.299727,2.445,2.60884
0.867107,-0.299727,2.445,2.61146
0.875043,-0.299727,2.445,2.61411
0.87684,-0.297644,2.428,2.59858
0.88472,-0.297644,2.428,2.60125
0.886351,-0.29556,2.411,2.58571
0.894177,-0.29556,2.411,2.5884
0.902002,-0.29556,2.411,2.59112
0.909828,-0.29556,2.411,2.59385
0.917653,-0.29556,2.411,2.59661
0.925479,-0.29556,2.411,2.59938
0.933304,-0.29556,2.411,2.60218
0.94113,-0.29556,2.411,2.605
0.942264,-0.293476,2.394,2.58945
0.950035,-0.293476,2.394,2.59228
0.957805,-0.293476,2.394,2.59514
0.965575,-0.293476,2.394,2.59802
0.973346,-0.293476,2.394,2.60092
0.981116,-0.293476,2.394,2.60383
0.995908,-0.29556,2.411,2.62528
nan,nan,nan,NaN
nan,nan,nan,NaN
nan,nan,nan,NaN
nan,nan,nan,NaN
nan,nan,nan,NaN
nan,nan,nan,NaN
nan,nan,nan,NaN
nan,nan,nan,NaN
nan,nan,nan,NaN
nan,nan,nan,NaN
nan,nan,nan,NaN
nan,nan,nan,NaN
1.64077,-0.441807,3.604,3.98449
1.65247,-0.441807,3.604,3.98932
1.66416,-0.441807,3.604,3.99418
1.69353,-0.446465,3.642,4.04123
1.70535,-0.446465,3.642,4.0462
1.71717,-0.446465,3.642,4.0512
1.74751,-0.451246,3.681,4.09966
1.75946,-0.451246,3.681,4.10476
1.77141,-0.451246,3.681,4.1099
1.78335,-0.451246,3.681,4.11506
1.75775,-0.441807,3.604,4.03407
1.75079,-0.437149,3.566,3.99659
1.76236,-0.437149,3.566,4.00167
1.75553,-0.432613,3.529,3.96521
1.74896,-0.4282,3.493,3.92979
1.74266,-0.423909,3.458,3.89542
1.75388,-0.423909,3.458,3.90046
1.74724,-0.419619,3.423,3.86599
1.75835,-0.419619,3.423,3.87102
1.76946,-0.419619,3.423,3.87608
1.78057,-0.419619,3.423,3.88117
1.79168,-0.419619,3.423,3.88627
nan,nan,nan,NaN
1.83245,-0.423909,3.458,3.93641
1.84367,-0.423909,3.458,3.94165
1.87367,-0.4282,3.493,3.98686
1.88501,-0.4282,3.493,3.9922
1.91589,-0.432613,3.529,4.03877
1.94755,-0.437149,3.566,4.08661
1.95913,-0.437149,3.566,4.09214
1.9707,-0.437149,3.566,4.0977
1.98227,-0.437149,3.566,4.10328
2.0151,-0.441807,3.604,4.15266
2.02679,-0.441807,3.604,4.15835
2.03849,-0.441807,3.604,4.16407
2.07181,-0.446465,3.642,4.21377
2.08363,-0.446465,3.642,4.2196
2.09545,-0.446465,3.642,4.22545
2.10727,-0.446465,3.642,4.23132
2.11909,-0.446465,3.642,4.23722
2.10868,-0.441807,3.604,4.19887
2.09802,-0.437149,3.566,4.16042
2.10959,-0.437149,3.566,4.16627
2.09916,-0.432613,3.529,4.12886
2.08908,-0.4282,3.493,4.09251
2.10042,-0.4282,3.493,4.09831
2.0906,-0.423909,3.458,4.06301
2.05988,-0.415451,3.389,3.98761
2.07088,-0.415451,3.389,3.9933
2.04195,-0.407482,3.324,3.92232
2.01322,-0.399637,3.26,3.85232
2.0238,-0.399637,3.26,3.85786
1.99631,-0.392159,3.199,3.79113
1.95212,-0.381494,3.112,3.69335
1.96222,-0.381494,3.112,3.6987
1.93746,-0.374751,3.057,3.63861
1.89642,-0.364944,2.977,3.54854
1.90609,-0.364944,2.977,3.55371
1.88293,-0.358692,2.926,3.49794
1.86074,-0.352685,2.877,3.44439
1.87007,-0.352685,2.877,3.44945
1.86373,-0.349743,2.853,3.4257
1.85724,-0.346801,2.829,3.40189
1.83607,-0.341162,2.783,3.35151
1.84511,-0.341162,2.783,3.35647
1.83948,-0.338465,2.761,3.33487
1.83371,-0.335768,2.739,3.31321
1.8426,-0.335768,2.739,3.31814
1.83662,-0.333071,2.717,3.29639
1.83118,-0.330497,2.696,3.2758
-2.1589,-0.371396,3.112,3.8057
-2.16882,-0.374857,3.141,3.83538
-2.15862,-0.374857,3.141,3.82963
-2.16827,-0.378318,3.17,3.8592
-2.19882,-0.385478,3.23,3.92636
-2.20866,-0.389059,3.26,3.95691
-2.19808,-0.389059,3.26,3.95102
-2.20897,-0.392878,3.292,3.98386
-2.21966,-0.396696,3.324,4.01662
-2.20887,-0.396696,3.324,4.01067
-2.19808,-0.396696,3.324,4.00473
-2.18729,-0.396696,3.324,3.99882
-2.1765,-0.396696,3.324,3.99293
-2.16571,-0.396696,3.324,3.98706
-2.17567,-0.400515,3.356,4.01954
-2.16478,-0.400515,3.356,4.01365
-2.15388,-0.400515,3.356,4.00779
-2.14299,-0.400515,3.356,4.00194
-2.1321,-0.400515,3.356,3.99612
-2.1212,-0.400515,3.356,3.99032
-2.13106,-0.404454,3.389,4.02372
-2.12006,-0.404454,3.389,4.01791
-2.13022,-0.408511,3.423,4.05236
-2.11911,-0.408511,3.423,4.04654
-2.108,-0.408511,3.423,4.04073
-2.09689,-0.408511,3.423,4.03494
-2.08578,-0.408511,3.423,4.02918
-2.09589,-0.412688,3.458,4.06458
-2.08466,-0.412688,3.458,4.0588
-2.07344,-0.412688,3.458,4.05305
-2.08309,-0.416865,3.493,4.08828
nan,nan,nan,NaN
nan,nan,nan,NaN
nan,nan,nan,NaN
nan,nan,nan,NaN
nan,nan,nan,NaN
nan,nan,nan,NaN
nan,nan,nan,NaN
nan,nan,nan,NaN
nan,nan,nan,NaN
nan,nan,nan,NaN
nan,nan,nan,NaN
nan,nan,nan,NaN
nan,nan,nan,NaN
nan,nan,nan,NaN
nan,nan,nan,NaN
nan,nan,nan,NaN
nan,nan,nan,NaN
nan,nan,nan,NaN
nan,nan,nan,NaN
nan,nan,nan,NaN
nan,nan,nan,NaN
nan,nan,nan,NaN
nan,nan,nan,NaN
nan,nan,nan,NaN
nan,nan,nan,NaN
nan,nan,nan,NaN
nan,nan,nan,NaN
nan,nan,nan,NaN
nan,nan,nan,NaN
nan,nan,nan,NaN
nan,nan,nan,NaN
-1.22188,-0.29609,2.481,2.78137
-1.21383,-0.29609,2.481,2.77784
-1.18828,-0.291794,2.445,2.73408
-1.18035,-0.291794,2.445,2.73064
-1.17241,-0.291794,2.445,2.72722
-1.16447,-0.291794,2.445,2.72381
-1.15654,-0.291794,2.445,2.72043
-1.14062,-0.289765,2.428,2.69818
-1.13274,-0.289765,2.428,2.69485
-1.11698,-0.287736,2.411,2.67271
-1.10915,-0.287736,2.411,2.66944
-1.10133,-0.287736,2.411,2.6662
-1.08579,-0.285707,2.394,2.6442
-1.07802,-0.285707,2.394,2.64102
-1.07025,-0.285707,2.394,2.63786
-1.06248,-0.285707,2.394,2.63472
-1.04722,-0.283679,2.377,2.61291
-1.03251,-0.281769,2.361,2.59226
-1.02485,-0.281769,2.361,2.58921
-1.01718,-0.281769,2.361,2.58619
-1.00952,-0.281769,2.361,2.58318
-1.00186,-0.281769,2.361,2.5802
-0.994193,-0.281769,2.361,2.57723
-0.979844,-0.27986,2.345,2.55684
-0.972232,-0.27986,2.345,2.55393
-0.964621,-0.27986,2.345,2.55105
-0.95701,-0.27986,2.345,2.54818
-0.949399,-0.27986,2.345,2.54533
-0.941787,-0.27986,2.345,2.5425
-0.934176,-0.27986,2.345,2.53969
-0.926565,-0.27986,2.345,2.5369
