0.00169826,0.630727,1.979,2.07708
0.00807236,0.626902,1.967,2.0645
0.0144568,0.626902,1.967,2.06453
0.0207246,0.623396,1.956,2.05304
0.0270733,0.623396,1.956,2.05312
0.033422,0.623396,1.956,2.05321
0.0397707,0.623396,1.956,2.05332
0.04586,0.619891,1.945,2.04191
0.052173,0.619891,1.945,2.04206
0.058486,0.619891,1.945,2.04223
0.0644325,0.616385,1.934,2.03087
0.0707098,0.616385,1.934,2.03108
0.0769871,0.616385,1.934,2.03131
0.0832643,0.616385,1.934,2.03156
0.0895416,0.616385,1.934,2.03182
0.0958189,0.616385,1.934,2.03211
0.101515,0.612879,1.923,2.02086
0.107757,0.612879,1.923,2.02118
0.113999,0.612879,1.923,2.02152
0.12024,0.612879,1.923,2.02188
0.126482,0.612879,1.923,2.02226
0.133483,0.616385,1.934,2.03423
0.13976,0.616385,1.934,2.03465
0.146037,0.616385,1.934,2.0351
0.152314,0.616385,1.934,2.03556
0.159494,0.619891,1.945,2.04762
0.165807,0.619891,1.945,2.04812
0.17212,0.619891,1.945,2.04864
0.179442,0.623396,1.956,2.06077
0.185791,0.623396,1.956,2.06133
0.192139,0.623396,1.956,2.06191
0.199604,0.626902,1.967,2.07411
0.207245,0.630727,1.979,2.08739
0.213669,0.630727,1.979,2.08804
0.220092,0.630727,1.979,2.08871
0.227774,0.634233,1.99,2.10101
0.234233,0.634233,1.99,2.10172
0.240692,0.634233,1.99,2.10245
0.248642,0.638057,2.002,2.11588
0.25514,0.638057,2.002,2.11665
0.263206,0.641882,2.014,2.13014
0.269743,0.641882,2.014,2.13096
0.277926,0.645706,2.026,2.14449
0.284502,0.645706,2.026,2.14536
0.291078,0.645706,2.026,2.14624
0.299417,0.649531,2.038,2.15986
0.306032,0.649531,2.038,2.16078
0.314487,0.653355,2.05,2.17446
0.323021,0.65718,2.062,2.18817
0.329714,0.65718,2.062,2.18916
0.336406,0.65718,2.062,2.19018
0.345262,0.661323,2.075,2.20503
0.351997,0.661323,2.075,2.2061
0.358732,0.661323,2.075,2.20718
0.365467,0.661323,2.075,2.20829
0.374355,0.665147,2.087,2.22219
0.381128,0.665147,2.087,2.22334
0.387902,0.665147,2.087,2.22451
0.394676,0.665147,2.087,2.2257
0.40145,0.665147,2.087,2.22692
0.410767,0.669291,2.1,2.24203
0.417583,0.669291,2.1,2.24328
0.424399,0.669291,2.1,2.24456
0.431215,0.669291,2.1,2.24586
0.438031,0.669291,2.1,2.24718
0.447601,0.673434,2.113,2.26244
0.454459,0.673434,2.113,2.26381
0.461318,0.673434,2.113,2.26519
0.468176,0.673434,2.113,2.2666
0.472112,0.669291,2.1,2.25407
0.478928,0.669291,2.1,2.25551
0.485744,0.669291,2.1,2.25697
0.489511,0.665147,2.087,2.24446
0.493431,0.661323,2.075,2.23304
0.500166,0.661323,2.075,2.23453
0.503725,0.65718,2.062,2.22204
0.507447,0.653355,2.05,2.21063
0.514101,0.653355,2.05,2.21216
0.517707,0.649531,2.038,2.20076
0.518147,0.641882,2.014,2.17639
0.524684,0.641882,2.014,2.17796
0.531221,0.641882,2.014,2.17954
0.531349,0.634233,1.99,2.15515
0.537809,0.634233,1.99,2.15675
0.544268,0.634233,1.99,2.15837
0.550727,0.634233,1.99,2.16001
0.554106,0.630727,1.979,2.14972
0.560529,0.630727,1.979,2.15138
0.563515,0.626902,1.967,2.14001
0.569899,0.626902,1.967,2.1417
0.579799,0.630727,1.979,2.15648
0.586222,0.630727,1.979,2.15822
0.592646,0.630727,1.979,2.15997
0.599069,0.630727,1.979,2.16175
0.601821,0.626902,1.967,2.15041
0.608205,0.626902,1.967,2.15221
0.618339,0.630727,1.979,2.16716
0.624762,0.630727,1.979,2.16901
0.627358,0.626902,1.967,2.1577
0.633743,0.626902,1.967,2.15957
0.640127,0.626902,1.967,2.16145
0.642896,0.623396,1.956,2.15125
0.645594,0.619891,1.945,2.14105
0.651907,0.619891,1.945,2.14296
0.65822,0.619891,1.945,2.14489
0.664533,0.619891,1.945,2.14683
0.670846,0.619891,1.945,2.1488
0.677159,0.619891,1.945,2.15078
0.683472,0.619891,1.945,2.15277
0.689785,0.619891,1.945,2.15478
0.696098,0.619891,1.945,2.15681
0.702411,0.619891,1.945,2.15886
0.708724,0.619891,1.945,2.16092
0.715037,0.619891,1.945,2.163
0.71727,0.616385,1.934,2.15285
0.723547,0.616385,1.934,2.15495
0.729825,0.616385,1.934,2.15707
0.731915,0.612879,1.923,2.14692
0.733934,0.609373,1.912,2.13676
0.74014,0.609373,1.912,2.1389
0.746346,0.609373,1.912,2.14105
0.752552,0.609373,1.912,2.14323
0.754789,0.606186,1.902,2.13419
0.760963,0.606186,1.902,2.13638
0.7627,0.60268,1.891,2.12622
0.768837,0.60268,1.891,2.12843
0.774975,0.60268,1.891,2.13066
0.781113,0.60268,1.891,2.13289
0.78725,0.60268,1.891,2.13515
0.793388,0.60268,1.891,2.13742
0.799526,0.60268,1.891,2.13971
0.805664,0.60268,1.891,2.14201
0.811801,0.60268,1.891,2.14432
0.817939,0.60268,1.891,2.14666
0.819719,0.599493,1.881,2.13764
0.825824,0.599493,1.881,2.13999
0.827507,0.596306,1.871,2.13096
0.833579,0.596306,1.871,2.13333
0.84414,0.599493,1.881,2.14712
0.850245,0.599493,1.881,2.14953
0.85635,0.599493,1.881,2.15195
0.862456,0.599493,1.881,2.15439
0.873179,0.60268,1.891,2.1683
0.874666,0.599493,1.881,2.1593
0.880771,0.599493,1.881,2.16178
0.886877,0.599493,1.881,2.16428
0.892982,0.599493,1.881,2.16679
0.899087,0.599493,1.881,2.16931
0.910005,0.60268,1.891,2.18339
0.911298,0.599493,1.881,2.1744
0.917403,0.599493,1.881,2.17697
0.928418,0.60268,1.891,2.19113
0.934556,0.60268,1.891,2.19374
0.940693,0.60268,1.891,2.19636
0.941824,0.599493,1.881,2.18737
0.947929,0.599493,1.881,2.19001
0.954035,0.599493,1.881,2.19265
0.96014,0.599493,1.881,2.19532
0.966245,0.599493,1.881,2.198
0.97235,0.599493,1.881,2.20069
1.0003,0.612879,1.923,2.25259
1.00654,0.612879,1.923,2.25537
1.01279,0.612879,1.923,2.25816
1.01903,0.612879,1.923,2.26097
1.03113,0.616385,1.934,2.27674
1.03741,0.616385,1.934,2.27959
1.04369,0.616385,1.934,2.28245
1.05594,0.619891,1.945,2.29832
1.06826,0.623396,1.956,2.31425
1.07461,0.623396,1.956,2.31718
1.08096,0.623396,1.956,2.32013
1.09342,0.626902,1.967,2.33616
1.0998,0.626902,1.967,2.33916
1.11294,0.630727,1.979,2.35646
1.11936,0.630727,1.979,2.3595
1.13204,0.634233,1.99,2.37568
1.1385,0.634233,1.99,2.37877
1.14496,0.634233,1.99,2.38187
1.15142,0.634233,1.99,2.38498
1.15788,0.634233,1.99,2.3881
1.1579,0.630727,1.979,2.37802
1.16432,0.630727,1.979,2.38116
1.17075,0.630727,1.979,2.3843
1.17717,0.630727,1.979,2.38746
1.18359,0.630727,1.979,2.39064
1.19002,0.630727,1.979,2.39382
1.19644,0.630727,1.979,2.39702
1.20286,0.630727,1.979,2.40024
1.20929,0.630727,1.979,2.40346
1.21571,0.630727,1.979,2.4067
1.22213,0.630727,1.979,2.40995
1.22856,0.630727,1.979,2.41322
1.23498,0.630727,1.979,2.41649
1.2414,0.630727,1.979,2.41978
1.25476,0.634233,1.99,2.43655
1.26122,0.634233,1.99,2.43988
1.26768,0.634233,1.99,2.44323
1.27414,0.634233,1.99,2.44659
1.2806,0.634233,1.99,2.44996
1.28706,0.634233,1.99,2.45334
1.28637,0.630727,1.979,2.44315
1.29279,0.630727,1.979,2.44654
1.29921,0.630727,1.979,2.44994
1.31289,0.634233,1.99,2.46699
1.31935,0.634233,1.99,2.47043
1.32581,0.634233,1.99,2.47389
1.33227,0.634233,1.99,2.47736
1.33873,0.634233,1.99,2.48084
1.34519,0.634233,1.99,2.48433
1.35165,0.634233,1.99,2.48783
-1.67259,0.776233,2.411,3.03529
-1.66476,0.776233,2.411,3.03099
-1.65694,0.776233,2.411,3.0267
-1.64911,0.776233,2.411,3.02242
-1.62971,0.770759,2.394,2.99688
-1.62194,0.770759,2.394,2.99266
-1.62564,0.776233,2.411,3.00968
-1.61781,0.776233,2.411,3.00546
-1.60999,0.776233,2.411,3.00125
-1.61346,0.781706,2.428,3.01819
-1.60558,0.781706,2.428,3.01399
-1.5977,0.781706,2.428,3.0098
-1.58981,0.781706,2.428,3.00562
-1.58193,0.781706,2.428,3.00146
-1.56303,0.776233,2.411,2.97633
-1.55521,0.776233,2.411,2.97223
-1.54738,0.776233,2.411,2.96814
-1.53956,0.776233,2.411,2.96407
-1.53173,0.776233,2.411,2.96001
-1.51316,0.770759,2.394,2.93513
-1.50539,0.770759,2.394,2.93113
-1.48698,0.765286,2.377,2.90636
-1.46931,0.760135,2.361,2.88288
-1.46165,0.760135,2.361,2.87898
-1.44413,0.754984,2.345,2.85562
-1.43652,0.754984,2.345,2.85177
-1.42891,0.754984,2.345,2.84795
-1.4213,0.754984,2.345,2.84414
-1.41369,0.754984,2.345,2.84034
-1.39648,0.749832,2.329,2.81721
-1.38892,0.749832,2.329,2.81347
-1.37187,0.744681,2.313,2.79044
-1.35552,0.739852,2.298,2.76868
-1.34806,0.739852,2.298,2.76504
-1.33127,0.734701,2.282,2.74219
-1.32386,0.734701,2.282,2.7386
-1.31645,0.734701,2.282,2.73502
-1.30044,0.729871,2.267,2.71351
-1.28453,0.725042,2.252,2.69206
-1.27722,0.725042,2.252,2.68858
-1.26991,0.725042,2.252,2.68512
-1.25419,0.720213,2.237,2.66381
-1.24693,0.720213,2.237,2.6604
-1.23967,0.720213,2.237,2.657
-1.23241,0.720213,2.237,2.65362
-1.22515,0.720213,2.237,2.65026
-1.21789,0.720213,2.237,2.64691
-1.21063,0.720213,2.237,2.64357
-1.20336,0.720213,2.237,2.64026
-1.1961,0.720213,2.237,2.63696
-1.18884,0.720213,2.237,2.63367
-1.18158,0.720213,2.237,2.6304
-1.16697,0.715705,2.223,2.61071
-1.15976,0.715705,2.223,2.60749
-1.15254,0.715705,2.223,2.60429
-1.13811,0.711198,2.209,2.58472
-1.13094,0.711198,2.209,2.58157
-1.12377,0.711198,2.209,2.57844
-1.10902,0.706369,2.194,2.55784
-1.1019,0.706369,2.194,2.55476
-1.08779,0.701861,2.18,2.53541
-1.08072,0.701861,2.18,2.53238
-1.07364,0.701861,2.18,2.52937
-1.06657,0.701861,2.18,2.52638
-1.05317,0.697676,2.167,2.50835
-1.04614,0.697676,2.167,2.5054
-1.0391,0.697676,2.167,2.50247
-1.01921,0.688983,2.14,2.46842
-1.01227,0.688983,2.14,2.46556
-1.00532,0.688983,2.14,2.46272
-0.991843,0.684476,2.126,2.4438
-0.97892,0.68029,2.113,2.42608
-0.972062,0.68029,2.113,2.42332
-0.959265,0.676105,2.1,2.40568
-0.952449,0.676105,2.1,2.40297
-0.945633,0.676105,2.1,2.40028
-0.933005,0.671919,2.087,2.38276
-0.920905,0.668056,2.075,2.36643
-0.914171,0.668056,2.075,2.36382
-0.907436,0.668056,2.075,2.36122
-0.900701,0.668056,2.075,2.35864
-0.893966,0.668056,2.075,2.35608
-0.887231,0.668056,2.075,2.35353
-0.880496,0.668056,2.075,2.351
-0.873761,0.668056,2.075,2.34848
-0.867026,0.668056,2.075,2.34599
-0.860291,0.668056,2.075,2.34351
-0.853556,0.668056,2.075,2.34104
-0.846821,0.668056,2.075,2.3386
-0.840086,0.668056,2.075,2.33617
-0.833351,0.668056,2.075,2.33375
-0.826616,0.668056,2.075,2.33136
-0.819881,0.668056,2.075,2.32898
-0.813146,0.668056,2.075,2.32661
-0.806412,0.668056,2.075,2.32427
-0.799677,0.668056,2.075,2.32194
-0.792942,0.668056,2.075,2.31963
-0.786207,0.668056,2.075,2.31734
-0.779472,0.668056,2.075,2.31506
-0.772737,0.668056,2.075,2.3128
-0.770432,0.671919,2.087,2.32392
-0.763658,0.671919,2.087,2.32168
-0.756884,0.671919,2.087,2.31947
-0.75011,0.671919,2.087,2.31726
-0.743336,0.671919,2.087,2.31508
-0.736562,0.671919,2.087,2.31291
-0.729788,0.671919,2.087,2.31077
-0.723015,0.671919,2.087,2.30863
-0.716241,0.671919,2.087,2.30652
-0.709467,0.671919,2.087,2.30443
-0.702693,0.671919,2.087,2.30235
-0.695919,0.671919,2.087,2.30029
-0.689145,0.671919,2.087,2.29825
-0.682371,0.671919,2.087,2.29623
-0.675597,0.671919,2.087,2.29423
-0.668824,0.671919,2.087,2.29224
-0.66205,0.671919,2.087,2.29027
-0.655276,0.671919,2.087,2.28833
-0.648502,0.671919,2.087,2.28639
-0.641728,0.671919,2.087,2.28448
-0.631303,0.668056,2.075,2.26946
-0.624568,0.668056,2.075,2.2676
-0.617833,0.668056,2.075,2.26575
-0.60727,0.663871,2.062,2.24974
-0.600577,0.663871,2.062,2.24795
-0.593884,0.663871,2.062,2.24617
-0.583774,0.660007,2.05,2.23135
-0.577121,0.660007,2.05,2.22961
-0.570467,0.660007,2.05,2.2279
-0.563813,0.660007,2.05,2.22621
-0.553898,0.656144,2.038,2.21151
-0.547283,0.656144,2.038,2.20986
-0.540668,0.656144,2.038,2.20823
-0.534053,0.656144,2.038,2.20662
-0.527438,0.656144,2.038,2.20503
-0.517757,0.65228,2.026,2.19048
-0.511181,0.65228,2.026,2.18894
-0.501616,0.648417,2.014,2.17446
-0.495079,0.648417,2.014,2.17296
-0.488542,0.648417,2.014,2.17148
-0.482006,0.648417,2.014,2.17002
-0.475469,0.648417,2.014,2.16857
-0.468932,0.648417,2.014,2.16715
-0.45964,0.644553,2.002,2.15284
-0.453142,0.644553,2.002,2.15146
-0.446644,0.644553,2.002,2.1501
-0.437507,0.64069,1.99,2.13588
-0.431048,0.64069,1.99,2.13457
-0.424589,0.64069,1.99,2.13327
-0.415819,0.637148,1.979,2.12021
-0.409396,0.637148,1.979,2.11896
-0.402972,0.637148,1.979,2.11773
-0.394144,0.633285,1.967,2.10368
-0.385592,0.629743,1.956,2.09074
-0.379243,0.629743,1.956,2.08958
-0.372894,0.629743,1.956,2.08844
-0.364484,0.626202,1.945,2.07557
-0.358171,0.626202,1.945,2.07447
-0.351858,0.626202,1.945,2.07339
-0.349454,0.633285,1.967,2.09577
-0.341151,0.629743,1.956,2.083
-0.334802,0.629743,1.956,2.08197
-0.328453,0.629743,1.956,2.08096
-0.322105,0.629743,1.956,2.07997
-0.315756,0.629743,1.956,2.07899
-0.307667,0.626202,1.945,2.06635
-0.301354,0.626202,1.945,2.06542
-0.295041,0.626202,1.945,2.06451
-0.288728,0.626202,1.945,2.06362
-0.282415,0.626202,1.945,2.06274
-0.276102,0.626202,1.945,2.06189
-0.269789,0.626202,1.945,2.06105
-0.263476,0.626202,1.945,2.06024
-0.257163,0.626202,1.945,2.05944
-0.25085,0.626202,1.945,2.05866
-0.244537,0.626202,1.945,2.0579
-0.238224,0.626202,1.945,2.05716
-0.231911,0.626202,1.945,2.05644
-0.225598,0.626202,1.945,2.05574
-0.219285,0.626202,1.945,2.05505
-0.214177,0.629743,1.956,2.06601
-0.207828,0.629743,1.956,2.06536
-0.20148,0.629743,1.956,2.06473
-0.195131,0.629743,1.956,2.06412
-0.188782,0.629743,1.956,2.06353
-0.182434,0.629743,1.956,2.06296
-0.176085,0.629743,1.956,2.06241
-0.169736,0.629743,1.956,2.06187
-0.163387,0.629743,1.956,2.06136
-0.157039,0.629743,1.956,2.06087
-0.15069,0.629743,1.956,2.06039
-0.144341,0.629743,1.956,2.05994
-0.138769,0.633285,1.967,2.07109
-0.132384,0.633285,1.967,2.07067
-0.126,0.633285,1.967,2.07027
-0.119616,0.633285,1.967,2.06989
-0.113231,0.633285,1.967,2.06953
-0.106847,0.633285,1.967,2.06919
-0.100462,0.633285,1.967,2.06887
-0.0946519,0.637148,1.979,2.08119
-0.0882285,0.637148,1.979,2.08091
-0.0818052,0.637148,1.979,2.08065
-0.0753818,0.637148,1.979,2.0804
-0.0689585,0.637148,1.979,2.08018
-0.0625352,0.637148,1.979,2.07998
-0.0561118,0.637148,1.979,2.0798
-0.0496885,0.637148,1.979,2.07963
-0.0432651,0.637148,1.979,2.07949
-0.0366184,0.633285,1.967,2.06676
-0.030234,0.633285,1.967,2.06665
-0.0238496,0.633285,1.967,2.06657
-0.0174652,0.633285,1.967,2.06651
-0.0110189,0.629743,1.956,2.0549
-0.00467017,0.629743,1.956,2.05488
0.00167852,0.629743,1.956,2.05488
0.00798207,0.626202,1.945,2.04333
0.0142951,0.626202,1.945,2.04337
0.0204915,0.62266,1.934,2.03187
0.0267688,0.62266,1.934,2.03194
0.0330461,0.62266,1.934,2.03203
0.0390997,0.619119,1.923,2.02059
0.0453413,0.619119,1.923,2.02072
0.0515829,0.619119,1.923,2.02087
0.0578244,0.619119,1.923,2.02103
0.0636995,0.615577,1.912,2.00966
0.0699054,0.615577,1.912,2.00987
0.0761113,0.615577,1.912,2.01009
0.0818866,0.612358,1.902,1.99982
0.0880601,0.612358,1.902,2.00009
0.0942335,0.612358,1.902,2.00037
0.100407,0.612358,1.902,2.00067
0.10658,0.612358,1.902,2.00099
0.112754,0.612358,1.902,2.00132
0.118927,0.612358,1.902,2.00168
0.125758,0.615577,1.912,2.01258
0.131964,0.615577,1.912,2.01298
0.13817,0.615577,1.912,2.0134
0.144376,0.615577,1.912,2.01383
0.151448,0.619119,1.923,2.02588
0.15769,0.619119,1.923,2.02635
0.163931,0.619119,1.923,2.02685
0.170173,0.619119,1.923,2.02736
0.177424,0.62266,1.934,2.0395
0.183701,0.62266,1.934,2.04005
0.189978,0.62266,1.934,2.04063
0.197372,0.626202,1.945,2.05283
0.204837,0.629743,1.956,2.06506
0.211185,0.629743,1.956,2.0657
0.217534,0.629743,1.956,2.06636
0.225142,0.633285,1.967,2.07866
0.231526,0.633285,1.967,2.07936
0.237911,0.633285,1.967,2.08008
0.245785,0.637148,1.979,2.09352
0.252209,0.637148,1.979,2.09428
0.258632,0.637148,1.979,2.09506
0.266529,0.64069,1.99,2.10752
0.272988,0.64069,1.99,2.10834
0.281132,0.644553,2.002,2.12191
0.289354,0.648417,2.014,2.1355
0.297654,0.65228,2.026,2.14913
0.30423,0.65228,2.026,2.15005
0.312646,0.656144,2.038,2.16373
0.321141,0.660007,2.05,2.17744
0.327795,0.660007,2.05,2.17843
0.336406,0.663871,2.062,2.1922
0.343099,0.663871,2.062,2.19324
0.349792,0.663871,2.062,2.19429
0.358732,0.668056,2.075,2.20921
0.365467,0.668056,2.075,2.21031
0.374355,0.671919,2.087,2.22423
0.381128,0.671919,2.087,2.22538
0.387902,0.671919,2.087,2.22655
0.394676,0.671919,2.087,2.22774
0.40145,0.671919,2.087,2.22895
0.410767,0.676105,2.1,2.24407
0.417583,0.676105,2.1,2.24533
0.424399,0.676105,2.1,2.2466
0.431215,0.676105,2.1,2.2479
0.438031,0.676105,2.1,2.24922
0.447601,0.68029,2.113,2.26449
0.454459,0.68029,2.113,2.26585
0.458479,0.676105,2.1,2.25329
0.465295,0.676105,2.1,2.25469
0.472112,0.676105,2.1,2.2561
0.475963,0.671919,2.087,2.24357
0.482737,0.671919,2.087,2.24501
0.489511,0.671919,2.087,2.24648
0.493431,0.668056,2.075,2.23504
0.500166,0.668056,2.075,2.23654
0.503725,0.663871,2.062,2.22403
0.507447,0.660007,2.05,2.2126
0.514101,0.660007,2.05,2.21414
0.517707,0.656144,2.038,2.20272
0.518147,0.648417,2.014,2.17833
0.521558,0.644553,2.002,2.1669
0.528056,0.644553,2.002,2.16848
0.531349,0.64069,1.99,2.15706
0.534836,0.637148,1.979,2.14673
0.541259,0.637148,1.979,2.14834
0.547682,0.637148,1.979,2.14997
0.550746,0.633285,1.967,2.13857
0.55713,0.633285,1.967,2.14022
0.560363,0.629743,1.956,2.12991
0.566712,0.629743,1.956,2.13159
0.573061,0.629743,1.956,2.13329
0.576151,0.626202,1.945,2.12299
0.582464,0.626202,1.945,2.12472
0.592107,0.629743,1.956,2.13848
0.59509,0.626202,1.945,2.12821
0.598002,0.62266,1.934,2.11794
0.604279,0.62266,1.934,2.11972
0.610556,0.62266,1.934,2.12152
0.613325,0.619119,1.923,2.11126
0.619567,0.619119,1.923,2.11308
0.625808,0.619119,1.923,2.11492
0.625148,0.612358,1.902,2.09366
0.631321,0.612358,1.902,2.09551
0.637494,0.612358,1.902,2.09738
0.643668,0.612358,1.902,2.09926
0.646083,0.608816,1.891,2.08901
0.652221,0.608816,1.891,2.09092
0.658358,0.608816,1.891,2.09284
0.664496,0.608816,1.891,2.09478
0.689785,0.626202,1.945,2.15661
0.696098,0.626202,1.945,2.15864
0.702411,0.626202,1.945,2.16068
0.708724,0.626202,1.945,2.16274
0.715037,0.626202,1.945,2.16482
0.71727,0.62266,1.934,2.15465
0.723547,0.62266,1.934,2.15675
0.729825,0.62266,1.934,2.15887
0.731915,0.619119,1.923,2.14871
0.733934,0.615577,1.912,2.13854
0.74014,0.615577,1.912,2.14067
0.746346,0.615577,1.912,2.14283
0.752552,0.615577,1.912,2.145
0.754789,0.612358,1.902,2.13595
0.760963,0.612358,1.902,2.13814
0.7627,0.608816,1.891,2.12797
0.768837,0.608816,1.891,2.13018
0.774975,0.608816,1.891,2.1324
0.781113,0.608816,1.891,2.13464
0.78725,0.608816,1.891,2.13689
0.793388,0.608816,1.891,2.13916
0.799526,0.608816,1.891,2.14144
0.805664,0.608816,1.891,2.14374
0.811801,0.608816,1.891,2.14606
0.817939,0.608816,1.891,2.14839
0.819719,0.605597,1.881,2.13936
0.825824,0.605597,1.881,2.1417
0.827507,0.602377,1.871,2.13267
0.833579,0.602377,1.871,2.13503
0.84414,0.605597,1.881,2.14883
0.850245,0.605597,1.881,2.15124
0.85635,0.605597,1.881,2.15366
0.862456,0.605597,1.881,2.15609
0.873179,0.608816,1.891,2.17002
0.874666,0.605597,1.881,2.16101
0.880771,0.605597,1.881,2.16348
0.886877,0.605597,1.881,2.16598
0.892982,0.605597,1.881,2.16848
0.899087,0.605597,1.881,2.17101
0.910005,0.608816,1.891,2.1851
0.911298,0.605597,1.881,2.17609
0.917403,0.605597,1.881,2.17865
0.928418,0.608816,1.891,2.19283
0.934556,0.608816,1.891,2.19543
0.940693,0.608816,1.891,2.19805
0.941824,0.605597,1.881,2.18905
0.947929,0.605597,1.881,2.19168
0.954035,0.605597,1.881,2.19433
0.96014,0.605597,1.881,2.19699
0.966245,0.605597,1.881,2.19967
0.97235,0.605597,1.881,2.20236
0.983657,0.608816,1.891,2.21678
0.989795,0.608816,1.891,2.21951
0.995933,0.608816,1.891,2.22226
1.00207,0.608816,1.891,2.22501
1.01407,0.612358,1.902,2.24074
1.02561,0.615577,1.912,2.25534
1.03182,0.615577,1.912,2.25817
1.03802,0.615577,1.912,2.26101
1.04423,0.615577,1.912,2.26387
1.05043,0.615577,1.912,2.26674
1.0688,0.62266,1.934,2.29573
1.07508,0.62266,1.934,2.29866
1.08135,0.62266,1.934,2.3016
1.08763,0.62266,1.934,2.30456
1.10013,0.626202,1.945,2.32065
1.1127,0.629743,1.956,2.3368
1.11905,0.629743,1.956,2.33983
1.1254,0.629743,1.956,2.34287
1.13811,0.633285,1.967,2.35912
1.13809,0.629743,1.956,2.34899
1.14444,0.629743,1.956,2.35208
1.15079,0.629743,1.956,2.35517
1.15714,0.629743,1.956,2.35828
1.16349,0.629743,1.956,2.3614
1.16984,0.629743,1.956,2.36454
1.17619,0.629743,1.956,2.36768
1.18253,0.629743,1.956,2.37084
1.18888,0.629743,1.956,2.37402
1.19523,0.629743,1.956,2.3772
1.20158,0.629743,1.956,2.3804
1.20793,0.629743,1.956,2.38361
1.21428,0.629743,1.956,2.38684
1.22063,0.629743,1.956,2.39007
1.23388,0.633285,1.967,2.40678
1.24783,0.637148,1.979,2.42476
1.25425,0.637148,1.979,2.42807
1.26067,0.637148,1.979,2.4314
1.2671,0.637148,1.979,2.43473
1.27352,0.637148,1.979,2.43808
1.27994,0.637148,1.979,2.44145
1.27857,0.633285,1.967,2.42999
1.28495,0.633285,1.967,2.43336
1.29134,0.633285,1.967,2.43674
1.30564,0.637148,1.979,2.45501
1.31206,0.637148,1.979,2.45843
1.31848,0.637148,1.979,2.46187
1.32491,0.637148,1.979,2.46531
1.33133,0.637148,1.979,2.46877
1.33775,0.637148,1.979,2.47224
1.34418,0.637148,1.979,2.47572
-1.67259,0.784056,2.411,3.0373
-1.65303,0.778528,2.394,3.01162
-1.64526,0.778528,2.394,3.00736
-1.63749,0.778528,2.394,3.00311
-1.61814,0.772999,2.377,2.97759
-1.61043,0.772999,2.377,2.9734
-1.60271,0.772999,2.377,2.96923
-1.6064,0.778528,2.394,2.98628
-1.59863,0.778528,2.394,2.98211
-1.59086,0.778528,2.394,2.97795
-1.58309,0.778528,2.394,2.97381
-1.57532,0.778528,2.394,2.96968
-1.55642,0.772999,2.377,2.9445
-1.54871,0.772999,2.377,2.94043
-1.54099,0.772999,2.377,2.93638
-1.53328,0.772999,2.377,2.93234
-1.51529,0.767796,2.361,2.9086
-1.50763,0.767796,2.361,2.90461
-1.49997,0.767796,2.361,2.90064
-1.4923,0.767796,2.361,2.89669
-1.48464,0.767796,2.361,2.89275
-1.45696,0.75739,2.329,2.84967
-1.4494,0.75739,2.329,2.84581
-1.44184,0.75739,2.329,2.84197
-1.42443,0.752186,2.313,2.81864
-1.41692,0.752186,2.313,2.81486
-1.40941,0.752186,2.313,2.81108
-1.4019,0.752186,2.313,2.80733
-1.38535,0.747308,2.298,2.7854
-1.37789,0.747308,2.298,2.7817
-1.37044,0.747308,2.298,2.77802
-1.35349,0.742105,2.282,2.75503
-1.33723,0.737227,2.267,2.73331
-1.32987,0.737227,2.267,2.72972
-1.31377,0.732349,2.252,2.7081
-1.30646,0.732349,2.252,2.70456
-1.29915,0.732349,2.252,2.70104
-1.28323,0.727471,2.237,2.67956
-1.26799,0.722919,2.223,2.65935
-1.26077,0.722919,2.223,2.65591
-1.24566,0.718366,2.209,2.63579
-1.23849,0.718366,2.209,2.63241
-1.23132,0.718366,2.209,2.62905
-1.22415,0.718366,2.209,2.6257
-1.20872,0.713488,2.194,2.60455
-1.2016,0.713488,2.194,2.60126
-1.20264,0.718366,2.209,2.61574
-1.19547,0.718366,2.209,2.61245
-1.18023,0.713488,2.194,2.59146
-1.17311,0.713488,2.194,2.58822
-1.16599,0.713488,2.194,2.585
-1.15887,0.713488,2.194,2.5818
-1.1444,0.708935,2.18,2.56216
-1.13732,0.708935,2.18,2.559
-1.13025,0.708935,2.18,2.55587
-1.12317,0.708935,2.18,2.55274
-1.1161,0.708935,2.18,2.54964
-1.10241,0.704707,2.167,2.53136
-1.0883,0.700155,2.153,2.51197
-1.08131,0.700155,2.153,2.50895
-1.06783,0.695927,2.14,2.49082
-1.05395,0.691374,2.126,2.47157
-1.04705,0.691374,2.126,2.46864
-1.04015,0.691374,2.126,2.46572
-1.02693,0.687147,2.113,2.44776
-1.02007,0.687147,2.113,2.44489
-1.01321,0.687147,2.113,2.44204
-1.00016,0.682919,2.1,2.42419
-0.993345,0.682919,2.1,2.42139
-0.986529,0.682919,2.1,2.4186
-0.96805,0.674789,2.075,2.38707
-0.955292,0.670561,2.062,2.36941
-0.9486,0.670561,2.062,2.36671
-0.941907,0.670561,2.062,2.36404
-0.935214,0.670561,2.062,2.36138
-0.928521,0.670561,2.062,2.35874
-0.916464,0.666659,2.05,2.3424
-0.904485,0.662757,2.038,2.32611
-0.89787,0.662757,2.038,2.32354
-0.891255,0.662757,2.038,2.321
-0.88464,0.662757,2.038,2.31846
-0.878025,0.662757,2.038,2.31595
-0.87141,0.662757,2.038,2.31345
-0.864795,0.662757,2.038,2.31097
-0.858181,0.662757,2.038,2.3085
-0.851566,0.662757,2.038,2.30605
-0.844951,0.662757,2.038,2.30361
-0.838336,0.662757,2.038,2.30119
-0.831721,0.662757,2.038,2.29879
-0.825106,0.662757,2.038,2.29641
-0.818492,0.662757,2.038,2.29404
-0.811877,0.662757,2.038,2.29169
-0.805262,0.662757,2.038,2.28935
-0.798647,0.662757,2.038,2.28703
-0.792032,0.662757,2.038,2.28473
-0.790042,0.666659,2.05,2.29589
-0.783388,0.666659,2.05,2.29361
-0.776734,0.666659,2.05,2.29134
-0.770081,0.666659,2.05,2.2891
-0.763427,0.666659,2.05,2.28687
-0.756773,0.666659,2.05,2.28465
-0.750119,0.666659,2.05,2.28246
-0.743465,0.666659,2.05,2.28028
-0.736812,0.666659,2.05,2.27812
-0.730158,0.666659,2.05,2.27598
-0.723504,0.666659,2.05,2.27385
-0.71685,0.666659,2.05,2.27174
-0.710196,0.666659,2.05,2.26965
-0.716241,0.678691,2.087,2.3085
-0.709467,0.678691,2.087,2.30641
-0.702693,0.678691,2.087,2.30434
-0.695919,0.678691,2.087,2.30228
-0.689145,0.678691,2.087,2.30024
-0.682371,0.678691,2.087,2.29822
-0.675597,0.678691,2.087,2.29622
-0.668824,0.678691,2.087,2.29424
-0.66205,0.678691,2.087,2.29227
-0.655276,0.678691,2.087,2.29032
-0.648502,0.678691,2.087,2.28839
-0.641728,0.678691,2.087,2.28648
-0.631303,0.674789,2.075,2.27146
-0.624568,0.674789,2.075,2.26959
-0.617833,0.674789,2.075,2.26775
-0.60727,0.670561,2.062,2.25173
-0.600577,0.670561,2.062,2.24993
-0.593884,0.670561,2.062,2.24815
-0.583774,0.666659,2.05,2.23332
-0.577121,0.666659,2.05,2.23159
-0.570467,0.666659,2.05,2.22988
-0.563813,0.666659,2.05,2.22819
-0.553898,0.662757,2.038,2.21348
-0.547283,0.662757,2.038,2.21183
-0.540668,0.662757,2.038,2.21021
-0.534053,0.662757,2.038,2.2086
-0.527438,0.662757,2.038,2.20701
-0.517757,0.658854,2.026,2.19245
-0.511181,0.658854,2.026,2.19091
-0.501616,0.654952,2.014,2.17641
-0.495079,0.654952,2.014,2.17492
-0.488542,0.654952,2.014,2.17344
-0.482006,0.654952,2.014,2.17198
-0.475469,0.654952,2.014,2.17054
-0.468932,0.654952,2.014,2.16911
-0.45964,0.651049,2.002,2.15479
-0.453142,0.651049,2.002,2.15342
-0.446644,0.651049,2.002,2.15206
-0.437507,0.647147,1.99,2.13783
-0.431048,0.647147,1.99,2.13652
-0.424589,0.647147,1.99,2.13522
-0.415819,0.64357,1.979,2.12215
-0.409396,0.64357,1.979,2.1209
-0.402972,0.64357,1.979,2.11967
-0.394144,0.639667,1.967,2.10561
-0.385592,0.63609,1.956,2.09266
-0.379243,0.63609,1.956,2.0915
-0.372894,0.63609,1.956,2.09036
-0.364484,0.632513,1.945,2.07749
-0.358171,0.632513,1.945,2.07639
-0.351858,0.632513,1.945,2.07531
-0.343591,0.628936,1.934,2.06252
-0.337314,0.628936,1.934,2.06148
-0.331036,0.628936,1.934,2.06046
-0.324759,0.628936,1.934,2.05946
-0.31667,0.625359,1.923,2.04677
-0.310429,0.625359,1.923,2.04582
-0.304187,0.625359,1.923,2.04488
-0.297946,0.625359,1.923,2.04396
-0.291704,0.625359,1.923,2.04306
-0.285462,0.625359,1.923,2.04218
-0.279221,0.625359,1.923,2.04132
-0.272979,0.625359,1.923,2.04047
-0.266738,0.625359,1.923,2.03964
-0.260496,0.625359,1.923,2.03884
-0.254255,0.625359,1.923,2.03805
-0.248013,0.625359,1.923,2.03728
-0.241771,0.625359,1.923,2.03653
-0.23553,0.625359,1.923,2.0358
-0.2306,0.628936,1.934,2.04673
-0.224323,0.628936,1.934,2.04603
-0.218045,0.628936,1.934,2.04535
-0.211768,0.628936,1.934,2.04469
-0.205491,0.628936,1.934,2.04405
-0.199213,0.628936,1.934,2.04343
-0.192936,0.628936,1.934,2.04283
-0.186659,0.628936,1.934,2.04224
-0.180382,0.628936,1.934,2.04168
-0.174104,0.628936,1.934,2.04113
-0.168782,0.632513,1.945,2.05221
-0.162469,0.632513,1.945,2.05171
-0.156156,0.632513,1.945,2.05121
-0.149843,0.632513,1.945,2.05074
-0.14353,0.632513,1.945,2.05029
-0.137217,0.632513,1.945,2.04986
-0.130904,0.632513,1.945,2.04945
-0.124591,0.632513,1.945,2.04905
-0.118278,0.632513,1.945,2.04868
-0.111965,0.632513,1.945,2.04832
-0.105652,0.632513,1.945,2.04799
-0.0993387,0.632513,1.945,2.04767
-0.0935518,0.63609,1.956,2.05896
-0.0872031,0.63609,1.956,2.05868
-0.0808545,0.63609,1.956,2.05842
-0.0745058,0.63609,1.956,2.05818
-0.0681571,0.63609,1.956,2.05796
-0.0618084,0.63609,1.956,2.05776
-0.0554597,0.63609,1.956,2.05758
-0.049111,0.63609,1.956,2.05742
-0.0425218,0.632513,1.945,2.0457
-0.0362088,0.632513,1.945,2.04558
-0.0297268,0.628936,1.934,2.03391
-0.0234495,0.628936,1.934,2.03383
-0.0171722,0.628936,1.934,2.03377
-0.0108949,0.628936,1.934,2.03372
-0.00461764,0.628936,1.934,2.0337
0.00165021,0.625359,1.923,2.02213
0.00789179,0.625359,1.923,2.02214
0.0141334,0.625359,1.923,2.02218
0.0202584,0.621781,1.912,2.01066
0.0264643,0.621781,1.912,2.01074
0.0326702,0.621781,1.912,2.01083
0.0386727,0.618529,1.902,2.00042
0.0448461,0.618529,1.902,2.00055
0.0510195,0.618529,1.902,2.0007
0.057193,0.618529,1.902,2.00086
0.0629999,0.614952,1.891,1.98948
0.0691376,0.614952,1.891,1.98968
0.0752753,0.614952,1.891,1.9899
0.0814131,0.614952,1.891,1.99014
0.0875508,0.614952,1.891,1.99041
0.0936885,0.614952,1.891,1.99068
0.0998262,0.614952,1.891,1.99098
0.10658,0.618529,1.902,2.00288
0.112754,0.618529,1.902,2.00322
0.118927,0.618529,1.902,2.00358
0.125101,0.618529,1.902,2.00395
0.131274,0.618529,1.902,2.00435
0.137447,0.618529,1.902,2.00476
0.143621,0.618529,1.902,2.0052
0.150582,0.621781,1.912,2.01619
0.156788,0.621781,1.912,2.01667
0.162994,0.621781,1.912,2.01716
0.169199,0.621781,1.912,2.01767
0.176414,0.625359,1.923,2.02981
0.182656,0.625359,1.923,2.03036
0.188898,0.625359,1.923,2.03093
0.195139,0.625359,1.923,2.03152
0.202533,0.628936,1.934,2.04376
0.20881,0.628936,1.934,2.04439
0.216311,0.632513,1.945,2.05667
0.222624,0.632513,1.945,2.05734
0.228937,0.632513,1.945,2.05804
0.23658,0.63609,1.956,2.07039
0.242929,0.63609,1.956,2.07113
0.249277,0.63609,1.956,2.07188
0.258632,0.64357,1.979,2.09702
0.265055,0.64357,1.979,2.09783
0.271479,0.64357,1.979,2.09865
0.279447,0.647147,1.99,2.11116
0.28763,0.651049,2.002,2.12476
0.295891,0.654952,2.014,2.13839
0.302428,0.654952,2.014,2.1393
0.310806,0.658854,2.026,2.15299
0.317381,0.658854,2.026,2.15395
0.323957,0.658854,2.026,2.15493
0.334449,0.666659,2.05,2.18147
0.343099,0.670561,2.062,2.19527
0.349792,0.670561,2.062,2.19633
0.356485,0.670561,2.062,2.1974
0.365467,0.674789,2.075,2.21236
0.374355,0.678691,2.087,2.22628
0.381128,0.678691,2.087,2.22743
0.387902,0.678691,2.087,2.2286
0.397135,0.682919,2.1,2.24368
0.403951,0.682919,2.1,2.2449
0.410767,0.682919,2.1,2.24613
0.417583,0.682919,2.1,2.24739
0.424399,0.682919,2.1,2.24866
0.431215,0.682919,2.1,2.24996
0.438031,0.682919,2.1,2.25128
0.447601,0.687147,2.113,2.26656
0.454459,0.687147,2.113,2.26792
0.458479,0.682919,2.1,2.25535
0.465295,0.682919,2.1,2.25674
0.472112,0.682919,2.1,2.25816
0.475963,0.678691,2.087,2.2456
0.482737,0.678691,2.087,2.24705
0.489511,0.678691,2.087,2.24851
0.496284,0.678691,2.087,2.25
0.503058,0.678691,2.087,2.2515
0.503725,0.670561,2.062,2.22604
0.507447,0.666659,2.05,2.2146
0.514101,0.666659,2.05,2.21613
0.517707,0.662757,2.038,2.2047
0.518147,0.654952,2.014,2.18028
0.521558,0.651049,2.002,2.16885
0.528056,0.651049,2.002,2.17042
0.531349,0.647147,1.99,2.15899
0.534836,0.64357,1.979,2.14864
0.541259,0.64357,1.979,2.15025
0.547682,0.64357,1.979,2.15188
0.550746,0.639667,1.967,2.14046
0.55713,0.639667,1.967,2.14212
0.560363,0.63609,1.956,2.1318
0.566712,0.63609,1.956,2.13347
0.573061,0.63609,1.956,2.13517
0.576151,0.632513,1.945,2.12486
0.582464,0.632513,1.945,2.12658
0.592107,0.63609,1.956,2.14036
0.59509,0.632513,1.945,2.13008
0.598002,0.628936,1.934,2.11979
0.604279,0.628936,1.934,2.12157
0.610556,0.628936,1.934,2.12337
0.613325,0.625359,1.923,2.1131
0.619567,0.625359,1.923,2.11492
0.625808,0.625359,1.923,2.11675
0.625148,0.618529,1.902,2.09547
0.631321,0.618529,1.902,2.09732
0.637494,0.618529,1.902,2.09919
0.643668,0.618529,1.902,2.10107
0.646083,0.614952,1.891,2.09081
0.652221,0.614952,1.891,2.09271
0.658358,0.614952,1.891,2.09463
0.664496,0.614952,1.891,2.09657
0.670634,0.614952,1.891,2.09852
0.676772,0.614952,1.891,2.10049
0.682909,0.614952,1.891,2.10248
0.689047,0.614952,1.891,2.10448
0.695185,0.614952,1.891,2.1065
0.701322,0.614952,1.891,2.10853
0.70746,0.614952,1.891,2.11058
0.713598,0.614952,1.891,2.11265
0.715929,0.6117,1.881,2.10354
0.722035,0.6117,1.881,2.10563
0.72814,0.6117,1.881,2.10773
0.734245,0.6117,1.881,2.10985
0.74035,0.6117,1.881,2.11198
0.746456,0.6117,1.881,2.11413
0.752561,0.6117,1.881,2.11629
0.754633,0.608448,1.871,2.10721
0.760706,0.608448,1.871,2.10939
0.766779,0.608448,1.871,2.11159
0.768721,0.605196,1.861,2.1025
0.774761,0.605196,1.861,2.10472
0.780801,0.605196,1.861,2.10695
0.786842,0.605196,1.861,2.10919
0.792882,0.605196,1.861,2.11146
0.798922,0.605196,1.861,2.11373
0.800205,0.601619,1.85,2.10351
0.806209,0.601619,1.85,2.10581
0.812214,0.601619,1.85,2.10811
0.814238,0.598692,1.841,2.10017
0.820214,0.598692,1.841,2.10249
0.830228,0.601619,1.85,2.11512
0.836233,0.601619,1.85,2.11748
0.83814,0.598692,1.841,2.10955
0.844115,0.598692,1.841,2.11193
0.854247,0.601619,1.85,2.12466
0.860251,0.601619,1.85,2.12708
0.871407,0.605196,1.861,2.14218
0.877447,0.605196,1.861,2.14464
0.878265,0.601619,1.85,2.13443
0.88427,0.601619,1.85,2.13691
0.895568,0.605196,1.861,2.15212
0.901608,0.605196,1.861,2.15464
0.907649,0.605196,1.861,2.15718
0.913689,0.605196,1.861,2.15972
0.919729,0.605196,1.861,2.16229
0.92577,0.605196,1.861,2.16486
0.93181,0.605196,1.861,2.16745
0.93785,0.605196,1.861,2.17006
0.943891,0.605196,1.861,2.17267
0.949931,0.605196,1.861,2.17531
0.955971,0.605196,1.861,2.17795
0.962012,0.605196,1.861,2.18061
0.968052,0.605196,1.861,2.18328
0.979327,0.608448,1.871,2.19771
0.985399,0.608448,1.871,2.20042
0.991472,0.608448,1.871,2.20315
0.997545,0.608448,1.871,2.20589
1.00898,0.6117,1.881,2.22045
1.01509,0.6117,1.881,2.22323
1.02662,0.614952,1.891,2.23786
1.03276,0.614952,1.891,2.24068
1.0389,0.614952,1.891,2.24351
1.05111,0.618529,1.902,2.25943
1.05729,0.618529,1.902,2.26231
1.06346,0.618529,1.902,2.2652
1.07526,0.621781,1.912,2.28003
1.08146,0.621781,1.912,2.28296
1.09393,0.625359,1.923,2.29906
1.10017,0.625359,1.923,2.30204
1.10641,0.625359,1.923,2.30503
1.11902,0.628936,1.934,2.32123
1.12529,0.628936,1.934,2.32426
1.13157,0.628936,1.934,2.32731
1.13785,0.628936,1.934,2.33037
1.13762,0.625359,1.923,2.32017
1.14386,0.625359,1.923,2.32323
1.15668,0.628936,1.934,2.33962
1.16296,0.628936,1.934,2.34273
1.16923,0.628936,1.934,2.34585
1.17551,0.628936,1.934,2.34899
1.18179,0.628936,1.934,2.35214
1.18807,0.628936,1.934,2.3553
1.19434,0.628936,1.934,2.35847
1.20062,0.628936,1.934,2.36165
1.2069,0.628936,1.934,2.36485
1.22698,0.63609,1.956,2.395
1.23332,0.63609,1.956,2.39826
1.23967,0.63609,1.956,2.40153
1.25303,0.639667,1.967,2.41834
1.25941,0.639667,1.967,2.42165
1.2658,0.639667,1.967,2.42498
1.27218,0.639667,1.967,2.42831
1.27857,0.639667,1.967,2.43167
1.28495,0.639667,1.967,2.43503
1.28411,0.63609,1.956,2.42477
1.29046,0.63609,1.956,2.42814
1.3041,0.639667,1.967,2.44519
1.31049,0.639667,1.967,2.4486
1.31687,0.639667,1.967,2.45202
1.32326,0.639667,1.967,2.45546
1.32221,0.63609,1.956,2.44515
1.32855,0.63609,1.956,2.44859
-1.6608,0.786296,2.394,3.0179
-1.65303,0.786296,2.394,3.01363
-1.64526,0.786296,2.394,3.00938
-1.62586,0.780712,2.377,2.9838
-1.61814,0.780712,2.377,2.9796
-1.61043,0.780712,2.377,2.97542
-1.60271,0.780712,2.377,2.97125
-1.595,0.780712,2.377,2.9671
-1.5766,0.775457,2.361,2.94301
-1.56893,0.775457,2.361,2.93891
-1.57185,0.780712,2.377,2.95472
-1.55361,0.775457,2.361,2.93076
-1.54594,0.775457,2.361,2.9267
-1.53828,0.775457,2.361,2.92266
-1.50987,0.764947,2.329,2.87908
-1.50231,0.764947,2.329,2.87512
-1.49475,0.764947,2.329,2.87118
-1.48719,0.764947,2.329,2.86725
-1.46947,0.759692,2.313,2.84367
-1.45248,0.754765,2.298,2.82138
-1.44502,0.754765,2.298,2.81755
-1.42756,0.74951,2.282,2.79414
-1.42015,0.74951,2.282,2.79036
-1.41274,0.74951,2.282,2.7866
-1.3961,0.744583,2.267,2.76456
-1.38874,0.744583,2.267,2.76085
-1.38138,0.744583,2.267,2.75716
-1.37402,0.744583,2.267,2.75348
-1.35762,0.739657,2.252,2.73162
-1.35031,0.739657,2.252,2.72799
-1.343,0.739657,2.252,2.72438
-1.3268,0.73473,2.237,2.70266
-1.31128,0.730132,2.223,2.68221
-1.30406,0.730132,2.223,2.67869
-1.29685,0.730132,2.223,2.67519
-1.27281,0.720607,2.194,2.63684
-1.26569,0.720607,2.194,2.63341
-1.25857,0.720607,2.194,2.63
-1.24346,0.716009,2.18,2.60984
-1.23638,0.716009,2.18,2.60648
-1.22931,0.716009,2.18,2.60313
-1.22223,0.716009,2.18,2.59979
-1.20791,0.711739,2.167,2.58099
-1.20088,0.711739,2.167,2.57771
-1.19384,0.711739,2.167,2.57444
-1.18681,0.711739,2.167,2.57118
-1.17978,0.711739,2.167,2.56794
-1.17274,0.711739,2.167,2.56472
-1.16571,0.711739,2.167,2.56151
-1.15868,0.711739,2.167,2.55832
-1.15164,0.711739,2.167,2.55514
-1.14461,0.711739,2.167,2.55198
-1.13757,0.711739,2.167,2.54883
-1.13054,0.711739,2.167,2.5457
-1.10951,0.702871,2.14,2.5109
-1.10256,0.702871,2.14,2.50784
-1.09562,0.702871,2.14,2.5048
-1.08155,0.698273,2.126,2.4854
-1.07465,0.698273,2.126,2.4824
-1.08131,0.707141,2.153,2.51091
-1.06783,0.702871,2.14,2.49277
-1.05395,0.698273,2.126,2.47351
-1.04705,0.698273,2.126,2.47058
-1.04015,0.698273,2.126,2.46766
-1.02693,0.694003,2.113,2.44969
-1.02007,0.694003,2.113,2.44682
-1.01321,0.694003,2.113,2.44397
-1.00016,0.689733,2.1,2.42612
-0.993345,0.689733,2.1,2.42332
-0.986529,0.689733,2.1,2.42053
-0.96805,0.681522,2.075,2.38898
-0.955292,0.677252,2.062,2.37131
-0.9486,0.677252,2.062,2.36862
-0.941907,0.677252,2.062,2.36595
-0.935214,0.677252,2.062,2.36329
-0.928521,0.677252,2.062,2.36065
-0.916464,0.673311,2.05,2.3443
-0.904485,0.66937,2.038,2.328
-0.89787,0.66937,2.038,2.32544
-0.891255,0.66937,2.038,2.32289
-0.88464,0.66937,2.038,2.32036
-0.878025,0.66937,2.038,2.31785
-0.87141,0.66937,2.038,2.31535
-0.864795,0.66937,2.038,2.31287
-0.858181,0.66937,2.038,2.31041
-0.851566,0.66937,2.038,2.30796
-0.844951,0.66937,2.038,2.30552
-0.838336,0.66937,2.038,2.30311
-0.831721,0.66937,2.038,2.30071
-0.825106,0.66937,2.038,2.29833
-0.818492,0.66937,2.038,2.29596
-0.811877,0.66937,2.038,2.29361
-0.805262,0.66937,2.038,2.29128
-0.798647,0.66937,2.038,2.28896
-0.792032,0.66937,2.038,2.28666
-0.790042,0.673311,2.05,2.29783
-0.783388,0.673311,2.05,2.29555
-0.776734,0.673311,2.05,2.29329
-0.770081,0.673311,2.05,2.29104
-0.763427,0.673311,2.05,2.28881
-0.756773,0.673311,2.05,2.2866
-0.750119,0.673311,2.05,2.28441
-0.743465,0.673311,2.05,2.28223
-0.736812,0.673311,2.05,2.28007
-0.730158,0.673311,2.05,2.27793
-0.723504,0.673311,2.05,2.27581
-0.71685,0.673311,2.05,2.2737
-0.710196,0.673311,2.05,2.27161
-0.703543,0.673311,2.05,2.26954
-0.696889,0.673311,2.05,2.26749
-0.690235,0.673311,2.05,2.26545
-0.683581,0.673311,2.05,2.26343
-0.676928,0.673311,2.05,2.26143
-0.670274,0.673311,2.05,2.25945
-0.66362,0.673311,2.05,2.25749
-0.656966,0.673311,2.05,2.25554
-0.650312,0.673311,2.05,2.25361
-0.643659,0.673311,2.05,2.2517
-0.637005,0.673311,2.05,2.24981
-0.626661,0.66937,2.038,2.23477
-0.620046,0.66937,2.038,2.23293
-0.613431,0.66937,2.038,2.2311
-0.603244,0.665428,2.026,2.21616
-0.596668,0.665428,2.026,2.21438
-0.586597,0.661487,2.014,2.19951
-0.58006,0.661487,2.014,2.19778
-0.573523,0.661487,2.014,2.19606
-0.566986,0.661487,2.014,2.19436
-0.560449,0.661487,2.014,2.19268
-0.550612,0.657546,2.002,2.17797
-0.544114,0.657546,2.002,2.17633
-0.537616,0.657546,2.002,2.17472
-0.527934,0.653604,1.99,2.1601
-0.521475,0.653604,1.99,2.15853
-0.515016,0.653604,1.99,2.15697
-0.508557,0.653604,1.99,2.15544
-0.502098,0.653604,1.99,2.15393
-0.492899,0.649991,1.979,2.14053
-0.486476,0.649991,1.979,2.13906
-0.480052,0.649991,1.979,2.13761
-0.470757,0.64605,1.967,2.12322
-0.464373,0.64605,1.967,2.12182
-0.457988,0.64605,1.967,2.12043
-0.451604,0.64605,1.967,2.11906
-0.44522,0.64605,1.967,2.11771
-0.438835,0.64605,1.967,2.11638
-0.430032,0.642437,1.956,2.10323
-0.423684,0.642437,1.956,2.10194
-0.417335,0.642437,1.956,2.10067
-0.410986,0.642437,1.956,2.09942
-0.402362,0.638824,1.945,2.08639
-0.396049,0.638824,1.945,2.08518
-0.387532,0.635211,1.934,2.0722
-0.381255,0.635211,1.934,2.07104
-0.374977,0.635211,1.934,2.06989
-0.366603,0.631598,1.923,2.057
-0.360361,0.631598,1.923,2.0559
-0.35412,0.631598,1.923,2.05481
-0.345888,0.627986,1.912,2.042
-0.339682,0.627986,1.912,2.04095
-0.333477,0.627986,1.912,2.03993
-0.325559,0.624701,1.902,2.02826
-0.319386,0.624701,1.902,2.02728
-0.313212,0.624701,1.902,2.02632
-0.307039,0.624701,1.902,2.02537
-0.300865,0.624701,1.902,2.02444
-0.294692,0.624701,1.902,2.02354
-0.288519,0.624701,1.902,2.02265
-0.282345,0.624701,1.902,2.02178
-0.276172,0.624701,1.902,2.02092
-0.269998,0.624701,1.902,2.02009
-0.263825,0.624701,1.902,2.01927
-0.257651,0.624701,1.902,2.01847
-0.251478,0.624701,1.902,2.0177
-0.245305,0.624701,1.902,2.01694
-0.239131,0.624701,1.902,2.01619
-0.232958,0.624701,1.902,2.01547
-0.227977,0.627986,1.912,2.02536
-0.221771,0.627986,1.912,2.02467
-0.215565,0.627986,1.912,2.024
-0.209359,0.627986,1.912,2.02335
-0.203153,0.627986,1.912,2.02272
-0.196947,0.627986,1.912,2.0221
-0.190741,0.627986,1.912,2.02151
-0.184536,0.627986,1.912,2.02093
-0.17833,0.627986,1.912,2.02037
-0.173114,0.631598,1.923,2.03146
-0.166872,0.631598,1.923,2.03093
-0.160631,0.631598,1.923,2.03043
-0.154389,0.631598,1.923,2.02995
-0.148148,0.631598,1.923,2.02948
-0.141906,0.631598,1.923,2.02904
-0.135665,0.631598,1.923,2.02861
-0.129423,0.631598,1.923,2.0282
-0.123181,0.631598,1.923,2.02781
-0.11694,0.631598,1.923,2.02744
-0.111331,0.635211,1.934,2.03869
-0.105054,0.635211,1.934,2.03835
-0.0987769,0.635211,1.934,2.03804
-0.0924996,0.635211,1.934,2.03775
-0.0862223,0.635211,1.934,2.03747
-0.079945,0.635211,1.934,2.03721
-0.0736678,0.635211,1.934,2.03698
-0.0673905,0.635211,1.934,2.03676
-0.0611132,0.635211,1.934,2.03656
-0.054524,0.631598,1.923,2.0248
-0.0482824,0.631598,1.923,2.02464
-0.0420409,0.631598,1.923,2.0245
-0.0355945,0.627986,1.912,2.0128
-0.0293886,0.627986,1.912,2.0127
-0.0231827,0.627986,1.912,2.01262
-0.0169769,0.627986,1.912,2.01256
-0.0107147,0.624701,1.902,2.00199
-0.00454124,0.624701,1.902,2.00197
0.00163218,0.624701,1.902,2.00196
0.00776046,0.621088,1.891,1.9904
0.0138982,0.621088,1.891,1.99043
0.0199299,0.617804,1.881,1.97996
0.0260352,0.617804,1.881,1.98003
0.0321405,0.617804,1.881,1.98012
0.0382457,0.617804,1.881,1.98023
0.044351,0.617804,1.881,1.98036
0.0510195,0.624701,1.902,2.00261
0.057193,0.624701,1.902,2.00278
0.0629999,0.621088,1.891,1.99138
0.0691376,0.621088,1.891,1.99159
0.0752753,0.621088,1.891,1.99181
0.0814131,0.621088,1.891,1.99205
0.0875508,0.621088,1.891,1.99231
0.0936885,0.621088,1.891,1.99259
0.0998262,0.621088,1.891,1.99289
0.10658,0.624701,1.902,2.0048
0.112754,0.624701,1.902,2.00514
0.118927,0.624701,1.902,2.00549
0.125101,0.624701,1.902,2.00587
0.131274,0.624701,1.902,2.00626
0.137447,0.624701,1.902,2.00668
0.143621,0.624701,1.902,2.00711
0.150582,0.627986,1.912,2.01811
0.156788,0.627986,1.912,2.01859
0.162994,0.627986,1.912,2.01908
0.169199,0.627986,1.912,2.01959
0.176414,0.631598,1.923,2.03174
0.182656,0.631598,1.923,2.03229
0.188898,0.631598,1.923,2.03286
0.195139,0.631598,1.923,2.03345
0.202533,0.635211,1.934,2.0457
0.20881,0.635211,1.934,2.04633
0.216311,0.638824,1.945,2.05862
0.222624,0.638824,1.945,2.05929
0.228937,0.638824,1.945,2.05998
0.23658,0.642437,1.956,2.07235
0.242929,0.642437,1.956,2.07308
0.249277,0.642437,1.956,2.07384
0.258632,0.649991,1.979,2.099
0.265055,0.649991,1.979,2.09981
0.271479,0.649991,1.979,2.10063
0.279447,0.653604,1.99,2.11315
0.28763,0.657546,2.002,2.12676
0.295891,0.661487,2.014,2.1404
0.302428,0.661487,2.014,2.14131
0.310806,0.665428,2.026,2.15501
0.317381,0.665428,2.026,2.15597
0.323957,0.665428,2.026,2.15695
0.334449,0.673311,2.05,2.18351
0.343099,0.677252,2.062,2.19732
0.349792,0.677252,2.062,2.19838
0.356485,0.677252,2.062,2.19945
0.365467,0.681522,2.075,2.21442
0.374355,0.685463,2.087,2.22836
0.381128,0.685463,2.087,2.2295
0.387902,0.685463,2.087,2.23067
0.394676,0.685463,2.087,2.23186
0.40145,0.685463,2.087,2.23307
0.408224,0.685463,2.087,2.2343
0.417583,0.689733,2.1,2.24947
0.424399,0.689733,2.1,2.25074
0.431215,0.689733,2.1,2.25204
0.438031,0.689733,2.1,2.25335
0.447601,0.694003,2.113,2.26865
0.451663,0.689733,2.1,2.25604
0.458479,0.689733,2.1,2.25742
0.465295,0.689733,2.1,2.25881
0.472112,0.689733,2.1,2.26023
0.475963,0.685463,2.087,2.24766
0.482737,0.685463,2.087,2.2491
0.489511,0.685463,2.087,2.25057
0.493431,0.681522,2.075,2.2391
0.500166,0.681522,2.075,2.24059
0.503725,0.677252,2.062,2.22806
0.507447,0.673311,2.05,2.21661
0.514101,0.673311,2.05,2.21814
0.517707,0.66937,2.038,2.2067
0.518147,0.661487,2.014,2.18226
0.521558,0.657546,2.002,2.1708
0.528056,0.657546,2.002,2.17237
0.531349,0.653604,1.99,2.16093
0.534836,0.649991,1.979,2.15058
0.541259,0.649991,1.979,2.15218
0.544361,0.64605,1.967,2.14075
0.544586,0.638824,1.945,2.11842
0.550899,0.638824,1.945,2.12005
0.557212,0.638824,1.945,2.1217
0.557151,0.631598,1.923,2.09935
0.563392,0.631598,1.923,2.10101
0.569634,0.631598,1.923,2.1027
0.572581,0.627986,1.912,2.09236
0.578787,0.627986,1.912,2.09406
0.584993,0.627986,1.912,2.09579
0.588107,0.624701,1.902,2.08656
0.590843,0.621088,1.891,2.07623
0.596981,0.621088,1.891,2.07798
0.603119,0.621088,1.891,2.07976
0.606035,0.617804,1.881,2.07054
0.61214,0.617804,1.881,2.07233
0.618245,0.617804,1.881,2.07414
0.617712,0.611235,1.861,2.0539
0.623752,0.611235,1.861,2.05572
0.629793,0.611235,1.861,2.05756
0.635833,0.611235,1.861,2.05942
0.641873,0.611235,1.861,2.06129
0.647914,0.611235,1.861,2.06318
0.653954,0.611235,1.861,2.06509
0.659994,0.611235,1.861,2.06701
0.666035,0.611235,1.861,2.06894
0.672075,0.611235,1.861,2.0709
0.678116,0.611235,1.861,2.07287
0.684156,0.611235,1.861,2.07485
0.690196,0.611235,1.861,2.07685
0.692121,0.607622,1.85,2.06658
0.698126,0.607622,1.85,2.06859
0.704131,0.607622,1.85,2.07063
0.710135,0.607622,1.85,2.07268
0.720398,0.611235,1.861,2.08708
0.722144,0.607622,1.85,2.07682
0.728149,0.607622,1.85,2.07892
0.738519,0.611235,1.861,2.0934
0.744559,0.611235,1.861,2.09554
0.746163,0.607622,1.85,2.0853
0.748508,0.604666,1.841,2.0773
0.754484,0.604666,1.841,2.07946
0.760459,0.604666,1.841,2.08163
0.766435,0.604666,1.841,2.08382
0.77241,0.604666,1.841,2.08603
0.778386,0.604666,1.841,2.08825
0.780101,0.601382,1.831,2.07913
0.786043,0.601382,1.831,2.08137
0.791986,0.601382,1.831,2.08362
0.797929,0.601382,1.831,2.08588
0.803872,0.601382,1.831,2.08816
0.805393,0.598097,1.821,2.07904
0.811303,0.598097,1.821,2.08134
0.817214,0.598097,1.821,2.08365
0.823124,0.598097,1.821,2.08598
0.829035,0.598097,1.821,2.08832
0.834945,0.598097,1.821,2.09067
0.840856,0.598097,1.821,2.09304
0.846766,0.598097,1.821,2.09542
0.857359,0.601382,1.831,2.10933
0.863302,0.601382,1.831,2.11176
0.869245,0.601382,1.831,2.11419
0.875188,0.601382,1.831,2.11664
0.881131,0.601382,1.831,2.11911
0.887074,0.601382,1.831,2.12158
0.893017,0.601382,1.831,2.12408
0.90387,0.604666,1.841,2.1382
0.909845,0.604666,1.841,2.14073
0.91582,0.604666,1.841,2.14328
0.921796,0.604666,1.841,2.14584
0.927771,0.604666,1.841,2.14841
0.933747,0.604666,1.841,2.151
0.939722,0.604666,1.841,2.1536
0.945698,0.604666,1.841,2.15621
0.951673,0.604666,1.841,2.15884
0.957649,0.604666,1.841,2.16148
0.968335,0.607622,1.85,2.17471
0.974339,0.607622,1.85,2.17739
0.986173,0.611235,1.861,2.19305
0.992213,0.611235,1.861,2.19577
0.998254,0.611235,1.861,2.19851
1.00429,0.611235,1.861,2.20126
1.01576,0.614519,1.871,2.21586
1.02184,0.614519,1.871,2.21865
1.02791,0.614519,1.871,2.22146
1.03951,0.617804,1.881,2.23616
1.05117,0.621088,1.891,2.25091
1.05731,0.621088,1.891,2.25378
1.07526,0.627986,1.912,2.28173
1.08146,0.627986,1.912,2.28466
1.09393,0.631598,1.923,2.30077
1.10017,0.631598,1.923,2.30374
1.10641,0.631598,1.923,2.30673
1.11902,0.635211,1.934,2.32294
1.12529,0.635211,1.934,2.32597
1.13157,0.635211,1.934,2.32901
1.13785,0.635211,1.934,2.33207
1.13762,0.631598,1.923,2.32186
1.14386,0.631598,1.923,2.32492
1.15668,0.635211,1.934,2.34132
1.16296,0.635211,1.934,2.34442
1.16923,0.635211,1.934,2.34754
1.17551,0.635211,1.934,2.35068
1.18179,0.635211,1.934,2.35382
1.18807,0.635211,1.934,2.35698
1.19434,0.635211,1.934,2.36015
1.20062,0.635211,1.934,2.36333
1.2069,0.635211,1.934,2.36653
1.22698,0.642437,1.956,2.39669
1.23332,0.642437,1.956,2.39995
1.23967,0.642437,1.956,2.40322
1.25303,0.64605,1.967,2.42003
1.25941,0.64605,1.967,2.42334
1.2658,0.64605,1.967,2.42667
1.27218,0.64605,1.967,2.43
1.27857,0.64605,1.967,2.43335
1.28495,0.64605,1.967,2.43671
1.28411,0.642437,1.956,2.42644
1.29046,0.642437,1.956,2.42981
1.3041,0.64605,1.967,2.44687
1.31049,0.64605,1.967,2.45028
1.31687,0.64605,1.967,2.4537
1.32326,0.64605,1.967,2.45713
1.32221,0.642437,1.956,2.44681
1.32855,0.642437,1.956,2.45025
-1.6608,0.794064,2.394,3.01994
-1.64129,0.788425,2.377,2.99426
-1.63357,0.788425,2.377,2.99003
-1.61491,0.783118,2.361,2.96573
-1.60725,0.783118,2.361,2.96156
-1.59959,0.783118,2.361,2.95741
-1.59192,0.783118,2.361,2.95327
-1.58426,0.783118,2.361,2.94915
-1.5766,0.783118,2.361,2.94504
-1.56893,0.783118,2.361,2.94094
-1.57185,0.788425,2.377,2.95677
-1.55361,0.783118,2.361,2.9328
-1.54594,0.783118,2.361,2.92874
-1.53828,0.783118,2.361,2.92471
-1.50987,0.772504,2.329,2.8811
-1.50231,0.772504,2.329,2.87714
-1.49475,0.772504,2.329,2.8732
-1.48719,0.772504,2.329,2.86928
-1.46947,0.767197,2.313,2.84568
-1.45248,0.762222,2.298,2.82338
-1.44502,0.762222,2.298,2.81955
-1.42756,0.756915,2.282,2.79613
-1.42015,0.756915,2.282,2.79236
-1.41274,0.756915,2.282,2.7886
-1.3961,0.751939,2.267,2.76655
-1.38874,0.751939,2.267,2.76284
-1.38138,0.751939,2.267,2.75915
-1.37402,0.751939,2.267,2.75547
