0.939885,-0.00614038,2.428,2.60358
0.947766,-0.00614038,2.428,2.60643
0.955646,-0.00614038,2.428,2.60931
0.963527,-0.00614038,2.428,2.6122
0.964606,-0.00609739,2.411,2.59681
0.972432,-0.00609739,2.411,2.59973
0.987169,-0.00614038,2.428,2.62102
0.99505,-0.00614038,2.428,2.62399
1.00293,-0.00614038,2.428,2.62699
1.01789,-0.00618338,2.445,2.64843
1.03338,-0.0062289,2.463,2.67101
1.04137,-0.0062289,2.463,2.67411
1.05703,-0.00627442,2.481,2.6968
1.07281,-0.00631994,2.499,2.71955
1.08093,-0.00631994,2.499,2.72276
1.11344,-0.00646156,2.555,2.78708
1.13008,-0.00650962,2.574,2.81115
1.15568,-0.00660825,2.613,2.85717
1.16416,-0.00660825,2.613,2.86061
1.19104,-0.00671193,2.654,2.90901
1.20915,-0.00676504,2.675,2.93559
1.21783,-0.00676504,2.675,2.93918
1.23614,-0.00681815,2.696,2.96589
1.25459,-0.00687126,2.717,2.99268
1.26341,-0.00687126,2.717,2.99639
1.28253,-0.0069269,2.739,3.02441
1.30179,-0.00698254,2.761,3.05251
1.31075,-0.00698254,2.761,3.05634
1.31971,-0.00698254,2.761,3.0602
1.32867,-0.00698254,2.761,3.06407
1.34829,-0.00703817,2.783,3.09242
1.35733,-0.00703817,2.783,3.09636
1.37765,-0.00709634,2.806,3.12596
1.39813,-0.00715451,2.829,3.15564
1.40731,-0.00715451,2.829,3.15972
1.42851,-0.0072152,2.853,3.19066
1.44986,-0.0072759,2.877,3.22169
1.47137,-0.00733659,2.901,3.25281
1.48079,-0.00733659,2.901,3.25708
1.50305,-0.00739982,2.926,3.28948
1.53891,-0.0075288,2.977,3.35124
1.54857,-0.0075288,2.977,3.35569
1.58598,-0.00766283,3.03,3.41998
1.61003,-0.00773112,3.057,3.45507
1.61995,-0.00773112,3.057,3.4597
1.64427,-0.0077994,3.084,3.49496
1.65428,-0.0077994,3.084,3.49968
1.6794,-0.00787021,3.112,3.53624
1.6895,-0.00787021,3.112,3.54105
1.71544,-0.00794355,3.141,3.57892
1.72563,-0.00794355,3.141,3.58382
1.73583,-0.00794355,3.141,3.58874
1.7299,-0.00787021,3.112,3.5605
1.74,-0.00787021,3.112,3.56542
1.75011,-0.00787021,3.112,3.57036
1.76021,-0.00787021,3.112,3.57532
1.77031,-0.00787021,3.112,3.58031
1.76439,-0.0077994,3.084,3.55305
1.7744,-0.0077994,3.084,3.55803
1.78441,-0.0077994,3.084,3.56304
1.77871,-0.00773112,3.057,3.53682
1.78863,-0.00773112,3.057,3.54182
1.79855,-0.00773112,3.057,3.54684
1.80848,-0.00773112,3.057,3.55189
1.80234,-0.00766283,3.03,3.52553
1.79602,-0.00759455,3.003,3.49911
1.80577,-0.00759455,3.003,3.50412
1.81552,-0.00759455,3.003,3.50916
1.80946,-0.0075288,2.977,3.48378
1.81912,-0.0075288,2.977,3.48881
1.81281,-0.00746304,2.951,3.46334
1.80695,-0.00739982,2.926,3.43898
1.81645,-0.00739982,2.926,3.44398
1.81035,-0.00733659,2.901,3.41953
1.80471,-0.0072759,2.877,3.3962
1.81405,-0.0072759,2.877,3.40117
1.80817,-0.0072152,2.853,3.37774
1.80215,-0.00715451,2.829,3.35425
1.78187,-0.00703817,2.783,3.30458
1.79091,-0.00703817,2.783,3.30945
1.78571,-0.00698254,2.761,3.28815
1.76607,-0.00687126,2.717,3.24055
1.77489,-0.00687126,2.717,3.24536
1.75614,-0.00676504,2.675,3.19995
1.75097,-0.00671193,2.654,3.17957
1.75958,-0.00671193,2.654,3.18432
1.74088,-0.00660825,2.613,3.13982
1.73597,-0.00655767,2.593,3.12046
1.74439,-0.00655767,2.593,3.12515
1.72711,-0.00646156,2.555,3.08399
1.7225,-0.00641351,2.536,3.06567
-1.90013,0.00196071,2.739,3.33356
-1.87605,0.00194496,2.717,3.30177
-1.86723,0.00194496,2.717,3.29676
-1.85842,0.00194496,2.717,3.29178
-1.8496,0.00194496,2.717,3.28681
-1.84078,0.00194496,2.717,3.28185
-1.8178,0.00192993,2.696,3.25159
-1.80905,0.00192993,2.696,3.2467
-1.8003,0.00192993,2.696,3.24184
-1.79155,0.00192993,2.696,3.23698
-1.7828,0.00192993,2.696,3.23215
-1.77405,0.00192993,2.696,3.22733
-1.7653,0.00192993,2.696,3.22253
-1.75655,0.00192993,2.696,3.21774
-1.73418,0.00191489,2.675,3.18795
-1.7255,0.00191489,2.675,3.18323
-1.71682,0.00191489,2.675,3.17854
-1.72154,0.00192993,2.696,3.19877
-1.71279,0.00192993,2.696,3.19407
-1.70404,0.00192993,2.696,3.18939
-1.69529,0.00192993,2.696,3.18472
-1.68654,0.00192993,2.696,3.18007
-1.69086,0.00194496,2.717,3.20017
-1.68204,0.00194496,2.717,3.19552
-1.70032,0.00197646,2.761,3.24256
-1.70483,0.00199221,2.783,3.26367
-1.6958,0.00199221,2.783,3.25896
-1.70071,0.00200867,2.806,3.28117
-1.70547,0.00202514,2.829,3.30331
-1.69629,0.00202514,2.829,3.29858
-1.70142,0.00204232,2.853,3.32181
-1.70639,0.0020595,2.877,3.34498
-1.69705,0.0020595,2.877,3.34023
-1.67364,0.00204232,2.853,3.30767
-1.65037,0.00202514,2.829,3.27521
-1.64119,0.00202514,2.829,3.27059
-1.61874,0.00200867,2.806,3.23944
-1.5712,0.00196071,2.739,3.15766
-1.56231,0.00196071,2.739,3.15324
-1.54094,0.00194496,2.717,3.12356
-1.50844,0.00191489,2.675,3.071
-1.49976,0.00191489,2.675,3.06674
-1.47937,0.00189986,2.654,3.03846
-1.45912,0.00188483,2.633,3.01027
-1.43955,0.00187051,2.613,2.9833
-1.43107,0.00187051,2.613,2.97922
-1.42259,0.00187051,2.613,2.97515
-1.41411,0.00187051,2.613,2.97111
-1.40563,0.00187051,2.613,2.96708
-1.39715,0.00187051,2.613,2.96307
-1.3993,0.00188483,2.633,2.98173
-1.39075,0.00188483,2.633,2.97773
-1.3822,0.00188483,2.633,2.97375
-1.38461,0.00189986,2.654,2.99347
-1.376,0.00189986,2.654,2.9895
-1.36738,0.00189986,2.654,2.98554
-1.35877,0.00189986,2.654,2.98161
-1.33947,0.00188483,2.633,2.95413
-1.33093,0.00188483,2.633,2.95026
-1.30229,0.0018562,2.593,2.90166
-1.28439,0.00184259,2.574,2.87666
-1.27604,0.00184259,2.574,2.87294
-1.25833,0.00182899,2.555,2.84805
-1.24074,0.00181539,2.536,2.82325
-1.23251,0.00181539,2.536,2.81964
-1.20641,0.00178891,2.499,2.77497
-1.18967,0.00177602,2.481,2.75149
-1.18162,0.00177602,2.481,2.74802
-1.15654,0.00175025,2.445,2.70474
-1.1486,0.00175025,2.445,2.70135
-1.13274,0.00173808,2.428,2.67923
-1.12485,0.00173808,2.428,2.67591
-1.11697,0.00173808,2.428,2.67261
-1.10133,0.00172591,2.411,2.65063
-1.0935,0.00172591,2.411,2.64739
-1.08568,0.00172591,2.411,2.64417
-1.07785,0.00172591,2.411,2.64096
-1.07003,0.00172591,2.411,2.63778
-1.0622,0.00172591,2.411,2.63461
-1.05437,0.00172591,2.411,2.63147
-1.04655,0.00172591,2.411,2.62834
-1.03872,0.00172591,2.411,2.62524
-1.0309,0.00172591,2.411,2.62215
-1.02307,0.00172591,2.411,2.61908
-1.01525,0.00172591,2.411,2.61604
-1.00032,0.00171374,2.394,2.59459
-0.992548,0.00171374,2.394,2.5916
-0.984778,0.00171374,2.394,2.58863
-0.977007,0.00171374,2.394,2.58569
-0.969237,0.00171374,2.394,2.58276
-0.961466,0.00171374,2.394,2.57986
-0.953696,0.00171374,2.394,2.57697
-0.939209,0.00170157,2.377,2.55583
-0.931494,0.00170157,2.377,2.553
-0.923778,0.00170157,2.377,2.5502
-0.916063,0.00170157,2.377,2.54741
-0.908348,0.00170157,2.377,2.54465
-0.900633,0.00170157,2.377,2.5419
-0.892918,0.00170157,2.377,2.53918
-0.885203,0.00170157,2.377,2.53648
-0.877488,0.00170157,2.377,2.53379
-0.869772,0.00170157,2.377,2.53113
-0.862057,0.00170157,2.377,2.52849
-0.854342,0.00170157,2.377,2.52587
-0.846627,0.00170157,2.377,2.52327
-0.838912,0.00170157,2.377,2.5207
-0.831197,0.00170157,2.377,2.51814
-0.823481,0.00170157,2.377,2.5156
-0.815766,0.00170157,2.377,2.51309
-0.808051,0.00170157,2.377,2.51059
-0.800336,0.00170157,2.377,2.50812
-0.792621,0.00170157,2.377,2.50567
-0.784906,0.00170157,2.377,2.50324
-0.777191,0.00170157,2.377,2.50083
-0.769475,0.00170157,2.377,2.49844
-0.76176,0.00170157,2.377,2.49608
-0.754045,0.00170157,2.377,2.49374
-0.751668,0.00171374,2.394,2.50923
-0.743897,0.00171374,2.394,2.50691
-0.736127,0.00171374,2.394,2.50462
-0.733529,0.00172591,2.411,2.52012
-0.725703,0.00172591,2.411,2.51785
-0.717878,0.00172591,2.411,2.51561
-0.710052,0.00172591,2.411,2.51338
-0.702227,0.00172591,2.411,2.51118
-0.699297,0.00173808,2.428,2.5267
-0.691417,0.00173808,2.428,2.52453
-0.688322,0.00175025,2.445,2.54004
-0.680386,0.00175025,2.445,2.5379
-0.67245,0.00175025,2.445,2.53579
-0.664514,0.00175025,2.445,2.53369
-0.656578,0.00175025,2.445,2.53162
-0.653418,0.00176313,2.463,2.5482
-0.645424,0.00176313,2.463,2.54616
-0.637429,0.00176313,2.463,2.54415
-0.629435,0.00176313,2.463,2.54216
-0.621441,0.00176313,2.463,2.54019
-0.613446,0.00176313,2.463,2.53825
-0.605452,0.00176313,2.463,2.53632
-0.601824,0.00177602,2.481,2.55295
-0.593771,0.00177602,2.481,2.55106
-0.585719,0.00177602,2.481,2.5492
-0.577666,0.00177602,2.481,2.54736
-0.569613,0.00177602,2.481,2.54555
-0.561561,0.00177602,2.481,2.54376
-0.557524,0.00178891,2.499,2.56044
-0.549413,0.00178891,2.499,2.55868
-0.5452,0.00180179,2.517,2.57537
-0.537031,0.00180179,2.517,2.57365
-0.528861,0.00180179,2.517,2.57196
-0.524622,0.00181539,2.536,2.5897
-0.516391,0.00181539,2.536,2.58804
-0.50816,0.00181539,2.536,2.58641
-0.503674,0.00182899,2.555,2.60417
-0.495381,0.00182899,2.555,2.60258
-0.487088,0.00182899,2.555,2.60102
-0.478795,0.00182899,2.555,2.59948
-0.474001,0.00184259,2.574,2.61728
-0.465647,0.00184259,2.574,2.61578
-0.457292,0.00184259,2.574,2.61431
-0.448938,0.00184259,2.574,2.61286
-0.440583,0.00184259,2.574,2.61144
-0.432229,0.00184259,2.574,2.61004
-0.423874,0.00184259,2.574,2.60867
-0.415519,0.00184259,2.574,2.60732
-0.407165,0.00184259,2.574,2.60601
-0.39881,0.00184259,2.574,2.60471
-0.390456,0.00184259,2.574,2.60345
-0.382101,0.00184259,2.574,2.60221
-0.370988,0.00182899,2.555,2.58179
-0.362695,0.00182899,2.555,2.58062
-0.354402,0.00182899,2.555,2.57946
-0.346109,0.00182899,2.555,2.57834
-0.337816,0.00182899,2.555,2.57724
-0.327073,0.00181539,2.536,2.55701
-0.318842,0.00181539,2.536,2.55597
-0.31061,0.00181539,2.536,2.55495
-0.300114,0.00180179,2.517,2.53483
-0.291944,0.00180179,2.517,2.53388
-0.283775,0.00180179,2.517,2.53295
-0.275605,0.00180179,2.517,2.53204
-0.267435,0.00180179,2.517,2.53117
-0.261223,0.00181539,2.536,2.54942
-0.252992,0.00181539,2.536,2.54859
-0.244761,0.00181539,2.536,2.54778
-0.236529,0.00181539,2.536,2.54701
-0.228298,0.00181539,2.536,2.54626
-0.220067,0.00181539,2.536,2.54553
-0.211836,0.00181539,2.536,2.54483
-0.203604,0.00181539,2.536,2.54416
-0.195373,0.00181539,2.536,2.54352
-0.188544,0.00182899,2.555,2.56195
-0.180251,0.00182899,2.555,2.56135
-0.171958,0.00182899,2.555,2.56078
-0.163665,0.00182899,2.555,2.56024
-0.155372,0.00182899,2.555,2.55972
-0.14708,0.00182899,2.555,2.55923
-0.138787,0.00182899,2.555,2.55877
-0.129523,0.00181539,2.536,2.53931
-0.121292,0.00181539,2.536,2.5389
-0.113061,0.00181539,2.536,2.53852
-0.105615,0.00182899,2.555,2.55718
-0.0973222,0.00182899,2.555,2.55685
-0.0890293,0.00182899,2.555,2.55655
-0.0807364,0.00182899,2.555,2.55628
-0.0729822,0.00184259,2.574,2.57504
-0.0646277,0.00184259,2.574,2.57481
-0.0562731,0.00184259,2.574,2.57462
-0.0479185,0.00184259,2.574,2.57445
-0.039564,0.00184259,2.574,2.5743
-0.0312094,0.00184259,2.574,2.57419
-0.0230235,0.0018562,2.593,2.5931
-0.0146073,0.0018562,2.593,2.59304
-0.00619107,0.0018562,2.593,2.59301
0.00222516,0.0018562,2.593,2.593
0.0106414,0.0018562,2.593,2.59302
0.0192046,0.00187051,2.613,2.61307
0.0274739,0.0018562,2.593,2.59315
0.0358901,0.0018562,2.593,2.59325
0.0443063,0.0018562,2.593,2.59338
0.0523362,0.00184259,2.574,2.57453
0.0606908,0.00184259,2.574,2.57472
0.0690454,0.00184259,2.574,2.57493
0.0773999,0.00184259,2.574,2.57516
0.0857545,0.00184259,2.574,2.57543
0.0934144,0.00182899,2.555,2.55671
0.101707,0.00182899,2.555,2.55702
0.11,0.00182899,2.555,2.55737
0.118293,0.00182899,2.555,2.55774
0.126586,0.00182899,2.555,2.55813
0.134879,0.00182899,2.555,2.55856
0.143172,0.00182899,2.555,2.55901
0.151465,0.00182899,2.555,2.55949
0.159758,0.00182899,2.555,2.55999
0.1693,0.00184259,2.574,2.57956
nan,nan,nan,NaN
nan,nan,nan,NaN
0.192929,0.00182899,2.555,2.56227
0.201222,0.00182899,2.555,2.56291
0.209515,0.00182899,2.555,2.56358
0.217808,0.00182899,2.555,2.56427
0.226101,0.00182899,2.555,2.56499
nan,nan,nan,NaN
0.240882,0.00181539,2.536,2.54742
0.249113,0.00181539,2.536,2.54821
0.257344,0.00181539,2.536,2.54902
0.265575,0.00181539,2.536,2.54987
0.273807,0.00181539,2.536,2.55074
nan,nan,nan,NaN
nan,nan,nan,NaN
nan,nan,nan,NaN
nan,nan,nan,NaN
nan,nan,nan,NaN
nan,nan,nan,NaN
nan,nan,nan,NaN
nan,nan,nan,NaN
nan,nan,nan,NaN
nan,nan,nan,NaN
nan,nan,nan,NaN
nan,nan,nan,NaN
nan,nan,nan,NaN
nan,nan,nan,NaN
nan,nan,nan,NaN
nan,nan,nan,NaN
nan,nan,nan,NaN
nan,nan,nan,NaN
nan,nan,nan,NaN
nan,nan,nan,NaN
nan,nan,nan,NaN
nan,nan,nan,NaN
nan,nan,nan,NaN
nan,nan,nan,NaN
nan,nan,nan,NaN
nan,nan,nan,NaN
nan,nan,nan,NaN
nan,nan,nan,NaN
nan,nan,nan,NaN
nan,nan,nan,NaN
nan,nan,nan,NaN
nan,nan,nan,NaN
nan,nan,nan,NaN
nan,nan,nan,NaN
nan,nan,nan,NaN
nan,nan,nan,NaN
nan,nan,nan,NaN
nan,nan,nan,NaN
nan,nan,nan,NaN
nan,nan,nan,NaN
nan,nan,nan,NaN
nan,nan,nan,NaN
nan,nan,nan,NaN
nan,nan,nan,NaN
0.634813,0.00178891,2.499,2.57837
0.642924,0.00178891,2.499,2.58038
nan,nan,nan,NaN
0.663894,0.00180179,2.517,2.60308
0.672064,0.00180179,2.517,2.60518
0.685368,0.00181539,2.536,2.62698
0.693599,0.00181539,2.536,2.62914
0.70183,0.00181539,2.536,2.63132
0.710062,0.00181539,2.536,2.63353
0.723674,0.00182899,2.555,2.65551
0.731967,0.00182899,2.555,2.65778
0.74026,0.00182899,2.555,2.66008
0.748553,0.00182899,2.555,2.6624
0.756846,0.00182899,2.555,2.66474
0.765139,0.00182899,2.555,2.66711
0.773432,0.00182899,2.555,2.6695
0.781725,0.00182899,2.555,2.67191
0.790018,0.00182899,2.555,2.67435
0.798311,0.00182899,2.555,2.67681
0.806603,0.00182899,2.555,2.6793
0.814896,0.00182899,2.555,2.68181
0.823189,0.00182899,2.555,2.68434
0.831482,0.00182899,2.555,2.68689
0.839775,0.00182899,2.555,2.68947
0.848068,0.00182899,2.555,2.69207
0.856361,0.00182899,2.555,2.6947
0.858224,0.00181539,2.536,2.67728
0.866455,0.00181539,2.536,2.67993
0.874686,0.00181539,2.536,2.68261
0.876303,0.00180179,2.517,2.66518
0.878147,0.00178891,2.499,2.6488
0.886258,0.00178891,2.499,2.6515
0.894369,0.00178891,2.499,2.65422
0.89598,0.00177602,2.481,2.63783
0.897474,0.00176313,2.463,2.62142
0.905468,0.00176313,2.463,2.62417
0.913462,0.00176313,2.463,2.62693
0.914722,0.00175025,2.445,2.61051
0.922658,0.00175025,2.445,2.6133
0.924124,0.00173808,2.428,2.59792
0.932004,0.00173808,2.428,2.60073
0.939885,0.00173808,2.428,2.60357
0.947766,0.00173808,2.428,2.60642
0.955646,0.00173808,2.428,2.6093
0.963527,0.00173808,2.428,2.6122
0.971408,0.00173808,2.428,2.61511
0.979289,0.00173808,2.428,2.61805
0.987169,0.00173808,2.428,2.62101
0.99505,0.00173808,2.428,2.62399
1.00293,0.00173808,2.428,2.62699
1.01789,0.00175025,2.445,2.64842
1.03338,0.00176313,2.463,2.671
1.04137,0.00176313,2.463,2.6741
1.05703,0.00177602,2.481,2.69679
1.07281,0.00178891,2.499,2.71955
1.08093,0.00178891,2.499,2.72276
1.10516,0.00181539,2.536,2.76635
1.13008,0.00184259,2.574,2.81115
1.15568,0.00187051,2.613,2.85716
1.16416,0.00187051,2.613,2.8606
1.18162,0.00188483,2.633,2.88599
1.20915,0.00191489,2.675,2.93559
1.21783,0.00191489,2.675,2.93917
1.23614,0.00192993,2.696,2.96588
1.25459,0.00194496,2.717,2.99267
1.26341,0.00194496,2.717,2.99638
1.28253,0.00196071,2.739,3.0244
1.29142,0.00196071,2.739,3.02818
1.30031,0.00196071,2.739,3.03198
1.3092,0.00196071,2.739,3.03581
1.32867,0.00197646,2.761,3.06407
1.34829,0.00199221,2.783,3.09241
1.35733,0.00199221,2.783,3.09636
1.37765,0.00200867,2.806,3.12595
1.38676,0.00200867,2.806,3.12998
1.39587,0.00200867,2.806,3.13402
1.41649,0.00202514,2.829,3.16381
1.43777,0.00204232,2.853,3.19481
1.4592,0.0020595,2.877,3.2259
1.46854,0.0020595,2.877,3.23013
1.50305,0.00209457,2.926,3.28947
1.53891,0.00213108,2.977,3.35123
1.54857,0.00213108,2.977,3.35568
1.57184,0.00214969,3.003,3.3895
1.59581,0.00216902,3.03,3.42455
1.60564,0.00216902,3.03,3.42914
1.62987,0.00218835,3.057,3.46435
1.65428,0.00220768,3.084,3.49967
1.66429,0.00220768,3.084,3.50441
1.6743,0.00220768,3.084,3.50918
1.6996,0.00222772,3.112,3.54587
1.7097,0.00222772,3.112,3.55072
1.7198,0.00222772,3.112,3.5556
1.7299,0.00222772,3.112,3.56049
1.74,0.00222772,3.112,3.56541
1.75011,0.00222772,3.112,3.57035
1.74437,0.00220768,3.084,3.54315
1.75438,0.00220768,3.084,3.54808
1.76439,0.00220768,3.084,3.55305
1.75886,0.00218835,3.057,3.52688
1.76879,0.00218835,3.057,3.53184
1.77871,0.00218835,3.057,3.53681
1.77283,0.00216902,3.03,3.51053
1.78267,0.00216902,3.03,3.51551
1.7925,0.00216902,3.03,3.52051
1.80234,0.00216902,3.03,3.52552
1.79602,0.00214969,3.003,3.4991
1.80577,0.00214969,3.003,3.50412
1.81552,0.00214969,3.003,3.50915
1.80946,0.00213108,2.977,3.48377
1.81912,0.00213108,2.977,3.4888
1.81281,0.00211247,2.951,3.46334
1.80695,0.00209457,2.926,3.43898
1.81645,0.00209457,2.926,3.44398
1.81035,0.00207668,2.901,3.41953
1.80471,0.0020595,2.877,3.39619
1.81405,0.0020595,2.877,3.40116
1.80817,0.00204232,2.853,3.37774
1.80215,0.00202514,2.829,3.35425
1.78187,0.00199221,2.783,3.30457
1.79091,0.00199221,2.783,3.30945
1.78571,0.00197646,2.761,3.28814
1.76607,0.00194496,2.717,3.24054
1.77489,0.00194496,2.717,3.24536
1.75614,0.00191489,2.675,3.19995
1.75097,0.00189986,2.654,3.17956
1.75958,0.00189986,2.654,3.18431
1.74088,0.00187051,2.613,3.13981
1.73597,0.0018562,2.593,3.12046
1.74439,0.0018562,2.593,3.12515
1.72711,0.00182899,2.555,3.08398
1.7225,0.00181539,2.536,3.06567
-1.9154,0.0109355,2.761,3.36035
-1.89124,0.0108483,2.739,3.32852
-1.88235,0.0108483,2.739,3.32348
-1.85842,0.0107612,2.717,3.2918
-1.8496,0.0107612,2.717,3.28682
-1.85568,0.0108483,2.739,3.30844
-1.83196,0.0107612,2.717,3.27693
-1.82314,0.0107612,2.717,3.27201
-1.81432,0.0107612,2.717,3.2671
-1.79155,0.010678,2.696,3.237
-1.7828,0.010678,2.696,3.23217
-1.77405,0.010678,2.696,3.22735
-1.7653,0.010678,2.696,3.22255
-1.75655,0.010678,2.696,3.21776
-1.73418,0.0105948,2.675,3.18797
-1.7255,0.0105948,2.675,3.18325
-1.71682,0.0105948,2.675,3.17855
-1.72154,0.010678,2.696,3.19879
-1.71279,0.010678,2.696,3.19409
-1.70404,0.010678,2.696,3.1894
-1.69529,0.010678,2.696,3.18474
-1.68654,0.010678,2.696,3.18009
-1.69086,0.0107612,2.717,3.20019
-1.68204,0.0107612,2.717,3.19554
-1.68677,0.0108483,2.739,3.21674
-1.70483,0.0110226,2.783,3.26369
-1.6958,0.0110226,2.783,3.25898
-1.70071,0.0111137,2.806,3.28118
-1.70547,0.0112048,2.829,3.30333
-1.69629,0.0112048,2.829,3.2986
-1.6871,0.0112048,2.829,3.29389
-1.69216,0.0112998,2.853,3.3171
-1.6829,0.0112998,2.853,3.31238
-1.67364,0.0112998,2.853,3.30769
-1.63696,0.0111137,2.806,3.2486
-1.62785,0.0111137,2.806,3.24402
-1.59278,0.0109355,2.761,3.18751
-1.5712,0.0108483,2.739,3.15767
-1.56231,0.0108483,2.739,3.15326
-1.52903,0.010678,2.696,3.09943
-1.4966,0.0105117,2.654,3.04691
-1.48798,0.0105117,2.654,3.04268
-1.46766,0.0104285,2.633,3.01444
-1.44803,0.0103493,2.613,2.98742
-1.42853,0.0102701,2.593,2.96048
-1.42012,0.0102701,2.593,2.95643
-1.4117,0.0102701,2.593,2.9524
-1.41411,0.0103493,2.613,2.97112
-1.40563,0.0103493,2.613,2.9671
-1.39715,0.0103493,2.613,2.96309
-1.38867,0.0103493,2.613,2.9591
-1.38019,0.0103493,2.613,2.95513
-1.3717,0.0103493,2.613,2.95118
-1.36322,0.0103493,2.613,2.94724
-1.36511,0.0104285,2.633,2.96586
-1.35656,0.0104285,2.633,2.96194
-1.33778,0.0103493,2.613,2.93556
-1.31912,0.0102701,2.593,2.90927
-1.31071,0.0102701,2.593,2.90546
-1.30229,0.0102701,2.593,2.90167
-1.28439,0.0101948,2.574,2.87667
-1.27604,0.0101948,2.574,2.87295
-1.24897,0.0100443,2.536,2.82689
-1.23144,0.00996904,2.517,2.80211
-1.22327,0.00996904,2.517,2.79853
-1.20641,0.00989775,2.499,2.77498
-1.18104,0.00975517,2.463,2.73154
-1.16447,0.00968387,2.445,2.70816
-1.15654,0.00968387,2.445,2.70476
-1.1486,0.00968387,2.445,2.70137
-1.13274,0.00961654,2.428,2.67925
-1.12485,0.00961654,2.428,2.67593
-1.10915,0.00954921,2.411,2.65391
-1.10133,0.00954921,2.411,2.65065
-1.0935,0.00954921,2.411,2.64741
-1.08568,0.00954921,2.411,2.64418
-1.07785,0.00954921,2.411,2.64098
-1.07003,0.00954921,2.411,2.6378
-1.0622,0.00954921,2.411,2.63463
-1.05437,0.00954921,2.411,2.63149
-1.03917,0.00948188,2.394,2.60983
-1.0314,0.00948188,2.394,2.60674
-1.02363,0.00948188,2.394,2.60368
-1.01586,0.00948188,2.394,2.60063
-1.00809,0.00948188,2.394,2.59761
-1.00032,0.00948188,2.394,2.5946
-0.992548,0.00948188,2.394,2.59162
-0.984778,0.00948188,2.394,2.58865
-0.977007,0.00948188,2.394,2.5857
-0.969237,0.00948188,2.394,2.58278
-0.961466,0.00948188,2.394,2.57987
-0.953696,0.00948188,2.394,2.57699
-0.939209,0.00941455,2.377,2.55584
-0.931494,0.00941455,2.377,2.55302
-0.923778,0.00941455,2.377,2.55021
-0.916063,0.00941455,2.377,2.54743
-0.908348,0.00941455,2.377,2.54466
-0.900633,0.00941455,2.377,2.54192
-0.892918,0.00941455,2.377,2.5392
-0.885203,0.00941455,2.377,2.53649
-0.877488,0.00941455,2.377,2.53381
-0.869772,0.00941455,2.377,2.53115
-0.862057,0.00941455,2.377,2.52851
-0.854342,0.00941455,2.377,2.52589
-0.846627,0.00941455,2.377,2.52329
-0.838912,0.00941455,2.377,2.52071
-0.831197,0.00941455,2.377,2.51816
-0.823481,0.00941455,2.377,2.51562
-0.815766,0.00941455,2.377,2.5131
-0.808051,0.00941455,2.377,2.51061
-0.800336,0.00941455,2.377,2.50814
-0.792621,0.00941455,2.377,2.50569
-0.784906,0.00941455,2.377,2.50326
-0.777191,0.00941455,2.377,2.50085
-0.774979,0.00948188,2.394,2.51633
-0.767208,0.00948188,2.394,2.51395
-0.759438,0.00948188,2.394,2.51159
-0.751668,0.00948188,2.394,2.50925
-0.743897,0.00948188,2.394,2.50693
-0.741354,0.00954921,2.411,2.52242
-0.733529,0.00954921,2.411,2.52013
-0.725703,0.00954921,2.411,2.51787
-0.717878,0.00954921,2.411,2.51562
-0.715059,0.00961654,2.428,2.53112
-0.707178,0.00961654,2.428,2.52891
-0.699297,0.00961654,2.428,2.52672
-0.696258,0.00968387,2.445,2.54222
-0.688322,0.00968387,2.445,2.54006
-0.680386,0.00968387,2.445,2.53792
-0.677401,0.00975517,2.463,2.55447
-0.669406,0.00975517,2.463,2.55237
-0.661412,0.00975517,2.463,2.55028
-0.653418,0.00975517,2.463,2.54822
-0.645424,0.00975517,2.463,2.54618
-0.637429,0.00975517,2.463,2.54417
-0.629435,0.00975517,2.463,2.54217
-0.621441,0.00975517,2.463,2.54021
-0.61793,0.00982646,2.481,2.55681
-0.609877,0.00982646,2.481,2.55488
-0.601824,0.00982646,2.481,2.55297
-0.593771,0.00982646,2.481,2.55108
-0.585719,0.00982646,2.481,2.54922
-0.577666,0.00982646,2.481,2.54738
-0.569613,0.00982646,2.481,2.54557
-0.561561,0.00982646,2.481,2.54378
-0.557524,0.00989775,2.499,2.56046
-0.549413,0.00989775,2.499,2.5587
-0.5452,0.00996904,2.517,2.57539
-0.537031,0.00996904,2.517,2.57367
-0.528861,0.00996904,2.517,2.57198
-0.524622,0.0100443,2.536,2.58972
-0.516391,0.0100443,2.536,2.58806
-0.50816,0.0100443,2.536,2.58643
-0.503674,0.0101195,2.555,2.60419
-0.495381,0.0101195,2.555,2.6026
-0.487088,0.0101195,2.555,2.60103
-0.478795,0.0101195,2.555,2.59949
-0.474001,0.0101948,2.574,2.6173
-0.465647,0.0101948,2.574,2.6158
-0.457292,0.0101948,2.574,2.61433
-0.448938,0.0101948,2.574,2.61288
-0.440583,0.0101948,2.574,2.61145
-0.432229,0.0101948,2.574,2.61006
-0.423874,0.0101948,2.574,2.60869
-0.415519,0.0101948,2.574,2.60734
-0.407165,0.0101948,2.574,2.60602
-0.39881,0.0101948,2.574,2.60473
-0.390456,0.0101948,2.574,2.60347
-0.382101,0.0101948,2.574,2.60223
-0.370988,0.0101195,2.555,2.58181
-0.362695,0.0101195,2.555,2.58063
-0.354402,0.0101195,2.555,2.57948
-0.346109,0.0101195,2.555,2.57836
-0.337816,0.0101195,2.555,2.57726
-0.327073,0.0100443,2.536,2.55702
-0.318842,0.0100443,2.536,2.55598
-0.31061,0.0100443,2.536,2.55497
-0.300114,0.00996904,2.517,2.53485
-0.291944,0.00996904,2.517,2.53389
-0.283775,0.00996904,2.517,2.53297
-0.275605,0.00996904,2.517,2.53206
-0.267435,0.00996904,2.517,2.53119
-0.261223,0.0100443,2.536,2.54944
-0.252992,0.0100443,2.536,2.54861
-0.244761,0.0100443,2.536,2.5478
-0.236529,0.0100443,2.536,2.54703
-0.228298,0.0100443,2.536,2.54628
-0.220067,0.0100443,2.536,2.54555
-0.211836,0.0100443,2.536,2.54485
-0.203604,0.0100443,2.536,2.54418
-0.195373,0.0100443,2.536,2.54353
-0.188544,0.0101195,2.555,2.56197
-0.180251,0.0101195,2.555,2.56137
-0.171958,0.0101195,2.555,2.5608
-0.163665,0.0101195,2.555,2.56026
-0.155372,0.0101195,2.555,2.55974
-0.14708,0.0101195,2.555,2.55925
-0.138787,0.0101195,2.555,2.55879
-0.130494,0.0101195,2.555,2.55835
-0.122201,0.0101195,2.555,2.55794
-0.113908,0.0101195,2.555,2.55756
-0.105615,0.0101195,2.555,2.5572
-0.0973222,0.0101195,2.555,2.55687
-0.0890293,0.0101195,2.555,2.55657
-0.0807364,0.0101195,2.555,2.5563
-0.0729822,0.0101948,2.574,2.57505
-0.0646277,0.0101948,2.574,2.57483
-0.0562731,0.0101948,2.574,2.57464
-0.0479185,0.0101948,2.574,2.57447
-0.039564,0.0101948,2.574,2.57432
-0.0312094,0.0101948,2.574,2.57421
-0.0228548,0.0101948,2.574,2.57412
-0.0146073,0.0102701,2.593,2.59306
-0.00619107,0.0102701,2.593,2.59303
0.00222516,0.0102701,2.593,2.59302
0.0106414,0.0102701,2.593,2.59304
0.0190576,0.0102701,2.593,2.59309
0.0274739,0.0102701,2.593,2.59317
0.0356271,0.0101948,2.574,2.57427
0.0439817,0.0101948,2.574,2.5744
0.0523362,0.0101948,2.574,2.57455
0.0606908,0.0101948,2.574,2.57474
0.0690454,0.0101948,2.574,2.57495
0.0773999,0.0101948,2.574,2.57518
0.0851215,0.0101195,2.555,2.55644
0.0934144,0.0101195,2.555,2.55673
0.101707,0.0101195,2.555,2.55704
0.11,0.0101195,2.555,2.55739
0.118293,0.0101195,2.555,2.55776
0.126586,0.0101195,2.555,2.55815
0.134879,0.0101195,2.555,2.55858
0.143172,0.0101195,2.555,2.55903
0.151465,0.0101195,2.555,2.55951
0.159758,0.0101195,2.555,2.56001
0.16805,0.0101195,2.555,2.56054
nan,nan,nan,NaN
nan,nan,nan,NaN
0.191494,0.0100443,2.536,2.54324
0.199726,0.0100443,2.536,2.54387
0.207957,0.0100443,2.536,2.54453
0.216188,0.0100443,2.536,2.54522
0.224419,0.0100443,2.536,2.54593
nan,nan,nan,NaN
0.240882,0.0100443,2.536,2.54743
0.249113,0.0100443,2.536,2.54823
0.257344,0.0100443,2.536,2.54904
0.265575,0.0100443,2.536,2.54989
0.273807,0.0100443,2.536,2.55076
nan,nan,nan,NaN
nan,nan,nan,NaN
nan,nan,nan,NaN
nan,nan,nan,NaN
nan,nan,nan,NaN
nan,nan,nan,NaN
nan,nan,nan,NaN
nan,nan,nan,NaN
nan,nan,nan,NaN
nan,nan,nan,NaN
nan,nan,nan,NaN
nan,nan,nan,NaN
nan,nan,nan,NaN
nan,nan,nan,NaN
nan,nan,nan,NaN
nan,nan,nan,NaN
nan,nan,nan,NaN
nan,nan,nan,NaN
nan,nan,nan,NaN
nan,nan,nan,NaN
nan,nan,nan,NaN
nan,nan,nan,NaN
nan,nan,nan,NaN
nan,nan,nan,NaN
nan,nan,nan,NaN
nan,nan,nan,NaN
nan,nan,nan,NaN
nan,nan,nan,NaN
nan,nan,nan,NaN
nan,nan,nan,NaN
nan,nan,nan,NaN
nan,nan,nan,NaN
nan,nan,nan,NaN
nan,nan,nan,NaN
nan,nan,nan,NaN
nan,nan,nan,NaN
nan,nan,nan,NaN
nan,nan,nan,NaN
nan,nan,nan,NaN
nan,nan,nan,NaN
nan,nan,nan,NaN
nan,nan,nan,NaN
0.618591,0.00989775,2.499,2.57444
0.626702,0.00989775,2.499,2.5764
0.634813,0.00989775,2.499,2.57839
0.647555,0.00996904,2.517,2.59898
nan,nan,nan,NaN
0.663894,0.00996904,2.517,2.6031
0.672064,0.00996904,2.517,2.6052
0.685368,0.0100443,2.536,2.627
0.693599,0.0100443,2.536,2.62916
0.70183,0.0100443,2.536,2.63134
0.715382,0.0101195,2.555,2.65328
0.723674,0.0101195,2.555,2.65553
0.726524,0.0100443,2.536,2.63804
0.734755,0.0100443,2.536,2.64031
0.742987,0.0100443,2.536,2.64262
0.751218,0.0100443,2.536,2.64494
0.765139,0.0101195,2.555,2.66713
0.773432,0.0101195,2.555,2.66952
0.781725,0.0101195,2.555,2.67193
0.790018,0.0101195,2.555,2.67437
0.798311,0.0101195,2.555,2.67683
0.806603,0.0101195,2.555,2.67932
0.814896,0.0101195,2.555,2.68182
0.823189,0.0101195,2.555,2.68436
0.831482,0.0101195,2.555,2.68691
0.839775,0.0101195,2.555,2.68949
0.848068,0.0101195,2.555,2.69209
0.856361,0.0101195,2.555,2.69471
0.864654,0.0101195,2.555,2.69736
0.866455,0.0100443,2.536,2.67995
0.874686,0.0100443,2.536,2.68262
0.876303,0.00996904,2.517,2.6652
0.878147,0.00989775,2.499,2.64882
0.886258,0.00989775,2.499,2.65152
0.894369,0.00989775,2.499,2.65424
0.89598,0.00982646,2.481,2.63785
0.904033,0.00982646,2.481,2.64059
0.912085,0.00982646,2.481,2.64336
0.913462,0.00975517,2.463,2.62695
0.914722,0.00968387,2.445,2.61052
0.922658,0.00968387,2.445,2.61332
0.930594,0.00968387,2.445,2.61613
0.93853,0.00968387,2.445,2.61896
0.946466,0.00968387,2.445,2.62182
0.947766,0.00961654,2.428,2.60644
0.955646,0.00961654,2.428,2.60932
0.963527,0.00961654,2.428,2.61221
0.971408,0.00961654,2.428,2.61513
0.979289,0.00961654,2.428,2.61807
0.987169,0.00961654,2.428,2.62103
0.99505,0.00961654,2.428,2.624
1.00293,0.00961654,2.428,2.627
1.01789,0.00968387,2.445,2.64844
1.03338,0.00975517,2.463,2.67102
1.04137,0.00975517,2.463,2.67412
1.05703,0.00982646,2.481,2.69681
1.07281,0.00989775,2.499,2.71956
1.08093,0.00989775,2.499,2.72277
1.10516,0.0100443,2.536,2.76637
1.13008,0.0101948,2.574,2.81117
1.15568,0.0103493,2.613,2.85718
1.16416,0.0103493,2.613,2.86062
1.18162,0.0104285,2.633,2.886
1.20915,0.0105948,2.675,2.9356
1.21783,0.0105948,2.675,2.93919
1.23614,0.010678,2.696,2.9659
1.25459,0.0107612,2.717,2.99269
1.26341,0.0107612,2.717,2.9964
1.28253,0.0108483,2.739,3.02442
1.29142,0.0108483,2.739,3.0282
1.30031,0.0108483,2.739,3.032
1.3092,0.0108483,2.739,3.03583
1.32867,0.0109355,2.761,3.06409
1.34829,0.0110226,2.783,3.09243
1.35733,0.0110226,2.783,3.09638
1.37765,0.0111137,2.806,3.12597
1.38676,0.0111137,2.806,3.12999
1.39587,0.0111137,2.806,3.13404
1.41649,0.0112048,2.829,3.16383
1.43777,0.0112998,2.853,3.19483
1.4592,0.0113949,2.877,3.22591
1.46854,0.0113949,2.877,3.23015
1.50305,0.011589,2.926,3.28949
1.53891,0.011791,2.977,3.35125
1.54857,0.011791,2.977,3.3557
1.57184,0.0118939,3.003,3.38952
1.59581,0.0120009,3.03,3.42457
1.60564,0.0120009,3.03,3.42916
1.62987,0.0121078,3.057,3.46437
1.65428,0.0122148,3.084,3.49969
1.66429,0.0122148,3.084,3.50444
1.6743,0.0122148,3.084,3.5092
1.6996,0.0123257,3.112,3.54589
1.7097,0.0123257,3.112,3.55074
1.7198,0.0123257,3.112,3.55562
1.7299,0.0123257,3.112,3.56051
1.74,0.0123257,3.112,3.56543
1.75011,0.0123257,3.112,3.57037
1.74437,0.0122148,3.084,3.54317
1.75438,0.0122148,3.084,3.54811
1.76439,0.0122148,3.084,3.55307
1.75886,0.0121078,3.057,3.5269
1.76879,0.0121078,3.057,3.53186
1.77871,0.0121078,3.057,3.53683
1.77283,0.0120009,3.03,3.51055
1.78267,0.0120009,3.03,3.51553
1.7925,0.0120009,3.03,3.52053
1.78628,0.0118939,3.003,3.49413
1.79602,0.0118939,3.003,3.49912
1.80577,0.0118939,3.003,3.50413
1.7998,0.011791,2.977,3.47879
1.79366,0.011688,2.951,3.45337
1.80324,0.011688,2.951,3.45835
1.81281,0.011688,2.951,3.46336
1.80695,0.011589,2.926,3.439
1.81645,0.011589,2.926,3.444
1.81035,0.0114899,2.901,3.41955
1.78965,0.0112998,2.853,3.36788
1.79891,0.0112998,2.853,3.37281
1.79296,0.0112048,2.829,3.34934
1.78749,0.0111137,2.806,3.32699
1.76779,0.0109355,2.761,3.27846
1.77675,0.0109355,2.761,3.2833
1.77148,0.0108483,2.739,3.26196
1.75242,0.010678,2.696,3.21551
1.76117,0.010678,2.696,3.22029
1.75614,0.0105948,2.675,3.19996
1.73711,0.0104285,2.633,3.15442
1.74566,0.0104285,2.633,3.15913
1.74088,0.0103493,2.613,3.13983
1.72325,0.0101948,2.574,3.09761
1.7316,0.0101948,2.574,3.10226
1.72711,0.0101195,2.555,3.084
1.7225,0.0100443,2.536,3.06568
-1.9154,0.0198944,2.761,3.3604
-1.89124,0.0197359,2.739,3.32856
-1.88235,0.0197359,2.739,3.32352
-1.85842,0.0195774,2.717,3.29184
-1.8496,0.0195774,2.717,3.28686
-1.85568,0.0197359,2.739,3.30848
-1.83196,0.0195774,2.717,3.27697
-1.82314,0.0195774,2.717,3.27205
-1.81432,0.0195774,2.717,3.26715
-1.79155,0.0194261,2.696,3.23704
-1.7828,0.0194261,2.696,3.23221
-1.77405,0.0194261,2.696,3.22739
-1.7653,0.0194261,2.696,3.22259
-1.75655,0.0194261,2.696,3.2178
-1.73418,0.0192748,2.675,3.18801
-1.7255,0.0192748,2.675,3.18329
-1.71682,0.0192748,2.675,3.17859
-1.70813,0.0192748,2.675,3.17391
-1.69945,0.0192748,2.675,3.16925
-1.69077,0.0192748,2.675,3.1646
-1.68209,0.0192748,2.675,3.15997
-1.6734,0.0192748,2.675,3.15536
-1.67779,0.0194261,2.696,3.1755
-1.66904,0.0194261,2.696,3.17088
-1.67322,0.0195774,2.717,3.19095
-1.69136,0.0198944,2.761,3.23793
-1.6824,0.0198944,2.761,3.23326
-1.68677,0.020053,2.783,3.25433
-1.6916,0.0202187,2.806,3.27652
-1.68249,0.0202187,2.806,3.27182
-1.6871,0.0203844,2.829,3.29393
-1.67792,0.0203844,2.829,3.28924
-1.66874,0.0203844,2.829,3.28456
-1.65956,0.0203844,2.829,3.27991
-1.63696,0.0202187,2.806,3.24864
-1.62785,0.0202187,2.806,3.24406
-1.59278,0.0198944,2.761,3.18755
-1.55858,0.0195774,2.717,3.13235
-1.54976,0.0195774,2.717,3.12798
-1.52903,0.0194261,2.696,3.09947
-1.4966,0.0191235,2.654,3.04695
-1.48798,0.0191235,2.654,3.04273
-1.45652,0.018828,2.613,2.99158
-1.43695,0.0186839,2.593,2.9646
-1.41807,0.018547,2.574,2.93883
-1.40971,0.018547,2.574,2.93481
-1.40136,0.018547,2.574,2.93081
-1.393,0.018547,2.574,2.92682
-1.38465,0.018547,2.574,2.92285
-1.37629,0.018547,2.574,2.91891
-1.37804,0.0186839,2.593,2.93649
-1.36962,0.0186839,2.593,2.93255
-1.3612,0.0186839,2.593,2.92863
-1.35279,0.0186839,2.593,2.92473
-1.34437,0.0186839,2.593,2.92085
-1.33596,0.0186839,2.593,2.91698
-1.32754,0.0186839,2.593,2.91314
-1.30946,0.018547,2.574,2.88799
-1.3011,0.018547,2.574,2.88421
-1.29275,0.018547,2.574,2.88045
-1.26543,0.0182732,2.536,2.83425
-1.2572,0.0182732,2.536,2.83058
-1.23961,0.0181363,2.517,2.80575
-1.22264,0.0180066,2.499,2.78212
-1.21453,0.0180066,2.499,2.77856
-1.19772,0.0178769,2.481,2.75504
-1.18104,0.0177472,2.463,2.73158
-1.16447,0.0176175,2.445,2.7082
-1.15654,0.0176175,2.445,2.7048
-1.14062,0.017495,2.428,2.68263
-1.1248,0.0173725,2.411,2.66053
-1.11698,0.0173725,2.411,2.65723
-1.10915,0.0173725,2.411,2.65395
-1.09356,0.01725,2.394,2.632
-1.08579,0.01725,2.394,2.62878
-1.07802,0.01725,2.394,2.62558
-1.07025,0.01725,2.394,2.6224
-1.06248,0.01725,2.394,2.61924
-1.05471,0.01725,2.394,2.61609
-1.04694,0.01725,2.394,2.61297
-1.03917,0.01725,2.394,2.60987
-1.0314,0.01725,2.394,2.60678
-1.02363,0.01725,2.394,2.60372
-1.01586,0.01725,2.394,2.60067
-1.00809,0.01725,2.394,2.59765
-1.00032,0.01725,2.394,2.59464
-0.992548,0.01725,2.394,2.59166
-0.984778,0.01725,2.394,2.58869
-0.977007,0.01725,2.394,2.58575
-0.969237,0.01725,2.394,2.58282
-0.954639,0.0171275,2.377,2.56159
-0.946924,0.0171275,2.377,2.55873
-0.939209,0.0171275,2.377,2.55588
-0.931494,0.0171275,2.377,2.55306
-0.923778,0.0171275,2.377,2.55025
-0.916063,0.0171275,2.377,2.54747
-0.908348,0.0171275,2.377,2.5447
-0.900633,0.0171275,2.377,2.54196
-0.892918,0.0171275,2.377,2.53924
-0.885203,0.0171275,2.377,2.53653
-0.877488,0.0171275,2.377,2.53385
-0.869772,0.0171275,2.377,2.53119
-0.862057,0.0171275,2.377,2.52855
-0.854342,0.0171275,2.377,2.52593
-0.846627,0.0171275,2.377,2.52333
-0.838912,0.0171275,2.377,2.52075
-0.831197,0.0171275,2.377,2.5182
-0.823481,0.0171275,2.377,2.51566
-0.815766,0.0171275,2.377,2.51314
-0.808051,0.0171275,2.377,2.51065
-0.80606,0.01725,2.394,2.52612
-0.79829,0.01725,2.394,2.52365
-0.790519,0.01725,2.394,2.5212
-0.782749,0.01725,2.394,2.51878
-0.774979,0.01725,2.394,2.51637
-0.767208,0.01725,2.394,2.51399
-0.759438,0.01725,2.394,2.51163
-0.751668,0.01725,2.394,2.50929
-0.743897,0.01725,2.394,2.50697
-0.741354,0.0173725,2.411,2.52246
-0.733529,0.0173725,2.411,2.52018
-0.725703,0.0173725,2.411,2.51791
-0.722939,0.017495,2.428,2.5334
-0.715059,0.017495,2.428,2.53117
-0.712129,0.0176175,2.445,2.54666
-0.704194,0.0176175,2.445,2.54445
-0.696258,0.0176175,2.445,2.54226
-0.693389,0.0177472,2.463,2.5588
-0.685395,0.0177472,2.463,2.55665
-0.677401,0.0177472,2.463,2.55452
-0.669406,0.0177472,2.463,2.55241
-0.661412,0.0177472,2.463,2.55032
-0.653418,0.0177472,2.463,2.54826
-0.65014,0.0178769,2.481,2.56483
-0.642088,0.0178769,2.481,2.5628
-0.634035,0.0178769,2.481,2.5608
-0.625982,0.0178769,2.481,2.55882
-0.61793,0.0178769,2.481,2.55686
-0.609877,0.0178769,2.481,2.55492
-0.601824,0.0178769,2.481,2.55301
-0.593771,0.0178769,2.481,2.55113
-0.585719,0.0178769,2.481,2.54926
-0.577666,0.0178769,2.481,2.54743
-0.573746,0.0180066,2.499,2.56408
-0.565635,0.0180066,2.499,2.56228
-0.557524,0.0180066,2.499,2.5605
-0.549413,0.0180066,2.499,2.55875
-0.5452,0.0181363,2.517,2.57543
-0.537031,0.0181363,2.517,2.57372
-0.528861,0.0181363,2.517,2.57203
-0.524622,0.0182732,2.536,2.58976
-0.516391,0.0182732,2.536,2.58811
-0.50816,0.0182732,2.536,2.58648
-0.499929,0.0182732,2.536,2.58487
-0.491697,0.0182732,2.536,2.58329
-0.487088,0.0184101,2.555,2.60108
-0.478795,0.0184101,2.555,2.59954
-0.474001,0.018547,2.574,2.61735
-0.465647,0.018547,2.574,2.61585
-0.457292,0.018547,2.574,2.61437
-0.448938,0.018547,2.574,2.61292
-0.440583,0.018547,2.574,2.6115
-0.432229,0.018547,2.574,2.6101
-0.423874,0.018547,2.574,2.60873
-0.415519,0.018547,2.574,2.60739
-0.407165,0.018547,2.574,2.60607
-0.39881,0.018547,2.574,2.60478
-0.390456,0.018547,2.574,2.60351
-0.382101,0.018547,2.574,2.60227
-0.370988,0.0184101,2.555,2.58186
-0.362695,0.0184101,2.555,2.58068
-0.354402,0.0184101,2.555,2.57953
-0.346109,0.0184101,2.555,2.5784
-0.337816,0.0184101,2.555,2.5773
-0.327073,0.0182732,2.536,2.55707
-0.318842,0.0182732,2.536,2.55603
-0.31061,0.0182732,2.536,2.55502
-0.300114,0.0181363,2.517,2.53489
-0.291944,0.0181363,2.517,2.53394
-0.283775,0.0181363,2.517,2.53301
-0.275605,0.0181363,2.517,2.53211
-0.267435,0.0181363,2.517,2.53123
-0.259266,0.0181363,2.517,2.53038
-0.252992,0.0182732,2.536,2.54865
-0.244761,0.0182732,2.536,2.54785
-0.236529,0.0182732,2.536,2.54707
-0.228298,0.0182732,2.536,2.54632
-0.220067,0.0182732,2.536,2.5456
-0.211836,0.0182732,2.536,2.5449
-0.203604,0.0182732,2.536,2.54423
-0.195373,0.0182732,2.536,2.54358
-0.187142,0.0182732,2.536,2.54296
-0.180251,0.0184101,2.555,2.56142
-0.171958,0.0184101,2.555,2.56085
-0.163665,0.0184101,2.555,2.5603
-0.154217,0.0182732,2.536,2.54075
-0.145986,0.0182732,2.536,2.54026
-0.137755,0.0182732,2.536,2.5398
-0.129523,0.0182732,2.536,2.53937
-0.121292,0.0182732,2.536,2.53896
-0.113061,0.0182732,2.536,2.53858
-0.10483,0.0182732,2.536,2.53823
-0.0973222,0.0184101,2.555,2.55692
-0.0890293,0.0184101,2.555,2.55662
-0.0807364,0.0184101,2.555,2.55634
-0.0729822,0.018547,2.574,2.5751
-0.0646277,0.018547,2.574,2.57488
-0.0562731,0.018547,2.574,2.57468
-0.0479185,0.018547,2.574,2.57451
-0.039564,0.018547,2.574,2.57437
-0.0312094,0.018547,2.574,2.57426
-0.0228548,0.018547,2.574,2.57417
-0.0146073,0.0186839,2.593,2.59311
-0.00619107,0.0186839,2.593,2.59307
0.00222516,0.0186839,2.593,2.59307
0.0105634,0.018547,2.574,2.57409
0.018918,0.018547,2.574,2.57414
0.0272725,0.018547,2.574,2.57421
0.0356271,0.018547,2.574,2.57431
0.0439817,0.018547,2.574,2.57444
0.0523362,0.018547,2.574,2.5746
0.0606908,0.018547,2.574,2.57478
0.0690454,0.018547,2.574,2.57499
0.0773999,0.018547,2.574,2.57523
0.0851215,0.0184101,2.555,2.55648
0.0934144,0.0184101,2.555,2.55677
0.101707,0.0184101,2.555,2.55709
0.11,0.0184101,2.555,2.55743
0.118293,0.0184101,2.555,2.5578
0.126586,0.0184101,2.555,2.5582
0.134879,0.0184101,2.555,2.55862
0.143172,0.0184101,2.555,2.55907
0.151465,0.0184101,2.555,2.55955
0.15857,0.0182732,2.536,2.54102
0.166801,0.0182732,2.536,2.54155
0.175032,0.0182732,2.536,2.5421
0.183263,0.0182732,2.536,2.54268
0.191494,0.0182732,2.536,2.54329
0.199726,0.0182732,2.536,2.54392
0.207957,0.0182732,2.536,2.54458
0.216188,0.0182732,2.536,2.54526
0.224419,0.0182732,2.536,2.54598
0.232651,0.0182732,2.536,2.54671
0.240882,0.0182732,2.536,2.54748
0.249113,0.0182732,2.536,2.54827
nan,nan,nan,NaN
nan,nan,nan,NaN
nan,nan,nan,NaN
nan,nan,nan,NaN
nan,nan,nan,NaN
nan,nan,nan,NaN
nan,nan,nan,NaN
nan,nan,nan,NaN
nan,nan,nan,NaN
nan,nan,nan,NaN
nan,nan,nan,NaN
nan,nan,nan,NaN
nan,nan,nan,NaN
nan,nan,nan,NaN
nan,nan,nan,NaN
nan,nan,nan,NaN
nan,nan,nan,NaN
nan,nan,nan,NaN
nan,nan,nan,NaN
nan,nan,nan,NaN
nan,nan,nan,NaN
nan,nan,nan,NaN
nan,nan,nan,NaN
nan,nan,nan,NaN
nan,nan,nan,NaN
nan,nan,nan,NaN
nan,nan,nan,NaN
nan,nan,nan,NaN
nan,nan,nan,NaN
nan,nan,nan,NaN
nan,nan,nan,NaN
nan,nan,nan,NaN
nan,nan,nan,NaN
nan,nan,nan,NaN
nan,nan,nan,NaN
nan,nan,nan,NaN
nan,nan,nan,NaN
nan,nan,nan,NaN
nan,nan,nan,NaN
nan,nan,nan,NaN
nan,nan,nan,NaN
nan,nan,nan,NaN
nan,nan,nan,NaN
nan,nan,nan,NaN
nan,nan,nan,NaN
0.618591,0.0180066,2.499,2.57449
0.626702,0.0180066,2.499,2.57645
0.634813,0.0180066,2.499,2.57843
0.647555,0.0181363,2.517,2.59903
nan,nan,nan,NaN
0.663894,0.0181363,2.517,2.60315
0.672064,0.0181363,2.517,2.60524
nan,nan,nan,NaN
0.693599,0.0182732,2.536,2.6292
0.70183,0.0182732,2.536,2.63139
0.715382,0.0184101,2.555,2.65333
0.723674,0.0184101,2.555,2.65557
0.726524,0.0182732,2.536,2.63808
0.734755,0.0182732,2.536,2.64036
0.742987,0.0182732,2.536,2.64266
0.751218,0.0182732,2.536,2.64499
0.765139,0.0184101,2.555,2.66717
0.773432,0.0184101,2.555,2.66956
0.781725,0.0184101,2.555,2.67198
0.790018,0.0184101,2.555,2.67441
0.798311,0.0184101,2.555,2.67688
0.806603,0.0184101,2.555,2.67936
0.814896,0.0184101,2.555,2.68187
0.823189,0.0184101,2.555,2.6844
0.837665,0.018547,2.574,2.70694
0.839775,0.0184101,2.555,2.68953
0.848068,0.0184101,2.555,2.69213
0.856361,0.0184101,2.555,2.69476
0.864654,0.0184101,2.555,2.6974
0.866455,0.0182732,2.536,2.68
0.874686,0.0182732,2.536,2.68267
0.876303,0.0181363,2.517,2.66524
0.884472,0.0181363,2.517,2.66794
0.892642,0.0181363,2.517,2.67066
0.894369,0.0180066,2.499,2.65428
0.90248,0.0180066,2.499,2.65703
0.904033,0.0178769,2.481,2.64064
0.912085,0.0178769,2.481,2.6434
0.913462,0.0177472,2.463,2.62699
0.921457,0.0177472,2.463,2.62978
0.929451,0.0177472,2.463,2.6326
0.930594,0.0176175,2.445,2.61617
0.93853,0.0176175,2.445,2.619
0.946466,0.0176175,2.445,2.62186
0.954402,0.0176175,2.445,2.62473
0.955646,0.017495,2.428,2.60936
0.963527,0.017495,2.428,2.61225
0.971408,0.017495,2.428,2.61517
0.979289,0.017495,2.428,2.61811
0.987169,0.017495,2.428,2.62107
0.99505,0.017495,2.428,2.62405
1.00293,0.017495,2.428,2.62704
1.01789,0.0176175,2.445,2.64848
1.03338,0.0177472,2.463,2.67106
1.04137,0.0177472,2.463,2.67416
1.05703,0.0178769,2.481,2.69685
1.07281,0.0180066,2.499,2.71961
1.08093,0.0180066,2.499,2.72282
1.09688,0.0181363,2.517,2.74568
1.12173,0.0184101,2.555,2.79046
1.14683,0.0186839,2.593,2.83535
1.15525,0.0186839,2.593,2.83877
1.18162,0.0189721,2.633,2.88605
1.19965,0.0191235,2.654,2.9126
1.20827,0.0191235,2.654,2.91616
1.23614,0.0194261,2.696,2.96595
1.25459,0.0195774,2.717,2.99274
1.26341,0.0195774,2.717,2.99644
1.28253,0.0197359,2.739,3.02446
1.29142,0.0197359,2.739,3.02825
1.30031,0.0197359,2.739,3.03205
1.3092,0.0197359,2.739,3.03587
1.31809,0.0197359,2.739,3.03971
1.33764,0.0198944,2.761,3.06803
1.3466,0.0198944,2.761,3.07194
1.36636,0.020053,2.783,3.10039
1.37539,0.020053,2.783,3.10438
1.38443,0.020053,2.783,3.1084
1.40498,0.0202187,2.806,3.13815
1.42567,0.0203844,2.829,3.168
1.44703,0.0205574,2.853,3.19905
1.45629,0.0205574,2.853,3.20325
1.49021,0.0209032,2.901,3.26143
1.52547,0.0212635,2.951,3.32203
1.53505,0.0212635,2.951,3.32644
1.55823,0.0214508,2.977,3.36022
1.58159,0.0216382,3.003,3.3941
1.59134,0.0216382,3.003,3.39865
1.62987,0.0220273,3.057,3.46442
1.6398,0.0220273,3.057,3.4691
1.66429,0.0222218,3.084,3.50448
1.6743,0.0222218,3.084,3.50925
1.68431,0.0222218,3.084,3.51404
1.69432,0.0222218,3.084,3.51884
1.70433,0.0222218,3.084,3.52368
1.71434,0.0222218,3.084,3.52853
1.72435,0.0222218,3.084,3.5334
1.73436,0.0222218,3.084,3.5383
1.7291,0.0220273,3.057,3.51219
1.73902,0.0220273,3.057,3.51709
1.74894,0.0220273,3.057,3.52201
1.75886,0.0220273,3.057,3.52694
1.76879,0.0220273,3.057,3.5319
1.77871,0.0220273,3.057,3.53688
1.77283,0.0218327,3.03,3.5106
1.78267,0.0218327,3.03,3.51558
1.7925,0.0218327,3.03,3.52057
1.78628,0.0216382,3.003,3.49418
1.78047,0.0214508,2.977,3.46887
1.79014,0.0214508,2.977,3.47384
1.78408,0.0212635,2.951,3.44845
1.79366,0.0212635,2.951,3.45341
1.80324,0.0212635,2.951,3.4584
1.79746,0.0210834,2.926,3.43406
1.79152,0.0209032,2.901,3.40966
1.80093,0.0209032,2.901,3.41461
1.79537,0.0207303,2.877,3.3913
1.7746,0.0203844,2.829,3.33959
1.78378,0.0203844,2.829,3.34448
1.77839,0.0202187,2.806,3.32215
1.77284,0.020053,2.783,3.29977
1.7537,0.0197359,2.739,3.25238
1.76259,0.0197359,2.739,3.25718
1.75725,0.0195774,2.717,3.2358
1.73877,0.0192748,2.675,3.19051
1.74746,0.0192748,2.675,3.19525
1.72856,0.0189721,2.633,3.14976
1.72392,0.018828,2.613,3.1305
1.7324,0.018828,2.613,3.13517
1.72755,0.0186839,2.593,3.11584
1.71053,0.0184101,2.555,3.07478
1.71882,0.0184101,2.555,3.0794
1.71427,0.0182732,2.536,3.0611
1.7096,0.0181363,2.517,3.04275
-1.93066,0.0290833,2.783,3.38724
-1.90643,0.0288534,2.761,3.35536
-1.89747,0.0288534,2.761,3.35028
-1.88851,0.0288534,2.761,3.34521
-1.87955,0.0288534,2.761,3.34016
-1.87059,0.0288534,2.761,3.33512
-1.84679,0.0286235,2.739,3.30357
-1.8379,0.0286235,2.739,3.29861
-1.82901,0.0286235,2.739,3.29366
-1.8055,0.0283936,2.717,3.26232
-1.79668,0.0283936,2.717,3.25745
-1.77405,0.0281742,2.696,3.22745
-1.7653,0.0281742,2.696,3.22265
-1.75655,0.0281742,2.696,3.21787
-1.73418,0.0279547,2.675,3.18807
-1.7255,0.0279547,2.675,3.18336
-1.70334,0.0277353,2.654,3.1537
-1.69472,0.0277353,2.654,3.14906
-1.69945,0.0279547,2.675,3.16931
-1.6775,0.0277353,2.654,3.13982
-1.66888,0.0277353,2.654,3.13523
-1.66027,0.0277353,2.654,3.13065
-1.65165,0.0277353,2.654,3.12609
-1.64304,0.0277353,2.654,3.12155
-1.64736,0.0279547,2.675,3.14169
-1.6644,0.0283936,2.717,3.1864
-1.65559,0.0283936,2.717,3.1818
-1.6601,0.0286235,2.739,3.20295
-1.66447,0.0288534,2.761,3.22404
-1.65551,0.0288534,2.761,3.21942
-1.65967,0.0290833,2.783,3.24044
-1.66428,0.0293237,2.806,3.26256
-1.65517,0.0293237,2.806,3.25793
-1.63257,0.0290833,2.783,3.22664
-1.62354,0.0290833,2.783,3.22208
-1.61451,0.0290833,2.783,3.21754
-1.59278,0.0288534,2.761,3.18762
-1.55858,0.0283936,2.717,3.13242
-1.54976,0.0283936,2.717,3.12804
-1.52903,0.0281742,2.696,3.09954
-1.4966,0.0277353,2.654,3.04701
-1.48798,0.0277353,2.654,3.04279
-1.45652,0.0273068,2.613,2.99165
-1.43695,0.0270978,2.593,2.96466
-1.41807,0.0268992,2.574,2.9389
-1.40971,0.0268992,2.574,2.93487
-1.40136,0.0268992,2.574,2.93087
-1.393,0.0268992,2.574,2.92689
-1.38465,0.0268992,2.574,2.92292
-1.37629,0.0268992,2.574,2.91897
-1.37804,0.0270978,2.593,2.93656
-1.36962,0.0270978,2.593,2.93262
-1.3612,0.0270978,2.593,2.9287
-1.35279,0.0270978,2.593,2.92479
-1.34437,0.0270978,2.593,2.92091
-1.33596,0.0270978,2.593,2.91705
-1.32754,0.0270978,2.593,2.9132
-1.30946,0.0268992,2.574,2.88806
-1.3011,0.0268992,2.574,2.88428
-1.29275,0.0268992,2.574,2.88052
-1.26543,0.0265021,2.536,2.83431
-1.2572,0.0265021,2.536,2.83065
-1.23961,0.0263036,2.517,2.80582
-1.22264,0.0261154,2.499,2.78218
-1.21453,0.0261154,2.499,2.77862
-1.19772,0.0259273,2.481,2.7551
-1.18104,0.0257392,2.463,2.73165
-1.16447,0.0255511,2.445,2.70826
-1.15654,0.0255511,2.445,2.70486
-1.14062,0.0253735,2.428,2.68269
-1.1248,0.0251958,2.411,2.66059
-1.11698,0.0251958,2.411,2.65729
-1.10915,0.0251958,2.411,2.65401
-1.09356,0.0250182,2.394,2.63206
-1.08579,0.0250182,2.394,2.62884
-1.07802,0.0250182,2.394,2.62564
-1.07025,0.0250182,2.394,2.62246
-1.06248,0.0250182,2.394,2.6193
-1.05471,0.0250182,2.394,2.61616
-1.04694,0.0250182,2.394,2.61303
-1.03917,0.0250182,2.394,2.60993
-1.0314,0.0250182,2.394,2.60685
-1.02363,0.0250182,2.394,2.60378
-1.01586,0.0250182,2.394,2.60074
-1.00809,0.0250182,2.394,2.59771
-1.00032,0.0250182,2.394,2.59471
-0.992548,0.0250182,2.394,2.59172
-0.984778,0.0250182,2.394,2.58875
-0.977007,0.0250182,2.394,2.58581
-0.969237,0.0250182,2.394,2.58288
-0.954639,0.0248405,2.377,2.56166
-0.946924,0.0248405,2.377,2.55879
-0.939209,0.0248405,2.377,2.55595
-0.931494,0.0248405,2.377,2.55312
-0.923778,0.0248405,2.377,2.55032
-0.916063,0.0248405,2.377,2.54753
-0.908348,0.0248405,2.377,2.54477
-0.900633,0.0248405,2.377,2.54202
-0.892918,0.0248405,2.377,2.5393
-0.885203,0.0248405,2.377,2.5366
-0.877488,0.0248405,2.377,2.53392
-0.869772,0.0248405,2.377,2.53125
-0.862057,0.0248405,2.377,2.52861
-0.854342,0.0248405,2.377,2.52599
-0.846627,0.0248405,2.377,2.5234
-0.838912,0.0248405,2.377,2.52082
-0.831197,0.0248405,2.377,2.51826
-0.823481,0.0248405,2.377,2.51572
-0.815766,0.0248405,2.377,2.51321
-0.808051,0.0248405,2.377,2.51072
-0.80606,0.0250182,2.394,2.52618
-0.79829,0.0250182,2.394,2.52371
-0.790519,0.0250182,2.394,2.52127
-0.782749,0.0250182,2.394,2.51884
-0.774979,0.0250182,2.394,2.51644
-0.767208,0.0250182,2.394,2.51405
-0.759438,0.0250182,2.394,2.51169
-0.751668,0.0250182,2.394,2.50936
-0.743897,0.0250182,2.394,2.50704
-0.741354,0.0251958,2.411,2.52253
-0.733529,0.0251958,2.411,2.52024
-0.725703,0.0251958,2.411,2.51798
-0.722939,0.0253735,2.428,2.53347
-0.715059,0.0253735,2.428,2.53123
-0.712129,0.0255511,2.445,2.54672
-0.704194,0.0255511,2.445,2.54452
-0.696258,0.0255511,2.445,2.54233
-0.693389,0.0257392,2.463,2.55887
-0.685395,0.0257392,2.463,2.55672
-0.677401,0.0257392,2.463,2.55458
-0.669406,0.0257392,2.463,2.55248
-0.661412,0.0257392,2.463,2.55039
-0.653418,0.0257392,2.463,2.54833
-0.65014,0.0259273,2.481,2.5649
-0.642088,0.0259273,2.481,2.56287
-0.634035,0.0259273,2.481,2.56087
-0.625982,0.0259273,2.481,2.55888
-0.61793,0.0259273,2.481,2.55693
-0.609877,0.0259273,2.481,2.55499
-0.601824,0.0259273,2.481,2.55308
-0.593771,0.0259273,2.481,2.5512
-0.585719,0.0259273,2.481,2.54933
-0.577666,0.0259273,2.481,2.5475
-0.573746,0.0261154,2.499,2.56415
-0.565635,0.0261154,2.499,2.56235
-0.557524,0.0261154,2.499,2.56057
-0.549413,0.0261154,2.499,2.55882
-0.5452,0.0263036,2.517,2.5755
-0.537031,0.0263036,2.517,2.57379
-0.528861,0.0263036,2.517,2.5721
-0.520692,0.0263036,2.517,2.57043
-0.512522,0.0263036,2.517,2.56879
-0.50816,0.0265021,2.536,2.58655
