0.762114,0.578894,2.252,2.44692
0.764298,0.575039,2.237,2.4329
0.76673,0.57144,2.223,2.41995
0.773945,0.57144,2.223,2.42224
0.776241,0.567841,2.209,2.40929
0.773126,0.560386,2.18,2.37995
0.780202,0.560386,2.18,2.38226
0.787278,0.560386,2.18,2.38458
0.794353,0.560386,2.18,2.38693
0.801429,0.560386,2.18,2.38929
0.808505,0.560386,2.18,2.39168
0.820818,0.563985,2.194,2.40945
0.82794,0.563985,2.194,2.41189
0.835061,0.563985,2.194,2.41434
0.842182,0.563985,2.194,2.41681
0.849303,0.563985,2.194,2.4193
0.856424,0.563985,2.194,2.42181
0.863545,0.563985,2.194,2.42434
0.876619,0.567841,2.209,2.44348
0.88939,0.57144,2.223,2.46156
0.896606,0.57144,2.223,2.46418
0.903821,0.57144,2.223,2.46681
0.911036,0.57144,2.223,2.46947
0.918252,0.57144,2.223,2.47214
0.931295,0.575039,2.237,2.49041
0.944849,0.578894,2.252,2.50985
0.952159,0.578894,2.252,2.51261
0.959468,0.578894,2.252,2.51539
0.973217,0.58275,2.267,2.53496
0.987063,0.586606,2.282,2.55459
0.99447,0.586606,2.282,2.55746
1.01549,0.594575,2.313,2.59513
1.03007,0.598688,2.329,2.61605
1.03763,0.598688,2.329,2.61904
1.05237,0.602801,2.345,2.64005
1.06721,0.606914,2.361,2.66113
1.07488,0.606914,2.361,2.66421
1.08254,0.606914,2.361,2.66731
1.09759,0.611027,2.377,2.68853
1.10531,0.611027,2.377,2.69169
1.11302,0.611027,2.377,2.69487
1.12875,0.615397,2.394,2.71736
1.13652,0.615397,2.394,2.72059
1.14429,0.615397,2.394,2.72385
1.15206,0.615397,2.394,2.72712
1.16807,0.619767,2.411,2.7498
1.1759,0.619767,2.411,2.75314
1.18372,0.619767,2.411,2.75649
1.19155,0.619767,2.411,2.75986
1.19937,0.619767,2.411,2.76325
1.2072,0.619767,2.411,2.76665
1.22359,0.624137,2.428,2.78961
1.23147,0.624137,2.428,2.79307
1.23935,0.624137,2.428,2.79656
1.24723,0.624137,2.428,2.80006
1.25511,0.624137,2.428,2.80358
1.26299,0.624137,2.428,2.80711
1.27087,0.624137,2.428,2.81067
1.27875,0.624137,2.428,2.81424
1.28664,0.624137,2.428,2.81783
1.29452,0.624137,2.428,2.82144
1.3024,0.624137,2.428,2.82506
1.31945,0.628507,2.445,2.84851
1.32739,0.628507,2.445,2.85219
1.32604,0.624137,2.428,2.83604
1.33392,0.624137,2.428,2.83973
1.3418,0.624137,2.428,2.84344
1.34968,0.624137,2.428,2.84717
1.35756,0.624137,2.428,2.85091
1.36544,0.624137,2.428,2.85467
1.37332,0.624137,2.428,2.85845
1.3812,0.624137,2.428,2.86225
1.37936,0.619767,2.411,2.84599
1.38718,0.619767,2.411,2.84979
1.38517,0.615397,2.394,2.83349
1.39294,0.615397,2.394,2.83729
1.40071,0.615397,2.394,2.84112
1.40848,0.615397,2.394,2.84496
1.41625,0.615397,2.394,2.84881
1.42402,0.615397,2.394,2.85268
1.4318,0.615397,2.394,2.85657
1.44979,0.619767,2.411,2.88078
1.44734,0.615397,2.394,2.86439
1.45511,0.615397,2.394,2.86832
1.47326,0.619767,2.411,2.89267
1.48109,0.619767,2.411,2.89666
1.48892,0.619767,2.411,2.90067
1.49674,0.619767,2.411,2.9047
1.50457,0.619767,2.411,2.90874
1.51239,0.619767,2.411,2.91279
1.5095,0.615397,2.394,2.8963
1.51727,0.615397,2.394,2.90035
1.52504,0.615397,2.394,2.90443
1.52192,0.611027,2.377,2.88786
1.52964,0.611027,2.377,2.89193
1.52701,0.606914,2.361,2.87653
1.53467,0.606914,2.361,2.8806
1.54233,0.606914,2.361,2.88469
1.53949,0.602801,2.345,2.86922
1.52599,0.594575,2.313,2.8341
1.5335,0.594575,2.313,2.83815
1.53101,0.590719,2.298,2.82378
1.52776,0.586606,2.282,2.80815
1.53517,0.586606,2.282,2.81218
1.53243,0.58275,2.267,2.79772
1.51942,0.575039,2.237,2.76468
-1.84117,0.690844,2.654,3.30316
-1.83255,0.690844,2.654,3.29837
-1.83837,0.69631,2.675,3.31965
-1.82969,0.69631,2.675,3.31485
-1.8353,0.701776,2.696,3.33605
-1.82655,0.701776,2.696,3.33124
-1.8178,0.701776,2.696,3.32646
-1.80905,0.701776,2.696,3.32168
-1.8003,0.701776,2.696,3.31692
-1.77759,0.69631,2.675,3.28638
-1.76891,0.69631,2.675,3.28169
-1.76023,0.69631,2.675,3.27702
-1.75155,0.69631,2.675,3.27237
-1.74286,0.69631,2.675,3.26773
-1.73418,0.69631,2.675,3.26311
-1.7255,0.69631,2.675,3.2585
-1.73029,0.701776,2.696,3.27946
-1.73495,0.707243,2.717,3.30036
-1.72614,0.707243,2.717,3.29573
-1.71732,0.707243,2.717,3.29112
-1.7085,0.707243,2.717,3.28653
-1.69968,0.707243,2.717,3.28195
-1.69086,0.707243,2.717,3.27739
-1.68204,0.707243,2.717,3.27285
-1.66029,0.701776,2.696,3.24306
-1.63868,0.69631,2.675,3.21337
-1.62999,0.69631,2.675,3.20895
-1.62131,0.69631,2.675,3.20455
-1.58731,0.685377,2.633,3.14992
-1.57876,0.685377,2.633,3.14562
-1.57022,0.685377,2.633,3.14134
-1.53795,0.674965,2.593,3.08942
-1.51832,0.670019,2.574,3.06263
-1.50997,0.670019,2.574,3.0585
-1.49053,0.665074,2.555,3.03184
-1.48224,0.665074,2.555,3.02777
-1.47394,0.665074,2.555,3.02372
-1.45475,0.660128,2.536,2.99723
-1.43568,0.655182,2.517,2.97081
-1.42751,0.655182,2.517,2.96687
-1.43006,0.660128,2.536,2.98532
-1.42183,0.660128,2.536,2.98138
-1.42419,0.665074,2.555,2.99978
-1.41589,0.665074,2.555,2.99585
-1.4076,0.665074,2.555,2.99194
-1.39931,0.665074,2.555,2.98804
-1.39101,0.665074,2.555,2.98417
-1.38272,0.665074,2.555,2.98031
-1.36421,0.660128,2.536,2.95434
-1.35598,0.660128,2.536,2.95055
-1.34774,0.660128,2.536,2.94677
-1.32948,0.655182,2.517,2.92097
-1.31186,0.650497,2.499,2.8964
-1.30375,0.650497,2.499,2.89273
-1.2863,0.645811,2.481,2.86828
-1.27825,0.645811,2.481,2.86467
-1.2702,0.645811,2.481,2.86109
-1.25299,0.641126,2.463,2.83679
-1.245,0.641126,2.463,2.83327
-1.237,0.641126,2.463,2.82977
-1.22901,0.641126,2.463,2.82628
-1.22101,0.641126,2.463,2.82281
-1.21302,0.641126,2.463,2.81937
-1.20502,0.641126,2.463,2.81594
-1.19703,0.641126,2.463,2.81252
-1.18904,0.641126,2.463,2.80913
-1.18104,0.641126,2.463,2.80576
-1.17305,0.641126,2.463,2.8024
-1.15654,0.63644,2.445,2.77861
-1.1486,0.63644,2.445,2.77531
-1.14067,0.63644,2.445,2.77204
-1.12485,0.632015,2.428,2.74953
-1.11697,0.632015,2.428,2.74632
-1.10909,0.632015,2.428,2.74312
-1.0935,0.62759,2.411,2.72076
-1.08568,0.62759,2.411,2.71762
-1.07785,0.62759,2.411,2.71451
-1.06248,0.623165,2.394,2.69229
-1.05471,0.623165,2.394,2.68923
-1.04694,0.623165,2.394,2.6862
-1.03917,0.623165,2.394,2.68318
-1.0314,0.623165,2.394,2.68018
-1.02363,0.623165,2.394,2.6772
-1.01586,0.623165,2.394,2.67424
-1.00809,0.623165,2.394,2.67129
-1.00032,0.623165,2.394,2.66837
-0.992548,0.623165,2.394,2.66547
-0.984778,0.623165,2.394,2.66258
-0.977007,0.623165,2.394,2.65972
-0.969237,0.623165,2.394,2.65688
-0.961466,0.623165,2.394,2.65405
-0.953696,0.623165,2.394,2.65125
-0.945926,0.623165,2.394,2.64846
-0.938156,0.623165,2.394,2.6457
-0.930385,0.623165,2.394,2.64295
-0.922615,0.623165,2.394,2.64023
-0.914845,0.623165,2.394,2.63752
-0.907074,0.623165,2.394,2.63483
-0.892918,0.61874,2.377,2.61348
-0.885203,0.61874,2.377,2.61085
-0.877488,0.61874,2.377,2.60825
-0.869772,0.61874,2.377,2.60566
-0.862057,0.61874,2.377,2.6031
-0.854342,0.61874,2.377,2.60055
-0.846627,0.61874,2.377,2.59803
-0.838912,0.61874,2.377,2.59552
-0.825602,0.614575,2.361,2.57559
-0.817938,0.614575,2.361,2.57314
-0.804784,0.61041,2.345,2.55329
-0.797173,0.61041,2.345,2.5509
-0.789562,0.61041,2.345,2.54854
-0.787286,0.614575,2.361,2.56356
-0.779622,0.614575,2.361,2.56122
-0.771959,0.614575,2.361,2.5589
-0.759116,0.61041,2.345,2.53927
-0.751505,0.61041,2.345,2.537
-0.743894,0.61041,2.345,2.53476
-0.741306,0.614575,2.361,2.54982
-0.733643,0.614575,2.361,2.5476
-0.72598,0.614575,2.361,2.5454
-0.718317,0.614575,2.361,2.54323
-0.715469,0.61874,2.377,2.55829
-0.712816,0.623165,2.394,2.57443
-0.705046,0.623165,2.394,2.57229
-0.697275,0.623165,2.394,2.57017
-0.689505,0.623165,2.394,2.56807
-0.681735,0.623165,2.394,2.566
-0.67875,0.62759,2.411,2.58215
-0.680386,0.63644,2.445,2.61649
-0.67245,0.63644,2.445,2.61444
-0.669406,0.641126,2.463,2.63164
-0.661412,0.641126,2.463,2.62962
-0.653418,0.641126,2.463,2.62762
-0.645424,0.641126,2.463,2.62564
-0.637429,0.641126,2.463,2.62369
-0.629435,0.641126,2.463,2.62176
-0.621441,0.641126,2.463,2.61985
-0.61793,0.645811,2.481,2.6371
-0.609877,0.645811,2.481,2.63522
-0.601824,0.645811,2.481,2.63337
-0.593771,0.645811,2.481,2.63154
-0.581469,0.641126,2.463,2.61065
-0.573475,0.641126,2.463,2.60889
-0.561348,0.63644,2.445,2.58809
-0.553412,0.63644,2.445,2.58638
-0.545476,0.63644,2.445,2.58469
-0.533803,0.632015,2.428,2.56507
-0.525922,0.632015,2.428,2.56344
-0.518042,0.632015,2.428,2.56183
-0.506589,0.62759,2.411,2.54233
-0.498764,0.62759,2.411,2.54078
-0.490938,0.62759,2.411,2.53925
-0.479706,0.623165,2.394,2.51986
-0.471936,0.623165,2.394,2.51839
-0.467461,0.62759,2.411,2.53482
-0.459636,0.62759,2.411,2.53339
-0.45181,0.62759,2.411,2.53198
-0.443985,0.62759,2.411,2.5306
-0.436159,0.62759,2.411,2.52923
-0.425314,0.623165,2.394,2.51007
-0.417543,0.623165,2.394,2.50877
-0.409773,0.623165,2.394,2.50749
-0.402003,0.623165,2.394,2.50623
-0.391433,0.61874,2.377,2.4872
-0.383718,0.61874,2.377,2.486
-0.376003,0.61874,2.377,2.48482
-0.365808,0.614575,2.361,2.46695
-0.355718,0.61041,2.345,2.44911
-0.348107,0.61041,2.345,2.44802
-0.340496,0.61041,2.345,2.44695
-0.332884,0.61041,2.345,2.4459
-0.325273,0.61041,2.345,2.44488
-0.317662,0.61041,2.345,2.44388
-0.305819,0.60208,2.313,2.40956
-0.298312,0.60208,2.313,2.40862
-0.290805,0.60208,2.313,2.4077
-0.283297,0.60208,2.313,2.40681
-0.27579,0.60208,2.313,2.40594
-0.268282,0.60208,2.313,2.40509
-0.262579,0.606245,2.329,2.42089
-0.255019,0.606245,2.329,2.42008
-0.24746,0.606245,2.329,2.4193
-0.239901,0.606245,2.329,2.41854
-0.232341,0.606245,2.329,2.4178
-0.224782,0.606245,2.329,2.41709
-0.217223,0.606245,2.329,2.41639
-0.211104,0.61041,2.345,2.43232
-0.204881,0.614575,2.361,2.44826
-0.197218,0.614575,2.361,2.44764
-0.189554,0.614575,2.361,2.44703
-0.181891,0.614575,2.361,2.44645
-0.174228,0.614575,2.361,2.44589
-0.166565,0.614575,2.361,2.44536
-0.158902,0.614575,2.361,2.44485
-0.151238,0.614575,2.361,2.44436
-0.143575,0.614575,2.361,2.4439
-0.135912,0.614575,2.361,2.44346
-0.128249,0.614575,2.361,2.44305
-0.120585,0.614575,2.361,2.44266
-0.112922,0.614575,2.361,2.44229
-0.105259,0.614575,2.361,2.44195
-0.0975958,0.614575,2.361,2.44163
-0.0899326,0.614575,2.361,2.44133
-0.0817118,0.61041,2.345,2.42452
-0.0741005,0.61041,2.345,2.42428
-0.0660356,0.606245,2.329,2.40752
-0.0584762,0.606245,2.329,2.40732
-0.0509169,0.606245,2.329,2.40715
-0.0430597,0.60208,2.313,2.39047
-0.0355522,0.60208,2.313,2.39034
-0.0280448,0.60208,2.313,2.39024
-0.0205374,0.60208,2.313,2.39017
-0.01303,0.60208,2.313,2.39011
-0.00552254,0.60208,2.313,2.39008
0.00197201,0.598176,2.298,2.37458
0.00943075,0.598176,2.298,2.3746
0.0168895,0.598176,2.298,2.37464
0.0243482,0.598176,2.298,2.3747
0.031807,0.598176,2.298,2.37479
0.039522,0.60208,2.313,2.3904
0.0470294,0.60208,2.313,2.39054
0.0545368,0.60208,2.313,2.3907
0.0620443,0.60208,2.313,2.39088
0.0700328,0.606245,2.329,2.40763
0.0775922,0.606245,2.329,2.40786
0.0851515,0.606245,2.329,2.40812
0.0927109,0.606245,2.329,2.4084
0.10027,0.606245,2.329,2.4087
0.10783,0.606245,2.329,2.40902
0.115389,0.606245,2.329,2.40938
0.122948,0.606245,2.329,2.40975
0.130508,0.606245,2.329,2.41015
0.137119,0.60208,2.313,2.39401
0.144626,0.60208,2.313,2.39445
0.152133,0.60208,2.313,2.39491
0.159641,0.60208,2.313,2.3954
0.167148,0.60208,2.313,2.39592
0.173523,0.598176,2.298,2.38091
0.180982,0.598176,2.298,2.38146
0.18844,0.598176,2.298,2.38204
0.195899,0.598176,2.298,2.38264
0.203358,0.598176,2.298,2.38327
0.212193,0.60208,2.313,2.39948
0.2197,0.60208,2.313,2.40015
0.227208,0.60208,2.313,2.40085
0.234715,0.60208,2.313,2.40157
0.243898,0.606245,2.329,2.41894
0.251457,0.606245,2.329,2.41971
0.259017,0.606245,2.329,2.42051
0.266576,0.606245,2.329,2.42133
0.274135,0.606245,2.329,2.42217
0.281695,0.606245,2.329,2.42304
0.289254,0.606245,2.329,2.42393
0.296813,0.606245,2.329,2.42484
0.304373,0.606245,2.329,2.42578
0.314075,0.61041,2.345,2.44341
0.321686,0.61041,2.345,2.4444
0.329298,0.61041,2.345,2.44542
0.33461,0.606245,2.329,2.42976
0.34217,0.606245,2.329,2.43081
0.349729,0.606245,2.329,2.43189
0.357288,0.606245,2.329,2.43299
0.364848,0.606245,2.329,2.43411
0.372407,0.606245,2.329,2.43525
0.379966,0.606245,2.329,2.43642
0.387526,0.606245,2.329,2.43761
0.395085,0.606245,2.329,2.43882
0.399878,0.60208,2.313,2.4233
0.407386,0.60208,2.313,2.42455
0.414893,0.60208,2.313,2.42582
0.422401,0.60208,2.313,2.42712
0.429908,0.60208,2.313,2.42843
0.437415,0.60208,2.313,2.42977
0.444923,0.60208,2.313,2.43114
0.45243,0.60208,2.313,2.43252
0.463119,0.606245,2.329,2.45077
0.467445,0.60208,2.313,2.43536
0.474953,0.60208,2.313,2.43681
0.485797,0.606245,2.329,2.45515
0.493357,0.606245,2.329,2.45666
0.500916,0.606245,2.329,2.45819
0.511969,0.61041,2.345,2.47664
0.51958,0.61041,2.345,2.47822
0.527191,0.61041,2.345,2.47983
0.534802,0.61041,2.345,2.48146
0.542414,0.61041,2.345,2.48311
0.550025,0.61041,2.345,2.48478
0.561441,0.614575,2.361,2.50345
0.569104,0.614575,2.361,2.50518
0.576768,0.614575,2.361,2.50693
0.584431,0.614575,2.361,2.5087
0.592094,0.614575,2.361,2.5105
0.599757,0.614575,2.361,2.51232
0.60742,0.614575,2.361,2.51416
0.610915,0.61041,2.345,2.49897
0.618527,0.61041,2.345,2.50084
0.626138,0.61041,2.345,2.50273
0.642397,0.61874,2.377,2.53883
0.650113,0.61874,2.377,2.54079
0.6534,0.614575,2.361,2.52566
0.656583,0.61041,2.345,2.51052
0.664194,0.61041,2.345,2.51252
0.662638,0.60208,2.313,2.48023
0.6658,0.598176,2.298,2.46615
0.668571,0.594011,2.282,2.45099
0.675978,0.594011,2.282,2.45302
0.683384,0.594011,2.282,2.45507
0.690791,0.594011,2.282,2.45715
0.698198,0.594011,2.282,2.45924
0.705605,0.594011,2.282,2.46135
0.713012,0.594011,2.282,2.46349
0.720418,0.594011,2.282,2.46564
0.727825,0.594011,2.282,2.46781
0.730399,0.590106,2.267,2.45377
0.737757,0.590106,2.267,2.45597
0.745115,0.590106,2.267,2.45819
0.747495,0.586202,2.252,2.44415
0.754804,0.586202,2.252,2.4464
0.762114,0.586202,2.252,2.44866
0.764298,0.582297,2.237,2.43462
0.76673,0.578653,2.223,2.42166
0.773945,0.578653,2.223,2.42396
0.776241,0.575009,2.209,2.41099
0.773126,0.56746,2.18,2.38162
0.780202,0.56746,2.18,2.38393
0.787278,0.56746,2.18,2.38626
0.794353,0.56746,2.18,2.3886
0.801429,0.56746,2.18,2.39096
0.808505,0.56746,2.18,2.39334
0.820818,0.571104,2.194,2.41113
0.82794,0.571104,2.194,2.41356
0.835061,0.571104,2.194,2.41601
0.842182,0.571104,2.194,2.41848
0.849303,0.571104,2.194,2.42097
0.856424,0.571104,2.194,2.42348
0.863545,0.571104,2.194,2.42601
0.876619,0.575009,2.209,2.44515
0.88939,0.578653,2.223,2.46325
0.896606,0.578653,2.223,2.46586
0.903821,0.578653,2.223,2.46849
0.911036,0.578653,2.223,2.47114
0.918252,0.578653,2.223,2.47381
0.931295,0.582297,2.237,2.4921
0.944849,0.586202,2.252,2.51155
0.952159,0.586202,2.252,2.51431
0.959468,0.586202,2.252,2.51708
0.973217,0.590106,2.267,2.53666
0.987063,0.594011,2.282,2.5563
0.99447,0.594011,2.282,2.55917
1.0089,0.598176,2.298,2.58002
1.01636,0.598176,2.298,2.58295
1.02382,0.598176,2.298,2.58589
1.03801,0.60208,2.313,2.60575
1.05275,0.606245,2.329,2.6268
1.06759,0.61041,2.345,2.6479
1.0752,0.61041,2.345,2.65098
1.0902,0.614575,2.361,2.67218
1.09787,0.614575,2.361,2.67532
1.10553,0.614575,2.361,2.67847
1.12074,0.61874,2.377,2.69982
1.12845,0.61874,2.377,2.70303
1.13617,0.61874,2.377,2.70626
1.14388,0.61874,2.377,2.70951
1.1516,0.61874,2.377,2.71277
1.15931,0.61874,2.377,2.71606
1.17537,0.623165,2.394,2.73881
1.18314,0.623165,2.394,2.74215
1.19091,0.623165,2.394,2.74551
1.19869,0.623165,2.394,2.74889
1.20646,0.623165,2.394,2.75229
1.21423,0.623165,2.394,2.75571
1.222,0.623165,2.394,2.75914
1.2385,0.62759,2.411,2.78221
1.24632,0.62759,2.411,2.7857
1.25415,0.62759,2.411,2.78921
1.26198,0.62759,2.411,2.79274
1.2698,0.62759,2.411,2.79628
1.27763,0.62759,2.411,2.79984
1.28545,0.62759,2.411,2.80342
1.29328,0.62759,2.411,2.80702
1.3011,0.62759,2.411,2.81063
1.30893,0.62759,2.411,2.81426
1.30747,0.623165,2.394,2.79804
1.31524,0.623165,2.394,2.80168
1.32301,0.623165,2.394,2.80534
1.33078,0.623165,2.394,2.80901
1.33855,0.623165,2.394,2.8127
1.33676,0.61874,2.377,2.79641
1.34448,0.61874,2.377,2.8001
1.35219,0.61874,2.377,2.80382
1.35991,0.61874,2.377,2.80755
1.35842,0.614575,2.361,2.79237
1.36608,0.614575,2.361,2.7961
1.37374,0.614575,2.361,2.79986
1.38141,0.614575,2.361,2.80362
1.38907,0.614575,2.361,2.80741
1.39673,0.614575,2.361,2.81121
1.4044,0.614575,2.361,2.81502
1.41206,0.614575,2.361,2.81885
1.41972,0.614575,2.361,2.8227
1.42738,0.614575,2.361,2.82656
1.44477,0.61874,2.377,2.84962
1.45249,0.61874,2.377,2.85354
1.4602,0.61874,2.377,2.85747
1.46792,0.61874,2.377,2.86143
1.48619,0.623165,2.394,2.88588
1.49396,0.623165,2.394,2.88989
1.49106,0.61874,2.377,2.87337
1.49878,0.61874,2.377,2.87738
1.50649,0.61874,2.377,2.8814
1.50402,0.614575,2.361,2.86602
1.51168,0.614575,2.361,2.87005
1.51934,0.614575,2.361,2.8741
1.51666,0.61041,2.345,2.85865
1.51387,0.606245,2.329,2.84316
1.52143,0.606245,2.329,2.8472
1.51848,0.60208,2.313,2.83165
1.50554,0.594011,2.282,2.79768
1.51295,0.594011,2.282,2.80167
1.52035,0.594011,2.282,2.80568
1.51772,0.590106,2.267,2.79123
1.52508,0.590106,2.267,2.79524
1.52229,0.586202,2.252,2.78074
1.51942,0.582297,2.237,2.7662
-1.84117,0.699455,2.654,3.30497
-1.83255,0.699455,2.654,3.30018
-1.83837,0.70499,2.675,3.32148
-1.82969,0.70499,2.675,3.31668
-1.8353,0.710524,2.696,3.3379
-1.82655,0.710524,2.696,3.3331
-1.8178,0.710524,2.696,3.32831
-1.80905,0.710524,2.696,3.32354
-1.8003,0.710524,2.696,3.31879
-1.77759,0.70499,2.675,3.28823
-1.76891,0.70499,2.675,3.28355
-1.76023,0.70499,2.675,3.27888
-1.75155,0.70499,2.675,3.27423
-1.74286,0.70499,2.675,3.26959
-1.73418,0.70499,2.675,3.26497
-1.7255,0.70499,2.675,3.26037
-1.71682,0.70499,2.675,3.25578
-1.72154,0.710524,2.696,3.27673
-1.71279,0.710524,2.696,3.27214
-1.70404,0.710524,2.696,3.26757
-1.69529,0.710524,2.696,3.26302
-1.68654,0.710524,2.696,3.25848
-1.69086,0.716059,2.717,3.2793
-1.68204,0.716059,2.717,3.27477
-1.66029,0.710524,2.696,3.24497
-1.65154,0.710524,2.696,3.2405
-1.62999,0.70499,2.675,3.21084
-1.62131,0.70499,2.675,3.20644
-1.58731,0.693921,2.633,3.15179
-1.57876,0.693921,2.633,3.14749
-1.57022,0.693921,2.633,3.14321
-1.53795,0.683379,2.593,3.09127
-1.51832,0.678372,2.574,3.06447
-1.50997,0.678372,2.574,3.06034
-1.49053,0.673364,2.555,3.03366
-1.48224,0.673364,2.555,3.0296
-1.47394,0.673364,2.555,3.02555
-1.45475,0.668357,2.536,2.99905
-1.44652,0.668357,2.536,2.99507
-1.43829,0.668357,2.536,2.9911
-1.43006,0.668357,2.536,2.98715
-1.42183,0.668357,2.536,2.98322
-1.41359,0.668357,2.536,2.9793
-1.41589,0.673364,2.555,2.9977
-1.4076,0.673364,2.555,2.99379
-1.3889,0.668357,2.536,2.96767
-1.38067,0.668357,2.536,2.96382
-1.37244,0.668357,2.536,2.96
-1.35399,0.663349,2.517,2.93404
-1.34582,0.663349,2.517,2.93028
-1.33765,0.663349,2.517,2.92654
-1.31997,0.658605,2.499,2.90191
-1.30241,0.653862,2.481,2.87735
-1.29436,0.653862,2.481,2.87372
-1.2863,0.653862,2.481,2.8701
-1.26898,0.649118,2.463,2.8457
-1.26098,0.649118,2.463,2.84215
-1.24383,0.644374,2.445,2.81786
-1.2359,0.644374,2.445,2.81437
-1.22796,0.644374,2.445,2.81089
-1.22002,0.644374,2.445,2.80744
-1.21209,0.644374,2.445,2.804
-1.20415,0.644374,2.445,2.80058
-1.19622,0.644374,2.445,2.79717
-1.18828,0.644374,2.445,2.79379
-1.18035,0.644374,2.445,2.79042
-1.18104,0.649118,2.463,2.80759
-1.17305,0.649118,2.463,2.80424
-1.15654,0.644374,2.445,2.78044
-1.1486,0.644374,2.445,2.77714
-1.13274,0.639894,2.428,2.75459
-1.12485,0.639894,2.428,2.75135
-1.11697,0.639894,2.428,2.74814
-1.10909,0.639894,2.428,2.74495
-1.0935,0.635413,2.411,2.72258
-1.08568,0.635413,2.411,2.71944
-1.07785,0.635413,2.411,2.71633
-1.06248,0.630933,2.394,2.6941
-1.05471,0.630933,2.394,2.69105
-1.04694,0.630933,2.394,2.68801
-1.03917,0.630933,2.394,2.68499
-1.0314,0.630933,2.394,2.682
-1.02363,0.630933,2.394,2.67902
-1.01586,0.630933,2.394,2.67606
-1.00809,0.630933,2.394,2.67312
-1.00032,0.630933,2.394,2.6702
-0.992548,0.630933,2.394,2.6673
-0.984778,0.630933,2.394,2.66441
-0.977007,0.630933,2.394,2.66155
-0.969237,0.630933,2.394,2.65871
-0.961466,0.630933,2.394,2.65589
-0.953696,0.630933,2.394,2.65308
-0.945926,0.630933,2.394,2.6503
-0.938156,0.630933,2.394,2.64754
-0.930385,0.630933,2.394,2.64479
-0.922615,0.630933,2.394,2.64207
-0.914845,0.630933,2.394,2.63937
-0.907074,0.630933,2.394,2.63668
-0.892918,0.626453,2.377,2.61532
-0.885203,0.626453,2.377,2.61269
-0.877488,0.626453,2.377,2.61009
-0.869772,0.626453,2.377,2.6075
-0.862057,0.626453,2.377,2.60494
-0.854342,0.626453,2.377,2.6024
-0.846627,0.626453,2.377,2.59987
-0.838912,0.626453,2.377,2.59737
-0.825602,0.622236,2.361,2.57742
-0.817938,0.622236,2.361,2.57498
-0.804784,0.618019,2.345,2.55512
-0.797173,0.618019,2.345,2.55274
-0.789562,0.618019,2.345,2.55037
-0.787286,0.622236,2.361,2.56541
-0.779622,0.622236,2.361,2.56307
-0.771959,0.622236,2.361,2.56075
-0.759116,0.618019,2.345,2.54111
-0.751505,0.618019,2.345,2.53884
-0.743894,0.618019,2.345,2.5366
-0.741306,0.622236,2.361,2.55167
-0.733643,0.622236,2.361,2.54946
-0.72598,0.622236,2.361,2.54726
-0.718317,0.622236,2.361,2.54509
-0.715469,0.626453,2.377,2.56017
-0.712816,0.630933,2.394,2.57632
-0.705046,0.630933,2.394,2.57418
-0.697275,0.630933,2.394,2.57206
-0.689505,0.630933,2.394,2.56997
-0.681735,0.630933,2.394,2.56789
-0.67875,0.635413,2.411,2.58406
-0.675655,0.639894,2.428,2.60022
-0.667775,0.639894,2.428,2.59819
-0.659894,0.639894,2.428,2.59617
-0.656578,0.644374,2.445,2.61234
-0.648643,0.644374,2.445,2.61036
-0.640707,0.644374,2.445,2.6084
-0.632771,0.644374,2.445,2.60646
-0.624835,0.644374,2.445,2.60455
-0.616899,0.644374,2.445,2.60265
-0.613446,0.649118,2.463,2.61993
-0.605452,0.649118,2.463,2.61807
-0.597458,0.649118,2.463,2.61623
-0.589464,0.649118,2.463,2.61442
-0.581469,0.649118,2.463,2.61263
-0.573475,0.649118,2.463,2.61086
-0.561348,0.644374,2.445,2.59005
-0.549564,0.639894,2.428,2.57034
-0.541684,0.639894,2.428,2.56867
-0.533803,0.639894,2.428,2.56702
-0.52224,0.635413,2.411,2.54743
-0.514415,0.635413,2.411,2.54584
-0.506589,0.635413,2.411,2.54427
-0.498764,0.635413,2.411,2.54272
-0.490938,0.635413,2.411,2.5412
-0.479706,0.630933,2.394,2.52179
-0.471936,0.630933,2.394,2.52032
-0.464165,0.630933,2.394,2.51888
-0.456395,0.630933,2.394,2.51746
-0.448625,0.630933,2.394,2.51606
-0.440854,0.630933,2.394,2.51469
-0.433084,0.630933,2.394,2.51334
-0.425314,0.630933,2.394,2.51201
-0.417543,0.630933,2.394,2.51071
-0.409773,0.630933,2.394,2.50943
-0.402003,0.630933,2.394,2.50817
-0.391433,0.626453,2.377,2.48913
-0.383718,0.626453,2.377,2.48793
-0.373472,0.622236,2.361,2.47002
-0.363329,0.618019,2.345,2.45214
-0.355718,0.618019,2.345,2.45102
-0.348107,0.618019,2.345,2.44993
-0.338172,0.613802,2.329,2.43215
-0.330613,0.613802,2.329,2.43111
-0.323054,0.613802,2.329,2.43009
-0.313327,0.609586,2.313,2.41241
-0.303836,0.605632,2.298,2.39581
-0.296378,0.605632,2.298,2.39488
-0.286907,0.601416,2.282,2.3773
-0.2795,0.601416,2.282,2.37641
-0.272094,0.601416,2.282,2.37555
-0.264687,0.601416,2.282,2.37472
-0.259084,0.605632,2.298,2.39055
-0.251625,0.605632,2.298,2.38975
-0.244166,0.605632,2.298,2.38898
-0.236708,0.605632,2.298,2.38823
-0.229249,0.605632,2.298,2.3875
-0.22179,0.605632,2.298,2.38679
-0.214331,0.605632,2.298,2.38611
-0.208223,0.609586,2.313,2.40103
-0.202104,0.613802,2.329,2.41699
-0.194545,0.613802,2.329,2.41637
-0.18827,0.618019,2.345,2.43237
-0.180659,0.618019,2.345,2.43179
-0.173047,0.618019,2.345,2.43124
-0.165436,0.618019,2.345,2.43071
-0.157825,0.618019,2.345,2.4302
-0.150213,0.618019,2.345,2.42972
-0.142602,0.618019,2.345,2.42926
-0.134991,0.618019,2.345,2.42883
-0.12738,0.618019,2.345,2.42841
-0.118951,0.613802,2.329,2.41146
-0.111392,0.613802,2.329,2.4111
-0.103832,0.613802,2.329,2.41076
-0.096273,0.613802,2.329,2.41045
-0.0887137,0.613802,2.329,2.41016
-0.0811543,0.613802,2.329,2.40989
-0.073595,0.613802,2.329,2.40965
-0.0655819,0.609586,2.313,2.39288
-0.0580745,0.609586,2.313,2.39268
-0.0505671,0.609586,2.313,2.39251
-0.0427804,0.605632,2.298,2.37685
-0.0353217,0.605632,2.298,2.37673
-0.0278629,0.605632,2.298,2.37663
-0.0202621,0.601416,2.282,2.36001
-0.0128553,0.601416,2.282,2.35996
-0.00544853,0.601416,2.282,2.35993
0.00195828,0.601416,2.282,2.35992
0.00936508,0.601416,2.282,2.35994
0.0167719,0.601416,2.282,2.35998
0.0241787,0.601416,2.282,2.36004
0.0315855,0.601416,2.282,2.36013
0.0389923,0.601416,2.282,2.36024
0.0463991,0.601416,2.282,2.36038
0.0538059,0.601416,2.282,2.36053
0.0616419,0.605632,2.298,2.37727
0.0691006,0.605632,2.298,2.37747
0.0765594,0.605632,2.298,2.3777
0.0840181,0.605632,2.298,2.37795
0.0914769,0.605632,2.298,2.37823
0.0989356,0.605632,2.298,2.37853
0.106394,0.605632,2.298,2.37885
0.113853,0.605632,2.298,2.37919
0.121312,0.605632,2.298,2.37956
0.128771,0.605632,2.298,2.37995
0.135281,0.601416,2.282,2.36379
0.142688,0.601416,2.282,2.36423
0.150094,0.601416,2.282,2.36469
0.157501,0.601416,2.282,2.36517
0.164908,0.601416,2.282,2.36568
0.172315,0.601416,2.282,2.3662
0.179722,0.601416,2.282,2.36675
0.187128,0.601416,2.282,2.36733
0.194535,0.601416,2.282,2.36792
0.201942,0.601416,2.282,2.36855
0.209349,0.601416,2.282,2.36919
0.216756,0.601416,2.282,2.36985
0.224162,0.601416,2.282,2.37054
0.234715,0.609586,2.313,2.40347
0.243898,0.613802,2.329,2.42084
0.251457,0.613802,2.329,2.42162
0.259017,0.613802,2.329,2.42241
0.266576,0.613802,2.329,2.42323
0.274135,0.613802,2.329,2.42408
0.281695,0.613802,2.329,2.42494
0.289254,0.613802,2.329,2.42583
0.296813,0.613802,2.329,2.42675
0.304373,0.613802,2.329,2.42768
0.314075,0.618019,2.345,2.44533
0.321686,0.618019,2.345,2.44631
0.329298,0.618019,2.345,2.44733
0.33461,0.613802,2.329,2.43166
0.34217,0.613802,2.329,2.43271
0.349729,0.613802,2.329,2.43378
0.357288,0.613802,2.329,2.43488
0.364848,0.613802,2.329,2.436
0.372407,0.613802,2.329,2.43715
0.379966,0.613802,2.329,2.43831
0.387526,0.613802,2.329,2.4395
0.395085,0.613802,2.329,2.44071
0.399878,0.609586,2.313,2.42517
0.407386,0.609586,2.313,2.42642
0.414893,0.609586,2.313,2.42769
0.422401,0.609586,2.313,2.42899
0.429908,0.609586,2.313,2.43031
0.437415,0.609586,2.313,2.43164
0.444923,0.609586,2.313,2.43301
0.45243,0.609586,2.313,2.43439
0.463119,0.613802,2.329,2.45265
0.467445,0.609586,2.313,2.43723
0.474953,0.609586,2.313,2.43868
0.485797,0.613802,2.329,2.45703
0.493357,0.613802,2.329,2.45854
0.500916,0.613802,2.329,2.46006
0.511969,0.618019,2.345,2.47852
0.51958,0.618019,2.345,2.48011
0.527191,0.618019,2.345,2.48171
0.534802,0.618019,2.345,2.48334
0.542414,0.618019,2.345,2.48499
0.550025,0.618019,2.345,2.48666
0.561441,0.622236,2.361,2.50534
0.569104,0.622236,2.361,2.50707
0.576768,0.622236,2.361,2.50882
0.584431,0.622236,2.361,2.51059
0.592094,0.622236,2.361,2.51238
0.599757,0.622236,2.361,2.5142
0.60742,0.622236,2.361,2.51604
0.610915,0.618019,2.345,2.50084
0.618527,0.618019,2.345,2.50271
0.626138,0.618019,2.345,2.5046
0.629425,0.613802,2.329,2.48941
0.636985,0.613802,2.329,2.49133
0.644544,0.613802,2.329,2.49328
0.647623,0.609586,2.313,2.4781
0.655131,0.609586,2.313,2.48007
0.658341,0.605632,2.298,2.46597
0.661164,0.601416,2.282,2.45079
0.664176,0.597462,2.267,2.43667
0.671534,0.597462,2.267,2.43869
0.678892,0.597462,2.267,2.44073
0.686251,0.597462,2.267,2.44278
0.693609,0.597462,2.267,2.44486
0.700967,0.597462,2.267,2.44696
0.708325,0.597462,2.267,2.44908
0.720418,0.601416,2.282,2.46743
0.723041,0.597462,2.267,2.45337
0.725566,0.593509,2.252,2.4393
0.732876,0.593509,2.252,2.44149
0.740185,0.593509,2.252,2.44369
0.742516,0.589556,2.237,2.42962
0.749777,0.589556,2.237,2.43185
0.757037,0.589556,2.237,2.4341
0.764298,0.589556,2.237,2.43637
0.76673,0.585866,2.223,2.42339
0.773945,0.585866,2.223,2.42569
0.77097,0.578223,2.194,2.39632
0.768516,0.571108,2.167,2.36911
0.775549,0.571108,2.167,2.3714
0.782583,0.571108,2.167,2.37371
0.789617,0.571108,2.167,2.37604
0.801429,0.574534,2.18,2.39265
0.808505,0.574534,2.18,2.39503
0.815581,0.574534,2.18,2.39743
0.822656,0.574534,2.18,2.39984
0.829732,0.574534,2.18,2.40228
0.836808,0.574534,2.18,2.40473
0.843884,0.574534,2.18,2.4072
0.850959,0.574534,2.18,2.40969
0.858035,0.574534,2.18,2.4122
0.870667,0.578223,2.194,2.43023
0.883789,0.582177,2.209,2.44943
0.890959,0.582177,2.209,2.45202
0.898129,0.582177,2.209,2.45464
0.911036,0.585866,2.223,2.47284
0.918252,0.585866,2.223,2.47551
0.925467,0.585866,2.223,2.4782
0.938556,0.589556,2.237,2.49652
0.945817,0.589556,2.237,2.49926
0.953077,0.589556,2.237,2.50202
0.966778,0.593509,2.252,2.52159
0.980575,0.597462,2.267,2.54122
0.987933,0.597462,2.267,2.54406
1.00188,0.601416,2.282,2.56378
1.00928,0.601416,2.282,2.56669
1.01669,0.601416,2.282,2.56961
1.03128,0.605632,2.298,2.59058
1.03874,0.605632,2.298,2.59356
1.06031,0.613802,2.329,2.63159
1.06787,0.613802,2.329,2.63464
1.07543,0.613802,2.329,2.63771
1.09043,0.618019,2.345,2.65895
1.09804,0.618019,2.345,2.66208
1.10565,0.618019,2.345,2.66523
1.12086,0.622236,2.361,2.6866
1.12852,0.622236,2.361,2.68981
1.13618,0.622236,2.361,2.69303
1.14385,0.622236,2.361,2.69627
1.15151,0.622236,2.361,2.69953
1.15917,0.622236,2.361,2.70281
1.16684,0.622236,2.361,2.7061
1.1745,0.622236,2.361,2.70942
1.18216,0.622236,2.361,2.71275
1.18983,0.622236,2.361,2.7161
1.19749,0.622236,2.361,2.71946
1.20515,0.622236,2.361,2.72285
1.22103,0.626453,2.377,2.74472
1.22875,0.626453,2.377,2.74816
1.23646,0.626453,2.377,2.75162
1.24418,0.626453,2.377,2.7551
1.25189,0.626453,2.377,2.75859
1.25961,0.626453,2.377,2.7621
1.26732,0.626453,2.377,2.76563
1.27504,0.626453,2.377,2.76917
1.28275,0.626453,2.377,2.77273
1.29047,0.626453,2.377,2.77631
1.29819,0.626453,2.377,2.7799
1.3059,0.626453,2.377,2.78351
1.31362,0.626453,2.377,2.78714
1.31244,0.622236,2.361,2.772
1.3201,0.622236,2.361,2.77564
1.31877,0.618019,2.345,2.76046
1.32638,0.618019,2.345,2.7641
1.33399,0.618019,2.345,2.76776
1.3416,0.618019,2.345,2.77144
1.34,0.613802,2.329,2.75619
1.34756,0.613802,2.329,2.75988
1.35512,0.613802,2.329,2.76358
1.35332,0.609586,2.313,2.74828
1.36083,0.609586,2.313,2.75198
1.36834,0.609586,2.313,2.7557
1.37584,0.609586,2.313,2.75944
1.38335,0.609586,2.313,2.76319
1.40048,0.613802,2.329,2.7861
1.40804,0.613802,2.329,2.7899
1.4156,0.613802,2.329,2.79373
1.42316,0.613802,2.329,2.79757
1.43072,0.613802,2.329,2.80142
1.44816,0.618019,2.345,2.82456
1.4657,0.622236,2.361,2.84777
1.46338,0.618019,2.345,2.83239
1.47099,0.618019,2.345,2.83633
1.4786,0.618019,2.345,2.84029
1.48621,0.618019,2.345,2.84426
1.48363,0.613802,2.329,2.82881
1.49119,0.613802,2.329,2.83278
1.49875,0.613802,2.329,2.83677
1.50631,0.613802,2.329,2.84077
1.51387,0.613802,2.329,2.84478
1.52143,0.613802,2.329,2.84881
1.51848,0.609586,2.313,2.83326
1.50554,0.601416,2.282,2.79926
1.51295,0.601416,2.282,2.80325
1.52035,0.601416,2.282,2.80726
1.51772,0.597462,2.267,2.7928
1.52508,0.597462,2.267,2.7968
1.52229,0.593509,2.252,2.78229
1.51942,0.589556,2.237,2.76774
-1.84117,0.708067,2.654,3.30681
-1.83255,0.708067,2.654,3.30202
-1.82394,0.708067,2.654,3.29725
-1.82969,0.71367,2.675,3.31854
-1.82101,0.71367,2.675,3.31376
-1.81232,0.71367,2.675,3.309
-1.80364,0.71367,2.675,3.30425
-1.79496,0.71367,2.675,3.29952
-1.77225,0.708067,2.654,3.26894
-1.74968,0.702465,2.633,3.23845
-1.74114,0.702465,2.633,3.23384
-1.73259,0.702465,2.633,3.22924
-1.72405,0.702465,2.633,3.22467
-1.7155,0.702465,2.633,3.22011
-1.70695,0.702465,2.633,3.21556
-1.69841,0.702465,2.633,3.21103
-1.68986,0.702465,2.633,3.20652
-1.69472,0.708067,2.654,3.22756
-1.68611,0.708067,2.654,3.22305
-1.6775,0.708067,2.654,3.21855
-1.68209,0.71367,2.675,3.2395
-1.6734,0.71367,2.675,3.235
-1.66472,0.71367,2.675,3.23052
-1.66904,0.719272,2.696,3.25138
-1.66029,0.719272,2.696,3.2469
-1.65154,0.719272,2.696,3.24243
-1.62999,0.71367,2.675,3.21276
-1.62131,0.71367,2.675,3.20836
-1.59997,0.708067,2.654,3.17883
-1.57876,0.702465,2.633,3.14939
-1.57022,0.702465,2.633,3.14511
-1.54981,0.697129,2.613,3.117
-1.52953,0.691793,2.593,3.08896
-1.52111,0.691793,2.593,3.0848
-1.49053,0.681655,2.555,3.03552
-1.48224,0.681655,2.555,3.03145
-1.47394,0.681655,2.555,3.02741
-1.45475,0.676586,2.536,3.00089
-1.44652,0.676586,2.536,2.99691
-1.43829,0.676586,2.536,2.99295
-1.43006,0.676586,2.536,2.989
-1.42183,0.676586,2.536,2.98507
-1.41359,0.676586,2.536,2.98116
-1.41589,0.681655,2.555,2.99957
-1.4076,0.681655,2.555,2.99567
-1.3889,0.676586,2.536,2.96953
-1.38067,0.676586,2.536,2.96569
-1.37244,0.676586,2.536,2.96187
-1.35399,0.671517,2.517,2.9359
-1.34582,0.671517,2.517,2.93214
-1.33765,0.671517,2.517,2.9284
-1.31997,0.666714,2.499,2.90376
-1.30241,0.661912,2.481,2.87919
-1.29436,0.661912,2.481,2.87556
-1.2863,0.661912,2.481,2.87195
-1.26898,0.65711,2.463,2.84754
-1.26098,0.65711,2.463,2.84398
-1.24383,0.652308,2.445,2.81969
-1.2359,0.652308,2.445,2.8162
-1.22796,0.652308,2.445,2.81272
-1.22002,0.652308,2.445,2.80927
-1.21209,0.652308,2.445,2.80583
-1.20415,0.652308,2.445,2.80241
-1.19622,0.652308,2.445,2.79901
-1.18828,0.652308,2.445,2.79563
-1.18035,0.652308,2.445,2.79227
-1.18104,0.65711,2.463,2.80945
-1.17305,0.65711,2.463,2.8061
-1.15654,0.652308,2.445,2.78229
-1.1486,0.652308,2.445,2.779
-1.13274,0.647772,2.428,2.75643
-1.12485,0.647772,2.428,2.7532
-1.11697,0.647772,2.428,2.74999
-1.10909,0.647772,2.428,2.74679
-1.0935,0.643237,2.411,2.72441
-1.08568,0.643237,2.411,2.72128
-1.07785,0.643237,2.411,2.71817
-1.06248,0.638701,2.394,2.69593
-1.05471,0.638701,2.394,2.69288
-1.04694,0.638701,2.394,2.68984
-1.02485,0.629897,2.361,2.64979
-1.01718,0.629897,2.361,2.64684
-1.00952,0.629897,2.361,2.6439
-1.00186,0.629897,2.361,2.64099
-1.00093,0.634166,2.377,2.65597
-0.993215,0.634166,2.377,2.65307
-0.9855,0.634166,2.377,2.65019
-0.971203,0.629897,2.361,2.62951
-0.96354,0.629897,2.361,2.62669
-0.955876,0.629897,2.361,2.62389
-0.948213,0.629897,2.361,2.62111
-0.946924,0.634166,2.377,2.63609
-0.939209,0.634166,2.377,2.63333
-0.931494,0.634166,2.377,2.63058
-0.923778,0.634166,2.377,2.62786
-0.916063,0.634166,2.377,2.62516
-0.908348,0.634166,2.377,2.62248
-0.900633,0.634166,2.377,2.61982
-0.886907,0.629897,2.361,2.59956
-0.879244,0.629897,2.361,2.59695
-0.871581,0.629897,2.361,2.59437
-0.863918,0.629897,2.361,2.5918
-0.856255,0.629897,2.361,2.58926
-0.848591,0.629897,2.361,2.58674
-0.840928,0.629897,2.361,2.58423
-0.833265,0.629897,2.361,2.58175
-0.825602,0.629897,2.361,2.57928
-0.817938,0.629897,2.361,2.57684
-0.804784,0.625628,2.345,2.55697
-0.797173,0.625628,2.345,2.55459
-0.789562,0.625628,2.345,2.55222
-0.78195,0.625628,2.345,2.54988
-0.774339,0.625628,2.345,2.54756
-0.766728,0.625628,2.345,2.54525
-0.753937,0.62136,2.329,2.52562
-0.746378,0.62136,2.329,2.52337
-0.738818,0.62136,2.329,2.52115
-0.736283,0.625628,2.345,2.53625
-0.728671,0.625628,2.345,2.53405
-0.72106,0.625628,2.345,2.53187
-0.713449,0.625628,2.345,2.52971
-0.710653,0.629897,2.361,2.54482
-0.707754,0.634166,2.377,2.55992
-0.700039,0.634166,2.377,2.5578
-0.692324,0.634166,2.377,2.5557
-0.684609,0.634166,2.377,2.55362
-0.676894,0.634166,2.377,2.55156
-0.673964,0.638701,2.394,2.56776
-0.666194,0.638701,2.394,2.56573
-0.658424,0.638701,2.394,2.56373
-0.655274,0.643237,2.411,2.57993
-0.652013,0.647772,2.428,2.59613
-0.644133,0.647772,2.428,2.59417
-0.636252,0.647772,2.428,2.59222
-0.628371,0.647772,2.428,2.5903
-0.620491,0.647772,2.428,2.5884
-0.61261,0.647772,2.428,2.58652
-0.604729,0.647772,2.428,2.58466
-0.596848,0.647772,2.428,2.58283
-0.588968,0.647772,2.428,2.58102
-0.581087,0.647772,2.428,2.57924
-0.573206,0.647772,2.428,2.57747
-0.565326,0.647772,2.428,2.57573
-0.557445,0.647772,2.428,2.57401
-0.545717,0.643237,2.411,2.55431
-0.537891,0.643237,2.411,2.55265
-0.530066,0.643237,2.411,2.55101
-0.518558,0.638701,2.394,2.53142
-0.510787,0.638701,2.394,2.52984
-0.503017,0.638701,2.394,2.52828
-0.495247,0.638701,2.394,2.52675
-0.487476,0.638701,2.394,2.52523
-0.479706,0.638701,2.394,2.52375
-0.471936,0.638701,2.394,2.52228
-0.464165,0.638701,2.394,2.52084
-0.456395,0.638701,2.394,2.51942
-0.448625,0.638701,2.394,2.51802
-0.440854,0.638701,2.394,2.51665
-0.433084,0.638701,2.394,2.5153
-0.422294,0.634166,2.377,2.49612
-0.414578,0.634166,2.377,2.49483
-0.409773,0.638701,2.394,2.51139
-0.402003,0.638701,2.394,2.51014
-0.391433,0.634166,2.377,2.49109
-0.383718,0.634166,2.377,2.48989
-0.370941,0.625628,2.345,2.45521
-0.36085,0.62136,2.329,2.43732
-0.353291,0.62136,2.329,2.43621
-0.345732,0.62136,2.329,2.43513
-0.338172,0.62136,2.329,2.43407
-0.328342,0.617091,2.313,2.41632
-0.320834,0.617091,2.313,2.41531
-0.311295,0.613089,2.298,2.39866
-0.301721,0.60882,2.282,2.38101
-0.294314,0.60882,2.282,2.38009
-0.285021,0.604818,2.267,2.36354
-0.277663,0.604818,2.267,2.36267
-0.270305,0.604818,2.267,2.36181
-0.262947,0.604818,2.267,2.36098
-0.253898,0.600817,2.252,2.34456
-0.246588,0.600817,2.252,2.34378
-0.239279,0.600817,2.252,2.34302
-0.231969,0.600817,2.252,2.34228
-0.22466,0.600817,2.252,2.34157
-0.21735,0.600817,2.252,2.34088
-0.210041,0.600817,2.252,2.34021
-0.205432,0.60882,2.282,2.37074
-0.198025,0.60882,2.282,2.37011
-0.190619,0.60882,2.282,2.3695
-0.184496,0.613089,2.298,2.38552
-0.177038,0.613089,2.298,2.38496
-0.169579,0.613089,2.298,2.38442
-0.16212,0.613089,2.298,2.3839
-0.155671,0.617091,2.313,2.39896
-0.150213,0.625628,2.345,2.43167
-0.142602,0.625628,2.345,2.43121
-0.134991,0.625628,2.345,2.43077
-0.12738,0.625628,2.345,2.43036
-0.118951,0.62136,2.329,2.4134
-0.111392,0.62136,2.329,2.41303
-0.103832,0.62136,2.329,2.4127
-0.096273,0.62136,2.329,2.41238
-0.0887137,0.62136,2.329,2.41209
-0.0811543,0.62136,2.329,2.41183
-0.073595,0.62136,2.329,2.41159
-0.0655819,0.617091,2.313,2.3948
-0.0580745,0.617091,2.313,2.39461
-0.0505671,0.617091,2.313,2.39444
-0.0427804,0.613089,2.298,2.37876
-0.0353217,0.613089,2.298,2.37864
-0.0278629,0.613089,2.298,2.37854
-0.0202621,0.60882,2.282,2.36191
-0.0128553,0.60882,2.282,2.36185
-0.00544853,0.60882,2.282,2.36182
0.00195828,0.60882,2.282,2.36182
0.00936508,0.60882,2.282,2.36184
0.0167719,0.60882,2.282,2.36188
0.0241787,0.60882,2.282,2.36194
0.0315855,0.60882,2.282,2.36203
0.0389923,0.60882,2.282,2.36214
0.0463991,0.60882,2.282,2.36227
0.0538059,0.60882,2.282,2.36243
0.0616419,0.613089,2.298,2.37918
0.0691006,0.613089,2.298,2.37938
0.0765594,0.613089,2.298,2.37961
0.0840181,0.613089,2.298,2.37986
0.0914769,0.613089,2.298,2.38014
0.0989356,0.613089,2.298,2.38043
0.106394,0.613089,2.298,2.38076
0.113853,0.613089,2.298,2.3811
0.121312,0.613089,2.298,2.38147
0.128771,0.613089,2.298,2.38186
0.135281,0.60882,2.282,2.36569
0.142688,0.60882,2.282,2.36612
0.150094,0.60882,2.282,2.36658
0.157501,0.60882,2.282,2.36706
0.164908,0.60882,2.282,2.36757
0.172315,0.60882,2.282,2.3681
0.179722,0.60882,2.282,2.36865
0.187128,0.60882,2.282,2.36922
0.194535,0.60882,2.282,2.36982
0.201942,0.60882,2.282,2.37044
0.209349,0.60882,2.282,2.37108
0.216756,0.60882,2.282,2.37174
0.224162,0.60882,2.282,2.37243
0.234715,0.617091,2.313,2.40538
0.242222,0.617091,2.313,2.40613
0.24973,0.617091,2.313,2.40689
0.257237,0.617091,2.313,2.40768
0.264745,0.617091,2.313,2.4085
0.272252,0.617091,2.313,2.40933
0.281695,0.62136,2.329,2.42687
0.289254,0.62136,2.329,2.42776
0.296813,0.62136,2.329,2.42867
0.304373,0.62136,2.329,2.4296
0.311932,0.62136,2.329,2.43056
0.319492,0.62136,2.329,2.43154
0.327051,0.62136,2.329,2.43255
0.33461,0.62136,2.329,2.43358
0.34217,0.62136,2.329,2.43463
0.347326,0.617091,2.313,2.41897
0.354834,0.617091,2.313,2.42006
0.362341,0.617091,2.313,2.42117
0.369849,0.617091,2.313,2.4223
0.377356,0.617091,2.313,2.42346
0.384863,0.617091,2.313,2.42464
0.392371,0.617091,2.313,2.42585
0.399878,0.617091,2.313,2.42707
0.404744,0.613089,2.298,2.41257
0.412203,0.613089,2.298,2.41383
0.419661,0.613089,2.298,2.41512
0.429908,0.617091,2.313,2.4322
0.437415,0.617091,2.313,2.43354
0.444923,0.617091,2.313,2.4349
0.45243,0.617091,2.313,2.43628
0.459938,0.617091,2.313,2.43769
0.467445,0.617091,2.313,2.43911
0.474953,0.617091,2.313,2.44056
0.48246,0.617091,2.313,2.44204
0.493357,0.62136,2.329,2.46043
0.500916,0.62136,2.329,2.46196
0.508475,0.62136,2.329,2.46351
0.51958,0.625628,2.345,2.48202
0.523594,0.62136,2.329,2.46667
0.531154,0.62136,2.329,2.46829
0.538713,0.62136,2.329,2.46993
0.546272,0.62136,2.329,2.47159
0.553832,0.62136,2.329,2.47327
0.565248,0.625628,2.345,2.49198
0.572859,0.625628,2.345,2.49371
0.58047,0.625628,2.345,2.49547
0.584069,0.62136,2.329,2.48021
0.591628,0.62136,2.329,2.48201
0.599188,0.62136,2.329,2.48382
0.606747,0.62136,2.329,2.48565
0.614306,0.62136,2.329,2.48751
0.617594,0.617091,2.313,2.47229
0.625101,0.617091,2.313,2.47417
0.632608,0.617091,2.313,2.47608
0.635965,0.613089,2.298,2.46194
0.638943,0.60882,2.282,2.44672
0.64635,0.60882,2.282,2.44866
0.653757,0.60882,2.282,2.45063
0.656818,0.604818,2.267,2.43649
0.659782,0.600817,2.252,2.42235
0.667091,0.600817,2.252,2.42435
0.6744,0.600817,2.252,2.42638
0.68171,0.600817,2.252,2.42842
0.693609,0.604818,2.267,2.44667
0.700967,0.604818,2.267,2.44876
0.708325,0.604818,2.267,2.45088
0.715683,0.604818,2.267,2.45302
0.723041,0.604818,2.267,2.45517
0.725566,0.600817,2.252,2.44109
0.732876,0.600817,2.252,2.44327
0.740185,0.600817,2.252,2.44548
0.742516,0.596815,2.237,2.4314
0.749777,0.596815,2.237,2.43362
0.757037,0.596815,2.237,2.43587
0.759515,0.59308,2.223,2.42288
0.76673,0.59308,2.223,2.42515
0.773945,0.59308,2.223,2.42744
0.77097,0.585343,2.194,2.39805
0.768516,0.578139,2.167,2.37081
0.775549,0.578139,2.167,2.3731
0.782583,0.578139,2.167,2.37541
0.789617,0.578139,2.167,2.37774
0.79665,0.578139,2.167,2.38008
0.803684,0.578139,2.167,2.38244
0.815581,0.581608,2.18,2.39913
0.822656,0.581608,2.18,2.40155
0.829732,0.581608,2.18,2.40398
0.836808,0.581608,2.18,2.40643
0.843884,0.581608,2.18,2.4089
0.850959,0.581608,2.18,2.41139
0.858035,0.581608,2.18,2.4139
0.870667,0.585343,2.194,2.43194
0.883789,0.589345,2.209,2.45114
0.890959,0.589345,2.209,2.45374
0.898129,0.589345,2.209,2.45635
0.905299,0.589345,2.209,2.45898
0.912469,0.589345,2.209,2.46163
0.919638,0.589345,2.209,2.46429
0.932682,0.59308,2.223,2.48261
0.939897,0.59308,2.223,2.48533
0.947113,0.59308,2.223,2.48807
0.960338,0.596815,2.237,2.50651
0.967599,0.596815,2.237,2.5093
0.97486,0.596815,2.237,2.51211
0.988706,0.600817,2.252,2.5318
0.996015,0.600817,2.252,2.53467
1.00332,0.600817,2.252,2.53755
1.01737,0.604818,2.267,2.55737
1.03874,0.613089,2.298,2.59531
1.0462,0.613089,2.298,2.59831
1.05365,0.613089,2.298,2.60132
1.06804,0.617091,2.313,2.62135
1.08299,0.62136,2.329,2.64257
1.09055,0.62136,2.329,2.64568
1.09811,0.62136,2.329,2.6488
1.10566,0.62136,2.329,2.65195
1.11322,0.62136,2.329,2.65511
1.13618,0.629897,2.361,2.69481
1.14385,0.629897,2.361,2.69805
1.15151,0.629897,2.361,2.70131
1.15917,0.629897,2.361,2.70458
1.16684,0.629897,2.361,2.70788
1.1745,0.629897,2.361,2.71119
1.18216,0.629897,2.361,2.71452
1.18983,0.629897,2.361,2.71786
1.19749,0.629897,2.361,2.72123
1.20515,0.629897,2.361,2.72461
1.22103,0.634166,2.377,2.74649
1.22875,0.634166,2.377,2.74993
1.23646,0.634166,2.377,2.75339
1.24418,0.634166,2.377,2.75686
1.25189,0.634166,2.377,2.76035
1.25961,0.634166,2.377,2.76386
1.26732,0.634166,2.377,2.76738
1.27504,0.634166,2.377,2.77092
1.28275,0.634166,2.377,2.77448
1.29047,0.634166,2.377,2.77806
1.29819,0.634166,2.377,2.78165
1.3059,0.634166,2.377,2.78526
1.31362,0.634166,2.377,2.78889
1.31244,0.629897,2.361,2.77373
1.3201,0.629897,2.361,2.77736
1.31877,0.625628,2.345,2.76217
1.32638,0.625628,2.345,2.76581
1.33399,0.625628,2.345,2.76947
1.3416,0.625628,2.345,2.77314
1.34,0.62136,2.329,2.75789
1.34756,0.62136,2.329,2.76157
1.35512,0.62136,2.329,2.76526
1.35332,0.617091,2.313,2.74995
1.36083,0.617091,2.313,2.75366
1.36834,0.617091,2.313,2.75737
1.37584,0.617091,2.313,2.76111
1.38335,0.617091,2.313,2.76486
1.40048,0.62136,2.329,2.78777
1.40804,0.62136,2.329,2.79158
1.4156,0.62136,2.329,2.7954
1.42316,0.62136,2.329,2.79923
1.43072,0.62136,2.329,2.80308
1.44816,0.625628,2.345,2.82623
1.4657,0.629897,2.361,2.84945
1.46338,0.625628,2.345,2.83406
1.47099,0.625628,2.345,2.838
1.4786,0.625628,2.345,2.84195
1.48621,0.625628,2.345,2.84592
1.48363,0.62136,2.329,2.83046
1.49119,0.62136,2.329,2.83443
1.49875,0.62136,2.329,2.83841
1.49596,0.617091,2.313,2.82288
1.49372,0.613089,2.298,2.80854
1.50118,0.613089,2.298,2.81251
1.50864,0.613089,2.298,2.8165
1.50554,0.60882,2.282,2.80086
1.51295,0.60882,2.282,2.80485
1.51036,0.604818,2.267,2.79039
1.50768,0.600817,2.252,2.77589
1.51499,0.600817,2.252,2.77987
1.51215,0.596815,2.237,2.76532
1.50991,0.59308,2.223,2.75196
-1.84117,0.716679,2.654,3.30866
-1.83255,0.716679,2.654,3.30388
-1.82394,0.716679,2.654,3.29911
-1.82969,0.72235,2.675,3.32042
-1.82101,0.72235,2.675,3.31564
-1.81232,0.72235,2.675,3.31088
-1.80364,0.72235,2.675,3.30614
-1.79496,0.72235,2.675,3.30141
-1.77225,0.716679,2.654,3.27081
-1.74968,0.711008,2.633,3.24031
-1.74114,0.711008,2.633,3.2357
-1.73259,0.711008,2.633,3.23111
-1.72405,0.711008,2.633,3.22654
-1.7155,0.711008,2.633,3.22198
-1.70695,0.711008,2.633,3.21744
-1.69841,0.711008,2.633,3.21291
-1.68986,0.711008,2.633,3.2084
-1.69472,0.716679,2.654,3.22946
-1.68611,0.716679,2.654,3.22495
-1.6775,0.716679,2.654,3.22046
-1.68209,0.72235,2.675,3.24142
-1.6734,0.72235,2.675,3.23693
-1.66472,0.72235,2.675,3.23245
-1.66904,0.72802,2.696,3.25333
-1.66029,0.72802,2.696,3.24885
-1.62581,0.716679,2.654,3.19384
-1.6172,0.716679,2.654,3.18946
-1.60858,0.716679,2.654,3.1851
-1.58731,0.711008,2.633,3.15559
-1.57876,0.711008,2.633,3.1513
-1.57022,0.711008,2.633,3.14703
-1.53795,0.700207,2.593,3.09503
-1.51832,0.695076,2.574,3.06821
-1.50997,0.695076,2.574,3.06408
-1.49053,0.689945,2.555,3.03739
-1.48224,0.689945,2.555,3.03333
-1.47394,0.689945,2.555,3.02928
-1.45475,0.684815,2.536,3.00276
-1.44652,0.684815,2.536,2.99878
-1.43829,0.684815,2.536,2.99482
-1.43006,0.684815,2.536,2.99087
-1.42183,0.684815,2.536,2.98695
-1.41359,0.684815,2.536,2.98304
-1.40536,0.684815,2.536,2.97915
-1.39713,0.684815,2.536,2.97527
-1.3889,0.684815,2.536,2.97142
-1.38067,0.684815,2.536,2.96758
-1.36216,0.679684,2.517,2.94155
-1.3443,0.674823,2.499,2.91677
-1.33619,0.674823,2.499,2.91304
-1.32808,0.674823,2.499,2.90933
-1.31046,0.669963,2.481,2.88471
-1.29296,0.665102,2.463,2.86015
-1.28497,0.665102,2.463,2.85655
-1.27697,0.665102,2.463,2.85296
-1.26898,0.665102,2.463,2.84939
-1.26098,0.665102,2.463,2.84584
-1.24383,0.660241,2.445,2.82154
-1.2359,0.660241,2.445,2.81805
-1.22796,0.660241,2.445,2.81457
-1.22002,0.660241,2.445,2.81112
-1.21209,0.660241,2.445,2.80769
-1.20415,0.660241,2.445,2.80427
-1.19622,0.660241,2.445,2.80087
-1.18828,0.660241,2.445,2.79749
-1.18035,0.660241,2.445,2.79413
-1.17241,0.660241,2.445,2.79079
-1.16447,0.660241,2.445,2.78746
-1.15654,0.660241,2.445,2.78416
-1.1486,0.660241,2.445,2.78087
-1.13274,0.65565,2.428,2.75829
-1.12485,0.65565,2.428,2.75506
-1.11697,0.65565,2.428,2.75185
-1.10133,0.65106,2.411,2.72942
-1.08579,0.646469,2.394,2.70705
-1.07802,0.646469,2.394,2.70394
-1.07025,0.646469,2.394,2.70085
-1.05494,0.641879,2.377,2.67862
-1.04722,0.641879,2.377,2.6756
-1.03951,0.641879,2.377,2.67258
-1.02485,0.637558,2.361,2.65162
-1.01718,0.637558,2.361,2.64867
-1.00952,0.637558,2.361,2.64574
-0.995066,0.633237,2.345,2.62491
-0.987455,0.633237,2.345,2.62204
-0.979844,0.633237,2.345,2.61918
-0.972232,0.633237,2.345,2.61634
-0.964621,0.633237,2.345,2.61352
-0.95701,0.633237,2.345,2.61072
-0.949399,0.633237,2.345,2.60794
-0.941787,0.633237,2.345,2.60518
-0.934176,0.633237,2.345,2.60244
-0.926565,0.633237,2.345,2.59972
-0.918953,0.633237,2.345,2.59702
-0.911342,0.633237,2.345,2.59433
-0.903731,0.633237,2.345,2.59167
-0.89612,0.633237,2.345,2.58902
-0.888508,0.633237,2.345,2.5864
-0.880897,0.633237,2.345,2.58379
-0.873286,0.633237,2.345,2.58121
-0.865674,0.633237,2.345,2.57864
-0.858063,0.633237,2.345,2.5761
-0.850452,0.633237,2.345,2.57357
-0.842841,0.633237,2.345,2.57107
-0.835229,0.633237,2.345,2.56858
-0.827618,0.633237,2.345,2.56612
-0.820007,0.633237,2.345,2.56367
-0.812395,0.633237,2.345,2.56125
-0.799293,0.628917,2.329,2.54139
-0.791734,0.628917,2.329,2.53902
-0.784174,0.628917,2.329,2.53667
-0.78195,0.633237,2.345,2.55176
-0.774339,0.633237,2.345,2.54943
-0.761496,0.628917,2.329,2.52975
-0.753937,0.628917,2.329,2.52749
-0.746378,0.628917,2.329,2.52524
-0.738818,0.628917,2.329,2.52302
-0.731259,0.628917,2.329,2.52082
-0.7237,0.628917,2.329,2.51863
-0.71614,0.628917,2.329,2.51647
-0.713449,0.633237,2.345,2.53161
-0.705837,0.633237,2.345,2.52947
-0.70299,0.637558,2.361,2.5446
-0.695327,0.637558,2.361,2.5425
-0.687664,0.637558,2.361,2.54041
-0.68,0.637558,2.361,2.53835
-0.672337,0.637558,2.361,2.5363
-0.669178,0.641879,2.377,2.55146
-0.661463,0.641879,2.377,2.54945
-0.653748,0.641879,2.377,2.54745
-0.646033,0.641879,2.377,2.54549
-0.642883,0.646469,2.394,2.56173
-0.635113,0.646469,2.394,2.55979
-0.627342,0.646469,2.394,2.55787
-0.615172,0.641879,2.377,2.53783
