0.698796,-0.13082,2.555,2.65207
0.707089,-0.13082,2.555,2.65426
0.715382,-0.13082,2.555,2.65648
0.723674,-0.13082,2.555,2.65873
0.731967,-0.13082,2.555,2.661
0.74026,-0.13082,2.555,2.66329
0.748553,-0.13082,2.555,2.66561
0.756846,-0.13082,2.555,2.66795
0.765139,-0.13082,2.555,2.67031
0.773432,-0.13082,2.555,2.6727
0.781725,-0.13082,2.555,2.67511
0.790018,-0.13082,2.555,2.67755
0.798311,-0.13082,2.555,2.68001
0.806603,-0.13082,2.555,2.68249
0.808836,-0.129847,2.536,2.66503
0.817068,-0.129847,2.536,2.66754
0.825299,-0.129847,2.536,2.67007
0.827285,-0.128874,2.517,2.6526
0.835455,-0.128874,2.517,2.65516
0.843624,-0.128874,2.517,2.65774
0.845702,-0.127953,2.499,2.64132
0.847664,-0.127031,2.481,2.62489
0.855716,-0.127031,2.481,2.6275
0.863769,-0.127031,2.481,2.63013
0.865497,-0.126109,2.463,2.61369
0.873491,-0.126109,2.463,2.61634
0.875043,-0.125188,2.445,2.59988
0.882979,-0.125188,2.445,2.60257
0.890915,-0.125188,2.445,2.60527
0.892601,-0.124317,2.428,2.58986
0.894177,-0.123447,2.411,2.57443
0.902002,-0.123447,2.411,2.57716
0.909828,-0.123447,2.411,2.57991
0.917653,-0.123447,2.411,2.58268
0.918953,-0.122576,2.394,2.56724
0.926724,-0.122576,2.394,2.57003
0.927858,-0.121706,2.377,2.55458
0.935573,-0.121706,2.377,2.55739
0.943288,-0.121706,2.377,2.56022
0.944602,-0.120887,2.361,2.54582
0.952265,-0.120887,2.361,2.54868
0.959929,-0.120887,2.361,2.55155
0.967592,-0.120887,2.361,2.55444
0.975255,-0.120887,2.361,2.55735
0.989579,-0.121706,2.377,2.57764
0.990581,-0.120887,2.361,2.56324
0.998245,-0.120887,2.361,2.56621
1.01997,-0.122576,2.394,2.60511
1.05736,-0.126109,2.463,2.68333
1.06535,-0.126109,2.463,2.68649
1.10516,-0.129847,2.536,2.76939
1.15598,-0.134814,2.633,2.87874
1.16452,-0.134814,2.633,2.88218
1.25015,-0.143672,2.806,3.07525
1.25925,-0.143672,2.806,3.07896
1.30045,-0.147307,2.877,3.1607
1.30979,-0.147307,2.877,3.16455
1.36498,-0.152427,2.977,3.27856
1.42405,-0.157906,3.084,3.40058
1.43406,-0.157906,3.084,3.40478
1.44407,-0.157906,3.084,3.40901
1.44135,-0.156523,3.057,3.38338
1.45127,-0.156523,3.057,3.38762
1.4612,-0.156523,3.057,3.39188
1.47112,-0.156523,3.057,3.39617
1.49412,-0.157906,3.084,3.43051
1.50413,-0.157906,3.084,3.43488
1.51414,-0.157906,3.084,3.43928
1.52415,-0.157906,3.084,3.44369
1.5073,-0.155141,3.03,3.38776
1.51713,-0.155141,3.03,3.39215
1.54057,-0.156523,3.057,3.42682
1.5505,-0.156523,3.057,3.4313
1.56042,-0.156523,3.057,3.43579
1.59859,-0.159339,3.112,3.5022
1.63868,-0.162309,3.17,3.57219
1.64897,-0.162309,3.17,3.57692
1.67443,-0.163794,3.199,3.61444
1.70114,-0.165381,3.23,3.65433
1.71163,-0.165381,3.23,3.65922
1.73811,-0.166917,3.26,3.69817
1.76585,-0.168555,3.292,3.73951
1.79381,-0.170194,3.324,3.78096
1.8046,-0.170194,3.324,3.78609
1.81538,-0.170194,3.324,3.79125
1.82617,-0.170194,3.324,3.79643
1.81928,-0.168555,3.292,3.76503
1.82996,-0.168555,3.292,3.7702
1.84065,-0.168555,3.292,3.7754
1.83334,-0.166917,3.26,3.74387
1.82695,-0.165381,3.23,3.71457
1.83743,-0.165381,3.23,3.71973
1.83018,-0.163794,3.199,3.68917
1.84056,-0.163794,3.199,3.69433
1.85095,-0.163794,3.199,3.69952
1.84446,-0.162309,3.17,3.67114
1.85475,-0.162309,3.17,3.67632
1.86504,-0.162309,3.17,3.68152
1.87532,-0.162309,3.17,3.68674
1.86836,-0.160824,3.141,3.65821
1.86121,-0.159339,3.112,3.62961
1.87131,-0.159339,3.112,3.6348
1.88142,-0.159339,3.112,3.64001
nan,nan,nan,NaN
nan,nan,nan,NaN
1.87793,-0.156523,3.057,3.59115
1.88785,-0.156523,3.057,3.59635
nan,nan,nan,NaN
1.89085,-0.155141,3.03,3.57495
1.90068,-0.155141,3.03,3.58016
nan,nan,nan,NaN
1.85444,-0.149816,2.926,3.4674
1.83272,-0.147307,2.877,3.41434
1.84206,-0.147307,2.877,3.41936
1.82051,-0.144849,2.829,3.36727
1.81482,-0.143672,2.806,3.34482
1.79467,-0.141367,2.761,3.29605
1.80364,-0.141367,2.761,3.30094
1.78371,-0.139115,2.717,3.25316
1.77867,-0.138039,2.696,3.23282
1.78743,-0.138039,2.696,3.23765
1.76819,-0.135889,2.654,3.19197
1.76275,-0.134814,2.633,3.17146
1.77129,-0.134814,2.633,3.17622
1.7528,-0.132766,2.593,3.13267
1.74831,-0.131793,2.574,3.11439
-1.99587,-0.137971,2.877,3.50423
-1.98653,-0.137971,2.877,3.49892
-1.97719,-0.137971,2.877,3.49363
-1.95144,-0.13682,2.853,3.45925
-1.92584,-0.135669,2.829,3.42498
-1.91666,-0.135669,2.829,3.41983
-1.87646,-0.133464,2.783,3.35917
-1.85267,-0.132408,2.761,3.32762
-1.8437,-0.132408,2.761,3.32263
-1.82012,-0.131353,2.739,3.29123
-1.79668,-0.130298,2.717,3.25993
-1.78787,-0.130298,2.717,3.25508
-1.7653,-0.129291,2.696,3.22512
-1.75655,-0.129291,2.696,3.22034
-1.73418,-0.128284,2.675,3.19053
-1.7255,-0.128284,2.675,3.18582
-1.71682,-0.128284,2.675,3.18112
-1.73495,-0.130298,2.717,3.22632
-1.74011,-0.131353,2.739,3.24767
-1.73122,-0.131353,2.739,3.24292
-1.75,-0.133464,2.783,3.2902
-1.74097,-0.133464,2.783,3.2854
-1.73193,-0.133464,2.783,3.28062
-1.7229,-0.133464,2.783,3.27586
-1.71387,-0.133464,2.783,3.27112
-1.71892,-0.134567,2.806,3.29339
-1.6958,-0.133464,2.783,3.26169
-1.68677,-0.133464,2.783,3.25701
-1.6916,-0.134567,2.806,3.27922
-1.68249,-0.134567,2.806,3.27453
-1.65967,-0.133464,2.783,3.24306
-1.65064,-0.133464,2.783,3.23844
-1.62863,-0.132408,2.761,3.20828
-1.61967,-0.132408,2.761,3.20374
-1.6107,-0.132408,2.761,3.19922
nan,nan,nan,NaN
nan,nan,nan,NaN
nan,nan,nan,NaN
nan,nan,nan,NaN
nan,nan,nan,NaN
nan,nan,nan,NaN
nan,nan,nan,NaN
nan,nan,nan,NaN
nan,nan,nan,NaN
nan,nan,nan,NaN
nan,nan,nan,NaN
nan,nan,nan,NaN
nan,nan,nan,NaN
nan,nan,nan,NaN
nan,nan,nan,NaN
nan,nan,nan,NaN
nan,nan,nan,NaN
nan,nan,nan,NaN
nan,nan,nan,NaN
nan,nan,nan,NaN
nan,nan,nan,NaN
nan,nan,nan,NaN
nan,nan,nan,NaN
nan,nan,nan,NaN
nan,nan,nan,NaN
nan,nan,nan,NaN
nan,nan,nan,NaN
-1.20415,-0.117254,2.445,2.72796
-1.1879,-0.116439,2.428,2.70552
-1.18002,-0.116439,2.428,2.70207
-1.16393,-0.115624,2.411,2.67974
-1.15611,-0.115624,2.411,2.67635
-1.14828,-0.115624,2.411,2.67298
-1.14046,-0.115624,2.411,2.66963
-1.12464,-0.114808,2.394,2.6475
-1.11687,-0.114808,2.394,2.64421
-1.1091,-0.114808,2.394,2.64093
-1.09351,-0.113993,2.377,2.61895
-1.0858,-0.113993,2.377,2.61574
-1.07808,-0.113993,2.377,2.61254
-1.06316,-0.113226,2.361,2.59181
-1.0555,-0.113226,2.361,2.58867
-1.04784,-0.113226,2.361,2.58556
-1.03312,-0.112458,2.345,2.56496
-1.02551,-0.112458,2.345,2.5619
-1.0179,-0.112458,2.345,2.55887
-1.01029,-0.112458,2.345,2.55585
-1.00268,-0.112458,2.345,2.55285
-0.995066,-0.112458,2.345,2.54987
-0.987455,-0.112458,2.345,2.54691
-0.973158,-0.111691,2.329,2.52661
-0.965599,-0.111691,2.329,2.52371
-0.95804,-0.111691,2.329,2.52082
-0.95048,-0.111691,2.329,2.51796
-0.936443,-0.110924,2.313,2.49784
-0.928936,-0.110924,2.313,2.49503
-0.921428,-0.110924,2.313,2.49225
-0.913921,-0.110924,2.313,2.48948
-0.906413,-0.110924,2.313,2.48674
-0.898906,-0.110924,2.313,2.48401
-0.891399,-0.110924,2.313,2.4813
-0.883891,-0.110924,2.313,2.47862
-0.876384,-0.110924,2.313,2.47595
-0.868876,-0.110924,2.313,2.4733
-0.861369,-0.110924,2.313,2.47067
-0.853861,-0.110924,2.313,2.46807
-0.846354,-0.110924,2.313,2.46548
-0.838847,-0.110924,2.313,2.46291
-0.831339,-0.110924,2.313,2.46037
-0.823832,-0.110924,2.313,2.45784
-0.816324,-0.110924,2.313,2.45533
-0.808817,-0.110924,2.313,2.45285
-0.806852,-0.111691,2.329,2.46733
-0.799293,-0.111691,2.329,2.46487
-0.791734,-0.111691,2.329,2.46243
-0.784174,-0.111691,2.329,2.46001
-0.776615,-0.111691,2.329,2.45761
-0.769056,-0.111691,2.329,2.45523
-0.761496,-0.111691,2.329,2.45287
-0.753937,-0.111691,2.329,2.45054
-0.751505,-0.112458,2.345,2.46504
-0.743894,-0.112458,2.345,2.46273
-0.736283,-0.112458,2.345,2.46044
-0.733643,-0.113226,2.361,2.47495
-0.72598,-0.113226,2.361,2.47269
-0.718317,-0.113226,2.361,2.47045
-0.710653,-0.113226,2.361,2.46823
-0.707754,-0.113993,2.377,2.48275
-0.700039,-0.113993,2.377,2.48056
-0.692324,-0.113993,2.377,2.47839
-0.689505,-0.114808,2.394,2.49396
-0.686576,-0.115624,2.411,2.50952
-0.67875,-0.115624,2.411,2.50739
-0.670925,-0.115624,2.411,2.50528
-0.667775,-0.116439,2.428,2.52085
-0.659894,-0.116439,2.428,2.51877
-0.652013,-0.116439,2.428,2.51672
-0.648643,-0.117254,2.445,2.53229
-0.640707,-0.117254,2.445,2.53027
-0.632771,-0.117254,2.445,2.52827
-0.624835,-0.117254,2.445,2.5263
-0.621441,-0.118117,2.463,2.54293
-0.613446,-0.118117,2.463,2.54099
-0.605452,-0.118117,2.463,2.53907
-0.601824,-0.118981,2.481,2.55572
-0.593771,-0.118981,2.481,2.55384
-0.585719,-0.118981,2.481,2.55198
-0.581857,-0.119844,2.499,2.56864
-0.573746,-0.119844,2.499,2.56682
-0.565635,-0.119844,2.499,2.56502
-0.561539,-0.120707,2.517,2.5817
-0.55337,-0.120707,2.517,2.57994
-0.5452,-0.120707,2.517,2.5782
-0.541085,-0.121618,2.536,2.59593
-0.532853,-0.121618,2.536,2.59423
-0.524622,-0.121618,2.536,2.59255
-0.516391,-0.121618,2.536,2.5909
-0.50816,-0.121618,2.536,2.58927
-0.499929,-0.121618,2.536,2.58767
-0.491697,-0.121618,2.536,2.58609
-0.487088,-0.122529,2.555,2.6039
-0.478795,-0.122529,2.555,2.60236
-0.467004,-0.121618,2.536,2.58151
-0.458772,-0.121618,2.536,2.58003
-0.450541,-0.121618,2.536,2.57858
-0.445624,-0.122529,2.555,2.59646
-0.437331,-0.122529,2.555,2.59505
-0.429038,-0.122529,2.555,2.59367
-0.420745,-0.122529,2.555,2.59231
-0.412452,-0.122529,2.555,2.59098
-0.407165,-0.123441,2.574,2.60893
-0.39881,-0.123441,2.574,2.60764
-0.390456,-0.123441,2.574,2.60637
-0.382101,-0.123441,2.574,2.60513
-0.373747,-0.123441,2.574,2.60392
-0.365392,-0.123441,2.574,2.60273
-0.357037,-0.123441,2.574,2.60157
-0.351257,-0.124352,2.593,2.61964
-0.345485,-0.125311,2.613,2.63872
-0.337004,-0.125311,2.613,2.63762
-0.328522,-0.125311,2.613,2.63655
-0.320041,-0.125311,2.613,2.63551
-0.31156,-0.125311,2.613,2.63449
-0.303079,-0.125311,2.613,2.6335
-0.296853,-0.12627,2.633,2.65269
-0.286117,-0.125311,2.613,2.6316
-0.277636,-0.125311,2.613,2.63069
-0.269154,-0.125311,2.613,2.62981
-0.260673,-0.125311,2.613,2.62896
-0.252192,-0.125311,2.613,2.62813
-0.241846,-0.124352,2.593,2.60722
-0.233429,-0.124352,2.593,2.60645
-0.225013,-0.124352,2.593,2.60571
-0.21501,-0.123441,2.574,2.58591
-0.206655,-0.123441,2.574,2.58523
-0.198301,-0.123441,2.574,2.58458
-0.189946,-0.123441,2.574,2.58395
-0.181592,-0.123441,2.574,2.58335
-0.173237,-0.123441,2.574,2.58277
-0.164882,-0.123441,2.574,2.58223
-0.156528,-0.123441,2.574,2.58171
-0.148173,-0.123441,2.574,2.58121
-0.139819,-0.123441,2.574,2.58075
-0.131464,-0.123441,2.574,2.58031
-0.12311,-0.123441,2.574,2.5799
-0.114755,-0.123441,2.574,2.57951
-0.1064,-0.123441,2.574,2.57915
-0.0987696,-0.124352,2.593,2.59786
-0.0903534,-0.124352,2.593,2.59755
-0.0819372,-0.124352,2.593,2.59727
-0.073521,-0.124352,2.593,2.59702
-0.0651047,-0.124352,2.593,2.5968
-0.0566885,-0.124352,2.593,2.5966
-0.0482722,-0.124352,2.593,2.59643
-0.039856,-0.124352,2.593,2.59629
-0.0314398,-0.124352,2.593,2.59617
-0.0230235,-0.124352,2.593,2.59608
-0.0146073,-0.124352,2.593,2.59602
-0.00619107,-0.124352,2.593,2.59599
0.00222516,-0.124352,2.593,2.59598
0.0106414,-0.124352,2.593,2.596
0.0190576,-0.124352,2.593,2.59605
0.0274739,-0.124352,2.593,2.59613
0.0358901,-0.124352,2.593,2.59623
0.0443063,-0.124352,2.593,2.59636
0.0527226,-0.124352,2.593,2.59652
0.0611388,-0.124352,2.593,2.5967
0.069555,-0.124352,2.593,2.59691
0.0779713,-0.124352,2.593,2.59715
0.0857545,-0.123441,2.574,2.57838
0.0941091,-0.123441,2.574,2.57868
0.102464,-0.123441,2.574,2.57899
0.110818,-0.123441,2.574,2.57934
0.119173,-0.123441,2.574,2.57971
0.127527,-0.123441,2.574,2.58011
0.135882,-0.123441,2.574,2.58054
0.144236,-0.123441,2.574,2.58099
0.152591,-0.123441,2.574,2.58147
0.160946,-0.123441,2.574,2.58198
0.1693,-0.123441,2.574,2.58251
0.177655,-0.123441,2.574,2.58307
0.186009,-0.123441,2.574,2.58366
0.195799,-0.124352,2.593,2.60335
0.204215,-0.124352,2.593,2.604
0.212631,-0.124352,2.593,2.60467
0.221047,-0.124352,2.593,2.60537
0.227782,-0.123441,2.574,2.58701
0.236137,-0.123441,2.574,2.58775
0.242687,-0.122529,2.555,2.56942
0.250979,-0.122529,2.555,2.57022
0.2612,-0.123441,2.574,2.59016
0.267565,-0.122529,2.555,2.57189
0.275858,-0.122529,2.555,2.57277
0.284151,-0.122529,2.555,2.57367
0.292444,-0.122529,2.555,2.5746
0.296264,-0.120707,2.517,2.53725
0.304434,-0.120707,2.517,2.53822
0.312603,-0.120707,2.517,2.53921
0.318479,-0.119844,2.499,2.52206
0.32659,-0.119844,2.499,2.5231
0.334701,-0.119844,2.499,2.52416
0.340343,-0.118981,2.481,2.50706
0.348396,-0.118981,2.481,2.50817
0.356448,-0.118981,2.481,2.5093
0.361856,-0.118117,2.463,2.49224
0.369851,-0.118117,2.463,2.49341
0.377845,-0.118117,2.463,2.49461
0.38302,-0.117254,2.445,2.4776
0.390955,-0.117254,2.445,2.47883
0.398891,-0.117254,2.445,2.4801
0.403999,-0.116439,2.428,2.46413
0.411879,-0.116439,2.428,2.46544
0.416821,-0.115624,2.411,2.4495
0.424646,-0.115624,2.411,2.45084
0.432472,-0.115624,2.411,2.45221
0.440297,-0.115624,2.411,2.4536
0.448123,-0.115624,2.411,2.45502
0.455948,-0.115624,2.411,2.45646
0.467044,-0.116439,2.428,2.47525
0.474925,-0.116439,2.428,2.47675
0.482805,-0.116439,2.428,2.47827
0.490686,-0.116439,2.428,2.47982
0.502058,-0.117254,2.445,2.49877
0.509993,-0.117254,2.445,2.50037
0.521742,-0.118117,2.463,2.52042
0.533608,-0.118981,2.481,2.54052
0.54952,-0.120707,2.517,2.57911
0.55769,-0.120707,2.517,2.58087
0.565859,-0.120707,2.517,2.58265
0.578362,-0.121618,2.536,2.60396
0.586593,-0.121618,2.536,2.6058
0.594824,-0.121618,2.536,2.60766
0.607574,-0.122529,2.555,2.6291
0.615867,-0.122529,2.555,2.63103
0.628801,-0.123441,2.574,2.65257
0.637156,-0.123441,2.574,2.65456
0.64551,-0.123441,2.574,2.65658
0.653865,-0.123441,2.574,2.65862
0.657331,-0.122529,2.555,2.64105
0.665624,-0.122529,2.555,2.64312
0.673917,-0.122529,2.555,2.64522
0.68221,-0.122529,2.555,2.64735
0.690503,-0.122529,2.555,2.6495
0.698796,-0.122529,2.555,2.65167
0.707089,-0.122529,2.555,2.65387
0.715382,-0.122529,2.555,2.65609
0.723674,-0.122529,2.555,2.65833
0.731967,-0.122529,2.555,2.6606
0.74026,-0.122529,2.555,2.6629
0.748553,-0.122529,2.555,2.66522
0.756846,-0.122529,2.555,2.66756
0.765139,-0.122529,2.555,2.66992
0.773432,-0.122529,2.555,2.67231
0.781725,-0.122529,2.555,2.67472
0.790018,-0.122529,2.555,2.67716
0.804247,-0.123441,2.574,2.69954
0.806603,-0.122529,2.555,2.6821
0.814896,-0.122529,2.555,2.6846
0.823189,-0.122529,2.555,2.68713
0.831482,-0.122529,2.555,2.68968
0.83353,-0.121618,2.536,2.67224
0.835455,-0.120707,2.517,2.65478
0.843624,-0.120707,2.517,2.65736
0.851794,-0.120707,2.517,2.65996
0.853814,-0.119844,2.499,2.64355
0.861925,-0.119844,2.499,2.64618
0.870036,-0.119844,2.499,2.64883
0.871822,-0.118981,2.481,2.63241
0.879874,-0.118981,2.481,2.63509
0.875043,-0.117254,2.445,2.59951
0.882979,-0.117254,2.445,2.6022
0.890915,-0.117254,2.445,2.6049
0.892601,-0.116439,2.428,2.58949
0.894177,-0.115624,2.411,2.57407
0.902002,-0.115624,2.411,2.5768
0.909828,-0.115624,2.411,2.57955
0.917653,-0.115624,2.411,2.58232
0.918953,-0.114808,2.394,2.56688
0.926724,-0.114808,2.394,2.56968
0.927858,-0.113993,2.377,2.55422
0.935573,-0.113993,2.377,2.55703
0.943288,-0.113993,2.377,2.55987
0.944602,-0.113226,2.361,2.54547
0.952265,-0.113226,2.361,2.54832
0.959929,-0.113226,2.361,2.5512
0.967592,-0.113226,2.361,2.55409
0.975255,-0.113226,2.361,2.557
0.989579,-0.113993,2.377,2.57728
0.997294,-0.113993,2.377,2.58026
1.00501,-0.113993,2.377,2.58325
1.01997,-0.114808,2.394,2.60476
1.05736,-0.118117,2.463,2.68297
1.06535,-0.118117,2.463,2.68613
1.10516,-0.121618,2.536,2.76902
1.15598,-0.12627,2.633,2.87835
1.16452,-0.12627,2.633,2.8818
1.25015,-0.134567,2.806,3.07484
1.25925,-0.134567,2.806,3.07855
1.30045,-0.137971,2.877,3.16028
1.30979,-0.137971,2.877,3.16413
1.36498,-0.142767,2.977,3.27812
1.42405,-0.147898,3.084,3.40013
1.43406,-0.147898,3.084,3.40433
1.44407,-0.147898,3.084,3.40856
1.44135,-0.146604,3.057,3.38293
1.45127,-0.146604,3.057,3.38717
1.4612,-0.146604,3.057,3.39144
1.47112,-0.146604,3.057,3.39572
1.49412,-0.147898,3.084,3.43006
1.50413,-0.147898,3.084,3.43443
1.51414,-0.147898,3.084,3.43883
1.52415,-0.147898,3.084,3.44325
1.5073,-0.145309,3.03,3.38732
1.51713,-0.145309,3.03,3.39171
1.54057,-0.146604,3.057,3.42638
1.5505,-0.146604,3.057,3.43086
1.56042,-0.146604,3.057,3.43535
1.59859,-0.149241,3.112,3.50176
1.63868,-0.152023,3.17,3.57173
1.64897,-0.152023,3.17,3.57646
1.67443,-0.153413,3.199,3.61398
1.70114,-0.1549,3.23,3.65387
1.71163,-0.1549,3.23,3.65877
1.73811,-0.156339,3.26,3.69771
1.76585,-0.157873,3.292,3.73904
1.77654,-0.157873,3.292,3.7441
1.78722,-0.157873,3.292,3.74918
1.79791,-0.157873,3.292,3.75429
1.80859,-0.157873,3.292,3.75941
1.80159,-0.156339,3.26,3.72797
1.7955,-0.1549,3.23,3.69874
1.80598,-0.1549,3.23,3.70384
1.81647,-0.1549,3.23,3.70897
1.82695,-0.1549,3.23,3.71411
1.83743,-0.1549,3.23,3.71928
1.83018,-0.153413,3.199,3.68873
1.82388,-0.152023,3.17,3.6604
1.83417,-0.152023,3.17,3.66554
1.82758,-0.150632,3.141,3.63712
1.83778,-0.150632,3.141,3.64225
1.84797,-0.150632,3.141,3.64741
1.85817,-0.150632,3.141,3.65258
1.85111,-0.149241,3.112,3.62401
1.84447,-0.147898,3.084,3.59652
1.85448,-0.147898,3.084,3.60167
1.86449,-0.147898,3.084,3.60683
1.85809,-0.146604,3.057,3.5804
1.86801,-0.146604,3.057,3.58555
1.86134,-0.145309,3.03,3.55902
1.85451,-0.144014,3.003,3.53241
1.86425,-0.144014,3.003,3.53754
1.85777,-0.142767,2.977,3.51201
1.83545,-0.140321,2.926,3.45688
1.84494,-0.140321,2.926,3.46193
1.82338,-0.137971,2.877,3.40894
1.81743,-0.13682,2.853,3.38547
1.82669,-0.13682,2.853,3.39045
1.80571,-0.134567,2.806,3.33951
1.78571,-0.132408,2.761,3.29081
1.76607,-0.130298,2.717,3.24316
1.77489,-0.130298,2.717,3.24797
1.76992,-0.129291,2.696,3.22766
1.75097,-0.127277,2.654,3.18211
1.75958,-0.127277,2.654,3.18685
1.7542,-0.12627,2.633,3.16636
1.73597,-0.124352,2.593,3.12293
1.74439,-0.124352,2.593,3.12762
1.73996,-0.123441,2.574,3.10937
1.73541,-0.122529,2.555,3.09106
-1.97922,-0.127563,2.853,3.47465
-1.96996,-0.127563,2.853,3.46938
-1.9607,-0.127563,2.853,3.46413
-1.93502,-0.12649,2.829,3.4298
-1.91018,-0.125461,2.806,3.39679
-1.90108,-0.125461,2.806,3.39168
-1.87646,-0.124433,2.783,3.35882
-1.85267,-0.123449,2.761,3.32727
-1.8437,-0.123449,2.761,3.32229
-1.82012,-0.122466,2.739,3.29089
-1.79668,-0.121482,2.717,3.25959
-1.78787,-0.121482,2.717,3.25474
-1.7653,-0.120543,2.696,3.22478
-1.75655,-0.120543,2.696,3.22
-1.7478,-0.120543,2.696,3.21524
-1.73905,-0.120543,2.696,3.21049
-1.73029,-0.120543,2.696,3.20576
-1.76305,-0.123449,2.761,3.27822
-1.75409,-0.123449,2.761,3.27341
-1.74513,-0.123449,2.761,3.26861
-1.75,-0.124433,2.783,3.28984
-1.74097,-0.124433,2.783,3.28505
-1.73193,-0.124433,2.783,3.28027
-1.7229,-0.124433,2.783,3.27551
-1.71387,-0.124433,2.783,3.27077
-1.71892,-0.125461,2.806,3.29304
-1.6958,-0.124433,2.783,3.26134
-1.68677,-0.124433,2.783,3.25665
-1.6916,-0.125461,2.806,3.27886
-1.68249,-0.125461,2.806,3.27417
-1.65967,-0.124433,2.783,3.2427
-1.65064,-0.124433,2.783,3.23808
-1.6416,-0.124433,2.783,3.23349
-1.63257,-0.124433,2.783,3.22891
-1.62354,-0.124433,2.783,3.22435
nan,nan,nan,NaN
nan,nan,nan,NaN
nan,nan,nan,NaN
nan,nan,nan,NaN
nan,nan,nan,NaN
nan,nan,nan,NaN
nan,nan,nan,NaN
nan,nan,nan,NaN
nan,nan,nan,NaN
nan,nan,nan,NaN
nan,nan,nan,NaN
nan,nan,nan,NaN
nan,nan,nan,NaN
nan,nan,nan,NaN
nan,nan,nan,NaN
nan,nan,nan,NaN
nan,nan,nan,NaN
nan,nan,nan,NaN
nan,nan,nan,NaN
nan,nan,nan,NaN
nan,nan,nan,NaN
nan,nan,nan,NaN
nan,nan,nan,NaN
nan,nan,nan,NaN
nan,nan,nan,NaN
nan,nan,nan,NaN
nan,nan,nan,NaN
-1.20415,-0.109321,2.445,2.72763
-1.1879,-0.10856,2.428,2.70519
-1.18002,-0.10856,2.428,2.70174
-1.17214,-0.10856,2.428,2.69831
-1.16426,-0.10856,2.428,2.6949
-1.15638,-0.10856,2.428,2.6915
-1.14046,-0.1078,2.411,2.6693
-1.13263,-0.1078,2.411,2.66597
-1.1248,-0.1078,2.411,2.66265
-1.1091,-0.10704,2.394,2.64061
-1.09351,-0.10628,2.377,2.61862
-1.0858,-0.10628,2.377,2.61541
-1.07808,-0.10628,2.377,2.61222
-1.06316,-0.105565,2.361,2.59148
-1.0555,-0.105565,2.361,2.58835
-1.04784,-0.105565,2.361,2.58523
-1.04017,-0.105565,2.361,2.58214
-1.03251,-0.105565,2.361,2.57906
-1.02485,-0.105565,2.361,2.576
-1.01029,-0.104849,2.345,2.55552
-1.00268,-0.104849,2.345,2.55252
-0.995066,-0.104849,2.345,2.54954
-0.987455,-0.104849,2.345,2.54658
-0.973158,-0.104134,2.329,2.52629
-0.965599,-0.104134,2.329,2.52338
-0.95804,-0.104134,2.329,2.5205
-0.95048,-0.104134,2.329,2.51764
-0.936443,-0.103419,2.313,2.49752
-0.928936,-0.103419,2.313,2.49471
-0.921428,-0.103419,2.313,2.49193
-0.913921,-0.103419,2.313,2.48916
-0.906413,-0.103419,2.313,2.48641
-0.898906,-0.103419,2.313,2.48369
-0.891399,-0.103419,2.313,2.48098
-0.883891,-0.103419,2.313,2.47829
-0.876384,-0.103419,2.313,2.47562
-0.868876,-0.103419,2.313,2.47298
-0.861369,-0.103419,2.313,2.47035
-0.853861,-0.103419,2.313,2.46774
-0.846354,-0.103419,2.313,2.46515
-0.838847,-0.103419,2.313,2.46259
-0.831339,-0.103419,2.313,2.46004
-0.823832,-0.103419,2.313,2.45751
-0.816324,-0.103419,2.313,2.45501
-0.814412,-0.104134,2.329,2.46948
-0.806852,-0.104134,2.329,2.467
-0.799293,-0.104134,2.329,2.46454
-0.791734,-0.104134,2.329,2.4621
-0.784174,-0.104134,2.329,2.45968
-0.776615,-0.104134,2.329,2.45728
-0.769056,-0.104134,2.329,2.4549
-0.766728,-0.104849,2.345,2.46939
-0.759116,-0.104849,2.345,2.46704
-0.751505,-0.104849,2.345,2.46471
-0.743894,-0.104849,2.345,2.4624
-0.741306,-0.105565,2.361,2.47689
-0.733643,-0.105565,2.361,2.47461
-0.72598,-0.105565,2.361,2.47235
-0.718317,-0.105565,2.361,2.47011
-0.710653,-0.105565,2.361,2.46789
-0.707754,-0.10628,2.377,2.48241
-0.700039,-0.10628,2.377,2.48022
-0.692324,-0.10628,2.377,2.47805
-0.689505,-0.10704,2.394,2.49361
-0.686576,-0.1078,2.411,2.50917
-0.67875,-0.1078,2.411,2.50704
-0.670925,-0.1078,2.411,2.50493
-0.667775,-0.10856,2.428,2.52049
-0.659894,-0.10856,2.428,2.51842
-0.652013,-0.10856,2.428,2.51636
-0.644133,-0.10856,2.428,2.51433
-0.640707,-0.109321,2.445,2.52992
-0.632771,-0.109321,2.445,2.52792
-0.624835,-0.109321,2.445,2.52594
-0.616899,-0.109321,2.445,2.52399
-0.608963,-0.109321,2.445,2.52207
-0.605452,-0.110125,2.463,2.53871
-0.601824,-0.11093,2.481,2.55536
-0.593771,-0.11093,2.481,2.55347
-0.585719,-0.11093,2.481,2.55161
-0.581857,-0.111735,2.499,2.56828
-0.573746,-0.111735,2.499,2.56645
-0.565635,-0.111735,2.499,2.56465
-0.561539,-0.11254,2.517,2.58133
-0.55337,-0.11254,2.517,2.57957
-0.5452,-0.11254,2.517,2.57783
-0.541085,-0.113389,2.536,2.59556
-0.532853,-0.113389,2.536,2.59386
-0.524622,-0.113389,2.536,2.59218
-0.516391,-0.113389,2.536,2.59052
-0.50816,-0.113389,2.536,2.5889
-0.499929,-0.113389,2.536,2.58729
-0.491697,-0.113389,2.536,2.58571
-0.487088,-0.114239,2.555,2.60352
-0.478795,-0.114239,2.555,2.60198
-0.467004,-0.113389,2.536,2.58113
-0.458772,-0.113389,2.536,2.57966
-0.450541,-0.113389,2.536,2.5782
-0.445624,-0.114239,2.555,2.59608
-0.437331,-0.114239,2.555,2.59467
-0.429038,-0.114239,2.555,2.59329
-0.420745,-0.114239,2.555,2.59193
-0.412452,-0.114239,2.555,2.5906
-0.407165,-0.115088,2.574,2.60854
-0.39881,-0.115088,2.574,2.60725
-0.390456,-0.115088,2.574,2.60599
-0.382101,-0.115088,2.574,2.60475
-0.373747,-0.115088,2.574,2.60354
-0.365392,-0.115088,2.574,2.60235
-0.357037,-0.115088,2.574,2.60119
-0.351257,-0.115938,2.593,2.61925
-0.345485,-0.116832,2.613,2.63833
-0.337004,-0.116832,2.613,2.63723
-0.328522,-0.116832,2.613,2.63616
-0.320041,-0.116832,2.613,2.63512
-0.31156,-0.116832,2.613,2.6341
-0.303079,-0.116832,2.613,2.63311
-0.294598,-0.116832,2.613,2.63215
-0.286117,-0.116832,2.613,2.63121
-0.277636,-0.116832,2.613,2.6303
-0.269154,-0.116832,2.613,2.62942
-0.260673,-0.116832,2.613,2.62857
-0.252192,-0.116832,2.613,2.62774
-0.243711,-0.116832,2.613,2.62694
-0.23523,-0.116832,2.613,2.62617
-0.226749,-0.116832,2.613,2.62542
-0.216597,-0.115938,2.593,2.60461
-0.208181,-0.115938,2.593,2.60393
-0.198301,-0.115088,2.574,2.58419
-0.189946,-0.115088,2.574,2.58356
-0.181592,-0.115088,2.574,2.58296
-0.174516,-0.115938,2.593,2.60145
-0.1661,-0.115938,2.593,2.6009
-0.157683,-0.115938,2.593,2.60038
-0.149267,-0.115938,2.593,2.59988
-0.139819,-0.115088,2.574,2.58036
-0.131464,-0.115088,2.574,2.57992
-0.12311,-0.115088,2.574,2.57951
-0.114755,-0.115088,2.574,2.57913
-0.1064,-0.115088,2.574,2.57877
-0.0980459,-0.115088,2.574,2.57844
-0.0896914,-0.115088,2.574,2.57813
-0.0813368,-0.115088,2.574,2.57786
-0.073521,-0.115938,2.593,2.59663
-0.0651047,-0.115938,2.593,2.59641
-0.0566885,-0.115938,2.593,2.59621
-0.0482722,-0.115938,2.593,2.59604
-0.039856,-0.115938,2.593,2.5959
-0.0314398,-0.115938,2.593,2.59578
-0.0230235,-0.115938,2.593,2.59569
-0.0146073,-0.115938,2.593,2.59563
-0.00619107,-0.115938,2.593,2.5956
0.00222516,-0.115938,2.593,2.59559
0.0106414,-0.115938,2.593,2.59561
0.0190576,-0.115938,2.593,2.59566
0.0274739,-0.115938,2.593,2.59574
0.0358901,-0.115938,2.593,2.59584
0.0443063,-0.115938,2.593,2.59597
0.0527226,-0.115938,2.593,2.59613
0.0611388,-0.115938,2.593,2.59631
0.069555,-0.115938,2.593,2.59652
0.0773999,-0.115088,2.574,2.57773
0.0857545,-0.115088,2.574,2.578
0.0941091,-0.115088,2.574,2.57829
0.102464,-0.115088,2.574,2.57861
0.110818,-0.115088,2.574,2.57895
0.119173,-0.115088,2.574,2.57933
0.127527,-0.115088,2.574,2.57973
0.135882,-0.115088,2.574,2.58015
0.144236,-0.115088,2.574,2.58061
0.152591,-0.115088,2.574,2.58109
0.160946,-0.115088,2.574,2.58159
0.1693,-0.115088,2.574,2.58213
0.177655,-0.115088,2.574,2.58269
0.186009,-0.115088,2.574,2.58328
0.195799,-0.115938,2.593,2.60297
0.204215,-0.115938,2.593,2.60361
0.212631,-0.115938,2.593,2.60429
0.221047,-0.115938,2.593,2.60499
0.227782,-0.115088,2.574,2.58662
0.236137,-0.115088,2.574,2.58737
0.244491,-0.115088,2.574,2.58815
0.250979,-0.114239,2.555,2.56984
0.259272,-0.114239,2.555,2.57066
0.267565,-0.114239,2.555,2.57151
0.275858,-0.114239,2.555,2.57239
0.284151,-0.114239,2.555,2.57329
0.290269,-0.113389,2.536,2.55508
0.296264,-0.11254,2.517,2.53687
0.304434,-0.11254,2.517,2.53784
0.312603,-0.11254,2.517,2.53883
0.318479,-0.111735,2.499,2.52169
0.324237,-0.11093,2.481,2.50456
0.33229,-0.11093,2.481,2.50561
0.340343,-0.11093,2.481,2.50669
0.348396,-0.11093,2.481,2.5078
0.356448,-0.11093,2.481,2.50893
0.361856,-0.110125,2.463,2.49187
0.369851,-0.110125,2.463,2.49305
0.377845,-0.110125,2.463,2.49425
0.38302,-0.109321,2.445,2.47723
0.390955,-0.109321,2.445,2.47847
0.398891,-0.109321,2.445,2.47974
0.403999,-0.10856,2.428,2.46377
0.411879,-0.10856,2.428,2.46508
0.416821,-0.1078,2.411,2.44914
0.424646,-0.1078,2.411,2.45048
0.432472,-0.1078,2.411,2.45185
0.440297,-0.1078,2.411,2.45324
0.448123,-0.1078,2.411,2.45466
0.455948,-0.1078,2.411,2.4561
0.467044,-0.10856,2.428,2.47489
0.474925,-0.10856,2.428,2.47639
0.482805,-0.10856,2.428,2.47792
0.494122,-0.109321,2.445,2.49682
0.502058,-0.109321,2.445,2.49841
0.509993,-0.109321,2.445,2.50001
0.521742,-0.110125,2.463,2.52006
0.537479,-0.111735,2.499,2.55859
0.54952,-0.11254,2.517,2.57875
0.55769,-0.11254,2.517,2.5805
0.565859,-0.11254,2.517,2.58228
0.578362,-0.113389,2.536,2.60359
0.586593,-0.113389,2.536,2.60543
0.599281,-0.114239,2.555,2.62683
0.607574,-0.114239,2.555,2.62873
0.615867,-0.114239,2.555,2.63066
0.628801,-0.115088,2.574,2.65219
0.637156,-0.115088,2.574,2.65418
0.64551,-0.115088,2.574,2.6562
0.653865,-0.115088,2.574,2.65824
0.657331,-0.114239,2.555,2.64067
0.665624,-0.114239,2.555,2.64275
0.673917,-0.114239,2.555,2.64485
0.68221,-0.114239,2.555,2.64698
0.690503,-0.114239,2.555,2.64913
0.698796,-0.114239,2.555,2.6513
0.707089,-0.114239,2.555,2.6535
0.715382,-0.114239,2.555,2.65572
0.723674,-0.114239,2.555,2.65797
0.731967,-0.114239,2.555,2.66024
0.74026,-0.114239,2.555,2.66253
0.75412,-0.115088,2.574,2.68466
0.762474,-0.115088,2.574,2.68702
0.770829,-0.115088,2.574,2.6894
0.779183,-0.115088,2.574,2.69181
0.787538,-0.115088,2.574,2.69424
0.795892,-0.115088,2.574,2.6967
0.804247,-0.115088,2.574,2.69917
0.812602,-0.115088,2.574,2.70167
0.814896,-0.114239,2.555,2.68424
0.823189,-0.114239,2.555,2.68677
0.831482,-0.114239,2.555,2.68932
0.839775,-0.114239,2.555,2.69189
0.841761,-0.113389,2.536,2.67446
0.849993,-0.113389,2.536,2.67706
0.851794,-0.11254,2.517,2.65961
0.853814,-0.111735,2.499,2.6432
0.861925,-0.111735,2.499,2.64583
0.870036,-0.111735,2.499,2.64848
0.871822,-0.11093,2.481,2.63206
0.879874,-0.11093,2.481,2.63474
0.875043,-0.109321,2.445,2.59917
0.882979,-0.109321,2.445,2.60185
0.890915,-0.109321,2.445,2.60455
0.892601,-0.10856,2.428,2.58915
0.894177,-0.1078,2.411,2.57373
0.902002,-0.1078,2.411,2.57646
0.909828,-0.1078,2.411,2.57921
0.917653,-0.1078,2.411,2.58198
0.918953,-0.10704,2.394,2.56655
0.926724,-0.10704,2.394,2.56934
0.927858,-0.10628,2.377,2.55389
0.935573,-0.10628,2.377,2.5567
0.943288,-0.10628,2.377,2.55953
0.944602,-0.105565,2.361,2.54514
0.952265,-0.105565,2.361,2.54799
0.959929,-0.105565,2.361,2.55087
0.967592,-0.105565,2.361,2.55376
0.975255,-0.105565,2.361,2.55667
0.989579,-0.10628,2.377,2.57695
0.997294,-0.10628,2.377,2.57993
1.00501,-0.10628,2.377,2.58292
1.01997,-0.10704,2.394,2.60442
1.05736,-0.110125,2.463,2.68263
1.06535,-0.110125,2.463,2.68579
1.10516,-0.113389,2.536,2.76867
1.15598,-0.117726,2.633,2.87799
1.16452,-0.117726,2.633,2.88143
1.2399,-0.124433,2.783,3.04925
1.24893,-0.124433,2.783,3.05293
1.27876,-0.12649,2.829,3.10716
1.28794,-0.12649,2.829,3.11095
1.33013,-0.129709,2.901,3.19404
1.37464,-0.133107,2.977,3.28175
1.38431,-0.133107,2.977,3.28581
1.39397,-0.133107,2.977,3.28989
1.40363,-0.133107,2.977,3.294
1.41329,-0.133107,2.977,3.29813
1.42296,-0.133107,2.977,3.30228
1.43262,-0.133107,2.977,3.30646
1.45488,-0.13427,3.003,3.33957
1.46463,-0.13427,3.003,3.34383
1.47437,-0.13427,3.003,3.34811
1.49746,-0.135477,3.03,3.38255
1.5073,-0.135477,3.03,3.38692
1.51713,-0.135477,3.03,3.3913
1.52697,-0.135477,3.03,3.39572
1.5505,-0.136684,3.057,3.43045
1.56042,-0.136684,3.057,3.43494
1.58421,-0.137891,3.084,3.46984
1.62369,-0.14044,3.141,3.53864
1.63388,-0.14044,3.141,3.54333
1.65925,-0.141737,3.17,3.5808
1.68482,-0.143033,3.199,3.61838
1.6952,-0.143033,3.199,3.62323
1.72211,-0.144419,3.23,3.66325
1.7326,-0.144419,3.23,3.66819
1.75927,-0.145761,3.26,3.70727
1.76985,-0.145761,3.26,3.71231
1.78043,-0.145761,3.26,3.71736
1.79101,-0.145761,3.26,3.72244
1.78501,-0.144419,3.23,3.69324
1.7955,-0.144419,3.23,3.69832
1.80598,-0.144419,3.23,3.70342
1.79903,-0.143033,3.199,3.67295
1.79301,-0.141737,3.17,3.64471
1.8033,-0.141737,3.17,3.64978
1.81359,-0.141737,3.17,3.65487
1.82388,-0.141737,3.17,3.65999
1.83417,-0.141737,3.17,3.66513
1.82758,-0.14044,3.141,3.63671
1.82081,-0.139143,3.112,3.60822
1.83091,-0.139143,3.112,3.61333
1.84101,-0.139143,3.112,3.61846
1.83446,-0.137891,3.084,3.591
1.82832,-0.136684,3.057,3.56464
1.83824,-0.136684,3.057,3.56974
1.84816,-0.136684,3.057,3.57486
1.84168,-0.135477,3.03,3.54838
1.85151,-0.135477,3.03,3.5535
1.84476,-0.13427,3.003,3.52692
1.83845,-0.133107,2.977,3.50145
1.84811,-0.133107,2.977,3.50653
1.84155,-0.131945,2.951,3.48096
1.81976,-0.129709,2.901,3.42698
1.82918,-0.129709,2.901,3.43199
1.80817,-0.127563,2.853,3.38014
1.78749,-0.125461,2.806,3.32934
1.7966,-0.125461,2.806,3.33424
1.79091,-0.124433,2.783,3.31179
1.77148,-0.122466,2.739,3.26424
1.75242,-0.120543,2.696,3.21775
1.76117,-0.120543,2.696,3.22253
1.74235,-0.118665,2.654,3.17704
1.73711,-0.117726,2.633,3.1566
1.74566,-0.117726,2.633,3.16131
1.72755,-0.115938,2.593,3.11794
1.72325,-0.115088,2.574,3.09973
1.7316,-0.115088,2.574,3.10438
1.72711,-0.114239,2.555,3.0861
1.7225,-0.113389,2.536,3.06776
-1.96257,-0.11731,2.829,3.4451
-1.95339,-0.11731,2.829,3.43987
-1.94421,-0.11731,2.829,3.43467
-1.93502,-0.11731,2.829,3.42948
-1.91018,-0.116356,2.806,3.39647
-1.90108,-0.116356,2.806,3.39135
-1.86163,-0.11449,2.761,3.33195
-1.85267,-0.11449,2.761,3.32695
-1.8437,-0.11449,2.761,3.32197
-1.82012,-0.113578,2.739,3.29057
-1.79668,-0.112666,2.717,3.25927
-1.78787,-0.112666,2.717,3.25442
-1.77905,-0.112666,2.717,3.24958
-1.77023,-0.112666,2.717,3.24476
-1.76141,-0.112666,2.717,3.23996
nan,nan,nan,NaN
nan,nan,nan,NaN
nan,nan,nan,NaN
nan,nan,nan,NaN
nan,nan,nan,NaN
nan,nan,nan,NaN
nan,nan,nan,NaN
-1.74625,-0.116356,2.806,3.30705
-1.73714,-0.116356,2.806,3.30225
-1.72803,-0.116356,2.806,3.29746
-1.71892,-0.116356,2.806,3.2927
-1.70982,-0.116356,2.806,3.28796
-1.70071,-0.116356,2.806,3.28323
-1.70547,-0.11731,2.829,3.30539
-1.69629,-0.11731,2.829,3.30066
-1.67339,-0.116356,2.806,3.26916
-1.66428,-0.116356,2.806,3.26451
-1.65517,-0.116356,2.806,3.25987
-1.65956,-0.11731,2.829,3.28194
-1.65037,-0.11731,2.829,3.27731
nan,nan,nan,NaN
nan,nan,nan,NaN
nan,nan,nan,NaN
nan,nan,nan,NaN
nan,nan,nan,NaN
nan,nan,nan,NaN
nan,nan,nan,NaN
nan,nan,nan,NaN
nan,nan,nan,NaN
nan,nan,nan,NaN
nan,nan,nan,NaN
nan,nan,nan,NaN
nan,nan,nan,NaN
nan,nan,nan,NaN
nan,nan,nan,NaN
nan,nan,nan,NaN
nan,nan,nan,NaN
nan,nan,nan,NaN
nan,nan,nan,NaN
nan,nan,nan,NaN
nan,nan,nan,NaN
nan,nan,nan,NaN
nan,nan,nan,NaN
nan,nan,nan,NaN
nan,nan,nan,NaN
nan,nan,nan,NaN
nan,nan,nan,NaN
-1.20415,-0.101387,2.445,2.72732
-1.19622,-0.101387,2.445,2.72383
-1.18828,-0.101387,2.445,2.72035
-1.18035,-0.101387,2.445,2.7169
-1.16426,-0.100682,2.428,2.69459
-1.15638,-0.100682,2.428,2.69119
-1.14046,-0.099977,2.411,2.669
-1.13263,-0.099977,2.411,2.66566
-1.1248,-0.099977,2.411,2.66235
-1.1091,-0.0992721,2.394,2.6403
-1.09351,-0.0985671,2.377,2.61832
-1.0858,-0.0985671,2.377,2.61511
-1.07808,-0.0985671,2.377,2.61192
-1.06316,-0.0979037,2.361,2.59118
-1.0555,-0.0979037,2.361,2.58805
-1.04784,-0.0979037,2.361,2.58493
-1.04017,-0.0979037,2.361,2.58183
-1.03251,-0.0979037,2.361,2.57876
-1.02485,-0.0979037,2.361,2.5757
-1.01029,-0.0972402,2.345,2.55522
-1.00268,-0.0972402,2.345,2.55222
-0.995066,-0.0972402,2.345,2.54924
-0.987455,-0.0972402,2.345,2.54628
-0.973158,-0.0965767,2.329,2.52599
-0.965599,-0.0965767,2.329,2.52308
-0.95804,-0.0965767,2.329,2.5202
-0.95048,-0.0965767,2.329,2.51734
-0.936443,-0.0959132,2.313,2.49722
-0.928936,-0.0959132,2.313,2.49441
-0.921428,-0.0959132,2.313,2.49163
-0.913921,-0.0959132,2.313,2.48886
-0.906413,-0.0959132,2.313,2.48611
-0.898906,-0.0959132,2.313,2.48339
-0.891399,-0.0959132,2.313,2.48068
-0.883891,-0.0959132,2.313,2.47799
-0.876384,-0.0959132,2.313,2.47532
-0.868876,-0.0959132,2.313,2.47267
-0.861369,-0.0959132,2.313,2.47005
-0.853861,-0.0959132,2.313,2.46744
-0.846354,-0.0959132,2.313,2.46485
-0.838847,-0.0959132,2.313,2.46228
-0.831339,-0.0959132,2.313,2.45973
-0.823832,-0.0959132,2.313,2.45721
-0.816324,-0.0959132,2.313,2.4547
-0.814412,-0.0965767,2.329,2.46918
-0.806852,-0.0965767,2.329,2.46669
-0.799293,-0.0965767,2.329,2.46423
-0.791734,-0.0965767,2.329,2.46179
-0.784174,-0.0965767,2.329,2.45937
-0.776615,-0.0965767,2.329,2.45697
-0.769056,-0.0965767,2.329,2.45459
-0.766728,-0.0972402,2.345,2.46908
-0.759116,-0.0972402,2.345,2.46673
-0.751505,-0.0972402,2.345,2.46439
-0.743894,-0.0972402,2.345,2.46208
-0.741306,-0.0979037,2.361,2.47658
-0.733643,-0.0979037,2.361,2.4743
-0.72598,-0.0979037,2.361,2.47203
-0.718317,-0.0979037,2.361,2.46979
-0.710653,-0.0979037,2.361,2.46758
-0.707754,-0.0985671,2.377,2.48209
-0.700039,-0.0985671,2.377,2.4799
-0.692324,-0.0985671,2.377,2.47773
-0.689505,-0.0992721,2.394,2.49329
-0.686576,-0.099977,2.411,2.50884
-0.67875,-0.099977,2.411,2.50671
-0.670925,-0.099977,2.411,2.50461
-0.667775,-0.100682,2.428,2.52017
-0.659894,-0.100682,2.428,2.51809
-0.652013,-0.100682,2.428,2.51604
-0.644133,-0.100682,2.428,2.51401
-0.640707,-0.101387,2.445,2.52959
-0.632771,-0.101387,2.445,2.52759
-0.624835,-0.101387,2.445,2.52561
-0.616899,-0.101387,2.445,2.52366
-0.608963,-0.101387,2.445,2.52173
-0.605452,-0.102133,2.463,2.53838
-0.601824,-0.10288,2.481,2.55502
-0.593771,-0.10288,2.481,2.55314
-0.585719,-0.10288,2.481,2.55128
-0.581857,-0.103626,2.499,2.56794
-0.573746,-0.103626,2.499,2.56611
-0.565635,-0.103626,2.499,2.56431
-0.557524,-0.103626,2.499,2.56253
-0.55337,-0.104373,2.517,2.57923
-0.5452,-0.104373,2.517,2.57748
-0.541085,-0.10516,2.536,2.59521
-0.532853,-0.10516,2.536,2.59351
-0.524622,-0.10516,2.536,2.59183
-0.516391,-0.10516,2.536,2.59018
-0.50816,-0.10516,2.536,2.58855
-0.499929,-0.10516,2.536,2.58694
-0.491697,-0.10516,2.536,2.58537
-0.483466,-0.10516,2.536,2.58381
-0.478795,-0.105948,2.555,2.60163
-0.467004,-0.10516,2.536,2.58078
-0.458772,-0.10516,2.536,2.57931
-0.450541,-0.10516,2.536,2.57786
-0.44231,-0.10516,2.536,2.57643
-0.434079,-0.10516,2.536,2.57503
-0.429038,-0.105948,2.555,2.59294
-0.420745,-0.105948,2.555,2.59158
-0.412452,-0.105948,2.555,2.59024
-0.404159,-0.105948,2.555,2.58894
-0.395866,-0.105948,2.555,2.58766
-0.387574,-0.105948,2.555,2.5864
-0.382101,-0.106736,2.574,2.60439
-0.373747,-0.106736,2.574,2.60318
-0.365392,-0.106736,2.574,2.602
-0.357037,-0.106736,2.574,2.60084
-0.353966,-0.108353,2.613,2.63909
-0.345485,-0.108353,2.613,2.63797
-0.337004,-0.108353,2.613,2.63687
-0.328522,-0.108353,2.613,2.6358
-0.320041,-0.108353,2.613,2.63476
-0.31156,-0.108353,2.613,2.63374
-0.303079,-0.108353,2.613,2.63275
-0.294598,-0.108353,2.613,2.63179
-0.286117,-0.108353,2.613,2.63085
-0.275511,-0.107524,2.593,2.60981
-0.267094,-0.107524,2.593,2.60894
-0.258678,-0.107524,2.593,2.60809
-0.250262,-0.107524,2.593,2.60727
-0.241846,-0.107524,2.593,2.60647
-0.233429,-0.107524,2.593,2.60571
-0.225013,-0.107524,2.593,2.60496
-0.216597,-0.107524,2.593,2.60425
-0.208181,-0.107524,2.593,2.60356
-0.199764,-0.107524,2.593,2.60291
-0.191348,-0.107524,2.593,2.60227
-0.182932,-0.107524,2.593,2.60167
-0.174516,-0.107524,2.593,2.60109
-0.1661,-0.107524,2.593,2.60054
-0.157683,-0.107524,2.593,2.60001
-0.149267,-0.107524,2.593,2.59952
-0.140851,-0.107524,2.593,2.59905
-0.131464,-0.106736,2.574,2.57956
-0.12311,-0.106736,2.574,2.57915
-0.114755,-0.106736,2.574,2.57877
-0.1064,-0.106736,2.574,2.57841
-0.0980459,-0.106736,2.574,2.57808
-0.0896914,-0.106736,2.574,2.57777
-0.0813368,-0.106736,2.574,2.5775
-0.073521,-0.107524,2.593,2.59627
-0.0651047,-0.107524,2.593,2.59605
-0.0566885,-0.107524,2.593,2.59585
-0.0482722,-0.107524,2.593,2.59568
-0.039856,-0.107524,2.593,2.59553
-0.0314398,-0.107524,2.593,2.59542
-0.0232011,-0.108353,2.613,2.61535
-0.01472,-0.108353,2.613,2.61529
-0.00619107,-0.107524,2.593,2.59524
0.00222516,-0.107524,2.593,2.59523
0.0106414,-0.107524,2.593,2.59525
0.0190576,-0.107524,2.593,2.5953
0.0274739,-0.107524,2.593,2.59537
0.0358901,-0.107524,2.593,2.59548
0.0443063,-0.107524,2.593,2.59561
0.0527226,-0.107524,2.593,2.59576
0.0611388,-0.107524,2.593,2.59595
0.069555,-0.107524,2.593,2.59616
0.0773999,-0.106736,2.574,2.57737
0.0857545,-0.106736,2.574,2.57764
0.0941091,-0.106736,2.574,2.57793
0.102464,-0.106736,2.574,2.57825
0.110818,-0.106736,2.574,2.57859
0.119173,-0.106736,2.574,2.57897
0.127527,-0.106736,2.574,2.57937
0.135882,-0.106736,2.574,2.57979
0.144236,-0.106736,2.574,2.58025
0.152591,-0.106736,2.574,2.58073
0.160946,-0.106736,2.574,2.58123
0.1693,-0.106736,2.574,2.58177
0.177655,-0.106736,2.574,2.58233
0.186009,-0.106736,2.574,2.58292
0.195799,-0.107524,2.593,2.6026
0.204215,-0.107524,2.593,2.60325
0.212631,-0.107524,2.593,2.60392
0.221047,-0.107524,2.593,2.60463
0.227782,-0.106736,2.574,2.58626
0.236137,-0.106736,2.574,2.58701
0.244491,-0.106736,2.574,2.58779
0.250979,-0.105948,2.555,2.56948
0.259272,-0.105948,2.555,2.57031
0.267565,-0.105948,2.555,2.57116
0.275858,-0.105948,2.555,2.57203
0.284151,-0.105948,2.555,2.57293
0.290269,-0.10516,2.536,2.55472
0.296264,-0.104373,2.517,2.53652
0.304434,-0.104373,2.517,2.53749
0.312603,-0.104373,2.517,2.53848
0.318479,-0.103626,2.499,2.52134
0.324237,-0.10288,2.481,2.50421
0.33229,-0.10288,2.481,2.50527
0.340343,-0.10288,2.481,2.50635
0.348396,-0.10288,2.481,2.50745
0.356448,-0.10288,2.481,2.50859
0.361856,-0.102133,2.463,2.49153
0.367148,-0.101387,2.445,2.47449
0.375084,-0.101387,2.445,2.47568
0.38302,-0.101387,2.445,2.4769
0.390955,-0.101387,2.445,2.47813
0.398891,-0.101387,2.445,2.4794
0.403999,-0.100682,2.428,2.46344
0.411879,-0.100682,2.428,2.46474
0.416821,-0.099977,2.411,2.44881
0.424646,-0.099977,2.411,2.45015
0.432472,-0.099977,2.411,2.45152
0.440297,-0.099977,2.411,2.45291
0.448123,-0.099977,2.411,2.45433
0.455948,-0.099977,2.411,2.45577
0.467044,-0.100682,2.428,2.47456
0.474925,-0.100682,2.428,2.47606
0.482805,-0.100682,2.428,2.47758
0.490686,-0.100682,2.428,2.47913
0.502058,-0.101387,2.445,2.49807
0.509993,-0.101387,2.445,2.49968
0.521742,-0.102133,2.463,2.51973
0.533608,-0.10288,2.481,2.53982
0.54952,-0.104373,2.517,2.5784
0.55769,-0.104373,2.517,2.58016
0.565859,-0.104373,2.517,2.58193
0.578362,-0.10516,2.536,2.60324
0.586593,-0.10516,2.536,2.60508
0.599281,-0.105948,2.555,2.62648
0.607574,-0.105948,2.555,2.62838
0.615867,-0.105948,2.555,2.63031
0.628801,-0.106736,2.574,2.65184
0.632453,-0.105948,2.555,2.63424
0.640746,-0.105948,2.555,2.63625
0.649038,-0.105948,2.555,2.63828
0.657331,-0.105948,2.555,2.64033
0.665624,-0.105948,2.555,2.64241
0.673917,-0.105948,2.555,2.64451
0.677137,-0.10516,2.536,2.62695
0.685368,-0.10516,2.536,2.62908
0.693599,-0.10516,2.536,2.63124
0.707089,-0.105948,2.555,2.65315
0.715382,-0.105948,2.555,2.65538
0.723674,-0.105948,2.555,2.65762
0.731967,-0.105948,2.555,2.65989
0.74026,-0.105948,2.555,2.66219
0.75412,-0.106736,2.574,2.68432
0.762474,-0.106736,2.574,2.68668
0.770829,-0.106736,2.574,2.68906
0.779183,-0.106736,2.574,2.69147
0.787538,-0.106736,2.574,2.6939
0.795892,-0.106736,2.574,2.69635
0.804247,-0.106736,2.574,2.69883
0.812602,-0.106736,2.574,2.70133
0.814896,-0.105948,2.555,2.6839
0.823189,-0.105948,2.555,2.68643
0.831482,-0.105948,2.555,2.68898
0.839775,-0.105948,2.555,2.69156
0.841761,-0.10516,2.536,2.67412
0.849993,-0.10516,2.536,2.67672
0.858224,-0.10516,2.536,2.67935
0.859963,-0.104373,2.517,2.6619
0.868133,-0.104373,2.517,2.66455
0.870036,-0.103626,2.499,2.64815
0.871822,-0.10288,2.481,2.63173
0.879874,-0.10288,2.481,2.63441
0.881485,-0.102133,2.463,2.61798
0.882979,-0.101387,2.445,2.60153
0.890915,-0.101387,2.445,2.60423
0.892601,-0.100682,2.428,2.58883
0.900482,-0.100682,2.428,2.59156
0.902002,-0.099977,2.411,2.57615
0.909828,-0.099977,2.411,2.5789
0.917653,-0.099977,2.411,2.58167
0.918953,-0.0992721,2.394,2.56624
0.926724,-0.0992721,2.394,2.56903
0.927858,-0.0985671,2.377,2.55358
0.935573,-0.0985671,2.377,2.55639
0.943288,-0.0985671,2.377,2.55923
0.951003,-0.0985671,2.377,2.56208
0.952265,-0.0979037,2.361,2.54769
0.959929,-0.0979037,2.361,2.55056
0.967592,-0.0979037,2.361,2.55346
0.981864,-0.0985671,2.377,2.57369
0.989579,-0.0985671,2.377,2.57665
0.997294,-0.0985671,2.377,2.57962
1.00501,-0.0985671,2.377,2.58261
1.02721,-0.099977,2.411,2.62261
1.05736,-0.102133,2.463,2.68231
1.06535,-0.102133,2.463,2.68548
1.11344,-0.105948,2.555,2.78909
1.15598,-0.109183,2.633,2.87765
1.20168,-0.112666,2.717,2.97301
1.21049,-0.112666,2.717,2.97659
1.23906,-0.11449,2.761,3.02845
1.27876,-0.11731,2.829,3.1068
1.28794,-0.11731,2.829,3.11059
1.33013,-0.120296,2.901,3.19367
1.36264,-0.122369,2.951,3.25272
1.37222,-0.122369,2.951,3.25674
1.39397,-0.123447,2.977,3.28952
1.39137,-0.122369,2.951,3.26486
1.40095,-0.122369,2.951,3.26895
1.41053,-0.122369,2.951,3.27307
1.42011,-0.122369,2.951,3.27721
1.44228,-0.123447,2.977,3.31028
1.45195,-0.123447,2.977,3.3145
1.47437,-0.124525,3.003,3.34773
1.48412,-0.124525,3.003,3.35203
1.49387,-0.124525,3.003,3.35636
1.50361,-0.124525,3.003,3.36071
1.52697,-0.125645,3.03,3.39534
1.5368,-0.125645,3.03,3.39977
1.54664,-0.125645,3.03,3.40423
1.58421,-0.127884,3.084,3.46946
1.60869,-0.129045,3.112,3.50558
1.6188,-0.129045,3.112,3.51023
1.64408,-0.130248,3.141,3.54765
1.65427,-0.130248,3.141,3.55239
1.66447,-0.130248,3.141,3.55715
1.69012,-0.13145,3.17,3.59481
1.71597,-0.132653,3.199,3.63259
1.72635,-0.132653,3.199,3.63751
1.75356,-0.133939,3.23,3.67775
1.76405,-0.133939,3.23,3.68276
1.77453,-0.133939,3.23,3.68779
1.78501,-0.133939,3.23,3.69285
1.77827,-0.132653,3.199,3.66243
1.78865,-0.132653,3.199,3.66749
1.79903,-0.132653,3.199,3.67256
1.79301,-0.13145,3.17,3.64432
1.8033,-0.13145,3.17,3.64939
1.797,-0.130248,3.141,3.62106
1.80719,-0.130248,3.141,3.62613
1.81739,-0.130248,3.141,3.63122
1.81071,-0.129045,3.112,3.60276
1.82081,-0.129045,3.112,3.60785
1.83091,-0.129045,3.112,3.61295
1.84101,-0.129045,3.112,3.61808
1.83446,-0.127884,3.084,3.59063
1.82832,-0.126765,3.057,3.56428
1.83824,-0.126765,3.057,3.56938
1.84816,-0.126765,3.057,3.5745
1.84168,-0.125645,3.03,3.54802
1.85151,-0.125645,3.03,3.55314
1.84476,-0.124525,3.003,3.52656
1.83845,-0.123447,2.977,3.50109
1.84811,-0.123447,2.977,3.50618
1.84155,-0.122369,2.951,3.48061
1.81976,-0.120296,2.901,3.42663
1.82918,-0.120296,2.901,3.43164
1.80817,-0.118305,2.853,3.37981
1.78749,-0.116356,2.806,3.32901
1.7966,-0.116356,2.806,3.33391
1.79091,-0.115403,2.783,3.31146
1.77148,-0.113578,2.739,3.26392
1.75242,-0.111795,2.696,3.21744
1.76117,-0.111795,2.696,3.22221
1.74235,-0.110053,2.654,3.17673
1.73711,-0.109183,2.633,3.15629
1.74566,-0.109183,2.633,3.161
1.72755,-0.107524,2.593,3.11764
1.72325,-0.106736,2.574,3.09943
1.7316,-0.106736,2.574,3.10408
1.72711,-0.105948,2.555,3.0858
1.7225,-0.10516,2.536,3.06747
-1.96257,-0.108131,2.829,3.4448
-1.95339,-0.108131,2.829,3.43957
-1.94421,-0.108131,2.829,3.43437
-1.93502,-0.108131,2.829,3.42918
-1.91018,-0.107251,2.806,3.39617
-1.90108,-0.107251,2.806,3.39105
-1.86163,-0.105531,2.761,3.33165
-1.85267,-0.105531,2.761,3.32665
-1.8437,-0.105531,2.761,3.32167
-1.82012,-0.104691,2.739,3.29028
-1.79668,-0.10385,2.717,3.25898
-1.78787,-0.10385,2.717,3.25413
-1.77905,-0.10385,2.717,3.24929
-1.77023,-0.10385,2.717,3.24447
-1.76141,-0.10385,2.717,3.23967
nan,nan,nan,NaN
nan,nan,nan,NaN
nan,nan,nan,NaN
nan,nan,nan,NaN
nan,nan,nan,NaN
nan,nan,nan,NaN
nan,nan,nan,NaN
-1.74625,-0.107251,2.806,3.30674
-1.73714,-0.107251,2.806,3.30194
-1.72803,-0.107251,2.806,3.29716
-1.71892,-0.107251,2.806,3.29239
-1.70982,-0.107251,2.806,3.28765
-1.70071,-0.107251,2.806,3.28292
-1.70547,-0.108131,2.829,3.30508
-1.69629,-0.108131,2.829,3.30035
-1.67339,-0.107251,2.806,3.26885
-1.66428,-0.107251,2.806,3.26419
-1.65517,-0.107251,2.806,3.25956
-1.65956,-0.108131,2.829,3.28162
-1.65037,-0.108131,2.829,3.27699
nan,nan,nan,NaN
nan,nan,nan,NaN
nan,nan,nan,NaN
nan,nan,nan,NaN
nan,nan,nan,NaN
nan,nan,nan,NaN
nan,nan,nan,NaN
nan,nan,nan,NaN
nan,nan,nan,NaN
nan,nan,nan,NaN
nan,nan,nan,NaN
nan,nan,nan,NaN
nan,nan,nan,NaN
nan,nan,nan,NaN
nan,nan,nan,NaN
nan,nan,nan,NaN
nan,nan,nan,NaN
nan,nan,nan,NaN
nan,nan,nan,NaN
nan,nan,nan,NaN
nan,nan,nan,NaN
nan,nan,nan,NaN
nan,nan,nan,NaN
nan,nan,nan,NaN
nan,nan,nan,NaN
nan,nan,nan,NaN
nan,nan,nan,NaN
-1.20415,-0.0934533,2.445,2.72704
-1.19622,-0.0934533,2.445,2.72354
-1.18828,-0.0934533,2.445,2.72007
-1.18035,-0.0934533,2.445,2.71661
-1.16426,-0.0928035,2.428,2.69431
-1.15638,-0.0928035,2.428,2.69091
-1.14046,-0.0921537,2.411,2.66872
-1.13263,-0.0921537,2.411,2.66538
-1.1248,-0.0921537,2.411,2.66207
-1.1091,-0.0915039,2.394,2.64002
-1.09351,-0.0908541,2.377,2.61804
-1.0858,-0.0908541,2.377,2.61483
-1.07808,-0.0908541,2.377,2.61164
-1.07037,-0.0908541,2.377,2.60846
-1.0555,-0.0902426,2.361,2.58777
-1.04784,-0.0902426,2.361,2.58465
-1.04017,-0.0902426,2.361,2.58155
-1.03251,-0.0902426,2.361,2.57848
-1.02485,-0.0902426,2.361,2.57542
-1.01029,-0.089631,2.345,2.55494
-1.00268,-0.089631,2.345,2.55194
-0.995066,-0.089631,2.345,2.54896
-0.987455,-0.089631,2.345,2.546
-0.973158,-0.0890195,2.329,2.52571
-0.965599,-0.0890195,2.329,2.52281
-0.95804,-0.0890195,2.329,2.51992
-0.95048,-0.0890195,2.329,2.51706
-0.936443,-0.0884079,2.313,2.49694
-0.928936,-0.0884079,2.313,2.49413
-0.921428,-0.0884079,2.313,2.49135
-0.913921,-0.0884079,2.313,2.48858
-0.906413,-0.0884079,2.313,2.48583
-0.898906,-0.0884079,2.313,2.48311
-0.891399,-0.0884079,2.313,2.4804
-0.883891,-0.0884079,2.313,2.47771
-0.876384,-0.0884079,2.313,2.47504
-0.868876,-0.0884079,2.313,2.47239
-0.861369,-0.0884079,2.313,2.46977
-0.853861,-0.0884079,2.313,2.46716
-0.846354,-0.0884079,2.313,2.46457
-0.838847,-0.0884079,2.313,2.462
-0.83709,-0.0890195,2.329,2.47647
-0.829531,-0.0890195,2.329,2.47392
-0.821971,-0.0890195,2.329,2.4714
-0.814412,-0.0890195,2.329,2.46889
-0.806852,-0.0890195,2.329,2.46641
-0.799293,-0.0890195,2.329,2.46395
-0.791734,-0.0890195,2.329,2.46151
-0.789562,-0.089631,2.345,2.47598
-0.78195,-0.089631,2.345,2.47356
-0.774339,-0.089631,2.345,2.47117
-0.766728,-0.089631,2.345,2.46879
-0.759116,-0.089631,2.345,2.46644
-0.756633,-0.0902426,2.361,2.48092
-0.748969,-0.0902426,2.361,2.47859
-0.741306,-0.0902426,2.361,2.47629
-0.733643,-0.0902426,2.361,2.474
-0.72598,-0.0902426,2.361,2.47174
-0.723184,-0.0908541,2.377,2.48624
-0.715469,-0.0908541,2.377,2.484
-0.707754,-0.0908541,2.377,2.48179
-0.705046,-0.0915039,2.394,2.49734
-0.697275,-0.0915039,2.394,2.49516
-0.689505,-0.0915039,2.394,2.493
-0.686576,-0.0921537,2.411,2.50855
-0.683536,-0.0928035,2.428,2.52409
