1.83662,-0.341888,2.717,3.2973
1.81691,-0.336603,2.675,3.25117
-2.28377,-0.40356,3.292,4.02688
-2.27308,-0.40356,3.292,4.02082
-2.2624,-0.40356,3.292,4.01479
-2.25171,-0.40356,3.292,4.00878
-2.26281,-0.407482,3.324,4.0417
-2.25202,-0.407482,3.324,4.03567
-2.24123,-0.407482,3.324,4.02966
-2.20897,-0.40356,3.292,3.98493
-2.19829,-0.40356,3.292,3.97902
-2.1876,-0.40356,3.292,3.97313
-2.17692,-0.40356,3.292,3.96725
-2.16623,-0.40356,3.292,3.9614
-2.15555,-0.40356,3.292,3.95557
-2.14486,-0.40356,3.292,3.94975
-2.13418,-0.40356,3.292,3.94396
-2.14413,-0.407482,3.324,3.97647
-2.13335,-0.407482,3.324,3.97067
-2.12256,-0.407482,3.324,3.96488
-2.1321,-0.411405,3.356,3.99723
-2.1212,-0.411405,3.356,3.99143
-2.13106,-0.415451,3.389,4.02484
-2.12006,-0.415451,3.389,4.01903
-2.10906,-0.415451,3.389,4.01324
-2.07763,-0.411405,3.356,3.96844
-2.06674,-0.411405,3.356,3.96275
-2.07606,-0.415451,3.389,3.99599
-2.06506,-0.415451,3.389,3.99029
-2.05406,-0.415451,3.389,3.98461
-2.04306,-0.415451,3.389,3.97895
-2.03206,-0.415451,3.389,3.97331
-2.02106,-0.415451,3.389,3.9677
nan,nan,nan,NaN
nan,nan,nan,NaN
nan,nan,nan,NaN
nan,nan,nan,NaN
nan,nan,nan,NaN
nan,nan,nan,NaN
nan,nan,nan,NaN
nan,nan,nan,NaN
nan,nan,nan,NaN
nan,nan,nan,NaN
nan,nan,nan,NaN
nan,nan,nan,NaN
nan,nan,nan,NaN
nan,nan,nan,NaN
nan,nan,nan,NaN
nan,nan,nan,NaN
nan,nan,nan,NaN
nan,nan,nan,NaN
nan,nan,nan,NaN
nan,nan,nan,NaN
nan,nan,nan,NaN
nan,nan,nan,NaN
nan,nan,nan,NaN
nan,nan,nan,NaN
nan,nan,nan,NaN
nan,nan,nan,NaN
nan,nan,nan,NaN
nan,nan,nan,NaN
nan,nan,nan,NaN
nan,nan,nan,NaN
nan,nan,nan,NaN
-1.19578,-0.297644,2.428,2.72281
-1.1879,-0.297644,2.428,2.71935
-1.18002,-0.297644,2.428,2.71592
-1.18035,-0.299727,2.445,2.7315
-1.17241,-0.299727,2.445,2.72808
-1.16447,-0.299727,2.445,2.72468
-1.15654,-0.299727,2.445,2.72129
-1.14062,-0.297644,2.428,2.69903
-1.13274,-0.297644,2.428,2.69571
-1.12485,-0.297644,2.428,2.69241
-1.11697,-0.297644,2.428,2.68913
-1.10909,-0.297644,2.428,2.68586
-1.10121,-0.297644,2.428,2.68262
-1.09333,-0.297644,2.428,2.67939
-1.07785,-0.29556,2.411,2.65745
-1.07003,-0.29556,2.411,2.65429
-1.0622,-0.29556,2.411,2.65114
-1.05437,-0.29556,2.411,2.64801
-1.04655,-0.29556,2.411,2.64491
-1.03872,-0.29556,2.411,2.64182
-1.0309,-0.29556,2.411,2.63875
-1.02307,-0.29556,2.411,2.63571
-1.00809,-0.293476,2.394,2.61412
-1.00032,-0.293476,2.394,2.61113
-0.992548,-0.293476,2.394,2.60816
-0.984778,-0.293476,2.394,2.60522
-0.977007,-0.293476,2.394,2.60229
-0.962354,-0.291392,2.377,2.58092
-0.954639,-0.291392,2.377,2.57806
-0.946924,-0.291392,2.377,2.57521
-0.939209,-0.291392,2.377,2.57238
-0.931494,-0.291392,2.377,2.56958
-0.923778,-0.291392,2.377,2.56679
-0.916063,-0.291392,2.377,2.56402
-0.908348,-0.291392,2.377,2.56128
-0.894571,-0.28943,2.361,2.54133
-0.886907,-0.28943,2.361,2.53864
-0.879244,-0.28943,2.361,2.53597
-0.871581,-0.28943,2.361,2.53333
-0.863918,-0.28943,2.361,2.5307
-0.856255,-0.28943,2.361,2.52809
-0.848591,-0.28943,2.361,2.52551
-0.840928,-0.28943,2.361,2.52294
-0.833265,-0.28943,2.361,2.5204
-0.825602,-0.28943,2.361,2.51788
-0.817938,-0.28943,2.361,2.51538
-0.815766,-0.291392,2.377,2.52992
-0.808051,-0.291392,2.377,2.52745
-0.800336,-0.291392,2.377,2.52499
-0.792621,-0.291392,2.377,2.52256
-0.784906,-0.291392,2.377,2.52014
-0.777191,-0.291392,2.377,2.51775
-0.769475,-0.291392,2.377,2.51538
-0.767208,-0.293476,2.394,2.531
-0.759438,-0.293476,2.394,2.52866
-0.751668,-0.293476,2.394,2.52634
-0.74918,-0.29556,2.411,2.54196
-0.741354,-0.29556,2.411,2.53966
-0.733529,-0.29556,2.411,2.53739
-0.725703,-0.29556,2.411,2.53514
-0.722939,-0.297644,2.428,2.55077
-0.715059,-0.297644,2.428,2.54855
-0.707178,-0.297644,2.428,2.54635
-0.699297,-0.297644,2.428,2.54417
-0.691417,-0.297644,2.428,2.54201
-0.683536,-0.297644,2.428,2.53988
-0.680386,-0.299727,2.445,2.55554
-0.67245,-0.299727,2.445,2.55344
-0.664514,-0.299727,2.445,2.55136
-0.656578,-0.299727,2.445,2.54931
-0.648643,-0.299727,2.445,2.54727
-0.640707,-0.299727,2.445,2.54526
-0.632771,-0.299727,2.445,2.54328
-0.624835,-0.299727,2.445,2.54131
-0.616899,-0.299727,2.445,2.53938
-0.608963,-0.299727,2.445,2.53746
-0.605452,-0.301934,2.463,2.55423
-0.597458,-0.301934,2.463,2.55235
-0.589464,-0.301934,2.463,2.55049
-0.581469,-0.301934,2.463,2.54865
-0.577666,-0.304141,2.481,2.56546
-0.569613,-0.304141,2.481,2.56365
-0.561561,-0.304141,2.481,2.56188
-0.553508,-0.304141,2.481,2.56012
-0.549413,-0.306347,2.499,2.57696
-0.541301,-0.306347,2.499,2.57524
-0.53319,-0.306347,2.499,2.57355
-0.528861,-0.308554,2.517,2.5904
-0.520692,-0.308554,2.517,2.58875
-0.512522,-0.308554,2.517,2.58712
-0.504353,-0.308554,2.517,2.58551
-0.496183,-0.308554,2.517,2.58393
-0.488013,-0.308554,2.517,2.58237
-0.483466,-0.310883,2.536,2.60032
-0.478795,-0.313212,2.555,2.61828
-0.470502,-0.313212,2.555,2.61677
-0.46221,-0.313212,2.555,2.61529
-0.453917,-0.313212,2.555,2.61384
-0.445624,-0.313212,2.555,2.61241
-0.440583,-0.315541,2.574,2.63043
-0.432229,-0.315541,2.574,2.62904
-0.423874,-0.315541,2.574,2.62768
-0.415519,-0.315541,2.574,2.62635
-0.407165,-0.315541,2.574,2.62504
-0.39881,-0.315541,2.574,2.62376
-0.390456,-0.315541,2.574,2.6225
-0.382101,-0.315541,2.574,2.62127
-0.373747,-0.315541,2.574,2.62006
-0.362695,-0.313212,2.555,2.59955
-0.354402,-0.313212,2.555,2.59841
-0.346109,-0.313212,2.555,2.59729
-0.337816,-0.313212,2.555,2.5962
-0.329523,-0.313212,2.555,2.59513
-0.318842,-0.310883,2.536,2.5748
-0.31061,-0.310883,2.536,2.5738
-0.302379,-0.310883,2.536,2.57281
-0.294148,-0.310883,2.536,2.57186
-0.285917,-0.310883,2.536,2.57093
-0.277685,-0.310883,2.536,2.57003
-0.269454,-0.310883,2.536,2.56915
-0.261223,-0.310883,2.536,2.5683
-0.252992,-0.310883,2.536,2.56748
-0.246594,-0.313212,2.555,2.58591
-0.238301,-0.313212,2.555,2.58513
-0.228298,-0.310883,2.536,2.56516
-0.220067,-0.310883,2.536,2.56444
-0.211836,-0.310883,2.536,2.56375
-0.203604,-0.310883,2.536,2.56308
-0.195373,-0.310883,2.536,2.56244
-0.187142,-0.310883,2.536,2.56183
-0.178911,-0.310883,2.536,2.56124
-0.170679,-0.310883,2.536,2.56068
-0.162448,-0.310883,2.536,2.56014
-0.155372,-0.313212,2.555,2.57881
-0.145986,-0.310883,2.536,2.55915
-0.137755,-0.310883,2.536,2.5587
-0.129523,-0.310883,2.536,2.55827
-0.121292,-0.310883,2.536,2.55786
-0.113061,-0.310883,2.536,2.55748
-0.10483,-0.310883,2.536,2.55713
-0.0965985,-0.310883,2.536,2.55681
-0.0883672,-0.310883,2.536,2.55651
-0.0807364,-0.313212,2.555,2.57539
-0.0724435,-0.313212,2.555,2.57515
-0.0641506,-0.313212,2.555,2.57493
-0.0558577,-0.313212,2.555,2.57473
-0.0475648,-0.313212,2.555,2.57457
-0.0392719,-0.313212,2.555,2.57443
-0.030979,-0.313212,2.555,2.57431
-0.0226861,-0.313212,2.555,2.57423
-0.0145003,-0.315541,2.574,2.59331
-0.00614571,-0.315541,2.574,2.59328
0.00220886,-0.315541,2.574,2.59327
0.0105634,-0.315541,2.574,2.59329
0.018918,-0.315541,2.574,2.59334
0.0274739,-0.317871,2.593,2.61256
0.0358901,-0.317871,2.593,2.61266
0.0443063,-0.317871,2.593,2.61279
0.0527226,-0.317871,2.593,2.61294
0.0611388,-0.317871,2.593,2.61313
0.070628,-0.322774,2.633,2.65365
0.0791741,-0.322774,2.633,2.65389
0.0877201,-0.322774,2.633,2.65416
0.0962662,-0.322774,2.633,2.65446
0.104812,-0.322774,2.633,2.65478
0.113358,-0.322774,2.633,2.65513
0.121904,-0.322774,2.633,2.65551
0.13045,-0.322774,2.633,2.65592
0.138997,-0.322774,2.633,2.65635
0.147543,-0.322774,2.633,2.65681
0.156089,-0.322774,2.633,2.6573
0.164635,-0.322774,2.633,2.65781
0.173181,-0.322774,2.633,2.65836
0.181727,-0.322774,2.633,2.65893
0.188828,-0.320322,2.613,2.63932
0.197309,-0.320322,2.613,2.63994
0.20579,-0.320322,2.613,2.64059
0.214271,-0.320322,2.613,2.64127
0.222752,-0.320322,2.613,2.64197
0.231233,-0.320322,2.613,2.6427
0.23788,-0.317871,2.593,2.62322
0.244491,-0.315541,2.574,2.60477
0.252846,-0.315541,2.574,2.60557
0.2612,-0.315541,2.574,2.60639
0.269555,-0.315541,2.574,2.60724
0.27791,-0.315541,2.574,2.60812
0.286264,-0.315541,2.574,2.60902
0.294619,-0.315541,2.574,2.60995
0.302973,-0.315541,2.574,2.61091
0.311328,-0.315541,2.574,2.61189
0.317323,-0.313212,2.555,2.59361
0.325615,-0.313212,2.555,2.59464
0.333908,-0.313212,2.555,2.59569
0.342201,-0.313212,2.555,2.59677
0.350494,-0.313212,2.555,2.59788
0.356119,-0.310883,2.536,2.57968
0.36435,-0.310883,2.536,2.58083
0.372581,-0.310883,2.536,2.58201
0.380813,-0.310883,2.536,2.58321
0.389044,-0.310883,2.536,2.58443
0.397275,-0.310883,2.536,2.58569
0.405506,-0.310883,2.536,2.58696
0.413738,-0.310883,2.536,2.58827
0.421969,-0.310883,2.536,2.58959
0.4302,-0.310883,2.536,2.59095
0.438431,-0.310883,2.536,2.59233
0.446662,-0.310883,2.536,2.59373
0.454894,-0.310883,2.536,2.59516
0.463125,-0.310883,2.536,2.59662
0.474888,-0.313212,2.555,2.61756
0.48318,-0.313212,2.555,2.61908
0.491473,-0.313212,2.555,2.62062
0.503483,-0.315541,2.574,2.64169
0.511837,-0.315541,2.574,2.6433
0.520192,-0.315541,2.574,2.64493
0.528546,-0.315541,2.574,2.64658
0.536901,-0.315541,2.574,2.64826
0.545256,-0.315541,2.574,2.64997
0.55361,-0.315541,2.574,2.6517
0.561965,-0.315541,2.574,2.65346
0.570319,-0.315541,2.574,2.65524
0.574402,-0.313212,2.555,2.63744
0.582695,-0.313212,2.555,2.63925
0.590988,-0.313212,2.555,2.6411
0.599281,-0.313212,2.555,2.64297
0.607574,-0.313212,2.555,2.64486
0.615867,-0.313212,2.555,2.64678
0.62416,-0.313212,2.555,2.64872
0.632453,-0.313212,2.555,2.65068
0.640746,-0.313212,2.555,2.65267
0.649038,-0.313212,2.555,2.65469
0.657331,-0.313212,2.555,2.65673
0.665624,-0.313212,2.555,2.65879
0.673917,-0.313212,2.555,2.66088
0.68221,-0.313212,2.555,2.66299
0.690503,-0.313212,2.555,2.66513
0.698796,-0.313212,2.555,2.66729
0.707089,-0.313212,2.555,2.66948
0.715382,-0.313212,2.555,2.67168
0.718293,-0.310883,2.536,2.65403
0.726524,-0.310883,2.536,2.65627
0.734755,-0.310883,2.536,2.65854
0.742987,-0.310883,2.536,2.66082
0.751218,-0.310883,2.536,2.66313
0.759449,-0.310883,2.536,2.66547
0.76768,-0.310883,2.536,2.66782
0.775912,-0.310883,2.536,2.6702
0.778268,-0.308554,2.517,2.65258
0.786437,-0.308554,2.517,2.65499
0.794607,-0.308554,2.517,2.65742
0.802777,-0.308554,2.517,2.65988
0.810946,-0.308554,2.517,2.66235
0.813258,-0.306347,2.499,2.6458
0.821369,-0.306347,2.499,2.6483
0.82948,-0.306347,2.499,2.65083
0.837591,-0.306347,2.499,2.65338
0.839611,-0.304141,2.481,2.63682
0.847664,-0.304141,2.481,2.63939
0.855716,-0.304141,2.481,2.64199
0.857502,-0.301934,2.463,2.62542
0.865497,-0.301934,2.463,2.62804
0.873491,-0.301934,2.463,2.63069
0.875043,-0.299727,2.445,2.61411
0.882979,-0.299727,2.445,2.61678
0.897474,-0.301934,2.463,2.63875
0.898851,-0.299727,2.445,2.62217
0.906787,-0.299727,2.445,2.6249
0.914722,-0.299727,2.445,2.62766
0.916243,-0.297644,2.428,2.61214
0.924124,-0.297644,2.428,2.61492
0.932004,-0.297644,2.428,2.61771
0.939885,-0.297644,2.428,2.62053
0.947766,-0.297644,2.428,2.62336
0.955646,-0.297644,2.428,2.62622
0.963527,-0.297644,2.428,2.6291
0.971408,-0.297644,2.428,2.632
0.979289,-0.297644,2.428,2.63492
0.987169,-0.297644,2.428,2.63786
0.99505,-0.297644,2.428,2.64081
1.00293,-0.297644,2.428,2.64379
nan,nan,nan,NaN
nan,nan,nan,NaN
nan,nan,nan,NaN
nan,nan,nan,NaN
nan,nan,nan,NaN
nan,nan,nan,NaN
nan,nan,nan,NaN
nan,nan,nan,NaN
nan,nan,nan,NaN
nan,nan,nan,NaN
nan,nan,nan,NaN
nan,nan,nan,NaN
1.42998,-0.385049,3.141,3.47261
1.44018,-0.385049,3.141,3.47682
1.47715,-0.392159,3.199,3.54533
1.48754,-0.392159,3.199,3.54967
1.52648,-0.399637,3.26,3.6218
1.55215,-0.40356,3.292,3.66187
1.56284,-0.40356,3.292,3.66641
1.57352,-0.40356,3.292,3.67098
1.55437,-0.395959,3.23,3.60635
1.56485,-0.395959,3.23,3.61088
1.57534,-0.395959,3.23,3.61544
1.55636,-0.388604,3.17,3.55277
1.56665,-0.388604,3.17,3.55729
1.56252,-0.385049,3.141,3.52925
1.55819,-0.381494,3.112,3.50115
1.56829,-0.381494,3.112,3.50566
1.57839,-0.381494,3.112,3.51019
1.58849,-0.381494,3.112,3.51474
1.61349,-0.385049,3.141,3.55211
1.63868,-0.388604,3.17,3.58959
1.64897,-0.388604,3.17,3.5943
1.70636,-0.399637,3.26,3.70121
1.7675,-0.411405,3.356,3.81524
1.7784,-0.411405,3.356,3.8203
1.82501,-0.419619,3.423,3.90175
1.87367,-0.4282,3.493,3.98686
1.88501,-0.4282,3.493,3.9922
1.95661,-0.441807,3.604,4.1246
1.98906,-0.446465,3.642,4.17371
2.02231,-0.451246,3.681,4.22411
2.03425,-0.451246,3.681,4.22984
2.06844,-0.45615,3.721,4.28163
2.10344,-0.461176,3.762,4.33472
2.11565,-0.461176,3.762,4.34066
2.12786,-0.461176,3.762,4.34662
2.14007,-0.461176,3.762,4.35261
2.15228,-0.461176,3.762,4.35863
2.16449,-0.461176,3.762,4.36467
2.15298,-0.45615,3.721,4.3231
2.16506,-0.45615,3.721,4.32913
2.15373,-0.451246,3.681,4.28858
2.14273,-0.446465,3.642,4.24909
2.15455,-0.446465,3.642,4.25507
2.12117,-0.437149,3.566,4.17215
2.08908,-0.4282,3.493,4.09251
2.10042,-0.4282,3.493,4.09831
2.06944,-0.419619,3.423,4.02189
2.03982,-0.411405,3.356,3.94878
2.05072,-0.411405,3.356,3.95442
2.00264,-0.399637,3.26,3.8468
1.99469,-0.395959,3.23,3.81687
2.00517,-0.395959,3.23,3.82236
1.96012,-0.385049,3.141,3.72239
1.93456,-0.378061,3.084,3.66012
1.94457,-0.378061,3.084,3.66542
1.90324,-0.368132,3.003,3.57433
1.89642,-0.364944,2.977,3.54854
1.90609,-0.364944,2.977,3.55371
1.88293,-0.358692,2.926,3.49794
1.87626,-0.355628,2.901,3.47313
1.87007,-0.352685,2.877,3.44945
1.87941,-0.352685,2.877,3.45452
1.85724,-0.346801,2.829,3.40189
1.83607,-0.341162,2.783,3.35151
1.84511,-0.341162,2.783,3.35647
1.83948,-0.338465,2.761,3.33487
1.83371,-0.335768,2.739,3.31321
1.8426,-0.335768,2.739,3.31814
1.83662,-0.333071,2.717,3.29639
1.81691,-0.327923,2.675,3.25028
-2.26157,-0.389059,3.26,3.98669
-2.25099,-0.389059,3.26,3.98069
-2.24041,-0.389059,3.26,3.97472
-2.22983,-0.389059,3.26,3.96876
-2.21924,-0.389059,3.26,3.96283
-2.23034,-0.392878,3.292,3.99575
-2.21966,-0.392878,3.292,3.9898
-2.1875,-0.389059,3.26,3.94514
-2.17692,-0.389059,3.26,3.93928
-2.16634,-0.389059,3.26,3.93344
-2.15576,-0.389059,3.26,3.92763
-2.16623,-0.392878,3.292,3.96033
-2.13459,-0.389059,3.26,3.91605
-2.12401,-0.389059,3.26,3.91029
-2.13418,-0.392878,3.292,3.94288
-2.12349,-0.392878,3.292,3.93711
-2.11281,-0.392878,3.292,3.93136
-2.10212,-0.392878,3.292,3.92563
-2.1321,-0.400515,3.356,3.99612
-2.1212,-0.400515,3.356,3.99032
-2.13106,-0.404454,3.389,4.02372
-2.12006,-0.404454,3.389,4.01791
-2.13022,-0.408511,3.423,4.05236
-2.09806,-0.404454,3.389,4.00634
-2.08706,-0.404454,3.389,4.00059
-2.09689,-0.408511,3.423,4.03494
-2.06506,-0.404454,3.389,3.98916
-2.05406,-0.404454,3.389,3.98348
-2.06356,-0.408511,3.423,4.01772
-2.05245,-0.408511,3.423,4.01203
-2.04134,-0.408511,3.423,4.00636
nan,nan,nan,NaN
nan,nan,nan,NaN
nan,nan,nan,NaN
nan,nan,nan,NaN
nan,nan,nan,NaN
nan,nan,nan,NaN
nan,nan,nan,NaN
nan,nan,nan,NaN
nan,nan,nan,NaN
nan,nan,nan,NaN
nan,nan,nan,NaN
nan,nan,nan,NaN
nan,nan,nan,NaN
nan,nan,nan,NaN
nan,nan,nan,NaN
nan,nan,nan,NaN
nan,nan,nan,NaN
nan,nan,nan,NaN
nan,nan,nan,NaN
nan,nan,nan,NaN
nan,nan,nan,NaN
nan,nan,nan,NaN
nan,nan,nan,NaN
nan,nan,nan,NaN
nan,nan,nan,NaN
nan,nan,nan,NaN
nan,nan,nan,NaN
nan,nan,nan,NaN
nan,nan,nan,NaN
nan,nan,nan,NaN
nan,nan,nan,NaN
-1.21302,-0.293942,2.463,2.76119
-1.20502,-0.293942,2.463,2.75769
-1.18828,-0.291794,2.445,2.73408
-1.18035,-0.291794,2.445,2.73064
-1.17241,-0.291794,2.445,2.72722
-1.16447,-0.291794,2.445,2.72381
-1.15654,-0.291794,2.445,2.72043
-1.1486,-0.291794,2.445,2.71707
-1.14067,-0.291794,2.445,2.71372
-1.13273,-0.291794,2.445,2.7104
-1.11697,-0.289765,2.428,2.68827
-1.10909,-0.289765,2.428,2.685
-1.10121,-0.289765,2.428,2.68176
-1.09333,-0.289765,2.428,2.67853
-1.08545,-0.289765,2.428,2.67532
-1.07757,-0.289765,2.428,2.67214
-1.0622,-0.287736,2.411,2.65028
-1.05437,-0.287736,2.411,2.64715
-1.04655,-0.287736,2.411,2.64405
-1.03872,-0.287736,2.411,2.64096
-1.0309,-0.287736,2.411,2.63789
-1.02307,-0.287736,2.411,2.63484
-1.01525,-0.287736,2.411,2.63181
-1.00032,-0.285707,2.394,2.61027
-0.992548,-0.285707,2.394,2.6073
-0.984778,-0.285707,2.394,2.60435
-0.977007,-0.285707,2.394,2.60142
-0.969237,-0.285707,2.394,2.59852
-0.961466,-0.285707,2.394,2.59563
-0.953696,-0.285707,2.394,2.59276
-0.939209,-0.283679,2.377,2.57152
-0.931494,-0.283679,2.377,2.56871
-0.923778,-0.283679,2.377,2.56592
-0.916063,-0.283679,2.377,2.56316
-0.908348,-0.283679,2.377,2.56041
-0.894571,-0.281769,2.361,2.54047
-0.886907,-0.281769,2.361,2.53778
-0.879244,-0.281769,2.361,2.53511
-0.871581,-0.281769,2.361,2.53246
-0.863918,-0.281769,2.361,2.52984
-0.856255,-0.281769,2.361,2.52723
-0.848591,-0.281769,2.361,2.52464
-0.840928,-0.281769,2.361,2.52208
-0.833265,-0.281769,2.361,2.51953
-0.825602,-0.281769,2.361,2.51701
-0.817938,-0.281769,2.361,2.51451
-0.815766,-0.283679,2.377,2.52905
-0.808051,-0.283679,2.377,2.52657
-0.800336,-0.283679,2.377,2.52411
-0.792621,-0.283679,2.377,2.52168
-0.784906,-0.283679,2.377,2.51926
-0.777191,-0.283679,2.377,2.51687
-0.769475,-0.283679,2.377,2.5145
-0.767208,-0.285707,2.394,2.53011
-0.759438,-0.285707,2.394,2.52777
-0.751668,-0.285707,2.394,2.52544
-0.74918,-0.287736,2.411,2.54106
-0.746581,-0.289765,2.428,2.55666
-0.738701,-0.289765,2.428,2.55437
-0.73082,-0.289765,2.428,2.55211
-0.722939,-0.289765,2.428,2.54986
-0.720065,-0.291794,2.445,2.56548
-0.707178,-0.289765,2.428,2.54544
-0.699297,-0.289765,2.428,2.54326
-0.691417,-0.289765,2.428,2.5411
-0.683536,-0.289765,2.428,2.53897
-0.680386,-0.291794,2.445,2.55462
-0.67245,-0.291794,2.445,2.55252
-0.664514,-0.291794,2.445,2.55044
-0.656578,-0.291794,2.445,2.54838
-0.648643,-0.291794,2.445,2.54635
-0.640707,-0.291794,2.445,2.54434
-0.632771,-0.291794,2.445,2.54236
-0.624835,-0.291794,2.445,2.54039
-0.616899,-0.291794,2.445,2.53845
-0.608963,-0.291794,2.445,2.53653
-0.605452,-0.293942,2.463,2.5533
-0.597458,-0.293942,2.463,2.55142
-0.589464,-0.293942,2.463,2.54956
-0.581469,-0.293942,2.463,2.54772
-0.577666,-0.29609,2.481,2.56451
-0.569613,-0.29609,2.481,2.56271
-0.561561,-0.29609,2.481,2.56093
-0.553508,-0.29609,2.481,2.55918
-0.549413,-0.298238,2.499,2.576
-0.541301,-0.298238,2.499,2.57429
-0.53319,-0.298238,2.499,2.57259
-0.528861,-0.300387,2.517,2.58944
-0.520692,-0.300387,2.517,2.58779
-0.512522,-0.300387,2.517,2.58616
-0.504353,-0.300387,2.517,2.58455
-0.496183,-0.300387,2.517,2.58297
-0.488013,-0.300387,2.517,2.58141
-0.483466,-0.302654,2.536,2.59935
-0.478795,-0.304922,2.555,2.6173
-0.470502,-0.304922,2.555,2.61579
-0.46221,-0.304922,2.555,2.61431
-0.453917,-0.304922,2.555,2.61286
-0.445624,-0.304922,2.555,2.61143
-0.440583,-0.307189,2.574,2.62944
-0.432229,-0.307189,2.574,2.62805
-0.423874,-0.307189,2.574,2.62669
-0.415519,-0.307189,2.574,2.62536
-0.407165,-0.307189,2.574,2.62405
-0.39881,-0.307189,2.574,2.62276
-0.390456,-0.307189,2.574,2.62151
-0.382101,-0.307189,2.574,2.62028
-0.373747,-0.307189,2.574,2.61907
-0.362695,-0.304922,2.555,2.59857
-0.354402,-0.304922,2.555,2.59742
-0.346109,-0.304922,2.555,2.5963
-0.337816,-0.304922,2.555,2.59521
-0.329523,-0.304922,2.555,2.59415
-0.318842,-0.302654,2.536,2.57382
-0.31061,-0.302654,2.536,2.57281
-0.302379,-0.302654,2.536,2.57183
-0.294148,-0.302654,2.536,2.57088
-0.285917,-0.302654,2.536,2.56995
-0.277685,-0.302654,2.536,2.56905
-0.269454,-0.302654,2.536,2.56817
-0.261223,-0.302654,2.536,2.56732
-0.252992,-0.302654,2.536,2.5665
-0.246594,-0.304922,2.555,2.58492
-0.238301,-0.304922,2.555,2.58414
-0.230009,-0.304922,2.555,2.58339
-0.220067,-0.302654,2.536,2.56346
-0.211836,-0.302654,2.536,2.56277
-0.20513,-0.304922,2.555,2.58129
-0.196837,-0.304922,2.555,2.58065
-0.188544,-0.304922,2.555,2.58003
-0.180251,-0.304922,2.555,2.57944
-0.171958,-0.304922,2.555,2.57887
-0.163665,-0.304922,2.555,2.57833
-0.155372,-0.304922,2.555,2.57782
-0.14708,-0.304922,2.555,2.57733
-0.138787,-0.304922,2.555,2.57687
-0.130494,-0.304922,2.555,2.57644
-0.122201,-0.304922,2.555,2.57603
-0.113908,-0.304922,2.555,2.57565
-0.105615,-0.304922,2.555,2.5753
-0.0973222,-0.304922,2.555,2.57497
-0.0890293,-0.304922,2.555,2.57467
-0.0807364,-0.304922,2.555,2.5744
-0.0724435,-0.304922,2.555,2.57415
-0.0641506,-0.304922,2.555,2.57393
-0.0558577,-0.304922,2.555,2.57374
-0.0475648,-0.304922,2.555,2.57357
-0.039564,-0.307189,2.574,2.59257
-0.0312094,-0.307189,2.574,2.59245
-0.0228548,-0.307189,2.574,2.59237
-0.0145003,-0.307189,2.574,2.59231
-0.00614571,-0.307189,2.574,2.59227
0.00220886,-0.307189,2.574,2.59227
0.0105634,-0.307189,2.574,2.59229
0.018918,-0.307189,2.574,2.59233
0.0274739,-0.309457,2.593,2.61155
0.0358901,-0.309457,2.593,2.61165
0.0443063,-0.309457,2.593,2.61178
0.0527226,-0.309457,2.593,2.61193
0.0611388,-0.309457,2.593,2.61212
0.0700915,-0.311844,2.613,2.63248
0.0785727,-0.311844,2.613,2.63272
0.0877201,-0.31423,2.633,2.65314
0.0962662,-0.31423,2.633,2.65343
0.104812,-0.31423,2.633,2.65376
0.113358,-0.31423,2.633,2.65411
0.121904,-0.31423,2.633,2.65448
0.13045,-0.31423,2.633,2.65489
0.138997,-0.31423,2.633,2.65532
0.147543,-0.31423,2.633,2.65579
0.156089,-0.31423,2.633,2.65627
0.164635,-0.31423,2.633,2.65679
0.173181,-0.31423,2.633,2.65733
0.181727,-0.31423,2.633,2.6579
0.190273,-0.31423,2.633,2.6585
0.197309,-0.311844,2.613,2.63893
0.20579,-0.311844,2.613,2.63958
0.214271,-0.311844,2.613,2.64025
0.222752,-0.311844,2.613,2.64095
0.231233,-0.311844,2.613,2.64168
0.23788,-0.309457,2.593,2.62221
0.246296,-0.309457,2.593,2.62299
0.252846,-0.307189,2.574,2.60457
0.2612,-0.307189,2.574,2.60539
0.269555,-0.307189,2.574,2.60624
0.27791,-0.307189,2.574,2.60712
0.286264,-0.307189,2.574,2.60802
0.294619,-0.307189,2.574,2.60895
0.302973,-0.307189,2.574,2.60991
0.311328,-0.307189,2.574,2.61089
0.317323,-0.304922,2.555,2.59262
0.325615,-0.304922,2.555,2.59365
0.333908,-0.304922,2.555,2.59471
0.342201,-0.304922,2.555,2.59579
0.350494,-0.304922,2.555,2.59689
0.356119,-0.302654,2.536,2.5787
0.36435,-0.302654,2.536,2.57985
0.372581,-0.302654,2.536,2.58103
0.380813,-0.302654,2.536,2.58223
0.389044,-0.302654,2.536,2.58346
0.397275,-0.302654,2.536,2.58471
0.405506,-0.302654,2.536,2.58599
0.413738,-0.302654,2.536,2.58729
0.421969,-0.302654,2.536,2.58862
0.433423,-0.304922,2.555,2.60938
0.441716,-0.304922,2.555,2.61077
0.450009,-0.304922,2.555,2.61219
0.458302,-0.304922,2.555,2.61363
0.466595,-0.304922,2.555,2.61509
0.478419,-0.307189,2.574,2.63604
0.486774,-0.307189,2.574,2.63757
0.498783,-0.309457,2.593,2.65861
0.507199,-0.309457,2.593,2.6602
0.515615,-0.309457,2.593,2.66182
0.524032,-0.309457,2.593,2.66346
0.532448,-0.309457,2.593,2.66513
0.540864,-0.309457,2.593,2.66682
0.54928,-0.309457,2.593,2.66854
0.55361,-0.307189,2.574,2.65072
0.561965,-0.307189,2.574,2.65248
0.570319,-0.307189,2.574,2.65426
0.578674,-0.307189,2.574,2.65607
0.587028,-0.307189,2.574,2.6579
0.590988,-0.304922,2.555,2.64013
0.599281,-0.304922,2.555,2.642
0.607574,-0.304922,2.555,2.64389
0.615867,-0.304922,2.555,2.64581
0.62416,-0.304922,2.555,2.64775
0.632453,-0.304922,2.555,2.64972
0.640746,-0.304922,2.555,2.65171
0.649038,-0.304922,2.555,2.65372
0.657331,-0.304922,2.555,2.65576
0.665624,-0.304922,2.555,2.65783
0.673917,-0.304922,2.555,2.65992
0.68221,-0.304922,2.555,2.66203
0.690503,-0.304922,2.555,2.66417
0.698796,-0.304922,2.555,2.66633
0.707089,-0.304922,2.555,2.66852
0.715382,-0.304922,2.555,2.67073
0.718293,-0.302654,2.536,2.65308
0.726524,-0.302654,2.536,2.65532
0.734755,-0.302654,2.536,2.65759
0.742987,-0.302654,2.536,2.65987
0.751218,-0.302654,2.536,2.66218
0.759449,-0.302654,2.536,2.66452
0.76768,-0.302654,2.536,2.66688
0.775912,-0.302654,2.536,2.66926
0.778268,-0.300387,2.517,2.65165
0.786437,-0.300387,2.517,2.65405
0.794607,-0.300387,2.517,2.65649
0.802777,-0.300387,2.517,2.65894
0.810946,-0.300387,2.517,2.66142
0.813258,-0.298238,2.499,2.64487
0.821369,-0.298238,2.499,2.64738
0.82948,-0.298238,2.499,2.6499
0.837591,-0.298238,2.499,2.65245
0.839611,-0.29609,2.481,2.6359
0.847664,-0.29609,2.481,2.63848
0.855716,-0.29609,2.481,2.64108
0.857502,-0.293942,2.463,2.62452
0.865497,-0.293942,2.463,2.62714
0.873491,-0.293942,2.463,2.62978
0.875043,-0.291794,2.445,2.61321
0.882979,-0.291794,2.445,2.61588
0.890915,-0.291794,2.445,2.61857
0.898851,-0.291794,2.445,2.62128
0.900482,-0.289765,2.428,2.60577
0.908362,-0.289765,2.428,2.6085
0.916243,-0.289765,2.428,2.61125
0.924124,-0.289765,2.428,2.61403
0.925479,-0.287736,2.411,2.5985
0.933304,-0.287736,2.411,2.6013
0.94113,-0.287736,2.411,2.60412
0.955646,-0.289765,2.428,2.62534
0.963527,-0.289765,2.428,2.62822
0.971408,-0.289765,2.428,2.63112
0.972432,-0.287736,2.411,2.6156
0.980257,-0.287736,2.411,2.61851
0.988083,-0.287736,2.411,2.62145
1.00293,-0.289765,2.428,2.64292
nan,nan,nan,NaN
nan,nan,nan,NaN
nan,nan,nan,NaN
nan,nan,nan,NaN
nan,nan,nan,NaN
nan,nan,nan,NaN
nan,nan,nan,NaN
nan,nan,nan,NaN
nan,nan,nan,NaN
nan,nan,nan,NaN
nan,nan,nan,NaN
nan,nan,nan,NaN
1.42998,-0.374857,3.141,3.47149
1.44018,-0.374857,3.141,3.4757
1.47715,-0.381779,3.199,3.5442
1.48754,-0.381779,3.199,3.54854
1.52648,-0.389059,3.26,3.62065
1.55215,-0.392878,3.292,3.66071
1.56284,-0.392878,3.292,3.66525
1.57352,-0.392878,3.292,3.66982
1.55437,-0.385478,3.23,3.60521
1.56485,-0.385478,3.23,3.60975
1.57534,-0.385478,3.23,3.6143
1.55636,-0.378318,3.17,3.55166
1.56665,-0.378318,3.17,3.55618
1.56252,-0.374857,3.141,3.52815
1.55819,-0.371396,3.112,3.50006
1.56829,-0.371396,3.112,3.50457
1.57839,-0.371396,3.112,3.5091
1.58849,-0.371396,3.112,3.51366
1.61349,-0.374857,3.141,3.55102
1.63868,-0.378318,3.17,3.58849
1.64897,-0.378318,3.17,3.5932
1.70636,-0.389059,3.26,3.70009
1.7675,-0.400515,3.356,3.81408
1.7784,-0.400515,3.356,3.81914
1.82501,-0.408511,3.423,3.90057
1.87367,-0.416865,3.493,3.98566
1.88501,-0.416865,3.493,3.991
1.95661,-0.430113,3.604,4.12336
1.98906,-0.434648,3.642,4.17246
2.02231,-0.439302,3.681,4.22285
2.03425,-0.439302,3.681,4.22859
2.0462,-0.439302,3.681,4.23435
2.08051,-0.444076,3.721,4.28621
2.09259,-0.444076,3.721,4.29208
2.10467,-0.444076,3.721,4.29798
2.11675,-0.444076,3.721,4.30391
2.12882,-0.444076,3.721,4.30986
2.1409,-0.444076,3.721,4.31584
2.12983,-0.439302,3.681,4.27539
2.14178,-0.439302,3.681,4.28135
2.13091,-0.434648,3.642,4.24192
2.12037,-0.430113,3.604,4.20355
2.13207,-0.430113,3.604,4.20946
2.12117,-0.425577,3.566,4.17095
2.06815,-0.412688,3.458,4.05035
2.07937,-0.412688,3.458,4.05609
2.06944,-0.408511,3.423,4.02074
2.03982,-0.400515,3.356,3.94766
2.05072,-0.400515,3.356,3.9533
2.00264,-0.389059,3.26,3.84571
1.97555,-0.381779,3.199,3.77917
1.98593,-0.381779,3.199,3.78461
1.96012,-0.374857,3.141,3.72135
1.91762,-0.364832,3.057,3.62707
1.92754,-0.364832,3.057,3.63232
1.92035,-0.36161,3.03,3.60547
1.89642,-0.355284,2.977,3.54756
1.90609,-0.355284,2.977,3.55274
1.88293,-0.349198,2.926,3.49698
1.87626,-0.346214,2.901,3.47218
1.87007,-0.34335,2.877,3.44851
1.87941,-0.34335,2.877,3.45358
1.85724,-0.337622,2.829,3.40097
1.83607,-0.332132,2.783,3.35061
1.84511,-0.332132,2.783,3.35557
1.83948,-0.329506,2.761,3.33397
1.81899,-0.324255,2.717,3.28572
1.8278,-0.324255,2.717,3.29061
1.82243,-0.321749,2.696,3.27004
1.81691,-0.319243,2.675,3.24942
-2.24076,-0.374997,3.23,3.94899
-2.23027,-0.374997,3.23,3.94305
-2.21979,-0.374997,3.23,3.93713
-2.20931,-0.374997,3.23,3.93123
-2.19882,-0.374997,3.23,3.92535
-2.18834,-0.374997,3.23,3.91948
-2.17785,-0.374997,3.23,3.91364
-2.1875,-0.37848,3.26,3.94411
-2.17692,-0.37848,3.26,3.93825
-2.16634,-0.37848,3.26,3.93241
-2.15576,-0.37848,3.26,3.92659
-2.16623,-0.382196,3.292,3.95928
-2.13459,-0.37848,3.26,3.91501
-2.12401,-0.37848,3.26,3.90926
-2.13418,-0.382196,3.292,3.94183
-2.12349,-0.382196,3.292,3.93606
-2.11281,-0.382196,3.292,3.9303
-2.10212,-0.382196,3.292,3.92457
-2.1321,-0.389626,3.356,3.99505
-2.1212,-0.389626,3.356,3.98924
-2.13106,-0.393457,3.389,4.02263
-2.12006,-0.393457,3.389,4.01681
-2.13022,-0.397404,3.423,4.05126
-2.11911,-0.397404,3.423,4.04543
-2.108,-0.397404,3.423,4.03962
-2.09689,-0.397404,3.423,4.03383
-2.08578,-0.397404,3.423,4.02807
-2.07467,-0.397404,3.423,4.02233
-2.08466,-0.401468,3.458,4.05768
-2.07344,-0.401468,3.458,4.05192
-2.06221,-0.401468,3.458,4.04619
nan,nan,nan,NaN
nan,nan,nan,NaN
nan,nan,nan,NaN
nan,nan,nan,NaN
nan,nan,nan,NaN
nan,nan,nan,NaN
nan,nan,nan,NaN
nan,nan,nan,NaN
nan,nan,nan,NaN
nan,nan,nan,NaN
nan,nan,nan,NaN
nan,nan,nan,NaN
nan,nan,nan,NaN
nan,nan,nan,NaN
nan,nan,nan,NaN
nan,nan,nan,NaN
nan,nan,nan,NaN
nan,nan,nan,NaN
nan,nan,nan,NaN
nan,nan,nan,NaN
nan,nan,nan,NaN
nan,nan,nan,NaN
nan,nan,nan,NaN
nan,nan,nan,NaN
nan,nan,nan,NaN
nan,nan,nan,NaN
nan,nan,nan,NaN
nan,nan,nan,NaN
nan,nan,nan,NaN
nan,nan,nan,NaN
nan,nan,nan,NaN
-1.21302,-0.28595,2.463,2.76035
-1.20502,-0.28595,2.463,2.75685
-1.18828,-0.28386,2.445,2.73324
-1.18035,-0.28386,2.445,2.7298
-1.17241,-0.28386,2.445,2.72638
-1.16447,-0.28386,2.445,2.72298
-1.15654,-0.28386,2.445,2.71959
-1.1486,-0.28386,2.445,2.71623
-1.14067,-0.28386,2.445,2.71288
-1.13273,-0.28386,2.445,2.70955
-1.11697,-0.281887,2.428,2.68743
-1.10909,-0.281887,2.428,2.68416
-1.10121,-0.281887,2.428,2.68092
-1.09333,-0.281887,2.428,2.67769
-1.08545,-0.281887,2.428,2.67448
-1.07757,-0.281887,2.428,2.67129
-1.0622,-0.279913,2.411,2.64944
-1.05437,-0.279913,2.411,2.64631
-1.04655,-0.279913,2.411,2.64321
-1.03872,-0.279913,2.411,2.64012
-1.0309,-0.279913,2.411,2.63705
-1.02307,-0.279913,2.411,2.634
-1.01525,-0.279913,2.411,2.63097
-1.00032,-0.277939,2.394,2.60943
-0.992548,-0.277939,2.394,2.60646
-0.984778,-0.277939,2.394,2.60351
-0.977007,-0.277939,2.394,2.60058
-0.969237,-0.277939,2.394,2.59767
-0.961466,-0.277939,2.394,2.59478
-0.953696,-0.277939,2.394,2.59191
-0.939209,-0.275966,2.377,2.57068
-0.931494,-0.275966,2.377,2.56787
-0.923778,-0.275966,2.377,2.56508
-0.916063,-0.275966,2.377,2.56231
-0.908348,-0.275966,2.377,2.55957
-0.894571,-0.274108,2.361,2.53963
-0.886907,-0.274108,2.361,2.53694
-0.879244,-0.274108,2.361,2.53427
-0.871581,-0.274108,2.361,2.53162
-0.863918,-0.274108,2.361,2.52899
-0.856255,-0.274108,2.361,2.52639
-0.848591,-0.274108,2.361,2.5238
-0.840928,-0.274108,2.361,2.52123
-0.833265,-0.274108,2.361,2.51869
-0.825602,-0.274108,2.361,2.51616
-0.817938,-0.274108,2.361,2.51366
-0.815766,-0.275966,2.377,2.52819
-0.808051,-0.275966,2.377,2.52571
-0.800336,-0.275966,2.377,2.52326
-0.792621,-0.275966,2.377,2.52082
-0.784906,-0.275966,2.377,2.5184
-0.777191,-0.275966,2.377,2.51601
-0.769475,-0.275966,2.377,2.51364
-0.767208,-0.277939,2.394,2.52925
-0.759438,-0.277939,2.394,2.5269
-0.751668,-0.277939,2.394,2.52458
-0.74918,-0.279913,2.411,2.54019
-0.746581,-0.281887,2.428,2.55578
-0.738701,-0.281887,2.428,2.55349
-0.73082,-0.281887,2.428,2.55122
-0.722939,-0.281887,2.428,2.54898
-0.720065,-0.28386,2.445,2.56459
-0.712129,-0.28386,2.445,2.56237
-0.704194,-0.28386,2.445,2.56017
-0.696258,-0.28386,2.445,2.558
-0.688322,-0.28386,2.445,2.55585
-0.680386,-0.28386,2.445,2.55373
-0.67245,-0.28386,2.445,2.55163
-0.664514,-0.28386,2.445,2.54955
-0.656578,-0.28386,2.445,2.54749
-0.653418,-0.28595,2.463,2.56419
-0.645424,-0.28595,2.463,2.56217
-0.637429,-0.28595,2.463,2.56017
-0.629435,-0.28595,2.463,2.55819
-0.621441,-0.28595,2.463,2.55623
-0.613446,-0.28595,2.463,2.5543
-0.605452,-0.28595,2.463,2.55239
-0.597458,-0.28595,2.463,2.55051
-0.589464,-0.28595,2.463,2.54865
-0.585719,-0.28804,2.481,2.56542
-0.577666,-0.28804,2.481,2.5636
-0.569613,-0.28804,2.481,2.56179
-0.561561,-0.28804,2.481,2.56002
-0.557524,-0.29013,2.499,2.57682
-0.549413,-0.29013,2.499,2.57508
-0.541301,-0.29013,2.499,2.57336
-0.537031,-0.292219,2.517,2.59019
-0.528861,-0.292219,2.517,2.58851
-0.520692,-0.292219,2.517,2.58685
-0.512522,-0.292219,2.517,2.58522
-0.50816,-0.294425,2.536,2.60312
-0.499929,-0.294425,2.536,2.60152
-0.491697,-0.294425,2.536,2.59995
-0.483466,-0.294425,2.536,2.59841
-0.478795,-0.296631,2.555,2.61634
-0.470502,-0.296631,2.555,2.61484
-0.465647,-0.298837,2.574,2.63279
-0.457292,-0.298837,2.574,2.63133
-0.448938,-0.298837,2.574,2.62989
-0.443835,-0.301043,2.593,2.64788
-0.435419,-0.301043,2.593,2.64648
-0.427003,-0.301043,2.593,2.64511
-0.418587,-0.301043,2.593,2.64376
-0.41017,-0.301043,2.593,2.64245
-0.401754,-0.301043,2.593,2.64115
-0.390456,-0.298837,2.574,2.62054
-0.382101,-0.298837,2.574,2.61931
-0.373747,-0.298837,2.574,2.6181
-0.365392,-0.298837,2.574,2.61692
-0.354402,-0.296631,2.555,2.59646
-0.346109,-0.296631,2.555,2.59534
-0.337816,-0.296631,2.555,2.59425
-0.329523,-0.296631,2.555,2.59318
-0.318842,-0.294425,2.536,2.57287
-0.31061,-0.294425,2.536,2.57186
-0.302379,-0.294425,2.536,2.57088
-0.296352,-0.296631,2.555,2.58918
-0.288059,-0.296631,2.555,2.58824
-0.279766,-0.296631,2.555,2.58733
-0.271473,-0.296631,2.555,2.58645
-0.26318,-0.296631,2.555,2.58559
-0.254887,-0.296631,2.555,2.58476
-0.246594,-0.296631,2.555,2.58396
-0.238301,-0.296631,2.555,2.58318
-0.231719,-0.298837,2.574,2.60163
-0.221716,-0.296631,2.555,2.5817
-0.213423,-0.296631,2.555,2.581
-0.20513,-0.296631,2.555,2.58033
-0.196837,-0.296631,2.555,2.57968
-0.188544,-0.296631,2.555,2.57906
-0.180251,-0.296631,2.555,2.57847
-0.171958,-0.296631,2.555,2.5779
-0.163665,-0.296631,2.555,2.57736
-0.155372,-0.296631,2.555,2.57685
-0.14708,-0.296631,2.555,2.57636
-0.138787,-0.296631,2.555,2.5759
-0.130494,-0.296631,2.555,2.57547
-0.122201,-0.296631,2.555,2.57506
-0.113908,-0.296631,2.555,2.57468
-0.105615,-0.296631,2.555,2.57433
-0.0973222,-0.296631,2.555,2.574
-0.0890293,-0.296631,2.555,2.5737
-0.0807364,-0.296631,2.555,2.57343
-0.0724435,-0.296631,2.555,2.57318
-0.0641506,-0.296631,2.555,2.57296
-0.0562731,-0.298837,2.574,2.5919
-0.0479185,-0.298837,2.574,2.59173
-0.039564,-0.298837,2.574,2.59159
-0.0312094,-0.298837,2.574,2.59148
-0.0228548,-0.298837,2.574,2.59139
-0.0145003,-0.298837,2.574,2.59133
-0.00614571,-0.298837,2.574,2.5913
0.00220886,-0.298837,2.574,2.59129
0.0105634,-0.298837,2.574,2.59131
0.018918,-0.298837,2.574,2.59136
0.0276858,-0.303365,2.613,2.6307
0.0361669,-0.303365,2.613,2.6308
0.0446481,-0.303365,2.613,2.63093
0.0531292,-0.303365,2.613,2.63109
0.0616104,-0.303365,2.613,2.63127
0.0700915,-0.303365,2.613,2.63148
0.0785727,-0.303365,2.613,2.63172
0.0877201,-0.305687,2.633,2.65214
0.0962662,-0.305687,2.633,2.65243
0.104812,-0.305687,2.633,2.65276
0.113358,-0.305687,2.633,2.65311
0.121904,-0.305687,2.633,2.65349
0.13045,-0.305687,2.633,2.65389
0.138997,-0.305687,2.633,2.65433
0.148719,-0.308125,2.654,2.67596
0.157334,-0.308125,2.654,2.67646
0.164635,-0.305687,2.633,2.65579
0.173181,-0.305687,2.633,2.65634
0.181727,-0.305687,2.633,2.65691
0.190273,-0.305687,2.633,2.65751
0.197309,-0.303365,2.613,2.63794
0.20579,-0.303365,2.613,2.63859
0.214271,-0.303365,2.613,2.63926
0.222752,-0.303365,2.613,2.63997
0.231233,-0.303365,2.613,2.64069
0.239715,-0.303365,2.613,2.64145
0.246296,-0.301043,2.593,2.62201
0.254712,-0.301043,2.593,2.62281
0.263128,-0.301043,2.593,2.62365
0.269555,-0.298837,2.574,2.60527
0.27791,-0.298837,2.574,2.60615
0.286264,-0.298837,2.574,2.60705
0.294619,-0.298837,2.574,2.60798
0.302973,-0.298837,2.574,2.60894
0.311328,-0.298837,2.574,2.60992
0.317323,-0.296631,2.555,2.59166
0.325615,-0.296631,2.555,2.59269
0.333908,-0.296631,2.555,2.59374
0.342201,-0.296631,2.555,2.59483
0.350494,-0.296631,2.555,2.59593
0.356119,-0.294425,2.536,2.57775
0.36435,-0.294425,2.536,2.5789
0.372581,-0.294425,2.536,2.58008
0.380813,-0.294425,2.536,2.58128
0.391959,-0.296631,2.555,2.60185
0.400252,-0.296631,2.555,2.60312
0.405506,-0.294425,2.536,2.58504
0.413738,-0.294425,2.536,2.58634
0.421969,-0.294425,2.536,2.58767
0.433423,-0.296631,2.555,2.60842
0.441716,-0.296631,2.555,2.60981
0.450009,-0.296631,2.555,2.61123
0.458302,-0.296631,2.555,2.61267
0.466595,-0.296631,2.555,2.61414
0.478419,-0.298837,2.574,2.63508
0.486774,-0.298837,2.574,2.63661
0.498783,-0.301043,2.593,2.65764
0.507199,-0.301043,2.593,2.65923
0.515615,-0.301043,2.593,2.66085
0.524032,-0.301043,2.593,2.6625
0.532448,-0.301043,2.593,2.66417
0.540864,-0.301043,2.593,2.66586
0.54928,-0.301043,2.593,2.66758
0.55361,-0.298837,2.574,2.64977
0.561965,-0.298837,2.574,2.65153
0.570319,-0.298837,2.574,2.65331
0.578674,-0.298837,2.574,2.65512
0.587028,-0.298837,2.574,2.65695
0.590988,-0.296631,2.555,2.63918
0.599281,-0.296631,2.555,2.64105
0.607574,-0.296631,2.555,2.64295
0.615867,-0.296631,2.555,2.64486
0.62416,-0.296631,2.555,2.64681
0.632453,-0.296631,2.555,2.64878
0.640746,-0.296631,2.555,2.65077
0.649038,-0.296631,2.555,2.65278
0.657331,-0.296631,2.555,2.65483
0.665624,-0.296631,2.555,2.65689
0.673917,-0.296631,2.555,2.65898
0.68221,-0.296631,2.555,2.66109
0.690503,-0.296631,2.555,2.66323
0.698796,-0.296631,2.555,2.6654
0.70183,-0.294425,2.536,2.64774
0.710062,-0.294425,2.536,2.64994
0.718293,-0.294425,2.536,2.65216
0.726524,-0.294425,2.536,2.6544
0.734755,-0.294425,2.536,2.65666
0.742987,-0.294425,2.536,2.65895
0.751218,-0.294425,2.536,2.66126
0.753759,-0.292219,2.517,2.64364
0.761929,-0.292219,2.517,2.64598
0.770098,-0.292219,2.517,2.64835
0.778268,-0.292219,2.517,2.65073
0.786437,-0.292219,2.517,2.65314
0.794607,-0.292219,2.517,2.65558
0.802777,-0.292219,2.517,2.65803
0.810946,-0.292219,2.517,2.66051
0.813258,-0.29013,2.499,2.64397
0.821369,-0.29013,2.499,2.64647
0.82948,-0.29013,2.499,2.649
0.831558,-0.28804,2.481,2.63245
0.839611,-0.28804,2.481,2.63501
0.841514,-0.28595,2.463,2.61845
0.849508,-0.28595,2.463,2.62103
0.857502,-0.28595,2.463,2.62363
0.859171,-0.28386,2.445,2.60706
0.867107,-0.28386,2.445,2.60969
0.875043,-0.28386,2.445,2.61234
0.882979,-0.28386,2.445,2.61501
0.890915,-0.28386,2.445,2.6177
0.892601,-0.281887,2.428,2.60219
0.900482,-0.281887,2.428,2.6049
0.908362,-0.281887,2.428,2.60764
0.916243,-0.281887,2.428,2.61039
0.917653,-0.279913,2.411,2.59487
0.925479,-0.279913,2.411,2.59765
0.933304,-0.279913,2.411,2.60045
0.94113,-0.279913,2.411,2.60327
0.948955,-0.279913,2.411,2.60611
0.956781,-0.279913,2.411,2.60897
0.964606,-0.279913,2.411,2.61185
0.972432,-0.279913,2.411,2.61475
0.980257,-0.279913,2.411,2.61767
0.988083,-0.279913,2.411,2.62061
0.995908,-0.279913,2.411,2.62357
nan,nan,nan,NaN
nan,nan,nan,NaN
nan,nan,nan,NaN
nan,nan,nan,NaN
nan,nan,nan,NaN
nan,nan,nan,NaN
nan,nan,nan,NaN
nan,nan,nan,NaN
nan,nan,nan,NaN
nan,nan,nan,NaN
nan,nan,nan,NaN
nan,nan,nan,NaN
1.5133,-0.385911,3.324,3.6726
1.52408,-0.385911,3.324,3.67706
1.56489,-0.393457,3.389,3.75353
1.5917,-0.397404,3.423,3.79583
1.60281,-0.397404,3.423,3.80051
1.61392,-0.397404,3.423,3.80521
1.62503,-0.397404,3.423,3.80993
1.63614,-0.397404,3.423,3.81468
1.64725,-0.397404,3.423,3.81946
1.65836,-0.397404,3.423,3.82427
1.65289,-0.393457,3.389,3.79106
1.63197,-0.385911,3.324,3.72307
1.64276,-0.385911,3.324,3.72781
1.63763,-0.382196,3.292,3.69664
1.61727,-0.374997,3.23,3.63168
1.62776,-0.374997,3.23,3.63636
1.62252,-0.371398,3.199,3.60612
1.6329,-0.371398,3.199,3.6108
1.65921,-0.374997,3.23,3.65055
1.6852,-0.37848,3.26,3.68927
1.69578,-0.37848,3.26,3.69412
1.75661,-0.389626,3.356,3.80792
1.80279,-0.397404,3.423,3.88908
1.8139,-0.397404,3.423,3.89424
1.84367,-0.401468,3.458,3.9393
1.89298,-0.409711,3.529,4.02555
1.90444,-0.409711,3.529,4.03095
1.95661,-0.418418,3.604,4.12216
1.98906,-0.42283,3.642,4.17125
2.02231,-0.427358,3.681,4.22162
2.03425,-0.427358,3.681,4.22736
2.0462,-0.427358,3.681,4.23312
2.05815,-0.427358,3.681,4.23891
2.0701,-0.427358,3.681,4.24473
2.08204,-0.427358,3.681,4.25056
2.09399,-0.427358,3.681,4.25643
2.10594,-0.427358,3.681,4.26232
2.11789,-0.427358,3.681,4.26824
2.10727,-0.42283,3.642,4.22889
2.11909,-0.42283,3.642,4.2348
2.10868,-0.418418,3.604,4.19648
2.09802,-0.414006,3.566,4.15806
2.10959,-0.414006,3.566,4.16391
2.07774,-0.405531,3.493,4.08442
2.06815,-0.401468,3.458,4.04922
2.07937,-0.401468,3.458,4.05496
2.04888,-0.393457,3.389,3.9797
2.02037,-0.385911,3.324,3.90894
2.03116,-0.385911,3.324,3.91453
2.00264,-0.37848,3.26,3.84466
1.97555,-0.371398,3.199,3.77814
1.98593,-0.371398,3.199,3.78358
1.96012,-0.364665,3.141,3.72034
1.91762,-0.354912,3.057,3.62608
1.92754,-0.354912,3.057,3.63134
1.92035,-0.351778,3.03,3.6045
1.89642,-0.345625,2.977,3.54661
1.90609,-0.345625,2.977,3.55178
1.88293,-0.339704,2.926,3.49604
1.87626,-0.336801,2.901,3.47125
1.87007,-0.334015,2.877,3.44759
1.87941,-0.334015,2.877,3.45266
1.85724,-0.328442,2.829,3.40007
1.83607,-0.323101,2.783,3.34972
1.84511,-0.323101,2.783,3.35468
1.83948,-0.320547,2.761,3.3331
1.81899,-0.315439,2.717,3.28486
1.8278,-0.315439,2.717,3.28975
1.82243,-0.313001,2.696,3.26919
1.81691,-0.310563,2.675,3.24858
-2.24076,-0.364517,3.23,3.94801
-2.23027,-0.364517,3.23,3.94207
-2.21979,-0.364517,3.23,3.93614
-2.20931,-0.364517,3.23,3.93024
-2.19882,-0.364517,3.23,3.92436
-2.18834,-0.364517,3.23,3.91849
-2.17785,-0.364517,3.23,3.91265
-2.16737,-0.364517,3.23,3.90682
-2.15689,-0.364517,3.23,3.90102
-2.1464,-0.364517,3.23,3.89523
-2.13592,-0.364517,3.23,3.88946
-2.14518,-0.367902,3.26,3.91979
-2.13459,-0.367902,3.26,3.91401
-2.12401,-0.367902,3.26,3.90825
-2.11343,-0.367902,3.26,3.90251
-2.12349,-0.371514,3.292,3.93504
-2.11281,-0.371514,3.292,3.92928
-2.10212,-0.371514,3.292,3.92355
-2.11177,-0.375125,3.324,3.95591
-2.10098,-0.375125,3.324,3.95017
-2.11031,-0.378736,3.356,3.98241
-2.12006,-0.38246,3.389,4.01575
-2.13022,-0.386297,3.423,4.05019
-2.11911,-0.386297,3.423,4.04435
-2.108,-0.386297,3.423,4.03854
-2.09689,-0.386297,3.423,4.03275
-2.08578,-0.386297,3.423,4.02699
-2.07467,-0.386297,3.423,4.02125
-2.08466,-0.390247,3.458,4.05658
-2.07344,-0.390247,3.458,4.05083
-2.06221,-0.390247,3.458,4.04509
nan,nan,nan,NaN
nan,nan,nan,NaN
nan,nan,nan,NaN
nan,nan,nan,NaN
nan,nan,nan,NaN
nan,nan,nan,NaN
nan,nan,nan,NaN
nan,nan,nan,NaN
nan,nan,nan,NaN
nan,nan,nan,NaN
nan,nan,nan,NaN
nan,nan,nan,NaN
nan,nan,nan,NaN
nan,nan,nan,NaN
nan,nan,nan,NaN
nan,nan,nan,NaN
nan,nan,nan,NaN
nan,nan,nan,NaN
nan,nan,nan,NaN
nan,nan,nan,NaN
nan,nan,nan,NaN
nan,nan,nan,NaN
nan,nan,nan,NaN
nan,nan,nan,NaN
nan,nan,nan,NaN
nan,nan,nan,NaN
nan,nan,nan,NaN
nan,nan,nan,NaN
nan,nan,nan,NaN
nan,nan,nan,NaN
nan,nan,nan,NaN
-1.21302,-0.277958,2.463,2.75954
-1.20502,-0.277958,2.463,2.75603
-1.19703,-0.277958,2.463,2.75255
-1.18904,-0.277958,2.463,2.74908
-1.18104,-0.277958,2.463,2.74563
-1.17305,-0.277958,2.463,2.7422
-1.16505,-0.277958,2.463,2.73879
-1.1486,-0.275927,2.445,2.71541
-1.14067,-0.275927,2.445,2.71206
-1.13273,-0.275927,2.445,2.70873
-1.12479,-0.275927,2.445,2.70542
-1.11686,-0.275927,2.445,2.70214
-1.10892,-0.275927,2.445,2.69886
-1.09333,-0.274008,2.428,2.67687
-1.08545,-0.274008,2.428,2.67366
-1.07757,-0.274008,2.428,2.67047
-1.06969,-0.274008,2.428,2.6673
-1.06181,-0.274008,2.428,2.66415
-1.05393,-0.274008,2.428,2.66102
-1.03872,-0.27209,2.411,2.6393
-1.0309,-0.27209,2.411,2.63623
-1.02307,-0.27209,2.411,2.63318
-1.01525,-0.27209,2.411,2.63015
-1.00742,-0.27209,2.411,2.62714
-0.999596,-0.27209,2.411,2.62415
-0.984778,-0.270171,2.394,2.60269
-0.977007,-0.270171,2.394,2.59976
-0.969237,-0.270171,2.394,2.59685
-0.961466,-0.270171,2.394,2.59396
-0.953696,-0.270171,2.394,2.59109
-0.945926,-0.270171,2.394,2.58824
-0.938156,-0.270171,2.394,2.58541
-0.923778,-0.268253,2.377,2.56427
-0.916063,-0.268253,2.377,2.5615
-0.908348,-0.268253,2.377,2.55875
-0.900633,-0.268253,2.377,2.55602
-0.892918,-0.268253,2.377,2.55331
-0.879244,-0.266447,2.361,2.53345
-0.871581,-0.266447,2.361,2.5308
-0.863918,-0.266447,2.361,2.52818
-0.856255,-0.266447,2.361,2.52557
-0.848591,-0.266447,2.361,2.52298
-0.840928,-0.266447,2.361,2.52041
-0.833265,-0.266447,2.361,2.51787
-0.825602,-0.266447,2.361,2.51534
-0.817938,-0.266447,2.361,2.51283
-0.815766,-0.268253,2.377,2.52736
-0.808051,-0.268253,2.377,2.52488
-0.800336,-0.268253,2.377,2.52242
-0.792621,-0.268253,2.377,2.51999
-0.784906,-0.268253,2.377,2.51757
-0.782749,-0.270171,2.394,2.53316
-0.774979,-0.270171,2.394,2.53077
-0.767208,-0.270171,2.394,2.52841
-0.759438,-0.270171,2.394,2.52606
-0.751668,-0.270171,2.394,2.52373
-0.754462,-0.274008,2.428,2.55724
-0.746581,-0.274008,2.428,2.55493
-0.738701,-0.274008,2.428,2.55263
-0.73082,-0.274008,2.428,2.55037
-0.728001,-0.275927,2.445,2.56596
-0.720065,-0.275927,2.445,2.56372
-0.712129,-0.275927,2.445,2.5615
-0.704194,-0.275927,2.445,2.55931
-0.701384,-0.277958,2.463,2.57596
-0.693389,-0.277958,2.463,2.57379
-0.685395,-0.277958,2.463,2.57165
-0.677401,-0.277958,2.463,2.56953
-0.669406,-0.277958,2.463,2.56744
-0.661412,-0.277958,2.463,2.56536
-0.653418,-0.277958,2.463,2.56332
-0.645424,-0.277958,2.463,2.56129
-0.637429,-0.277958,2.463,2.55929
-0.629435,-0.277958,2.463,2.55731
-0.621441,-0.277958,2.463,2.55535
-0.613446,-0.277958,2.463,2.55342
-0.605452,-0.277958,2.463,2.55151
-0.601824,-0.279989,2.481,2.56826
-0.593771,-0.279989,2.481,2.56638
-0.585719,-0.279989,2.481,2.56453
-0.577666,-0.279989,2.481,2.5627
-0.573746,-0.282021,2.499,2.57948
-0.565635,-0.282021,2.499,2.57769
-0.557524,-0.282021,2.499,2.57592
-0.549413,-0.282021,2.499,2.57418
-0.541301,-0.282021,2.499,2.57246
-0.537031,-0.284052,2.517,2.58928
-0.528861,-0.284052,2.517,2.5876
-0.520692,-0.284052,2.517,2.58594
-0.516391,-0.286196,2.536,2.60382
-0.50816,-0.286196,2.536,2.6022
-0.499929,-0.286196,2.536,2.6006
-0.491697,-0.286196,2.536,2.59903
-0.487088,-0.288341,2.555,2.61695
-0.482356,-0.290485,2.574,2.63487
-0.474001,-0.290485,2.574,2.63335
-0.465647,-0.290485,2.574,2.63186
-0.457292,-0.290485,2.574,2.63039
-0.448938,-0.290485,2.574,2.62895
-0.443835,-0.292629,2.593,2.64694
-0.435419,-0.292629,2.593,2.64554
-0.430296,-0.294886,2.613,2.66456
-0.421815,-0.294886,2.613,2.6632
-0.41017,-0.292629,2.593,2.6415
-0.401754,-0.292629,2.593,2.64021
-0.393338,-0.292629,2.593,2.63894
-0.384922,-0.292629,2.593,2.6377
-0.376505,-0.292629,2.593,2.63648
-0.368089,-0.292629,2.593,2.63529
-0.357037,-0.290485,2.574,2.61483
-0.348683,-0.290485,2.574,2.6137
-0.340328,-0.290485,2.574,2.6126
-0.331974,-0.290485,2.574,2.61153
-0.32123,-0.288341,2.555,2.59121
-0.312937,-0.288341,2.555,2.59019
-0.304645,-0.288341,2.555,2.5892
-0.296352,-0.288341,2.555,2.58824
-0.288059,-0.288341,2.555,2.5873
-0.279766,-0.288341,2.555,2.58639
-0.271473,-0.288341,2.555,2.58551
-0.26318,-0.288341,2.555,2.58465
-0.254887,-0.288341,2.555,2.58382
-0.246594,-0.288341,2.555,2.58302
-0.240074,-0.290485,2.574,2.60144
-0.231719,-0.290485,2.574,2.60068
-0.223364,-0.290485,2.574,2.59995
-0.21501,-0.290485,2.574,2.59925
-0.206655,-0.290485,2.574,2.59857
-0.198301,-0.290485,2.574,2.59792
-0.189946,-0.290485,2.574,2.59729
-0.181592,-0.290485,2.574,2.5967
-0.173237,-0.290485,2.574,2.59613
-0.164882,-0.290485,2.574,2.59558
-0.156528,-0.290485,2.574,2.59506
-0.148173,-0.290485,2.574,2.59457
-0.139819,-0.290485,2.574,2.59411
-0.131464,-0.290485,2.574,2.59367
-0.12311,-0.290485,2.574,2.59326
-0.114755,-0.290485,2.574,2.59288
-0.1064,-0.290485,2.574,2.59252
-0.0980459,-0.290485,2.574,2.59219
-0.0890293,-0.288341,2.555,2.57276
-0.0807364,-0.288341,2.555,2.57249
-0.0724435,-0.288341,2.555,2.57224
-0.0641506,-0.288341,2.555,2.57202
-0.0562731,-0.290485,2.574,2.59095
-0.0479185,-0.290485,2.574,2.59078
-0.039564,-0.290485,2.574,2.59064
-0.0312094,-0.290485,2.574,2.59053
-0.0228548,-0.290485,2.574,2.59044
-0.0145003,-0.290485,2.574,2.59038
-0.00614571,-0.290485,2.574,2.59035
0.00220886,-0.290485,2.574,2.59034
0.0105634,-0.290485,2.574,2.59036
0.018918,-0.290485,2.574,2.59041
0.0276858,-0.294886,2.613,2.62973
0.0361669,-0.294886,2.613,2.62984
0.0446481,-0.294886,2.613,2.62997
0.0531292,-0.294886,2.613,2.63012
0.0616104,-0.294886,2.613,2.63031
0.0700915,-0.294886,2.613,2.63052
0.0785727,-0.294886,2.613,2.63076
0.0877201,-0.297143,2.633,2.65117
0.0962662,-0.297143,2.633,2.65146
0.104812,-0.297143,2.633,2.65179
0.113358,-0.297143,2.633,2.65214
0.121904,-0.297143,2.633,2.65252
0.13045,-0.297143,2.633,2.65292
0.138997,-0.297143,2.633,2.65336
0.148719,-0.299513,2.654,2.67498
0.157334,-0.299513,2.654,2.67548
0.164635,-0.297143,2.633,2.65482
0.173181,-0.297143,2.633,2.65537
0.181727,-0.297143,2.633,2.65594
0.190273,-0.297143,2.633,2.65654
0.197309,-0.294886,2.613,2.63698
0.20579,-0.294886,2.613,2.63763
0.214271,-0.294886,2.613,2.6383
0.222752,-0.294886,2.613,2.639
0.231233,-0.294886,2.613,2.63973
0.239715,-0.294886,2.613,2.64049
0.246296,-0.292629,2.593,2.62106
0.254712,-0.292629,2.593,2.62186
0.263128,-0.292629,2.593,2.62269
0.269555,-0.290485,2.574,2.60433
0.27791,-0.290485,2.574,2.6052
0.286264,-0.290485,2.574,2.60611
0.294619,-0.290485,2.574,2.60704
0.300737,-0.288341,2.555,2.58875
0.30903,-0.288341,2.555,2.58972
0.317323,-0.288341,2.555,2.59073
0.325615,-0.288341,2.555,2.59175
0.333908,-0.288341,2.555,2.59281
0.342201,-0.288341,2.555,2.59389
0.350494,-0.288341,2.555,2.595
0.356119,-0.286196,2.536,2.57682
0.36435,-0.286196,2.536,2.57798
0.372581,-0.286196,2.536,2.57915
0.380813,-0.286196,2.536,2.58035
0.391959,-0.288341,2.555,2.60092
0.400252,-0.288341,2.555,2.60219
0.408544,-0.288341,2.555,2.60347
0.416837,-0.288341,2.555,2.60479
