nan,nan,nan,NaN
nan,nan,nan,NaN
nan,nan,nan,NaN
nan,nan,nan,NaN
nan,nan,nan,NaN
nan,nan,nan,NaN
nan,nan,nan,NaN
nan,nan,nan,NaN
nan,nan,nan,NaN
nan,nan,nan,NaN
nan,nan,nan,NaN
nan,nan,nan,NaN
nan,nan,nan,NaN
nan,nan,nan,NaN
nan,nan,nan,NaN
nan,nan,nan,NaN
nan,nan,nan,NaN
nan,nan,nan,NaN
nan,nan,nan,NaN
nan,nan,nan,NaN
nan,nan,nan,NaN
nan,nan,nan,NaN
nan,nan,nan,NaN
nan,nan,nan,NaN
nan,nan,nan,NaN
nan,nan,nan,NaN
nan,nan,nan,NaN
nan,nan,nan,NaN
-1.21383,-0.143132,2.481,2.76572
-1.20578,-0.143132,2.481,2.7622
-1.19772,-0.143132,2.481,2.75869
-1.18104,-0.142093,2.463,2.73522
-1.17305,-0.142093,2.463,2.73178
-1.16505,-0.142093,2.463,2.72835
-1.1486,-0.141055,2.445,2.70503
-1.14067,-0.141055,2.445,2.70167
-1.12485,-0.140074,2.428,2.67957
-1.11697,-0.140074,2.428,2.67627
-1.10133,-0.139094,2.411,2.65428
-1.0935,-0.139094,2.411,2.65104
-1.07802,-0.138113,2.394,2.62915
-1.07025,-0.138113,2.394,2.62598
-1.06248,-0.138113,2.394,2.62282
-1.04722,-0.137132,2.377,2.60108
-1.03951,-0.137132,2.377,2.59798
-1.03179,-0.137132,2.377,2.5949
-1.02408,-0.137132,2.377,2.59185
-1.01636,-0.137132,2.377,2.58881
-1.00865,-0.137132,2.377,2.58579
-1.00093,-0.137132,2.377,2.58279
-0.993215,-0.137132,2.377,2.57981
-0.9855,-0.137132,2.377,2.57685
-0.977785,-0.137132,2.377,2.57391
-0.970069,-0.137132,2.377,2.57099
-0.962354,-0.137132,2.377,2.56808
-0.954639,-0.137132,2.377,2.5652
-0.946924,-0.137132,2.377,2.56234
-0.939209,-0.137132,2.377,2.5595
-0.931494,-0.137132,2.377,2.55668
-0.923778,-0.137132,2.377,2.55388
-0.916063,-0.137132,2.377,2.5511
-0.908348,-0.137132,2.377,2.54834
-0.900633,-0.137132,2.377,2.5456
-0.892918,-0.137132,2.377,2.54288
-0.885203,-0.137132,2.377,2.54018
-0.877488,-0.137132,2.377,2.5375
-0.869772,-0.137132,2.377,2.53484
-0.862057,-0.137132,2.377,2.53221
-0.854342,-0.137132,2.377,2.52959
-0.846627,-0.137132,2.377,2.527
-0.838912,-0.137132,2.377,2.52442
-0.831197,-0.137132,2.377,2.52187
-0.823481,-0.137132,2.377,2.51934
-0.815766,-0.137132,2.377,2.51683
-0.81383,-0.138113,2.394,2.53232
-0.80606,-0.138113,2.394,2.52983
-0.79829,-0.138113,2.394,2.52737
-0.790519,-0.138113,2.394,2.52492
-0.782749,-0.138113,2.394,2.5225
-0.774979,-0.138113,2.394,2.5201
-0.767208,-0.138113,2.394,2.51772
-0.764831,-0.139094,2.411,2.53323
-0.757005,-0.139094,2.411,2.53087
-0.74918,-0.139094,2.411,2.52854
-0.741354,-0.139094,2.411,2.52624
-0.738701,-0.140074,2.428,2.54175
-0.73082,-0.140074,2.428,2.53947
-0.722939,-0.140074,2.428,2.53721
-0.715059,-0.140074,2.428,2.53498
-0.707178,-0.140074,2.428,2.53277
-0.699297,-0.140074,2.428,2.53058
-0.696258,-0.141055,2.445,2.54611
-0.688322,-0.141055,2.445,2.54396
-0.680386,-0.141055,2.445,2.54182
-0.67245,-0.141055,2.445,2.53971
-0.669406,-0.142093,2.463,2.5563
-0.661412,-0.142093,2.463,2.55422
-0.653418,-0.142093,2.463,2.55216
-0.65014,-0.143132,2.481,2.56876
-0.642088,-0.143132,2.481,2.56673
-0.634035,-0.143132,2.481,2.56473
-0.630524,-0.14417,2.499,2.58135
-0.622413,-0.14417,2.499,2.57938
-0.614302,-0.14417,2.499,2.57743
-0.610557,-0.145209,2.517,2.59406
-0.602387,-0.145209,2.517,2.59215
-0.594218,-0.145209,2.517,2.59026
-0.586048,-0.145209,2.517,2.5884
-0.582241,-0.146305,2.536,2.60609
-0.57401,-0.146305,2.536,2.60426
-0.565778,-0.146305,2.536,2.60246
-0.557547,-0.146305,2.536,2.60068
-0.549316,-0.146305,2.536,2.59893
-0.541085,-0.146305,2.536,2.5972
-0.532853,-0.146305,2.536,2.5955
-0.524622,-0.146305,2.536,2.59383
-0.512522,-0.145209,2.517,2.57275
-0.504353,-0.145209,2.517,2.57114
-0.496183,-0.145209,2.517,2.56955
-0.488013,-0.145209,2.517,2.56798
-0.479844,-0.145209,2.517,2.56644
-0.471674,-0.145209,2.517,2.56493
-0.463505,-0.145209,2.517,2.56344
-0.455335,-0.145209,2.517,2.56197
-0.447166,-0.145209,2.517,2.56053
-0.438996,-0.145209,2.517,2.55912
-0.430827,-0.145209,2.517,2.55773
-0.425848,-0.146305,2.536,2.57566
-0.417616,-0.146305,2.536,2.57432
-0.409385,-0.146305,2.536,2.57299
-0.401154,-0.146305,2.536,2.5717
-0.392923,-0.146305,2.536,2.57043
-0.384691,-0.146305,2.536,2.56918
-0.37646,-0.146305,2.536,2.56796
-0.368229,-0.146305,2.536,2.56677
-0.359998,-0.146305,2.536,2.5656
-0.354402,-0.147401,2.555,2.58367
-0.346109,-0.147401,2.555,2.58255
-0.337816,-0.147401,2.555,2.58145
-0.329523,-0.147401,2.555,2.58038
-0.323619,-0.148497,2.574,2.59851
-0.315265,-0.148497,2.574,2.59748
-0.30691,-0.148497,2.574,2.59648
-0.298555,-0.148497,2.574,2.59551
-0.290201,-0.148497,2.574,2.59456
-0.281846,-0.148497,2.574,2.59364
-0.273492,-0.148497,2.574,2.59274
-0.265137,-0.148497,2.574,2.59188
-0.256783,-0.148497,2.574,2.59104
-0.248428,-0.148497,2.574,2.59022
-0.240074,-0.148497,2.574,2.58943
-0.231719,-0.148497,2.574,2.58867
-0.223364,-0.148497,2.574,2.58794
-0.21501,-0.148497,2.574,2.58723
-0.206655,-0.148497,2.574,2.58655
-0.198301,-0.148497,2.574,2.58589
-0.189946,-0.148497,2.574,2.58527
-0.181592,-0.148497,2.574,2.58467
-0.173237,-0.148497,2.574,2.58409
-0.164882,-0.148497,2.574,2.58355
-0.156528,-0.148497,2.574,2.58303
-0.148173,-0.148497,2.574,2.58253
-0.138787,-0.147401,2.555,2.56301
-0.130494,-0.147401,2.555,2.56257
-0.122201,-0.147401,2.555,2.56216
-0.113908,-0.147401,2.555,2.56178
-0.1064,-0.148497,2.574,2.58047
-0.0980459,-0.148497,2.574,2.58014
-0.0896914,-0.148497,2.574,2.57984
-0.0813368,-0.148497,2.574,2.57956
-0.0729822,-0.148497,2.574,2.57931
-0.0646277,-0.148497,2.574,2.57909
-0.0558577,-0.147401,2.555,2.55986
-0.0475648,-0.147401,2.555,2.55969
-0.039564,-0.148497,2.574,2.57858
-0.0312094,-0.148497,2.574,2.57847
-0.0230235,-0.149593,2.593,2.59741
-0.0146073,-0.149593,2.593,2.59735
-0.00619107,-0.149593,2.593,2.59732
0.00222516,-0.149593,2.593,2.59731
0.0106414,-0.149593,2.593,2.59733
0.0190576,-0.149593,2.593,2.59738
0.0274739,-0.149593,2.593,2.59746
0.0358901,-0.149593,2.593,2.59756
0.0443063,-0.149593,2.593,2.59769
0.0523362,-0.148497,2.574,2.57881
0.0606908,-0.148497,2.574,2.57899
0.0690454,-0.148497,2.574,2.5792
0.0768286,-0.147401,2.555,2.5604
0.0851215,-0.147401,2.555,2.56066
0.0934144,-0.147401,2.555,2.56095
0.101707,-0.147401,2.555,2.56127
0.11,-0.147401,2.555,2.56161
0.119173,-0.148497,2.574,2.58103
0.126586,-0.147401,2.555,2.56238
0.134879,-0.147401,2.555,2.5628
0.144236,-0.148497,2.574,2.58231
0.152591,-0.148497,2.574,2.58279
0.160946,-0.148497,2.574,2.5833
0.1693,-0.148497,2.574,2.58383
0.178966,-0.149593,2.593,2.60347
0.187382,-0.149593,2.593,2.60406
0.195799,-0.149593,2.593,2.60468
0.20579,-0.150747,2.613,2.62542
0.214271,-0.150747,2.613,2.6261
0.222752,-0.150747,2.613,2.62681
0.231233,-0.150747,2.613,2.62754
0.239715,-0.150747,2.613,2.6283
0.248196,-0.150747,2.613,2.62909
0.258641,-0.151901,2.633,2.65003
0.267187,-0.151901,2.633,2.65088
0.273639,-0.150747,2.613,2.63161
0.28212,-0.150747,2.613,2.63251
0.290601,-0.150747,2.613,2.63343
0.296793,-0.149593,2.593,2.61421
0.30521,-0.149593,2.593,2.61518
0.313626,-0.149593,2.593,2.61618
0.319682,-0.148497,2.574,2.59802
0.328037,-0.148497,2.574,2.59906
0.333908,-0.147401,2.555,2.58094
0.342201,-0.147401,2.555,2.58203
0.350494,-0.147401,2.555,2.58314
0.358787,-0.147401,2.555,2.58428
0.36708,-0.147401,2.555,2.58544
0.375373,-0.147401,2.555,2.58663
0.380813,-0.146305,2.536,2.5686
0.389044,-0.146305,2.536,2.56984
0.397275,-0.146305,2.536,2.57109
0.405506,-0.146305,2.536,2.57238
0.413738,-0.146305,2.536,2.57369
0.418807,-0.145209,2.517,2.55573
0.426977,-0.145209,2.517,2.55709
0.435146,-0.145209,2.517,2.55846
0.443316,-0.145209,2.517,2.55986
0.451486,-0.145209,2.517,2.56129
0.456368,-0.14417,2.499,2.54442
0.464479,-0.14417,2.499,2.54588
0.47259,-0.14417,2.499,2.54738
0.480701,-0.14417,2.499,2.54889
0.488812,-0.14417,2.499,2.55044
0.496924,-0.14417,2.499,2.552
0.505035,-0.14417,2.499,2.55359
0.513146,-0.14417,2.499,2.55521
0.521257,-0.14417,2.499,2.55685
0.529368,-0.14417,2.499,2.55852
0.537479,-0.14417,2.499,2.56021
0.54559,-0.14417,2.499,2.56192
0.553702,-0.14417,2.499,2.56366
0.565859,-0.145209,2.517,2.58391
0.574029,-0.145209,2.517,2.58571
0.582199,-0.145209,2.517,2.58753
0.594824,-0.146305,2.536,2.60893
0.603056,-0.146305,2.536,2.61082
0.611287,-0.146305,2.536,2.61273
0.619518,-0.146305,2.536,2.61467
0.627749,-0.146305,2.536,2.61663
0.635981,-0.146305,2.536,2.61862
0.644212,-0.146305,2.536,2.62063
0.652443,-0.146305,2.536,2.62267
0.660674,-0.146305,2.536,2.62473
0.663894,-0.145209,2.517,2.60713
0.672064,-0.145209,2.517,2.60922
0.680233,-0.145209,2.517,2.61134
0.688403,-0.145209,2.517,2.61348
0.696572,-0.145209,2.517,2.61564
0.704742,-0.145209,2.517,2.61783
0.712911,-0.145209,2.517,2.62004
0.721081,-0.145209,2.517,2.62228
0.734755,-0.146305,2.536,2.64435
0.742987,-0.146305,2.536,2.64665
0.751218,-0.146305,2.536,2.64897
0.759449,-0.146305,2.536,2.65131
0.76768,-0.146305,2.536,2.65368
0.775912,-0.146305,2.536,2.65608
0.784143,-0.146305,2.536,2.65849
0.792374,-0.146305,2.536,2.66093
0.800605,-0.146305,2.536,2.66339
0.808836,-0.146305,2.536,2.66588
0.817068,-0.146305,2.536,2.66839
0.819116,-0.145209,2.517,2.65091
0.827285,-0.145209,2.517,2.65345
0.82948,-0.14417,2.499,2.63701
0.837591,-0.14417,2.499,2.63957
0.845702,-0.14417,2.499,2.64216
0.847664,-0.143132,2.481,2.62572
0.855716,-0.143132,2.481,2.62833
0.863769,-0.143132,2.481,2.63096
0.865497,-0.142093,2.463,2.61451
0.873491,-0.142093,2.463,2.61716
0.875043,-0.141055,2.445,2.6007
0.87684,-0.140074,2.428,2.58528
0.88472,-0.140074,2.428,2.58796
0.886351,-0.139094,2.411,2.57253
0.887872,-0.138113,2.394,2.55707
0.895642,-0.138113,2.394,2.55978
0.896997,-0.137132,2.377,2.54432
0.898623,-0.136209,2.361,2.5299
0.900144,-0.135286,2.345,2.51547
0.907756,-0.135286,2.345,2.5182
0.909121,-0.134363,2.329,2.50376
0.910383,-0.13344,2.313,2.48929
0.917891,-0.13344,2.313,2.49205
0.925398,-0.13344,2.313,2.49482
nan,nan,nan,NaN
nan,nan,nan,NaN
0.935216,-0.131651,2.282,2.46971
0.942623,-0.131651,2.282,2.47253
nan,nan,nan,NaN
nan,nan,nan,NaN
nan,nan,nan,NaN
nan,nan,nan,NaN
nan,nan,nan,NaN
nan,nan,nan,NaN
nan,nan,nan,NaN
nan,nan,nan,NaN
nan,nan,nan,NaN
nan,nan,nan,NaN
nan,nan,nan,NaN
nan,nan,nan,NaN
nan,nan,nan,NaN
nan,nan,nan,NaN
nan,nan,nan,NaN
nan,nan,nan,NaN
nan,nan,nan,NaN
nan,nan,nan,NaN
nan,nan,nan,NaN
nan,nan,nan,NaN
nan,nan,nan,NaN
nan,nan,nan,NaN
nan,nan,nan,NaN
nan,nan,nan,NaN
nan,nan,nan,NaN
nan,nan,nan,NaN
nan,nan,nan,NaN
nan,nan,nan,NaN
nan,nan,nan,NaN
nan,nan,nan,NaN
nan,nan,nan,NaN
nan,nan,nan,NaN
nan,nan,nan,NaN
nan,nan,nan,NaN
nan,nan,nan,NaN
1.79588,-0.195516,3.389,3.84041
1.80688,-0.195516,3.389,3.84557
1.83612,-0.197477,3.423,3.88938
1.84723,-0.197477,3.423,3.89464
1.85834,-0.197477,3.423,3.89992
1.86945,-0.197477,3.423,3.90522
1.88056,-0.197477,3.423,3.91056
1.87288,-0.195516,3.389,3.87701
1.88388,-0.195516,3.389,3.88234
1.89488,-0.195516,3.389,3.88769
1.88732,-0.193612,3.356,3.85515
1.89822,-0.193612,3.356,3.8605
1.90911,-0.193612,3.356,3.86587
1.92,-0.193612,3.356,3.87126
1.91248,-0.191766,3.324,3.83971
1.92327,-0.191766,3.324,3.84509
1.93406,-0.191766,3.324,3.8505
1.94485,-0.191766,3.324,3.85593
1.93681,-0.189919,3.292,3.82421
1.9475,-0.189919,3.292,3.82963
1.95818,-0.189919,3.292,3.83508
1.94973,-0.188073,3.26,3.80321
1.96031,-0.188073,3.26,3.80865
1.95275,-0.186343,3.23,3.779
1.9444,-0.184554,3.199,3.74811
1.95478,-0.184554,3.199,3.75351
1.94735,-0.182881,3.17,3.72485
1.93973,-0.181208,3.141,3.69611
1.94992,-0.181208,3.141,3.70147
1.92455,-0.17792,3.084,3.63959
1.91762,-0.176362,3.057,3.61298
1.92754,-0.176362,3.057,3.61826
1.92035,-0.174804,3.03,3.59155
1.89642,-0.171747,2.977,3.5339
1.88944,-0.170247,2.951,3.50819
1.89902,-0.170247,2.951,3.51335
1.86074,-0.165978,2.877,3.43031
1.83887,-0.163208,2.829,3.37807
1.84806,-0.163208,2.829,3.38307
1.84214,-0.161882,2.806,3.36055
1.82156,-0.159285,2.761,3.31158
1.83052,-0.159285,2.761,3.31652
1.81017,-0.156747,2.717,3.26854
1.79087,-0.154324,2.675,3.22283
1.79955,-0.154324,2.675,3.22766
1.79404,-0.153112,2.654,3.20714
1.7748,-0.150747,2.613,3.16234
-1.94661,-0.152777,2.806,3.41852
-1.93751,-0.152777,2.806,3.41334
-1.89747,-0.150326,2.761,3.35352
-1.88851,-0.150326,2.761,3.34846
-1.8496,-0.147931,2.717,3.29013
-1.84078,-0.147931,2.717,3.28518
-1.83196,-0.147931,2.717,3.28025
-1.80905,-0.146787,2.696,3.25002
-1.8003,-0.146787,2.696,3.24516
-1.79155,-0.146787,2.696,3.24031
-1.7828,-0.146787,2.696,3.23548
-1.78787,-0.147931,2.717,3.25583
-1.77905,-0.147931,2.717,3.251
-1.77023,-0.147931,2.717,3.24618
-1.76141,-0.147931,2.717,3.24138
-1.76678,-0.149129,2.739,3.2628
-1.75789,-0.149129,2.739,3.258
-1.76305,-0.150326,2.761,3.27934
-1.78268,-0.152777,2.806,3.3279
-1.77357,-0.152777,2.806,3.32303
-1.79402,-0.155336,2.853,3.37376
-1.79977,-0.156642,2.877,3.39718
-1.79043,-0.156642,2.877,3.39224
-1.79595,-0.157949,2.901,3.41558
-1.78654,-0.157949,2.901,3.41064
-1.79244,-0.15931,2.926,3.43507
-1.78294,-0.15931,2.926,3.43012
-1.78859,-0.160671,2.951,3.45446
-1.77902,-0.160671,2.951,3.44951
-1.76944,-0.160671,2.951,3.44458
-1.74495,-0.15931,2.926,3.41053
-1.73545,-0.15931,2.926,3.40568
-1.72596,-0.15931,2.926,3.40085
-1.71646,-0.15931,2.926,3.39604
-1.70696,-0.15931,2.926,3.39125
nan,nan,nan,NaN
nan,nan,nan,NaN
nan,nan,nan,NaN
nan,nan,nan,NaN
nan,nan,nan,NaN
nan,nan,nan,NaN
nan,nan,nan,NaN
nan,nan,nan,NaN
nan,nan,nan,NaN
nan,nan,nan,NaN
nan,nan,nan,NaN
nan,nan,nan,NaN
nan,nan,nan,NaN
nan,nan,nan,NaN
nan,nan,nan,NaN
nan,nan,nan,NaN
nan,nan,nan,NaN
nan,nan,nan,NaN
nan,nan,nan,NaN
nan,nan,nan,NaN
nan,nan,nan,NaN
nan,nan,nan,NaN
nan,nan,nan,NaN
nan,nan,nan,NaN
nan,nan,nan,NaN
nan,nan,nan,NaN
nan,nan,nan,NaN
nan,nan,nan,NaN
-1.22264,-0.136061,2.499,2.78538
-1.21453,-0.136061,2.499,2.78183
-1.20641,-0.136061,2.499,2.7783
-1.18967,-0.135081,2.481,2.7548
-1.18162,-0.135081,2.481,2.75133
-1.17357,-0.135081,2.481,2.74788
-1.15706,-0.134101,2.463,2.72454
-1.14906,-0.134101,2.463,2.72116
-1.13273,-0.133121,2.445,2.69793
-1.11697,-0.132196,2.428,2.67587
-1.10909,-0.132196,2.428,2.67259
-1.10121,-0.132196,2.428,2.66933
-1.08568,-0.13127,2.411,2.64742
-1.07025,-0.130345,2.394,2.62558
-1.06248,-0.130345,2.394,2.62242
-1.05471,-0.130345,2.394,2.61928
-1.04694,-0.130345,2.394,2.61616
-1.03917,-0.130345,2.394,2.61306
-1.0314,-0.130345,2.394,2.60998
-1.02363,-0.130345,2.394,2.60692
-1.01586,-0.130345,2.394,2.60388
-1.00809,-0.130345,2.394,2.60086
-1.00032,-0.130345,2.394,2.59786
-0.9855,-0.129419,2.377,2.57645
-0.977785,-0.129419,2.377,2.57351
-0.970069,-0.129419,2.377,2.57059
-0.962354,-0.129419,2.377,2.56768
-0.954639,-0.129419,2.377,2.5648
-0.946924,-0.129419,2.377,2.56194
-0.939209,-0.129419,2.377,2.5591
-0.931494,-0.129419,2.377,2.55628
-0.923778,-0.129419,2.377,2.55348
-0.916063,-0.129419,2.377,2.5507
-0.908348,-0.129419,2.377,2.54794
-0.907074,-0.130345,2.394,2.5634
-0.899304,-0.130345,2.394,2.56066
-0.891534,-0.130345,2.394,2.55794
-0.883763,-0.130345,2.394,2.55524
-0.875993,-0.130345,2.394,2.55257
-0.868223,-0.130345,2.394,2.54991
-0.860452,-0.130345,2.394,2.54727
-0.852682,-0.130345,2.394,2.54466
-0.844912,-0.130345,2.394,2.54207
-0.837141,-0.130345,2.394,2.53949
-0.829371,-0.130345,2.394,2.53694
-0.821601,-0.130345,2.394,2.53441
-0.81383,-0.130345,2.394,2.53191
-0.80606,-0.130345,2.394,2.52942
-0.79829,-0.130345,2.394,2.52695
-0.790519,-0.130345,2.394,2.52451
-0.782749,-0.130345,2.394,2.52209
-0.774979,-0.130345,2.394,2.51969
-0.767208,-0.130345,2.394,2.51731
-0.764831,-0.13127,2.411,2.53281
-0.757005,-0.13127,2.411,2.53046
-0.74918,-0.13127,2.411,2.52813
-0.741354,-0.13127,2.411,2.52582
-0.738701,-0.132196,2.428,2.54133
-0.73082,-0.132196,2.428,2.53905
-0.722939,-0.132196,2.428,2.53679
-0.715059,-0.132196,2.428,2.53456
-0.707178,-0.132196,2.428,2.53234
-0.699297,-0.132196,2.428,2.53015
-0.696258,-0.133121,2.445,2.54569
-0.688322,-0.133121,2.445,2.54353
-0.680386,-0.133121,2.445,2.54139
-0.67245,-0.133121,2.445,2.53928
-0.669406,-0.134101,2.463,2.55587
-0.661412,-0.134101,2.463,2.55379
-0.653418,-0.134101,2.463,2.55173
-0.65014,-0.135081,2.481,2.56832
-0.642088,-0.135081,2.481,2.5663
-0.634035,-0.135081,2.481,2.5643
-0.630524,-0.136061,2.499,2.58091
-0.622413,-0.136061,2.499,2.57894
-0.614302,-0.136061,2.499,2.57699
-0.610557,-0.137042,2.517,2.59362
-0.602387,-0.137042,2.517,2.59171
-0.594218,-0.137042,2.517,2.58982
-0.586048,-0.137042,2.517,2.58796
-0.582241,-0.138076,2.536,2.60564
-0.57401,-0.138076,2.536,2.60381
-0.565778,-0.138076,2.536,2.60201
-0.557547,-0.138076,2.536,2.60023
-0.549316,-0.138076,2.536,2.59848
-0.541085,-0.138076,2.536,2.59675
-0.532853,-0.138076,2.536,2.59505
-0.524622,-0.138076,2.536,2.59337
-0.512522,-0.137042,2.517,2.5723
-0.504353,-0.137042,2.517,2.57069
-0.496183,-0.137042,2.517,2.5691
-0.488013,-0.137042,2.517,2.56753
-0.479844,-0.137042,2.517,2.56599
-0.471674,-0.137042,2.517,2.56448
-0.463505,-0.137042,2.517,2.56299
-0.455335,-0.137042,2.517,2.56152
-0.447166,-0.137042,2.517,2.56008
-0.438996,-0.137042,2.517,2.55867
-0.430827,-0.137042,2.517,2.55728
-0.422657,-0.137042,2.517,2.55592
-0.417616,-0.138076,2.536,2.57386
-0.409385,-0.138076,2.536,2.57254
-0.401154,-0.138076,2.536,2.57124
-0.392923,-0.138076,2.536,2.56997
-0.384691,-0.138076,2.536,2.56873
-0.37646,-0.138076,2.536,2.56751
-0.370988,-0.13911,2.555,2.58554
-0.362695,-0.13911,2.555,2.58436
-0.354402,-0.13911,2.555,2.58321
-0.346109,-0.13911,2.555,2.58209
-0.340328,-0.140145,2.574,2.60018
-0.331974,-0.140145,2.574,2.5991
-0.323619,-0.140145,2.574,2.59805
-0.315265,-0.140145,2.574,2.59702
-0.30691,-0.140145,2.574,2.59602
-0.298555,-0.140145,2.574,2.59504
-0.290201,-0.140145,2.574,2.5941
-0.281846,-0.140145,2.574,2.59317
-0.273492,-0.140145,2.574,2.59228
-0.265137,-0.140145,2.574,2.59141
-0.256783,-0.140145,2.574,2.59057
-0.248428,-0.140145,2.574,2.58976
-0.240074,-0.140145,2.574,2.58897
-0.231719,-0.140145,2.574,2.58821
-0.223364,-0.140145,2.574,2.58747
-0.21501,-0.140145,2.574,2.58676
-0.206655,-0.140145,2.574,2.58608
-0.196837,-0.13911,2.555,2.56634
-0.188544,-0.13911,2.555,2.56572
-0.181592,-0.140145,2.574,2.5842
-0.173237,-0.140145,2.574,2.58363
-0.164882,-0.140145,2.574,2.58308
-0.156528,-0.140145,2.574,2.58256
-0.148173,-0.140145,2.574,2.58207
-0.138787,-0.13911,2.555,2.56255
-0.130494,-0.13911,2.555,2.56211
-0.12311,-0.140145,2.574,2.58075
-0.113908,-0.13911,2.555,2.56132
-0.105615,-0.13911,2.555,2.56096
-0.0980459,-0.140145,2.574,2.57968
-0.0896914,-0.140145,2.574,2.57937
-0.0813368,-0.140145,2.574,2.5791
-0.0729822,-0.140145,2.574,2.57885
-0.0646277,-0.140145,2.574,2.57862
-0.0562731,-0.140145,2.574,2.57843
-0.0479185,-0.140145,2.574,2.57826
-0.039856,-0.141179,2.593,2.59715
-0.0314398,-0.141179,2.593,2.59703
-0.0230235,-0.141179,2.593,2.59694
-0.0146073,-0.141179,2.593,2.59688
-0.00619107,-0.141179,2.593,2.59685
0.00224232,-0.142268,2.613,2.61687
0.0107235,-0.142268,2.613,2.61689
0.0192046,-0.142268,2.613,2.61694
0.0274739,-0.141179,2.593,2.59699
0.0356271,-0.140145,2.574,2.57806
0.0439817,-0.140145,2.574,2.57819
0.0523362,-0.140145,2.574,2.57834
0.0606908,-0.140145,2.574,2.57853
0.0690454,-0.140145,2.574,2.57874
0.0768286,-0.13911,2.555,2.55994
0.0851215,-0.13911,2.555,2.5602
0.0934144,-0.13911,2.555,2.56049
0.101707,-0.13911,2.555,2.5608
0.11,-0.13911,2.555,2.56115
0.118293,-0.13911,2.555,2.56152
0.126586,-0.13911,2.555,2.56191
0.134879,-0.13911,2.555,2.56234
0.143172,-0.13911,2.555,2.56279
0.151465,-0.13911,2.555,2.56326
0.159758,-0.13911,2.555,2.56377
0.1693,-0.140145,2.574,2.58337
0.177655,-0.140145,2.574,2.58393
0.186009,-0.140145,2.574,2.58451
0.195799,-0.141179,2.593,2.60421
0.204215,-0.141179,2.593,2.60486
0.212631,-0.141179,2.593,2.60553
0.222752,-0.142268,2.613,2.62633
0.231233,-0.142268,2.613,2.62707
0.239715,-0.142268,2.613,2.62783
0.248196,-0.142268,2.613,2.62861
0.256677,-0.142268,2.613,2.62943
0.267187,-0.143357,2.633,2.6504
0.273639,-0.142268,2.613,2.63114
0.28212,-0.142268,2.613,2.63203
0.290601,-0.142268,2.613,2.63296
0.296793,-0.141179,2.593,2.61375
0.30521,-0.141179,2.593,2.61471
0.313626,-0.141179,2.593,2.61571
0.319682,-0.140145,2.574,2.59756
0.328037,-0.140145,2.574,2.5986
0.333908,-0.13911,2.555,2.58048
0.342201,-0.13911,2.555,2.58157
0.350494,-0.13911,2.555,2.58268
0.358787,-0.13911,2.555,2.58382
0.36708,-0.13911,2.555,2.58498
0.375373,-0.13911,2.555,2.58617
0.380813,-0.138076,2.536,2.56815
0.389044,-0.138076,2.536,2.56938
0.397275,-0.138076,2.536,2.57064
0.405506,-0.138076,2.536,2.57192
0.413738,-0.138076,2.536,2.57324
0.418807,-0.137042,2.517,2.55528
0.426977,-0.137042,2.517,2.55663
0.435146,-0.137042,2.517,2.55801
0.443316,-0.137042,2.517,2.55941
0.451486,-0.137042,2.517,2.56084
0.456368,-0.136061,2.499,2.54397
0.464479,-0.136061,2.499,2.54544
0.47259,-0.136061,2.499,2.54693
0.480701,-0.136061,2.499,2.54845
0.488812,-0.136061,2.499,2.54999
0.496924,-0.136061,2.499,2.55156
0.505035,-0.136061,2.499,2.55315
0.513146,-0.136061,2.499,2.55477
0.521257,-0.136061,2.499,2.55641
0.529368,-0.136061,2.499,2.55807
0.537479,-0.136061,2.499,2.55977
0.54952,-0.137042,2.517,2.57993
0.55769,-0.137042,2.517,2.58168
0.565859,-0.137042,2.517,2.58346
0.578362,-0.138076,2.536,2.60478
0.586593,-0.138076,2.536,2.60662
0.594824,-0.138076,2.536,2.60848
0.603056,-0.138076,2.536,2.61037
0.611287,-0.138076,2.536,2.61228
0.619518,-0.138076,2.536,2.61422
0.632453,-0.13911,2.555,2.63579
0.640746,-0.13911,2.555,2.63779
0.649038,-0.13911,2.555,2.63982
0.657331,-0.13911,2.555,2.64187
0.665624,-0.13911,2.555,2.64394
0.668906,-0.138076,2.536,2.62637
0.677137,-0.138076,2.536,2.62847
0.685368,-0.138076,2.536,2.63061
0.693599,-0.138076,2.536,2.63276
0.70183,-0.138076,2.536,2.63494
0.710062,-0.138076,2.536,2.63715
0.718293,-0.138076,2.536,2.63938
0.726524,-0.138076,2.536,2.64163
0.734755,-0.138076,2.536,2.6439
0.742987,-0.138076,2.536,2.6462
0.751218,-0.138076,2.536,2.64853
0.759449,-0.138076,2.536,2.65087
0.76768,-0.138076,2.536,2.65324
0.775912,-0.138076,2.536,2.65564
0.784143,-0.138076,2.536,2.65805
0.792374,-0.138076,2.536,2.66049
0.800605,-0.138076,2.536,2.66296
0.808836,-0.138076,2.536,2.66544
0.817068,-0.138076,2.536,2.66795
0.819116,-0.137042,2.517,2.65048
0.827285,-0.137042,2.517,2.65301
0.82948,-0.136061,2.499,2.63658
0.837591,-0.136061,2.499,2.63914
0.845702,-0.136061,2.499,2.64173
0.847664,-0.135081,2.481,2.62529
0.855716,-0.135081,2.481,2.6279
0.863769,-0.135081,2.481,2.63053
0.865497,-0.134101,2.463,2.61408
0.873491,-0.134101,2.463,2.61674
0.875043,-0.133121,2.445,2.60028
0.87684,-0.132196,2.428,2.58486
0.88472,-0.132196,2.428,2.58755
0.886351,-0.13127,2.411,2.57211
0.887872,-0.130345,2.394,2.55667
0.895642,-0.130345,2.394,2.55938
0.896997,-0.129419,2.377,2.54391
0.898623,-0.128548,2.361,2.5295
0.900144,-0.127677,2.345,2.51507
0.907756,-0.127677,2.345,2.51781
0.909121,-0.126806,2.329,2.50336
0.910383,-0.125934,2.313,2.4889
0.917891,-0.125934,2.313,2.49166
0.919397,-0.125118,2.298,2.47826
0.926855,-0.125118,2.298,2.48103
0.934314,-0.125118,2.298,2.48383
0.935216,-0.124247,2.282,2.46933
0.942623,-0.124247,2.282,2.47214
0.962935,-0.125934,2.313,2.5086
0.970443,-0.125934,2.313,2.51149
0.97795,-0.125934,2.313,2.5144
nan,nan,nan,NaN
nan,nan,nan,NaN
nan,nan,nan,NaN
nan,nan,nan,NaN
nan,nan,nan,NaN
nan,nan,nan,NaN
nan,nan,nan,NaN
nan,nan,nan,NaN
nan,nan,nan,NaN
nan,nan,nan,NaN
nan,nan,nan,NaN
nan,nan,nan,NaN
nan,nan,nan,NaN
nan,nan,nan,NaN
nan,nan,nan,NaN
nan,nan,nan,NaN
nan,nan,nan,NaN
nan,nan,nan,NaN
nan,nan,nan,NaN
nan,nan,nan,NaN
nan,nan,nan,NaN
nan,nan,nan,NaN
nan,nan,nan,NaN
nan,nan,nan,NaN
nan,nan,nan,NaN
nan,nan,nan,NaN
nan,nan,nan,NaN
nan,nan,nan,NaN
nan,nan,nan,NaN
nan,nan,nan,NaN
nan,nan,nan,NaN
nan,nan,nan,NaN
1.79588,-0.184519,3.389,3.83987
1.77223,-0.18098,3.324,3.77128
1.78302,-0.18098,3.324,3.77636
1.81108,-0.182722,3.356,3.81787
1.82197,-0.182722,3.356,3.82305
1.83286,-0.182722,3.356,3.82825
1.84375,-0.182722,3.356,3.83348
1.85465,-0.182722,3.356,3.83873
1.84775,-0.18098,3.324,3.80735
1.85854,-0.18098,3.324,3.8126
1.86933,-0.18098,3.324,3.81787
1.88012,-0.18098,3.324,3.82316
1.89091,-0.18098,3.324,3.82848
1.88339,-0.179237,3.292,3.79691
1.89407,-0.179237,3.292,3.80222
1.90476,-0.179237,3.292,3.80756
1.91544,-0.179237,3.292,3.81291
1.9074,-0.177495,3.26,3.78118
1.91799,-0.177495,3.26,3.78653
1.92857,-0.177495,3.26,3.7919
1.93915,-0.177495,3.26,3.79729
1.93179,-0.175862,3.23,3.76771
1.94227,-0.175862,3.23,3.77309
1.95275,-0.175862,3.23,3.7785
1.92677,-0.172595,3.17,3.71364
1.93706,-0.172595,3.17,3.71899
1.92953,-0.171016,3.141,3.69029
1.92182,-0.169437,3.112,3.66151
1.93192,-0.169437,3.112,3.66682
1.92455,-0.167913,3.084,3.63911
1.91762,-0.166443,3.057,3.61251
1.92754,-0.166443,3.057,3.61779
1.90324,-0.163502,3.003,3.55908
1.87986,-0.160671,2.951,3.50258
1.87343,-0.15931,2.926,3.47802
1.88293,-0.15931,2.926,3.48314
1.86074,-0.156642,2.877,3.42987
1.83887,-0.154029,2.829,3.37764
1.84806,-0.154029,2.829,3.38264
1.82704,-0.151524,2.783,3.33259
1.80704,-0.149129,2.739,3.28478
1.81593,-0.149129,2.739,3.28968
1.79618,-0.146787,2.696,3.24287
1.79087,-0.145644,2.675,3.22243
1.79955,-0.145644,2.675,3.22726
1.77984,-0.143357,2.633,3.18136
1.76122,-0.141179,2.593,3.13775
-1.94661,-0.143672,2.806,3.41813
-1.93751,-0.143672,2.806,3.41295
-1.89747,-0.141367,2.761,3.35313
-1.88851,-0.141367,2.761,3.34807
-1.86457,-0.140241,2.739,3.31639
-1.85568,-0.140241,2.739,3.3114
-1.83196,-0.139115,2.717,3.27987
-1.82314,-0.139115,2.717,3.27495
-1.81432,-0.139115,2.717,3.27005
-1.8055,-0.139115,2.717,3.26516
-1.79668,-0.139115,2.717,3.26029
-1.78787,-0.139115,2.717,3.25544
-1.77905,-0.139115,2.717,3.25061
-1.77023,-0.139115,2.717,3.24579
-1.76141,-0.139115,2.717,3.24099
-1.76678,-0.140241,2.739,3.26241
-1.75789,-0.140241,2.739,3.2576
-1.76305,-0.141367,2.761,3.27894
-1.78268,-0.143672,2.806,3.32749
-1.77357,-0.143672,2.806,3.32262
-1.80911,-0.147307,2.877,3.40172
-1.79977,-0.147307,2.877,3.39676
-1.79043,-0.147307,2.877,3.39183
-1.79595,-0.148536,2.901,3.41516
-1.78654,-0.148536,2.901,3.41022
-1.79244,-0.149816,2.926,3.43464
-1.78294,-0.149816,2.926,3.42969
-1.78859,-0.151096,2.951,3.45403
-1.77902,-0.151096,2.951,3.44908
-1.76944,-0.151096,2.951,3.44415
-1.74495,-0.149816,2.926,3.4101
-1.73545,-0.149816,2.926,3.40525
-1.72596,-0.149816,2.926,3.40042
-1.71646,-0.149816,2.926,3.39561
-1.70696,-0.149816,2.926,3.39082
nan,nan,nan,NaN
nan,nan,nan,NaN
nan,nan,nan,NaN
nan,nan,nan,NaN
nan,nan,nan,NaN
nan,nan,nan,NaN
nan,nan,nan,NaN
nan,nan,nan,NaN
nan,nan,nan,NaN
nan,nan,nan,NaN
nan,nan,nan,NaN
nan,nan,nan,NaN
nan,nan,nan,NaN
nan,nan,nan,NaN
nan,nan,nan,NaN
nan,nan,nan,NaN
nan,nan,nan,NaN
nan,nan,nan,NaN
nan,nan,nan,NaN
nan,nan,nan,NaN
nan,nan,nan,NaN
nan,nan,nan,NaN
nan,nan,nan,NaN
nan,nan,nan,NaN
nan,nan,nan,NaN
nan,nan,nan,NaN
nan,nan,nan,NaN
-1.23961,-0.128874,2.517,2.80865
-1.22264,-0.127953,2.499,2.785
-1.21453,-0.127953,2.499,2.78145
-1.20641,-0.127953,2.499,2.77791
-1.18967,-0.127031,2.481,2.75442
-1.18162,-0.127031,2.481,2.75095
-1.17357,-0.127031,2.481,2.7475
-1.15706,-0.126109,2.463,2.72416
-1.14906,-0.126109,2.463,2.72078
-1.13273,-0.125188,2.445,2.69755
-1.11697,-0.124317,2.428,2.67549
-1.10909,-0.124317,2.428,2.67221
-1.10121,-0.124317,2.428,2.66895
-1.08568,-0.123447,2.411,2.64705
-1.07025,-0.122576,2.394,2.6252
-1.06248,-0.122576,2.394,2.62205
-1.05471,-0.122576,2.394,2.61891
-1.04694,-0.122576,2.394,2.61579
-1.03917,-0.122576,2.394,2.61269
-1.0314,-0.122576,2.394,2.60961
-1.02363,-0.122576,2.394,2.60655
-1.01586,-0.122576,2.394,2.6035
-1.00809,-0.122576,2.394,2.60048
-1.00032,-0.122576,2.394,2.59748
-0.9855,-0.121706,2.377,2.57607
-0.977785,-0.121706,2.377,2.57313
-0.970069,-0.121706,2.377,2.57021
-0.962354,-0.121706,2.377,2.56731
-0.954639,-0.121706,2.377,2.56443
-0.946924,-0.121706,2.377,2.56156
-0.939209,-0.121706,2.377,2.55872
-0.931494,-0.121706,2.377,2.5559
-0.923778,-0.121706,2.377,2.5531
-0.916063,-0.121706,2.377,2.55032
-0.908348,-0.121706,2.377,2.54756
-0.907074,-0.122576,2.394,2.56301
-0.899304,-0.122576,2.394,2.56028
-0.891534,-0.122576,2.394,2.55756
-0.883763,-0.122576,2.394,2.55486
-0.875993,-0.122576,2.394,2.55218
-0.868223,-0.122576,2.394,2.54952
-0.860452,-0.122576,2.394,2.54689
-0.852682,-0.122576,2.394,2.54427
-0.844912,-0.122576,2.394,2.54168
-0.837141,-0.122576,2.394,2.53911
-0.829371,-0.122576,2.394,2.53656
-0.821601,-0.122576,2.394,2.53403
-0.81383,-0.122576,2.394,2.53152
-0.80606,-0.122576,2.394,2.52903
-0.79829,-0.122576,2.394,2.52656
-0.790519,-0.122576,2.394,2.52412
-0.788307,-0.123447,2.411,2.5396
-0.780482,-0.123447,2.411,2.53719
-0.772656,-0.123447,2.411,2.53479
-0.764831,-0.123447,2.411,2.53242
-0.757005,-0.123447,2.411,2.53006
-0.74918,-0.123447,2.411,2.52773
-0.741354,-0.123447,2.411,2.52542
-0.733529,-0.123447,2.411,2.52314
-0.725703,-0.123447,2.411,2.52087
-0.722939,-0.124317,2.428,2.53639
-0.715059,-0.124317,2.428,2.53416
-0.707178,-0.124317,2.428,2.53194
-0.699297,-0.124317,2.428,2.52975
-0.691417,-0.124317,2.428,2.52759
-0.688322,-0.125188,2.445,2.54313
-0.680386,-0.125188,2.445,2.54099
-0.67245,-0.125188,2.445,2.53888
-0.669406,-0.126109,2.463,2.55546
-0.661412,-0.126109,2.463,2.55338
-0.653418,-0.126109,2.463,2.55132
-0.65014,-0.127031,2.481,2.56791
-0.642088,-0.127031,2.481,2.56589
-0.638635,-0.127953,2.499,2.58248
-0.630524,-0.127953,2.499,2.58049
-0.622413,-0.127953,2.499,2.57852
-0.618726,-0.128874,2.517,2.59513
-0.610557,-0.128874,2.517,2.5932
-0.602387,-0.128874,2.517,2.59129
-0.594218,-0.128874,2.517,2.5894
-0.590472,-0.129847,2.536,2.60707
-0.582241,-0.129847,2.536,2.60522
-0.57401,-0.129847,2.536,2.60339
-0.565778,-0.129847,2.536,2.60159
-0.557547,-0.129847,2.536,2.59981
-0.549316,-0.129847,2.536,2.59806
-0.541085,-0.129847,2.536,2.59633
-0.532853,-0.129847,2.536,2.59463
-0.524622,-0.129847,2.536,2.59295
-0.516391,-0.129847,2.536,2.5913
-0.504353,-0.128874,2.517,2.57027
-0.496183,-0.128874,2.517,2.56868
-0.488013,-0.128874,2.517,2.56711
-0.479844,-0.128874,2.517,2.56557
-0.471674,-0.128874,2.517,2.56405
-0.463505,-0.128874,2.517,2.56256
-0.455335,-0.128874,2.517,2.5611
-0.447166,-0.128874,2.517,2.55966
-0.438996,-0.128874,2.517,2.55824
-0.430827,-0.128874,2.517,2.55686
-0.422657,-0.128874,2.517,2.55549
-0.417616,-0.129847,2.536,2.57343
-0.409385,-0.129847,2.536,2.57211
-0.401154,-0.129847,2.536,2.57081
-0.392923,-0.129847,2.536,2.56954
-0.384691,-0.129847,2.536,2.5683
-0.37646,-0.129847,2.536,2.56708
-0.370988,-0.13082,2.555,2.58511
-0.362695,-0.13082,2.555,2.58393
-0.354402,-0.13082,2.555,2.58278
-0.346109,-0.13082,2.555,2.58165
-0.337816,-0.13082,2.555,2.58055
-0.329523,-0.13082,2.555,2.57948
-0.32123,-0.13082,2.555,2.57844
-0.312937,-0.13082,2.555,2.57742
-0.304645,-0.13082,2.555,2.57642
-0.296352,-0.13082,2.555,2.57545
-0.288059,-0.13082,2.555,2.57451
-0.279766,-0.13082,2.555,2.5736
-0.271473,-0.13082,2.555,2.57271
-0.26318,-0.13082,2.555,2.57185
-0.254887,-0.13082,2.555,2.57101
-0.246594,-0.13082,2.555,2.5702
-0.238301,-0.13082,2.555,2.56942
-0.231719,-0.131793,2.574,2.58777
-0.223364,-0.131793,2.574,2.58703
-0.21501,-0.131793,2.574,2.58632
-0.206655,-0.131793,2.574,2.58564
-0.196837,-0.13082,2.555,2.56591
-0.188544,-0.13082,2.555,2.56529
-0.181592,-0.131793,2.574,2.58376
-0.173237,-0.131793,2.574,2.58319
-0.164882,-0.131793,2.574,2.58264
-0.156528,-0.131793,2.574,2.58212
-0.148173,-0.131793,2.574,2.58163
-0.138787,-0.13082,2.555,2.56211
-0.130494,-0.13082,2.555,2.56167
-0.12311,-0.131793,2.574,2.58031
-0.113908,-0.13082,2.555,2.56088
-0.105615,-0.13082,2.555,2.56053
-0.0980459,-0.131793,2.574,2.57924
-0.0896914,-0.131793,2.574,2.57893
-0.0813368,-0.131793,2.574,2.57866
-0.0729822,-0.131793,2.574,2.5784
-0.0646277,-0.131793,2.574,2.57818
-0.0562731,-0.131793,2.574,2.57799
-0.0479185,-0.131793,2.574,2.57782
-0.039856,-0.132766,2.593,2.5967
-0.0314398,-0.132766,2.593,2.59659
-0.0230235,-0.132766,2.593,2.5965
-0.01472,-0.13379,2.613,2.61646
-0.00623883,-0.13379,2.613,2.61643
0.00224232,-0.13379,2.613,2.61642
0.0107235,-0.13379,2.613,2.61645
0.0192046,-0.13379,2.613,2.61649
0.0274739,-0.132766,2.593,2.59654
0.0356271,-0.131793,2.574,2.57762
0.0439817,-0.131793,2.574,2.57775
0.0523362,-0.131793,2.574,2.5779
0.0606908,-0.131793,2.574,2.57809
0.0690454,-0.131793,2.574,2.5783
0.0768286,-0.13082,2.555,2.5595
0.0851215,-0.13082,2.555,2.55976
0.0934144,-0.13082,2.555,2.56005
0.101707,-0.13082,2.555,2.56037
0.11,-0.13082,2.555,2.56071
0.118293,-0.13082,2.555,2.56108
0.126586,-0.13082,2.555,2.56148
0.134879,-0.13082,2.555,2.5619
0.143172,-0.13082,2.555,2.56235
0.151465,-0.13082,2.555,2.56283
0.159758,-0.13082,2.555,2.56333
0.1693,-0.131793,2.574,2.58293
0.177655,-0.131793,2.574,2.58349
0.186009,-0.131793,2.574,2.58408
0.195799,-0.132766,2.593,2.60377
0.204215,-0.132766,2.593,2.60442
0.212631,-0.132766,2.593,2.60509
0.222752,-0.13379,2.613,2.62589
0.231233,-0.13379,2.613,2.62662
0.239715,-0.13379,2.613,2.62738
0.248196,-0.13379,2.613,2.62817
0.256677,-0.13379,2.613,2.62898
0.265158,-0.13379,2.613,2.62982
0.273639,-0.13379,2.613,2.63069
0.28212,-0.13379,2.613,2.63159
0.290601,-0.13379,2.613,2.63251
0.296793,-0.132766,2.593,2.6133
0.30521,-0.132766,2.593,2.61427
0.313626,-0.132766,2.593,2.61527
0.319682,-0.131793,2.574,2.59712
0.328037,-0.131793,2.574,2.59816
0.333908,-0.13082,2.555,2.58005
0.342201,-0.13082,2.555,2.58113
0.350494,-0.13082,2.555,2.58224
0.358787,-0.13082,2.555,2.58338
0.36708,-0.13082,2.555,2.58455
0.375373,-0.13082,2.555,2.58574
0.380813,-0.129847,2.536,2.56772
0.389044,-0.129847,2.536,2.56895
0.397275,-0.129847,2.536,2.57021
0.405506,-0.129847,2.536,2.5715
0.413738,-0.129847,2.536,2.57281
0.418807,-0.128874,2.517,2.55486
0.426977,-0.128874,2.517,2.55621
0.435146,-0.128874,2.517,2.55759
0.443316,-0.128874,2.517,2.55899
0.448257,-0.127953,2.499,2.54211
0.456368,-0.127953,2.499,2.54355
0.464479,-0.127953,2.499,2.54502
0.47259,-0.127953,2.499,2.54651
0.480701,-0.127953,2.499,2.54803
0.488812,-0.127953,2.499,2.54957
0.496924,-0.127953,2.499,2.55114
0.505035,-0.127953,2.499,2.55273
0.513146,-0.127953,2.499,2.55435
0.521257,-0.127953,2.499,2.55599
0.529368,-0.127953,2.499,2.55766
0.537479,-0.127953,2.499,2.55935
0.54952,-0.128874,2.517,2.57951
0.55769,-0.128874,2.517,2.58126
0.565859,-0.128874,2.517,2.58304
0.578362,-0.129847,2.536,2.60435
0.586593,-0.129847,2.536,2.60619
0.594824,-0.129847,2.536,2.60806
0.603056,-0.129847,2.536,2.60995
0.611287,-0.129847,2.536,2.61186
0.619518,-0.129847,2.536,2.6138
0.632453,-0.13082,2.555,2.63536
0.640746,-0.13082,2.555,2.63736
0.649038,-0.13082,2.555,2.63939
0.657331,-0.13082,2.555,2.64144
0.665624,-0.13082,2.555,2.64352
0.668906,-0.129847,2.536,2.62595
0.677137,-0.129847,2.536,2.62805
0.685368,-0.129847,2.536,2.63019
0.693599,-0.129847,2.536,2.63234
0.70183,-0.129847,2.536,2.63453
0.710062,-0.129847,2.536,2.63673
0.718293,-0.129847,2.536,2.63896
0.726524,-0.129847,2.536,2.64121
0.734755,-0.129847,2.536,2.64349
0.742987,-0.129847,2.536,2.64579
0.751218,-0.129847,2.536,2.64811
0.759449,-0.129847,2.536,2.65046
0.76768,-0.129847,2.536,2.65283
0.775912,-0.129847,2.536,2.65522
0.784143,-0.129847,2.536,2.65764
0.798311,-0.13082,2.555,2.68001
0.800605,-0.129847,2.536,2.66254
0.808836,-0.129847,2.536,2.66503
0.817068,-0.129847,2.536,2.66754
0.825299,-0.129847,2.536,2.67007
0.827285,-0.128874,2.517,2.6526
0.835455,-0.128874,2.517,2.65516
0.843624,-0.128874,2.517,2.65774
0.845702,-0.127953,2.499,2.64132
0.853814,-0.127953,2.499,2.64393
0.861925,-0.127953,2.499,2.64656
0.863769,-0.127031,2.481,2.63013
0.865497,-0.126109,2.463,2.61369
0.873491,-0.126109,2.463,2.61634
0.881485,-0.126109,2.463,2.61902
0.87684,-0.124317,2.428,2.58447
0.88472,-0.124317,2.428,2.58715
0.886351,-0.123447,2.411,2.57173
0.894177,-0.123447,2.411,2.57443
0.895642,-0.122576,2.394,2.55899
0.903413,-0.122576,2.394,2.56172
0.898623,-0.120887,2.361,2.52912
0.900144,-0.120068,2.345,2.5147
0.907756,-0.120068,2.345,2.51743
0.909121,-0.119248,2.329,2.50299
0.910383,-0.118429,2.313,2.48853
0.917891,-0.118429,2.313,2.49129
0.919397,-0.117661,2.298,2.47789
0.926855,-0.117661,2.298,2.48067
0.934314,-0.117661,2.298,2.48346
0.941773,-0.117661,2.298,2.48628
0.949232,-0.117661,2.298,2.48911
0.962935,-0.118429,2.313,2.50823
0.970443,-0.118429,2.313,2.51113
0.97795,-0.118429,2.313,2.51404
1.00591,-0.120887,2.361,2.5692
1.03504,-0.123447,2.411,2.62668
1.04286,-0.123447,2.411,2.62978
1.07335,-0.126109,2.463,2.68967
1.1652,-0.135889,2.654,2.9017
1.17381,-0.135889,2.654,2.90517
1.18243,-0.135889,2.654,2.90866
1.23906,-0.141367,2.761,3.02958
1.27876,-0.144849,2.829,3.10796
1.28794,-0.144849,2.829,3.11175
1.33013,-0.148536,2.901,3.19486
1.37464,-0.152427,2.977,3.28259
1.38431,-0.152427,2.977,3.28665
1.40614,-0.153758,3.003,3.31947
1.41589,-0.153758,3.003,3.32361
1.42564,-0.153758,3.003,3.32778
1.43538,-0.153758,3.003,3.33196
1.45812,-0.155141,3.03,3.36617
1.46796,-0.155141,3.03,3.37044
1.47779,-0.155141,3.03,3.37474
1.47437,-0.153758,3.003,3.34894
1.48412,-0.153758,3.003,3.35325
1.49387,-0.153758,3.003,3.35757
1.50361,-0.153758,3.003,3.36192
1.51336,-0.153758,3.003,3.36629
1.52311,-0.153758,3.003,3.37068
1.54664,-0.155141,3.03,3.40544
1.58421,-0.157906,3.084,3.47069
1.62369,-0.160824,3.141,3.53951
1.63388,-0.160824,3.141,3.54419
1.65925,-0.162309,3.17,3.58167
1.70114,-0.165381,3.23,3.65433
1.71163,-0.165381,3.23,3.65922
1.73811,-0.166917,3.26,3.69817
1.76585,-0.168555,3.292,3.73951
1.81108,-0.171832,3.356,3.81736
1.82197,-0.171832,3.356,3.82254
1.83286,-0.171832,3.356,3.82775
1.84375,-0.171832,3.356,3.83297
1.85465,-0.171832,3.356,3.83823
1.84775,-0.170194,3.324,3.80685
1.85854,-0.170194,3.324,3.8121
1.86933,-0.170194,3.324,3.81737
1.88012,-0.170194,3.324,3.82267
1.89091,-0.170194,3.324,3.82799
1.88339,-0.168555,3.292,3.79642
1.89407,-0.168555,3.292,3.80173
1.90476,-0.168555,3.292,3.80707
1.91544,-0.168555,3.292,3.81243
1.9074,-0.166917,3.26,3.7807
1.91799,-0.166917,3.26,3.78604
1.92857,-0.166917,3.26,3.79142
1.93915,-0.166917,3.26,3.79681
1.93179,-0.165381,3.23,3.76723
1.94227,-0.165381,3.23,3.77262
1.95275,-0.165381,3.23,3.77803
1.92677,-0.162309,3.17,3.71318
1.93706,-0.162309,3.17,3.71853
1.92953,-0.160824,3.141,3.68983
1.92182,-0.159339,3.112,3.66105
1.93192,-0.159339,3.112,3.66637
1.92455,-0.157906,3.084,3.63866
1.93456,-0.157906,3.084,3.64397
nan,nan,nan,NaN
1.90324,-0.153758,3.003,3.55865
1.87986,-0.151096,2.951,3.50216
1.87343,-0.149816,2.926,3.4776
1.88293,-0.149816,2.926,3.48272
1.86074,-0.147307,2.877,3.42946
1.83887,-0.144849,2.829,3.37723
1.84806,-0.144849,2.829,3.38224
1.82704,-0.142494,2.783,3.33219
1.80704,-0.140241,2.739,3.28439
1.81593,-0.140241,2.739,3.28929
1.79618,-0.138039,2.696,3.24249
1.79087,-0.136964,2.675,3.22205
1.79955,-0.136964,2.675,3.22688
1.77984,-0.134814,2.633,3.18099
1.76122,-0.132766,2.593,3.13738
-1.93066,-0.133464,2.783,3.38974
-1.92163,-0.133464,2.783,3.3846
-1.89747,-0.132408,2.761,3.35277
-1.88851,-0.132408,2.761,3.34771
-1.86457,-0.131353,2.739,3.31602
-1.85568,-0.131353,2.739,3.31103
-1.83196,-0.130298,2.717,3.2795
-1.82314,-0.130298,2.717,3.27459
-1.81432,-0.130298,2.717,3.26968
-1.8055,-0.130298,2.717,3.2648
-1.79668,-0.130298,2.717,3.25993
-1.78787,-0.130298,2.717,3.25508
-1.77905,-0.130298,2.717,3.25024
-1.77023,-0.130298,2.717,3.24542
-1.76141,-0.130298,2.717,3.24062
-1.76678,-0.131353,2.739,3.26204
-1.75789,-0.131353,2.739,3.25723
-1.76305,-0.132408,2.761,3.27857
-1.78268,-0.134567,2.806,3.32711
-1.77357,-0.134567,2.806,3.32224
-1.79402,-0.13682,2.853,3.37296
-1.79977,-0.137971,2.877,3.39637
-1.79043,-0.137971,2.877,3.39143
-1.79595,-0.139122,2.901,3.41476
-1.78654,-0.139122,2.901,3.40982
-1.79244,-0.140321,2.926,3.43424
-1.78294,-0.140321,2.926,3.42929
-1.78859,-0.14152,2.951,3.45362
-1.77902,-0.14152,2.951,3.44867
-1.76944,-0.14152,2.951,3.44374
-1.74495,-0.140321,2.926,3.40969
-1.73545,-0.140321,2.926,3.40484
-1.72596,-0.140321,2.926,3.40001
-1.71646,-0.140321,2.926,3.3952
-1.70696,-0.140321,2.926,3.39041
nan,nan,nan,NaN
nan,nan,nan,NaN
nan,nan,nan,NaN
nan,nan,nan,NaN
nan,nan,nan,NaN
nan,nan,nan,NaN
nan,nan,nan,NaN
nan,nan,nan,NaN
nan,nan,nan,NaN
nan,nan,nan,NaN
nan,nan,nan,NaN
nan,nan,nan,NaN
nan,nan,nan,NaN
nan,nan,nan,NaN
nan,nan,nan,NaN
nan,nan,nan,NaN
nan,nan,nan,NaN
nan,nan,nan,NaN
nan,nan,nan,NaN
nan,nan,nan,NaN
nan,nan,nan,NaN
nan,nan,nan,NaN
nan,nan,nan,NaN
nan,nan,nan,NaN
nan,nan,nan,NaN
nan,nan,nan,NaN
nan,nan,nan,NaN
-1.23961,-0.120707,2.517,2.80829
-1.23144,-0.120707,2.517,2.80469
-1.22327,-0.120707,2.517,2.80112
-1.20641,-0.119844,2.499,2.77755
-1.18967,-0.118981,2.481,2.75406
-1.18162,-0.118981,2.481,2.75059
-1.17357,-0.118981,2.481,2.74714
-1.15706,-0.118117,2.463,2.7238
-1.14906,-0.118117,2.463,2.72042
-1.13273,-0.117254,2.445,2.69719
-1.12479,-0.117254,2.445,2.69387
-1.10909,-0.116439,2.428,2.67186
-1.10121,-0.116439,2.428,2.6686
-1.08568,-0.115624,2.411,2.64669
-1.07785,-0.115624,2.411,2.64349
-1.07003,-0.115624,2.411,2.64031
-1.0622,-0.115624,2.411,2.63715
-1.05437,-0.115624,2.411,2.63401
-1.04655,-0.115624,2.411,2.63088
-1.0314,-0.114808,2.394,2.60925
-1.02363,-0.114808,2.394,2.60619
-1.01586,-0.114808,2.394,2.60315
-1.00809,-0.114808,2.394,2.60013
-1.00032,-0.114808,2.394,2.59712
-0.992548,-0.114808,2.394,2.59414
-0.984778,-0.114808,2.394,2.59118
-0.977007,-0.114808,2.394,2.58823
-0.969237,-0.114808,2.394,2.58531
-0.961466,-0.114808,2.394,2.58241
-0.953696,-0.114808,2.394,2.57953
-0.945926,-0.114808,2.394,2.57666
-0.938156,-0.114808,2.394,2.57382
-0.930385,-0.114808,2.394,2.571
-0.922615,-0.114808,2.394,2.5682
-0.914845,-0.114808,2.394,2.56542
-0.907074,-0.114808,2.394,2.56266
-0.899304,-0.114808,2.394,2.55992
-0.891534,-0.114808,2.394,2.5572
-0.883763,-0.114808,2.394,2.5545
-0.875993,-0.114808,2.394,2.55182
-0.868223,-0.114808,2.394,2.54916
-0.860452,-0.114808,2.394,2.54653
-0.852682,-0.114808,2.394,2.54391
-0.844912,-0.114808,2.394,2.54132
-0.837141,-0.114808,2.394,2.53874
-0.829371,-0.114808,2.394,2.53619
-0.821601,-0.114808,2.394,2.53366
-0.81383,-0.114808,2.394,2.53115
-0.811784,-0.115624,2.411,2.54662
-0.803958,-0.115624,2.411,2.54414
-0.796133,-0.115624,2.411,2.54168
-0.788307,-0.115624,2.411,2.53924
-0.780482,-0.115624,2.411,2.53682
-0.772656,-0.115624,2.411,2.53442
-0.764831,-0.115624,2.411,2.53205
-0.757005,-0.115624,2.411,2.52969
-0.74918,-0.115624,2.411,2.52736
-0.741354,-0.115624,2.411,2.52505
-0.733529,-0.115624,2.411,2.52277
-0.725703,-0.115624,2.411,2.5205
-0.722939,-0.116439,2.428,2.53602
-0.715059,-0.116439,2.428,2.53378
-0.707178,-0.116439,2.428,2.53157
-0.699297,-0.116439,2.428,2.52938
-0.691417,-0.116439,2.428,2.52721
-0.688322,-0.117254,2.445,2.54275
-0.680386,-0.117254,2.445,2.54061
-0.67245,-0.117254,2.445,2.5385
-0.669406,-0.118117,2.463,2.55508
-0.661412,-0.118117,2.463,2.553
-0.658193,-0.118981,2.481,2.56958
-0.65014,-0.118981,2.481,2.56753
-0.642088,-0.118981,2.481,2.5655
-0.638635,-0.119844,2.499,2.5821
-0.630524,-0.119844,2.499,2.5801
-0.626896,-0.120707,2.517,2.5967
-0.618726,-0.120707,2.517,2.59474
-0.610557,-0.120707,2.517,2.59281
-0.602387,-0.120707,2.517,2.59089
-0.594218,-0.120707,2.517,2.58901
-0.590472,-0.121618,2.536,2.60667
-0.582241,-0.121618,2.536,2.60482
-0.57401,-0.121618,2.536,2.60299
-0.565778,-0.121618,2.536,2.60119
-0.557547,-0.121618,2.536,2.59941
-0.549316,-0.121618,2.536,2.59766
-0.545139,-0.122529,2.555,2.61538
-0.532853,-0.121618,2.536,2.59423
-0.524622,-0.121618,2.536,2.59255
-0.516391,-0.121618,2.536,2.5909
-0.50816,-0.121618,2.536,2.58927
-0.499929,-0.121618,2.536,2.58767
-0.491697,-0.121618,2.536,2.58609
-0.479844,-0.120707,2.517,2.56517
-0.471674,-0.120707,2.517,2.56366
-0.463505,-0.120707,2.517,2.56217
-0.455335,-0.120707,2.517,2.5607
-0.447166,-0.120707,2.517,2.55926
-0.438996,-0.120707,2.517,2.55785
-0.430827,-0.120707,2.517,2.55646
-0.422657,-0.120707,2.517,2.55509
-0.417616,-0.121618,2.536,2.57303
-0.409385,-0.121618,2.536,2.57171
-0.401154,-0.121618,2.536,2.57041
-0.392923,-0.121618,2.536,2.56914
-0.384691,-0.121618,2.536,2.56789
-0.37646,-0.121618,2.536,2.56667
-0.370988,-0.122529,2.555,2.5847
-0.362695,-0.122529,2.555,2.58352
-0.354402,-0.122529,2.555,2.58237
-0.346109,-0.122529,2.555,2.58125
-0.337816,-0.122529,2.555,2.58015
-0.329523,-0.122529,2.555,2.57907
-0.32123,-0.122529,2.555,2.57803
-0.312937,-0.122529,2.555,2.57701
-0.304645,-0.122529,2.555,2.57601
-0.296352,-0.122529,2.555,2.57505
-0.288059,-0.122529,2.555,2.57411
-0.279766,-0.122529,2.555,2.57319
-0.271473,-0.122529,2.555,2.5723
-0.26318,-0.122529,2.555,2.57144
-0.254887,-0.122529,2.555,2.5706
-0.246594,-0.122529,2.555,2.5698
-0.238301,-0.122529,2.555,2.56901
-0.230009,-0.122529,2.555,2.56826
-0.221716,-0.122529,2.555,2.56753
-0.213423,-0.122529,2.555,2.56682
-0.20513,-0.122529,2.555,2.56615
-0.196837,-0.122529,2.555,2.5655
-0.188544,-0.122529,2.555,2.56488
-0.180251,-0.122529,2.555,2.56428
-0.171958,-0.122529,2.555,2.56371
-0.163665,-0.122529,2.555,2.56317
-0.155372,-0.122529,2.555,2.56265
-0.14708,-0.122529,2.555,2.56216
-0.138787,-0.122529,2.555,2.5617
-0.130494,-0.122529,2.555,2.56126
-0.122201,-0.122529,2.555,2.56085
-0.113908,-0.122529,2.555,2.56047
-0.105615,-0.122529,2.555,2.56012
-0.0973222,-0.122529,2.555,2.55979
-0.0890293,-0.122529,2.555,2.55949
-0.0813368,-0.123441,2.574,2.57824
-0.0729822,-0.123441,2.574,2.57799
-0.0646277,-0.123441,2.574,2.57777
-0.0562731,-0.123441,2.574,2.57757
-0.0479185,-0.123441,2.574,2.5774
-0.039856,-0.124352,2.593,2.59629
-0.0314398,-0.124352,2.593,2.59617
-0.0230235,-0.124352,2.593,2.59608
-0.01472,-0.125311,2.613,2.61604
-0.00623883,-0.125311,2.613,2.61601
0.00224232,-0.125311,2.613,2.616
0.0107235,-0.125311,2.613,2.61603
0.0192046,-0.125311,2.613,2.61607
0.0274739,-0.124352,2.593,2.59613
0.0356271,-0.123441,2.574,2.5772
0.0439817,-0.123441,2.574,2.57733
0.0523362,-0.123441,2.574,2.57749
0.0602428,-0.122529,2.555,2.55865
0.0685357,-0.122529,2.555,2.55885
0.0768286,-0.122529,2.555,2.55909
0.0851215,-0.122529,2.555,2.55935
0.0934144,-0.122529,2.555,2.55964
0.100951,-0.121618,2.536,2.54092
0.109182,-0.121618,2.536,2.54126
0.117413,-0.121618,2.536,2.54163
0.125645,-0.121618,2.536,2.54202
0.133876,-0.121618,2.536,2.54244
0.143172,-0.122529,2.555,2.56194
0.151465,-0.122529,2.555,2.56242
0.159758,-0.122529,2.555,2.56292
0.16805,-0.122529,2.555,2.56345
0.177655,-0.123441,2.574,2.58307
0.186009,-0.123441,2.574,2.58366
0.195799,-0.124352,2.593,2.60335
0.204215,-0.124352,2.593,2.604
0.212631,-0.124352,2.593,2.60467
0.221047,-0.124352,2.593,2.60537
0.231233,-0.125311,2.613,2.6262
0.239715,-0.125311,2.613,2.62696
0.248196,-0.125311,2.613,2.62775
0.256677,-0.125311,2.613,2.62857
0.265158,-0.125311,2.613,2.62941
0.273639,-0.125311,2.613,2.63028
0.28212,-0.125311,2.613,2.63117
0.290601,-0.125311,2.613,2.63209
0.296793,-0.124352,2.593,2.61289
0.30521,-0.124352,2.593,2.61386
0.313626,-0.124352,2.593,2.61486
0.319682,-0.123441,2.574,2.59671
0.328037,-0.123441,2.574,2.59775
0.333908,-0.122529,2.555,2.57964
0.342201,-0.122529,2.555,2.58072
0.350494,-0.122529,2.555,2.58184
0.358787,-0.122529,2.555,2.58298
0.36708,-0.122529,2.555,2.58414
0.375373,-0.122529,2.555,2.58533
0.380813,-0.121618,2.536,2.56731
0.389044,-0.121618,2.536,2.56855
0.397275,-0.121618,2.536,2.56981
0.405506,-0.121618,2.536,2.57109
0.413738,-0.121618,2.536,2.5724
0.418807,-0.120707,2.517,2.55446
0.426977,-0.120707,2.517,2.55581
0.435146,-0.120707,2.517,2.55719
0.443316,-0.120707,2.517,2.55859
0.448257,-0.119844,2.499,2.54171
0.456368,-0.119844,2.499,2.54315
0.464479,-0.119844,2.499,2.54462
0.47259,-0.119844,2.499,2.54612
0.480701,-0.119844,2.499,2.54763
0.488812,-0.119844,2.499,2.54918
0.496924,-0.119844,2.499,2.55074
0.505035,-0.119844,2.499,2.55234
0.513146,-0.119844,2.499,2.55395
0.521257,-0.119844,2.499,2.5556
0.529368,-0.119844,2.499,2.55726
0.537479,-0.119844,2.499,2.55895
0.54952,-0.120707,2.517,2.57911
0.55769,-0.120707,2.517,2.58087
0.570131,-0.121618,2.536,2.60214
0.578362,-0.121618,2.536,2.60396
0.586593,-0.121618,2.536,2.6058
0.594824,-0.121618,2.536,2.60766
0.607574,-0.122529,2.555,2.6291
0.615867,-0.122529,2.555,2.63103
0.62416,-0.122529,2.555,2.63299
0.637156,-0.123441,2.574,2.65456
0.64551,-0.123441,2.574,2.65658
0.653865,-0.123441,2.574,2.65862
0.657331,-0.122529,2.555,2.64105
0.665624,-0.122529,2.555,2.64312
0.673917,-0.122529,2.555,2.64522
0.68221,-0.122529,2.555,2.64735
0.690503,-0.122529,2.555,2.6495
0.693599,-0.121618,2.536,2.63195
0.70183,-0.121618,2.536,2.63413
0.710062,-0.121618,2.536,2.63634
0.718293,-0.121618,2.536,2.63857
0.726524,-0.121618,2.536,2.64082
0.734755,-0.121618,2.536,2.6431
0.742987,-0.121618,2.536,2.6454
0.751218,-0.121618,2.536,2.64772
0.759449,-0.121618,2.536,2.65007
0.76768,-0.121618,2.536,2.65244
0.775912,-0.121618,2.536,2.65483
0.784143,-0.121618,2.536,2.65725
