-1.12508,0.665102,2.463,2.78829
-1.11709,0.665102,2.463,2.78507
-1.10099,0.660241,2.445,2.76154
-1.09305,0.660241,2.445,2.75839
-1.08512,0.660241,2.445,2.75525
-1.06969,0.65565,2.428,2.733
-1.06181,0.65565,2.428,2.72993
-1.05393,0.65565,2.428,2.72687
-1.04605,0.65565,2.428,2.72384
-1.03817,0.65565,2.428,2.72082
-1.03029,0.65565,2.428,2.71782
-1.02241,0.65565,2.428,2.71484
-1.01452,0.65565,2.428,2.71189
-1.00664,0.65565,2.428,2.70895
-0.998763,0.65565,2.428,2.70603
-0.990883,0.65565,2.428,2.70313
-0.983002,0.65565,2.428,2.70025
-0.968294,0.65106,2.411,2.67851
-0.960468,0.65106,2.411,2.67569
-0.952643,0.65106,2.411,2.67289
-0.944817,0.65106,2.411,2.67011
-0.936992,0.65106,2.411,2.66735
-0.929166,0.65106,2.411,2.66461
-0.921341,0.65106,2.411,2.66189
-0.913515,0.65106,2.411,2.65919
-0.912076,0.65565,2.428,2.67525
-0.904195,0.65565,2.428,2.67257
-0.896315,0.65565,2.428,2.66991
-0.894654,0.660241,2.445,2.68595
-0.893246,0.665102,2.463,2.70308
-0.885252,0.665102,2.463,2.70044
-0.883669,0.669963,2.481,2.71755
-0.881969,0.674823,2.499,2.73464
-0.873858,0.674823,2.499,2.73203
-0.865747,0.674823,2.499,2.72945
-0.857636,0.674823,2.499,2.72689
-0.849525,0.674823,2.499,2.72435
-0.841413,0.674823,2.499,2.72183
-0.839304,0.679684,2.517,2.73892
-0.831135,0.679684,2.517,2.73643
-0.822965,0.679684,2.517,2.73396
-0.820946,0.684815,2.536,2.75213
-0.812715,0.684815,2.536,2.74969
-0.810511,0.689945,2.555,2.76785
-0.802218,0.689945,2.555,2.76543
-0.799829,0.695076,2.574,2.78358
-0.791475,0.695076,2.574,2.78119
-0.78312,0.695076,2.574,2.77883
-0.769047,0.689945,2.555,2.75599
-0.760754,0.689945,2.555,2.75369
-0.752461,0.689945,2.555,2.75141
-0.744168,0.689945,2.555,2.74915
-0.735875,0.689945,2.555,2.74692
-0.727582,0.689945,2.555,2.74471
-0.71394,0.684815,2.536,2.72213
-0.700422,0.679684,2.517,2.6996
-0.692252,0.679684,2.517,2.69749
-0.679191,0.674823,2.499,2.67613
-0.666246,0.669963,2.481,2.65482
-0.658193,0.669963,2.481,2.65282
-0.645424,0.665102,2.463,2.6316
-0.632771,0.660241,2.445,2.61043
-0.624835,0.660241,2.445,2.60852
-0.616899,0.660241,2.445,2.60663
-0.604729,0.65565,2.428,2.58665
-0.596848,0.65565,2.428,2.58482
-0.584844,0.65106,2.411,2.56493
-0.57295,0.646469,2.394,2.54508
-0.56518,0.646469,2.394,2.54334
-0.565326,0.65565,2.428,2.57772
-0.557445,0.65565,2.428,2.57601
-0.545717,0.65106,2.411,2.55629
-0.537891,0.65106,2.411,2.55463
-0.530066,0.65106,2.411,2.55299
-0.518558,0.646469,2.394,2.53339
-0.510787,0.646469,2.394,2.53181
-0.503017,0.646469,2.394,2.53025
-0.495247,0.646469,2.394,2.52872
-0.487476,0.646469,2.394,2.52721
-0.479706,0.646469,2.394,2.52572
-0.471936,0.646469,2.394,2.52426
-0.464165,0.646469,2.394,2.52282
-0.456395,0.646469,2.394,2.5214
-0.448625,0.646469,2.394,2.52
-0.443985,0.65106,2.411,2.53652
-0.436159,0.65106,2.411,2.53516
-0.428334,0.65106,2.411,2.53383
-0.420508,0.65106,2.411,2.53251
-0.412683,0.65106,2.411,2.53123
-0.404857,0.65106,2.411,2.52996
-0.399831,0.65565,2.428,2.54655
-0.391951,0.65565,2.428,2.54533
-0.378692,0.646469,2.394,2.5085
-0.370921,0.646469,2.394,2.50734
-0.363151,0.646469,2.394,2.5062
-0.355381,0.646469,2.394,2.50509
-0.34761,0.646469,2.394,2.504
-0.337427,0.641879,2.377,2.48515
-0.329712,0.641879,2.377,2.48412
-0.319829,0.637558,2.361,2.46639
-0.31005,0.633237,2.345,2.4487
-0.302439,0.633237,2.345,2.44775
-0.292816,0.628917,2.329,2.43013
-0.285257,0.628917,2.329,2.42923
-0.277698,0.628917,2.329,2.42835
-0.270138,0.628917,2.329,2.4275
-0.262579,0.628917,2.329,2.42667
-0.255019,0.628917,2.329,2.42586
-0.24746,0.628917,2.329,2.42508
-0.239901,0.628917,2.329,2.42432
-0.232341,0.628917,2.329,2.42358
-0.224782,0.628917,2.329,2.42287
-0.217223,0.628917,2.329,2.42218
-0.209663,0.628917,2.329,2.42152
-0.202104,0.628917,2.329,2.42087
-0.194545,0.628917,2.329,2.42025
-0.186985,0.628917,2.329,2.41966
-0.180659,0.633237,2.345,2.4357
-0.173047,0.633237,2.345,2.43515
-0.165436,0.633237,2.345,2.43462
-0.156748,0.628917,2.329,2.41751
-0.149189,0.628917,2.329,2.41703
-0.141629,0.628917,2.329,2.41658
-0.133149,0.624596,2.313,2.39955
-0.125641,0.624596,2.313,2.39914
-0.118134,0.624596,2.313,2.39876
-0.110626,0.624596,2.313,2.3984
-0.103832,0.628917,2.329,2.41465
-0.096273,0.628917,2.329,2.41434
-0.0887137,0.628917,2.329,2.41405
-0.0811543,0.628917,2.329,2.41379
-0.073595,0.628917,2.329,2.41354
-0.0660356,0.628917,2.329,2.41333
-0.0584762,0.628917,2.329,2.41313
-0.0509169,0.628917,2.329,2.41296
-0.0433575,0.628917,2.329,2.41281
-0.0357982,0.628917,2.329,2.41269
-0.0282388,0.628917,2.329,2.41259
-0.0206795,0.628917,2.329,2.41251
-0.0131201,0.628917,2.329,2.41246
-0.00556075,0.628917,2.329,2.41243
0.00199861,0.628917,2.329,2.41242
0.0094923,0.624596,2.313,2.39587
0.0169997,0.624596,2.313,2.39591
0.0245072,0.624596,2.313,2.39597
0.0320146,0.624596,2.313,2.39606
0.039522,0.624596,2.313,2.39617
0.0470294,0.624596,2.313,2.39631
0.0545368,0.624596,2.313,2.39647
0.0620443,0.624596,2.313,2.39665
0.0695517,0.624596,2.313,2.39686
0.0770591,0.624596,2.313,2.39709
0.0845665,0.624596,2.313,2.39734
0.092074,0.624596,2.313,2.39762
0.0989356,0.620546,2.298,2.38237
0.106394,0.620546,2.298,2.38269
0.113853,0.620546,2.298,2.38303
0.121312,0.620546,2.298,2.3834
0.127874,0.616225,2.282,2.36719
0.135281,0.616225,2.282,2.36761
0.142688,0.616225,2.282,2.36804
0.150094,0.616225,2.282,2.3685
0.157501,0.616225,2.282,2.36898
0.164908,0.616225,2.282,2.36948
0.172315,0.616225,2.282,2.37001
0.179722,0.616225,2.282,2.37056
0.187128,0.616225,2.282,2.37113
0.194535,0.616225,2.282,2.37173
0.200615,0.612175,2.267,2.35675
0.207973,0.612175,2.267,2.35739
0.216756,0.616225,2.282,2.37366
0.224162,0.616225,2.282,2.37434
0.230047,0.612175,2.267,2.35944
0.237405,0.612175,2.267,2.36017
0.243144,0.608124,2.252,2.3453
0.250453,0.608124,2.252,2.34607
0.257763,0.608124,2.252,2.34686
0.265072,0.608124,2.252,2.34768
0.272382,0.608124,2.252,2.34851
0.279691,0.608124,2.252,2.34937
0.287,0.608124,2.252,2.35025
0.29431,0.608124,2.252,2.35116
0.301619,0.608124,2.252,2.35208
0.308929,0.608124,2.252,2.35303
0.316238,0.608124,2.252,2.354
0.323548,0.608124,2.252,2.355
0.333061,0.612175,2.267,2.3717
0.340419,0.612175,2.267,2.37275
0.347777,0.612175,2.267,2.37381
0.355135,0.612175,2.267,2.3749
0.362493,0.612175,2.267,2.37602
0.369851,0.612175,2.267,2.37715
0.377209,0.612175,2.267,2.3783
0.387112,0.616225,2.282,2.39523
0.394519,0.616225,2.282,2.39644
0.401926,0.616225,2.282,2.39767
0.409333,0.616225,2.282,2.39892
0.416739,0.616225,2.282,2.40019
0.429908,0.624596,2.313,2.43411
0.437415,0.624596,2.313,2.43545
0.444923,0.624596,2.313,2.43681
0.45243,0.624596,2.313,2.43819
0.459938,0.624596,2.313,2.4396
0.470679,0.628917,2.329,2.45791
0.478238,0.628917,2.329,2.45937
0.485797,0.628917,2.329,2.46085
0.493357,0.628917,2.329,2.46235
0.497475,0.624596,2.313,2.44695
0.504982,0.624596,2.313,2.44849
0.51249,0.624596,2.313,2.45005
0.519997,0.624596,2.313,2.45163
0.527505,0.624596,2.313,2.45323
0.535012,0.624596,2.313,2.45486
0.539001,0.620546,2.298,2.44057
0.54646,0.620546,2.298,2.44223
0.553919,0.620546,2.298,2.44391
0.557469,0.616225,2.282,2.42859
0.564875,0.616225,2.282,2.4303
0.568521,0.612175,2.267,2.41604
0.575879,0.612175,2.267,2.41778
0.583237,0.612175,2.267,2.41955
0.594503,0.616225,2.282,2.43735
0.60191,0.616225,2.282,2.43917
0.609316,0.616225,2.282,2.44101
0.616723,0.616225,2.282,2.44287
0.62413,0.616225,2.282,2.44475
0.631537,0.616225,2.282,2.44665
0.634744,0.612175,2.267,2.43248
0.642102,0.612175,2.267,2.43441
0.64946,0.612175,2.267,2.43636
0.656818,0.612175,2.267,2.43833
0.664176,0.612175,2.267,2.44032
0.671534,0.612175,2.267,2.44234
0.678892,0.612175,2.267,2.44437
0.686251,0.612175,2.267,2.44642
0.693609,0.612175,2.267,2.4485
0.700967,0.612175,2.267,2.45059
0.713012,0.616225,2.282,2.46894
0.72547,0.620546,2.298,2.48841
0.727825,0.616225,2.282,2.47325
0.730399,0.612175,2.267,2.45917
0.737757,0.612175,2.267,2.46137
0.740185,0.608124,2.252,2.44728
0.747495,0.608124,2.252,2.4495
0.749777,0.604073,2.237,2.43541
0.757037,0.604073,2.237,2.43766
0.754731,0.596512,2.209,2.40938
0.761901,0.596512,2.209,2.41164
0.769071,0.596512,2.209,2.41391
0.761482,0.585171,2.167,2.37027
0.763551,0.58139,2.153,2.35721
0.770539,0.58139,2.153,2.35948
0.772832,0.57788,2.14,2.34751
0.774677,0.574099,2.126,2.33444
0.781577,0.574099,2.126,2.33673
0.788478,0.574099,2.126,2.33905
0.795378,0.574099,2.126,2.34139
0.802279,0.574099,2.126,2.34374
0.809179,0.574099,2.126,2.34611
0.81608,0.574099,2.126,2.3485
0.8284,0.57788,2.14,2.36639
0.835345,0.57788,2.14,2.36883
0.842291,0.57788,2.14,2.37129
0.854396,0.58139,2.153,2.38818
0.866985,0.585171,2.167,2.40624
0.874019,0.585171,2.167,2.40878
0.886338,0.588681,2.18,2.42581
0.899151,0.592462,2.194,2.444
0.906273,0.592462,2.194,2.44663
0.919638,0.596512,2.209,2.46602
0.926808,0.596512,2.209,2.4687
0.945817,0.604073,2.237,2.50273
0.953077,0.604073,2.237,2.50548
0.966778,0.608124,2.252,2.52507
0.974087,0.608124,2.252,2.52788
0.981397,0.608124,2.252,2.5307
0.995292,0.612175,2.267,2.55042
1.00928,0.616225,2.282,2.5702
1.01669,0.616225,2.282,2.57311
1.0241,0.616225,2.282,2.57605
1.03874,0.620546,2.298,2.59709
1.05302,0.624596,2.313,2.61705
1.06053,0.624596,2.313,2.62008
1.06804,0.624596,2.313,2.62313
1.07555,0.624596,2.313,2.62619
1.08305,0.624596,2.313,2.62928
1.09811,0.628917,2.329,2.65059
1.11326,0.633237,2.345,2.67196
1.12087,0.633237,2.345,2.67514
1.12848,0.633237,2.345,2.67834
1.14385,0.637558,2.361,2.69985
1.15151,0.637558,2.361,2.7031
1.15917,0.637558,2.361,2.70638
1.16684,0.637558,2.361,2.70967
1.1745,0.637558,2.361,2.71298
1.18216,0.637558,2.361,2.7163
1.18983,0.637558,2.361,2.71965
1.19749,0.637558,2.361,2.72301
1.20515,0.637558,2.361,2.72639
1.22103,0.641879,2.377,2.74828
1.22875,0.641879,2.377,2.75172
1.23646,0.641879,2.377,2.75517
1.24418,0.641879,2.377,2.75864
1.25189,0.641879,2.377,2.76213
1.25961,0.641879,2.377,2.76564
1.26732,0.641879,2.377,2.76916
1.27504,0.641879,2.377,2.7727
1.28275,0.641879,2.377,2.77626
1.29047,0.641879,2.377,2.77983
1.29819,0.641879,2.377,2.78342
1.3059,0.641879,2.377,2.78703
1.30477,0.637558,2.361,2.77186
1.31244,0.637558,2.361,2.77548
1.3201,0.637558,2.361,2.77911
1.32776,0.637558,2.361,2.78276
1.33543,0.637558,2.361,2.78643
1.34309,0.637558,2.361,2.79011
1.3416,0.633237,2.345,2.77487
1.34,0.628917,2.329,2.7596
1.34756,0.628917,2.329,2.76328
1.34581,0.624596,2.313,2.74796
1.34454,0.620546,2.298,2.7338
1.33377,0.612175,2.267,2.70055
1.34112,0.612175,2.267,2.70419
1.33956,0.608124,2.252,2.68993
1.3379,0.604073,2.237,2.67564
1.34516,0.604073,2.237,2.67928
1.33549,0.596512,2.209,2.64935
1.32503,0.588681,2.18,2.61814
1.33211,0.588681,2.18,2.62173
1.33919,0.588681,2.18,2.62533
1.33823,0.585171,2.167,2.61327
1.34527,0.585171,2.167,2.61688
1.34356,0.58139,2.153,2.60357
1.3424,0.57788,2.14,2.59144
1.34934,0.57788,2.14,2.59505
1.35629,0.57788,2.14,2.59867
1.35432,0.574099,2.126,2.58527
1.36122,0.574099,2.126,2.5889
1.36812,0.574099,2.126,2.59253
1.37502,0.574099,2.126,2.59618
1.39102,0.57788,2.14,2.61696
1.39796,0.57788,2.14,2.62066
1.40491,0.57788,2.14,2.62437
1.41186,0.57788,2.14,2.62809
1.4188,0.57788,2.14,2.63183
1.42575,0.57788,2.14,2.63558
1.4414,0.58139,2.153,2.65538
1.44839,0.58139,2.153,2.65918
1.45537,0.58139,2.153,2.66299
1.46236,0.58139,2.153,2.66682
-1.78567,0.703428,2.574,3.21075
-1.77731,0.703428,2.574,3.20611
-1.78202,0.708621,2.593,3.22512
-1.7736,0.708621,2.593,3.22047
-1.76518,0.708621,2.593,3.21585
-1.75677,0.708621,2.593,3.21123
-1.74835,0.708621,2.593,3.20664
-1.73994,0.708621,2.593,3.20206
-1.73152,0.708621,2.593,3.19749
-1.73639,0.714086,2.613,3.21757
-1.72791,0.714086,2.613,3.213
-1.71943,0.714086,2.613,3.20845
-1.71095,0.714086,2.613,3.20391
-1.70247,0.714086,2.613,3.19939
-1.69399,0.714086,2.613,3.19488
-1.69841,0.719552,2.633,3.21481
-1.70334,0.725291,2.654,3.23591
-1.69472,0.725291,2.654,3.23139
-1.68611,0.725291,2.654,3.22688
-1.6775,0.725291,2.654,3.22238
-1.66888,0.725291,2.654,3.21791
-1.66027,0.725291,2.654,3.21345
-1.65165,0.725291,2.654,3.20901
-1.64304,0.725291,2.654,3.20458
-1.62149,0.719552,2.633,3.17485
-1.61295,0.719552,2.633,3.1705
-1.6044,0.719552,2.633,3.16616
-1.59585,0.719552,2.633,3.16183
-1.57525,0.714086,2.613,3.13355
-1.55478,0.708621,2.593,3.10534
-1.54636,0.708621,2.593,3.10113
-1.53795,0.708621,2.593,3.09695
-1.51832,0.703428,2.574,3.07011
-1.50997,0.703428,2.574,3.06599
-1.47944,0.693043,2.536,3.01668
-1.46019,0.687851,2.517,2.99008
-1.45202,0.687851,2.517,2.9861
-1.4232,0.678013,2.481,2.93948
-1.39461,0.668175,2.445,2.893
-1.37704,0.663529,2.428,2.86909
-1.36916,0.663529,2.428,2.86532
-1.35174,0.658883,2.411,2.84152
-1.34392,0.658883,2.411,2.83781
-1.33609,0.658883,2.411,2.83411
-1.3189,0.654237,2.394,2.81047
-1.31113,0.654237,2.394,2.80684
-1.30336,0.654237,2.394,2.80321
-1.29559,0.654237,2.394,2.79961
-1.28782,0.654237,2.394,2.79602
-1.28005,0.654237,2.394,2.79245
-1.27228,0.654237,2.394,2.7889
-1.27349,0.658883,2.411,2.80514
-1.26566,0.658883,2.411,2.8016
-1.25784,0.658883,2.411,2.79807
-1.25001,0.658883,2.411,2.79456
-1.24219,0.658883,2.411,2.79107
-1.23436,0.658883,2.411,2.7876
-1.22654,0.658883,2.411,2.78414
-1.21871,0.658883,2.411,2.7807
-1.21088,0.658883,2.411,2.77728
-1.20306,0.658883,2.411,2.77388
-1.19523,0.658883,2.411,2.77049
-1.19578,0.663529,2.428,2.78664
-1.1879,0.663529,2.428,2.78326
-1.18002,0.663529,2.428,2.77991
-1.17214,0.663529,2.428,2.77657
-1.17241,0.668175,2.445,2.79267
-1.16447,0.668175,2.445,2.78935
-1.15654,0.668175,2.445,2.78605
-1.1486,0.668175,2.445,2.78276
-1.14067,0.668175,2.445,2.7795
-1.13273,0.668175,2.445,2.77625
-1.12479,0.668175,2.445,2.77302
-1.12508,0.673094,2.463,2.7902
-1.10892,0.668175,2.445,2.76662
-1.10099,0.668175,2.445,2.76345
-1.09305,0.668175,2.445,2.7603
-1.07757,0.663529,2.428,2.73799
-1.06969,0.663529,2.428,2.7349
-1.06181,0.663529,2.428,2.73183
-1.04655,0.658883,2.411,2.70967
-1.03872,0.658883,2.411,2.70666
-1.0309,0.658883,2.411,2.70366
-1.02307,0.658883,2.411,2.70069
-1.01525,0.658883,2.411,2.69774
-1.00742,0.658883,2.411,2.6948
-0.999596,0.658883,2.411,2.69188
-0.99177,0.658883,2.411,2.68899
-0.977007,0.654237,2.394,2.66717
-0.969237,0.654237,2.394,2.66434
-0.961466,0.654237,2.394,2.66152
-0.960468,0.658883,2.411,2.6776
-0.952643,0.658883,2.411,2.6748
-0.944817,0.658883,2.411,2.67203
-0.936992,0.658883,2.411,2.66927
-0.929166,0.658883,2.411,2.66653
-0.921341,0.658883,2.411,2.66382
-0.913515,0.658883,2.411,2.66112
-0.912076,0.663529,2.428,2.67719
-0.904195,0.663529,2.428,2.67451
-0.896315,0.663529,2.428,2.67186
-0.894654,0.668175,2.445,2.68792
-0.899774,0.678013,2.481,2.72482
-0.891722,0.678013,2.481,2.72217
-0.883669,0.678013,2.481,2.71955
-0.881969,0.682932,2.499,2.73665
-0.873858,0.682932,2.499,2.73405
-0.865747,0.682932,2.499,2.73147
-0.857636,0.682932,2.499,2.72891
-0.849525,0.682932,2.499,2.72637
-0.841413,0.682932,2.499,2.72385
-0.839304,0.687851,2.517,2.74096
-0.831135,0.687851,2.517,2.73847
-0.822965,0.687851,2.517,2.736
-0.820946,0.693043,2.536,2.75419
-0.812715,0.693043,2.536,2.75175
-0.810511,0.698236,2.555,2.76993
-0.802218,0.698236,2.555,2.76751
-0.799829,0.703428,2.574,2.78568
-0.791475,0.703428,2.574,2.78329
-0.78312,0.703428,2.574,2.78093
-0.769047,0.698236,2.555,2.75808
-0.760754,0.698236,2.555,2.75578
-0.752461,0.698236,2.555,2.7535
-0.744168,0.698236,2.555,2.75124
-0.735875,0.698236,2.555,2.74901
-0.727582,0.698236,2.555,2.7468
-0.71394,0.693043,2.536,2.72421
-0.700422,0.687851,2.517,2.70167
-0.692252,0.687851,2.517,2.69956
-0.679191,0.682932,2.499,2.67819
-0.666246,0.678013,2.481,2.65687
-0.658193,0.678013,2.481,2.65486
-0.645424,0.673094,2.463,2.63363
-0.632771,0.668175,2.445,2.61245
-0.624835,0.668175,2.445,2.61054
-0.616899,0.668175,2.445,2.60865
-0.604729,0.663529,2.428,2.58866
-0.596848,0.663529,2.428,2.58683
-0.584844,0.658883,2.411,2.56692
-0.57295,0.654237,2.394,2.54706
-0.56518,0.654237,2.394,2.54533
-0.557409,0.654237,2.394,2.54361
-0.549639,0.654237,2.394,2.54192
-0.541869,0.654237,2.394,2.54025
-0.534098,0.654237,2.394,2.53861
-0.526328,0.654237,2.394,2.53698
-0.518558,0.654237,2.394,2.53538
-0.510787,0.654237,2.394,2.5338
-0.499445,0.649592,2.377,2.51427
-0.49173,0.649592,2.377,2.51275
-0.487476,0.654237,2.394,2.52921
-0.479706,0.654237,2.394,2.52772
-0.471936,0.654237,2.394,2.52626
-0.460869,0.649592,2.377,2.50689
-0.453154,0.649592,2.377,2.50548
-0.445439,0.649592,2.377,2.5041
-0.440854,0.654237,2.394,2.52064
-0.433084,0.654237,2.394,2.51929
-0.425314,0.654237,2.394,2.51797
-0.417543,0.654237,2.394,2.51667
-0.409773,0.654237,2.394,2.51539
-0.402003,0.654237,2.394,2.51413
-0.394232,0.654237,2.394,2.5129
-0.389206,0.658883,2.411,2.52953
-0.378692,0.654237,2.394,2.51051
-0.370921,0.654237,2.394,2.50935
-0.360572,0.649592,2.377,2.4904
-0.352857,0.649592,2.377,2.4893
-0.342819,0.645219,2.361,2.47147
-0.332884,0.640847,2.345,2.45368
-0.325273,0.640847,2.345,2.45265
-0.317662,0.640847,2.345,2.45166
-0.305819,0.632102,2.313,2.41724
-0.298312,0.632102,2.313,2.4163
-0.290805,0.632102,2.313,2.41539
-0.28146,0.628002,2.298,2.39884
-0.274001,0.628002,2.298,2.39797
-0.264687,0.62363,2.282,2.38044
-0.25728,0.62363,2.282,2.37963
-0.249873,0.62363,2.282,2.37884
-0.242466,0.62363,2.282,2.37807
-0.235059,0.62363,2.282,2.37733
-0.229249,0.628002,2.298,2.39327
-0.22179,0.628002,2.298,2.39257
-0.214331,0.628002,2.298,2.39189
-0.206873,0.628002,2.298,2.39123
-0.199414,0.628002,2.298,2.3906
-0.191955,0.628002,2.298,2.38999
-0.184496,0.628002,2.298,2.3894
-0.177038,0.628002,2.298,2.38884
-0.169579,0.628002,2.298,2.38829
-0.16212,0.628002,2.298,2.38778
-0.154661,0.628002,2.298,2.38728
-0.147203,0.628002,2.298,2.38681
-0.139744,0.628002,2.298,2.38636
-0.132285,0.628002,2.298,2.38594
-0.124827,0.628002,2.298,2.38553
-0.117368,0.628002,2.298,2.38516
-0.109909,0.628002,2.298,2.3848
-0.10245,0.628002,2.298,2.38447
-0.0949916,0.628002,2.298,2.38416
-0.0875328,0.628002,2.298,2.38387
-0.0800741,0.628002,2.298,2.38361
-0.0726154,0.628002,2.298,2.38337
-0.0651566,0.628002,2.298,2.38316
-0.0576979,0.628002,2.298,2.38296
-0.0502392,0.628002,2.298,2.3828
-0.0427804,0.628002,2.298,2.38265
-0.0353217,0.628002,2.298,2.38253
-0.0278629,0.628002,2.298,2.38243
-0.0204042,0.628002,2.298,2.38235
-0.01303,0.632102,2.313,2.39785
-0.00552254,0.632102,2.313,2.39782
0.00197201,0.628002,2.298,2.38227
0.00943075,0.628002,2.298,2.38228
0.0168895,0.628002,2.298,2.38233
0.0243482,0.628002,2.298,2.38239
0.031807,0.628002,2.298,2.38248
0.0392657,0.628002,2.298,2.38259
0.0467244,0.628002,2.298,2.38272
0.0541832,0.628002,2.298,2.38288
0.0612127,0.62363,2.282,2.36647
0.0686195,0.62363,2.282,2.36667
0.0760263,0.62363,2.282,2.3669
0.0834331,0.62363,2.282,2.36715
0.0908399,0.62363,2.282,2.36742
0.097601,0.619531,2.267,2.35216
0.104959,0.619531,2.267,2.35247
0.112317,0.619531,2.267,2.35281
0.119675,0.619531,2.267,2.35317
0.126193,0.615431,2.252,2.33799
0.133502,0.615431,2.252,2.33839
0.140812,0.615431,2.252,2.33882
0.148121,0.615431,2.252,2.33927
0.155431,0.615431,2.252,2.33975
0.16274,0.615431,2.252,2.34024
0.170049,0.615431,2.252,2.34076
0.177359,0.615431,2.252,2.34131
0.184668,0.615431,2.252,2.34187
0.191978,0.615431,2.252,2.34246
0.199287,0.615431,2.252,2.34307
0.206597,0.615431,2.252,2.3437
0.213906,0.615431,2.252,2.34436
0.221216,0.615431,2.252,2.34504
0.228525,0.615431,2.252,2.34574
0.235834,0.615431,2.252,2.34646
0.243144,0.615431,2.252,2.34721
0.250453,0.615431,2.252,2.34798
0.257763,0.615431,2.252,2.34877
0.265072,0.615431,2.252,2.34958
0.272382,0.615431,2.252,2.35042
0.279691,0.615431,2.252,2.35127
0.287,0.615431,2.252,2.35215
0.29431,0.615431,2.252,2.35306
0.301619,0.615431,2.252,2.35398
0.308929,0.615431,2.252,2.35493
0.316238,0.615431,2.252,2.3559
0.323548,0.615431,2.252,2.35689
0.333061,0.619531,2.267,2.37361
0.340419,0.619531,2.267,2.37466
0.347777,0.619531,2.267,2.37572
0.355135,0.619531,2.267,2.37681
0.362493,0.619531,2.267,2.37792
0.369851,0.619531,2.267,2.37905
0.377209,0.619531,2.267,2.38021
0.387112,0.62363,2.282,2.39714
0.394519,0.62363,2.282,2.39835
0.401926,0.62363,2.282,2.39958
0.409333,0.62363,2.282,2.40083
0.416739,0.62363,2.282,2.40211
0.429908,0.632102,2.313,2.43605
0.437415,0.632102,2.313,2.43739
0.444923,0.632102,2.313,2.43875
0.45243,0.632102,2.313,2.44013
0.459938,0.632102,2.313,2.44153
0.470679,0.636474,2.329,2.45985
0.478238,0.636474,2.329,2.46131
0.485797,0.636474,2.329,2.46279
0.493357,0.636474,2.329,2.46429
0.497475,0.632102,2.313,2.44888
0.504982,0.632102,2.313,2.45041
0.51249,0.632102,2.313,2.45197
0.519997,0.632102,2.313,2.45355
0.527505,0.632102,2.313,2.45515
0.535012,0.632102,2.313,2.45678
0.539001,0.628002,2.298,2.44248
0.54646,0.628002,2.298,2.44414
0.553919,0.628002,2.298,2.44582
0.557469,0.62363,2.282,2.43048
0.564875,0.62363,2.282,2.43218
0.568521,0.619531,2.267,2.41792
0.575879,0.619531,2.267,2.41966
0.583237,0.619531,2.267,2.42142
0.594503,0.62363,2.282,2.43924
0.60191,0.62363,2.282,2.44105
0.609316,0.62363,2.282,2.44289
0.616723,0.62363,2.282,2.44475
0.62413,0.62363,2.282,2.44663
0.631537,0.62363,2.282,2.44853
0.634744,0.619531,2.267,2.43434
0.642102,0.619531,2.267,2.43627
0.64946,0.619531,2.267,2.43822
0.656818,0.619531,2.267,2.44019
0.664176,0.619531,2.267,2.44218
0.671534,0.619531,2.267,2.44419
0.678892,0.619531,2.267,2.44622
0.686251,0.619531,2.267,2.44827
0.693609,0.619531,2.267,2.45035
0.700967,0.619531,2.267,2.45244
0.708325,0.619531,2.267,2.45455
0.720418,0.62363,2.282,2.47294
0.723041,0.619531,2.267,2.45884
0.725566,0.615431,2.252,2.44473
0.732876,0.615431,2.252,2.44691
0.735255,0.611332,2.237,2.4328
0.737869,0.607506,2.223,2.41976
0.740392,0.60368,2.209,2.40672
0.747562,0.60368,2.209,2.40893
0.749607,0.599581,2.194,2.39479
0.751899,0.595755,2.18,2.38174
0.758975,0.595755,2.18,2.38398
0.756563,0.588376,2.153,2.35669
0.753975,0.580998,2.126,2.32936
0.760876,0.580998,2.126,2.3316
0.763082,0.577445,2.113,2.31959
0.76994,0.577445,2.113,2.32186
0.776798,0.577445,2.113,2.32414
0.783656,0.577445,2.113,2.32644
0.790515,0.577445,2.113,2.32876
0.797373,0.577445,2.113,2.3311
0.804231,0.577445,2.113,2.33345
0.81109,0.577445,2.113,2.33583
0.817948,0.577445,2.113,2.33822
0.824806,0.577445,2.113,2.34062
0.831664,0.577445,2.113,2.34305
0.843682,0.580998,2.126,2.35992
0.850582,0.580998,2.126,2.3624
0.857482,0.580998,2.126,2.36489
0.87536,0.588376,2.153,2.39747
0.888086,0.592202,2.167,2.41563
0.89512,0.592202,2.167,2.41823
0.907565,0.595755,2.18,2.43536
0.920515,0.599581,2.194,2.45367
0.933978,0.60368,2.209,2.47314
0.941148,0.60368,2.209,2.47586
0.960338,0.611332,2.237,2.51001
0.967599,0.611332,2.237,2.5128
0.97486,0.611332,2.237,2.5156
0.988706,0.615431,2.252,2.53531
1.00265,0.619531,2.267,2.55508
1.01001,0.619531,2.267,2.55797
1.0241,0.62363,2.282,2.57783
1.0315,0.62363,2.282,2.58078
1.0462,0.628002,2.298,2.60187
1.05365,0.628002,2.298,2.60488
1.06111,0.628002,2.298,2.6079
1.07555,0.632102,2.313,2.62799
1.08305,0.632102,2.313,2.63107
1.09056,0.632102,2.313,2.63417
1.10566,0.636474,2.329,2.65553
1.11322,0.636474,2.329,2.65869
1.12078,0.636474,2.329,2.66186
1.12834,0.636474,2.329,2.66505
1.1359,0.636474,2.329,2.66826
1.14346,0.636474,2.329,2.67149
1.15102,0.636474,2.329,2.67473
1.15858,0.636474,2.329,2.67799
1.16614,0.636474,2.329,2.68127
1.1737,0.636474,2.329,2.68457
1.18126,0.636474,2.329,2.68788
1.18882,0.636474,2.329,2.69121
1.19638,0.636474,2.329,2.69456
1.20394,0.636474,2.329,2.69793
1.2115,0.636474,2.329,2.70131
1.21905,0.636474,2.329,2.70471
1.22661,0.636474,2.329,2.70812
1.23417,0.636474,2.329,2.71155
1.24173,0.636474,2.329,2.715
1.24929,0.636474,2.329,2.71847
1.26549,0.640847,2.345,2.74065
1.2731,0.640847,2.345,2.74417
1.28071,0.640847,2.345,2.74771
1.28832,0.640847,2.345,2.75127
1.28709,0.636474,2.329,2.73604
1.29465,0.636474,2.329,2.73961
1.30221,0.636474,2.329,2.74319
1.30977,0.636474,2.329,2.74679
1.31733,0.636474,2.329,2.7504
1.32489,0.636474,2.329,2.75403
1.32329,0.632102,2.313,2.73873
1.3308,0.632102,2.313,2.74236
1.33831,0.632102,2.313,2.74601
1.33709,0.628002,2.298,2.73185
1.33518,0.62363,2.282,2.71646
1.32494,0.615431,2.252,2.68435
1.33225,0.615431,2.252,2.68796
1.33064,0.611332,2.237,2.67367
1.32952,0.607506,2.223,2.66053
1.33674,0.607506,2.223,2.66414
1.32642,0.599581,2.194,2.63297
1.32503,0.595755,2.18,2.61974
1.33211,0.595755,2.18,2.62333
1.3312,0.592202,2.167,2.61126
1.32156,0.584824,2.14,2.58227
1.3285,0.584824,2.14,2.58584
1.32671,0.580998,2.126,2.57247
1.33361,0.580998,2.126,2.57604
1.34052,0.580998,2.126,2.57962
1.34742,0.580998,2.126,2.58321
1.34603,0.577445,2.113,2.571
1.35289,0.577445,2.113,2.57459
1.35975,0.577445,2.113,2.5782
1.36661,0.577445,2.113,2.58183
1.37347,0.577445,2.113,2.58546
1.38882,0.580998,2.126,2.60504
1.39572,0.580998,2.126,2.60873
1.40262,0.580998,2.126,2.61243
1.40952,0.580998,2.126,2.61614
1.41642,0.580998,2.126,2.61986
1.42332,0.580998,2.126,2.6236
1.43964,0.584824,2.14,2.64465
1.44659,0.584824,2.14,2.64844
1.45353,0.584824,2.14,2.65224
-1.79885,0.717034,2.593,3.2363
-1.79043,0.717034,2.593,3.23163
-1.78202,0.717034,2.593,3.22698
-1.7736,0.717034,2.593,3.22234
-1.76518,0.717034,2.593,3.21771
-1.75677,0.717034,2.593,3.2131
-1.73554,0.71178,2.574,3.185
-1.72719,0.71178,2.574,3.18045
-1.71883,0.71178,2.574,3.17592
-1.7231,0.717034,2.593,3.19482
-1.71469,0.717034,2.593,3.19029
-1.70627,0.717034,2.593,3.18577
-1.69785,0.717034,2.593,3.18127
-1.70247,0.722565,2.613,3.20129
-1.69399,0.722565,2.613,3.19679
-1.69841,0.728095,2.633,3.21674
-1.68986,0.728095,2.633,3.21223
-1.69472,0.733903,2.654,3.23333
-1.68611,0.733903,2.654,3.22882
-1.6775,0.733903,2.654,3.22433
-1.66888,0.733903,2.654,3.21986
-1.66027,0.733903,2.654,3.2154
-1.65165,0.733903,2.654,3.21096
-1.64304,0.733903,2.654,3.20654
-1.62149,0.728095,2.633,3.1768
-1.61295,0.728095,2.633,3.17245
-1.6044,0.728095,2.633,3.16811
-1.59585,0.728095,2.633,3.16379
-1.57525,0.722565,2.613,3.13549
-1.55478,0.717034,2.593,3.10727
-1.54636,0.717034,2.593,3.10307
-1.53795,0.717034,2.593,3.09888
-1.50711,0.706526,2.555,3.04936
-1.49882,0.706526,2.555,3.04527
-1.47944,0.701272,2.536,3.01858
-1.44975,0.691041,2.499,2.97057
-1.44164,0.691041,2.499,2.96662
-1.41288,0.681086,2.463,2.92001
-1.38492,0.671407,2.428,2.87471
-1.37704,0.671407,2.428,2.87092
-1.36916,0.671407,2.428,2.86715
-1.35174,0.666707,2.411,2.84335
-1.34392,0.666707,2.411,2.83964
-1.33609,0.666707,2.411,2.83594
-1.3189,0.662006,2.394,2.81229
-1.31113,0.662006,2.394,2.80866
-1.30336,0.662006,2.394,2.80504
-1.29559,0.662006,2.394,2.80144
-1.28782,0.662006,2.394,2.79785
-1.28005,0.662006,2.394,2.79428
-1.27228,0.662006,2.394,2.79073
-1.27349,0.666707,2.411,2.80699
-1.26566,0.666707,2.411,2.80345
-1.25784,0.666707,2.411,2.79992
-1.25001,0.666707,2.411,2.79642
-1.24219,0.666707,2.411,2.79293
-1.23436,0.666707,2.411,2.78946
-1.22654,0.666707,2.411,2.786
-1.21871,0.666707,2.411,2.78257
-1.21088,0.666707,2.411,2.77915
-1.20306,0.666707,2.411,2.77575
-1.19523,0.666707,2.411,2.77236
-1.19578,0.671407,2.428,2.78852
-1.1879,0.671407,2.428,2.78515
-1.18002,0.671407,2.428,2.7818
-1.17214,0.671407,2.428,2.77847
-1.17241,0.676108,2.445,2.79458
-1.16447,0.676108,2.445,2.79126
-1.15654,0.676108,2.445,2.78796
-1.1486,0.676108,2.445,2.78468
-1.14067,0.676108,2.445,2.78141
-1.13273,0.676108,2.445,2.77817
-1.12479,0.676108,2.445,2.77494
-1.12508,0.681086,2.463,2.79214
-1.10892,0.676108,2.445,2.76855
-1.10099,0.676108,2.445,2.76538
-1.09305,0.676108,2.445,2.76223
-1.07757,0.671407,2.428,2.73991
-1.06969,0.671407,2.428,2.73682
-1.06181,0.671407,2.428,2.73375
-1.04655,0.666707,2.411,2.71158
-1.03872,0.666707,2.411,2.70857
-1.0309,0.666707,2.411,2.70558
-1.02307,0.666707,2.411,2.70261
-1.01525,0.666707,2.411,2.69966
-1.00742,0.666707,2.411,2.69672
-0.999596,0.666707,2.411,2.69381
-0.99177,0.666707,2.411,2.69092
-0.977007,0.662006,2.394,2.66909
-0.969237,0.662006,2.394,2.66625
-0.961466,0.662006,2.394,2.66344
-0.953696,0.662006,2.394,2.66064
-0.945926,0.662006,2.394,2.65787
-0.938156,0.662006,2.394,2.65511
-0.930385,0.662006,2.394,2.65238
-0.922615,0.662006,2.394,2.64966
-0.921341,0.666707,2.411,2.66576
-0.913515,0.666707,2.411,2.66307
-0.90569,0.666707,2.411,2.66039
-0.897864,0.666707,2.411,2.65774
-0.890039,0.666707,2.411,2.65511
-0.888434,0.671407,2.428,2.6712
-0.886718,0.676108,2.445,2.68727
-0.878783,0.676108,2.445,2.68466
-0.877258,0.681086,2.463,2.70182
-0.875616,0.686063,2.481,2.71896
-0.867564,0.686063,2.481,2.71638
-0.859511,0.686063,2.481,2.71382
-0.851458,0.686063,2.481,2.71128
-0.849525,0.691041,2.499,2.72841
-0.841413,0.691041,2.499,2.7259
-0.839304,0.696018,2.517,2.74302
-0.831135,0.696018,2.517,2.74053
-0.822965,0.696018,2.517,2.73807
-0.820946,0.701272,2.536,2.75627
-0.812715,0.701272,2.536,2.75383
-0.804484,0.701272,2.536,2.75141
-0.796253,0.701272,2.536,2.74902
-0.793925,0.706526,2.555,2.76722
-0.785633,0.706526,2.555,2.76485
-0.771559,0.701272,2.536,2.74197
-0.757609,0.696018,2.517,2.71914
-0.749439,0.696018,2.517,2.71687
-0.74127,0.696018,2.517,2.71463
-0.7331,0.696018,2.517,2.71241
-0.724931,0.696018,2.517,2.71021
-0.711635,0.691041,2.499,2.68867
-0.703524,0.691041,2.499,2.68654
-0.685395,0.681086,2.463,2.64575
-0.677401,0.681086,2.463,2.64369
-0.664514,0.676108,2.445,2.62235
-0.656578,0.676108,2.445,2.62035
-0.648643,0.676108,2.445,2.61837
-0.636252,0.671407,2.428,2.59823
-0.623972,0.666707,2.411,2.57813
-0.616146,0.666707,2.411,2.57625
-0.608321,0.666707,2.411,2.57439
-0.596261,0.662006,2.394,2.55441
-0.588491,0.662006,2.394,2.55261
-0.58072,0.662006,2.394,2.55083
-0.568881,0.657305,2.377,2.53097
-0.561166,0.657305,2.377,2.52925
-0.553451,0.657305,2.377,2.52755
-0.545736,0.657305,2.377,2.52587
-0.538021,0.657305,2.377,2.52421
-0.530306,0.657305,2.377,2.52258
-0.522591,0.657305,2.377,2.52097
-0.514875,0.657305,2.377,2.51938
-0.50716,0.657305,2.377,2.51781
-0.499445,0.657305,2.377,2.51627
-0.49173,0.657305,2.377,2.51475
-0.484015,0.657305,2.377,2.51325
-0.4763,0.657305,2.377,2.51178
-0.468584,0.657305,2.377,2.51033
-0.460869,0.657305,2.377,2.5089
-0.453154,0.657305,2.377,2.50749
-0.445439,0.657305,2.377,2.50611
-0.437724,0.657305,2.377,2.50475
-0.430009,0.657305,2.377,2.50341
-0.422294,0.657305,2.377,2.5021
-0.417543,0.662006,2.394,2.5187
-0.409773,0.662006,2.394,2.51742
-0.399148,0.657305,2.377,2.4983
-0.391433,0.657305,2.377,2.49708
-0.386462,0.662006,2.394,2.51373
-0.376003,0.657305,2.377,2.49471
-0.365808,0.65288,2.361,2.47677
-0.358145,0.65288,2.361,2.47565
-0.350482,0.65288,2.361,2.47455
-0.340496,0.648456,2.345,2.45672
-0.330613,0.644031,2.329,2.43892
-0.323054,0.644031,2.329,2.43791
-0.313327,0.639607,2.313,2.42017
-0.303836,0.635459,2.298,2.40352
-0.296378,0.635459,2.298,2.40259
-0.286907,0.631034,2.282,2.38496
-0.2795,0.631034,2.282,2.38408
-0.272094,0.631034,2.282,2.38323
-0.262947,0.626887,2.267,2.36673
-0.255589,0.626887,2.267,2.36593
-0.248231,0.626887,2.267,2.36514
-0.240873,0.626887,2.267,2.36438
-0.233514,0.626887,2.267,2.36364
-0.226156,0.626887,2.267,2.36293
-0.218798,0.626887,2.267,2.36223
-0.21144,0.626887,2.267,2.36156
-0.204082,0.626887,2.267,2.36092
-0.196724,0.626887,2.267,2.36029
-0.189366,0.626887,2.267,2.35969
-0.182008,0.626887,2.267,2.35911
-0.174649,0.626887,2.267,2.35855
-0.167291,0.626887,2.267,2.35802
-0.159933,0.626887,2.267,2.35751
-0.152575,0.626887,2.267,2.35702
-0.145217,0.626887,2.267,2.35656
-0.136947,0.622739,2.252,2.34053
-0.129637,0.622739,2.252,2.34011
-0.122328,0.622739,2.252,2.33972
-0.115018,0.622739,2.252,2.33935
-0.107709,0.622739,2.252,2.339
-0.101068,0.626887,2.267,2.35425
-0.0937101,0.626887,2.267,2.35395
-0.086352,0.626887,2.267,2.35366
-0.0789939,0.626887,2.267,2.35341
-0.0716358,0.626887,2.267,2.35317
-0.0642777,0.626887,2.267,2.35296
-0.0569195,0.626887,2.267,2.35277
-0.0502392,0.635459,2.298,2.38477
-0.0427804,0.635459,2.298,2.38463
-0.0353217,0.635459,2.298,2.3845
-0.0278629,0.635459,2.298,2.38441
-0.0204042,0.635459,2.298,2.38433
-0.01303,0.639607,2.313,2.39984
-0.00552254,0.639607,2.313,2.39981
0.00197201,0.635459,2.298,2.38424
0.00943075,0.635459,2.298,2.38426
0.0168895,0.635459,2.298,2.3843
0.0243482,0.635459,2.298,2.38437
0.031807,0.635459,2.298,2.38445
0.0392657,0.635459,2.298,2.38457
0.0467244,0.635459,2.298,2.3847
0.0541832,0.635459,2.298,2.38486
0.0612127,0.631034,2.282,2.36843
0.0686195,0.631034,2.282,2.36864
0.0760263,0.631034,2.282,2.36886
0.0834331,0.631034,2.282,2.36911
0.0908399,0.631034,2.282,2.36938
0.097601,0.626887,2.267,2.3541
0.104959,0.626887,2.267,2.35442
0.112317,0.626887,2.267,2.35476
0.119675,0.626887,2.267,2.35512
0.126193,0.622739,2.252,2.33992
0.133502,0.622739,2.252,2.34033
0.140812,0.622739,2.252,2.34076
0.148121,0.622739,2.252,2.34121
0.155431,0.622739,2.252,2.34168
0.16274,0.622739,2.252,2.34218
0.170049,0.622739,2.252,2.3427
0.177359,0.622739,2.252,2.34324
0.184668,0.622739,2.252,2.3438
0.191978,0.622739,2.252,2.34439
0.199287,0.622739,2.252,2.345
0.206597,0.622739,2.252,2.34563
0.213906,0.622739,2.252,2.34629
0.221216,0.622739,2.252,2.34697
0.228525,0.622739,2.252,2.34767
0.235834,0.622739,2.252,2.34839
0.243144,0.622739,2.252,2.34913
0.250453,0.622739,2.252,2.3499
0.257763,0.622739,2.252,2.35069
0.265072,0.622739,2.252,2.3515
0.272382,0.622739,2.252,2.35234
0.279691,0.622739,2.252,2.3532
0.288912,0.626887,2.267,2.36976
0.29627,0.626887,2.267,2.37067
0.301619,0.622739,2.252,2.3559
0.308929,0.622739,2.252,2.35685
0.314132,0.618591,2.237,2.34211
0.321393,0.618591,2.237,2.3431
0.330857,0.622739,2.252,2.35983
0.338166,0.622739,2.252,2.36086
0.345476,0.622739,2.252,2.36192
0.352785,0.622739,2.252,2.363
0.360095,0.622739,2.252,2.3641
0.367404,0.622739,2.252,2.36523
0.374714,0.622739,2.252,2.36637
0.384568,0.626887,2.267,2.38331
0.391926,0.626887,2.267,2.38451
0.399284,0.626887,2.267,2.38573
0.409333,0.631034,2.282,2.40277
0.416739,0.631034,2.282,2.40404
0.424146,0.631034,2.282,2.40533
0.434579,0.635459,2.298,2.42352
0.442037,0.635459,2.298,2.42487
0.449496,0.635459,2.298,2.42624
0.459938,0.639607,2.313,2.44348
0.464414,0.635459,2.298,2.42905
0.471872,0.635459,2.298,2.43049
0.479331,0.635459,2.298,2.43195
0.48679,0.635459,2.298,2.43343
0.494249,0.635459,2.298,2.43493
0.501707,0.635459,2.298,2.43646
0.51249,0.639607,2.313,2.45392
0.516625,0.635459,2.298,2.43957
0.520435,0.631034,2.282,2.42417
0.527841,0.631034,2.282,2.42577
0.535248,0.631034,2.282,2.42739
0.539088,0.626887,2.267,2.41307
0.546446,0.626887,2.267,2.41472
0.553804,0.626887,2.267,2.4164
0.557449,0.622739,2.252,2.40209
0.564759,0.622739,2.252,2.4038
0.572068,0.622739,2.252,2.40553
0.579378,0.622739,2.252,2.40728
0.586687,0.622739,2.252,2.40905
0.593997,0.622739,2.252,2.41084
0.601306,0.622739,2.252,2.41265
0.604562,0.618591,2.237,2.3984
0.611822,0.618591,2.237,2.40024
0.619083,0.618591,2.237,2.4021
0.626344,0.618591,2.237,2.40398
0.633605,0.618591,2.237,2.40588
0.640865,0.618591,2.237,2.40781
0.648126,0.618591,2.237,2.40975
0.655387,0.618591,2.237,2.41171
0.662648,0.618591,2.237,2.4137
0.669908,0.618591,2.237,2.4157
0.677169,0.618591,2.237,2.41772
0.68443,0.618591,2.237,2.41977
0.691691,0.618591,2.237,2.42183
0.703638,0.622739,2.252,2.44017
0.715683,0.626887,2.267,2.45855
0.718257,0.622739,2.252,2.44442
0.720734,0.618591,2.237,2.43028
0.727994,0.618591,2.237,2.43245
0.735255,0.618591,2.237,2.43463
0.737869,0.614719,2.223,2.42158
0.740392,0.610848,2.209,2.40853
0.747562,0.610848,2.209,2.41074
0.749607,0.6067,2.194,2.39659
0.751899,0.602829,2.18,2.38352
0.758975,0.602829,2.18,2.38576
0.756563,0.595363,2.153,2.35844
0.753975,0.587896,2.126,2.33109
0.760876,0.587896,2.126,2.33333
0.763082,0.584301,2.113,2.32131
0.765203,0.580707,2.1,2.30928
0.772019,0.580707,2.1,2.31154
0.778835,0.580707,2.1,2.31383
0.785651,0.580707,2.1,2.31613
0.792467,0.580707,2.1,2.31845
0.794335,0.577112,2.087,2.30643
0.801109,0.577112,2.087,2.30877
0.807883,0.577112,2.087,2.31113
0.814657,0.577112,2.087,2.3135
0.821431,0.577112,2.087,2.3159
0.833364,0.580707,2.1,2.33275
0.845381,0.584301,2.113,2.34965
0.852239,0.584301,2.113,2.35212
0.864383,0.587896,2.126,2.3691
0.882349,0.595363,2.153,2.40175
0.889337,0.595363,2.153,2.40433
0.896325,0.595363,2.153,2.40692
0.909187,0.599234,2.167,2.4252
0.927636,0.6067,2.194,2.45809
0.934757,0.6067,2.194,2.46079
0.948318,0.610848,2.209,2.48035
0.961543,0.614719,2.223,2.49883
0.968759,0.614719,2.223,2.50162
0.988706,0.622739,2.252,2.53709
0.996015,0.622739,2.252,2.53995
1.00332,0.622739,2.252,2.54283
1.01737,0.626887,2.267,2.56268
1.02472,0.626887,2.267,2.56561
1.03891,0.631034,2.282,2.58555
1.04632,0.631034,2.282,2.58853
1.06111,0.635459,2.298,2.60971
1.06857,0.635459,2.298,2.61275
1.07603,0.635459,2.298,2.61581
1.09056,0.639607,2.313,2.63598
1.09807,0.639607,2.313,2.63909
1.10558,0.639607,2.313,2.64223
1.11308,0.639607,2.313,2.64538
1.12834,0.644031,2.329,2.66687
1.1281,0.639607,2.313,2.65173
1.13561,0.639607,2.313,2.65493
1.14311,0.639607,2.313,2.65815
1.15062,0.639607,2.313,2.66139
1.15813,0.639607,2.313,2.66464
1.15808,0.635459,2.298,2.65061
1.16554,0.635459,2.298,2.65388
1.17299,0.635459,2.298,2.65717
1.18045,0.635459,2.298,2.66047
1.18791,0.635459,2.298,2.66378
1.19537,0.635459,2.298,2.66712
1.21905,0.644031,2.329,2.70649
1.22661,0.644031,2.329,2.70991
1.23417,0.644031,2.329,2.71334
1.24173,0.644031,2.329,2.71678
1.24929,0.644031,2.329,2.72025
1.26549,0.648456,2.345,2.74244
1.2731,0.648456,2.345,2.74596
1.28071,0.648456,2.345,2.7495
1.28832,0.648456,2.345,2.75305
1.28709,0.644031,2.329,2.73781
1.29465,0.644031,2.329,2.74137
1.30221,0.644031,2.329,2.74495
1.30977,0.644031,2.329,2.74855
1.31733,0.644031,2.329,2.75216
1.32489,0.644031,2.329,2.75578
1.32329,0.639607,2.313,2.74047
1.3308,0.639607,2.313,2.7441
1.33831,0.639607,2.313,2.74775
1.33709,0.635459,2.298,2.73357
1.33518,0.631034,2.282,2.71817
1.32494,0.622739,2.252,2.68603
1.33225,0.622739,2.252,2.68965
1.33064,0.618591,2.237,2.67533
1.32952,0.614719,2.223,2.66219
1.33674,0.614719,2.223,2.6658
1.32642,0.6067,2.194,2.6346
1.32503,0.602829,2.18,2.62136
1.33211,0.602829,2.18,2.62494
1.3312,0.599234,2.167,2.61286
1.32156,0.591768,2.14,2.58386
1.3285,0.591768,2.14,2.58741
1.32671,0.587896,2.126,2.57404
1.33361,0.587896,2.126,2.5776
1.34052,0.587896,2.126,2.58118
1.34742,0.587896,2.126,2.58477
1.34603,0.584301,2.113,2.57255
1.35289,0.584301,2.113,2.57614
1.35975,0.584301,2.113,2.57975
1.36661,0.584301,2.113,2.58337
1.37347,0.584301,2.113,2.587
1.38882,0.587896,2.126,2.60659
1.39572,0.587896,2.126,2.61027
1.40262,0.587896,2.126,2.61397
1.40952,0.587896,2.126,2.61768
1.41642,0.587896,2.126,2.6214
1.42332,0.587896,2.126,2.62514
1.43964,0.591768,2.14,2.6462
1.44659,0.591768,2.14,2.64998
1.45353,0.591768,2.14,2.65378
-1.79885,0.725448,2.593,3.23818
-1.79043,0.725448,2.593,3.23351
-1.78202,0.725448,2.593,3.22886
-1.7736,0.725448,2.593,3.22422
-1.76518,0.725448,2.593,3.2196
-1.75677,0.725448,2.593,3.21499
-1.73554,0.720133,2.574,3.18687
-1.72719,0.720133,2.574,3.18233
-1.71883,0.720133,2.574,3.17781
-1.7231,0.725448,2.593,3.19672
-1.71469,0.725448,2.593,3.19219
-1.70627,0.725448,2.593,3.18768
-1.69785,0.725448,2.593,3.18318
-1.70247,0.731044,2.613,3.20322
-1.70695,0.736639,2.633,3.2232
-1.69841,0.736639,2.633,3.21868
-1.68986,0.736639,2.633,3.21418
-1.69472,0.742514,2.654,3.2353
-1.68611,0.742514,2.654,3.23079
-1.6775,0.742514,2.654,3.2263
-1.66888,0.742514,2.654,3.22183
-1.66027,0.742514,2.654,3.21738
-1.65165,0.742514,2.654,3.21294
-1.64304,0.742514,2.654,3.20852
-1.63443,0.742514,2.654,3.20412
-1.61295,0.736639,2.633,3.17442
-1.6044,0.736639,2.633,3.17008
-1.59585,0.736639,2.633,3.16577
-1.57525,0.731044,2.613,3.13745
-1.55478,0.725448,2.593,3.10922
-1.54636,0.725448,2.593,3.10502
-1.53795,0.725448,2.593,3.10084
-1.50711,0.714817,2.555,3.05129
-1.49882,0.714817,2.555,3.0472
-1.47944,0.709501,2.536,3.0205
-1.44975,0.69915,2.499,2.97247
-1.44164,0.69915,2.499,2.96852
-1.41288,0.689078,2.463,2.92189
-1.38492,0.679286,2.428,2.87656
-1.36739,0.67453,2.411,2.85266
-1.35957,0.67453,2.411,2.84892
-1.34221,0.669774,2.394,2.82513
-1.33444,0.669774,2.394,2.82145
-1.32667,0.669774,2.394,2.81778
-1.3189,0.669774,2.394,2.81413
-1.31113,0.669774,2.394,2.8105
-1.30336,0.669774,2.394,2.80688
-1.29559,0.669774,2.394,2.80328
-1.28782,0.669774,2.394,2.7997
-1.28005,0.669774,2.394,2.79613
-1.27228,0.669774,2.394,2.79258
-1.26451,0.669774,2.394,2.78905
-1.25674,0.669774,2.394,2.78554
-1.24897,0.669774,2.394,2.78204
-1.2412,0.669774,2.394,2.77856
-1.24219,0.67453,2.411,2.79481
-1.23436,0.67453,2.411,2.79134
-1.22654,0.67453,2.411,2.78788
-1.21871,0.67453,2.411,2.78445
-1.21088,0.67453,2.411,2.78103
-1.20306,0.67453,2.411,2.77764
-1.19523,0.67453,2.411,2.77426
-1.19578,0.679286,2.428,2.79043
-1.1879,0.679286,2.428,2.78706
-1.18002,0.679286,2.428,2.78371
-1.17214,0.679286,2.428,2.78038
-1.17241,0.684042,2.445,2.79651
-1.16447,0.684042,2.445,2.7932
-1.15654,0.684042,2.445,2.7899
-1.1486,0.684042,2.445,2.78662
-1.14067,0.684042,2.445,2.78335
-1.13273,0.684042,2.445,2.78011
-1.12479,0.684042,2.445,2.77689
-1.11686,0.684042,2.445,2.77368
-1.10121,0.679286,2.428,2.75123
-1.09333,0.679286,2.428,2.74809
-1.08545,0.679286,2.428,2.74496
-1.07003,0.67453,2.411,2.72266
-1.05471,0.669774,2.394,2.70042
-1.04694,0.669774,2.394,2.69739
-1.03917,0.669774,2.394,2.69438
-1.0314,0.669774,2.394,2.6914
-1.02363,0.669774,2.394,2.68843
-1.01586,0.669774,2.394,2.68548
-1.00809,0.669774,2.394,2.68255
-1.00032,0.669774,2.394,2.67964
-0.992548,0.669774,2.394,2.67675
-0.984778,0.669774,2.394,2.67388
-0.977007,0.669774,2.394,2.67103
-0.969237,0.669774,2.394,2.66819
-0.961466,0.669774,2.394,2.66538
-0.946924,0.665018,2.377,2.64368
-0.939209,0.665018,2.377,2.64093
-0.931494,0.665018,2.377,2.63819
-0.923778,0.665018,2.377,2.63548
-0.916063,0.665018,2.377,2.63278
-0.914845,0.669774,2.394,2.64892
-0.907074,0.669774,2.394,2.64625
-0.899304,0.669774,2.394,2.64359
-0.891534,0.669774,2.394,2.64096
-0.883763,0.669774,2.394,2.63835
-0.882213,0.67453,2.411,2.65447
-0.880553,0.679286,2.428,2.67058
-0.872672,0.679286,2.428,2.66799
-0.870847,0.684042,2.445,2.68409
-0.862911,0.684042,2.445,2.68152
-0.861269,0.689078,2.463,2.6987
-0.853275,0.689078,2.463,2.69616
-0.851458,0.694114,2.481,2.71333
-0.843405,0.694114,2.481,2.71081
-0.835353,0.694114,2.481,2.70832
-0.833302,0.69915,2.499,2.72547
-0.825191,0.69915,2.499,2.723
-0.81708,0.69915,2.499,2.72056
-0.808969,0.69915,2.499,2.71813
-0.800858,0.69915,2.499,2.71573
-0.792747,0.69915,2.499,2.71335
-0.784635,0.69915,2.499,2.71099
-0.782118,0.704186,2.517,2.72816
-0.773948,0.704186,2.517,2.72583
-0.754826,0.694114,2.481,2.68457
-0.746773,0.694114,2.481,2.68232
-0.73872,0.694114,2.481,2.68009
-0.730668,0.694114,2.481,2.67788
-0.717372,0.689078,2.463,2.65628
-0.709378,0.689078,2.463,2.65413
-0.701384,0.689078,2.463,2.65201
-0.688322,0.684042,2.445,2.63054
-0.675655,0.679286,2.428,2.6102
-0.667775,0.679286,2.428,2.60817
-0.650653,0.669774,2.394,2.56967
-0.642883,0.669774,2.394,2.56771
-0.635113,0.669774,2.394,2.56577
-0.622887,0.665018,2.377,2.54566
-0.615172,0.665018,2.377,2.54378
-0.607457,0.665018,2.377,2.54192
-0.595705,0.660541,2.361,2.52299
-0.584057,0.656065,2.345,2.50411
-0.576446,0.656065,2.345,2.50235
-0.568834,0.656065,2.345,2.5006
-0.565052,0.660541,2.361,2.51593
-0.557389,0.660541,2.361,2.51422
-0.546,0.656065,2.345,2.49551
-0.538389,0.656065,2.345,2.49385
-0.534399,0.660541,2.361,2.50923
-0.526736,0.660541,2.361,2.50761
-0.519073,0.660541,2.361,2.50601
-0.51141,0.660541,2.361,2.50443
-0.503746,0.660541,2.361,2.50288
-0.496083,0.660541,2.361,2.50135
-0.48842,0.660541,2.361,2.49984
-0.480757,0.660541,2.361,2.49835
-0.473094,0.660541,2.361,2.49689
-0.46543,0.660541,2.361,2.49545
-0.457767,0.660541,2.361,2.49403
-0.453154,0.665018,2.377,2.50953
-0.445439,0.665018,2.377,2.50815
-0.437724,0.665018,2.377,2.50679
-0.430009,0.665018,2.377,2.50545
-0.422294,0.665018,2.377,2.50414
-0.417543,0.669774,2.394,2.52075
-0.409773,0.669774,2.394,2.51947
-0.399148,0.665018,2.377,2.50034
-0.391433,0.665018,2.377,2.49912
-0.386462,0.669774,2.394,2.51579
-0.376003,0.665018,2.377,2.49675
-0.365808,0.660541,2.361,2.4788
-0.358145,0.660541,2.361,2.47768
-0.350482,0.660541,2.361,2.47658
-0.340496,0.656065,2.345,2.45874
-0.330613,0.651588,2.329,2.44092
-0.323054,0.651588,2.329,2.43991
-0.313327,0.647112,2.313,2.42217
-0.303836,0.642916,2.298,2.40551
-0.296378,0.642916,2.298,2.40458
-0.286907,0.638439,2.282,2.38693
-0.2795,0.638439,2.282,2.38605
-0.272094,0.638439,2.282,2.3852
-0.262947,0.634243,2.267,2.36869
-0.255589,0.634243,2.267,2.36788
-0.248231,0.634243,2.267,2.3671
-0.240873,0.634243,2.267,2.36634
-0.233514,0.634243,2.267,2.3656
-0.226156,0.634243,2.267,2.36489
-0.218798,0.634243,2.267,2.3642
-0.21144,0.634243,2.267,2.36353
-0.204082,0.634243,2.267,2.36288
-0.196724,0.634243,2.267,2.36226
-0.189366,0.634243,2.267,2.36165
-0.182008,0.634243,2.267,2.36108
-0.174649,0.634243,2.267,2.36052
-0.167291,0.634243,2.267,2.35999
-0.159933,0.634243,2.267,2.35948
-0.152575,0.634243,2.267,2.35899
-0.145217,0.634243,2.267,2.35853
-0.136947,0.630046,2.252,2.34248
-0.129637,0.630046,2.252,2.34207
-0.122328,0.630046,2.252,2.34167
-0.115018,0.630046,2.252,2.3413
-0.107709,0.630046,2.252,2.34095
-0.101068,0.634243,2.267,2.35622
-0.0937101,0.634243,2.267,2.35591
-0.086352,0.634243,2.267,2.35563
-0.0789939,0.634243,2.267,2.35538
-0.0716358,0.634243,2.267,2.35514
-0.0642777,0.634243,2.267,2.35493
-0.0569195,0.634243,2.267,2.35474
-0.0495614,0.634243,2.267,2.35457
-0.0419241,0.630046,2.252,2.33885
-0.0346146,0.630046,2.252,2.33873
-0.0274871,0.634243,2.267,2.35421
-0.020129,0.634243,2.267,2.35414
-0.0128553,0.638439,2.282,2.36966
-0.00544853,0.638439,2.282,2.36963
0.00194541,0.634243,2.267,2.35405
0.00930353,0.634243,2.267,2.35407
0.0166616,0.634243,2.267,2.35411
0.0240198,0.634243,2.267,2.35417
0.0313779,0.634243,2.267,2.35426
0.0384797,0.630046,2.252,2.33879
0.0457891,0.630046,2.252,2.33892
0.0530986,0.630046,2.252,2.33908
0.0600056,0.62585,2.237,2.32367
0.0672664,0.62585,2.237,2.32387
0.0745271,0.62585,2.237,2.32409
0.0817879,0.62585,2.237,2.32434
0.0890486,0.62585,2.237,2.3246
0.0963094,0.62585,2.237,2.32489
0.102922,0.621933,2.223,2.31065
0.110137,0.621933,2.223,2.31099
0.117353,0.621933,2.223,2.31134
0.123783,0.618016,2.209,2.29716
0.130953,0.618016,2.209,2.29756
0.138123,0.618016,2.209,2.29798
0.145293,0.618016,2.209,2.29842
0.152463,0.618016,2.209,2.29888
0.159633,0.618016,2.209,2.29937
0.166803,0.618016,2.209,2.29988
0.173972,0.618016,2.209,2.30041
0.181142,0.618016,2.209,2.30096
0.188312,0.618016,2.209,2.30154
0.195482,0.618016,2.209,2.30214
0.202652,0.618016,2.209,2.30276
0.211152,0.621933,2.223,2.318
0.218367,0.621933,2.223,2.31867
0.225582,0.621933,2.223,2.31936
0.232797,0.621933,2.223,2.32007
0.240013,0.621933,2.223,2.3208
0.247228,0.621933,2.223,2.32156
0.254443,0.621933,2.223,2.32234
0.261659,0.621933,2.223,2.32314
0.268874,0.621933,2.223,2.32397
0.276089,0.621933,2.223,2.32481
0.28152,0.618016,2.209,2.31103
0.28869,0.618016,2.209,2.31192
0.29586,0.618016,2.209,2.31282
0.30303,0.618016,2.209,2.31375
0.3102,0.618016,2.209,2.3147
0.31737,0.618016,2.209,2.31567
0.32454,0.618016,2.209,2.31667
0.331709,0.618016,2.209,2.31768
0.338879,0.618016,2.209,2.31872
0.348242,0.621933,2.223,2.33448
0.355458,0.621933,2.223,2.33557
0.362673,0.621933,2.223,2.33668
0.369888,0.621933,2.223,2.33781
0.377104,0.621933,2.223,2.33896
0.384319,0.621933,2.223,2.34013
0.394,0.62585,2.237,2.35608
0.401261,0.62585,2.237,2.3573
0.408521,0.62585,2.237,2.35855
0.415782,0.62585,2.237,2.35982
0.42588,0.630046,2.252,2.37694
0.433189,0.630046,2.252,2.37826
0.440499,0.630046,2.252,2.3796
0.447808,0.630046,2.252,2.38096
0.455117,0.630046,2.252,2.38235
0.465507,0.634243,2.267,2.39964
0.472865,0.634243,2.267,2.40107
0.480223,0.634243,2.267,2.40253
0.487581,0.634243,2.267,2.40402
0.494939,0.634243,2.267,2.40552
0.502298,0.634243,2.267,2.40704
0.509656,0.634243,2.267,2.40859
0.517014,0.634243,2.267,2.41016
0.524372,0.634243,2.267,2.41175
0.528212,0.630046,2.252,2.39739
0.535521,0.630046,2.252,2.39901
0.542831,0.630046,2.252,2.40065
0.546476,0.62585,2.237,2.38631
0.550271,0.621933,2.223,2.37304
0.557486,0.621933,2.223,2.37473
0.564701,0.621933,2.223,2.37643
0.571917,0.621933,2.223,2.37815
0.575485,0.618016,2.209,2.36491
0.582655,0.618016,2.209,2.36667
0.589825,0.618016,2.209,2.36844
0.596994,0.618016,2.209,2.37024
0.604164,0.618016,2.209,2.37205
0.611334,0.618016,2.209,2.37389
0.618504,0.618016,2.209,2.37575
0.625674,0.618016,2.209,2.37762
0.632844,0.618016,2.209,2.37952
0.640014,0.618016,2.209,2.38144
