nan,nan,nan,NaN
nan,nan,nan,NaN
nan,nan,nan,NaN
nan,nan,nan,NaN
nan,nan,nan,NaN
nan,nan,nan,NaN
nan,nan,nan,NaN
nan,nan,nan,NaN
nan,nan,nan,NaN
nan,nan,nan,NaN
nan,nan,nan,NaN
nan,nan,nan,NaN
nan,nan,nan,NaN
nan,nan,nan,NaN
nan,nan,nan,NaN
nan,nan,nan,NaN
nan,nan,nan,NaN
nan,nan,nan,NaN
nan,nan,nan,NaN
nan,nan,nan,NaN
nan,nan,nan,NaN
nan,nan,nan,NaN
nan,nan,nan,NaN
nan,nan,nan,NaN
nan,nan,nan,NaN
nan,nan,nan,NaN
nan,nan,nan,NaN
nan,nan,nan,NaN
nan,nan,nan,NaN
-1.23144,-0.226881,2.517,2.81127
-1.22327,-0.226881,2.517,2.8077
-1.20641,-0.225259,2.499,2.78409
-1.1983,-0.225259,2.499,2.78059
-1.19019,-0.225259,2.499,2.7771
-1.17357,-0.223636,2.481,2.75366
-1.16551,-0.223636,2.481,2.75024
-1.15746,-0.223636,2.481,2.74683
-1.13273,-0.220391,2.445,2.70364
-1.11697,-0.218859,2.428,2.68155
-1.10909,-0.218859,2.428,2.67828
-1.10121,-0.218859,2.428,2.67502
-1.08568,-0.217327,2.411,2.65308
-1.07025,-0.215794,2.394,2.63121
-1.06248,-0.215794,2.394,2.62805
-1.05471,-0.215794,2.394,2.62492
-1.03951,-0.214262,2.377,2.60319
-1.03179,-0.214262,2.377,2.60012
-1.02408,-0.214262,2.377,2.59707
-1.01636,-0.214262,2.377,2.59404
-1.00865,-0.214262,2.377,2.59102
-1.00093,-0.214262,2.377,2.58803
-0.993215,-0.214262,2.377,2.58506
-0.9855,-0.214262,2.377,2.5821
-0.977785,-0.214262,2.377,2.57917
-0.970069,-0.214262,2.377,2.57625
-0.962354,-0.214262,2.377,2.57336
-0.954639,-0.214262,2.377,2.57048
-0.946924,-0.214262,2.377,2.56763
-0.939209,-0.214262,2.377,2.56479
-0.938156,-0.215794,2.394,2.5803
-0.930385,-0.215794,2.394,2.57748
-0.922615,-0.215794,2.394,2.57469
-0.914845,-0.215794,2.394,2.57191
-0.907074,-0.215794,2.394,2.56916
-0.899304,-0.215794,2.394,2.56643
-0.891534,-0.215794,2.394,2.56372
-0.883763,-0.215794,2.394,2.56102
-0.875993,-0.215794,2.394,2.55835
-0.868223,-0.215794,2.394,2.5557
-0.860452,-0.215794,2.394,2.55307
-0.852682,-0.215794,2.394,2.55046
-0.850911,-0.217327,2.411,2.56597
-0.843086,-0.217327,2.411,2.56339
-0.83526,-0.217327,2.411,2.56082
-0.827435,-0.217327,2.411,2.55828
-0.819609,-0.217327,2.411,2.55576
-0.811784,-0.217327,2.411,2.55326
-0.803958,-0.217327,2.411,2.55078
-0.796133,-0.217327,2.411,2.54833
-0.793866,-0.218859,2.428,2.56385
-0.785985,-0.218859,2.428,2.56142
-0.778104,-0.218859,2.428,2.55901
-0.770224,-0.218859,2.428,2.55662
-0.762343,-0.218859,2.428,2.55426
-0.759745,-0.220391,2.445,2.56979
-0.751809,-0.220391,2.445,2.56745
-0.743873,-0.220391,2.445,2.56514
-0.735937,-0.220391,2.445,2.56285
-0.728001,-0.220391,2.445,2.56058
-0.720065,-0.220391,2.445,2.55834
-0.712129,-0.220391,2.445,2.55612
-0.709378,-0.222014,2.463,2.57272
-0.701384,-0.222014,2.463,2.57052
-0.693389,-0.222014,2.463,2.56836
-0.685395,-0.222014,2.463,2.56621
-0.677401,-0.222014,2.463,2.56408
-0.669406,-0.222014,2.463,2.56198
-0.661412,-0.222014,2.463,2.55991
-0.653418,-0.222014,2.463,2.55785
-0.645424,-0.222014,2.463,2.55582
-0.637429,-0.222014,2.463,2.55382
-0.629435,-0.222014,2.463,2.55183
-0.621441,-0.222014,2.463,2.54987
-0.613446,-0.222014,2.463,2.54794
-0.605452,-0.222014,2.463,2.54602
-0.597458,-0.222014,2.463,2.54413
-0.589464,-0.222014,2.463,2.54227
-0.581469,-0.222014,2.463,2.54043
-0.577666,-0.223636,2.481,2.55716
-0.569613,-0.223636,2.481,2.55535
-0.561561,-0.223636,2.481,2.55357
-0.553508,-0.223636,2.481,2.55181
-0.549413,-0.225259,2.499,2.56858
-0.541301,-0.225259,2.499,2.56686
-0.53319,-0.225259,2.499,2.56516
-0.528861,-0.226881,2.517,2.58195
-0.520692,-0.226881,2.517,2.58029
-0.512522,-0.226881,2.517,2.57865
-0.50816,-0.228594,2.536,2.59649
-0.499929,-0.228594,2.536,2.59489
-0.491697,-0.228594,2.536,2.59332
-0.487088,-0.230307,2.555,2.61119
-0.482356,-0.232019,2.574,2.62906
-0.474001,-0.232019,2.574,2.62754
-0.469084,-0.233732,2.593,2.64543
-0.460668,-0.233732,2.593,2.64395
-0.452251,-0.233732,2.593,2.6425
-0.443835,-0.233732,2.593,2.64107
-0.438777,-0.235535,2.613,2.66003
-0.430296,-0.235535,2.613,2.65865
-0.421815,-0.235535,2.613,2.65729
-0.41017,-0.233732,2.593,2.63563
-0.401754,-0.233732,2.593,2.63433
-0.393338,-0.233732,2.593,2.63306
-0.384922,-0.233732,2.593,2.63181
-0.376505,-0.233732,2.593,2.6306
-0.365392,-0.232019,2.574,2.61014
-0.357037,-0.232019,2.574,2.60898
-0.348683,-0.232019,2.574,2.60785
-0.340328,-0.232019,2.574,2.60675
-0.331974,-0.232019,2.574,2.60567
-0.323619,-0.232019,2.574,2.60462
-0.315265,-0.232019,2.574,2.60359
-0.30691,-0.232019,2.574,2.6026
-0.300759,-0.233732,2.593,2.62083
-0.292343,-0.233732,2.593,2.61987
-0.283927,-0.233732,2.593,2.61895
-0.277636,-0.235535,2.613,2.63824
-0.269154,-0.235535,2.613,2.63736
-0.260673,-0.235535,2.613,2.63651
-0.250262,-0.233732,2.593,2.61551
-0.241846,-0.233732,2.593,2.61472
-0.233429,-0.233732,2.593,2.61396
-0.225013,-0.233732,2.593,2.61322
-0.216597,-0.233732,2.593,2.61251
-0.208181,-0.233732,2.593,2.61182
-0.199764,-0.233732,2.593,2.61117
-0.191348,-0.233732,2.593,2.61054
-0.182932,-0.233732,2.593,2.60993
-0.174516,-0.233732,2.593,2.60936
-0.1661,-0.233732,2.593,2.60881
-0.157683,-0.233732,2.593,2.60828
-0.149267,-0.233732,2.593,2.60779
-0.140851,-0.233732,2.593,2.60732
-0.132435,-0.233732,2.593,2.60688
-0.124018,-0.233732,2.593,2.60647
-0.115602,-0.233732,2.593,2.60608
-0.1064,-0.232019,2.574,2.58663
-0.0980459,-0.232019,2.574,2.5863
-0.0896914,-0.232019,2.574,2.58599
-0.0813368,-0.232019,2.574,2.58572
-0.0729822,-0.232019,2.574,2.58547
-0.0646277,-0.232019,2.574,2.58524
-0.0562731,-0.232019,2.574,2.58505
-0.0479185,-0.232019,2.574,2.58488
-0.039564,-0.232019,2.574,2.58474
-0.0312094,-0.232019,2.574,2.58462
-0.0228548,-0.232019,2.574,2.58454
-0.0145003,-0.232019,2.574,2.58448
-0.00614571,-0.232019,2.574,2.58444
0.00222516,-0.233732,2.593,2.60351
0.0106414,-0.233732,2.593,2.60353
0.0190576,-0.233732,2.593,2.60358
0.0274739,-0.233732,2.593,2.60366
0.0358901,-0.233732,2.593,2.60376
0.0443063,-0.233732,2.593,2.60389
0.0527226,-0.233732,2.593,2.60405
0.0611388,-0.233732,2.593,2.60423
0.0700915,-0.235535,2.613,2.62453
0.0779713,-0.233732,2.593,2.60468
0.0863875,-0.233732,2.593,2.60495
0.0948037,-0.233732,2.593,2.60524
0.10322,-0.233732,2.593,2.60556
0.110818,-0.232019,2.574,2.58681
0.119173,-0.232019,2.574,2.58718
0.127527,-0.232019,2.574,2.58758
0.135882,-0.232019,2.574,2.58801
0.145301,-0.233732,2.593,2.60756
0.153717,-0.233732,2.593,2.60805
0.162134,-0.233732,2.593,2.60856
0.17055,-0.233732,2.593,2.60909
0.178966,-0.233732,2.593,2.60966
0.187382,-0.233732,2.593,2.61025
0.195799,-0.233732,2.593,2.61087
0.20579,-0.235535,2.613,2.63165
0.214271,-0.235535,2.613,2.63233
0.222752,-0.235535,2.613,2.63303
0.233003,-0.237338,2.633,2.65392
0.241549,-0.237338,2.633,2.65469
0.250095,-0.237338,2.633,2.65548
0.258641,-0.237338,2.633,2.6563
0.267187,-0.237338,2.633,2.65714
0.275734,-0.237338,2.633,2.65802
0.28428,-0.237338,2.633,2.65892
0.292826,-0.237338,2.633,2.65984
0.301372,-0.237338,2.633,2.6608
0.309918,-0.237338,2.633,2.66178
0.318464,-0.237338,2.633,2.66279
0.324526,-0.235535,2.613,2.64359
0.333007,-0.235535,2.613,2.64464
0.341488,-0.235535,2.613,2.64573
0.349969,-0.235535,2.613,2.64683
0.355707,-0.233732,2.593,2.6277
0.364123,-0.233732,2.593,2.62885
0.372539,-0.233732,2.593,2.63003
0.380956,-0.233732,2.593,2.63124
0.389372,-0.233732,2.593,2.63247
0.397788,-0.233732,2.593,2.63373
0.406204,-0.233732,2.593,2.63501
0.417819,-0.235535,2.613,2.65666
0.4263,-0.235535,2.613,2.658
0.434781,-0.235535,2.613,2.65938
0.443262,-0.235535,2.613,2.66078
0.451743,-0.235535,2.613,2.6622
0.460224,-0.235535,2.613,2.66365
0.468706,-0.235535,2.613,2.66513
0.477187,-0.235535,2.613,2.66664
0.485668,-0.235535,2.613,2.66817
0.494149,-0.235535,2.613,2.66972
0.498783,-0.233732,2.593,2.65086
0.507199,-0.233732,2.593,2.65246
0.511837,-0.232019,2.574,2.63463
0.520192,-0.232019,2.574,2.63627
0.528546,-0.232019,2.574,2.63793
0.532938,-0.230307,2.555,2.62013
0.541231,-0.230307,2.555,2.62183
0.549524,-0.230307,2.555,2.62356
0.557817,-0.230307,2.555,2.6253
0.566109,-0.230307,2.555,2.62708
0.574402,-0.230307,2.555,2.62888
0.587028,-0.232019,2.574,2.65027
0.595383,-0.232019,2.574,2.65213
0.603738,-0.232019,2.574,2.65402
0.612092,-0.232019,2.574,2.65593
0.620447,-0.232019,2.574,2.65787
0.628801,-0.232019,2.574,2.65983
0.637156,-0.232019,2.574,2.66182
0.640746,-0.230307,2.555,2.64417
0.649038,-0.230307,2.555,2.64619
0.652443,-0.228594,2.536,2.62854
0.660674,-0.228594,2.536,2.6306
0.668906,-0.228594,2.536,2.63268
0.672064,-0.226881,2.517,2.61504
0.680233,-0.226881,2.517,2.61715
0.68348,-0.225259,2.499,2.60056
0.691591,-0.225259,2.499,2.6027
0.699702,-0.225259,2.499,2.60487
0.702715,-0.223636,2.481,2.58828
0.710768,-0.223636,2.481,2.59048
0.71882,-0.223636,2.481,2.5927
0.726873,-0.223636,2.481,2.59494
0.734926,-0.223636,2.481,2.59721
0.737588,-0.222014,2.463,2.58064
0.745582,-0.222014,2.463,2.58293
0.753577,-0.222014,2.463,2.58525
0.761571,-0.222014,2.463,2.5876
0.775189,-0.223636,2.481,2.60889
0.783242,-0.223636,2.481,2.61129
0.791295,-0.223636,2.481,2.61372
0.799347,-0.223636,2.481,2.61617
0.801542,-0.222014,2.463,2.59964
0.809537,-0.222014,2.463,2.60212
0.817531,-0.222014,2.463,2.60461
0.819492,-0.220391,2.445,2.58808
0.827428,-0.220391,2.445,2.59061
0.829556,-0.218859,2.428,2.57512
0.837436,-0.218859,2.428,2.57767
0.845317,-0.218859,2.428,2.58024
0.853198,-0.218859,2.428,2.58283
0.861078,-0.218859,2.428,2.58545
0.862875,-0.217327,2.411,2.56996
0.8707,-0.217327,2.411,2.5726
0.878526,-0.217327,2.411,2.57526
0.880102,-0.215794,2.394,2.55976
0.887872,-0.215794,2.394,2.56244
0.895642,-0.215794,2.394,2.56515
0.896997,-0.214262,2.377,2.54964
0.904712,-0.214262,2.377,2.55236
0.912428,-0.214262,2.377,2.5551
0.920143,-0.214262,2.377,2.55787
0.927858,-0.214262,2.377,2.56066
0.935573,-0.214262,2.377,2.56346
0.943288,-0.214262,2.377,2.56629
0.951003,-0.214262,2.377,2.56913
0.958719,-0.214262,2.377,2.572
0.966434,-0.214262,2.377,2.57488
0.974149,-0.214262,2.377,2.57779
nan,nan,nan,NaN
nan,nan,nan,NaN
nan,nan,nan,NaN
nan,nan,nan,NaN
nan,nan,nan,NaN
nan,nan,nan,NaN
nan,nan,nan,NaN
nan,nan,nan,NaN
nan,nan,nan,NaN
nan,nan,nan,NaN
nan,nan,nan,NaN
nan,nan,nan,NaN
nan,nan,nan,NaN
nan,nan,nan,NaN
nan,nan,nan,NaN
1.77591,-0.346677,3.846,4.25038
1.78839,-0.346677,3.846,4.25561
1.80088,-0.346677,3.846,4.26088
1.8341,-0.350643,3.89,4.31497
1.84673,-0.350643,3.89,4.32035
1.85936,-0.350643,3.89,4.32577
1.85081,-0.346677,3.846,4.28222
1.86329,-0.346677,3.846,4.28763
1.87577,-0.346677,3.846,4.29307
1.88826,-0.346677,3.846,4.29854
1.90074,-0.346677,3.846,4.30404
1.91322,-0.346677,3.846,4.30956
1.90468,-0.342891,3.804,4.268
1.91702,-0.342891,3.804,4.27352
1.92937,-0.342891,3.804,4.27907
1.94172,-0.342891,3.804,4.28465
nan,nan,nan,NaN
nan,nan,nan,NaN
nan,nan,nan,NaN
nan,nan,nan,NaN
nan,nan,nan,NaN
nan,nan,nan,NaN
1.96257,-0.331804,3.681,4.18468
1.97451,-0.331804,3.681,4.19029
1.98646,-0.331804,3.681,4.19594
1.95661,-0.324863,3.604,4.11372
1.9683,-0.324863,3.604,4.11929
1.98,-0.324863,3.604,4.1249
1.9917,-0.324863,3.604,4.13052
2.0034,-0.324863,3.604,4.13618
2.0151,-0.324863,3.604,4.14185
1.98461,-0.318103,3.529,4.06125
1.99607,-0.318103,3.529,4.06686
2.00752,-0.318103,3.529,4.07249
1.99838,-0.314858,3.493,4.03655
1.98958,-0.311703,3.458,4.00167
2.00081,-0.311703,3.458,4.00726
2.01203,-0.311703,3.458,4.01288
2.00277,-0.308548,3.423,3.97784
1.99388,-0.305483,3.389,3.94388
2.00488,-0.305483,3.389,3.94945
1.99625,-0.302508,3.356,3.91654
1.96887,-0.296739,3.292,3.84731
1.97955,-0.296739,3.292,3.85278
1.95275,-0.291151,3.23,3.78562
1.92677,-0.285742,3.17,3.72062
1.93706,-0.285742,3.17,3.72596
1.94735,-0.285742,3.17,3.73132
1.90453,-0.27799,3.084,3.63532
1.91454,-0.27799,3.084,3.64058
1.89085,-0.273123,3.03,3.58201
1.85113,-0.266002,2.951,3.49368
1.86071,-0.266002,2.951,3.49877
1.85444,-0.263748,2.926,3.47419
1.83272,-0.259332,2.877,3.421
1.84206,-0.259332,2.877,3.42601
1.83595,-0.257168,2.853,3.40242
1.81482,-0.252932,2.806,3.35129
1.80897,-0.250858,2.783,3.32872
1.81801,-0.250858,2.783,3.33364
1.8126,-0.248875,2.761,3.31218
1.80704,-0.246892,2.739,3.29067
1.81593,-0.246892,2.739,3.29556
1.79618,-0.243016,2.696,3.24865
1.79087,-0.241123,2.675,3.22815
1.79955,-0.241123,2.675,3.23298
1.79404,-0.23923,2.654,3.2124
1.80265,-0.23923,2.654,3.21722
-2.06524,-0.258686,2.977,3.63245
-2.05558,-0.258686,2.977,3.62696
-2.02805,-0.256426,2.951,3.58987
-2.01847,-0.256426,2.951,3.58446
-2.00889,-0.256426,2.951,3.57908
-1.99931,-0.256426,2.951,3.57371
-1.95602,-0.252082,2.901,3.5079
-1.94661,-0.252082,2.901,3.50266
-1.93719,-0.252082,2.901,3.49744
-1.92778,-0.252082,2.901,3.49223
-1.91836,-0.252082,2.901,3.48704
-1.90894,-0.252082,2.901,3.48187
-1.89953,-0.252082,2.901,3.47672
-1.9064,-0.254254,2.926,3.5015
-1.92997,-0.258686,2.977,3.55728
-1.93707,-0.260945,3.003,3.58307
-1.92733,-0.260945,3.003,3.57781
-1.93482,-0.263291,3.03,3.60469
-1.94214,-0.265637,3.057,3.63149
-1.93222,-0.265637,3.057,3.62619
-1.93927,-0.267983,3.084,3.6529
-1.92926,-0.267983,3.084,3.64759
-1.93668,-0.270416,3.112,3.67538
-1.92658,-0.270416,3.112,3.67006
-1.89923,-0.267983,3.084,3.6318
-1.88922,-0.267983,3.084,3.62657
-1.87921,-0.267983,3.084,3.62137
-1.85284,-0.265637,3.057,3.58453
-1.84292,-0.265637,3.057,3.57941
-1.833,-0.265637,3.057,3.57431
-1.82307,-0.265637,3.057,3.56923
nan,nan,nan,NaN
nan,nan,nan,NaN
nan,nan,nan,NaN
nan,nan,nan,NaN
nan,nan,nan,NaN
nan,nan,nan,NaN
nan,nan,nan,NaN
nan,nan,nan,NaN
nan,nan,nan,NaN
nan,nan,nan,NaN
nan,nan,nan,NaN
nan,nan,nan,NaN
nan,nan,nan,NaN
nan,nan,nan,NaN
nan,nan,nan,NaN
nan,nan,nan,NaN
nan,nan,nan,NaN
nan,nan,nan,NaN
nan,nan,nan,NaN
nan,nan,nan,NaN
nan,nan,nan,NaN
nan,nan,nan,NaN
nan,nan,nan,NaN
nan,nan,nan,NaN
nan,nan,nan,NaN
nan,nan,nan,NaN
nan,nan,nan,NaN
nan,nan,nan,NaN
nan,nan,nan,NaN
nan,nan,nan,NaN
nan,nan,nan,NaN
nan,nan,nan,NaN
-1.23144,-0.218714,2.517,2.81062
-1.22327,-0.218714,2.517,2.80705
-1.2151,-0.218714,2.517,2.8035
-1.1983,-0.21715,2.499,2.77994
-1.19019,-0.21715,2.499,2.77646
-1.17357,-0.215586,2.481,2.75302
-1.16551,-0.215586,2.481,2.74959
-1.15746,-0.215586,2.481,2.74619
-1.13273,-0.212458,2.445,2.70301
-1.12479,-0.212458,2.445,2.69969
-1.11686,-0.212458,2.445,2.69639
-1.10121,-0.21098,2.428,2.67439
-1.08568,-0.209503,2.411,2.65245
-1.07025,-0.208026,2.394,2.63058
-1.06248,-0.208026,2.394,2.62743
-1.05471,-0.208026,2.394,2.6243
-1.03951,-0.206549,2.377,2.60257
-1.03179,-0.206549,2.377,2.5995
-1.02408,-0.206549,2.377,2.59644
-1.01636,-0.206549,2.377,2.59341
-1.00865,-0.206549,2.377,2.5904
-1.00093,-0.206549,2.377,2.5874
-0.993215,-0.206549,2.377,2.58443
-0.9855,-0.206549,2.377,2.58147
-0.977785,-0.206549,2.377,2.57854
-0.970069,-0.206549,2.377,2.57562
-0.962354,-0.206549,2.377,2.57273
-0.954639,-0.206549,2.377,2.56985
-0.946924,-0.206549,2.377,2.56699
-0.945926,-0.208026,2.394,2.5825
-0.938156,-0.208026,2.394,2.57966
-0.930385,-0.208026,2.394,2.57684
-0.922615,-0.208026,2.394,2.57405
-0.914845,-0.208026,2.394,2.57127
-0.907074,-0.208026,2.394,2.56852
-0.899304,-0.208026,2.394,2.56579
-0.891534,-0.208026,2.394,2.56307
-0.883763,-0.208026,2.394,2.56038
-0.875993,-0.208026,2.394,2.55771
-0.874388,-0.209503,2.411,2.5732
-0.866562,-0.209503,2.411,2.57055
-0.858737,-0.209503,2.411,2.56793
-0.850911,-0.209503,2.411,2.56532
-0.843086,-0.209503,2.411,2.56273
-0.83526,-0.209503,2.411,2.56017
-0.827435,-0.209503,2.411,2.55763
-0.819609,-0.209503,2.411,2.55511
-0.811784,-0.209503,2.411,2.55261
-0.803958,-0.209503,2.411,2.55013
-0.796133,-0.209503,2.411,2.54767
-0.793866,-0.21098,2.428,2.56319
-0.785985,-0.21098,2.428,2.56076
-0.778104,-0.21098,2.428,2.55835
-0.770224,-0.21098,2.428,2.55596
-0.762343,-0.21098,2.428,2.5536
-0.759745,-0.212458,2.445,2.56912
-0.751809,-0.212458,2.445,2.56678
-0.743873,-0.212458,2.445,2.56447
-0.735937,-0.212458,2.445,2.56218
-0.728001,-0.212458,2.445,2.55991
-0.720065,-0.212458,2.445,2.55767
-0.712129,-0.212458,2.445,2.55544
-0.709378,-0.214022,2.463,2.57204
-0.701384,-0.214022,2.463,2.56985
-0.693389,-0.214022,2.463,2.56768
-0.685395,-0.214022,2.463,2.56553
-0.677401,-0.214022,2.463,2.56341
-0.669406,-0.214022,2.463,2.5613
-0.661412,-0.214022,2.463,2.55923
-0.653418,-0.214022,2.463,2.55717
-0.645424,-0.214022,2.463,2.55514
-0.637429,-0.214022,2.463,2.55313
-0.629435,-0.214022,2.463,2.55115
-0.621441,-0.214022,2.463,2.54919
-0.613446,-0.214022,2.463,2.54725
-0.605452,-0.214022,2.463,2.54534
-0.597458,-0.214022,2.463,2.54345
-0.589464,-0.214022,2.463,2.54158
-0.581469,-0.214022,2.463,2.53974
-0.577666,-0.215586,2.481,2.55647
-0.569613,-0.215586,2.481,2.55466
-0.561561,-0.215586,2.481,2.55288
-0.553508,-0.215586,2.481,2.55112
-0.549413,-0.21715,2.499,2.56788
-0.541301,-0.21715,2.499,2.56616
-0.53319,-0.21715,2.499,2.56446
-0.528861,-0.218714,2.517,2.58124
-0.520692,-0.218714,2.517,2.57958
-0.512522,-0.218714,2.517,2.57795
-0.50816,-0.220365,2.536,2.59578
-0.499929,-0.220365,2.536,2.59418
-0.491697,-0.220365,2.536,2.59261
-0.487088,-0.222016,2.555,2.61047
-0.482356,-0.223667,2.574,2.62834
-0.474001,-0.223667,2.574,2.62682
-0.469084,-0.225318,2.593,2.6447
-0.460668,-0.225318,2.593,2.64322
-0.452251,-0.225318,2.593,2.64177
-0.443835,-0.225318,2.593,2.64034
-0.438777,-0.227056,2.613,2.6593
-0.430296,-0.227056,2.613,2.65791
-0.421815,-0.227056,2.613,2.65655
-0.41017,-0.225318,2.593,2.63489
-0.401754,-0.225318,2.593,2.6336
-0.393338,-0.225318,2.593,2.63232
-0.384922,-0.225318,2.593,2.63108
-0.376505,-0.225318,2.593,2.62986
-0.365392,-0.223667,2.574,2.60941
-0.357037,-0.223667,2.574,2.60825
-0.348683,-0.223667,2.574,2.60712
-0.340328,-0.223667,2.574,2.60602
-0.331974,-0.223667,2.574,2.60494
-0.323619,-0.223667,2.574,2.60389
-0.315265,-0.223667,2.574,2.60286
-0.30691,-0.223667,2.574,2.60186
-0.300759,-0.225318,2.593,2.62009
-0.292343,-0.225318,2.593,2.61914
-0.283927,-0.225318,2.593,2.61821
-0.277636,-0.227056,2.613,2.6375
-0.269154,-0.227056,2.613,2.63662
-0.260673,-0.227056,2.613,2.63577
-0.250262,-0.225318,2.593,2.61478
-0.241846,-0.225318,2.593,2.61398
-0.233429,-0.225318,2.593,2.61322
-0.225013,-0.225318,2.593,2.61248
-0.216597,-0.225318,2.593,2.61177
-0.208181,-0.225318,2.593,2.61108
-0.199764,-0.225318,2.593,2.61043
-0.191348,-0.225318,2.593,2.6098
-0.182932,-0.225318,2.593,2.60919
-0.174516,-0.225318,2.593,2.60862
-0.1661,-0.225318,2.593,2.60807
-0.156528,-0.223667,2.574,2.58844
-0.148173,-0.223667,2.574,2.58794
-0.139819,-0.223667,2.574,2.58748
-0.131464,-0.223667,2.574,2.58704
-0.12311,-0.223667,2.574,2.58663
-0.114755,-0.223667,2.574,2.58625
-0.1064,-0.223667,2.574,2.58589
-0.0980459,-0.223667,2.574,2.58556
-0.0896914,-0.223667,2.574,2.58526
-0.0813368,-0.223667,2.574,2.58498
-0.0729822,-0.223667,2.574,2.58473
-0.0646277,-0.223667,2.574,2.58451
-0.0562731,-0.223667,2.574,2.58431
-0.0479185,-0.223667,2.574,2.58414
-0.039564,-0.223667,2.574,2.584
-0.0312094,-0.223667,2.574,2.58389
-0.0230235,-0.225318,2.593,2.60287
-0.0146073,-0.225318,2.593,2.60281
-0.00619107,-0.225318,2.593,2.60278
0.00222516,-0.225318,2.593,2.60277
0.0106414,-0.225318,2.593,2.60279
0.0190576,-0.225318,2.593,2.60284
0.0274739,-0.225318,2.593,2.60292
0.0358901,-0.225318,2.593,2.60302
0.0443063,-0.225318,2.593,2.60315
0.0527226,-0.225318,2.593,2.60331
0.0611388,-0.225318,2.593,2.60349
0.0700915,-0.227056,2.613,2.62378
0.0785727,-0.227056,2.613,2.62402
0.0863875,-0.225318,2.593,2.6042
0.0948037,-0.225318,2.593,2.6045
0.10322,-0.225318,2.593,2.60482
0.111636,-0.225318,2.593,2.60516
0.120052,-0.225318,2.593,2.60554
0.127527,-0.223667,2.574,2.58684
0.135882,-0.223667,2.574,2.58727
0.145301,-0.225318,2.593,2.60682
0.153717,-0.225318,2.593,2.60731
0.162134,-0.225318,2.593,2.60782
0.17055,-0.225318,2.593,2.60835
0.178966,-0.225318,2.593,2.60892
0.187382,-0.225318,2.593,2.60951
0.197309,-0.227056,2.613,2.63026
0.20579,-0.227056,2.613,2.63091
0.214271,-0.227056,2.613,2.63158
0.222752,-0.227056,2.613,2.63229
0.233003,-0.228794,2.633,2.65317
0.241549,-0.228794,2.633,2.65394
0.250095,-0.228794,2.633,2.65473
0.258641,-0.228794,2.633,2.65555
0.267187,-0.228794,2.633,2.65639
0.275734,-0.228794,2.633,2.65727
0.28428,-0.228794,2.633,2.65817
0.292826,-0.228794,2.633,2.65909
0.301372,-0.228794,2.633,2.66005
0.309918,-0.228794,2.633,2.66103
0.318464,-0.228794,2.633,2.66204
0.32701,-0.228794,2.633,2.66308
0.335556,-0.228794,2.633,2.66414
0.344102,-0.228794,2.633,2.66523
0.352648,-0.228794,2.633,2.66635
0.358451,-0.227056,2.613,2.64723
0.366932,-0.227056,2.613,2.64839
0.375413,-0.227056,2.613,2.64958
0.383894,-0.227056,2.613,2.65079
0.392375,-0.227056,2.613,2.65203
0.400856,-0.227056,2.613,2.6533
0.409337,-0.227056,2.613,2.6546
0.417819,-0.227056,2.613,2.65592
0.4263,-0.227056,2.613,2.65726
0.434781,-0.227056,2.613,2.65864
0.443262,-0.227056,2.613,2.66004
0.451743,-0.227056,2.613,2.66146
0.460224,-0.227056,2.613,2.66292
0.468706,-0.227056,2.613,2.6644
0.477187,-0.227056,2.613,2.6659
0.485668,-0.227056,2.613,2.66743
0.494149,-0.227056,2.613,2.66899
0.498783,-0.225318,2.593,2.65013
0.507199,-0.225318,2.593,2.65173
0.511837,-0.223667,2.574,2.63391
0.520192,-0.223667,2.574,2.63555
0.528546,-0.223667,2.574,2.63721
0.532938,-0.222016,2.555,2.61942
0.541231,-0.222016,2.555,2.62112
0.549524,-0.222016,2.555,2.62284
0.557817,-0.222016,2.555,2.62459
0.566109,-0.222016,2.555,2.62637
0.574402,-0.222016,2.555,2.62817
0.587028,-0.223667,2.574,2.64955
0.595383,-0.223667,2.574,2.65141
0.603738,-0.223667,2.574,2.6533
0.612092,-0.223667,2.574,2.65521
0.620447,-0.223667,2.574,2.65715
0.628801,-0.223667,2.574,2.65912
0.637156,-0.223667,2.574,2.6611
0.640746,-0.222016,2.555,2.64346
0.649038,-0.222016,2.555,2.64548
0.652443,-0.220365,2.536,2.62784
0.660674,-0.220365,2.536,2.62989
0.668906,-0.220365,2.536,2.63197
0.672064,-0.218714,2.517,2.61434
0.680233,-0.218714,2.517,2.61646
0.68348,-0.21715,2.499,2.59987
0.691591,-0.21715,2.499,2.60201
0.699702,-0.21715,2.499,2.60418
0.702715,-0.215586,2.481,2.58759
0.710768,-0.215586,2.481,2.58979
0.71882,-0.215586,2.481,2.59202
0.726873,-0.215586,2.481,2.59426
0.734926,-0.215586,2.481,2.59653
0.737588,-0.214022,2.463,2.57996
0.745582,-0.214022,2.463,2.58226
0.753577,-0.214022,2.463,2.58458
0.761571,-0.214022,2.463,2.58692
0.775189,-0.215586,2.481,2.60821
0.783242,-0.215586,2.481,2.61061
0.791295,-0.215586,2.481,2.61304
0.799347,-0.215586,2.481,2.61549
0.801542,-0.214022,2.463,2.59897
0.809537,-0.214022,2.463,2.60145
0.817531,-0.214022,2.463,2.60395
0.819492,-0.212458,2.445,2.58742
0.827428,-0.212458,2.445,2.58994
0.829556,-0.21098,2.428,2.57446
0.837436,-0.21098,2.428,2.57701
0.845317,-0.21098,2.428,2.57958
0.847224,-0.209503,2.411,2.5641
0.855049,-0.209503,2.411,2.56669
0.862875,-0.209503,2.411,2.56931
0.864561,-0.208026,2.394,2.55382
0.872331,-0.208026,2.394,2.55646
0.880102,-0.208026,2.394,2.55912
0.881567,-0.206549,2.377,2.54361
0.889282,-0.206549,2.377,2.54629
0.896997,-0.206549,2.377,2.549
0.904712,-0.206549,2.377,2.55172
0.912428,-0.206549,2.377,2.55447
0.920143,-0.206549,2.377,2.55724
0.927858,-0.206549,2.377,2.56002
0.929276,-0.205158,2.361,2.54558
0.936939,-0.205158,2.361,2.54838
0.944602,-0.205158,2.361,2.55121
0.958719,-0.206549,2.377,2.57137
0.966434,-0.206549,2.377,2.57425
0.974149,-0.206549,2.377,2.57716
nan,nan,nan,NaN
nan,nan,nan,NaN
nan,nan,nan,NaN
nan,nan,nan,NaN
nan,nan,nan,NaN
nan,nan,nan,NaN
nan,nan,nan,NaN
nan,nan,nan,NaN
nan,nan,nan,NaN
nan,nan,nan,NaN
nan,nan,nan,NaN
nan,nan,nan,NaN
nan,nan,nan,NaN
nan,nan,nan,NaN
nan,nan,nan,NaN
1.77591,-0.334197,3.846,4.24938
1.78839,-0.334197,3.846,4.25462
1.80088,-0.334197,3.846,4.25988
1.81336,-0.334197,3.846,4.26517
1.82584,-0.334197,3.846,4.27049
1.83833,-0.334197,3.846,4.27584
1.85081,-0.334197,3.846,4.28123
1.86329,-0.334197,3.846,4.28664
1.87577,-0.334197,3.846,4.29208
1.88826,-0.334197,3.846,4.29755
1.87998,-0.330548,3.804,4.25606
1.89233,-0.330548,3.804,4.26153
1.90468,-0.330548,3.804,4.26702
1.91702,-0.330548,3.804,4.27255
1.92937,-0.330548,3.804,4.2781
1.94172,-0.330548,3.804,4.28368
nan,nan,nan,NaN
nan,nan,nan,NaN
nan,nan,nan,NaN
nan,nan,nan,NaN
nan,nan,nan,NaN
nan,nan,nan,NaN
1.96257,-0.31986,3.681,4.18375
1.97451,-0.31986,3.681,4.18937
1.98646,-0.31986,3.681,4.19501
1.95661,-0.313169,3.604,4.11281
1.9683,-0.313169,3.604,4.11839
1.98,-0.313169,3.604,4.12399
1.9917,-0.313169,3.604,4.12962
1.98227,-0.309867,3.566,4.09167
1.99385,-0.309867,3.566,4.09729
1.98461,-0.306652,3.529,4.06037
1.97571,-0.303523,3.493,4.0245
1.98704,-0.303523,3.493,4.03008
1.97836,-0.300482,3.458,3.99524
1.96944,-0.297441,3.423,3.96032
1.98055,-0.297441,3.423,3.96585
1.99166,-0.297441,3.423,3.97141
2.00277,-0.297441,3.423,3.977
1.99388,-0.294486,3.389,3.94305
2.00488,-0.294486,3.389,3.94862
1.99625,-0.291619,3.356,3.91571
1.96887,-0.286058,3.292,3.8465
1.97955,-0.286058,3.292,3.85198
1.95275,-0.28067,3.23,3.78483
1.92677,-0.275456,3.17,3.71984
1.93706,-0.275456,3.17,3.72518
1.94735,-0.275456,3.17,3.73054
1.90453,-0.267983,3.084,3.63457
1.91454,-0.267983,3.084,3.63982
1.89085,-0.263291,3.03,3.58128
1.85113,-0.256426,2.951,3.49297
1.86071,-0.256426,2.951,3.49805
1.8386,-0.252082,2.901,3.4438
1.81743,-0.247911,2.853,3.39177
1.82669,-0.247911,2.853,3.39675
1.82051,-0.245825,2.829,3.37312
1.81482,-0.243827,2.806,3.35062
1.79467,-0.239916,2.761,3.30175
1.80364,-0.239916,2.761,3.30663
1.79815,-0.238005,2.739,3.28514
1.77867,-0.234268,2.696,3.23836
1.78743,-0.234268,2.696,3.24318
1.78218,-0.232443,2.675,3.22271
1.77681,-0.230619,2.654,3.20218
1.78542,-0.230619,2.654,3.20697
1.77984,-0.228794,2.633,3.18636
1.7748,-0.227056,2.613,3.1669
-2.06524,-0.249026,2.977,3.63177
-2.05558,-0.249026,2.977,3.62629
-2.02805,-0.246851,2.951,3.5892
-2.01847,-0.246851,2.951,3.58379
-2.00889,-0.246851,2.951,3.57841
-1.99931,-0.246851,2.951,3.57304
-1.95602,-0.242668,2.901,3.50724
-1.94661,-0.242668,2.901,3.50199
-1.93719,-0.242668,2.901,3.49677
-1.92778,-0.242668,2.901,3.49156
-1.91836,-0.242668,2.901,3.48637
-1.90894,-0.242668,2.901,3.4812
-1.89953,-0.242668,2.901,3.47605
-1.9064,-0.24476,2.926,3.50082
-1.92997,-0.249026,2.977,3.55659
-1.93707,-0.251201,3.003,3.58237
-1.92733,-0.251201,3.003,3.57711
-1.93482,-0.253459,3.03,3.60398
-1.94214,-0.255718,3.057,3.63078
-1.93222,-0.255718,3.057,3.62548
-1.93927,-0.257976,3.084,3.65218
-1.92926,-0.257976,3.084,3.64687
-1.93668,-0.260318,3.112,3.67465
-1.92658,-0.260318,3.112,3.66933
-1.89923,-0.257976,3.084,3.63107
-1.88922,-0.257976,3.084,3.62585
-1.87921,-0.257976,3.084,3.62064
-1.85284,-0.255718,3.057,3.5838
-1.84292,-0.255718,3.057,3.57869
-1.833,-0.255718,3.057,3.57359
-1.82307,-0.255718,3.057,3.56851
nan,nan,nan,NaN
nan,nan,nan,NaN
nan,nan,nan,NaN
nan,nan,nan,NaN
nan,nan,nan,NaN
nan,nan,nan,NaN
nan,nan,nan,NaN
nan,nan,nan,NaN
nan,nan,nan,NaN
nan,nan,nan,NaN
nan,nan,nan,NaN
nan,nan,nan,NaN
nan,nan,nan,NaN
nan,nan,nan,NaN
nan,nan,nan,NaN
nan,nan,nan,NaN
nan,nan,nan,NaN
nan,nan,nan,NaN
nan,nan,nan,NaN
nan,nan,nan,NaN
nan,nan,nan,NaN
nan,nan,nan,NaN
nan,nan,nan,NaN
nan,nan,nan,NaN
nan,nan,nan,NaN
nan,nan,nan,NaN
nan,nan,nan,NaN
nan,nan,nan,NaN
nan,nan,nan,NaN
nan,nan,nan,NaN
nan,nan,nan,NaN
nan,nan,nan,NaN
-1.23144,-0.210547,2.517,2.81
-1.22327,-0.210547,2.517,2.80642
-1.2151,-0.210547,2.517,2.80287
-1.1983,-0.209041,2.499,2.77932
-1.19019,-0.209041,2.499,2.77583
-1.17357,-0.207535,2.481,2.7524
-1.16551,-0.207535,2.481,2.74897
-1.15746,-0.207535,2.481,2.74557
-1.13273,-0.204524,2.445,2.70239
-1.12479,-0.204524,2.445,2.69908
-1.10909,-0.203102,2.428,2.67704
-1.10121,-0.203102,2.428,2.67378
-1.08568,-0.20168,2.411,2.65185
-1.07025,-0.200258,2.394,2.62998
-1.06248,-0.200258,2.394,2.62682
-1.05471,-0.200258,2.394,2.62369
-1.03951,-0.198836,2.377,2.60197
-1.03179,-0.198836,2.377,2.5989
-1.02408,-0.198836,2.377,2.59584
-1.01636,-0.198836,2.377,2.59281
-1.00865,-0.198836,2.377,2.58979
-1.00093,-0.198836,2.377,2.5868
-0.993215,-0.198836,2.377,2.58382
-0.9855,-0.198836,2.377,2.58087
-0.977785,-0.198836,2.377,2.57793
-0.970069,-0.198836,2.377,2.57501
-0.962354,-0.198836,2.377,2.57212
-0.954639,-0.198836,2.377,2.56924
-0.946924,-0.198836,2.377,2.56638
-0.945926,-0.200258,2.394,2.58188
-0.938156,-0.200258,2.394,2.57905
-0.930385,-0.200258,2.394,2.57623
-0.922615,-0.200258,2.394,2.57343
-0.914845,-0.200258,2.394,2.57066
-0.907074,-0.200258,2.394,2.5679
-0.899304,-0.200258,2.394,2.56517
-0.891534,-0.200258,2.394,2.56245
-0.883763,-0.200258,2.394,2.55976
-0.875993,-0.200258,2.394,2.55709
-0.874388,-0.20168,2.411,2.57258
-0.866562,-0.20168,2.411,2.56993
-0.858737,-0.20168,2.411,2.5673
-0.850911,-0.20168,2.411,2.56469
-0.843086,-0.20168,2.411,2.56211
-0.83526,-0.20168,2.411,2.55954
-0.827435,-0.20168,2.411,2.557
-0.819609,-0.20168,2.411,2.55448
-0.811784,-0.20168,2.411,2.55198
-0.803958,-0.20168,2.411,2.5495
-0.796133,-0.20168,2.411,2.54704
-0.793866,-0.203102,2.428,2.56255
-0.785985,-0.203102,2.428,2.56012
-0.778104,-0.203102,2.428,2.55771
-0.770224,-0.203102,2.428,2.55532
-0.762343,-0.203102,2.428,2.55296
-0.754462,-0.203102,2.428,2.55062
-0.751809,-0.204524,2.445,2.56614
-0.743873,-0.204524,2.445,2.56383
-0.735937,-0.204524,2.445,2.56153
-0.728001,-0.204524,2.445,2.55927
-0.720065,-0.204524,2.445,2.55702
-0.712129,-0.204524,2.445,2.5548
-0.709378,-0.20603,2.463,2.57139
-0.701384,-0.20603,2.463,2.56919
-0.693389,-0.20603,2.463,2.56702
-0.685395,-0.20603,2.463,2.56487
-0.677401,-0.20603,2.463,2.56275
-0.669406,-0.20603,2.463,2.56065
-0.661412,-0.20603,2.463,2.55857
-0.653418,-0.20603,2.463,2.55652
-0.645424,-0.20603,2.463,2.55448
-0.637429,-0.20603,2.463,2.55248
-0.629435,-0.20603,2.463,2.55049
-0.625982,-0.207535,2.481,2.56716
-0.61793,-0.207535,2.481,2.5652
-0.609877,-0.207535,2.481,2.56328
-0.601824,-0.207535,2.481,2.56137
-0.593771,-0.207535,2.481,2.55949
-0.585719,-0.207535,2.481,2.55764
-0.577666,-0.207535,2.481,2.5558
-0.569613,-0.207535,2.481,2.554
-0.561561,-0.207535,2.481,2.55221
-0.553508,-0.207535,2.481,2.55045
-0.549413,-0.209041,2.499,2.56721
-0.541301,-0.209041,2.499,2.56548
-0.53319,-0.209041,2.499,2.56378
-0.528861,-0.210547,2.517,2.58056
-0.520692,-0.210547,2.517,2.5789
-0.512522,-0.210547,2.517,2.57727
-0.50816,-0.212136,2.536,2.5951
-0.503674,-0.213725,2.555,2.61293
-0.495381,-0.213725,2.555,2.61134
-0.487088,-0.213725,2.555,2.60978
-0.482356,-0.215315,2.574,2.62764
-0.474001,-0.215315,2.574,2.62612
-0.469084,-0.216904,2.593,2.644
-0.460668,-0.216904,2.593,2.64252
-0.452251,-0.216904,2.593,2.64107
-0.447259,-0.218577,2.613,2.66
-0.438777,-0.218577,2.613,2.65858
-0.430296,-0.218577,2.613,2.6572
-0.421815,-0.218577,2.613,2.65584
-0.413334,-0.218577,2.613,2.6545
-0.404853,-0.218577,2.613,2.6532
-0.393338,-0.216904,2.593,2.63162
-0.384922,-0.216904,2.593,2.63037
-0.376505,-0.216904,2.593,2.62915
-0.368089,-0.216904,2.593,2.62796
-0.359673,-0.216904,2.593,2.6268
-0.351257,-0.216904,2.593,2.62566
-0.34284,-0.216904,2.593,2.62455
-0.334424,-0.216904,2.593,2.62346
-0.326008,-0.216904,2.593,2.6224
-0.317592,-0.216904,2.593,2.62137
-0.309175,-0.216904,2.593,2.62036
-0.300759,-0.216904,2.593,2.61938
-0.292343,-0.216904,2.593,2.61843
-0.283927,-0.216904,2.593,2.6175
-0.277636,-0.218577,2.613,2.63678
-0.269154,-0.218577,2.613,2.6359
-0.260673,-0.218577,2.613,2.63505
-0.252192,-0.218577,2.613,2.63423
-0.243711,-0.218577,2.613,2.63343
-0.23523,-0.218577,2.613,2.63266
-0.225013,-0.216904,2.593,2.61177
-0.216597,-0.216904,2.593,2.61106
-0.208181,-0.216904,2.593,2.61037
-0.199764,-0.216904,2.593,2.60971
-0.191348,-0.216904,2.593,2.60908
-0.182932,-0.216904,2.593,2.60848
-0.174516,-0.216904,2.593,2.6079
-0.1661,-0.216904,2.593,2.60735
-0.156528,-0.215315,2.574,2.58773
-0.148173,-0.215315,2.574,2.58724
-0.139819,-0.215315,2.574,2.58677
-0.131464,-0.215315,2.574,2.58633
-0.12311,-0.215315,2.574,2.58592
-0.114755,-0.215315,2.574,2.58554
-0.1064,-0.215315,2.574,2.58518
-0.0980459,-0.215315,2.574,2.58485
-0.0896914,-0.215315,2.574,2.58455
-0.0819372,-0.216904,2.593,2.60335
-0.073521,-0.216904,2.593,2.60309
-0.0651047,-0.216904,2.593,2.60287
-0.0566885,-0.216904,2.593,2.60267
-0.0482722,-0.216904,2.593,2.6025
-0.039856,-0.216904,2.593,2.60236
-0.0314398,-0.216904,2.593,2.60225
-0.0230235,-0.216904,2.593,2.60216
-0.0146073,-0.216904,2.593,2.6021
-0.00619107,-0.216904,2.593,2.60206
0.00222516,-0.216904,2.593,2.60206
0.0106414,-0.216904,2.593,2.60208
0.0190576,-0.216904,2.593,2.60213
0.0276858,-0.218577,2.613,2.62227
0.0361669,-0.218577,2.613,2.62238
0.0446481,-0.218577,2.613,2.62251
0.0531292,-0.218577,2.613,2.62266
0.0616104,-0.218577,2.613,2.62285
0.0700915,-0.218577,2.613,2.62306
0.0785727,-0.218577,2.613,2.6233
0.0870538,-0.218577,2.613,2.62357
0.095535,-0.218577,2.613,2.62387
0.10322,-0.216904,2.593,2.6041
0.111636,-0.216904,2.593,2.60445
0.120052,-0.216904,2.593,2.60482
0.128469,-0.216904,2.593,2.60523
0.136885,-0.216904,2.593,2.60565
0.146422,-0.218577,2.613,2.62621
0.154903,-0.218577,2.613,2.6267
0.163384,-0.218577,2.613,2.62721
0.171865,-0.218577,2.613,2.62775
0.180346,-0.218577,2.613,2.62832
0.188828,-0.218577,2.613,2.62892
0.197309,-0.218577,2.613,2.62954
0.20579,-0.218577,2.613,2.63019
0.214271,-0.218577,2.613,2.63087
0.224457,-0.22025,2.633,2.65171
0.233003,-0.22025,2.633,2.65245
0.241549,-0.22025,2.633,2.65321
0.250095,-0.22025,2.633,2.65401
0.258641,-0.22025,2.633,2.65482
0.267187,-0.22025,2.633,2.65567
0.275734,-0.22025,2.633,2.65654
0.28428,-0.22025,2.633,2.65745
0.292826,-0.22025,2.633,2.65837
0.301372,-0.22025,2.633,2.65933
0.309918,-0.22025,2.633,2.66031
0.318464,-0.22025,2.633,2.66132
0.32701,-0.22025,2.633,2.66236
0.335556,-0.22025,2.633,2.66342
0.344102,-0.22025,2.633,2.66451
0.352648,-0.22025,2.633,2.66563
0.358451,-0.218577,2.613,2.64651
0.366932,-0.218577,2.613,2.64768
0.375413,-0.218577,2.613,2.64886
0.383894,-0.218577,2.613,2.65008
0.392375,-0.218577,2.613,2.65132
0.400856,-0.218577,2.613,2.65259
0.409337,-0.218577,2.613,2.65388
0.417819,-0.218577,2.613,2.65521
0.4263,-0.218577,2.613,2.65655
0.434781,-0.218577,2.613,2.65793
0.439869,-0.216904,2.593,2.63897
0.448286,-0.216904,2.593,2.64039
0.460224,-0.218577,2.613,2.66221
0.468706,-0.218577,2.613,2.66369
0.473534,-0.216904,2.593,2.64479
0.481951,-0.216904,2.593,2.64631
0.490367,-0.216904,2.593,2.64786
0.495128,-0.215315,2.574,2.63002
0.503483,-0.215315,2.574,2.6316
0.511837,-0.215315,2.574,2.63321
0.516352,-0.213725,2.555,2.6154
0.524645,-0.213725,2.555,2.61705
0.532938,-0.213725,2.555,2.61873
0.541231,-0.213725,2.555,2.62043
0.549524,-0.213725,2.555,2.62215
0.557817,-0.213725,2.555,2.6239
0.566109,-0.213725,2.555,2.62568
0.574402,-0.213725,2.555,2.62748
0.587028,-0.215315,2.574,2.64886
0.590988,-0.213725,2.555,2.63115
0.599281,-0.213725,2.555,2.63303
0.607574,-0.213725,2.555,2.63493
0.615867,-0.213725,2.555,2.63685
0.62416,-0.213725,2.555,2.6388
0.632453,-0.213725,2.555,2.64078
0.640746,-0.213725,2.555,2.64277
0.649038,-0.213725,2.555,2.6448
0.652443,-0.212136,2.536,2.62716
0.660674,-0.212136,2.536,2.62922
0.663894,-0.210547,2.517,2.61158
0.672064,-0.210547,2.517,2.61367
0.680233,-0.210547,2.517,2.61579
0.68348,-0.209041,2.499,2.5992
0.691591,-0.209041,2.499,2.60135
0.699702,-0.209041,2.499,2.60351
0.702715,-0.207535,2.481,2.58694
0.710768,-0.207535,2.481,2.58914
0.71882,-0.207535,2.481,2.59136
0.726873,-0.207535,2.481,2.5936
0.734926,-0.207535,2.481,2.59587
0.737588,-0.20603,2.463,2.57931
0.745582,-0.20603,2.463,2.58161
0.753577,-0.20603,2.463,2.58393
0.761571,-0.20603,2.463,2.58627
0.775189,-0.207535,2.481,2.60756
0.783242,-0.207535,2.481,2.60996
0.791295,-0.207535,2.481,2.61239
0.799347,-0.207535,2.481,2.61484
0.801542,-0.20603,2.463,2.59832
0.809537,-0.20603,2.463,2.6008
0.817531,-0.20603,2.463,2.6033
0.819492,-0.204524,2.445,2.58678
0.827428,-0.204524,2.445,2.5893
0.829556,-0.203102,2.428,2.57383
0.837436,-0.203102,2.428,2.57638
0.845317,-0.203102,2.428,2.57895
0.847224,-0.20168,2.411,2.56347
0.855049,-0.20168,2.411,2.56607
0.862875,-0.20168,2.411,2.56869
0.864561,-0.200258,2.394,2.5532
0.872331,-0.200258,2.394,2.55584
0.880102,-0.200258,2.394,2.5585
0.881567,-0.198836,2.377,2.543
0.889282,-0.198836,2.377,2.54568
0.896997,-0.198836,2.377,2.54839
0.904712,-0.198836,2.377,2.55111
0.912428,-0.198836,2.377,2.55386
0.926724,-0.200258,2.394,2.57491
0.921612,-0.197497,2.361,2.54218
0.929276,-0.197497,2.361,2.54497
0.936939,-0.197497,2.361,2.54778
0.944602,-0.197497,2.361,2.55061
nan,nan,nan,NaN
nan,nan,nan,NaN
nan,nan,nan,NaN
nan,nan,nan,NaN
nan,nan,nan,NaN
nan,nan,nan,NaN
nan,nan,nan,NaN
nan,nan,nan,NaN
nan,nan,nan,NaN
nan,nan,nan,NaN
nan,nan,nan,NaN
nan,nan,nan,NaN
nan,nan,nan,NaN
nan,nan,nan,NaN
nan,nan,nan,NaN
nan,nan,nan,NaN
nan,nan,nan,NaN
nan,nan,nan,NaN
1.77591,-0.321718,3.846,4.24842
1.78839,-0.321718,3.846,4.25365
1.80088,-0.321718,3.846,4.25892
1.81336,-0.321718,3.846,4.26421
1.82584,-0.321718,3.846,4.26953
1.83833,-0.321718,3.846,4.27489
1.85081,-0.321718,3.846,4.28027
1.86329,-0.321718,3.846,4.28568
1.87577,-0.321718,3.846,4.29112
1.86764,-0.318204,3.804,4.24968
1.87998,-0.318204,3.804,4.25512
1.89233,-0.318204,3.804,4.26059
1.90468,-0.318204,3.804,4.26608
nan,nan,nan,NaN
nan,nan,nan,NaN
nan,nan,nan,NaN
nan,nan,nan,NaN
nan,nan,nan,NaN
nan,nan,nan,NaN
nan,nan,nan,NaN
nan,nan,nan,NaN
nan,nan,nan,NaN
1.96257,-0.307915,3.681,4.18285
1.95359,-0.304653,3.642,4.14409
1.96542,-0.304653,3.642,4.14968
1.95661,-0.301474,3.604,4.11194
1.94755,-0.298296,3.566,4.0741
1.95913,-0.298296,3.566,4.07965
1.9707,-0.298296,3.566,4.08522
1.96171,-0.2952,3.529,4.04837
1.97316,-0.2952,3.529,4.05393
1.96437,-0.292189,3.493,4.01811
1.97571,-0.292189,3.493,4.02366
1.98704,-0.292189,3.493,4.02924
1.97836,-0.289261,3.458,3.99441
1.96944,-0.286334,3.423,3.9595
1.98055,-0.286334,3.423,3.96504
1.99166,-0.286334,3.423,3.9706
2.00277,-0.286334,3.423,3.97618
1.99388,-0.283489,3.389,3.94224
2.00488,-0.283489,3.389,3.94781
1.99625,-0.280729,3.356,3.91492
1.96887,-0.275375,3.292,3.84572
1.97955,-0.275375,3.292,3.8512
1.95275,-0.270189,3.23,3.78407
1.92677,-0.26517,3.17,3.71909
1.93706,-0.26517,3.17,3.72443
1.94735,-0.26517,3.17,3.7298
1.90453,-0.257976,3.084,3.63385
1.91454,-0.257976,3.084,3.6391
1.89085,-0.253459,3.03,3.58057
1.85113,-0.246851,2.951,3.49228
1.86071,-0.246851,2.951,3.49737
1.8386,-0.242668,2.901,3.44313
1.81743,-0.238653,2.853,3.39111
1.82669,-0.238653,2.853,3.39608
1.82051,-0.236646,2.829,3.37246
1.81482,-0.234722,2.806,3.34997
1.79467,-0.230957,2.761,3.30111
1.80364,-0.230957,2.761,3.30599
1.79815,-0.229117,2.739,3.2845
1.77867,-0.22552,2.696,3.23774
1.78743,-0.22552,2.696,3.24256
1.78218,-0.223763,2.675,3.22209
1.77681,-0.222007,2.654,3.20157
1.78542,-0.222007,2.654,3.20636
1.77984,-0.22025,2.633,3.18575
1.7748,-0.218577,2.613,3.1663
-2.06524,-0.239366,2.977,3.63112
-2.05558,-0.239366,2.977,3.62564
-2.02805,-0.237275,2.951,3.58855
-2.00137,-0.235265,2.926,3.55279
-1.97485,-0.233255,2.901,3.51714
-1.96544,-0.233255,2.901,3.51186
-1.92366,-0.229396,2.853,3.44858
-1.9144,-0.229396,2.853,3.44342
-1.90514,-0.229396,2.853,3.43828
-1.87993,-0.227466,2.829,3.40428
-1.87075,-0.227466,2.829,3.39922
-1.87736,-0.229396,2.853,3.42297
-1.8681,-0.229396,2.853,3.4179
-1.87447,-0.231325,2.877,3.44155
-1.8807,-0.233255,2.901,3.46514
-1.90353,-0.237275,2.951,3.51968
-1.89395,-0.237275,2.951,3.51451
-1.90098,-0.239366,2.977,3.54027
-1.90783,-0.241456,3.003,3.56597
-1.89809,-0.241456,3.003,3.56076
-1.90532,-0.243627,3.03,3.58755
-1.89548,-0.243627,3.03,3.58233
-1.88565,-0.243627,3.03,3.57714
-1.89253,-0.245798,3.057,3.60379
-1.88261,-0.245798,3.057,3.59859
-1.87268,-0.245798,3.057,3.59341
-1.84631,-0.243627,3.03,3.55656
-1.82011,-0.241456,3.003,3.51982
-1.81036,-0.241456,3.003,3.51479
-1.80062,-0.241456,3.003,3.50978
-1.79087,-0.241456,3.003,3.50479
nan,nan,nan,NaN
nan,nan,nan,NaN
nan,nan,nan,NaN
nan,nan,nan,NaN
nan,nan,nan,NaN
nan,nan,nan,NaN
nan,nan,nan,NaN
nan,nan,nan,NaN
nan,nan,nan,NaN
nan,nan,nan,NaN
nan,nan,nan,NaN
nan,nan,nan,NaN
nan,nan,nan,NaN
nan,nan,nan,NaN
nan,nan,nan,NaN
nan,nan,nan,NaN
nan,nan,nan,NaN
nan,nan,nan,NaN
nan,nan,nan,NaN
nan,nan,nan,NaN
nan,nan,nan,NaN
nan,nan,nan,NaN
nan,nan,nan,NaN
nan,nan,nan,NaN
nan,nan,nan,NaN
nan,nan,nan,NaN
nan,nan,nan,NaN
nan,nan,nan,NaN
nan,nan,nan,NaN
nan,nan,nan,NaN
nan,nan,nan,NaN
nan,nan,nan,NaN
-1.23144,-0.20238,2.517,2.80939
-1.22327,-0.20238,2.517,2.80582
-1.2151,-0.20238,2.517,2.80227
-1.1983,-0.200932,2.499,2.77872
-1.19019,-0.200932,2.499,2.77524
-1.17357,-0.199485,2.481,2.7518
-1.15706,-0.198038,2.463,2.72844
-1.14906,-0.198038,2.463,2.72506
-1.14107,-0.198038,2.463,2.7217
-1.12479,-0.19659,2.445,2.69849
-1.10909,-0.195223,2.428,2.67645
-1.10121,-0.195223,2.428,2.67319
-1.08568,-0.193857,2.411,2.65126
-1.07025,-0.19249,2.394,2.6294
-1.06248,-0.19249,2.394,2.62624
-1.05471,-0.19249,2.394,2.62311
-1.04694,-0.19249,2.394,2.61999
-1.03917,-0.19249,2.394,2.6169
-1.02408,-0.191123,2.377,2.59526
-1.01636,-0.191123,2.377,2.59223
-1.00865,-0.191123,2.377,2.58921
-1.00093,-0.191123,2.377,2.58622
-0.993215,-0.191123,2.377,2.58324
-0.992548,-0.19249,2.394,2.59874
-0.984778,-0.19249,2.394,2.59578
-0.977007,-0.19249,2.394,2.59284
-0.969237,-0.19249,2.394,2.58992
-0.961466,-0.19249,2.394,2.58703
-0.953696,-0.19249,2.394,2.58415
-0.945926,-0.19249,2.394,2.58129
-0.938156,-0.19249,2.394,2.57845
-0.930385,-0.19249,2.394,2.57564
-0.929166,-0.193857,2.411,2.59111
-0.921341,-0.193857,2.411,2.58831
-0.913515,-0.193857,2.411,2.58554
-0.90569,-0.193857,2.411,2.58278
-0.897864,-0.193857,2.411,2.58005
-0.890039,-0.193857,2.411,2.57734
-0.882213,-0.193857,2.411,2.57465
-0.874388,-0.193857,2.411,2.57197
-0.866562,-0.193857,2.411,2.56933
-0.858737,-0.193857,2.411,2.5667
-0.850911,-0.193857,2.411,2.56409
-0.843086,-0.193857,2.411,2.5615
-0.83526,-0.193857,2.411,2.55894
-0.827435,-0.193857,2.411,2.55639
-0.819609,-0.193857,2.411,2.55387
-0.817508,-0.195223,2.428,2.56936
-0.809627,-0.195223,2.428,2.56686
-0.801746,-0.195223,2.428,2.56439
-0.793866,-0.195223,2.428,2.56194
-0.785985,-0.195223,2.428,2.55951
-0.778104,-0.195223,2.428,2.5571
-0.770224,-0.195223,2.428,2.55471
-0.762343,-0.195223,2.428,2.55234
-0.754462,-0.195223,2.428,2.55
-0.751809,-0.19659,2.445,2.56552
-0.743873,-0.19659,2.445,2.56321
-0.735937,-0.19659,2.445,2.56091
-0.728001,-0.19659,2.445,2.55864
-0.720065,-0.19659,2.445,2.5564
-0.712129,-0.19659,2.445,2.55417
-0.709378,-0.198038,2.463,2.57076
-0.701384,-0.198038,2.463,2.56857
-0.693389,-0.198038,2.463,2.56639
-0.685395,-0.198038,2.463,2.56425
-0.677401,-0.198038,2.463,2.56212
-0.669406,-0.198038,2.463,2.56002
-0.661412,-0.198038,2.463,2.55794
-0.653418,-0.198038,2.463,2.55588
-0.65014,-0.199485,2.481,2.57252
-0.642088,-0.199485,2.481,2.57049
-0.634035,-0.199485,2.481,2.56849
-0.625982,-0.199485,2.481,2.56652
-0.61793,-0.199485,2.481,2.56456
-0.609877,-0.199485,2.481,2.56264
-0.601824,-0.199485,2.481,2.56073
-0.593771,-0.199485,2.481,2.55885
-0.585719,-0.199485,2.481,2.55699
-0.577666,-0.199485,2.481,2.55516
-0.569613,-0.199485,2.481,2.55335
-0.561561,-0.199485,2.481,2.55157
-0.553508,-0.199485,2.481,2.54981
-0.549413,-0.200932,2.499,2.56656
-0.541301,-0.200932,2.499,2.56484
-0.53319,-0.200932,2.499,2.56314
-0.528861,-0.20238,2.517,2.57991
-0.520692,-0.20238,2.517,2.57825
-0.512522,-0.20238,2.517,2.57661
-0.50816,-0.203907,2.536,2.59444
-0.503674,-0.205435,2.555,2.61226
-0.495381,-0.205435,2.555,2.61068
-0.49071,-0.206963,2.574,2.62852
-0.482356,-0.206963,2.574,2.62697
-0.474001,-0.206963,2.574,2.62545
-0.469084,-0.20849,2.593,2.64332
-0.464221,-0.210098,2.613,2.66222
-0.45574,-0.210098,2.613,2.66075
-0.447259,-0.210098,2.613,2.65931
-0.438777,-0.210098,2.613,2.6579
-0.430296,-0.210098,2.613,2.65651
-0.421815,-0.210098,2.613,2.65515
-0.413334,-0.210098,2.613,2.65382
-0.404853,-0.210098,2.613,2.65251
-0.396372,-0.210098,2.613,2.65123
-0.384922,-0.20849,2.593,2.62969
-0.376505,-0.20849,2.593,2.62847
-0.368089,-0.20849,2.593,2.62728
-0.359673,-0.20849,2.593,2.62612
-0.351257,-0.20849,2.593,2.62498
-0.34284,-0.20849,2.593,2.62386
-0.334424,-0.20849,2.593,2.62278
-0.326008,-0.20849,2.593,2.62172
-0.317592,-0.20849,2.593,2.62068
-0.309175,-0.20849,2.593,2.61968
-0.300759,-0.20849,2.593,2.6187
-0.294598,-0.210098,2.613,2.63793
-0.286117,-0.210098,2.613,2.637
-0.277636,-0.210098,2.613,2.63609
-0.269154,-0.210098,2.613,2.63521
-0.260673,-0.210098,2.613,2.63436
-0.252192,-0.210098,2.613,2.63354
-0.243711,-0.210098,2.613,2.63274
-0.23523,-0.210098,2.613,2.63197
-0.226749,-0.210098,2.613,2.63122
-0.218268,-0.210098,2.613,2.6305
-0.209786,-0.210098,2.613,2.62981
-0.201305,-0.210098,2.613,2.62915
-0.192824,-0.210098,2.613,2.62852
-0.184343,-0.210098,2.613,2.62791
-0.174516,-0.20849,2.593,2.60722
-0.164882,-0.206963,2.574,2.58757
-0.156528,-0.206963,2.574,2.58705
-0.148173,-0.206963,2.574,2.58655
-0.139819,-0.206963,2.574,2.58609
-0.131464,-0.206963,2.574,2.58565
-0.12311,-0.206963,2.574,2.58524
-0.114755,-0.206963,2.574,2.58486
-0.1064,-0.206963,2.574,2.5845
-0.0980459,-0.206963,2.574,2.58417
-0.0896914,-0.206963,2.574,2.58386
-0.0813368,-0.206963,2.574,2.58359
-0.0729822,-0.206963,2.574,2.58334
-0.0646277,-0.206963,2.574,2.58312
-0.0566885,-0.20849,2.593,2.60199
-0.0482722,-0.20849,2.593,2.60182
-0.039856,-0.20849,2.593,2.60167
-0.0314398,-0.20849,2.593,2.60156
-0.0230235,-0.20849,2.593,2.60147
-0.0146073,-0.20849,2.593,2.60141
-0.00619107,-0.20849,2.593,2.60138
0.00222516,-0.20849,2.593,2.60137
0.0106414,-0.20849,2.593,2.60139
0.0190576,-0.20849,2.593,2.60144
0.0276858,-0.210098,2.613,2.62158
0.0361669,-0.210098,2.613,2.62168
0.0446481,-0.210098,2.613,2.62181
0.0531292,-0.210098,2.613,2.62197
0.0616104,-0.210098,2.613,2.62216
0.0700915,-0.210098,2.613,2.62237
0.0785727,-0.210098,2.613,2.62261
0.0870538,-0.210098,2.613,2.62288
0.095535,-0.210098,2.613,2.62317
0.10322,-0.20849,2.593,2.60342
0.111636,-0.20849,2.593,2.60376
0.120052,-0.20849,2.593,2.60414
0.128469,-0.20849,2.593,2.60454
0.136885,-0.20849,2.593,2.60497
0.146422,-0.210098,2.613,2.62552
0.154903,-0.210098,2.613,2.62601
0.163384,-0.210098,2.613,2.62652
0.171865,-0.210098,2.613,2.62706
0.180346,-0.210098,2.613,2.62763
0.188828,-0.210098,2.613,2.62823
0.197309,-0.210098,2.613,2.62885
0.20579,-0.210098,2.613,2.6295
0.214271,-0.210098,2.613,2.63018
0.224457,-0.211707,2.633,2.65102
0.233003,-0.211707,2.633,2.65175
0.241549,-0.211707,2.633,2.65252
0.250095,-0.211707,2.633,2.65331
0.258641,-0.211707,2.633,2.65413
0.267187,-0.211707,2.633,2.65498
0.275734,-0.211707,2.633,2.65585
0.28428,-0.211707,2.633,2.65675
0.292826,-0.211707,2.633,2.65768
0.301372,-0.211707,2.633,2.65863
0.309918,-0.211707,2.633,2.65962
0.318464,-0.211707,2.633,2.66063
0.32701,-0.211707,2.633,2.66166
0.335556,-0.211707,2.633,2.66273
0.344102,-0.211707,2.633,2.66382
0.352648,-0.211707,2.633,2.66493
0.355707,-0.20849,2.593,2.62558
0.364123,-0.20849,2.593,2.62673
0.372539,-0.20849,2.593,2.62791
0.378164,-0.206963,2.574,2.60985
0.386519,-0.206963,2.574,2.61107
0.397788,-0.20849,2.593,2.63161
0.406204,-0.20849,2.593,2.63289
0.411583,-0.206963,2.574,2.6149
0.419937,-0.206963,2.574,2.61623
0.428292,-0.206963,2.574,2.61758
0.436646,-0.206963,2.574,2.61896
0.445001,-0.206963,2.574,2.62037
0.453355,-0.206963,2.574,2.6218
0.46171,-0.206963,2.574,2.62326
0.470064,-0.206963,2.574,2.62474
0.478419,-0.206963,2.574,2.62625
0.486774,-0.206963,2.574,2.62779
0.491473,-0.205435,2.555,2.60994
0.499766,-0.205435,2.555,2.61151
0.508059,-0.205435,2.555,2.61311
0.516352,-0.205435,2.555,2.61474
0.524645,-0.205435,2.555,2.61639
0.532938,-0.205435,2.555,2.61806
0.541231,-0.205435,2.555,2.61976
0.545437,-0.203907,2.536,2.60199
0.553668,-0.203907,2.536,2.60373
0.5619,-0.203907,2.536,2.6055
0.574402,-0.205435,2.555,2.62682
0.582695,-0.205435,2.555,2.62864
0.590988,-0.205435,2.555,2.63049
0.599281,-0.205435,2.555,2.63237
0.607574,-0.205435,2.555,2.63427
0.615867,-0.205435,2.555,2.63619
0.62416,-0.205435,2.555,2.63814
0.627749,-0.203907,2.536,2.62049
0.635981,-0.203907,2.536,2.62247
0.644212,-0.203907,2.536,2.62448
0.652443,-0.203907,2.536,2.62651
0.660674,-0.203907,2.536,2.62857
0.663894,-0.20238,2.517,2.61094
0.672064,-0.20238,2.517,2.61303
0.680233,-0.20238,2.517,2.61514
0.68348,-0.200932,2.499,2.59856
0.691591,-0.200932,2.499,2.60071
0.699702,-0.200932,2.499,2.60287
0.702715,-0.199485,2.481,2.5863
0.710768,-0.199485,2.481,2.5885
0.71882,-0.199485,2.481,2.59073
0.726873,-0.199485,2.481,2.59297
0.734926,-0.199485,2.481,2.59524
0.742978,-0.199485,2.481,2.59753
0.751031,-0.199485,2.481,2.59985
0.753577,-0.198038,2.463,2.58331
0.761571,-0.198038,2.463,2.58565
0.775189,-0.199485,2.481,2.60693
0.783242,-0.199485,2.481,2.60933
0.785554,-0.198038,2.463,2.59281
0.793548,-0.198038,2.463,2.59525
0.801542,-0.198038,2.463,2.5977
0.809537,-0.198038,2.463,2.60018
0.817531,-0.198038,2.463,2.60268
