-0.411523,-0.0874084,2.499,2.53417
-0.403412,-0.0874084,2.499,2.53286
-0.395301,-0.0874084,2.499,2.53158
-0.38719,-0.0874084,2.499,2.53033
-0.379079,-0.0874084,2.499,2.5291
-0.37364,-0.088038,2.517,2.5461
-0.36547,-0.088038,2.517,2.54492
-0.357301,-0.088038,2.517,2.54376
-0.349131,-0.088038,2.517,2.54262
-0.343535,-0.0887026,2.536,2.5607
-0.335304,-0.0887026,2.536,2.55961
-0.327073,-0.0887026,2.536,2.55854
-0.318842,-0.0887026,2.536,2.5575
-0.31061,-0.0887026,2.536,2.55649
-0.302379,-0.0887026,2.536,2.5555
-0.294148,-0.0887026,2.536,2.55454
-0.285917,-0.0887026,2.536,2.55361
-0.275605,-0.088038,2.517,2.53357
-0.267435,-0.088038,2.517,2.5327
-0.259266,-0.088038,2.517,2.53185
-0.251096,-0.088038,2.517,2.53103
-0.242927,-0.088038,2.517,2.53023
-0.234757,-0.088038,2.517,2.52946
-0.226588,-0.088038,2.517,2.52871
-0.218418,-0.088038,2.517,2.52799
-0.210249,-0.088038,2.517,2.5273
-0.202079,-0.088038,2.517,2.52663
-0.193909,-0.088038,2.517,2.52599
-0.18574,-0.088038,2.517,2.52538
-0.17757,-0.088038,2.517,2.52479
-0.169401,-0.088038,2.517,2.52423
-0.161231,-0.088038,2.517,2.52369
-0.153062,-0.088038,2.517,2.52319
-0.144892,-0.088038,2.517,2.5227
-0.136723,-0.088038,2.517,2.52225
-0.128553,-0.088038,2.517,2.52182
-0.121292,-0.0887026,2.536,2.54045
-0.113061,-0.0887026,2.536,2.54007
-0.10483,-0.0887026,2.536,2.53972
-0.0973222,-0.0893671,2.555,2.55841
-0.0890293,-0.0893671,2.555,2.55811
-0.0807364,-0.0893671,2.555,2.55784
-0.0724435,-0.0893671,2.555,2.55759
-0.0646277,-0.0900317,2.574,2.57639
-0.0562731,-0.0900317,2.574,2.57619
-0.0479185,-0.0900317,2.574,2.57602
-0.039564,-0.0900317,2.574,2.57588
-0.0312094,-0.0900317,2.574,2.57576
-0.0230235,-0.0906963,2.593,2.59469
-0.0146073,-0.0906963,2.593,2.59463
-0.00619107,-0.0906963,2.593,2.59459
0.00222516,-0.0906963,2.593,2.59459
0.0106414,-0.0906963,2.593,2.59461
0.0190576,-0.0906963,2.593,2.59466
0.0272725,-0.0900317,2.574,2.57572
0.0353641,-0.0893671,2.555,2.55681
0.043657,-0.0893671,2.555,2.55694
0.0519499,-0.0893671,2.555,2.55709
0.0597948,-0.0887026,2.536,2.53826
0.0680261,-0.0887026,2.536,2.53846
0.0762573,-0.0887026,2.536,2.5387
0.0844885,-0.0887026,2.536,2.53896
0.0927197,-0.0887026,2.536,2.53924
0.100951,-0.0887026,2.536,2.53956
0.109182,-0.0887026,2.536,2.5399
0.117413,-0.0887026,2.536,2.54027
0.125645,-0.0887026,2.536,2.54066
0.133876,-0.0887026,2.536,2.54108
0.142107,-0.0887026,2.536,2.54153
0.150338,-0.0887026,2.536,2.542
0.15857,-0.0887026,2.536,2.5425
0.16805,-0.0893671,2.555,2.56208
0.177655,-0.0900317,2.574,2.58169
0.186009,-0.0900317,2.574,2.58228
0.194364,-0.0900317,2.574,2.5829
0.202718,-0.0900317,2.574,2.58354
0.211073,-0.0900317,2.574,2.58421
0.221047,-0.0906963,2.593,2.60399
0.227782,-0.0900317,2.574,2.58563
0.236137,-0.0900317,2.574,2.58638
0.244491,-0.0900317,2.574,2.58715
0.252846,-0.0900317,2.574,2.58796
0.2612,-0.0900317,2.574,2.58878
0.269555,-0.0900317,2.574,2.58964
0.275858,-0.0893671,2.555,2.5714
0.284151,-0.0893671,2.555,2.57231
0.290269,-0.0887026,2.536,2.5541
0.2985,-0.0887026,2.536,2.55505
0.306732,-0.0887026,2.536,2.55602
0.312603,-0.088038,2.517,2.53787
0.320773,-0.088038,2.517,2.53888
0.32659,-0.0874084,2.499,2.52177
0.334701,-0.0874084,2.499,2.52283
0.342812,-0.0874084,2.499,2.52392
0.350923,-0.0874084,2.499,2.52503
0.359034,-0.0874084,2.499,2.52617
0.364501,-0.0867788,2.481,2.50913
0.372554,-0.0867788,2.481,2.51032
0.380606,-0.0867788,2.481,2.51152
0.388659,-0.0867788,2.481,2.51276
0.396712,-0.0867788,2.481,2.51402
0.404765,-0.0867788,2.481,2.5153
0.412817,-0.0867788,2.481,2.51661
0.417816,-0.0861492,2.463,2.49967
0.425811,-0.0861492,2.463,2.50102
0.433805,-0.0861492,2.463,2.50239
0.438571,-0.0855196,2.445,2.48549
0.446507,-0.0855196,2.445,2.48691
0.454442,-0.0855196,2.445,2.48834
0.462378,-0.0855196,2.445,2.48981
0.470314,-0.0855196,2.445,2.49129
0.47825,-0.0855196,2.445,2.4928
0.486186,-0.0855196,2.445,2.49434
0.497759,-0.0861492,2.463,2.51427
0.505754,-0.0861492,2.463,2.51587
0.517502,-0.0867788,2.481,2.53588
0.525555,-0.0867788,2.481,2.53754
0.537479,-0.0874084,2.499,2.55764
0.54952,-0.088038,2.517,2.57779
0.55769,-0.088038,2.517,2.57955
0.565859,-0.088038,2.517,2.58132
0.574029,-0.088038,2.517,2.58313
0.582199,-0.088038,2.517,2.58496
0.594824,-0.0887026,2.536,2.60633
0.603056,-0.0887026,2.536,2.60823
0.611287,-0.0887026,2.536,2.61014
0.619518,-0.0887026,2.536,2.61208
0.627749,-0.0887026,2.536,2.61405
0.640746,-0.0893671,2.555,2.63563
0.649038,-0.0893671,2.555,2.63766
0.657331,-0.0893671,2.555,2.63972
0.665624,-0.0893671,2.555,2.64179
0.673917,-0.0893671,2.555,2.64389
0.68221,-0.0893671,2.555,2.64602
0.690503,-0.0893671,2.555,2.64817
0.698796,-0.0893671,2.555,2.65034
0.707089,-0.0893671,2.555,2.65254
0.715382,-0.0893671,2.555,2.65477
0.729056,-0.0900317,2.574,2.67677
0.737411,-0.0900317,2.574,2.67906
0.74026,-0.0893671,2.555,2.66158
0.748553,-0.0893671,2.555,2.6639
0.756846,-0.0893671,2.555,2.66624
0.765139,-0.0893671,2.555,2.6686
0.779183,-0.0900317,2.574,2.69086
0.787538,-0.0900317,2.574,2.69329
0.795892,-0.0900317,2.574,2.69574
0.804247,-0.0900317,2.574,2.69822
0.812602,-0.0900317,2.574,2.70072
0.820956,-0.0900317,2.574,2.70325
0.835432,-0.0906963,2.593,2.72577
0.843849,-0.0906963,2.593,2.72836
0.852265,-0.0906963,2.593,2.73098
0.860681,-0.0906963,2.593,2.73361
0.869097,-0.0906963,2.593,2.73628
0.871084,-0.0900317,2.574,2.71889
0.879438,-0.0900317,2.574,2.72158
0.887793,-0.0900317,2.574,2.72429
0.889532,-0.0893671,2.555,2.70689
0.891149,-0.0887026,2.536,2.68948
0.89938,-0.0887026,2.536,2.69222
0.900811,-0.088038,2.517,2.67479
0.90248,-0.0874084,2.499,2.6584
0.910591,-0.0874084,2.499,2.66117
0.912085,-0.0867788,2.481,2.64477
0.913462,-0.0861492,2.463,2.62835
0.914722,-0.0855196,2.445,2.61191
0.922658,-0.0855196,2.445,2.6147
0.930594,-0.0855196,2.445,2.61751
0.932004,-0.084925,2.428,2.60212
0.939885,-0.084925,2.428,2.60495
0.947766,-0.084925,2.428,2.60781
0.955646,-0.084925,2.428,2.61068
0.963527,-0.084925,2.428,2.61358
0.971408,-0.084925,2.428,2.61649
0.979289,-0.084925,2.428,2.61943
0.994081,-0.0855196,2.445,2.64075
1.00202,-0.0855196,2.445,2.64374
1.00995,-0.0855196,2.445,2.64676
1.01789,-0.0855196,2.445,2.6498
1.03338,-0.0861492,2.463,2.67239
1.04137,-0.0861492,2.463,2.67549
1.04937,-0.0861492,2.463,2.67861
1.08054,-0.088038,2.517,2.74055
1.08871,-0.088038,2.517,2.74378
1.11344,-0.0893671,2.555,2.78851
1.13842,-0.0906963,2.593,2.83335
1.14683,-0.0906963,2.593,2.83674
1.16416,-0.0913958,2.613,2.86206
1.20046,-0.0935644,2.675,2.93351
1.21864,-0.0942989,2.696,2.96013
1.22739,-0.0942989,2.696,2.96375
1.26594,-0.0965725,2.761,3.03892
1.3063,-0.0989509,2.829,3.11761
1.31549,-0.0989509,2.829,3.12146
1.33591,-0.0997904,2.853,3.15186
1.35648,-0.10063,2.877,3.18234
1.37721,-0.101469,2.901,3.21291
1.38663,-0.101469,2.901,3.21696
1.39605,-0.101469,2.901,3.22103
1.41757,-0.102344,2.926,3.25292
1.42707,-0.102344,2.926,3.25707
1.44884,-0.103218,2.951,3.2891
1.45842,-0.103218,2.951,3.29333
1.468,-0.103218,2.951,3.29759
1.4906,-0.104128,2.977,3.33095
1.50026,-0.104128,2.977,3.33529
1.50992,-0.104128,2.977,3.33965
1.51958,-0.104128,2.977,3.34403
1.5426,-0.105037,3.003,3.37767
1.56631,-0.105981,3.03,3.41254
1.57614,-0.105981,3.03,3.41707
1.61424,-0.10787,3.084,3.48259
1.62425,-0.10787,3.084,3.48725
1.63426,-0.10787,3.084,3.49192
1.6592,-0.10885,3.112,3.52836
1.70041,-0.110878,3.17,3.59897
1.7107,-0.110878,3.17,3.60384
1.72099,-0.110878,3.17,3.60874
1.73128,-0.110878,3.17,3.61366
1.7575,-0.111893,3.199,3.6517
1.76788,-0.111893,3.199,3.65671
1.77827,-0.111893,3.199,3.66174
1.78865,-0.111893,3.199,3.6668
1.79903,-0.111893,3.199,3.67187
1.80941,-0.111893,3.199,3.67697
1.8198,-0.111893,3.199,3.68209
1.83018,-0.111893,3.199,3.68723
1.82388,-0.110878,3.17,3.65892
1.83417,-0.110878,3.17,3.66406
1.82758,-0.109864,3.141,3.63566
1.82081,-0.10885,3.112,3.60718
1.83091,-0.10885,3.112,3.61229
1.84101,-0.10885,3.112,3.61742
1.83446,-0.10787,3.084,3.58998
1.82832,-0.106926,3.057,3.56363
1.83824,-0.106926,3.057,3.56873
1.83184,-0.105981,3.03,3.54228
1.82526,-0.105037,3.003,3.51577
1.83501,-0.105037,3.003,3.52084
1.82879,-0.104128,2.977,3.4954
1.83845,-0.104128,2.977,3.50047
1.84811,-0.104128,2.977,3.50555
1.84155,-0.103218,2.951,3.47999
1.83545,-0.102344,2.926,3.45555
1.84494,-0.102344,2.926,3.4606
1.82338,-0.10063,2.877,3.40764
1.81743,-0.0997904,2.853,3.38417
1.81133,-0.0989509,2.829,3.36065
1.82051,-0.0989509,2.829,3.3656
1.79994,-0.097342,2.783,3.31577
1.78037,-0.095803,2.739,3.26818
1.78926,-0.095803,2.739,3.27304
1.76992,-0.0942989,2.696,3.22644
1.75097,-0.0928299,2.654,3.18091
1.75958,-0.0928299,2.654,3.18566
1.74088,-0.0913958,2.613,3.14114
1.72325,-0.0900317,2.574,3.0989
1.7316,-0.0900317,2.574,3.10355
1.71427,-0.0887026,2.536,3.06233
1.7096,-0.088038,2.517,3.04397
-1.90013,-0.0869154,2.739,3.33469
-1.89124,-0.0869154,2.739,3.32964
-1.88235,-0.0869154,2.739,3.32459
-1.87346,-0.0869154,2.739,3.31957
-1.86457,-0.0869154,2.739,3.31456
-1.85568,-0.0869154,2.739,3.30957
-1.84679,-0.0869154,2.739,3.30459
-1.85267,-0.0876135,2.761,3.32613
-1.85839,-0.0883116,2.783,3.34761
-1.84936,-0.0883116,2.783,3.34261
-1.84033,-0.0883116,2.783,3.33762
-1.84643,-0.0890414,2.806,3.36019
-1.83732,-0.0890414,2.806,3.35519
-1.82822,-0.0890414,2.806,3.35021
-1.83402,-0.0897713,2.829,3.37267
-1.84032,-0.0905329,2.853,3.39626
-1.83106,-0.0905329,2.853,3.39125
-1.83712,-0.0912945,2.877,3.41475
-1.82778,-0.0912945,2.877,3.40973
-1.81845,-0.0912945,2.877,3.40473
-1.83992,-0.0928493,2.926,3.45766
-1.83042,-0.0928493,2.926,3.45261
-1.83648,-0.0936427,2.951,3.47705
-1.82691,-0.0936427,2.951,3.472
-1.83334,-0.0944677,2.977,3.49751
-1.82368,-0.0944677,2.977,3.49246
-1.81401,-0.0944677,2.977,3.48742
-1.82011,-0.0952927,3.003,3.51282
-1.81036,-0.0952927,3.003,3.50778
-1.80062,-0.0952927,3.003,3.50276
-1.79087,-0.0952927,3.003,3.49776
-1.79714,-0.0961495,3.03,3.52418
-1.7873,-0.0961495,3.03,3.51918
-1.77747,-0.0961495,3.03,3.51419
-1.76763,-0.0961495,3.03,3.50923
-1.7578,-0.0961495,3.03,3.50428
-1.74796,-0.0961495,3.03,3.49936
nan,nan,nan,NaN
nan,nan,nan,NaN
nan,nan,nan,NaN
nan,nan,nan,NaN
nan,nan,nan,NaN
nan,nan,nan,NaN
nan,nan,nan,NaN
nan,nan,nan,NaN
nan,nan,nan,NaN
nan,nan,nan,NaN
nan,nan,nan,NaN
nan,nan,nan,NaN
nan,nan,nan,NaN
nan,nan,nan,NaN
nan,nan,nan,NaN
nan,nan,nan,NaN
nan,nan,nan,NaN
nan,nan,nan,NaN
nan,nan,nan,NaN
nan,nan,nan,NaN
nan,nan,nan,NaN
nan,nan,nan,NaN
nan,nan,nan,NaN
nan,nan,nan,NaN
nan,nan,nan,NaN
nan,nan,nan,NaN
-1.23144,-0.0798707,2.517,2.80323
-1.22327,-0.0798707,2.517,2.79965
-1.19772,-0.0787284,2.481,2.7561
-1.18104,-0.0781572,2.463,2.73264
-1.17305,-0.0781572,2.463,2.7292
-1.15654,-0.077586,2.445,2.70585
-1.14062,-0.0770466,2.428,2.68368
-1.13274,-0.0770466,2.428,2.68034
-1.12485,-0.0770466,2.428,2.67702
-1.10915,-0.0765071,2.411,2.65499
-1.09356,-0.0759676,2.394,2.63304
-1.08579,-0.0759676,2.394,2.62982
-1.07802,-0.0759676,2.394,2.62662
-1.06265,-0.0754282,2.377,2.60481
-1.05494,-0.0754282,2.377,2.60167
-1.04722,-0.0754282,2.377,2.59856
-1.03951,-0.0754282,2.377,2.59546
-1.03179,-0.0754282,2.377,2.59238
-1.01718,-0.0749205,2.361,2.57189
-1.00952,-0.0749205,2.361,2.56886
-0.995066,-0.0744128,2.345,2.54847
-0.987455,-0.0744128,2.345,2.54551
-0.979844,-0.0744128,2.345,2.54257
-0.972232,-0.0744128,2.345,2.53965
-0.964621,-0.0744128,2.345,2.53674
-0.95701,-0.0744128,2.345,2.53386
-0.955876,-0.0749205,2.361,2.54826
-0.948213,-0.0749205,2.361,2.5454
-0.94055,-0.0749205,2.361,2.54255
-0.932887,-0.0749205,2.361,2.53973
-0.925224,-0.0749205,2.361,2.53692
-0.91756,-0.0749205,2.361,2.53414
-0.909897,-0.0749205,2.361,2.53137
-0.902234,-0.0749205,2.361,2.52863
-0.894571,-0.0749205,2.361,2.5259
-0.886907,-0.0749205,2.361,2.5232
-0.873286,-0.0744128,2.345,2.50344
-0.865674,-0.0744128,2.345,2.50079
-0.858063,-0.0744128,2.345,2.49817
-0.850452,-0.0744128,2.345,2.49556
-0.842841,-0.0744128,2.345,2.49298
-0.835229,-0.0744128,2.345,2.49042
-0.827618,-0.0744128,2.345,2.48787
-0.814412,-0.073905,2.329,2.46839
-0.806852,-0.073905,2.329,2.46591
-0.799293,-0.073905,2.329,2.46345
-0.797173,-0.0744128,2.345,2.47791
-0.789562,-0.0744128,2.345,2.47547
-0.78195,-0.0744128,2.345,2.47306
-0.774339,-0.0744128,2.345,2.47066
-0.766728,-0.0744128,2.345,2.46829
-0.759116,-0.0744128,2.345,2.46593
-0.751505,-0.0744128,2.345,2.4636
-0.748969,-0.0749205,2.361,2.47808
-0.741306,-0.0749205,2.361,2.47578
-0.733643,-0.0749205,2.361,2.47349
-0.7309,-0.0754282,2.377,2.48798
-0.723184,-0.0754282,2.377,2.48572
-0.715469,-0.0754282,2.377,2.48349
-0.712816,-0.0759676,2.394,2.49902
-0.705046,-0.0759676,2.394,2.49682
-0.697275,-0.0759676,2.394,2.49463
-0.694401,-0.0765071,2.411,2.51017
-0.686576,-0.0765071,2.411,2.50802
-0.683536,-0.0770466,2.428,2.52356
-0.675655,-0.0770466,2.428,2.52143
-0.667775,-0.0770466,2.428,2.51933
-0.659894,-0.0770466,2.428,2.51726
-0.652013,-0.0770466,2.428,2.5152
-0.648643,-0.077586,2.445,2.53077
-0.640707,-0.077586,2.445,2.52874
-0.632771,-0.077586,2.445,2.52675
-0.629435,-0.0781572,2.463,2.54336
-0.621441,-0.0781572,2.463,2.54139
-0.61793,-0.0787284,2.481,2.55801
-0.609877,-0.0787284,2.481,2.55607
-0.601824,-0.0787284,2.481,2.55416
-0.593771,-0.0787284,2.481,2.55228
-0.585719,-0.0787284,2.481,2.55042
-0.577666,-0.0787284,2.481,2.54858
-0.569613,-0.0787284,2.481,2.54677
-0.561561,-0.0787284,2.481,2.54498
-0.553508,-0.0787284,2.481,2.54321
-0.545455,-0.0787284,2.481,2.54147
-0.537403,-0.0787284,2.481,2.53976
-0.52935,-0.0787284,2.481,2.53806
-0.521297,-0.0787284,2.481,2.5364
-0.513244,-0.0787284,2.481,2.53475
-0.505192,-0.0787284,2.481,2.53314
-0.497139,-0.0787284,2.481,2.53154
-0.489086,-0.0787284,2.481,2.52997
-0.477544,-0.0781572,2.463,2.51008
-0.469549,-0.0781572,2.463,2.50858
-0.461555,-0.0781572,2.463,2.50709
-0.453561,-0.0781572,2.463,2.50563
-0.448823,-0.0787284,2.481,2.5225
-0.44077,-0.0787284,2.481,2.52108
-0.432717,-0.0787284,2.481,2.51968
-0.424665,-0.0787284,2.481,2.51831
-0.416612,-0.0787284,2.481,2.51697
-0.408559,-0.0787284,2.481,2.51565
-0.400506,-0.0787284,2.481,2.51435
-0.392454,-0.0787284,2.481,2.51308
-0.38719,-0.0792996,2.499,2.53006
-0.379079,-0.0792996,2.499,2.52883
-0.370968,-0.0792996,2.499,2.52763
-0.362857,-0.0792996,2.499,2.52645
-0.357301,-0.0798707,2.517,2.54349
-0.349131,-0.0798707,2.517,2.54235
-0.343535,-0.0804737,2.536,2.56043
-0.335304,-0.0804737,2.536,2.55934
-0.327073,-0.0804737,2.536,2.55827
-0.316453,-0.0798707,2.517,2.53807
-0.308283,-0.0798707,2.517,2.53707
-0.300114,-0.0798707,2.517,2.53609
-0.291944,-0.0798707,2.517,2.53513
-0.283775,-0.0798707,2.517,2.53421
-0.275605,-0.0798707,2.517,2.5333
-0.267435,-0.0798707,2.517,2.53243
-0.259266,-0.0798707,2.517,2.53158
-0.251096,-0.0798707,2.517,2.53075
-0.242927,-0.0798707,2.517,2.52996
-0.234757,-0.0798707,2.517,2.52919
-0.226588,-0.0798707,2.517,2.52844
-0.218418,-0.0798707,2.517,2.52772
-0.210249,-0.0798707,2.517,2.52703
-0.202079,-0.0798707,2.517,2.52636
-0.193909,-0.0798707,2.517,2.52572
-0.18574,-0.0798707,2.517,2.52511
-0.17757,-0.0798707,2.517,2.52452
-0.169401,-0.0798707,2.517,2.52396
-0.161231,-0.0798707,2.517,2.52342
-0.153062,-0.0798707,2.517,2.52291
-0.145986,-0.0804737,2.536,2.54147
-0.137755,-0.0804737,2.536,2.54101
-0.129523,-0.0804737,2.536,2.54058
-0.121292,-0.0804737,2.536,2.54017
-0.113061,-0.0804737,2.536,2.53979
-0.10483,-0.0804737,2.536,2.53944
-0.0973222,-0.0810766,2.555,2.55814
-0.0890293,-0.0810766,2.555,2.55784
-0.0807364,-0.0810766,2.555,2.55756
-0.0724435,-0.0810766,2.555,2.55731
-0.0641506,-0.0810766,2.555,2.55709
-0.0558577,-0.0810766,2.555,2.5569
-0.0479185,-0.0816795,2.574,2.57574
-0.039564,-0.0816795,2.574,2.5756
-0.0312094,-0.0816795,2.574,2.57548
-0.0228548,-0.0816795,2.574,2.5754
-0.0145003,-0.0816795,2.574,2.57534
-0.00614571,-0.0816795,2.574,2.5753
0.00220886,-0.0816795,2.574,2.5753
0.0105634,-0.0816795,2.574,2.57532
0.018918,-0.0816795,2.574,2.57537
0.0270712,-0.0810766,2.555,2.55643
0.0353641,-0.0810766,2.555,2.55653
0.043657,-0.0810766,2.555,2.55666
0.0519499,-0.0810766,2.555,2.55681
0.0597948,-0.0804737,2.536,2.53798
0.0680261,-0.0804737,2.536,2.53819
0.0762573,-0.0804737,2.536,2.53842
0.0844885,-0.0804737,2.536,2.53868
0.0927197,-0.0804737,2.536,2.53897
0.100951,-0.0804737,2.536,2.53928
0.109182,-0.0804737,2.536,2.53962
0.117413,-0.0804737,2.536,2.53999
0.125645,-0.0804737,2.536,2.54039
0.133876,-0.0804737,2.536,2.54081
0.142107,-0.0804737,2.536,2.54125
0.150338,-0.0804737,2.536,2.54173
0.15857,-0.0804737,2.536,2.54223
0.16805,-0.0810766,2.555,2.5618
0.177655,-0.0816795,2.574,2.58142
0.186009,-0.0816795,2.574,2.582
0.194364,-0.0816795,2.574,2.58262
0.202718,-0.0816795,2.574,2.58326
0.211073,-0.0816795,2.574,2.58393
0.221047,-0.0822824,2.593,2.60371
0.227782,-0.0816795,2.574,2.58535
0.236137,-0.0816795,2.574,2.5861
0.244491,-0.0816795,2.574,2.58688
0.252846,-0.0816795,2.574,2.58768
0.2612,-0.0816795,2.574,2.58851
0.269555,-0.0816795,2.574,2.58936
0.275858,-0.0810766,2.555,2.57113
0.284151,-0.0810766,2.555,2.57203
0.290269,-0.0804737,2.536,2.55383
0.2985,-0.0804737,2.536,2.55477
0.306732,-0.0804737,2.536,2.55575
0.312603,-0.0798707,2.517,2.5376
0.320773,-0.0798707,2.517,2.53861
0.32659,-0.0792996,2.499,2.5215
0.334701,-0.0792996,2.499,2.52256
0.342812,-0.0792996,2.499,2.52365
0.350923,-0.0792996,2.499,2.52476
0.359034,-0.0792996,2.499,2.5259
0.364501,-0.0787284,2.481,2.50887
0.372554,-0.0787284,2.481,2.51005
0.380606,-0.0787284,2.481,2.51126
0.388659,-0.0787284,2.481,2.51249
0.396712,-0.0787284,2.481,2.51375
nan,nan,nan,NaN
nan,nan,nan,NaN
nan,nan,nan,NaN
nan,nan,nan,NaN
nan,nan,nan,NaN
0.438571,-0.077586,2.445,2.48523
0.446507,-0.077586,2.445,2.48665
0.454442,-0.077586,2.445,2.48808
0.462378,-0.077586,2.445,2.48955
0.470314,-0.077586,2.445,2.49103
0.47825,-0.077586,2.445,2.49254
0.486186,-0.077586,2.445,2.49408
0.497759,-0.0781572,2.463,2.51401
0.505754,-0.0781572,2.463,2.5156
0.513748,-0.0781572,2.463,2.51722
0.521742,-0.0781572,2.463,2.51887
0.533608,-0.0787284,2.481,2.53896
0.54952,-0.0798707,2.517,2.57753
0.55769,-0.0798707,2.517,2.57928
0.565859,-0.0798707,2.517,2.58106
0.574029,-0.0798707,2.517,2.58286
0.582199,-0.0798707,2.517,2.58469
0.594824,-0.0804737,2.536,2.60607
0.603056,-0.0804737,2.536,2.60796
0.611287,-0.0804737,2.536,2.60987
0.619518,-0.0804737,2.536,2.61181
0.627749,-0.0804737,2.536,2.61378
0.640746,-0.0810766,2.555,2.63537
0.649038,-0.0810766,2.555,2.63739
0.657331,-0.0810766,2.555,2.63945
0.665624,-0.0810766,2.555,2.64153
0.673917,-0.0810766,2.555,2.64363
0.68221,-0.0810766,2.555,2.64575
0.690503,-0.0810766,2.555,2.6479
0.698796,-0.0810766,2.555,2.65008
0.707089,-0.0810766,2.555,2.65228
0.715382,-0.0810766,2.555,2.6545
0.729056,-0.0816795,2.574,2.6765
0.737411,-0.0816795,2.574,2.67879
0.74026,-0.0810766,2.555,2.66131
0.748553,-0.0810766,2.555,2.66363
0.756846,-0.0810766,2.555,2.66597
0.765139,-0.0810766,2.555,2.66834
0.779183,-0.0816795,2.574,2.69059
0.787538,-0.0816795,2.574,2.69302
0.795892,-0.0816795,2.574,2.69548
0.804247,-0.0816795,2.574,2.69796
0.812602,-0.0816795,2.574,2.70046
0.820956,-0.0816795,2.574,2.70298
0.835432,-0.0822824,2.593,2.7255
0.843849,-0.0822824,2.593,2.72809
0.852265,-0.0822824,2.593,2.73071
0.860681,-0.0822824,2.593,2.73335
0.869097,-0.0822824,2.593,2.73601
0.871084,-0.0816795,2.574,2.71863
0.872947,-0.0810766,2.555,2.70123
0.881239,-0.0810766,2.555,2.70392
0.889532,-0.0810766,2.555,2.70663
0.891149,-0.0804737,2.536,2.68922
0.89938,-0.0804737,2.536,2.69196
0.900811,-0.0798707,2.517,2.67453
0.90248,-0.0792996,2.499,2.65815
0.904033,-0.0787284,2.481,2.64175
0.912085,-0.0787284,2.481,2.64452
0.913462,-0.0781572,2.463,2.6281
0.914722,-0.077586,2.445,2.61166
0.922658,-0.077586,2.445,2.61445
0.930594,-0.077586,2.445,2.61726
0.932004,-0.0770466,2.428,2.60188
0.939885,-0.0770466,2.428,2.60471
0.947766,-0.0770466,2.428,2.60756
0.955646,-0.0770466,2.428,2.61044
0.963527,-0.0770466,2.428,2.61333
0.971408,-0.0770466,2.428,2.61625
0.979289,-0.0770466,2.428,2.61918
0.987169,-0.0770466,2.428,2.62214
0.99505,-0.0770466,2.428,2.62512
1.00995,-0.077586,2.445,2.64652
1.02538,-0.0781572,2.463,2.66906
1.03338,-0.0781572,2.463,2.67214
1.04137,-0.0781572,2.463,2.67524
1.05703,-0.0787284,2.481,2.69794
1.08054,-0.0798707,2.517,2.7403
1.08871,-0.0798707,2.517,2.74353
1.11344,-0.0810766,2.555,2.78825
1.13842,-0.0822824,2.593,2.83309
1.14683,-0.0822824,2.593,2.83648
1.17307,-0.0835517,2.633,2.88371
1.20046,-0.0848845,2.675,2.93325
1.22813,-0.0862172,2.717,2.98292
1.23695,-0.0862172,2.717,2.98657
1.27603,-0.0883116,2.783,3.06287
1.3063,-0.0897713,2.829,3.11733
1.31549,-0.0897713,2.829,3.12119
1.33591,-0.0905329,2.853,3.15158
1.35648,-0.0912945,2.877,3.18206
1.36582,-0.0912945,2.877,3.18605
1.37516,-0.0912945,2.877,3.19007
1.39605,-0.092056,2.901,3.22075
1.41757,-0.0928493,2.926,3.25263
1.42707,-0.0928493,2.926,3.25678
1.44884,-0.0936427,2.951,3.28882
1.45842,-0.0936427,2.951,3.29305
1.468,-0.0936427,2.951,3.2973
1.47758,-0.0936427,2.951,3.30158
1.50026,-0.0944677,2.977,3.335
1.50992,-0.0944677,2.977,3.33936
1.51958,-0.0944677,2.977,3.34374
1.5426,-0.0952927,3.003,3.37738
1.56631,-0.0961495,3.03,3.41225
1.57614,-0.0961495,3.03,3.41678
1.60011,-0.0970063,3.057,3.45181
1.62425,-0.0978631,3.084,3.48695
1.63426,-0.0978631,3.084,3.49162
1.6592,-0.0987516,3.112,3.52806
1.68485,-0.0996718,3.141,3.56575
1.69505,-0.0996718,3.141,3.57058
1.70524,-0.0996718,3.141,3.57543
1.73128,-0.100592,3.17,3.61336
1.74157,-0.100592,3.17,3.6183
1.75186,-0.100592,3.17,3.62326
1.76214,-0.100592,3.17,3.62825
1.77243,-0.100592,3.17,3.63326
1.78272,-0.100592,3.17,3.63829
1.79301,-0.100592,3.17,3.64334
1.8033,-0.100592,3.17,3.64841
1.81359,-0.100592,3.17,3.65351
1.80719,-0.0996718,3.141,3.62516
1.81739,-0.0996718,3.141,3.63025
1.81071,-0.0987516,3.112,3.6018
1.82081,-0.0987516,3.112,3.60689
1.81444,-0.0978631,3.084,3.5795
1.82445,-0.0978631,3.084,3.58458
1.83446,-0.0978631,3.084,3.58969
1.82832,-0.0970063,3.057,3.56334
1.83824,-0.0970063,3.057,3.56844
1.83184,-0.0961495,3.03,3.542
1.82526,-0.0952927,3.003,3.51549
1.83501,-0.0952927,3.003,3.52056
1.82879,-0.0944677,2.977,3.49513
1.82239,-0.0936427,2.951,3.46962
1.83197,-0.0936427,2.951,3.47466
1.82595,-0.0928493,2.926,3.45024
1.81976,-0.092056,2.901,3.42576
1.82918,-0.092056,2.901,3.43077
1.82338,-0.0912945,2.877,3.40737
1.81743,-0.0905329,2.853,3.38391
1.81133,-0.0897713,2.829,3.36039
1.82051,-0.0897713,2.829,3.36535
1.79994,-0.0883116,2.783,3.31552
1.78037,-0.0869154,2.739,3.26794
1.78926,-0.0869154,2.739,3.27279
1.76992,-0.0855509,2.696,3.2262
1.75097,-0.0842181,2.654,3.18067
1.75958,-0.0842181,2.654,3.18542
1.74088,-0.0829171,2.613,3.14091
1.72325,-0.0816795,2.574,3.09867
1.7316,-0.0816795,2.574,3.10332
1.71427,-0.0804737,2.536,3.06211
1.7096,-0.0798707,2.517,3.04375
-1.90013,-0.0780278,2.739,3.33447
-1.89124,-0.0780278,2.739,3.32942
-1.88235,-0.0780278,2.739,3.32437
-1.87346,-0.0780278,2.739,3.31935
-1.86457,-0.0780278,2.739,3.31434
-1.85568,-0.0780278,2.739,3.30935
-1.84679,-0.0780278,2.739,3.30437
-1.85267,-0.0786545,2.761,3.32591
-1.85839,-0.0792812,2.783,3.34739
-1.84936,-0.0792812,2.783,3.34238
-1.84033,-0.0792812,2.783,3.33739
-1.84643,-0.0799364,2.806,3.35996
-1.83732,-0.0799364,2.806,3.35496
-1.82822,-0.0799364,2.806,3.34998
-1.83402,-0.0805916,2.829,3.37244
-1.84032,-0.0812754,2.853,3.39602
-1.83106,-0.0812754,2.853,3.39102
-1.83712,-0.0819591,2.877,3.41451
-1.82778,-0.0819591,2.877,3.40949
-1.81845,-0.0819591,2.877,3.4045
-1.83992,-0.0833549,2.926,3.45742
-1.83042,-0.0833549,2.926,3.45237
-1.83648,-0.0840671,2.951,3.4768
-1.82691,-0.0840671,2.951,3.47175
-1.83334,-0.0848078,2.977,3.49726
-1.82368,-0.0848078,2.977,3.49221
-1.81401,-0.0848078,2.977,3.48717
-1.82011,-0.0855485,3.003,3.51257
-1.81036,-0.0855485,3.003,3.50753
-1.80062,-0.0855485,3.003,3.50251
-1.79087,-0.0855485,3.003,3.49751
-1.79714,-0.0863177,3.03,3.52393
-1.7873,-0.0863177,3.03,3.51892
-1.77747,-0.0863177,3.03,3.51394
-1.75188,-0.0855485,3.003,3.4777
-1.74213,-0.0855485,3.003,3.4728
-1.73239,-0.0855485,3.003,3.46792
-1.70773,-0.0848078,2.977,3.43308
-1.69806,-0.0848078,2.977,3.42829
-1.6884,-0.0848078,2.977,3.42351
nan,nan,nan,NaN
nan,nan,nan,NaN
nan,nan,nan,NaN
nan,nan,nan,NaN
nan,nan,nan,NaN
nan,nan,nan,NaN
nan,nan,nan,NaN
nan,nan,nan,NaN
nan,nan,nan,NaN
nan,nan,nan,NaN
nan,nan,nan,NaN
nan,nan,nan,NaN
nan,nan,nan,NaN
nan,nan,nan,NaN
nan,nan,nan,NaN
nan,nan,nan,NaN
nan,nan,nan,NaN
nan,nan,nan,NaN
nan,nan,nan,NaN
nan,nan,nan,NaN
nan,nan,nan,NaN
nan,nan,nan,NaN
-1.26769,-0.0733273,2.574,2.87017
-1.23144,-0.0717035,2.517,2.80301
-1.22327,-0.0717035,2.517,2.79943
-1.19772,-0.0706779,2.481,2.75588
-1.18104,-0.0701652,2.463,2.73243
-1.17305,-0.0701652,2.463,2.72898
-1.15654,-0.0696524,2.445,2.70563
-1.14062,-0.0691681,2.428,2.68346
-1.13274,-0.0691681,2.428,2.68012
-1.12485,-0.0691681,2.428,2.6768
-1.10915,-0.0686838,2.411,2.65478
-1.09356,-0.0681995,2.394,2.63282
-1.08579,-0.0681995,2.394,2.62961
-1.07802,-0.0681995,2.394,2.62641
-1.06265,-0.0677152,2.377,2.6046
-1.05494,-0.0677152,2.377,2.60146
-1.04722,-0.0677152,2.377,2.59834
-1.03951,-0.0677152,2.377,2.59524
-1.03179,-0.0677152,2.377,2.59216
-1.01718,-0.0672594,2.361,2.57167
-1.00952,-0.0672594,2.361,2.56865
-1.00186,-0.0672594,2.361,2.56565
-0.994193,-0.0672594,2.361,2.56267
-0.986529,-0.0672594,2.361,2.5597
-0.978866,-0.0672594,2.361,2.55676
-0.971203,-0.0672594,2.361,2.55384
-0.96354,-0.0672594,2.361,2.55093
-0.955876,-0.0672594,2.361,2.54805
-0.948213,-0.0672594,2.361,2.54518
-0.94055,-0.0672594,2.361,2.54234
-0.932887,-0.0672594,2.361,2.53951
-0.925224,-0.0672594,2.361,2.53671
-0.91756,-0.0672594,2.361,2.53392
-0.909897,-0.0672594,2.361,2.53116
-0.902234,-0.0672594,2.361,2.52841
-0.894571,-0.0672594,2.361,2.52569
-0.886907,-0.0672594,2.361,2.52298
-0.879244,-0.0672594,2.361,2.5203
-0.871581,-0.0672594,2.361,2.51764
-0.863918,-0.0672594,2.361,2.51499
-0.856255,-0.0672594,2.361,2.51237
-0.848591,-0.0672594,2.361,2.50977
-0.840928,-0.0672594,2.361,2.50719
-0.827618,-0.0668036,2.345,2.48766
-0.820007,-0.0668036,2.345,2.48514
-0.812395,-0.0668036,2.345,2.48263
-0.804784,-0.0668036,2.345,2.48015
-0.797173,-0.0668036,2.345,2.47769
-0.789562,-0.0668036,2.345,2.47526
-0.78195,-0.0668036,2.345,2.47284
-0.774339,-0.0668036,2.345,2.47044
-0.771959,-0.0672594,2.361,2.48491
-0.764296,-0.0672594,2.361,2.48254
-0.756633,-0.0672594,2.361,2.48019
-0.748969,-0.0672594,2.361,2.47786
-0.741306,-0.0672594,2.361,2.47556
-0.733643,-0.0672594,2.361,2.47327
-0.7309,-0.0677152,2.377,2.48776
-0.723184,-0.0677152,2.377,2.4855
-0.715469,-0.0677152,2.377,2.48327
-0.712816,-0.0681995,2.394,2.4988
-0.705046,-0.0681995,2.394,2.49659
-0.697275,-0.0681995,2.394,2.49441
-0.694401,-0.0686838,2.411,2.50995
-0.691417,-0.0691681,2.428,2.52548
-0.683536,-0.0691681,2.428,2.52333
-0.675655,-0.0691681,2.428,2.52121
-0.667775,-0.0691681,2.428,2.51911
-0.659894,-0.0691681,2.428,2.51703
-0.652013,-0.0691681,2.428,2.51497
-0.648643,-0.0696524,2.445,2.53054
-0.640707,-0.0696524,2.445,2.52851
-0.632771,-0.0696524,2.445,2.52651
-0.629435,-0.0701652,2.463,2.54312
-0.621441,-0.0701652,2.463,2.54116
-0.61793,-0.0706779,2.481,2.55777
-0.609877,-0.0706779,2.481,2.55584
-0.601824,-0.0706779,2.481,2.55393
-0.593771,-0.0706779,2.481,2.55204
-0.585719,-0.0706779,2.481,2.55018
-0.577666,-0.0706779,2.481,2.54834
-0.569613,-0.0706779,2.481,2.54653
-0.561561,-0.0706779,2.481,2.54474
-0.553508,-0.0706779,2.481,2.54298
-0.545455,-0.0706779,2.481,2.54124
-0.537403,-0.0706779,2.481,2.53952
-0.52935,-0.0706779,2.481,2.53783
-0.521297,-0.0706779,2.481,2.53616
-0.513244,-0.0706779,2.481,2.53452
-0.505192,-0.0706779,2.481,2.5329
-0.497139,-0.0706779,2.481,2.5313
-0.489086,-0.0706779,2.481,2.52974
-0.477544,-0.0701652,2.463,2.50985
-0.469549,-0.0701652,2.463,2.50834
-0.461555,-0.0701652,2.463,2.50686
-0.453561,-0.0701652,2.463,2.5054
-0.445566,-0.0701652,2.463,2.50396
-0.437572,-0.0701652,2.463,2.50255
-0.432717,-0.0706779,2.481,2.51944
-0.424665,-0.0706779,2.481,2.51807
-0.416612,-0.0706779,2.481,2.51673
-0.408559,-0.0706779,2.481,2.51541
-0.400506,-0.0706779,2.481,2.51411
-0.392454,-0.0706779,2.481,2.51284
-0.38719,-0.0711907,2.499,2.52982
-0.379079,-0.0711907,2.499,2.52859
-0.370968,-0.0711907,2.499,2.52739
-0.362857,-0.0711907,2.499,2.52621
-0.357301,-0.0717035,2.517,2.54324
-0.349131,-0.0717035,2.517,2.54211
-0.343535,-0.0722448,2.536,2.56018
-0.335304,-0.0722448,2.536,2.55909
-0.327073,-0.0722448,2.536,2.55802
-0.316453,-0.0717035,2.517,2.53783
-0.308283,-0.0717035,2.517,2.53682
-0.300114,-0.0717035,2.517,2.53584
-0.291944,-0.0717035,2.517,2.53489
-0.283775,-0.0717035,2.517,2.53396
-0.275605,-0.0717035,2.517,2.53306
-0.267435,-0.0717035,2.517,2.53218
-0.259266,-0.0717035,2.517,2.53133
-0.251096,-0.0717035,2.517,2.53051
-0.242927,-0.0717035,2.517,2.52971
-0.234757,-0.0717035,2.517,2.52894
-0.226588,-0.0717035,2.517,2.5282
-0.218418,-0.0717035,2.517,2.52748
-0.210249,-0.0717035,2.517,2.52678
-0.202079,-0.0717035,2.517,2.52612
-0.193909,-0.0717035,2.517,2.52548
-0.18574,-0.0717035,2.517,2.52486
-0.17757,-0.0717035,2.517,2.52427
-0.169401,-0.0717035,2.517,2.52371
-0.161231,-0.0717035,2.517,2.52318
-0.154217,-0.0722448,2.536,2.54171
-0.145986,-0.0722448,2.536,2.54123
-0.137755,-0.0722448,2.536,2.54077
-0.129523,-0.0722448,2.536,2.54033
-0.121292,-0.0722448,2.536,2.53993
-0.113061,-0.0722448,2.536,2.53955
-0.10483,-0.0722448,2.536,2.53919
-0.0973222,-0.072786,2.555,2.55789
-0.0890293,-0.072786,2.555,2.55759
-0.0807364,-0.072786,2.555,2.55731
-0.0724435,-0.072786,2.555,2.55706
-0.0641506,-0.072786,2.555,2.55684
-0.0558577,-0.072786,2.555,2.55665
-0.0479185,-0.0733273,2.574,2.57549
-0.039564,-0.0733273,2.574,2.57535
-0.0312094,-0.0733273,2.574,2.57523
-0.0228548,-0.0733273,2.574,2.57515
-0.0145003,-0.0733273,2.574,2.57509
-0.00614571,-0.0733273,2.574,2.57505
0.00220886,-0.0733273,2.574,2.57505
0.0105634,-0.0733273,2.574,2.57507
0.018918,-0.0733273,2.574,2.57511
0.0270712,-0.072786,2.555,2.55618
0.0353641,-0.072786,2.555,2.55628
0.043657,-0.072786,2.555,2.55641
0.0519499,-0.072786,2.555,2.55656
0.0597948,-0.0722448,2.536,2.53773
0.0680261,-0.0722448,2.536,2.53794
0.0762573,-0.0722448,2.536,2.53817
0.0844885,-0.0722448,2.536,2.53844
0.0927197,-0.0722448,2.536,2.53872
0.100951,-0.0722448,2.536,2.53904
0.109182,-0.0722448,2.536,2.53938
0.117413,-0.0722448,2.536,2.53974
0.125645,-0.0722448,2.536,2.54014
0.133876,-0.0722448,2.536,2.54056
0.142107,-0.0722448,2.536,2.54101
0.150338,-0.0722448,2.536,2.54148
0.15857,-0.0722448,2.536,2.54198
0.16805,-0.072786,2.555,2.56155
0.177655,-0.0733273,2.574,2.58117
0.186009,-0.0733273,2.574,2.58175
0.194364,-0.0733273,2.574,2.58237
0.202718,-0.0733273,2.574,2.58301
0.211073,-0.0733273,2.574,2.58368
0.221047,-0.0738686,2.593,2.60345
0.227782,-0.0733273,2.574,2.5851
0.236137,-0.0733273,2.574,2.58585
0.244491,-0.0733273,2.574,2.58663
0.252846,-0.0733273,2.574,2.58743
0.2612,-0.0733273,2.574,2.58826
0.269555,-0.0733273,2.574,2.58911
0.275858,-0.072786,2.555,2.57088
0.284151,-0.072786,2.555,2.57178
0.290269,-0.0722448,2.536,2.55358
0.2985,-0.0722448,2.536,2.55453
0.306732,-0.0722448,2.536,2.5555
0.312603,-0.0717035,2.517,2.53735
0.320773,-0.0717035,2.517,2.53837
0.32659,-0.0711907,2.499,2.52126
0.334701,-0.0711907,2.499,2.52232
0.342812,-0.0711907,2.499,2.52341
0.350923,-0.0711907,2.499,2.52452
0.359034,-0.0711907,2.499,2.52566
0.364501,-0.0706779,2.481,2.50863
0.372554,-0.0706779,2.481,2.50981
0.380606,-0.0706779,2.481,2.51102
0.388659,-0.0706779,2.481,2.51225
0.396712,-0.0706779,2.481,2.51351
0.404765,-0.0706779,2.481,2.51479
0.412817,-0.0706779,2.481,2.5161
0.42087,-0.0706779,2.481,2.51744
nan,nan,nan,NaN
nan,nan,nan,NaN
0.438571,-0.0696524,2.445,2.485
0.446507,-0.0696524,2.445,2.48641
0.454442,-0.0696524,2.445,2.48785
0.462378,-0.0696524,2.445,2.48931
0.470314,-0.0696524,2.445,2.4908
0.47825,-0.0696524,2.445,2.49231
0.486186,-0.0696524,2.445,2.49384
0.497759,-0.0701652,2.463,2.51377
0.505754,-0.0701652,2.463,2.51537
0.513748,-0.0701652,2.463,2.51699
0.521742,-0.0701652,2.463,2.51863
0.533608,-0.0706779,2.481,2.53872
0.54952,-0.0717035,2.517,2.57729
0.55769,-0.0717035,2.517,2.57904
0.565859,-0.0717035,2.517,2.58082
0.578362,-0.0722448,2.536,2.60212
0.586593,-0.0722448,2.536,2.60396
0.594824,-0.0722448,2.536,2.60583
0.603056,-0.0722448,2.536,2.60772
0.611287,-0.0722448,2.536,2.60963
0.619518,-0.0722448,2.536,2.61157
0.627749,-0.0722448,2.536,2.61354
0.640746,-0.072786,2.555,2.63512
0.649038,-0.072786,2.555,2.63715
0.657331,-0.072786,2.555,2.63921
0.670574,-0.0733273,2.574,2.66093
0.678929,-0.0733273,2.574,2.66304
0.687283,-0.0733273,2.574,2.66519
0.695638,-0.0733273,2.574,2.66735
0.703992,-0.0733273,2.574,2.66954
0.712347,-0.0733273,2.574,2.67176
0.720701,-0.0733273,2.574,2.674
0.729056,-0.0733273,2.574,2.67626
0.737411,-0.0733273,2.574,2.67855
0.745765,-0.0733273,2.574,2.68086
0.75412,-0.0733273,2.574,2.6832
0.762474,-0.0733273,2.574,2.68556
0.770829,-0.0733273,2.574,2.68794
0.779183,-0.0733273,2.574,2.69035
0.787538,-0.0733273,2.574,2.69278
0.795892,-0.0733273,2.574,2.69524
0.804247,-0.0733273,2.574,2.69772
0.812602,-0.0733273,2.574,2.70022
0.820956,-0.0733273,2.574,2.70274
0.835432,-0.0738686,2.593,2.72526
0.843849,-0.0738686,2.593,2.72785
0.852265,-0.0738686,2.593,2.73047
0.854374,-0.0733273,2.574,2.71308
0.862729,-0.0733273,2.574,2.71572
0.871084,-0.0733273,2.574,2.71839
0.872947,-0.072786,2.555,2.70099
0.881239,-0.072786,2.555,2.70368
0.882918,-0.0722448,2.536,2.68627
0.884472,-0.0717035,2.517,2.66884
0.892642,-0.0717035,2.517,2.67156
0.894369,-0.0711907,2.499,2.65518
0.89598,-0.0706779,2.481,2.63878
0.897474,-0.0701652,2.463,2.62236
0.905468,-0.0701652,2.463,2.6251
0.906787,-0.0696524,2.445,2.60867
0.914722,-0.0696524,2.445,2.61144
0.922658,-0.0696524,2.445,2.61423
0.924124,-0.0691681,2.428,2.59884
0.932004,-0.0691681,2.428,2.60165
0.939885,-0.0691681,2.428,2.60449
0.947766,-0.0691681,2.428,2.60734
0.955646,-0.0691681,2.428,2.61022
0.963527,-0.0691681,2.428,2.61311
0.971408,-0.0691681,2.428,2.61603
0.979289,-0.0691681,2.428,2.61896
0.987169,-0.0691681,2.428,2.62192
0.99505,-0.0691681,2.428,2.6249
1.00995,-0.0696524,2.445,2.6463
1.02538,-0.0701652,2.463,2.66884
1.03338,-0.0701652,2.463,2.67192
1.04137,-0.0701652,2.463,2.67502
1.0647,-0.0711907,2.499,2.71729
1.08054,-0.0717035,2.517,2.74007
1.08871,-0.0717035,2.517,2.74331
1.11344,-0.072786,2.555,2.78802
1.13842,-0.0738686,2.593,2.83286
1.16452,-0.0750081,2.633,2.88001
1.17307,-0.0750081,2.633,2.88347
1.20989,-0.0768028,2.696,2.95604
1.23808,-0.0780278,2.739,3.00683
1.24697,-0.0780278,2.739,3.0105
1.27603,-0.0792812,2.783,3.06262
1.3063,-0.0805916,2.829,3.11708
1.31549,-0.0805916,2.829,3.12094
1.33591,-0.0812754,2.853,3.15133
1.35648,-0.0819591,2.877,3.18181
1.36582,-0.0819591,2.877,3.1858
1.37516,-0.0819591,2.877,3.18981
1.39605,-0.0826428,2.901,3.22049
1.41757,-0.0833549,2.926,3.25237
1.42707,-0.0833549,2.926,3.25653
1.44884,-0.0840671,2.951,3.28856
1.45842,-0.0840671,2.951,3.29279
1.468,-0.0840671,2.951,3.29704
1.47758,-0.0840671,2.951,3.30132
1.50026,-0.0848078,2.977,3.33474
1.50992,-0.0848078,2.977,3.3391
1.51958,-0.0848078,2.977,3.34348
1.5426,-0.0855485,3.003,3.37712
1.56631,-0.0863177,3.03,3.41199
1.57614,-0.0863177,3.03,3.41651
1.60011,-0.0870868,3.057,3.45155
1.62425,-0.087856,3.084,3.48668
1.63426,-0.087856,3.084,3.49136
1.6592,-0.0886537,3.112,3.5278
1.68485,-0.0894798,3.141,3.56548
1.69505,-0.0894798,3.141,3.57031
1.70524,-0.0894798,3.141,3.57516
1.73128,-0.0903059,3.17,3.61308
1.74157,-0.0903059,3.17,3.61803
1.75186,-0.0903059,3.17,3.62299
1.76214,-0.0903059,3.17,3.62798
1.77243,-0.0903059,3.17,3.63298
1.78272,-0.0903059,3.17,3.63802
1.79301,-0.0903059,3.17,3.64307
1.8033,-0.0903059,3.17,3.64814
1.81359,-0.0903059,3.17,3.65324
1.80719,-0.0894798,3.141,3.62489
1.81739,-0.0894798,3.141,3.62998
1.81071,-0.0886537,3.112,3.60154
1.82081,-0.0886537,3.112,3.60663
1.81444,-0.087856,3.084,3.57924
1.82445,-0.087856,3.084,3.58433
1.83446,-0.087856,3.084,3.58943
1.82832,-0.0870868,3.057,3.56309
1.83824,-0.0870868,3.057,3.56819
1.83184,-0.0863177,3.03,3.54175
1.82526,-0.0855485,3.003,3.51524
1.83501,-0.0855485,3.003,3.52031
1.82879,-0.0848078,2.977,3.49488
1.82239,-0.0840671,2.951,3.46938
1.83197,-0.0840671,2.951,3.47442
1.82595,-0.0833549,2.926,3.45
1.81976,-0.0826428,2.901,3.42552
1.82918,-0.0826428,2.901,3.43053
1.82338,-0.0819591,2.877,3.40714
1.81743,-0.0812754,2.853,3.38368
1.7966,-0.0799364,2.806,3.33284
1.80571,-0.0799364,2.806,3.33776
1.78571,-0.0786545,2.761,3.28908
1.78037,-0.0780278,2.739,3.26771
1.78926,-0.0780278,2.739,3.27256
1.76992,-0.0768028,2.696,3.22598
1.75097,-0.0756063,2.654,3.18046
1.75958,-0.0756063,2.654,3.18521
1.74088,-0.0744383,2.613,3.1407
1.72325,-0.0733273,2.574,3.09846
1.7316,-0.0733273,2.574,3.10311
1.71427,-0.0722448,2.536,3.0619
1.7096,-0.0717035,2.517,3.04354
-1.88487,-0.0685848,2.717,3.3075
-1.87605,-0.0685848,2.717,3.30248
-1.86723,-0.0685848,2.717,3.29748
-1.85842,-0.0685848,2.717,3.29249
-1.86457,-0.0691401,2.739,3.31414
-1.85568,-0.0691401,2.739,3.30915
-1.84679,-0.0691401,2.739,3.30417
-1.85267,-0.0696955,2.761,3.32571
-1.8437,-0.0696955,2.761,3.32073
-1.83474,-0.0696955,2.761,3.31576
-1.82578,-0.0696955,2.761,3.31081
-1.8313,-0.0702508,2.783,3.33222
-1.82226,-0.0702508,2.783,3.32726
-1.81323,-0.0702508,2.783,3.32232
-1.81911,-0.0708314,2.806,3.34482
-1.82484,-0.071412,2.829,3.36725
-1.81565,-0.071412,2.829,3.36228
-1.8218,-0.0720178,2.853,3.38581
-1.82778,-0.0726237,2.877,3.40928
-1.81845,-0.0726237,2.877,3.40428
-1.8242,-0.0732295,2.901,3.42766
-1.83042,-0.0738606,2.926,3.45216
-1.83648,-0.0744916,2.951,3.47658
-1.82691,-0.0744916,2.951,3.47153
-1.83334,-0.0751479,2.977,3.49704
-1.82368,-0.0751479,2.977,3.49199
-1.81401,-0.0751479,2.977,3.48695
-1.82011,-0.0758043,3.003,3.51234
-1.82664,-0.0764858,3.03,3.53884
-1.81681,-0.0764858,3.03,3.53377
-1.80697,-0.0764858,3.03,3.52872
-1.79714,-0.0764858,3.03,3.5237
-1.7873,-0.0764858,3.03,3.51869
-1.77747,-0.0764858,3.03,3.51371
-1.75188,-0.0758043,3.003,3.47748
-1.74213,-0.0758043,3.003,3.47258
-1.71739,-0.0751479,2.977,3.43767
-1.70773,-0.0751479,2.977,3.43286
-1.69806,-0.0751479,2.977,3.42806
-1.65948,-0.0738606,2.926,3.36464
-1.62235,-0.0726237,2.877,3.3037
-1.61301,-0.0726237,2.877,3.29912
-1.5641,-0.0708314,2.806,3.21326
-1.55499,-0.0708314,2.806,3.20884
nan,nan,nan,NaN
nan,nan,nan,NaN
nan,nan,nan,NaN
nan,nan,nan,NaN
nan,nan,nan,NaN
nan,nan,nan,NaN
nan,nan,nan,NaN
nan,nan,nan,NaN
-1.47302,-0.0708314,2.806,3.16993
-1.46391,-0.0708314,2.806,3.16571
-1.4548,-0.0708314,2.806,3.1615
-1.45755,-0.071412,2.829,3.1832
-1.42481,-0.0702508,2.783,3.12732
-1.3934,-0.0691401,2.739,3.07383
-1.38451,-0.0691401,2.739,3.06981
-1.35402,-0.0680547,2.696,3.01768
-1.31383,-0.0664644,2.633,2.94334
-1.30529,-0.0664644,2.633,2.93954
-1.26769,-0.0649751,2.574,2.86997
-1.24074,-0.0640159,2.536,2.82397
-1.23251,-0.0640159,2.536,2.82037
-1.2151,-0.0635362,2.517,2.79568
-1.18967,-0.0626275,2.481,2.7522
-1.18162,-0.0626275,2.481,2.74873
-1.16505,-0.0621731,2.463,2.72536
-1.1486,-0.0617188,2.445,2.70206
-1.13274,-0.0612896,2.428,2.67993
-1.12485,-0.0612896,2.428,2.67661
-1.11697,-0.0612896,2.428,2.67331
-1.10133,-0.0608605,2.411,2.65133
-1.0935,-0.0608605,2.411,2.64809
-1.07802,-0.0604314,2.394,2.62622
-1.07025,-0.0604314,2.394,2.62304
-1.06248,-0.0604314,2.394,2.61988
-1.04722,-0.0600022,2.377,2.59815
-1.03951,-0.0600022,2.377,2.59505
-1.03179,-0.0600022,2.377,2.59197
-1.02408,-0.0600022,2.377,2.58891
-1.00952,-0.0595984,2.361,2.56846
-1.00186,-0.0595984,2.361,2.56546
-0.994193,-0.0595984,2.361,2.56248
-0.986529,-0.0595984,2.361,2.55951
-0.978866,-0.0595984,2.361,2.55657
-0.971203,-0.0595984,2.361,2.55365
-0.96354,-0.0595984,2.361,2.55074
-0.955876,-0.0595984,2.361,2.54786
-0.948213,-0.0595984,2.361,2.54499
-0.94055,-0.0595984,2.361,2.54215
-0.939209,-0.0600022,2.377,2.55653
-0.931494,-0.0600022,2.377,2.55371
-0.923778,-0.0600022,2.377,2.5509
-0.916063,-0.0600022,2.377,2.54812
-0.908348,-0.0600022,2.377,2.54535
-0.900633,-0.0600022,2.377,2.54261
-0.892918,-0.0600022,2.377,2.53989
-0.885203,-0.0600022,2.377,2.53719
-0.877488,-0.0600022,2.377,2.5345
-0.869772,-0.0600022,2.377,2.53184
-0.856255,-0.0595984,2.361,2.51218
-0.848591,-0.0595984,2.361,2.50958
-0.840928,-0.0595984,2.361,2.507
-0.833265,-0.0595984,2.361,2.50444
-0.820007,-0.0591945,2.345,2.48494
-0.812395,-0.0591945,2.345,2.48244
-0.804784,-0.0591945,2.345,2.47996
-0.797173,-0.0591945,2.345,2.4775
-0.789562,-0.0591945,2.345,2.47506
-0.78195,-0.0591945,2.345,2.47265
-0.779622,-0.0595984,2.361,2.4871
-0.771959,-0.0595984,2.361,2.48471
-0.764296,-0.0595984,2.361,2.48234
-0.756633,-0.0595984,2.361,2.47999
-0.748969,-0.0595984,2.361,2.47767
-0.741306,-0.0595984,2.361,2.47536
-0.733643,-0.0595984,2.361,2.47308
-0.7309,-0.0600022,2.377,2.48756
-0.723184,-0.0600022,2.377,2.4853
-0.715469,-0.0600022,2.377,2.48307
-0.712816,-0.0604314,2.394,2.4986
-0.705046,-0.0604314,2.394,2.49639
-0.697275,-0.0604314,2.394,2.49421
-0.694401,-0.0608605,2.411,2.50974
-0.691417,-0.0612896,2.428,2.52527
-0.683536,-0.0612896,2.428,2.52313
-0.675655,-0.0612896,2.428,2.521
-0.667775,-0.0612896,2.428,2.5189
-0.659894,-0.0612896,2.428,2.51682
-0.652013,-0.0612896,2.428,2.51477
-0.648643,-0.0617188,2.445,2.53033
-0.640707,-0.0617188,2.445,2.52831
-0.632771,-0.0617188,2.445,2.52631
-0.629435,-0.0621731,2.463,2.54292
-0.621441,-0.0621731,2.463,2.54095
-0.61793,-0.0626275,2.481,2.55756
-0.609877,-0.0626275,2.481,2.55563
-0.601824,-0.0626275,2.481,2.55372
-0.593771,-0.0626275,2.481,2.55183
-0.585719,-0.0626275,2.481,2.54997
-0.577666,-0.0626275,2.481,2.54813
-0.569613,-0.0626275,2.481,2.54632
-0.561561,-0.0626275,2.481,2.54453
-0.553508,-0.0626275,2.481,2.54277
-0.549413,-0.0630819,2.499,2.55946
-0.541301,-0.0630819,2.499,2.55773
-0.52935,-0.0626275,2.481,2.53762
-0.521297,-0.0626275,2.481,2.53595
-0.513244,-0.0626275,2.481,2.53431
-0.505192,-0.0626275,2.481,2.53269
-0.497139,-0.0626275,2.481,2.53109
-0.489086,-0.0626275,2.481,2.52952
-0.477544,-0.0621731,2.463,2.50964
-0.469549,-0.0621731,2.463,2.50813
-0.461555,-0.0621731,2.463,2.50664
-0.453561,-0.0621731,2.463,2.50518
-0.445566,-0.0621731,2.463,2.50375
-0.437572,-0.0621731,2.463,2.50234
-0.429578,-0.0621731,2.463,2.50095
-0.421584,-0.0621731,2.463,2.49959
-0.416612,-0.0626275,2.481,2.51652
-0.408559,-0.0626275,2.481,2.51519
-0.400506,-0.0626275,2.481,2.5139
-0.392454,-0.0626275,2.481,2.51263
-0.38719,-0.0630819,2.499,2.5296
-0.379079,-0.0630819,2.499,2.52838
-0.370968,-0.0630819,2.499,2.52717
-0.362857,-0.0630819,2.499,2.52599
-0.357301,-0.0635362,2.517,2.54303
-0.349131,-0.0635362,2.517,2.54189
-0.340961,-0.0635362,2.517,2.54078
-0.332792,-0.0635362,2.517,2.5397
-0.324622,-0.0635362,2.517,2.53864
-0.316453,-0.0635362,2.517,2.53761
-0.308283,-0.0635362,2.517,2.53661
-0.300114,-0.0635362,2.517,2.53563
-0.291944,-0.0635362,2.517,2.53467
-0.283775,-0.0635362,2.517,2.53374
-0.275605,-0.0635362,2.517,2.53284
-0.267435,-0.0635362,2.517,2.53197
-0.259266,-0.0635362,2.517,2.53112
-0.251096,-0.0635362,2.517,2.53029
-0.242927,-0.0635362,2.517,2.52949
-0.234757,-0.0635362,2.517,2.52872
-0.226588,-0.0635362,2.517,2.52798
-0.218418,-0.0635362,2.517,2.52726
-0.210249,-0.0635362,2.517,2.52657
-0.202079,-0.0635362,2.517,2.5259
-0.193909,-0.0635362,2.517,2.52526
-0.18574,-0.0635362,2.517,2.52464
-0.17757,-0.0635362,2.517,2.52406
-0.169401,-0.0635362,2.517,2.52349
-0.161231,-0.0635362,2.517,2.52296
-0.153062,-0.0635362,2.517,2.52245
-0.145986,-0.0640159,2.536,2.541
-0.136723,-0.0635362,2.517,2.52151
-0.128553,-0.0635362,2.517,2.52108
-0.121292,-0.0640159,2.536,2.53971
-0.113061,-0.0640159,2.536,2.53933
-0.10483,-0.0640159,2.536,2.53897
-0.0965985,-0.0640159,2.536,2.53865
-0.0883672,-0.0640159,2.536,2.53835
-0.080136,-0.0640159,2.536,2.53807
-0.0724435,-0.0644955,2.555,2.55684
-0.0641506,-0.0644955,2.555,2.55662
-0.0558577,-0.0644955,2.555,2.55642
-0.0475648,-0.0644955,2.555,2.55626
-0.0392719,-0.0644955,2.555,2.55612
-0.030979,-0.0644955,2.555,2.556
-0.0228548,-0.0649751,2.574,2.57492
-0.0145003,-0.0649751,2.574,2.57486
-0.00614571,-0.0649751,2.574,2.57483
0.00220886,-0.0649751,2.574,2.57482
0.0105634,-0.0649751,2.574,2.57484
0.018918,-0.0649751,2.574,2.57489
0.0270712,-0.0644955,2.555,2.55596
0.0353641,-0.0644955,2.555,2.55606
0.043657,-0.0644955,2.555,2.55619
0.0515636,-0.0640159,2.536,2.53733
0.0597948,-0.0640159,2.536,2.53751
0.0680261,-0.0640159,2.536,2.53772
0.075686,-0.0635362,2.517,2.51894
0.0838555,-0.0635362,2.517,2.5192
0.0920251,-0.0635362,2.517,2.51948
0.100195,-0.0635362,2.517,2.51979
0.108364,-0.0635362,2.517,2.52013
0.117413,-0.0640159,2.536,2.53952
0.125645,-0.0640159,2.536,2.53992
0.133876,-0.0640159,2.536,2.54034
0.142107,-0.0640159,2.536,2.54079
0.150338,-0.0640159,2.536,2.54126
0.15857,-0.0640159,2.536,2.54176
0.16805,-0.0644955,2.555,2.56133
0.177655,-0.0649751,2.574,2.58094
0.186009,-0.0649751,2.574,2.58153
0.194364,-0.0649751,2.574,2.58215
0.202718,-0.0649751,2.574,2.58279
0.212631,-0.0654547,2.593,2.60253
0.221047,-0.0654547,2.593,2.60323
0.229463,-0.0654547,2.593,2.60396
0.23788,-0.0654547,2.593,2.60471
0.244491,-0.0649751,2.574,2.5864
0.252846,-0.0649751,2.574,2.5872
0.2612,-0.0649751,2.574,2.58803
0.269555,-0.0649751,2.574,2.58889
0.27791,-0.0649751,2.574,2.58977
0.286264,-0.0649751,2.574,2.59068
0.290269,-0.0640159,2.536,2.55336
0.2985,-0.0640159,2.536,2.55431
0.304434,-0.0635362,2.517,2.53614
0.312603,-0.0635362,2.517,2.53713
0.320773,-0.0635362,2.517,2.53815
0.32659,-0.0630819,2.499,2.52104
0.334701,-0.0630819,2.499,2.5221
0.342812,-0.0630819,2.499,2.52319
0.350923,-0.0630819,2.499,2.52431
0.359034,-0.0630819,2.499,2.52545
0.364501,-0.0626275,2.481,2.50841
0.372554,-0.0626275,2.481,2.5096
0.380606,-0.0626275,2.481,2.51081
0.388659,-0.0626275,2.481,2.51204
0.396712,-0.0626275,2.481,2.5133
0.404765,-0.0626275,2.481,2.51458
0.412817,-0.0626275,2.481,2.51589
0.42087,-0.0626275,2.481,2.51722
nan,nan,nan,NaN
nan,nan,nan,NaN
0.438571,-0.0617188,2.445,2.48479
0.446507,-0.0617188,2.445,2.4862
0.454442,-0.0617188,2.445,2.48764
0.462378,-0.0617188,2.445,2.4891
0.473776,-0.0621731,2.463,2.50892
0.481771,-0.0621731,2.463,2.51045
0.489765,-0.0621731,2.463,2.51199
nan,nan,nan,NaN
0.50945,-0.0626275,2.481,2.53354
0.517502,-0.0626275,2.481,2.53517
0.525555,-0.0626275,2.481,2.53683
0.537479,-0.0630819,2.499,2.55692
0.54952,-0.0635362,2.517,2.57707
0.55769,-0.0635362,2.517,2.57883
0.565859,-0.0635362,2.517,2.58061
0.574029,-0.0635362,2.517,2.58241
0.582199,-0.0635362,2.517,2.58424
0.590368,-0.0635362,2.517,2.58609
0.603056,-0.0640159,2.536,2.6075
0.606707,-0.0635362,2.517,2.58987
0.614877,-0.0635362,2.517,2.59179
0.627749,-0.0640159,2.536,2.61332
0.635981,-0.0640159,2.536,2.61531
0.644212,-0.0640159,2.536,2.61733
0.662219,-0.0649751,2.574,2.65861
0.670574,-0.0649751,2.574,2.66071
0.678929,-0.0649751,2.574,2.66283
0.687283,-0.0649751,2.574,2.66497
0.695638,-0.0649751,2.574,2.66714
0.703992,-0.0649751,2.574,2.66933
0.712347,-0.0649751,2.574,2.67154
0.720701,-0.0649751,2.574,2.67378
0.734438,-0.0654547,2.593,2.6958
0.742854,-0.0654547,2.593,2.6981
0.745765,-0.0649751,2.574,2.68065
0.75412,-0.0649751,2.574,2.68298
0.762474,-0.0649751,2.574,2.68534
0.770829,-0.0649751,2.574,2.68773
0.779183,-0.0649751,2.574,2.69013
0.787538,-0.0649751,2.574,2.69257
0.795892,-0.0649751,2.574,2.69502
0.804247,-0.0649751,2.574,2.6975
0.812602,-0.0649751,2.574,2.7
0.820956,-0.0649751,2.574,2.70253
0.835432,-0.0654547,2.593,2.72505
0.843849,-0.0654547,2.593,2.72764
0.852265,-0.0654547,2.593,2.73025
0.854374,-0.0649751,2.574,2.71287
0.862729,-0.0649751,2.574,2.71551
0.871084,-0.0649751,2.574,2.71818
0.872947,-0.0644955,2.555,2.70078
0.881239,-0.0644955,2.555,2.70347
0.882918,-0.0640159,2.536,2.68606
0.884472,-0.0635362,2.517,2.66864
0.892642,-0.0635362,2.517,2.67135
0.894369,-0.0630819,2.499,2.65497
0.89598,-0.0626275,2.481,2.63857
0.897474,-0.0621731,2.463,2.62215
0.905468,-0.0621731,2.463,2.6249
0.906787,-0.0617188,2.445,2.60847
0.914722,-0.0617188,2.445,2.61124
0.922658,-0.0617188,2.445,2.61403
0.924124,-0.0612896,2.428,2.59864
0.932004,-0.0612896,2.428,2.60146
0.939885,-0.0612896,2.428,2.60429
0.947766,-0.0612896,2.428,2.60714
0.955646,-0.0612896,2.428,2.61002
0.963527,-0.0612896,2.428,2.61292
0.971408,-0.0612896,2.428,2.61583
0.979289,-0.0612896,2.428,2.61877
0.994081,-0.0617188,2.445,2.64008
1.00202,-0.0617188,2.445,2.64308
1.00995,-0.0617188,2.445,2.6461
1.02538,-0.0621731,2.463,2.66864
1.03338,-0.0621731,2.463,2.67172
