0.52667,0.155961,2.377,2.43964
0.534385,0.155961,2.377,2.44132
0.5421,0.155961,2.377,2.44302
0.549816,0.155961,2.377,2.44474
0.557531,0.155961,2.377,2.44649
0.565246,0.155961,2.377,2.44826
0.572961,0.155961,2.377,2.45005
0.580676,0.155961,2.377,2.45186
0.588391,0.155961,2.377,2.4537
0.596106,0.155961,2.377,2.45556
0.599757,0.154911,2.361,2.44091
0.603304,0.153862,2.345,2.42625
0.610915,0.153862,2.345,2.42815
0.614306,0.152812,2.329,2.4135
0.617594,0.151762,2.313,2.39884
0.625101,0.151762,2.313,2.40078
0.628506,0.150778,2.298,2.38717
0.635965,0.150778,2.298,2.38914
0.652103,0.152812,2.329,2.42339
0.642102,0.148744,2.267,2.36087
0.64946,0.148744,2.267,2.36288
0.656818,0.148744,2.267,2.36492
0.664176,0.148744,2.267,2.36697
0.671534,0.148744,2.267,2.36904
0.683384,0.149728,2.282,2.38683
0.695635,0.150778,2.298,2.40571
0.703093,0.150778,2.298,2.40788
0.71519,0.151762,2.313,2.4258
0.727697,0.152812,2.329,2.44482
0.735256,0.152812,2.329,2.44708
0.742815,0.152812,2.329,2.44936
0.75553,0.153862,2.345,2.46851
0.768348,0.154911,2.361,2.48771
0.776011,0.154911,2.361,2.49008
0.783674,0.154911,2.361,2.49248
0.791338,0.154911,2.361,2.4949
0.799001,0.154911,2.361,2.49734
0.806664,0.154911,2.361,2.49981
0.819846,0.155961,2.377,2.51925
0.827561,0.155961,2.377,2.52177
0.835276,0.155961,2.377,2.52431
0.842991,0.155961,2.377,2.52687
0.850707,0.155961,2.377,2.52946
0.858422,0.155961,2.377,2.53206
0.866137,0.155961,2.377,2.53469
0.880102,0.157077,2.394,2.55548
0.887872,0.157077,2.394,2.55817
0.902002,0.158192,2.411,2.57906
0.909828,0.158192,2.411,2.58181
0.917653,0.158192,2.411,2.58458
0.925479,0.158192,2.411,2.58736
0.933304,0.158192,2.411,2.59017
0.94113,0.158192,2.411,2.593
0.948955,0.158192,2.411,2.59585
0.963527,0.159307,2.428,2.61705
0.971408,0.159307,2.428,2.61996
0.979289,0.159307,2.428,2.62289
0.987169,0.159307,2.428,2.62585
0.99505,0.159307,2.428,2.62882
1.00293,0.159307,2.428,2.63181
1.01081,0.159307,2.428,2.63483
1.02582,0.160423,2.445,2.65633
1.03376,0.160423,2.445,2.6594
1.0417,0.160423,2.445,2.6625
1.04963,0.160423,2.445,2.66561
1.05757,0.160423,2.445,2.66875
1.0655,0.160423,2.445,2.6719
1.08134,0.161604,2.463,2.69477
1.08934,0.161604,2.463,2.69799
1.09733,0.161604,2.463,2.70123
1.10533,0.161604,2.463,2.70448
1.12146,0.162785,2.481,2.72755
1.12951,0.162785,2.481,2.73087
1.13756,0.162785,2.481,2.73421
1.14561,0.162785,2.481,2.73757
1.15367,0.162785,2.481,2.74095
1.17015,0.163966,2.499,2.76426
1.17826,0.163966,2.499,2.7677
1.18637,0.163966,2.499,2.77117
1.19448,0.163966,2.499,2.77465
1.20259,0.163966,2.499,2.77815
1.2107,0.163966,2.499,2.78167
1.21881,0.163966,2.499,2.78521
1.22693,0.163966,2.499,2.78877
1.23504,0.163966,2.499,2.79235
1.24315,0.163966,2.499,2.79594
1.25126,0.163966,2.499,2.79956
1.25937,0.163966,2.499,2.80319
1.26748,0.163966,2.499,2.80685
1.27559,0.163966,2.499,2.81052
1.31247,0.16764,2.555,2.87727
1.33058,0.168887,2.574,2.90249
1.33894,0.168887,2.574,2.90633
1.36771,0.171446,2.613,2.95428
1.39778,0.174136,2.654,3.00464
1.4064,0.174136,2.654,3.00865
1.4374,0.176892,2.696,3.06037
1.46922,0.179713,2.739,3.11336
1.47811,0.179713,2.739,3.11757
1.51089,0.1826,2.783,3.17194
1.54504,0.185618,2.829,3.22875
1.5806,0.188767,2.877,3.28802
1.58993,0.188767,2.877,3.29251
1.62651,0.191982,2.926,3.35319
1.64999,0.193623,2.951,3.38649
1.65956,0.193623,2.951,3.39117
1.66914,0.193623,2.951,3.39587
1.69351,0.195329,2.977,3.43055
1.70317,0.195329,2.977,3.43533
1.71284,0.195329,2.977,3.44013
1.7225,0.195329,2.977,3.44495
1.73216,0.195329,2.977,3.44979
1.74182,0.195329,2.977,3.45465
1.73619,0.193623,2.951,3.42932
1.74577,0.193623,2.951,3.43418
1.7256,0.190342,2.901,3.38079
1.73502,0.190342,2.901,3.38561
1.74444,0.190342,2.901,3.39044
1.72483,0.187193,2.853,3.33912
1.70553,0.184109,2.806,3.28882
1.71463,0.184109,2.806,3.29355
1.70961,0.1826,2.783,3.27127
1.69147,0.179713,2.739,3.2242
1.70036,0.179713,2.739,3.22888
1.68242,0.176892,2.696,3.1828
1.678,0.175514,2.675,3.16261
1.68668,0.175514,2.675,3.16723
1.68205,0.174136,2.654,3.14696
1.66455,0.171446,2.613,3.10288
1.66022,0.170133,2.593,3.08366
1.66864,0.170133,2.593,3.0882
1.66477,0.168887,2.574,3.07009
1.66077,0.16764,2.555,3.05193
1.66906,0.16764,2.555,3.05645
1.66488,0.166394,2.536,3.03823
1.66058,0.165147,2.517,3.01995
1.66875,0.165147,2.517,3.02445
1.66493,0.163966,2.499,3.0073
1.66099,0.162785,2.481,2.99011
1.66904,0.162785,2.481,2.99459
1.66493,0.161604,2.463,2.97732
1.66069,0.160423,2.445,2.96001
-1.81272,0.179924,2.613,3.1853
-1.80424,0.179924,2.613,3.18048
-1.79576,0.179924,2.613,3.17567
-1.78728,0.179924,2.613,3.17089
-1.7788,0.179924,2.613,3.16611
-1.77032,0.179924,2.613,3.16136
-1.76184,0.179924,2.613,3.15661
-1.76678,0.181302,2.633,3.17601
-1.74487,0.179924,2.613,3.14718
-1.73639,0.179924,2.613,3.14248
-1.72791,0.179924,2.613,3.13781
-1.71943,0.179924,2.613,3.13314
-1.71095,0.179924,2.613,3.1285
-1.68944,0.178547,2.593,3.09996
-1.68102,0.178547,2.593,3.09538
-1.67261,0.178547,2.593,3.09082
-1.652,0.177239,2.574,3.06365
-1.64364,0.177239,2.574,3.05916
-1.62322,0.175931,2.555,3.03213
-1.61492,0.175931,2.555,3.0277
-1.59468,0.174622,2.536,3.0008
-1.58645,0.174622,2.536,2.99643
-1.57822,0.174622,2.536,2.99208
-1.56999,0.174622,2.536,2.98775
-1.55006,0.173314,2.517,2.96108
-1.54189,0.173314,2.517,2.95681
-1.53372,0.173314,2.517,2.95256
-1.52555,0.173314,2.517,2.94833
-1.51738,0.173314,2.517,2.94411
-1.49842,0.172075,2.499,2.91888
-1.4903,0.172075,2.499,2.91472
-1.47152,0.170835,2.481,2.88962
-1.46346,0.170835,2.481,2.88553
-1.45541,0.170835,2.481,2.88145
-1.43686,0.169596,2.463,2.85652
-1.42886,0.169596,2.463,2.8525
-1.41049,0.168356,2.445,2.82769
-1.40255,0.168356,2.445,2.82374
-1.39461,0.168356,2.445,2.81981
-1.38668,0.168356,2.445,2.81589
-1.35957,0.166015,2.411,2.77289
-1.35174,0.166015,2.411,2.76906
-1.34392,0.166015,2.411,2.76525
-1.33609,0.166015,2.411,2.76145
-1.32827,0.166015,2.411,2.75768
-1.32975,0.167186,2.428,2.77333
-1.32187,0.167186,2.428,2.76956
-1.32319,0.168356,2.445,2.78518
-1.32494,0.169596,2.463,2.80189
-1.31694,0.169596,2.463,2.79812
-1.31852,0.170835,2.481,2.81479
-1.32948,0.173314,2.517,2.85181
-1.33128,0.174622,2.536,2.86951
-1.32305,0.174622,2.536,2.8657
-1.32467,0.175931,2.555,2.88335
-1.33596,0.178547,2.593,2.92238
-1.32754,0.178547,2.593,2.91854
-1.31912,0.178547,2.593,2.91472
-1.33093,0.181302,2.633,2.95583
-1.31234,0.179924,2.613,2.92957
-1.30385,0.179924,2.613,2.92578
-1.29537,0.179924,2.613,2.92201
-1.28689,0.179924,2.613,2.91826
-1.26863,0.178547,2.593,2.89222
-1.25098,0.177239,2.574,2.86737
-1.24262,0.177239,2.574,2.86374
-1.23427,0.177239,2.574,2.86012
-1.21686,0.175931,2.555,2.83544
-1.20857,0.175931,2.555,2.83189
-1.20028,0.175931,2.555,2.82836
-1.18312,0.174622,2.536,2.80385
-1.17489,0.174622,2.536,2.80038
-1.16666,0.174622,2.536,2.79694
-1.14975,0.173314,2.517,2.77259
-1.13341,0.172075,2.499,2.74941
-1.1253,0.172075,2.499,2.74607
-1.11719,0.172075,2.499,2.74276
-1.10109,0.170835,2.481,2.71973
-1.09304,0.170835,2.481,2.71648
-1.08499,0.170835,2.481,2.71325
-1.06912,0.169596,2.463,2.69038
-1.06113,0.169596,2.463,2.68721
-1.05313,0.169596,2.463,2.68407
-1.04514,0.169596,2.463,2.68094
-1.03714,0.169596,2.463,2.67783
-1.02163,0.168356,2.445,2.6552
-1.01369,0.168356,2.445,2.65216
-1.00576,0.168356,2.445,2.64913
-0.997821,0.168356,2.445,2.64613
-0.989885,0.168356,2.445,2.64315
-0.981949,0.168356,2.445,2.64019
-0.974013,0.168356,2.445,2.63725
-0.966077,0.168356,2.445,2.63433
-0.958141,0.168356,2.445,2.63143
-0.950205,0.168356,2.445,2.62855
-0.94227,0.168356,2.445,2.62569
-0.934334,0.168356,2.445,2.62285
-0.926398,0.168356,2.445,2.62003
-0.918462,0.168356,2.445,2.61724
-0.910526,0.168356,2.445,2.61446
-0.90259,0.168356,2.445,2.61171
-0.894654,0.168356,2.445,2.60898
-0.886718,0.168356,2.445,2.60627
-0.878783,0.168356,2.445,2.60358
-0.870847,0.168356,2.445,2.60091
-0.862911,0.168356,2.445,2.59827
-0.854975,0.168356,2.445,2.59564
-0.853275,0.169596,2.463,2.61213
-0.845281,0.169596,2.463,2.60953
-0.837286,0.169596,2.463,2.60695
-0.829292,0.169596,2.463,2.60439
-0.821298,0.169596,2.463,2.60186
-0.813304,0.169596,2.463,2.59934
-0.805309,0.169596,2.463,2.59685
-0.797315,0.169596,2.463,2.59439
-0.789321,0.169596,2.463,2.59194
-0.781326,0.169596,2.463,2.58952
-0.778984,0.170835,2.481,2.60602
-0.765338,0.169596,2.463,2.58474
-0.757344,0.169596,2.463,2.58238
-0.754826,0.170835,2.481,2.59891
-0.746773,0.170835,2.481,2.59658
-0.73872,0.170835,2.481,2.59427
-0.730668,0.170835,2.481,2.59199
-0.722615,0.170835,2.481,2.58973
-0.714562,0.170835,2.481,2.5875
-0.711635,0.172075,2.499,2.60404
-0.703524,0.172075,2.499,2.60184
-0.695413,0.172075,2.499,2.59966
-0.687302,0.172075,2.499,2.5975
-0.679191,0.172075,2.499,2.59536
-0.67108,0.172075,2.499,2.59325
-0.662968,0.172075,2.499,2.59117
-0.654857,0.172075,2.499,2.5891
-0.646746,0.172075,2.499,2.58706
-0.638635,0.172075,2.499,2.58505
-0.630524,0.172075,2.499,2.58305
-0.622413,0.172075,2.499,2.58109
-0.614302,0.172075,2.499,2.57914
-0.606191,0.172075,2.499,2.57722
-0.598079,0.172075,2.499,2.57533
-0.589968,0.172075,2.499,2.57346
-0.577666,0.170835,2.481,2.55309
-0.569613,0.170835,2.481,2.55128
-0.561561,0.170835,2.481,2.54949
-0.553508,0.170835,2.481,2.54773
-0.545455,0.170835,2.481,2.54599
-0.537403,0.170835,2.481,2.54428
-0.52935,0.170835,2.481,2.54259
-0.521297,0.170835,2.481,2.54092
-0.513244,0.170835,2.481,2.53928
-0.505192,0.170835,2.481,2.53767
-0.497139,0.170835,2.481,2.53608
-0.489086,0.170835,2.481,2.53451
-0.481034,0.170835,2.481,2.53297
-0.472981,0.170835,2.481,2.53145
-0.464928,0.170835,2.481,2.52996
-0.456875,0.170835,2.481,2.52849
-0.448823,0.170835,2.481,2.52705
-0.44077,0.170835,2.481,2.52563
-0.432717,0.170835,2.481,2.52424
-0.424665,0.170835,2.481,2.52287
-0.419634,0.172075,2.499,2.53982
-0.411523,0.172075,2.499,2.5385
-0.403412,0.172075,2.499,2.53719
-0.395301,0.172075,2.499,2.53592
-0.38719,0.172075,2.499,2.53467
-0.379079,0.172075,2.499,2.53344
-0.370968,0.172075,2.499,2.53224
-0.362857,0.172075,2.499,2.53106
-0.354745,0.172075,2.499,2.52991
-0.346634,0.172075,2.499,2.52879
-0.338523,0.172075,2.499,2.52769
-0.330412,0.172075,2.499,2.52661
-0.322301,0.172075,2.499,2.52557
-0.316453,0.173314,2.517,2.54273
-0.308283,0.173314,2.517,2.54173
-0.300114,0.173314,2.517,2.54075
-0.291944,0.173314,2.517,2.5398
-0.281745,0.172075,2.499,2.52071
-0.273634,0.172075,2.499,2.51982
-0.265523,0.172075,2.499,2.51895
-0.255558,0.170835,2.481,2.49997
-0.247505,0.170835,2.481,2.49916
-0.239452,0.170835,2.481,2.49838
-0.233078,0.172075,2.499,2.51574
-0.224967,0.172075,2.499,2.515
-0.216856,0.172075,2.499,2.51429
-0.208745,0.172075,2.499,2.5136
-0.200634,0.172075,2.499,2.51294
-0.192523,0.172075,2.499,2.51231
-0.184412,0.172075,2.499,2.5117
-0.1763,0.172075,2.499,2.51111
-0.169401,0.173314,2.517,2.52864
-0.161231,0.173314,2.517,2.52811
-0.153062,0.173314,2.517,2.5276
-0.144892,0.173314,2.517,2.52712
-0.136723,0.173314,2.517,2.52666
-0.127634,0.172075,2.499,2.50817
-0.119523,0.172075,2.499,2.50777
-0.112214,0.173314,2.517,2.52545
-0.104044,0.173314,2.517,2.5251
-0.0958747,0.173314,2.517,2.52478
-0.0877052,0.173314,2.517,2.52448
-0.0795356,0.173314,2.517,2.52421
-0.0713661,0.173314,2.517,2.52397
-0.0631965,0.173314,2.517,2.52375
-0.0546334,0.172075,2.499,2.50551
-0.0465223,0.172075,2.499,2.50535
-0.0384112,0.172075,2.499,2.50521
-0.0303,0.172075,2.499,2.5051
-0.0223487,0.173314,2.517,2.52306
-0.0141792,0.173314,2.517,2.523
-0.00600962,0.173314,2.517,2.52297
0.00215994,0.173314,2.517,2.52296
0.0103295,0.173314,2.517,2.52298
0.0184991,0.173314,2.517,2.52303
0.0266686,0.173314,2.517,2.5231
0.0348382,0.173314,2.517,2.5232
0.0433324,0.174622,2.536,2.54237
0.0515636,0.174622,2.536,2.54253
0.0597948,0.174622,2.536,2.54271
0.0685357,0.175931,2.555,2.56197
0.0768286,0.175931,2.555,2.5622
0.0851215,0.175931,2.555,2.56246
0.0934144,0.175931,2.555,2.56275
0.101707,0.175931,2.555,2.56307
0.11,0.175931,2.555,2.56341
0.118293,0.175931,2.555,2.56378
nan,nan,nan,NaN
nan,nan,nan,NaN
0.141042,0.173314,2.517,2.5269
0.149212,0.173314,2.517,2.52737
0.156256,0.172075,2.499,2.50979
0.163183,0.170835,2.481,2.49222
0.171236,0.170835,2.481,2.49276
nan,nan,nan,NaN
0.185982,0.169596,2.463,2.47583
0.193976,0.169596,2.463,2.47644
0.201971,0.169596,2.463,2.47708
0.209965,0.169596,2.463,2.47774
0.217959,0.169596,2.463,2.47843
nan,nan,nan,NaN
nan,nan,nan,NaN
nan,nan,nan,NaN
nan,nan,nan,NaN
nan,nan,nan,NaN
nan,nan,nan,NaN
nan,nan,nan,NaN
nan,nan,nan,NaN
nan,nan,nan,NaN
nan,nan,nan,NaN
nan,nan,nan,NaN
nan,nan,nan,NaN
nan,nan,nan,NaN
nan,nan,nan,NaN
nan,nan,nan,NaN
nan,nan,nan,NaN
nan,nan,nan,NaN
nan,nan,nan,NaN
nan,nan,nan,NaN
nan,nan,nan,NaN
nan,nan,nan,NaN
nan,nan,nan,NaN
nan,nan,nan,NaN
nan,nan,nan,NaN
nan,nan,nan,NaN
nan,nan,nan,NaN
nan,nan,nan,NaN
0.432472,0.166015,2.411,2.4551
0.440297,0.166015,2.411,2.45649
0.448123,0.166015,2.411,2.4579
0.455948,0.166015,2.411,2.45934
0.460504,0.164845,2.394,2.44346
0.468274,0.164845,2.394,2.44493
0.476045,0.164845,2.394,2.44643
0.483815,0.164845,2.394,2.44796
0.488094,0.163674,2.377,2.43211
0.49581,0.163674,2.377,2.43367
0.503525,0.163674,2.377,2.43525
0.51124,0.163674,2.377,2.43686
0.518955,0.163674,2.377,2.43849
0.52667,0.163674,2.377,2.44014
0.538207,0.164845,2.394,2.45928
0.545977,0.164845,2.394,2.461
0.553748,0.164845,2.394,2.46273
0.557531,0.163674,2.377,2.44699
0.565246,0.163674,2.377,2.44876
0.577059,0.164845,2.394,2.46808
0.584829,0.164845,2.394,2.46991
0.588391,0.163674,2.377,2.45421
0.596106,0.163674,2.377,2.45607
0.599757,0.162572,2.361,2.44141
0.599188,0.160369,2.329,2.41018
0.606747,0.160369,2.329,2.41207
0.60613,0.158234,2.298,2.38186
0.605311,0.1561,2.267,2.35161
0.612669,0.1561,2.267,2.35351
0.615925,0.155067,2.252,2.33985
0.619083,0.154034,2.237,2.32619
0.626344,0.154034,2.237,2.32813
0.629639,0.15307,2.223,2.31551
0.636855,0.15307,2.223,2.31749
0.64407,0.15307,2.223,2.31948
0.651285,0.15307,2.223,2.32149
0.6585,0.15307,2.223,2.32353
0.669908,0.154034,2.237,2.34023
0.68171,0.155067,2.252,2.35802
0.689019,0.155067,2.252,2.36015
0.700967,0.1561,2.267,2.37803
0.713012,0.157133,2.282,2.39596
0.720418,0.157133,2.282,2.39817
0.727825,0.157133,2.282,2.4004
0.740387,0.158234,2.298,2.41951
0.752727,0.159267,2.313,2.43761
0.760235,0.159267,2.313,2.43994
0.783674,0.162572,2.361,2.49297
0.791338,0.162572,2.361,2.49539
0.799001,0.162572,2.361,2.49783
0.806664,0.162572,2.361,2.50029
0.819846,0.163674,2.377,2.51974
0.827561,0.163674,2.377,2.52226
0.835276,0.163674,2.377,2.5248
0.842991,0.163674,2.377,2.52736
0.850707,0.163674,2.377,2.52994
0.858422,0.163674,2.377,2.53255
0.866137,0.163674,2.377,2.53517
0.880102,0.164845,2.394,2.55597
0.887872,0.164845,2.394,2.55866
0.902002,0.166015,2.411,2.57955
0.909828,0.166015,2.411,2.5823
0.917653,0.166015,2.411,2.58507
0.925479,0.166015,2.411,2.58785
0.933304,0.166015,2.411,2.59066
0.94113,0.166015,2.411,2.59349
0.948955,0.166015,2.411,2.59634
0.963527,0.167186,2.428,2.61754
0.971408,0.167186,2.428,2.62045
0.979289,0.167186,2.428,2.62338
0.987169,0.167186,2.428,2.62634
0.99505,0.167186,2.428,2.62931
1.00293,0.167186,2.428,2.6323
1.01081,0.167186,2.428,2.63531
1.02582,0.168356,2.445,2.65682
1.03376,0.168356,2.445,2.65989
1.0417,0.168356,2.445,2.66299
1.04963,0.168356,2.445,2.6661
1.05757,0.168356,2.445,2.66924
1.0655,0.168356,2.445,2.67239
1.08134,0.169596,2.463,2.69526
1.08934,0.169596,2.463,2.69848
1.09733,0.169596,2.463,2.70172
1.10533,0.169596,2.463,2.70497
1.12146,0.170835,2.481,2.72804
1.12951,0.170835,2.481,2.73136
1.13756,0.170835,2.481,2.7347
1.14561,0.170835,2.481,2.73806
1.15367,0.170835,2.481,2.74144
1.17015,0.172075,2.499,2.76475
1.17826,0.172075,2.499,2.7682
1.18637,0.172075,2.499,2.77166
1.19448,0.172075,2.499,2.77514
1.20259,0.172075,2.499,2.77864
1.2107,0.172075,2.499,2.78216
1.21881,0.172075,2.499,2.7857
1.22693,0.172075,2.499,2.78926
1.23504,0.172075,2.499,2.79283
1.24315,0.172075,2.499,2.79643
1.25126,0.172075,2.499,2.80005
1.25937,0.172075,2.499,2.80368
1.26748,0.172075,2.499,2.80733
1.27559,0.172075,2.499,2.811
1.29295,0.173314,2.517,2.83497
1.31094,0.174622,2.536,2.86013
1.31917,0.174622,2.536,2.86391
1.34729,0.177239,2.574,2.91069
1.37619,0.179924,2.613,2.95872
1.38467,0.179924,2.613,2.96268
1.41501,0.182748,2.654,3.0132
1.45742,0.187086,2.717,3.08888
1.46624,0.187086,2.717,3.09305
1.487,0.1886,2.739,3.12232
1.53248,0.193214,2.806,3.20304
1.56741,0.19645,2.853,3.26113
1.57667,0.19645,2.853,3.26559
1.61261,0.199755,2.901,3.32509
1.63601,0.201477,2.926,3.35836
1.6455,0.201477,2.926,3.363
1.66914,0.203198,2.951,3.39643
1.67872,0.203198,2.951,3.40115
1.6883,0.203198,2.951,3.40588
1.69788,0.203198,2.951,3.41064
1.7225,0.204989,2.977,3.44551
1.73216,0.204989,2.977,3.45035
1.72661,0.203198,2.951,3.42504
1.72148,0.201477,2.926,3.40082
1.73098,0.201477,2.926,3.40564
1.7256,0.199755,2.901,3.38133
1.72067,0.198103,2.877,3.35813
1.73,0.198103,2.877,3.36293
1.72483,0.19645,2.853,3.33965
1.70553,0.193214,2.806,3.28934
1.71463,0.193214,2.806,3.29408
1.6961,0.190115,2.761,3.24592
1.67789,0.187086,2.717,3.19881
1.6867,0.187086,2.717,3.20345
1.68242,0.18564,2.696,3.1833
1.66482,0.182748,2.654,3.13827
1.67344,0.182748,2.654,3.14285
1.66874,0.181302,2.633,3.12254
1.66455,0.179924,2.613,3.10336
1.66022,0.178547,2.593,3.08413
1.66864,0.178547,2.593,3.08867
1.66477,0.177239,2.574,3.07056
1.64842,0.174622,2.536,3.0297
1.65665,0.174622,2.536,3.03419
1.65241,0.173314,2.517,3.01592
1.66058,0.173314,2.517,3.02041
1.66875,0.173314,2.517,3.02491
1.66493,0.172075,2.499,3.00776
1.66099,0.170835,2.481,2.99056
1.66904,0.170835,2.481,2.99504
1.66493,0.169596,2.463,2.97777
1.66069,0.168356,2.445,2.96045
-1.81272,0.188403,2.613,3.18579
-1.80424,0.188403,2.613,3.18097
-1.79576,0.188403,2.613,3.17617
-1.78728,0.188403,2.613,3.17138
-1.7788,0.188403,2.613,3.16661
-1.77032,0.188403,2.613,3.16185
-1.76184,0.188403,2.613,3.15711
-1.75336,0.188403,2.613,3.15238
-1.74487,0.188403,2.613,3.14767
-1.73639,0.188403,2.613,3.14298
-1.72791,0.188403,2.613,3.1383
-1.71943,0.188403,2.613,3.13364
-1.71095,0.188403,2.613,3.129
-1.68944,0.186961,2.593,3.10045
-1.68102,0.186961,2.593,3.09587
-1.67261,0.186961,2.593,3.09131
-1.652,0.185591,2.574,3.06415
-1.64364,0.185591,2.574,3.05965
-1.62322,0.184221,2.555,3.03262
-1.61492,0.184221,2.555,3.02819
-1.60663,0.184221,2.555,3.02378
-1.58645,0.182851,2.536,2.99692
-1.57822,0.182851,2.536,2.99258
-1.56999,0.182851,2.536,2.98824
-1.55006,0.181481,2.517,2.96157
-1.54189,0.181481,2.517,2.9573
-1.53372,0.181481,2.517,2.95305
-1.52555,0.181481,2.517,2.94882
-1.51738,0.181481,2.517,2.9446
-1.49842,0.180184,2.499,2.91937
-1.4903,0.180184,2.499,2.91521
-1.47152,0.178886,2.481,2.89011
-1.46346,0.178886,2.481,2.88602
-1.45541,0.178886,2.481,2.88194
-1.43686,0.177588,2.463,2.857
-1.42886,0.177588,2.463,2.85299
-1.41049,0.17629,2.445,2.82817
-1.40255,0.17629,2.445,2.82423
-1.39461,0.17629,2.445,2.82029
-1.38668,0.17629,2.445,2.81638
-1.35957,0.173839,2.411,2.77337
-1.35174,0.173839,2.411,2.76954
-1.34392,0.173839,2.411,2.76573
-1.33609,0.173839,2.411,2.76193
-1.32827,0.173839,2.411,2.75816
-1.32975,0.175064,2.428,2.77382
-1.32187,0.175064,2.428,2.77005
-1.33293,0.177588,2.463,2.80617
-1.33462,0.178886,2.481,2.82287
-1.32657,0.178886,2.481,2.81907
-1.32808,0.180184,2.499,2.83571
-1.33951,0.182851,2.536,2.87385
-1.35123,0.185591,2.574,2.91303
-1.34288,0.185591,2.574,2.90916
-1.33452,0.185591,2.574,2.90532
-1.34626,0.188403,2.613,2.94545
-1.33778,0.188403,2.613,2.94158
-1.33947,0.189845,2.633,2.96022
-1.34154,0.191359,2.654,2.97994
-1.33293,0.191359,2.654,2.97608
-1.31383,0.189845,2.633,2.94871
-1.30529,0.189845,2.633,2.94491
-1.29674,0.189845,2.633,2.94113
-1.27841,0.188403,2.613,2.91506
-1.26021,0.186961,2.593,2.88907
-1.25179,0.186961,2.593,2.88541
-1.24338,0.186961,2.593,2.88177
-1.22591,0.185591,2.574,2.85706
-1.21756,0.185591,2.574,2.85348
-1.20028,0.184221,2.555,2.82889
-1.19198,0.184221,2.555,2.82538
-1.18369,0.184221,2.555,2.82189
-1.16666,0.182851,2.536,2.79747
-1.14975,0.181481,2.517,2.77311
-1.14158,0.181481,2.517,2.76973
-1.13341,0.181481,2.517,2.76638
-1.11719,0.180184,2.499,2.74328
-1.10109,0.178886,2.481,2.72025
-1.09304,0.178886,2.481,2.717
-1.08499,0.178886,2.481,2.71377
-1.06912,0.177588,2.463,2.6909
-1.06113,0.177588,2.463,2.68773
-1.05313,0.177588,2.463,2.68458
-1.04514,0.177588,2.463,2.68146
-1.03714,0.177588,2.463,2.67835
-1.02915,0.177588,2.463,2.67527
-1.02116,0.177588,2.463,2.6722
-1.00576,0.17629,2.445,2.64965
-0.997821,0.17629,2.445,2.64665
-0.989885,0.17629,2.445,2.64367
-0.981949,0.17629,2.445,2.64071
-0.974013,0.17629,2.445,2.63777
-0.966077,0.17629,2.445,2.63485
-0.958141,0.17629,2.445,2.63195
-0.950205,0.17629,2.445,2.62907
-0.94227,0.17629,2.445,2.62621
-0.934334,0.17629,2.445,2.62337
-0.926398,0.17629,2.445,2.62056
-0.918462,0.17629,2.445,2.61776
-0.910526,0.17629,2.445,2.61499
-0.90259,0.17629,2.445,2.61224
-0.894654,0.17629,2.445,2.6095
-0.886718,0.17629,2.445,2.60679
-0.878783,0.17629,2.445,2.6041
-0.870847,0.17629,2.445,2.60144
-0.862911,0.17629,2.445,2.59879
-0.854975,0.17629,2.445,2.59617
-0.853275,0.177588,2.463,2.61266
-0.845281,0.177588,2.463,2.61006
-0.837286,0.177588,2.463,2.60748
-0.829292,0.177588,2.463,2.60492
-0.821298,0.177588,2.463,2.60239
-0.813304,0.177588,2.463,2.59988
-0.805309,0.177588,2.463,2.59739
-0.797315,0.177588,2.463,2.59492
-0.789321,0.177588,2.463,2.59248
-0.781326,0.177588,2.463,2.59005
-0.778984,0.178886,2.481,2.60656
-0.765338,0.177588,2.463,2.58528
-0.757344,0.177588,2.463,2.58292
-0.754826,0.178886,2.481,2.59945
-0.746773,0.178886,2.481,2.59712
-0.73872,0.178886,2.481,2.59482
-0.730668,0.178886,2.481,2.59253
-0.722615,0.178886,2.481,2.59028
-0.714562,0.178886,2.481,2.58804
-0.711635,0.180184,2.499,2.60459
-0.703524,0.180184,2.499,2.60239
-0.695413,0.180184,2.499,2.60021
-0.687302,0.180184,2.499,2.59805
-0.679191,0.180184,2.499,2.59591
-0.67108,0.180184,2.499,2.5938
-0.662968,0.180184,2.499,2.59172
-0.654857,0.180184,2.499,2.58965
-0.646746,0.180184,2.499,2.58761
-0.638635,0.180184,2.499,2.5856
-0.630524,0.180184,2.499,2.58361
-0.622413,0.180184,2.499,2.58164
-0.614302,0.180184,2.499,2.5797
-0.606191,0.180184,2.499,2.57778
-0.598079,0.180184,2.499,2.57588
-0.589968,0.180184,2.499,2.57401
-0.577666,0.178886,2.481,2.55364
-0.569613,0.178886,2.481,2.55183
-0.561561,0.178886,2.481,2.55004
-0.553508,0.178886,2.481,2.54828
-0.545455,0.178886,2.481,2.54654
-0.537403,0.178886,2.481,2.54483
-0.52935,0.178886,2.481,2.54314
-0.521297,0.178886,2.481,2.54148
-0.513244,0.178886,2.481,2.53984
-0.505192,0.178886,2.481,2.53822
-0.497139,0.178886,2.481,2.53663
-0.489086,0.178886,2.481,2.53507
-0.481034,0.178886,2.481,2.53353
-0.472981,0.178886,2.481,2.53201
-0.464928,0.178886,2.481,2.53052
-0.456875,0.178886,2.481,2.52905
-0.448823,0.178886,2.481,2.52761
-0.44077,0.178886,2.481,2.52619
-0.432717,0.178886,2.481,2.5248
-0.424665,0.178886,2.481,2.52343
-0.419634,0.180184,2.499,2.54039
-0.411523,0.180184,2.499,2.53906
-0.403412,0.180184,2.499,2.53776
-0.395301,0.180184,2.499,2.53648
-0.38719,0.180184,2.499,2.53523
-0.379079,0.180184,2.499,2.534
-0.370968,0.180184,2.499,2.5328
-0.362857,0.180184,2.499,2.53163
-0.354745,0.180184,2.499,2.53048
-0.346634,0.180184,2.499,2.52935
-0.338523,0.180184,2.499,2.52825
-0.330412,0.180184,2.499,2.52718
-0.322301,0.180184,2.499,2.52613
-0.31419,0.180184,2.499,2.52511
-0.306079,0.180184,2.499,2.52411
-0.300114,0.181481,2.517,2.54132
-0.289856,0.180184,2.499,2.5222
-0.279716,0.178886,2.481,2.50312
-0.271663,0.178886,2.481,2.50223
-0.26361,0.178886,2.481,2.50137
-0.255558,0.178886,2.481,2.50053
-0.247505,0.178886,2.481,2.49972
-0.239452,0.178886,2.481,2.49894
-0.233078,0.180184,2.499,2.51631
-0.224967,0.180184,2.499,2.51557
-0.216856,0.180184,2.499,2.51485
-0.208745,0.180184,2.499,2.51417
-0.200634,0.180184,2.499,2.51351
-0.192523,0.180184,2.499,2.51287
-0.184412,0.180184,2.499,2.51226
-0.1763,0.180184,2.499,2.51168
-0.168189,0.180184,2.499,2.51113
-0.160078,0.180184,2.499,2.5106
-0.153062,0.181481,2.517,2.52817
-0.144892,0.181481,2.517,2.52769
-0.136723,0.181481,2.517,2.52724
-0.128553,0.181481,2.517,2.52681
-0.120383,0.181481,2.517,2.5264
-0.112214,0.181481,2.517,2.52603
-0.104044,0.181481,2.517,2.52568
-0.0958747,0.181481,2.517,2.52535
-0.0877052,0.181481,2.517,2.52506
-0.0795356,0.181481,2.517,2.52479
-0.0713661,0.181481,2.517,2.52454
-0.0631965,0.181481,2.517,2.52433
-0.0546334,0.180184,2.499,2.50608
-0.0465223,0.180184,2.499,2.50592
-0.0384112,0.180184,2.499,2.50578
-0.0303,0.180184,2.499,2.50567
-0.0223487,0.181481,2.517,2.52363
-0.0141792,0.181481,2.517,2.52357
-0.00600962,0.181481,2.517,2.52354
0.00215994,0.181481,2.517,2.52354
0.0103295,0.181481,2.517,2.52356
0.0184991,0.181481,2.517,2.5236
0.0266686,0.181481,2.517,2.52368
0.0348382,0.181481,2.517,2.52377
0.0433324,0.182851,2.536,2.54295
0.0515636,0.182851,2.536,2.54311
0.0597948,0.182851,2.536,2.54329
0.0685357,0.184221,2.555,2.56255
0.0768286,0.184221,2.555,2.56278
0.0851215,0.184221,2.555,2.56305
0.0934144,0.184221,2.555,2.56334
0.101707,0.184221,2.555,2.56365
0.11,0.184221,2.555,2.56399
0.118293,0.184221,2.555,2.56436
nan,nan,nan,NaN
0.133876,0.182851,2.536,2.54611
0.141042,0.181481,2.517,2.52747
0.149212,0.181481,2.517,2.52794
0.156256,0.180184,2.499,2.51036
0.163183,0.178886,2.481,2.49279
0.171236,0.178886,2.481,2.49333
nan,nan,nan,NaN
0.185982,0.177588,2.463,2.47639
0.193976,0.177588,2.463,2.477
0.201971,0.177588,2.463,2.47764
0.209965,0.177588,2.463,2.4783
nan,nan,nan,NaN
nan,nan,nan,NaN
nan,nan,nan,NaN
nan,nan,nan,NaN
nan,nan,nan,NaN
nan,nan,nan,NaN
nan,nan,nan,NaN
nan,nan,nan,NaN
nan,nan,nan,NaN
nan,nan,nan,NaN
nan,nan,nan,NaN
nan,nan,nan,NaN
nan,nan,nan,NaN
nan,nan,nan,NaN
nan,nan,nan,NaN
nan,nan,nan,NaN
nan,nan,nan,NaN
nan,nan,nan,NaN
nan,nan,nan,NaN
nan,nan,nan,NaN
nan,nan,nan,NaN
nan,nan,nan,NaN
nan,nan,nan,NaN
nan,nan,nan,NaN
nan,nan,nan,NaN
nan,nan,nan,NaN
nan,nan,nan,NaN
nan,nan,nan,NaN
0.432472,0.173839,2.411,2.45564
0.440297,0.173839,2.411,2.45703
0.448123,0.173839,2.411,2.45845
0.455948,0.173839,2.411,2.45988
0.463774,0.173839,2.411,2.46135
0.468274,0.172613,2.394,2.44547
0.476045,0.172613,2.394,2.44697
0.483815,0.172613,2.394,2.44849
0.491585,0.172613,2.394,2.45004
0.499355,0.172613,2.394,2.45161
0.507126,0.172613,2.394,2.4532
0.514896,0.172613,2.394,2.45482
0.522667,0.172613,2.394,2.45646
0.530437,0.172613,2.394,2.45813
0.538207,0.172613,2.394,2.45982
0.545977,0.172613,2.394,2.46153
0.553748,0.172613,2.394,2.46326
0.561518,0.172613,2.394,2.46502
0.569288,0.172613,2.394,2.4668
0.577059,0.172613,2.394,2.46861
0.584829,0.172613,2.394,2.47044
0.588391,0.171387,2.377,2.45473
0.596106,0.171387,2.377,2.45659
0.599757,0.170233,2.361,2.44193
0.599188,0.167926,2.329,2.4107
0.606747,0.167926,2.329,2.41259
0.60613,0.165691,2.298,2.38236
0.605311,0.163456,2.267,2.35211
0.612669,0.163456,2.267,2.35401
0.615925,0.162374,2.252,2.34035
0.619083,0.161293,2.237,2.32668
0.626344,0.161293,2.237,2.32862
0.629639,0.160283,2.223,2.316
0.636855,0.160283,2.223,2.31797
0.64407,0.160283,2.223,2.31997
0.651285,0.160283,2.223,2.32198
0.6585,0.160283,2.223,2.32401
0.669908,0.161293,2.237,2.34072
0.68171,0.162374,2.252,2.35852
0.689019,0.162374,2.252,2.36064
0.700967,0.163456,2.267,2.37852
0.713012,0.164537,2.282,2.39645
0.720418,0.164537,2.282,2.39867
0.727825,0.164537,2.282,2.4009
0.740387,0.165691,2.298,2.42001
0.752727,0.166772,2.313,2.43811
0.760235,0.166772,2.313,2.44044
0.773053,0.167926,2.329,2.45969
0.780612,0.167926,2.329,2.46207
0.788172,0.167926,2.329,2.46448
0.795731,0.167926,2.329,2.46691
0.808809,0.16908,2.345,2.48632
0.81642,0.16908,2.345,2.48881
0.829654,0.170233,2.361,2.50831
0.837317,0.170233,2.361,2.51086
0.850707,0.171387,2.377,2.53046
0.858422,0.171387,2.377,2.53306
0.866137,0.171387,2.377,2.53568
0.880102,0.172613,2.394,2.55648
0.887872,0.172613,2.394,2.55917
0.895642,0.172613,2.394,2.56188
0.903413,0.172613,2.394,2.5646
0.911183,0.172613,2.394,2.56735
0.918953,0.172613,2.394,2.57012
0.926724,0.172613,2.394,2.57291
0.934494,0.172613,2.394,2.57572
0.948955,0.173839,2.411,2.59686
0.956781,0.173839,2.411,2.59973
0.964606,0.173839,2.411,2.60262
0.972432,0.173839,2.411,2.60553
0.980257,0.173839,2.411,2.60846
0.99505,0.175064,2.428,2.62982
1.00293,0.175064,2.428,2.63281
1.01081,0.175064,2.428,2.63582
1.01869,0.175064,2.428,2.63886
1.02657,0.175064,2.428,2.64191
1.0417,0.17629,2.445,2.6635
1.04963,0.17629,2.445,2.66661
1.05757,0.17629,2.445,2.66975
1.0655,0.17629,2.445,2.6729
1.07344,0.17629,2.445,2.67607
1.08934,0.177588,2.463,2.69899
1.09733,0.177588,2.463,2.70223
1.10533,0.177588,2.463,2.70549
1.11332,0.177588,2.463,2.70876
1.12131,0.177588,2.463,2.71206
1.12931,0.177588,2.463,2.71537
1.1373,0.177588,2.463,2.71871
1.1453,0.177588,2.463,2.72206
1.16172,0.178886,2.481,2.74535
1.16977,0.178886,2.481,2.74877
1.17782,0.178886,2.481,2.75221
1.18588,0.178886,2.481,2.75566
1.19393,0.178886,2.481,2.75914
1.20198,0.178886,2.481,2.76263
1.21004,0.178886,2.481,2.76614
1.21809,0.178886,2.481,2.76968
1.22614,0.178886,2.481,2.77323
1.22524,0.177588,2.463,2.75665
1.23323,0.177588,2.463,2.76021
1.2503,0.178886,2.481,2.78399
1.25835,0.178886,2.481,2.78762
1.2664,0.178886,2.481,2.79126
1.2837,0.180184,2.499,2.8152
1.30112,0.181481,2.517,2.83921
1.30929,0.181481,2.517,2.84297
1.3274,0.182851,2.536,2.86823
1.36566,0.186961,2.593,2.9366
1.37407,0.186961,2.593,2.94052
1.40381,0.189845,2.633,2.98989
1.43489,0.192874,2.675,3.04167
1.44357,0.192874,2.675,3.04577
1.47506,0.195902,2.717,3.09778
1.5079,0.199074,2.761,3.15223
1.54159,0.202319,2.806,3.20797
1.5507,0.202319,2.806,3.21236
1.58593,0.205708,2.853,3.27064
1.62203,0.209169,2.901,3.33024
1.63144,0.209169,2.901,3.33484
1.655,0.210971,2.926,3.36824
1.67872,0.212774,2.951,3.40173
1.6883,0.212774,2.951,3.40647
1.69788,0.212774,2.951,3.41123
1.70745,0.212774,2.951,3.416
1.71703,0.212774,2.951,3.4208
1.71198,0.210971,2.926,3.3966
1.72148,0.210971,2.926,3.40139
1.73098,0.210971,2.926,3.40621
1.71133,0.207438,2.877,3.35392
1.72067,0.207438,2.877,3.3587
1.73,0.207438,2.877,3.36349
1.72483,0.205708,2.853,3.34021
1.70553,0.202319,2.806,3.28989
1.71463,0.202319,2.806,3.29462
1.6961,0.199074,2.761,3.24646
1.67789,0.195902,2.717,3.19934
1.6867,0.195902,2.717,3.20397
1.68242,0.194388,2.696,3.18382
1.66482,0.191359,2.654,3.13878
1.67344,0.191359,2.654,3.14336
1.66874,0.189845,2.633,3.12305
1.66455,0.188403,2.613,3.10387
1.64806,0.185591,2.574,3.06203
1.65641,0.185591,2.574,3.06653
1.65248,0.184221,2.555,3.04838
1.64842,0.182851,2.536,3.03019
1.65665,0.182851,2.536,3.03467
1.65241,0.181481,2.517,3.0164
1.6487,0.180184,2.499,2.99928
1.65682,0.180184,2.499,3.00375
1.65293,0.178886,2.481,2.98656
1.66099,0.178886,2.481,2.99103
1.66904,0.178886,2.481,2.99551
1.65276,0.17629,2.445,2.95647
1.64915,0.175064,2.428,2.94033
-1.79885,0.195375,2.593,3.16191
-1.79043,0.195375,2.593,3.15713
-1.78202,0.195375,2.593,3.15236
-1.7736,0.195375,2.593,3.14761
-1.7788,0.196882,2.613,3.16712
-1.77032,0.196882,2.613,3.16237
-1.76184,0.196882,2.613,3.15763
-1.75336,0.196882,2.613,3.1529
-1.74487,0.196882,2.613,3.14819
-1.73639,0.196882,2.613,3.1435
-1.72791,0.196882,2.613,3.13882
-1.71943,0.196882,2.613,3.13416
-1.71095,0.196882,2.613,3.12952
-1.70247,0.196882,2.613,3.12489
-1.68102,0.195375,2.593,3.09639
-1.67261,0.195375,2.593,3.09183
-1.66419,0.195375,2.593,3.08729
-1.64364,0.193943,2.574,3.06017
-1.63529,0.193943,2.574,3.05569
-1.62693,0.193943,2.574,3.05123
-1.60663,0.192512,2.555,3.02429
-1.59834,0.192512,2.555,3.01989
-1.59004,0.192512,2.555,3.01551
-1.58175,0.192512,2.555,3.01115
-1.56176,0.19108,2.536,2.98444
-1.55353,0.19108,2.536,2.98014
-1.53372,0.189649,2.517,2.95356
-1.52555,0.189649,2.517,2.94933
-1.51738,0.189649,2.517,2.94511
-1.49842,0.188292,2.499,2.91988
-1.4903,0.188292,2.499,2.91573
-1.47152,0.186936,2.481,2.89062
-1.46346,0.186936,2.481,2.88653
-1.45541,0.186936,2.481,2.88245
-1.43686,0.18558,2.463,2.85751
-1.42886,0.18558,2.463,2.8535
-1.41049,0.184224,2.445,2.82868
-1.40255,0.184224,2.445,2.82473
-1.39461,0.184224,2.445,2.8208
-1.38668,0.184224,2.445,2.81688
-1.35957,0.181662,2.411,2.77387
-1.35174,0.181662,2.411,2.77004
-1.34392,0.181662,2.411,2.76623
-1.33609,0.181662,2.411,2.76244
-1.33763,0.182943,2.428,2.77811
-1.32975,0.182943,2.428,2.77433
-1.32187,0.182943,2.428,2.77056
-1.33293,0.18558,2.463,2.80669
-1.33462,0.186936,2.481,2.82339
-1.32657,0.186936,2.481,2.81959
-1.33765,0.189649,2.517,2.85667
-1.34955,0.192512,2.555,2.89592
-1.35123,0.193943,2.574,2.91357
-1.34288,0.193943,2.574,2.90971
-1.35474,0.196882,2.613,2.94989
-1.35656,0.198389,2.633,2.96855
-1.34802,0.198389,2.633,2.96466
-1.35016,0.199971,2.654,2.9844
-1.35216,0.201553,2.675,3.00409
-1.33293,0.199971,2.654,2.97664
-1.32431,0.199971,2.654,2.9728
-1.30529,0.198389,2.633,2.94548
-1.29674,0.198389,2.633,2.9417
-1.2882,0.198389,2.633,2.93794
-1.26993,0.196882,2.613,2.91192
-1.26145,0.196882,2.613,2.90823
-1.25297,0.196882,2.613,2.90456
-1.23496,0.195375,2.593,2.87871
-1.22654,0.195375,2.593,2.87511
-1.2092,0.193943,2.574,2.85048
-1.19198,0.192512,2.555,2.82594
-1.18369,0.192512,2.555,2.82245
-1.1754,0.192512,2.555,2.81898
-1.15843,0.19108,2.536,2.79459
-1.14158,0.189649,2.517,2.77028
-1.13341,0.189649,2.517,2.76692
-1.11719,0.188292,2.499,2.74382
-1.10109,0.186936,2.481,2.72079
-1.09304,0.186936,2.481,2.71754
-1.08499,0.186936,2.481,2.71431
-1.06912,0.18558,2.463,2.69144
-1.06113,0.18558,2.463,2.68827
-1.05313,0.18558,2.463,2.68512
-1.04514,0.18558,2.463,2.682
-1.03714,0.18558,2.463,2.67889
-1.02915,0.18558,2.463,2.67581
-1.02116,0.18558,2.463,2.67275
-1.00576,0.184224,2.445,2.65019
-0.997821,0.184224,2.445,2.64719
-0.989885,0.184224,2.445,2.64421
-0.981949,0.184224,2.445,2.64125
-0.974013,0.184224,2.445,2.63831
-0.966077,0.184224,2.445,2.63539
-0.958141,0.184224,2.445,2.63249
-0.950205,0.184224,2.445,2.62961
-0.94227,0.184224,2.445,2.62675
-0.934334,0.184224,2.445,2.62392
-0.926398,0.184224,2.445,2.6211
-0.918462,0.184224,2.445,2.61831
-0.904195,0.182943,2.428,2.59735
-0.896315,0.182943,2.428,2.59462
-0.894654,0.184224,2.445,2.61005
-0.886718,0.184224,2.445,2.60734
-0.878783,0.184224,2.445,2.60465
-0.870847,0.184224,2.445,2.60199
-0.862911,0.184224,2.445,2.59934
-0.854975,0.184224,2.445,2.59672
-0.847039,0.184224,2.445,2.59412
-0.839103,0.184224,2.445,2.59154
-0.831167,0.184224,2.445,2.58898
-0.829292,0.18558,2.463,2.60548
-0.821298,0.18558,2.463,2.60295
-0.813304,0.18558,2.463,2.60044
-0.805309,0.18558,2.463,2.59795
-0.797315,0.18558,2.463,2.59548
-0.789321,0.18558,2.463,2.59304
-0.781326,0.18558,2.463,2.59061
-0.773332,0.18558,2.463,2.58821
-0.765338,0.18558,2.463,2.58584
-0.757344,0.18558,2.463,2.58348
-0.749349,0.18558,2.463,2.58115
-0.746773,0.186936,2.481,2.59769
-0.73872,0.186936,2.481,2.59538
-0.730668,0.186936,2.481,2.5931
-0.722615,0.186936,2.481,2.59085
-0.714562,0.186936,2.481,2.58861
-0.706509,0.186936,2.481,2.5864
-0.703524,0.188292,2.499,2.60296
-0.695413,0.188292,2.499,2.60078
-0.687302,0.188292,2.499,2.59862
-0.679191,0.188292,2.499,2.59649
-0.67108,0.188292,2.499,2.59438
-0.662968,0.188292,2.499,2.59229
-0.654857,0.188292,2.499,2.59023
-0.646746,0.188292,2.499,2.58819
-0.638635,0.188292,2.499,2.58618
-0.630524,0.188292,2.499,2.58419
-0.622413,0.188292,2.499,2.58222
-0.614302,0.188292,2.499,2.58028
-0.606191,0.188292,2.499,2.57836
-0.598079,0.188292,2.499,2.57646
-0.589968,0.188292,2.499,2.57459
-0.581857,0.188292,2.499,2.57274
-0.573746,0.188292,2.499,2.57092
-0.565635,0.188292,2.499,2.56912
-0.557524,0.188292,2.499,2.56735
-0.549413,0.188292,2.499,2.5656
-0.541301,0.188292,2.499,2.56388
-0.53319,0.188292,2.499,2.56218
-0.525079,0.188292,2.499,2.5605
-0.516968,0.188292,2.499,2.55885
-0.508857,0.188292,2.499,2.55722
-0.497139,0.186936,2.481,2.53721
-0.489086,0.186936,2.481,2.53565
-0.481034,0.186936,2.481,2.53411
-0.472981,0.186936,2.481,2.53259
-0.464928,0.186936,2.481,2.5311
-0.46019,0.188292,2.499,2.54799
-0.448823,0.186936,2.481,2.52819
-0.44077,0.186936,2.481,2.52677
-0.432717,0.186936,2.481,2.52538
-0.424665,0.186936,2.481,2.52401
-0.419634,0.188292,2.499,2.54097
-0.411523,0.188292,2.499,2.53965
-0.403412,0.188292,2.499,2.53835
-0.395301,0.188292,2.499,2.53707
-0.38719,0.188292,2.499,2.53582
-0.379079,0.188292,2.499,2.53459
-0.370968,0.188292,2.499,2.53339
-0.36547,0.189649,2.517,2.55046
-0.357301,0.189649,2.517,2.5493
-0.349131,0.189649,2.517,2.54817
-0.340961,0.189649,2.517,2.54706
-0.332792,0.189649,2.517,2.54598
-0.324622,0.189649,2.517,2.54492
-0.31419,0.188292,2.499,2.5257
-0.306079,0.188292,2.499,2.52471
-0.297967,0.188292,2.499,2.52374
-0.289856,0.188292,2.499,2.52279
-0.279716,0.186936,2.481,2.50371
-0.271663,0.186936,2.481,2.50282
-0.26361,0.186936,2.481,2.50196
-0.255558,0.186936,2.481,2.50112
-0.247505,0.186936,2.481,2.50031
-0.239452,0.186936,2.481,2.49953
-0.2314,0.186936,2.481,2.49877
-0.224967,0.188292,2.499,2.51616
-0.216856,0.188292,2.499,2.51545
-0.208745,0.188292,2.499,2.51476
-0.200634,0.188292,2.499,2.5141
-0.192523,0.188292,2.499,2.51347
-0.184412,0.188292,2.499,2.51286
-0.1763,0.188292,2.499,2.51228
-0.168189,0.188292,2.499,2.51172
-0.160078,0.188292,2.499,2.51119
-0.153062,0.189649,2.517,2.52877
-0.144892,0.189649,2.517,2.52829
-0.136723,0.189649,2.517,2.52783
-0.128553,0.189649,2.517,2.52741
-0.120383,0.189649,2.517,2.527
-0.112214,0.189649,2.517,2.52663
-0.104044,0.189649,2.517,2.52628
-0.0958747,0.189649,2.517,2.52595
-0.0877052,0.189649,2.517,2.52566
-0.0795356,0.189649,2.517,2.52539
-0.0713661,0.189649,2.517,2.52514
-0.0631965,0.189649,2.517,2.52493
-0.0546334,0.188292,2.499,2.50668
-0.0465223,0.188292,2.499,2.50652
-0.0384112,0.188292,2.499,2.50638
-0.0303,0.188292,2.499,2.50627
-0.0223487,0.189649,2.517,2.52423
-0.0141792,0.189649,2.517,2.52417
-0.00600962,0.189649,2.517,2.52414
0.00215994,0.189649,2.517,2.52414
0.0103295,0.189649,2.517,2.52416
0.0184991,0.189649,2.517,2.5242
0.0266686,0.189649,2.517,2.52428
0.0348382,0.189649,2.517,2.52438
0.0433324,0.19108,2.536,2.54356
0.0515636,0.19108,2.536,2.54371
0.0597948,0.19108,2.536,2.54389
0.0685357,0.192512,2.555,2.56316
0.0768286,0.192512,2.555,2.56339
0.0851215,0.192512,2.555,2.56366
0.0934144,0.192512,2.555,2.56394
0.101707,0.192512,2.555,2.56426
0.11,0.192512,2.555,2.5646
0.118293,0.192512,2.555,2.56497
nan,nan,nan,NaN
0.133876,0.19108,2.536,2.54671
0.141042,0.189649,2.517,2.52807
0.149212,0.189649,2.517,2.52854
0.156256,0.188292,2.499,2.51095
0.163183,0.186936,2.481,2.49338
0.171236,0.186936,2.481,2.49392
nan,nan,nan,NaN
0.185982,0.18558,2.463,2.47697
0.193976,0.18558,2.463,2.47759
0.201971,0.18558,2.463,2.47823
0.209965,0.18558,2.463,2.47889
nan,nan,nan,NaN
nan,nan,nan,NaN
nan,nan,nan,NaN
nan,nan,nan,NaN
nan,nan,nan,NaN
nan,nan,nan,NaN
nan,nan,nan,NaN
nan,nan,nan,NaN
nan,nan,nan,NaN
nan,nan,nan,NaN
nan,nan,nan,NaN
nan,nan,nan,NaN
nan,nan,nan,NaN
nan,nan,nan,NaN
nan,nan,nan,NaN
nan,nan,nan,NaN
nan,nan,nan,NaN
nan,nan,nan,NaN
nan,nan,nan,NaN
nan,nan,nan,NaN
nan,nan,nan,NaN
nan,nan,nan,NaN
nan,nan,nan,NaN
nan,nan,nan,NaN
nan,nan,nan,NaN
nan,nan,nan,NaN
0.41976,0.182943,2.428,2.4708
0.427641,0.182943,2.428,2.47215
0.432472,0.181662,2.411,2.45621
0.440297,0.181662,2.411,2.4576
0.448123,0.181662,2.411,2.45901
0.455948,0.181662,2.411,2.46045
0.463774,0.181662,2.411,2.46191
0.468274,0.180381,2.394,2.44603
0.476045,0.180381,2.394,2.44753
0.483815,0.180381,2.394,2.44905
0.491585,0.180381,2.394,2.4506
0.499355,0.180381,2.394,2.45217
0.507126,0.180381,2.394,2.45376
0.514896,0.180381,2.394,2.45538
0.522667,0.180381,2.394,2.45702
0.530437,0.180381,2.394,2.45869
0.538207,0.180381,2.394,2.46037
0.545977,0.180381,2.394,2.46209
0.553748,0.180381,2.394,2.46382
0.561518,0.180381,2.394,2.46558
0.569288,0.180381,2.394,2.46736
0.577059,0.180381,2.394,2.46916
0.584829,0.180381,2.394,2.47099
0.588391,0.1791,2.377,2.45528
0.596106,0.1791,2.377,2.45714
0.599757,0.177894,2.361,2.44247
0.595071,0.174278,2.313,2.39467
0.602579,0.174278,2.313,2.39655
0.60191,0.171942,2.282,2.3663
0.601306,0.169682,2.252,2.33706
0.608615,0.169682,2.252,2.33895
0.607993,0.167497,2.223,2.31072
0.611334,0.166442,2.209,2.29807
0.618504,0.166442,2.209,2.29999
0.621425,0.165312,2.194,2.28629
0.624536,0.164257,2.18,2.27364
0.631612,0.164257,2.18,2.27559
0.638687,0.164257,2.18,2.27757
0.645763,0.164257,2.18,2.27956
0.657031,0.165312,2.194,2.29623
0.668693,0.166442,2.209,2.31399
0.675863,0.166442,2.209,2.31607
0.687362,0.167497,2.223,2.33286
0.698951,0.168551,2.237,2.3497
0.706212,0.168551,2.237,2.35187
0.713473,0.168551,2.237,2.35406
0.725566,0.169682,2.252,2.37208
0.737757,0.170812,2.267,2.39014
0.745115,0.170812,2.267,2.39242
0.757452,0.171942,2.282,2.41056
0.770222,0.173148,2.298,2.42982
0.777681,0.173148,2.298,2.43219
0.790264,0.174278,2.313,2.45048
0.80329,0.175483,2.329,2.46988
0.81085,0.175483,2.329,2.47235
0.824031,0.176689,2.345,2.49184
0.837317,0.177894,2.361,2.51139
0.850707,0.1791,2.377,2.53099
0.858422,0.1791,2.377,2.53359
0.866137,0.1791,2.377,2.53622
0.880102,0.180381,2.394,2.55702
0.887872,0.180381,2.394,2.55971
0.895642,0.180381,2.394,2.56241
0.903413,0.180381,2.394,2.56514
0.911183,0.180381,2.394,2.56788
0.918953,0.180381,2.394,2.57065
0.926724,0.180381,2.394,2.57344
0.934494,0.180381,2.394,2.57625
0.948955,0.181662,2.411,2.59739
0.956781,0.181662,2.411,2.60026
0.964606,0.181662,2.411,2.60315
0.972432,0.181662,2.411,2.60606
0.980257,0.181662,2.411,2.60899
0.99505,0.182943,2.428,2.63036
1.00293,0.182943,2.428,2.63335
1.01081,0.182943,2.428,2.63636
1.01869,0.182943,2.428,2.63939
1.02657,0.182943,2.428,2.64244
1.03445,0.182943,2.428,2.64551
1.04963,0.184224,2.445,2.66715
1.05757,0.184224,2.445,2.67028
1.0655,0.184224,2.445,2.67344
1.07344,0.184224,2.445,2.67661
1.08138,0.184224,2.445,2.6798
1.08931,0.184224,2.445,2.68301
1.09725,0.184224,2.445,2.68625
1.10518,0.184224,2.445,2.6895
1.11312,0.184224,2.445,2.69277
1.12105,0.184224,2.445,2.69606
1.1373,0.18558,2.463,2.71924
1.1453,0.18558,2.463,2.72259
1.14486,0.184224,2.445,2.70604
1.1528,0.184224,2.445,2.70941
1.16073,0.184224,2.445,2.7128
1.16867,0.184224,2.445,2.7162
1.17661,0.184224,2.445,2.71963
1.18454,0.184224,2.445,2.72307
1.19248,0.184224,2.445,2.72653
1.20041,0.184224,2.445,2.73001
1.20835,0.184224,2.445,2.73351
1.21629,0.184224,2.445,2.73703
1.22422,0.184224,2.445,2.74056
1.24123,0.18558,2.463,2.76432
1.24922,0.18558,2.463,2.76792
1.25722,0.18558,2.463,2.77153
1.27446,0.186936,2.481,2.79545
1.29181,0.188292,2.499,2.81944
1.29993,0.188292,2.499,2.82317
1.31746,0.189649,2.517,2.84727
1.35565,0.193943,2.574,2.91563
1.364,0.193943,2.574,2.91952
1.39315,0.196882,2.613,2.96773
1.42362,0.199971,2.654,3.01835
1.43224,0.199971,2.654,3.02242
1.46365,0.203136,2.696,3.0744
1.49589,0.206376,2.739,3.12768
1.52895,0.209691,2.783,3.18226
1.53799,0.209691,2.783,3.18661
1.58593,0.214965,2.853,3.27124
1.62203,0.218582,2.901,3.33085
1.63144,0.218582,2.901,3.33544
1.655,0.220466,2.926,3.36884
1.67872,0.222349,2.951,3.40234
1.6883,0.222349,2.951,3.40708
1.69788,0.222349,2.951,3.41184
1.70745,0.222349,2.951,3.41661
1.71703,0.222349,2.951,3.42141
1.71198,0.220466,2.926,3.3972
1.72148,0.220466,2.926,3.402
1.73098,0.220466,2.926,3.40681
1.71133,0.216774,2.877,3.35451
1.72067,0.216774,2.877,3.35929
1.73,0.216774,2.877,3.36408
1.72483,0.214965,2.853,3.34079
1.70553,0.211424,2.806,3.29046
1.71463,0.211424,2.806,3.29519
1.70961,0.209691,2.783,3.27289
1.67789,0.204718,2.717,3.19989
1.6867,0.204718,2.717,3.20452
1.68242,0.203136,2.696,3.18437
1.66482,0.199971,2.654,3.13932
1.67344,0.199971,2.654,3.1439
1.66874,0.198389,2.633,3.12358
1.66455,0.196882,2.613,3.10439
1.64806,0.193943,2.574,3.06255
1.65641,0.193943,2.574,3.06705
1.65248,0.192512,2.555,3.0489
1.64842,0.19108,2.536,3.03069
1.65665,0.19108,2.536,3.03518
1.65241,0.189649,2.517,3.01691
1.6487,0.188292,2.499,2.99978
1.65682,0.188292,2.499,3.00425
1.65293,0.186936,2.481,2.98706
1.66099,0.186936,2.481,2.99152
1.66904,0.186936,2.481,2.996
1.65276,0.184224,2.445,2.95695
1.64915,0.182943,2.428,2.94081
-1.79885,0.203789,2.593,3.16244
-1.79043,0.203789,2.593,3.15766
-1.78202,0.203789,2.593,3.1529
-1.7736,0.203789,2.593,3.14815
-1.7788,0.205361,2.613,3.16766
-1.77032,0.205361,2.613,3.1629
-1.76184,0.205361,2.613,3.15817
-1.75336,0.205361,2.613,3.15344
-1.74487,0.205361,2.613,3.14873
-1.73639,0.205361,2.613,3.14404
-1.72791,0.205361,2.613,3.13937
-1.71943,0.205361,2.613,3.13471
-1.71095,0.205361,2.613,3.13006
-1.70247,0.205361,2.613,3.12543
-1.69399,0.205361,2.613,3.12082
-1.68551,0.205361,2.613,3.11623
-1.67703,0.205361,2.613,3.11165
-1.65577,0.203789,2.593,3.0833
-1.64736,0.203789,2.593,3.07879
-1.63894,0.203789,2.593,3.0743
-1.60663,0.200802,2.555,3.02483
-1.59834,0.200802,2.555,3.02043
-1.59004,0.200802,2.555,3.01605
-1.58175,0.200802,2.555,3.01169
-1.56176,0.199309,2.536,2.98498
-1.55353,0.199309,2.536,2.98068
-1.53372,0.197816,2.517,2.9541
-1.52555,0.197816,2.517,2.94987
-1.51738,0.197816,2.517,2.94565
-1.49842,0.196401,2.499,2.92041
-1.4903,0.196401,2.499,2.91626
-1.47152,0.194987,2.481,2.89115
-1.46346,0.194987,2.481,2.88706
-1.44485,0.193572,2.463,2.86207
-1.43686,0.193572,2.463,2.85804
-1.42886,0.193572,2.463,2.85403
-1.41049,0.192157,2.445,2.82921
-1.40255,0.192157,2.445,2.82526
-1.39461,0.192157,2.445,2.82133
-1.37704,0.190821,2.428,2.79783
-1.35957,0.189485,2.411,2.77439
-1.35174,0.189485,2.411,2.77057
-1.34392,0.189485,2.411,2.76676
-1.33609,0.189485,2.411,2.76296
-1.32827,0.189485,2.411,2.75919
-1.32975,0.190821,2.428,2.77486
-1.32187,0.190821,2.428,2.77109
-1.33293,0.193572,2.463,2.80723
-1.33462,0.194987,2.481,2.82393
-1.32657,0.194987,2.481,2.82014
-1.33765,0.197816,2.517,2.85722
-1.34955,0.200802,2.555,2.89649
-1.35123,0.202296,2.574,2.91414
-1.34288,0.202296,2.574,2.91028
-1.35474,0.205361,2.613,2.95047
-1.35656,0.206933,2.633,2.96914
-1.34802,0.206933,2.633,2.96524
-1.35016,0.208583,2.654,2.98499
-1.35216,0.210233,2.675,3.00469
-1.33293,0.208583,2.654,2.97723
-1.32431,0.208583,2.654,2.97339
-1.30529,0.206933,2.633,2.94606
-1.29674,0.206933,2.633,2.94229
-1.2882,0.206933,2.633,2.93853
-1.26993,0.205361,2.613,2.9125
-1.26145,0.205361,2.613,2.90881
-1.25297,0.205361,2.613,2.90515
-1.23496,0.203789,2.593,2.87929
-1.22654,0.203789,2.593,2.87569
-1.2092,0.202296,2.574,2.85107
-1.19198,0.200802,2.555,2.82651
-1.18369,0.200802,2.555,2.82303
-1.1754,0.200802,2.555,2.81956
-1.15843,0.199309,2.536,2.79517
-1.14158,0.197816,2.517,2.77085
-1.13341,0.197816,2.517,2.7675
-1.11719,0.196401,2.499,2.74439
-1.10109,0.194987,2.481,2.72136
-1.09304,0.194987,2.481,2.71811
-1.08499,0.194987,2.481,2.71488
-1.06912,0.193572,2.463,2.692
-1.06113,0.193572,2.463,2.68883
-1.05313,0.193572,2.463,2.68569
-1.04514,0.193572,2.463,2.68256
-1.03714,0.193572,2.463,2.67946
-1.02915,0.193572,2.463,2.67638
-1.01369,0.192157,2.445,2.65378
-1.00576,0.192157,2.445,2.65075
-0.997821,0.192157,2.445,2.64775
-0.989885,0.192157,2.445,2.64477
-0.981949,0.192157,2.445,2.64181
-0.974013,0.192157,2.445,2.63887
-0.966077,0.192157,2.445,2.63595
-0.951479,0.190821,2.428,2.61475
-0.943599,0.190821,2.428,2.61189
-0.935718,0.190821,2.428,2.60905
-0.927837,0.190821,2.428,2.60624
-0.919957,0.190821,2.428,2.60344
-0.912076,0.190821,2.428,2.60067
-0.904195,0.190821,2.428,2.59792
-0.896315,0.190821,2.428,2.59518
-0.888434,0.190821,2.428,2.59247
-0.880553,0.190821,2.428,2.58978
-0.872672,0.190821,2.428,2.58711
-0.864792,0.190821,2.428,2.58447
-0.856911,0.190821,2.428,2.58184
-0.854975,0.192157,2.445,2.59729
-0.847039,0.192157,2.445,2.59469
-0.839103,0.192157,2.445,2.59211
-0.831167,0.192157,2.445,2.58955
-0.823232,0.192157,2.445,2.58702
-0.815296,0.192157,2.445,2.5845
-0.80736,0.192157,2.445,2.58201
-0.799424,0.192157,2.445,2.57954
-0.797315,0.193572,2.463,2.59606
-0.789321,0.193572,2.463,2.59362
-0.781326,0.193572,2.463,2.5912
-0.773332,0.193572,2.463,2.5888
-0.765338,0.193572,2.463,2.58642
-0.757344,0.193572,2.463,2.58407
-0.749349,0.193572,2.463,2.58174
-0.746773,0.194987,2.481,2.59828
-0.733361,0.193572,2.463,2.57714
-0.725366,0.193572,2.463,2.57488
-0.722615,0.194987,2.481,2.59144
-0.714562,0.194987,2.481,2.5892
-0.706509,0.194987,2.481,2.58699
-0.698457,0.194987,2.481,2.58481
-0.690404,0.194987,2.481,2.58264
-0.687302,0.196401,2.499,2.59922
-0.679191,0.196401,2.499,2.59709
-0.67108,0.196401,2.499,2.59498
-0.662968,0.196401,2.499,2.59289
-0.654857,0.196401,2.499,2.59083
-0.646746,0.196401,2.499,2.58879
-0.638635,0.196401,2.499,2.58678
-0.630524,0.196401,2.499,2.58479
