-0.886907,-0.228142,2.361,2.53239
-0.879244,-0.228142,2.361,2.52971
-0.871581,-0.228142,2.361,2.52706
-0.863918,-0.228142,2.361,2.52443
-0.862057,-0.229688,2.377,2.5389
-0.854342,-0.229688,2.377,2.53629
-0.846627,-0.229688,2.377,2.53371
-0.838912,-0.229688,2.377,2.53114
-0.831197,-0.229688,2.377,2.52859
-0.823481,-0.229688,2.377,2.52607
-0.815766,-0.229688,2.377,2.52356
-0.81383,-0.23133,2.394,2.53911
-0.80606,-0.23133,2.394,2.53663
-0.79829,-0.23133,2.394,2.53417
-0.790519,-0.23133,2.394,2.53173
-0.782749,-0.23133,2.394,2.52932
-0.774979,-0.23133,2.394,2.52692
-0.772656,-0.232973,2.411,2.54248
-0.764831,-0.232973,2.411,2.54011
-0.757005,-0.232973,2.411,2.53777
-0.754462,-0.234616,2.428,2.55332
-0.751809,-0.236259,2.445,2.56886
-0.749349,-0.237998,2.463,2.58545
-0.741355,-0.237998,2.463,2.58314
-0.733361,-0.237998,2.463,2.58086
-0.730668,-0.239737,2.481,2.59744
-0.722615,-0.239737,2.481,2.59519
-0.719746,-0.241477,2.499,2.61177
-0.711635,-0.241477,2.499,2.60955
-0.703524,-0.241477,2.499,2.60735
-0.695413,-0.241477,2.499,2.60517
-0.687302,-0.241477,2.499,2.60302
-0.684083,-0.243216,2.517,2.61962
-0.675913,-0.243216,2.517,2.6175
-0.662968,-0.241477,2.499,2.5967
-0.654857,-0.241477,2.499,2.59464
-0.646746,-0.241477,2.499,2.5926
-0.638635,-0.241477,2.499,2.59059
-0.635065,-0.243216,2.517,2.60725
-0.626896,-0.243216,2.517,2.60527
-0.618726,-0.243216,2.517,2.60332
-0.606191,-0.241477,2.499,2.58279
-0.598079,-0.241477,2.499,2.58089
-0.589968,-0.241477,2.499,2.57903
-0.581857,-0.241477,2.499,2.57718
-0.573746,-0.241477,2.499,2.57536
-0.561561,-0.239737,2.481,2.55503
-0.553508,-0.239737,2.481,2.55327
-0.549413,-0.241477,2.499,2.57005
-0.541301,-0.241477,2.499,2.56833
-0.53319,-0.241477,2.499,2.56663
-0.528861,-0.243216,2.517,2.58344
-0.520692,-0.243216,2.517,2.58178
-0.512522,-0.243216,2.517,2.58014
-0.504353,-0.243216,2.517,2.57853
-0.499929,-0.245052,2.536,2.5964
-0.491697,-0.245052,2.536,2.59482
-0.483466,-0.245052,2.536,2.59328
-0.475235,-0.245052,2.536,2.59176
-0.467004,-0.245052,2.536,2.59026
-0.458772,-0.245052,2.536,2.58879
-0.450541,-0.245052,2.536,2.58734
-0.44231,-0.245052,2.536,2.58592
-0.434079,-0.245052,2.536,2.58453
-0.425848,-0.245052,2.536,2.58316
-0.417616,-0.245052,2.536,2.58181
-0.409385,-0.245052,2.536,2.58049
-0.401154,-0.245052,2.536,2.5792
-0.392923,-0.245052,2.536,2.57793
-0.384691,-0.245052,2.536,2.57669
-0.37646,-0.245052,2.536,2.57547
-0.368229,-0.245052,2.536,2.57428
-0.359998,-0.245052,2.536,2.57312
-0.354402,-0.246888,2.555,2.59125
-0.346109,-0.246888,2.555,2.59013
-0.337816,-0.246888,2.555,2.58903
-0.329523,-0.246888,2.555,2.58797
-0.32123,-0.246888,2.555,2.58692
-0.315265,-0.248724,2.574,2.60514
-0.30691,-0.248724,2.574,2.60414
-0.300759,-0.25056,2.593,2.62238
-0.292343,-0.25056,2.593,2.62143
-0.283927,-0.25056,2.593,2.6205
-0.275511,-0.25056,2.593,2.61961
-0.267094,-0.25056,2.593,2.61873
-0.258678,-0.25056,2.593,2.61789
-0.250262,-0.25056,2.593,2.61707
-0.241846,-0.25056,2.593,2.61628
-0.233429,-0.25056,2.593,2.61552
-0.225013,-0.25056,2.593,2.61478
-0.216597,-0.25056,2.593,2.61407
-0.208181,-0.25056,2.593,2.61338
-0.199764,-0.25056,2.593,2.61273
-0.191348,-0.25056,2.593,2.6121
-0.182932,-0.25056,2.593,2.61149
-0.174516,-0.25056,2.593,2.61092
-0.1661,-0.25056,2.593,2.61037
-0.157683,-0.25056,2.593,2.60985
-0.149267,-0.25056,2.593,2.60935
-0.139819,-0.248724,2.574,2.58977
-0.131464,-0.248724,2.574,2.58933
-0.12311,-0.248724,2.574,2.58892
-0.114755,-0.248724,2.574,2.58853
-0.1064,-0.248724,2.574,2.58818
-0.0980459,-0.248724,2.574,2.58785
-0.0896914,-0.248724,2.574,2.58754
-0.0819372,-0.25056,2.593,2.60637
-0.073521,-0.25056,2.593,2.60612
-0.0651047,-0.25056,2.593,2.60589
-0.0566885,-0.25056,2.593,2.60569
-0.0482722,-0.25056,2.593,2.60553
-0.039856,-0.25056,2.593,2.60538
-0.0314398,-0.25056,2.593,2.60527
-0.0230235,-0.25056,2.593,2.60518
-0.0146073,-0.25056,2.593,2.60512
-0.00619107,-0.25056,2.593,2.60509
0.00222516,-0.25056,2.593,2.60508
0.0106414,-0.25056,2.593,2.6051
0.0190576,-0.25056,2.593,2.60515
0.0274739,-0.25056,2.593,2.60522
0.0358901,-0.25056,2.593,2.60532
0.0443063,-0.25056,2.593,2.60545
0.0527226,-0.25056,2.593,2.60561
0.0611388,-0.25056,2.593,2.6058
0.069555,-0.25056,2.593,2.60601
0.0779713,-0.25056,2.593,2.60624
0.0863875,-0.25056,2.593,2.60651
0.0948037,-0.25056,2.593,2.6068
0.10322,-0.25056,2.593,2.60712
0.111636,-0.25056,2.593,2.60747
0.120052,-0.25056,2.593,2.60784
0.128469,-0.25056,2.593,2.60824
0.136885,-0.25056,2.593,2.60867
0.146422,-0.252492,2.613,2.62925
0.154903,-0.252492,2.613,2.62974
0.163384,-0.252492,2.613,2.63025
0.171865,-0.252492,2.613,2.63079
0.180346,-0.252492,2.613,2.63136
0.188828,-0.252492,2.613,2.63195
0.197309,-0.252492,2.613,2.63258
0.20579,-0.252492,2.613,2.63322
0.214271,-0.252492,2.613,2.6339
0.222752,-0.252492,2.613,2.6346
0.231233,-0.252492,2.613,2.63534
0.239715,-0.252492,2.613,2.63609
0.248196,-0.252492,2.613,2.63688
0.256677,-0.252492,2.613,2.63769
0.265158,-0.252492,2.613,2.63853
0.273639,-0.252492,2.613,2.63939
0.279961,-0.25056,2.593,2.62008
0.288377,-0.25056,2.593,2.62099
0.294619,-0.248724,2.574,2.60272
0.302973,-0.248724,2.574,2.60368
0.311328,-0.248724,2.574,2.60466
0.317323,-0.246888,2.555,2.58644
0.325615,-0.246888,2.555,2.58747
0.333908,-0.246888,2.555,2.58853
0.342201,-0.246888,2.555,2.58961
0.350494,-0.246888,2.555,2.59072
0.358787,-0.246888,2.555,2.59185
0.36708,-0.246888,2.555,2.59301
0.375373,-0.246888,2.555,2.5942
0.383666,-0.246888,2.555,2.59541
0.391959,-0.246888,2.555,2.59665
0.400252,-0.246888,2.555,2.59792
0.408544,-0.246888,2.555,2.59921
0.419937,-0.248724,2.574,2.61986
0.428292,-0.248724,2.574,2.62122
0.436646,-0.248724,2.574,2.62259
0.445001,-0.248724,2.574,2.624
0.453355,-0.248724,2.574,2.62543
0.46171,-0.248724,2.574,2.62688
0.470064,-0.248724,2.574,2.62836
0.478419,-0.248724,2.574,2.62987
0.486774,-0.248724,2.574,2.6314
0.498783,-0.25056,2.593,2.6524
0.507199,-0.25056,2.593,2.65399
0.515615,-0.25056,2.593,2.65561
0.524032,-0.25056,2.593,2.65726
0.532448,-0.25056,2.593,2.65893
0.540864,-0.25056,2.593,2.66063
0.54928,-0.25056,2.593,2.66236
0.557697,-0.25056,2.593,2.6641
0.566113,-0.25056,2.593,2.66588
0.574529,-0.25056,2.593,2.66768
0.582945,-0.25056,2.593,2.6695
0.595923,-0.252492,2.613,2.69196
0.604404,-0.252492,2.613,2.69385
0.612885,-0.252492,2.613,2.69577
0.621366,-0.252492,2.613,2.69771
0.629847,-0.252492,2.613,2.69967
0.638328,-0.252492,2.613,2.70166
0.64681,-0.252492,2.613,2.70368
0.655291,-0.252492,2.613,2.70572
0.663772,-0.252492,2.613,2.70779
0.672253,-0.252492,2.613,2.70988
0.680734,-0.252492,2.613,2.712
0.689215,-0.252492,2.613,2.71414
0.687283,-0.248724,2.574,2.67576
0.695638,-0.248724,2.574,2.67792
0.703992,-0.248724,2.574,2.6801
0.712347,-0.248724,2.574,2.68231
0.720701,-0.248724,2.574,2.68454
0.723674,-0.246888,2.555,2.66696
0.731967,-0.246888,2.555,2.66922
0.74026,-0.246888,2.555,2.67151
0.748553,-0.246888,2.555,2.67382
0.756846,-0.246888,2.555,2.67615
0.759449,-0.245052,2.536,2.65859
0.76768,-0.245052,2.536,2.66095
0.770098,-0.243216,2.517,2.64339
0.778268,-0.243216,2.517,2.64578
0.786437,-0.243216,2.517,2.64819
0.788924,-0.241477,2.499,2.63168
0.797036,-0.241477,2.499,2.63412
0.805147,-0.241477,2.499,2.63658
0.813258,-0.241477,2.499,2.63907
0.821369,-0.241477,2.499,2.64158
0.82948,-0.241477,2.499,2.64412
0.831558,-0.239737,2.481,2.62761
0.833519,-0.237998,2.463,2.61109
0.841514,-0.237998,2.463,2.61365
0.849508,-0.237998,2.463,2.61623
0.857502,-0.237998,2.463,2.61884
0.859171,-0.236259,2.445,2.60231
0.867107,-0.236259,2.445,2.60494
0.875043,-0.236259,2.445,2.60759
0.882979,-0.236259,2.445,2.61027
0.890915,-0.236259,2.445,2.61296
0.892601,-0.234616,2.428,2.59749
0.900482,-0.234616,2.428,2.60021
0.908362,-0.234616,2.428,2.60295
0.916243,-0.234616,2.428,2.60571
0.924124,-0.234616,2.428,2.60849
0.932004,-0.234616,2.428,2.61129
0.939885,-0.234616,2.428,2.61412
0.947766,-0.234616,2.428,2.61696
0.955646,-0.234616,2.428,2.61983
0.963527,-0.234616,2.428,2.62271
0.971408,-0.234616,2.428,2.62562
0.979289,-0.234616,2.428,2.62854
0.987169,-0.234616,2.428,2.63149
0.99505,-0.234616,2.428,2.63446
nan,nan,nan,NaN
nan,nan,nan,NaN
nan,nan,nan,NaN
nan,nan,nan,NaN
nan,nan,nan,NaN
nan,nan,nan,NaN
nan,nan,nan,NaN
nan,nan,nan,NaN
nan,nan,nan,NaN
nan,nan,nan,NaN
nan,nan,nan,NaN
nan,nan,nan,NaN
nan,nan,nan,NaN
nan,nan,nan,NaN
1.70611,-0.359557,3.721,4.10925
1.71819,-0.359557,3.721,4.11428
1.73027,-0.359557,3.721,4.11934
1.74234,-0.359557,3.721,4.12443
1.75442,-0.359557,3.721,4.12954
1.7665,-0.359557,3.721,4.13469
1.77858,-0.359557,3.721,4.13986
1.77141,-0.355692,3.681,4.10051
1.78335,-0.355692,3.681,4.10568
1.7953,-0.355692,3.681,4.11089
1.80725,-0.355692,3.681,4.11612
1.79992,-0.351924,3.642,4.07771
1.81174,-0.351924,3.642,4.08294
1.82356,-0.351924,3.642,4.0882
1.83538,-0.351924,3.642,4.09349
nan,nan,nan,NaN
nan,nan,nan,NaN
nan,nan,nan,NaN
nan,nan,nan,NaN
nan,nan,nan,NaN
nan,nan,nan,NaN
nan,nan,nan,NaN
1.95062,-0.355692,3.681,4.18105
1.96257,-0.355692,3.681,4.18664
1.99597,-0.359557,3.721,4.23781
2.00805,-0.359557,3.721,4.24351
2.02013,-0.359557,3.721,4.24924
2.0322,-0.359557,3.721,4.25499
2.04428,-0.359557,3.721,4.26078
2.05636,-0.359557,3.721,4.26658
2.06844,-0.359557,3.721,4.27242
2.08051,-0.359557,3.721,4.27828
2.09259,-0.359557,3.721,4.28416
2.08204,-0.355692,3.681,4.24396
2.09399,-0.355692,3.681,4.24983
2.10594,-0.355692,3.681,4.25573
2.09545,-0.351924,3.642,4.21651
2.08528,-0.348252,3.604,4.17834
2.09698,-0.348252,3.604,4.18419
2.10868,-0.348252,3.604,4.19006
2.09802,-0.34458,3.566,4.15172
2.10959,-0.34458,3.566,4.15758
2.09916,-0.341005,3.529,4.12027
2.06815,-0.334144,3.458,4.0431
2.07937,-0.334144,3.458,4.04885
2.04888,-0.327477,3.389,3.97372
2.02037,-0.321196,3.324,3.90308
2.03116,-0.321196,3.324,3.90868
2.04195,-0.321196,3.324,3.91429
nan,nan,nan,NaN
nan,nan,nan,NaN
1.92455,-0.298005,3.084,3.64743
1.90068,-0.292787,3.03,3.58876
1.91052,-0.292787,3.03,3.59398
1.87028,-0.285153,2.951,3.50538
1.84801,-0.280321,2.901,3.45102
1.85743,-0.280321,2.901,3.45607
1.8514,-0.278002,2.877,3.4325
1.81482,-0.271142,2.806,3.35272
1.80897,-0.268919,2.783,3.33013
1.81801,-0.268919,2.783,3.33505
1.79815,-0.264668,2.739,3.28718
1.77867,-0.260512,2.696,3.24037
1.78743,-0.260512,2.696,3.24518
1.78218,-0.258483,2.675,3.22469
1.76275,-0.254425,2.633,3.17879
1.77129,-0.254425,2.633,3.18354
1.76632,-0.252492,2.613,3.16408
1.76122,-0.25056,2.593,3.14457
-2.06524,-0.278005,2.977,3.63387
-2.05558,-0.278005,2.977,3.62839
-2.04592,-0.278005,2.977,3.62293
-2.03625,-0.278005,2.977,3.61748
-2.02659,-0.278005,2.977,3.61205
-2.01693,-0.278005,2.977,3.60664
-2.00727,-0.278005,2.977,3.60124
-1.9976,-0.278005,2.977,3.59586
-1.98794,-0.278005,2.977,3.59051
-1.97828,-0.278005,2.977,3.58516
-1.98581,-0.280433,3.003,3.61111
-1.99383,-0.282955,3.03,3.63818
-1.98399,-0.282955,3.03,3.63279
-1.99175,-0.285476,3.057,3.65976
-1.99933,-0.287998,3.084,3.68664
-2.00738,-0.290612,3.112,3.71465
-1.99728,-0.290612,3.112,3.7092
-2.0057,-0.29332,3.141,3.73828
-2.03235,-0.298737,3.199,3.80175
-2.02197,-0.298737,3.199,3.79621
-2.01159,-0.298737,3.199,3.79069
-2.03936,-0.304433,3.26,3.85737
-2.02878,-0.304433,3.26,3.85178
-2.0182,-0.304433,3.26,3.84622
-2.00762,-0.304433,3.26,3.84068
-2.01664,-0.307422,3.292,3.87281
-2.00596,-0.307422,3.292,3.86725
-1.99527,-0.307422,3.292,3.86172
-1.98459,-0.307422,3.292,3.85621
-1.9739,-0.307422,3.292,3.85072
-1.9823,-0.31041,3.324,3.88263
nan,nan,nan,NaN
nan,nan,nan,NaN
nan,nan,nan,NaN
nan,nan,nan,NaN
nan,nan,nan,NaN
nan,nan,nan,NaN
nan,nan,nan,NaN
nan,nan,nan,NaN
nan,nan,nan,NaN
nan,nan,nan,NaN
nan,nan,nan,NaN
nan,nan,nan,NaN
nan,nan,nan,NaN
nan,nan,nan,NaN
nan,nan,nan,NaN
nan,nan,nan,NaN
nan,nan,nan,NaN
nan,nan,nan,NaN
nan,nan,nan,NaN
nan,nan,nan,NaN
nan,nan,nan,NaN
nan,nan,nan,NaN
nan,nan,nan,NaN
nan,nan,nan,NaN
nan,nan,nan,NaN
nan,nan,nan,NaN
nan,nan,nan,NaN
nan,nan,nan,NaN
nan,nan,nan,NaN
nan,nan,nan,NaN
nan,nan,nan,NaN
nan,nan,nan,NaN
-1.21383,-0.231687,2.481,2.77172
-1.20578,-0.231687,2.481,2.7682
-1.18904,-0.230006,2.463,2.74465
-1.17241,-0.228325,2.445,2.72116
-1.16447,-0.228325,2.445,2.71775
-1.1485,-0.226737,2.428,2.69548
-1.13263,-0.22515,2.411,2.67329
-1.1248,-0.22515,2.411,2.66998
-1.1091,-0.223562,2.394,2.64789
-1.09351,-0.221975,2.377,2.62587
-1.0858,-0.221975,2.377,2.62266
-1.07808,-0.221975,2.377,2.61948
-1.06316,-0.220481,2.361,2.5987
-1.04835,-0.218986,2.345,2.57799
-1.04073,-0.218986,2.345,2.5749
-1.03312,-0.218986,2.345,2.57183
-1.02551,-0.218986,2.345,2.56878
-1.0179,-0.218986,2.345,2.56576
-1.0034,-0.217492,2.329,2.54526
-0.995836,-0.217492,2.329,2.54229
-0.988277,-0.217492,2.329,2.53934
-0.980718,-0.217492,2.329,2.53641
-0.979844,-0.218986,2.345,2.5509
-0.972232,-0.218986,2.345,2.54798
-0.964621,-0.218986,2.345,2.54509
-0.95701,-0.218986,2.345,2.54221
-0.949399,-0.218986,2.345,2.53936
-0.941787,-0.218986,2.345,2.53652
-0.934176,-0.218986,2.345,2.53371
-0.932887,-0.220481,2.361,2.54818
-0.925224,-0.220481,2.361,2.54538
-0.91756,-0.220481,2.361,2.54261
-0.909897,-0.220481,2.361,2.53985
-0.902234,-0.220481,2.361,2.53712
-0.894571,-0.220481,2.361,2.5344
-0.886907,-0.220481,2.361,2.53171
-0.885203,-0.221975,2.377,2.54617
-0.877488,-0.221975,2.377,2.5435
-0.869772,-0.221975,2.377,2.54085
-0.862057,-0.221975,2.377,2.53822
-0.854342,-0.221975,2.377,2.53561
-0.846627,-0.221975,2.377,2.53302
-0.838912,-0.221975,2.377,2.53045
-0.831197,-0.221975,2.377,2.5279
-0.823481,-0.221975,2.377,2.52538
-0.821601,-0.223562,2.394,2.54091
-0.81383,-0.223562,2.394,2.53841
-0.80606,-0.223562,2.394,2.53593
-0.79829,-0.223562,2.394,2.53347
-0.790519,-0.223562,2.394,2.53103
-0.782749,-0.223562,2.394,2.52862
-0.774979,-0.223562,2.394,2.52622
-0.772656,-0.22515,2.411,2.54177
-0.764831,-0.22515,2.411,2.53941
-0.757005,-0.22515,2.411,2.53706
-0.754462,-0.226737,2.428,2.55261
-0.751809,-0.228325,2.445,2.56815
-0.749349,-0.230006,2.463,2.58472
-0.741355,-0.230006,2.463,2.58242
-0.733361,-0.230006,2.463,2.58013
-0.730668,-0.231687,2.481,2.59671
-0.722615,-0.231687,2.481,2.59446
-0.719746,-0.233368,2.499,2.61103
-0.711635,-0.233368,2.499,2.60881
-0.703524,-0.233368,2.499,2.60661
-0.695413,-0.233368,2.499,2.60443
-0.692252,-0.235049,2.517,2.62102
-0.684083,-0.235049,2.517,2.61888
-0.675913,-0.235049,2.517,2.61675
-0.667744,-0.235049,2.517,2.61465
-0.659574,-0.235049,2.517,2.61258
-0.651405,-0.235049,2.517,2.61053
-0.643235,-0.235049,2.517,2.6085
-0.635065,-0.235049,2.517,2.6065
-0.626896,-0.235049,2.517,2.60452
-0.614302,-0.233368,2.499,2.58396
-0.606191,-0.233368,2.499,2.58204
-0.598079,-0.233368,2.499,2.58015
-0.589968,-0.233368,2.499,2.57828
-0.581857,-0.233368,2.499,2.57644
-0.573746,-0.233368,2.499,2.57462
-0.561561,-0.231687,2.481,2.55429
-0.553508,-0.231687,2.481,2.55253
-0.545455,-0.231687,2.481,2.5508
-0.537403,-0.231687,2.481,2.54909
-0.52935,-0.231687,2.481,2.5474
-0.525079,-0.233368,2.499,2.56421
-0.516968,-0.233368,2.499,2.56256
-0.508857,-0.233368,2.499,2.56094
-0.500746,-0.233368,2.499,2.55934
-0.492635,-0.233368,2.499,2.55776
-0.484524,-0.233368,2.499,2.55621
-0.476412,-0.233368,2.499,2.55469
-0.471674,-0.235049,2.517,2.57158
-0.463505,-0.235049,2.517,2.57009
-0.458772,-0.236823,2.536,2.58802
-0.450541,-0.236823,2.536,2.58657
-0.44231,-0.236823,2.536,2.58515
-0.434079,-0.236823,2.536,2.58376
-0.425848,-0.236823,2.536,2.58239
-0.417616,-0.236823,2.536,2.58104
-0.409385,-0.236823,2.536,2.57972
-0.401154,-0.236823,2.536,2.57843
-0.392923,-0.236823,2.536,2.57716
-0.384691,-0.236823,2.536,2.57592
-0.37646,-0.236823,2.536,2.5747
-0.368229,-0.236823,2.536,2.57351
-0.359998,-0.236823,2.536,2.57235
-0.354402,-0.238597,2.555,2.59047
-0.346109,-0.238597,2.555,2.58935
-0.337816,-0.238597,2.555,2.58826
-0.329523,-0.238597,2.555,2.58719
-0.32123,-0.238597,2.555,2.58614
-0.315265,-0.240371,2.574,2.60435
-0.30691,-0.240371,2.574,2.60335
-0.298555,-0.240371,2.574,2.60238
-0.292343,-0.242146,2.593,2.62064
-0.283927,-0.242146,2.593,2.61971
-0.275511,-0.242146,2.593,2.61881
-0.267094,-0.242146,2.593,2.61794
-0.258678,-0.242146,2.593,2.6171
-0.250262,-0.242146,2.593,2.61628
-0.241846,-0.242146,2.593,2.61549
-0.233429,-0.242146,2.593,2.61472
-0.225013,-0.242146,2.593,2.61398
-0.216597,-0.242146,2.593,2.61327
-0.208181,-0.242146,2.593,2.61259
-0.199764,-0.242146,2.593,2.61193
-0.191348,-0.242146,2.593,2.6113
-0.182932,-0.242146,2.593,2.6107
-0.174516,-0.242146,2.593,2.61012
-0.1661,-0.242146,2.593,2.60957
-0.157683,-0.242146,2.593,2.60905
-0.149267,-0.242146,2.593,2.60856
-0.139819,-0.240371,2.574,2.58898
-0.131464,-0.240371,2.574,2.58854
-0.12311,-0.240371,2.574,2.58813
-0.114755,-0.240371,2.574,2.58774
-0.1064,-0.240371,2.574,2.58739
-0.0980459,-0.240371,2.574,2.58706
-0.0896914,-0.240371,2.574,2.58675
-0.0819372,-0.242146,2.593,2.60557
-0.073521,-0.242146,2.593,2.60532
-0.0651047,-0.242146,2.593,2.6051
-0.0566885,-0.242146,2.593,2.6049
-0.0482722,-0.242146,2.593,2.60473
-0.039856,-0.242146,2.593,2.60459
-0.0314398,-0.242146,2.593,2.60447
-0.0230235,-0.242146,2.593,2.60438
-0.0146073,-0.242146,2.593,2.60432
-0.00619107,-0.242146,2.593,2.60429
0.00222516,-0.242146,2.593,2.60428
0.0106414,-0.242146,2.593,2.6043
0.0190576,-0.242146,2.593,2.60435
0.0274739,-0.242146,2.593,2.60443
0.0358901,-0.242146,2.593,2.60453
0.0443063,-0.242146,2.593,2.60466
0.0527226,-0.242146,2.593,2.60482
0.0611388,-0.242146,2.593,2.605
0.069555,-0.242146,2.593,2.60521
0.0779713,-0.242146,2.593,2.60545
0.0863875,-0.242146,2.593,2.60571
0.0948037,-0.242146,2.593,2.60601
0.10322,-0.242146,2.593,2.60633
0.111636,-0.242146,2.593,2.60667
0.120052,-0.242146,2.593,2.60705
0.128469,-0.242146,2.593,2.60745
0.137941,-0.244013,2.613,2.62799
0.146422,-0.244013,2.613,2.62845
0.154903,-0.244013,2.613,2.62894
0.163384,-0.244013,2.613,2.62945
0.171865,-0.244013,2.613,2.62999
0.180346,-0.244013,2.613,2.63056
0.188828,-0.244013,2.613,2.63115
0.197309,-0.244013,2.613,2.63178
0.20579,-0.244013,2.613,2.63243
0.214271,-0.244013,2.613,2.6331
0.222752,-0.244013,2.613,2.63381
0.231233,-0.244013,2.613,2.63454
0.239715,-0.244013,2.613,2.63529
0.248196,-0.244013,2.613,2.63608
0.256677,-0.244013,2.613,2.63689
0.265158,-0.244013,2.613,2.63773
0.273639,-0.244013,2.613,2.6386
0.279961,-0.242146,2.593,2.61929
0.288377,-0.242146,2.593,2.6202
0.294619,-0.240371,2.574,2.60193
0.302973,-0.240371,2.574,2.60289
0.311328,-0.240371,2.574,2.60388
0.317323,-0.238597,2.555,2.58566
0.325615,-0.238597,2.555,2.58669
0.333908,-0.238597,2.555,2.58775
0.342201,-0.238597,2.555,2.58883
0.350494,-0.238597,2.555,2.58994
0.358787,-0.238597,2.555,2.59108
0.36708,-0.238597,2.555,2.59224
0.375373,-0.238597,2.555,2.59343
0.383666,-0.238597,2.555,2.59464
0.391959,-0.238597,2.555,2.59588
0.400252,-0.238597,2.555,2.59714
0.408544,-0.238597,2.555,2.59843
0.419937,-0.240371,2.574,2.61908
0.428292,-0.240371,2.574,2.62044
0.436646,-0.240371,2.574,2.62182
0.445001,-0.240371,2.574,2.62322
0.453355,-0.240371,2.574,2.62465
0.46171,-0.240371,2.574,2.62611
0.470064,-0.240371,2.574,2.62759
0.478419,-0.240371,2.574,2.62909
0.486774,-0.240371,2.574,2.63063
0.498783,-0.242146,2.593,2.65162
0.507199,-0.242146,2.593,2.65321
0.515615,-0.242146,2.593,2.65483
0.520192,-0.240371,2.574,2.63702
0.528546,-0.240371,2.574,2.63868
0.536901,-0.240371,2.574,2.64036
0.545256,-0.240371,2.574,2.64207
0.557697,-0.242146,2.593,2.66333
0.566113,-0.242146,2.593,2.6651
0.574529,-0.242146,2.593,2.6669
0.582945,-0.242146,2.593,2.66873
0.595923,-0.244013,2.613,2.69118
0.604404,-0.244013,2.613,2.69307
0.612885,-0.244013,2.613,2.69498
0.621366,-0.244013,2.613,2.69693
0.629847,-0.244013,2.613,2.69889
0.638328,-0.244013,2.613,2.70088
0.64681,-0.244013,2.613,2.7029
0.655291,-0.244013,2.613,2.70494
0.663772,-0.244013,2.613,2.70701
0.672253,-0.244013,2.613,2.7091
0.680734,-0.244013,2.613,2.71122
0.689215,-0.244013,2.613,2.71336
0.692356,-0.242146,2.593,2.69474
0.700773,-0.242146,2.593,2.69692
0.703992,-0.240371,2.574,2.67934
0.712347,-0.240371,2.574,2.68155
0.720701,-0.240371,2.574,2.68378
0.729056,-0.240371,2.574,2.68603
0.731967,-0.238597,2.555,2.66847
0.74026,-0.238597,2.555,2.67076
0.748553,-0.238597,2.555,2.67307
0.751218,-0.236823,2.536,2.65551
0.759449,-0.236823,2.536,2.65785
0.76768,-0.236823,2.536,2.66021
0.770098,-0.235049,2.517,2.64265
0.778268,-0.235049,2.517,2.64504
0.786437,-0.235049,2.517,2.64746
0.788924,-0.233368,2.499,2.63094
0.797036,-0.233368,2.499,2.63339
0.805147,-0.233368,2.499,2.63585
0.813258,-0.233368,2.499,2.63834
0.821369,-0.233368,2.499,2.64085
0.82948,-0.233368,2.499,2.64339
0.831558,-0.231687,2.481,2.62689
0.833519,-0.230006,2.463,2.61037
0.841514,-0.230006,2.463,2.61293
0.849508,-0.230006,2.463,2.61552
0.857502,-0.230006,2.463,2.61813
0.859171,-0.228325,2.445,2.6016
0.867107,-0.228325,2.445,2.60423
0.875043,-0.228325,2.445,2.60689
0.882979,-0.228325,2.445,2.60956
0.890915,-0.228325,2.445,2.61226
0.892601,-0.226737,2.428,2.59679
0.900482,-0.226737,2.428,2.59951
0.908362,-0.226737,2.428,2.60225
0.916243,-0.226737,2.428,2.60501
0.924124,-0.226737,2.428,2.6078
0.932004,-0.226737,2.428,2.6106
0.939885,-0.226737,2.428,2.61342
0.947766,-0.226737,2.428,2.61627
0.955646,-0.226737,2.428,2.61913
0.963527,-0.226737,2.428,2.62202
0.971408,-0.226737,2.428,2.62492
0.979289,-0.226737,2.428,2.62785
0.987169,-0.226737,2.428,2.6308
0.99505,-0.226737,2.428,2.63377
1.00293,-0.226737,2.428,2.63675
nan,nan,nan,NaN
nan,nan,nan,NaN
nan,nan,nan,NaN
nan,nan,nan,NaN
nan,nan,nan,NaN
nan,nan,nan,NaN
nan,nan,nan,NaN
nan,nan,nan,NaN
nan,nan,nan,NaN
nan,nan,nan,NaN
nan,nan,nan,NaN
nan,nan,nan,NaN
nan,nan,nan,NaN
1.72491,-0.351312,3.762,4.15348
1.73712,-0.351312,3.762,4.15856
1.74933,-0.351312,3.762,4.16368
1.76154,-0.351312,3.762,4.16882
1.77375,-0.351312,3.762,4.174
1.78596,-0.351312,3.762,4.1792
1.79817,-0.351312,3.762,4.18443
1.81038,-0.351312,3.762,4.1897
1.8226,-0.351312,3.762,4.19499
1.83481,-0.351312,3.762,4.20031
1.82689,-0.347483,3.721,4.15982
1.83896,-0.347483,3.721,4.16514
1.85104,-0.347483,3.721,4.17048
1.86312,-0.347483,3.721,4.17586
1.8752,-0.347483,3.721,4.18126
nan,nan,nan,NaN
nan,nan,nan,NaN
nan,nan,nan,NaN
nan,nan,nan,NaN
nan,nan,nan,NaN
nan,nan,nan,NaN
nan,nan,nan,NaN
1.99354,-0.351312,3.762,4.27203
2.00575,-0.351312,3.762,4.27775
2.01796,-0.351312,3.762,4.28348
2.03017,-0.351312,3.762,4.28925
2.02013,-0.347483,3.721,4.24823
2.0322,-0.347483,3.721,4.25399
2.04428,-0.347483,3.721,4.25977
2.05636,-0.347483,3.721,4.26558
2.06844,-0.347483,3.721,4.27142
2.08051,-0.347483,3.721,4.27728
2.09259,-0.347483,3.721,4.28317
2.08204,-0.343748,3.681,4.24297
2.09399,-0.343748,3.681,4.24885
2.10594,-0.343748,3.681,4.25475
2.09545,-0.340106,3.642,4.21554
2.08528,-0.336557,3.604,4.17738
2.09698,-0.336557,3.604,4.18323
2.10868,-0.336557,3.604,4.18911
2.09802,-0.333009,3.566,4.15077
2.10959,-0.333009,3.566,4.15664
2.09916,-0.329554,3.529,4.11933
2.06815,-0.322923,3.458,4.04219
2.07937,-0.322923,3.458,4.04794
2.04888,-0.31648,3.389,3.97283
2.02037,-0.31041,3.324,3.90221
2.03116,-0.31041,3.324,3.90781
2.04195,-0.31041,3.324,3.91342
nan,nan,nan,NaN
nan,nan,nan,NaN
1.92455,-0.287998,3.084,3.64663
1.90068,-0.282955,3.03,3.58797
1.91052,-0.282955,3.03,3.59319
1.87028,-0.275577,2.951,3.50461
1.84801,-0.270908,2.901,3.45027
1.85743,-0.270908,2.901,3.45532
1.8514,-0.268667,2.877,3.43176
1.82969,-0.264185,2.829,3.37947
1.80897,-0.259889,2.783,3.32942
1.81801,-0.259889,2.783,3.33433
1.79815,-0.25578,2.739,3.28647
1.77867,-0.251764,2.696,3.23967
1.78743,-0.251764,2.696,3.24449
1.78218,-0.249803,2.675,3.22401
1.77681,-0.247842,2.654,3.20346
1.78542,-0.247842,2.654,3.20825
1.77984,-0.245881,2.633,3.18763
1.7748,-0.244013,2.613,3.16816
-2.04721,-0.266002,2.951,3.60142
-2.03763,-0.266002,2.951,3.59598
-2.02805,-0.266002,2.951,3.59056
-2.00137,-0.263748,2.926,3.55479
-1.99187,-0.263748,2.926,3.54945
-1.98238,-0.263748,2.926,3.54413
-1.97288,-0.263748,2.926,3.53883
-1.96338,-0.263748,2.926,3.53354
-1.95389,-0.263748,2.926,3.52827
-1.94439,-0.263748,2.926,3.52302
-1.95142,-0.266002,2.951,3.54785
-1.95895,-0.268346,2.977,3.5738
-1.94929,-0.268346,2.977,3.56851
-1.95657,-0.270689,3.003,3.59436
-1.96433,-0.273123,3.03,3.62134
-1.97191,-0.275557,3.057,3.64823
-1.96198,-0.275557,3.057,3.64288
-1.9693,-0.27799,3.084,3.66967
-1.97708,-0.280514,3.112,3.69758
-1.96698,-0.280514,3.112,3.69219
-1.99335,-0.285742,3.17,3.75553
-1.98306,-0.285742,3.17,3.75008
-1.99082,-0.288357,3.199,3.7789
-1.98044,-0.288357,3.199,3.77345
-1.97006,-0.288357,3.199,3.76801
-1.95967,-0.288357,3.199,3.76259
-1.94929,-0.288357,3.199,3.75719
-1.93891,-0.288357,3.199,3.75181
-1.92852,-0.288357,3.199,3.74646
-1.91814,-0.288357,3.199,3.74112
-1.92624,-0.291151,3.23,3.77201
nan,nan,nan,NaN
nan,nan,nan,NaN
nan,nan,nan,NaN
nan,nan,nan,NaN
nan,nan,nan,NaN
nan,nan,nan,NaN
nan,nan,nan,NaN
nan,nan,nan,NaN
nan,nan,nan,NaN
nan,nan,nan,NaN
nan,nan,nan,NaN
nan,nan,nan,NaN
nan,nan,nan,NaN
nan,nan,nan,NaN
nan,nan,nan,NaN
nan,nan,nan,NaN
nan,nan,nan,NaN
nan,nan,nan,NaN
nan,nan,nan,NaN
nan,nan,nan,NaN
nan,nan,nan,NaN
nan,nan,nan,NaN
nan,nan,nan,NaN
nan,nan,nan,NaN
nan,nan,nan,NaN
nan,nan,nan,NaN
nan,nan,nan,NaN
nan,nan,nan,NaN
nan,nan,nan,NaN
nan,nan,nan,NaN
nan,nan,nan,NaN
nan,nan,nan,NaN
-1.20502,-0.222014,2.463,2.75095
-1.19703,-0.222014,2.463,2.74746
-1.18904,-0.222014,2.463,2.74399
-1.17241,-0.220391,2.445,2.7205
-1.16447,-0.220391,2.445,2.71709
-1.1485,-0.218859,2.428,2.69483
-1.13263,-0.217327,2.411,2.67264
-1.1248,-0.217327,2.411,2.66933
-1.1091,-0.215794,2.394,2.64725
-1.09351,-0.214262,2.377,2.62522
-1.0858,-0.214262,2.377,2.62202
-1.07808,-0.214262,2.377,2.61884
-1.06316,-0.21282,2.361,2.59806
-1.0555,-0.21282,2.361,2.59494
-1.04784,-0.21282,2.361,2.59183
-1.03312,-0.211377,2.345,2.5712
-1.02551,-0.211377,2.345,2.56815
-1.0179,-0.211377,2.345,2.56512
-1.0034,-0.209935,2.329,2.54463
-0.995836,-0.209935,2.329,2.54165
-0.988277,-0.209935,2.329,2.5387
-0.980718,-0.209935,2.329,2.53577
-0.979844,-0.211377,2.345,2.55025
-0.972232,-0.211377,2.345,2.54734
-0.964621,-0.211377,2.345,2.54444
-0.95701,-0.211377,2.345,2.54157
-0.949399,-0.211377,2.345,2.53871
-0.941787,-0.211377,2.345,2.53588
-0.934176,-0.211377,2.345,2.53306
-0.932887,-0.21282,2.361,2.54753
-0.925224,-0.21282,2.361,2.54473
-0.91756,-0.21282,2.361,2.54195
-0.909897,-0.21282,2.361,2.5392
-0.902234,-0.21282,2.361,2.53646
-0.894571,-0.21282,2.361,2.53375
-0.892918,-0.214262,2.377,2.5482
-0.885203,-0.214262,2.377,2.54551
-0.877488,-0.214262,2.377,2.54284
-0.869772,-0.214262,2.377,2.54019
-0.862057,-0.214262,2.377,2.53755
-0.854342,-0.214262,2.377,2.53494
-0.846627,-0.214262,2.377,2.53235
-0.838912,-0.214262,2.377,2.52978
-0.837141,-0.215794,2.394,2.54531
-0.829371,-0.215794,2.394,2.54277
-0.821601,-0.215794,2.394,2.54024
-0.81383,-0.215794,2.394,2.53774
-0.80606,-0.215794,2.394,2.53526
-0.79829,-0.215794,2.394,2.5328
-0.790519,-0.215794,2.394,2.53036
-0.782749,-0.215794,2.394,2.52794
-0.774979,-0.215794,2.394,2.52555
-0.772656,-0.217327,2.411,2.54109
-0.764831,-0.217327,2.411,2.53872
-0.757005,-0.217327,2.411,2.53638
-0.754462,-0.218859,2.428,2.55192
-0.751809,-0.220391,2.445,2.56745
-0.749349,-0.222014,2.463,2.58402
-0.741355,-0.222014,2.463,2.58172
-0.73872,-0.223636,2.481,2.59828
-0.730668,-0.223636,2.481,2.59601
-0.722615,-0.223636,2.481,2.59375
-0.719746,-0.225259,2.499,2.61032
-0.711635,-0.225259,2.499,2.6081
-0.703524,-0.225259,2.499,2.6059
-0.695413,-0.225259,2.499,2.60372
-0.692252,-0.226881,2.517,2.6203
-0.684083,-0.226881,2.517,2.61815
-0.675913,-0.226881,2.517,2.61603
-0.667744,-0.226881,2.517,2.61393
-0.659574,-0.226881,2.517,2.61186
-0.651405,-0.226881,2.517,2.60981
-0.643235,-0.226881,2.517,2.60778
-0.635065,-0.226881,2.517,2.60578
-0.626896,-0.226881,2.517,2.6038
-0.614302,-0.225259,2.499,2.58324
-0.606191,-0.225259,2.499,2.58132
-0.598079,-0.225259,2.499,2.57943
-0.589968,-0.225259,2.499,2.57756
-0.581857,-0.225259,2.499,2.57571
-0.573746,-0.225259,2.499,2.57389
-0.565635,-0.225259,2.499,2.5721
-0.553508,-0.223636,2.481,2.55181
-0.545455,-0.223636,2.481,2.55008
-0.537403,-0.223636,2.481,2.54837
-0.52935,-0.223636,2.481,2.54668
-0.525079,-0.225259,2.499,2.56348
-0.516968,-0.225259,2.499,2.56184
-0.508857,-0.225259,2.499,2.56021
-0.500746,-0.225259,2.499,2.55861
-0.492635,-0.225259,2.499,2.55704
-0.484524,-0.225259,2.499,2.55549
-0.476412,-0.225259,2.499,2.55396
-0.471674,-0.226881,2.517,2.57084
-0.463505,-0.226881,2.517,2.56936
-0.458772,-0.228594,2.536,2.58728
-0.450541,-0.228594,2.536,2.58583
-0.44231,-0.228594,2.536,2.58441
-0.434079,-0.228594,2.536,2.58302
-0.425848,-0.228594,2.536,2.58165
-0.417616,-0.228594,2.536,2.5803
-0.409385,-0.228594,2.536,2.57898
-0.401154,-0.228594,2.536,2.57769
-0.392923,-0.228594,2.536,2.57642
-0.384691,-0.228594,2.536,2.57518
-0.37646,-0.228594,2.536,2.57396
-0.368229,-0.228594,2.536,2.57277
-0.359998,-0.228594,2.536,2.5716
-0.354402,-0.230307,2.555,2.58972
-0.346109,-0.230307,2.555,2.5886
-0.340328,-0.232019,2.574,2.60675
-0.331974,-0.232019,2.574,2.60567
-0.323619,-0.232019,2.574,2.60462
-0.315265,-0.232019,2.574,2.60359
-0.30691,-0.232019,2.574,2.6026
-0.298555,-0.232019,2.574,2.60162
-0.290201,-0.232019,2.574,2.60068
-0.281846,-0.232019,2.574,2.59976
-0.273492,-0.232019,2.574,2.59887
-0.265137,-0.232019,2.574,2.598
-0.256783,-0.232019,2.574,2.59716
-0.250262,-0.233732,2.593,2.61551
-0.241846,-0.233732,2.593,2.61472
-0.233429,-0.233732,2.593,2.61396
-0.225013,-0.233732,2.593,2.61322
-0.216597,-0.233732,2.593,2.61251
-0.208181,-0.233732,2.593,2.61182
-0.199764,-0.233732,2.593,2.61117
-0.191348,-0.233732,2.593,2.61054
-0.182932,-0.233732,2.593,2.60993
-0.174516,-0.233732,2.593,2.60936
-0.1661,-0.233732,2.593,2.60881
-0.157683,-0.233732,2.593,2.60828
-0.149267,-0.233732,2.593,2.60779
-0.139819,-0.232019,2.574,2.58822
-0.131464,-0.232019,2.574,2.58778
-0.12311,-0.232019,2.574,2.58737
-0.114755,-0.232019,2.574,2.58698
-0.1064,-0.232019,2.574,2.58663
-0.0980459,-0.232019,2.574,2.5863
-0.0896914,-0.232019,2.574,2.58599
-0.0819372,-0.233732,2.593,2.6048
-0.073521,-0.233732,2.593,2.60455
-0.0651047,-0.233732,2.593,2.60433
-0.0566885,-0.233732,2.593,2.60413
-0.0482722,-0.233732,2.593,2.60396
-0.039856,-0.233732,2.593,2.60382
-0.0314398,-0.233732,2.593,2.6037
-0.0230235,-0.233732,2.593,2.60361
-0.0146073,-0.233732,2.593,2.60355
-0.00619107,-0.233732,2.593,2.60352
0.00222516,-0.233732,2.593,2.60351
0.0106414,-0.233732,2.593,2.60353
0.0190576,-0.233732,2.593,2.60358
0.0274739,-0.233732,2.593,2.60366
0.0358901,-0.233732,2.593,2.60376
0.0443063,-0.233732,2.593,2.60389
0.0527226,-0.233732,2.593,2.60405
0.0611388,-0.233732,2.593,2.60423
0.069555,-0.233732,2.593,2.60444
0.0779713,-0.233732,2.593,2.60468
0.0863875,-0.233732,2.593,2.60495
0.0948037,-0.233732,2.593,2.60524
0.10322,-0.233732,2.593,2.60556
0.111636,-0.233732,2.593,2.60591
0.120052,-0.233732,2.593,2.60628
0.128469,-0.233732,2.593,2.60668
0.136885,-0.233732,2.593,2.60711
0.146422,-0.235535,2.613,2.62768
0.154903,-0.235535,2.613,2.62816
0.163384,-0.235535,2.613,2.62868
0.171865,-0.235535,2.613,2.62922
0.180346,-0.235535,2.613,2.62979
0.188828,-0.235535,2.613,2.63038
0.197309,-0.235535,2.613,2.631
0.20579,-0.235535,2.613,2.63165
0.214271,-0.235535,2.613,2.63233
0.222752,-0.235535,2.613,2.63303
0.233003,-0.237338,2.633,2.65392
0.241549,-0.237338,2.633,2.65469
0.250095,-0.237338,2.633,2.65548
0.256677,-0.235535,2.613,2.63612
0.265158,-0.235535,2.613,2.63696
0.273639,-0.235535,2.613,2.63783
0.28212,-0.235535,2.613,2.63872
0.290601,-0.235535,2.613,2.63964
0.296793,-0.233732,2.593,2.62038
0.30521,-0.233732,2.593,2.62134
0.313626,-0.233732,2.593,2.62234
0.319682,-0.232019,2.574,2.60413
0.328037,-0.232019,2.574,2.60517
0.336391,-0.232019,2.574,2.60624
0.344746,-0.232019,2.574,2.60733
0.353101,-0.232019,2.574,2.60845
0.361455,-0.232019,2.574,2.60959
0.36981,-0.232019,2.574,2.61076
0.378164,-0.232019,2.574,2.61196
0.386519,-0.232019,2.574,2.61318
0.394873,-0.232019,2.574,2.61443
0.403228,-0.232019,2.574,2.6157
0.411583,-0.232019,2.574,2.617
0.419937,-0.232019,2.574,2.61833
0.428292,-0.232019,2.574,2.61968
0.436646,-0.232019,2.574,2.62106
0.445001,-0.232019,2.574,2.62247
0.453355,-0.232019,2.574,2.6239
0.46171,-0.232019,2.574,2.62535
0.473534,-0.233732,2.593,2.64623
0.481951,-0.233732,2.593,2.64775
0.490367,-0.233732,2.593,2.64929
0.495128,-0.232019,2.574,2.63144
0.503483,-0.232019,2.574,2.63302
0.511837,-0.232019,2.574,2.63463
0.520192,-0.232019,2.574,2.63627
0.528546,-0.232019,2.574,2.63793
0.536901,-0.232019,2.574,2.63962
0.545256,-0.232019,2.574,2.64133
0.55361,-0.232019,2.574,2.64307
0.561965,-0.232019,2.574,2.64483
0.570319,-0.232019,2.574,2.64662
0.582945,-0.233732,2.593,2.66798
0.595923,-0.235535,2.613,2.69042
0.604404,-0.235535,2.613,2.69231
0.612885,-0.235535,2.613,2.69423
0.621366,-0.235535,2.613,2.69617
0.629847,-0.235535,2.613,2.69814
0.643214,-0.237338,2.633,2.7208
0.65176,-0.237338,2.633,2.72283
0.660306,-0.237338,2.633,2.72489
0.668853,-0.237338,2.633,2.72697
0.672253,-0.235535,2.613,2.70835
0.680734,-0.235535,2.613,2.71047
0.689215,-0.235535,2.613,2.71261
0.697697,-0.235535,2.613,2.71478
0.706178,-0.235535,2.613,2.71697
0.709189,-0.233732,2.593,2.69838
0.712347,-0.232019,2.574,2.68081
0.720701,-0.232019,2.574,2.68304
0.729056,-0.232019,2.574,2.6853
0.731967,-0.230307,2.555,2.66774
0.74026,-0.230307,2.555,2.67003
0.748553,-0.230307,2.555,2.67234
0.751218,-0.228594,2.536,2.65478
0.759449,-0.228594,2.536,2.65713
0.76768,-0.228594,2.536,2.65949
0.770098,-0.226881,2.517,2.64193
0.778268,-0.226881,2.517,2.64433
0.786437,-0.226881,2.517,2.64674
0.794607,-0.226881,2.517,2.64918
0.797036,-0.225259,2.499,2.63268
0.805147,-0.225259,2.499,2.63515
0.813258,-0.225259,2.499,2.63764
0.821369,-0.225259,2.499,2.64015
0.82948,-0.225259,2.499,2.64268
0.831558,-0.223636,2.481,2.62619
0.833519,-0.222014,2.463,2.60968
0.841514,-0.222014,2.463,2.61224
0.849508,-0.222014,2.463,2.61483
0.857502,-0.222014,2.463,2.61744
0.865497,-0.222014,2.463,2.62007
0.873491,-0.222014,2.463,2.62272
0.875043,-0.220391,2.445,2.6062
0.882979,-0.220391,2.445,2.60888
0.890915,-0.220391,2.445,2.61158
0.892601,-0.218859,2.428,2.59612
0.900482,-0.218859,2.428,2.59884
0.908362,-0.218859,2.428,2.60158
0.916243,-0.218859,2.428,2.60434
0.924124,-0.218859,2.428,2.60712
0.932004,-0.218859,2.428,2.60993
0.939885,-0.218859,2.428,2.61275
0.947766,-0.218859,2.428,2.6156
0.955646,-0.218859,2.428,2.61846
0.963527,-0.218859,2.428,2.62135
0.971408,-0.218859,2.428,2.62426
0.979289,-0.218859,2.428,2.62718
0.987169,-0.218859,2.428,2.63013
0.99505,-0.218859,2.428,2.6331
1.00293,-0.218859,2.428,2.63609
nan,nan,nan,NaN
nan,nan,nan,NaN
nan,nan,nan,NaN
nan,nan,nan,NaN
nan,nan,nan,NaN
nan,nan,nan,NaN
nan,nan,nan,NaN
nan,nan,nan,NaN
nan,nan,nan,NaN
nan,nan,nan,NaN
nan,nan,nan,NaN
nan,nan,nan,NaN
nan,nan,nan,NaN
nan,nan,nan,NaN
1.75652,-0.342891,3.804,4.20397
1.76886,-0.342891,3.804,4.20914
1.78121,-0.342891,3.804,4.21434
1.79356,-0.342891,3.804,4.21958
1.8059,-0.342891,3.804,4.22484
1.81825,-0.342891,3.804,4.23013
1.8306,-0.342891,3.804,4.23545
1.84294,-0.342891,3.804,4.24081
1.85529,-0.342891,3.804,4.24619
1.86764,-0.342891,3.804,4.2516
1.85923,-0.339105,3.762,4.21003
1.87144,-0.339105,3.762,4.21544
1.88365,-0.339105,3.762,4.22087
1.89586,-0.339105,3.762,4.22634
nan,nan,nan,NaN
nan,nan,nan,NaN
nan,nan,nan,NaN
nan,nan,nan,NaN
nan,nan,nan,NaN
nan,nan,nan,NaN
nan,nan,nan,NaN
1.97182,-0.335409,3.721,4.2245
1.98389,-0.335409,3.721,4.23015
1.99597,-0.335409,3.721,4.23583
2.00805,-0.335409,3.721,4.24153
1.99841,-0.331804,3.681,4.20161
2.01036,-0.331804,3.681,4.2073
2.02231,-0.331804,3.681,4.21302
2.03425,-0.331804,3.681,4.21877
2.0462,-0.331804,3.681,4.22455
2.05815,-0.331804,3.681,4.23035
2.0701,-0.331804,3.681,4.23617
2.05998,-0.328288,3.642,4.19708
2.07181,-0.328288,3.642,4.20289
2.08363,-0.328288,3.642,4.20873
2.07358,-0.324863,3.604,4.17062
2.06329,-0.321438,3.566,4.13242
2.07487,-0.321438,3.566,4.13821
2.08644,-0.321438,3.566,4.14402
2.05507,-0.314858,3.493,4.06491
2.06641,-0.314858,3.493,4.07065
2.05692,-0.311703,3.458,4.03557
2.04722,-0.308548,3.423,4.0004
2.05833,-0.308548,3.423,4.0061
2.02893,-0.302508,3.356,3.93329
2.00092,-0.296739,3.292,3.86381
2.01161,-0.296739,3.292,3.86935
2.02229,-0.296739,3.292,3.87492
nan,nan,nan,NaN
nan,nan,nan,NaN
1.92455,-0.27799,3.084,3.64585
1.90068,-0.273123,3.03,3.58721
1.91052,-0.273123,3.03,3.59243
1.87028,-0.266002,2.951,3.50387
1.84801,-0.261495,2.901,3.44954
1.85743,-0.261495,2.901,3.45459
1.8514,-0.259332,2.877,3.43104
1.82969,-0.255005,2.829,3.37876
1.80897,-0.250858,2.783,3.32872
1.81801,-0.250858,2.783,3.33364
1.79815,-0.246892,2.739,3.28579
1.77867,-0.243016,2.696,3.23901
1.78743,-0.243016,2.696,3.24382
1.78218,-0.241123,2.675,3.22334
1.77681,-0.23923,2.654,3.20281
1.78542,-0.23923,2.654,3.2076
1.77984,-0.237338,2.633,3.18698
1.7748,-0.235535,2.613,3.16752
-2.02986,-0.254254,2.926,3.57022
-2.02036,-0.254254,2.926,3.56483
-2.01087,-0.254254,2.926,3.55945
-1.98427,-0.252082,2.901,3.52373
-1.97485,-0.252082,2.901,3.51844
-1.96544,-0.252082,2.901,3.51316
-1.95602,-0.252082,2.901,3.5079
-1.94661,-0.252082,2.901,3.50266
-1.93719,-0.252082,2.901,3.49744
-1.92778,-0.252082,2.901,3.49223
-1.91836,-0.252082,2.901,3.48704
-1.90894,-0.252082,2.901,3.48187
-1.89953,-0.252082,2.901,3.47672
-1.9064,-0.254254,2.926,3.5015
-1.92997,-0.258686,2.977,3.55728
-1.93707,-0.260945,3.003,3.58307
-1.92733,-0.260945,3.003,3.57781
-1.93482,-0.263291,3.03,3.60469
-1.94214,-0.265637,3.057,3.63149
-1.93222,-0.265637,3.057,3.62619
-1.93927,-0.267983,3.084,3.6529
-1.94678,-0.270416,3.112,3.68071
-1.93668,-0.270416,3.112,3.67538
-1.92658,-0.270416,3.112,3.67006
-1.91648,-0.270416,3.112,3.66477
-1.90638,-0.270416,3.112,3.6595
-1.89628,-0.270416,3.112,3.65425
-1.88618,-0.270416,3.112,3.64902
-1.87607,-0.270416,3.112,3.64381
-1.86597,-0.270416,3.112,3.63862
-1.85587,-0.270416,3.112,3.63345
nan,nan,nan,NaN
nan,nan,nan,NaN
nan,nan,nan,NaN
nan,nan,nan,NaN
nan,nan,nan,NaN
nan,nan,nan,NaN
nan,nan,nan,NaN
nan,nan,nan,NaN
nan,nan,nan,NaN
nan,nan,nan,NaN
nan,nan,nan,NaN
nan,nan,nan,NaN
nan,nan,nan,NaN
nan,nan,nan,NaN
nan,nan,nan,NaN
nan,nan,nan,NaN
nan,nan,nan,NaN
nan,nan,nan,NaN
nan,nan,nan,NaN
nan,nan,nan,NaN
nan,nan,nan,NaN
nan,nan,nan,NaN
nan,nan,nan,NaN
nan,nan,nan,NaN
nan,nan,nan,NaN
nan,nan,nan,NaN
nan,nan,nan,NaN
nan,nan,nan,NaN
nan,nan,nan,NaN
nan,nan,nan,NaN
nan,nan,nan,NaN
nan,nan,nan,NaN
-1.20502,-0.214022,2.463,2.75032
-1.19703,-0.214022,2.463,2.74683
-1.18904,-0.214022,2.463,2.74335
-1.17241,-0.212458,2.445,2.71987
-1.16447,-0.212458,2.445,2.71646
-1.1485,-0.21098,2.428,2.69421
-1.13263,-0.209503,2.411,2.67201
-1.1248,-0.209503,2.411,2.66871
-1.1091,-0.208026,2.394,2.64662
-1.09351,-0.206549,2.377,2.62461
-1.0858,-0.206549,2.377,2.6214
-1.07808,-0.206549,2.377,2.61822
-1.06316,-0.205158,2.361,2.59745
-1.0555,-0.205158,2.361,2.59432
-1.04784,-0.205158,2.361,2.59121
-1.03312,-0.203768,2.345,2.57058
-1.02551,-0.203768,2.345,2.56753
-1.0179,-0.203768,2.345,2.5645
-1.01029,-0.203768,2.345,2.56149
-1.00268,-0.203768,2.345,2.5585
-0.995066,-0.203768,2.345,2.55552
-0.987455,-0.203768,2.345,2.55257
-0.979844,-0.203768,2.345,2.54964
-0.972232,-0.203768,2.345,2.54672
-0.964621,-0.203768,2.345,2.54382
-0.95701,-0.203768,2.345,2.54095
-0.955876,-0.205158,2.361,2.55541
-0.948213,-0.205158,2.361,2.55255
-0.94055,-0.205158,2.361,2.54971
-0.932887,-0.205158,2.361,2.5469
-0.931494,-0.206549,2.377,2.56134
-0.923778,-0.206549,2.377,2.55855
-0.916063,-0.206549,2.377,2.55577
-0.908348,-0.206549,2.377,2.55302
-0.900633,-0.206549,2.377,2.55028
-0.892918,-0.206549,2.377,2.54757
-0.885203,-0.206549,2.377,2.54487
-0.877488,-0.206549,2.377,2.5422
-0.869772,-0.206549,2.377,2.53955
-0.862057,-0.206549,2.377,2.53691
-0.860452,-0.208026,2.394,2.55243
-0.852682,-0.208026,2.394,2.54982
-0.844912,-0.208026,2.394,2.54723
-0.837141,-0.208026,2.394,2.54466
-0.829371,-0.208026,2.394,2.54212
-0.821601,-0.208026,2.394,2.53959
-0.81383,-0.208026,2.394,2.53709
-0.80606,-0.208026,2.394,2.53461
-0.79829,-0.208026,2.394,2.53215
-0.790519,-0.208026,2.394,2.52971
-0.782749,-0.208026,2.394,2.52729
-0.774979,-0.208026,2.394,2.5249
-0.772656,-0.209503,2.411,2.54044
-0.764831,-0.209503,2.411,2.53807
-0.757005,-0.209503,2.411,2.53572
-0.754462,-0.21098,2.428,2.55126
-0.751809,-0.212458,2.445,2.56678
-0.749349,-0.214022,2.463,2.58335
-0.741355,-0.214022,2.463,2.58104
-0.733361,-0.214022,2.463,2.57876
-0.730668,-0.215586,2.481,2.59533
-0.722615,-0.215586,2.481,2.59307
-0.719746,-0.21715,2.499,2.60963
-0.711635,-0.21715,2.499,2.60741
-0.703524,-0.21715,2.499,2.60521
-0.695413,-0.21715,2.499,2.60303
-0.692252,-0.218714,2.517,2.61961
-0.684083,-0.218714,2.517,2.61746
-0.675913,-0.218714,2.517,2.61534
-0.667744,-0.218714,2.517,2.61324
-0.659574,-0.218714,2.517,2.61116
-0.651405,-0.218714,2.517,2.60911
-0.643235,-0.218714,2.517,2.60708
-0.635065,-0.218714,2.517,2.60508
-0.626896,-0.218714,2.517,2.6031
-0.614302,-0.21715,2.499,2.58254
-0.606191,-0.21715,2.499,2.58062
-0.598079,-0.21715,2.499,2.57873
-0.589968,-0.21715,2.499,2.57686
-0.581857,-0.21715,2.499,2.57502
-0.573746,-0.21715,2.499,2.5732
-0.565635,-0.21715,2.499,2.5714
-0.553508,-0.215586,2.481,2.55112
-0.545455,-0.215586,2.481,2.54938
-0.537403,-0.215586,2.481,2.54767
-0.52935,-0.215586,2.481,2.54599
-0.521297,-0.215586,2.481,2.54433
-0.513244,-0.215586,2.481,2.54269
-0.505192,-0.215586,2.481,2.54107
-0.500746,-0.21715,2.499,2.55791
-0.492635,-0.21715,2.499,2.55633
-0.484524,-0.21715,2.499,2.55478
-0.476412,-0.21715,2.499,2.55326
-0.471674,-0.218714,2.517,2.57014
-0.463505,-0.218714,2.517,2.56865
-0.455335,-0.218714,2.517,2.56719
-0.450541,-0.220365,2.536,2.58512
-0.44231,-0.220365,2.536,2.5837
-0.434079,-0.220365,2.536,2.5823
-0.425848,-0.220365,2.536,2.58093
-0.417616,-0.220365,2.536,2.57959
-0.409385,-0.220365,2.536,2.57827
-0.401154,-0.220365,2.536,2.57697
-0.392923,-0.220365,2.536,2.5757
-0.384691,-0.220365,2.536,2.57446
-0.37646,-0.220365,2.536,2.57324
-0.368229,-0.220365,2.536,2.57205
-0.359998,-0.220365,2.536,2.57089
-0.354402,-0.222016,2.555,2.589
-0.346109,-0.222016,2.555,2.58788
-0.340328,-0.223667,2.574,2.60602
-0.331974,-0.223667,2.574,2.60494
-0.323619,-0.223667,2.574,2.60389
-0.315265,-0.223667,2.574,2.60286
-0.30691,-0.223667,2.574,2.60186
-0.298555,-0.223667,2.574,2.60089
-0.290201,-0.223667,2.574,2.59995
-0.281846,-0.223667,2.574,2.59903
-0.273492,-0.223667,2.574,2.59813
-0.265137,-0.223667,2.574,2.59727
-0.256783,-0.223667,2.574,2.59643
-0.250262,-0.225318,2.593,2.61478
-0.241846,-0.225318,2.593,2.61398
-0.233429,-0.225318,2.593,2.61322
-0.225013,-0.225318,2.593,2.61248
-0.216597,-0.225318,2.593,2.61177
-0.208181,-0.225318,2.593,2.61108
-0.199764,-0.225318,2.593,2.61043
-0.191348,-0.225318,2.593,2.6098
-0.182932,-0.225318,2.593,2.60919
-0.174516,-0.225318,2.593,2.60862
-0.1661,-0.225318,2.593,2.60807
-0.157683,-0.225318,2.593,2.60754
-0.149267,-0.225318,2.593,2.60705
-0.140851,-0.225318,2.593,2.60658
-0.131464,-0.223667,2.574,2.58704
-0.12311,-0.223667,2.574,2.58663
-0.114755,-0.223667,2.574,2.58625
-0.1064,-0.223667,2.574,2.58589
-0.0980459,-0.223667,2.574,2.58556
-0.0896914,-0.223667,2.574,2.58526
-0.0813368,-0.223667,2.574,2.58498
-0.073521,-0.225318,2.593,2.60381
-0.0651047,-0.225318,2.593,2.60359
-0.0566885,-0.225318,2.593,2.60339
-0.0482722,-0.225318,2.593,2.60322
-0.039856,-0.225318,2.593,2.60308
-0.0314398,-0.225318,2.593,2.60296
-0.0230235,-0.225318,2.593,2.60287
-0.0146073,-0.225318,2.593,2.60281
-0.00619107,-0.225318,2.593,2.60278
0.00222516,-0.225318,2.593,2.60277
0.0106414,-0.225318,2.593,2.60279
0.0190576,-0.225318,2.593,2.60284
0.0274739,-0.225318,2.593,2.60292
0.0358901,-0.225318,2.593,2.60302
0.0443063,-0.225318,2.593,2.60315
0.0527226,-0.225318,2.593,2.60331
0.0611388,-0.225318,2.593,2.60349
0.069555,-0.225318,2.593,2.6037
0.0779713,-0.225318,2.593,2.60394
0.0863875,-0.225318,2.593,2.6042
0.0948037,-0.225318,2.593,2.6045
0.10322,-0.225318,2.593,2.60482
0.111636,-0.225318,2.593,2.60516
0.120052,-0.225318,2.593,2.60554
0.128469,-0.225318,2.593,2.60594
0.136885,-0.225318,2.593,2.60637
0.146422,-0.227056,2.613,2.62693
0.154903,-0.227056,2.613,2.62742
0.163384,-0.227056,2.613,2.62793
0.171865,-0.227056,2.613,2.62847
0.181727,-0.228794,2.633,2.64916
0.190273,-0.228794,2.633,2.64976
0.198819,-0.228794,2.633,2.65039
0.207365,-0.228794,2.633,2.65104
0.215911,-0.228794,2.633,2.65173
0.224457,-0.228794,2.633,2.65244
0.233003,-0.228794,2.633,2.65317
0.241549,-0.228794,2.633,2.65394
0.250095,-0.228794,2.633,2.65473
0.258641,-0.228794,2.633,2.65555
0.267187,-0.228794,2.633,2.65639
0.275734,-0.228794,2.633,2.65727
0.28212,-0.227056,2.613,2.63798
0.290601,-0.227056,2.613,2.6389
0.299083,-0.227056,2.613,2.63984
0.30521,-0.225318,2.593,2.6206
0.313626,-0.225318,2.593,2.6216
0.322042,-0.225318,2.593,2.62262
0.328037,-0.223667,2.574,2.60444
0.336391,-0.223667,2.574,2.60551
0.344746,-0.223667,2.574,2.6066
0.353101,-0.223667,2.574,2.60772
0.361455,-0.223667,2.574,2.60886
0.36981,-0.223667,2.574,2.61003
0.378164,-0.223667,2.574,2.61123
0.386519,-0.223667,2.574,2.61245
0.394873,-0.223667,2.574,2.6137
0.403228,-0.223667,2.574,2.61498
0.411583,-0.223667,2.574,2.61628
0.423037,-0.225318,2.593,2.63693
0.431453,-0.225318,2.593,2.63829
0.436646,-0.223667,2.574,2.62034
0.445001,-0.223667,2.574,2.62174
0.456702,-0.225318,2.593,2.64254
0.465118,-0.225318,2.593,2.644
0.473534,-0.225318,2.593,2.6455
0.481951,-0.225318,2.593,2.64702
0.490367,-0.225318,2.593,2.64856
0.495128,-0.223667,2.574,2.63071
0.503483,-0.223667,2.574,2.6323
0.511837,-0.223667,2.574,2.63391
0.520192,-0.223667,2.574,2.63555
0.528546,-0.223667,2.574,2.63721
0.536901,-0.223667,2.574,2.6389
0.545256,-0.223667,2.574,2.64061
0.55361,-0.223667,2.574,2.64235
0.561965,-0.223667,2.574,2.64411
0.570319,-0.223667,2.574,2.6459
0.582945,-0.225318,2.593,2.66725
0.595923,-0.227056,2.613,2.68969
0.604404,-0.227056,2.613,2.69158
0.612885,-0.227056,2.613,2.6935
0.621366,-0.227056,2.613,2.69544
0.629847,-0.227056,2.613,2.69741
0.643214,-0.228794,2.633,2.72007
0.65176,-0.228794,2.633,2.7221
0.660306,-0.228794,2.633,2.72416
0.668853,-0.228794,2.633,2.72624
0.677399,-0.228794,2.633,2.72835
0.685945,-0.228794,2.633,2.73049
0.689215,-0.227056,2.613,2.71189
0.697697,-0.227056,2.613,2.71406
0.706178,-0.227056,2.613,2.71625
0.709189,-0.225318,2.593,2.69766
0.712347,-0.223667,2.574,2.6801
0.720701,-0.223667,2.574,2.68233
0.729056,-0.223667,2.574,2.68459
0.731967,-0.222016,2.555,2.66704
0.74026,-0.222016,2.555,2.66933
0.748553,-0.222016,2.555,2.67164
0.751218,-0.220365,2.536,2.65409
0.759449,-0.220365,2.536,2.65643
0.76768,-0.220365,2.536,2.65879
0.770098,-0.218714,2.517,2.64125
0.778268,-0.218714,2.517,2.64364
0.786437,-0.218714,2.517,2.64606
0.794607,-0.218714,2.517,2.64849
0.797036,-0.21715,2.499,2.632
0.805147,-0.21715,2.499,2.63447
0.813258,-0.21715,2.499,2.63696
0.821369,-0.21715,2.499,2.63947
0.82948,-0.21715,2.499,2.64201
0.831558,-0.215586,2.481,2.62551
0.833519,-0.214022,2.463,2.60901
0.841514,-0.214022,2.463,2.61157
0.849508,-0.214022,2.463,2.61416
0.857502,-0.214022,2.463,2.61677
0.865497,-0.214022,2.463,2.6194
0.873491,-0.214022,2.463,2.62205
0.875043,-0.212458,2.445,2.60555
0.882979,-0.212458,2.445,2.60822
0.890915,-0.212458,2.445,2.61092
0.892601,-0.21098,2.428,2.59546
0.900482,-0.21098,2.428,2.59819
0.908362,-0.21098,2.428,2.60093
0.916243,-0.21098,2.428,2.60369
0.924124,-0.21098,2.428,2.60647
0.932004,-0.21098,2.428,2.60928
0.939885,-0.21098,2.428,2.6121
0.947766,-0.21098,2.428,2.61495
0.955646,-0.21098,2.428,2.61782
0.963527,-0.21098,2.428,2.6207
0.971408,-0.21098,2.428,2.62361
0.979289,-0.21098,2.428,2.62654
0.987169,-0.21098,2.428,2.62949
0.99505,-0.21098,2.428,2.63246
1.00293,-0.21098,2.428,2.63544
nan,nan,nan,NaN
nan,nan,nan,NaN
nan,nan,nan,NaN
nan,nan,nan,NaN
nan,nan,nan,NaN
nan,nan,nan,NaN
nan,nan,nan,NaN
nan,nan,nan,NaN
nan,nan,nan,NaN
nan,nan,nan,NaN
nan,nan,nan,NaN
nan,nan,nan,NaN
nan,nan,nan,NaN
nan,nan,nan,NaN
1.75652,-0.330548,3.804,4.20298
1.76886,-0.330548,3.804,4.20815
1.78121,-0.330548,3.804,4.21336
1.79356,-0.330548,3.804,4.21859
1.8059,-0.330548,3.804,4.22386
1.81825,-0.330548,3.804,4.22915
1.8306,-0.330548,3.804,4.23447
1.84294,-0.330548,3.804,4.23983
1.85529,-0.330548,3.804,4.24521
1.86764,-0.330548,3.804,4.25062
1.85923,-0.326898,3.762,4.20907
1.87144,-0.326898,3.762,4.21447
1.88365,-0.326898,3.762,4.21991
1.89586,-0.326898,3.762,4.22537
nan,nan,nan,NaN
nan,nan,nan,NaN
nan,nan,nan,NaN
nan,nan,nan,NaN
nan,nan,nan,NaN
nan,nan,nan,NaN
