-1.34221,0.281367,2.394,2.75897
-1.33444,0.281367,2.394,2.7552
-1.32667,0.281367,2.394,2.75145
-1.32827,0.283365,2.411,2.76722
-1.32975,0.285363,2.428,2.78296
-1.32187,0.285363,2.428,2.7792
-1.34267,0.291592,2.481,2.83605
-1.35399,0.295823,2.517,2.87334
-1.35598,0.298056,2.536,2.89116
-1.34774,0.298056,2.536,2.88731
-1.35959,0.302522,2.574,2.92668
-1.3717,0.307106,2.613,2.9671
-1.36322,0.307106,2.613,2.96318
-1.376,0.311925,2.654,3.00573
-1.38902,0.316861,2.696,3.0493
-1.38027,0.316861,2.696,3.04532
-1.38221,0.319329,2.717,3.06505
-1.37339,0.319329,2.717,3.06109
-1.37562,0.321915,2.739,3.08189
-1.36673,0.321915,2.739,3.07794
-1.35784,0.321915,2.739,3.074
-1.34895,0.321915,2.739,3.07008
-1.32929,0.319329,2.717,3.04156
-1.32047,0.319329,2.717,3.03772
-1.31166,0.319329,2.717,3.03389
-1.30284,0.319329,2.717,3.03009
-1.28402,0.316861,2.696,3.00292
-1.2554,0.311925,2.654,2.95246
-1.24679,0.311925,2.654,2.94881
-1.21904,0.307106,2.613,2.89968
-1.19249,0.302522,2.574,2.8529
-1.18414,0.302522,2.574,2.84942
-1.16711,0.300289,2.555,2.82495
-1.14158,0.295823,2.517,2.77957
-1.13341,0.295823,2.517,2.77622
-1.11719,0.293707,2.499,2.75307
-1.0931,0.289476,2.463,2.71017
-1.08511,0.289476,2.463,2.70696
-1.06924,0.287361,2.445,2.68401
-1.05393,0.285363,2.428,2.66221
-1.04605,0.285363,2.428,2.6591
-1.03817,0.285363,2.428,2.65601
-1.03029,0.285363,2.428,2.65294
-1.02241,0.285363,2.428,2.64989
-1.01452,0.285363,2.428,2.64686
-1.00664,0.285363,2.428,2.64385
-0.998763,0.285363,2.428,2.64086
-0.990883,0.285363,2.428,2.63789
-0.983002,0.285363,2.428,2.63494
-0.975121,0.285363,2.428,2.63201
-0.967241,0.285363,2.428,2.6291
-0.95936,0.285363,2.428,2.62621
-0.951479,0.285363,2.428,2.62334
-0.950205,0.287361,2.445,2.63884
-0.94227,0.287361,2.445,2.636
-0.934334,0.287361,2.445,2.63317
-0.926398,0.287361,2.445,2.63036
-0.918462,0.287361,2.445,2.62758
-0.910526,0.287361,2.445,2.62482
-0.90259,0.287361,2.445,2.62207
-0.894654,0.287361,2.445,2.61935
-0.886718,0.287361,2.445,2.61665
-0.878783,0.287361,2.445,2.61397
-0.870847,0.287361,2.445,2.61132
-0.869264,0.289476,2.463,2.62789
-0.861269,0.289476,2.463,2.62525
-0.853275,0.289476,2.463,2.62264
-0.845281,0.289476,2.463,2.62005
-0.837286,0.289476,2.463,2.61748
-0.829292,0.289476,2.463,2.61494
-0.821298,0.289476,2.463,2.61241
-0.813304,0.289476,2.463,2.60991
-0.805309,0.289476,2.463,2.60743
-0.797315,0.289476,2.463,2.60497
-0.789321,0.289476,2.463,2.60254
-0.787037,0.291592,2.481,2.61912
-0.778984,0.291592,2.481,2.61672
-0.770931,0.291592,2.481,2.61433
-0.762878,0.291592,2.481,2.61197
-0.754826,0.291592,2.481,2.60963
-0.752191,0.293707,2.499,2.62622
-0.74408,0.293707,2.499,2.62391
-0.735969,0.293707,2.499,2.62162
-0.727858,0.293707,2.499,2.61936
-0.719746,0.293707,2.499,2.61712
-0.711635,0.293707,2.499,2.6149
-0.703524,0.293707,2.499,2.6127
-0.695413,0.293707,2.499,2.61053
-0.687302,0.293707,2.499,2.60838
-0.679191,0.293707,2.499,2.60626
-0.675913,0.295823,2.517,2.62291
-0.667744,0.295823,2.517,2.62082
-0.659574,0.295823,2.517,2.61875
-0.656322,0.298056,2.536,2.63645
-0.648091,0.298056,2.536,2.63442
-0.639859,0.298056,2.536,2.6324
-0.631628,0.298056,2.536,2.63042
-0.623397,0.298056,2.536,2.62845
-0.615166,0.298056,2.536,2.62651
-0.606935,0.298056,2.536,2.6246
-0.598703,0.298056,2.536,2.6227
-0.590472,0.298056,2.536,2.62084
-0.586603,0.300289,2.555,2.63862
-0.57831,0.300289,2.555,2.63679
-0.570017,0.300289,2.555,2.63498
-0.561724,0.300289,2.555,2.6332
-0.553431,0.300289,2.555,2.63144
-0.545139,0.300289,2.555,2.62971
-0.536846,0.300289,2.555,2.628
-0.532483,0.302522,2.574,2.64585
-0.524129,0.302522,2.574,2.64418
-0.511967,0.300289,2.555,2.62303
-0.503674,0.300289,2.555,2.62143
-0.495381,0.300289,2.555,2.61985
-0.487088,0.300289,2.555,2.61829
-0.478795,0.300289,2.555,2.61676
-0.470502,0.300289,2.555,2.61526
-0.46221,0.300289,2.555,2.61378
-0.457292,0.302522,2.574,2.63175
-0.448938,0.302522,2.574,2.63031
-0.440583,0.302522,2.574,2.6289
-0.432229,0.302522,2.574,2.62751
-0.423874,0.302522,2.574,2.62615
-0.415519,0.302522,2.574,2.62481
-0.407165,0.302522,2.574,2.62351
-0.395866,0.300289,2.555,2.60287
-0.387574,0.300289,2.555,2.60162
-0.379281,0.300289,2.555,2.60039
-0.370988,0.300289,2.555,2.5992
-0.362695,0.300289,2.555,2.59803
-0.354402,0.300289,2.555,2.59688
-0.346109,0.300289,2.555,2.59576
-0.335304,0.298056,2.536,2.57538
-0.327073,0.298056,2.536,2.57432
-0.316453,0.295823,2.517,2.55401
-0.308283,0.295823,2.517,2.55301
-0.300114,0.295823,2.517,2.55203
-0.291944,0.295823,2.517,2.55108
-0.285917,0.298056,2.536,2.56941
-0.277685,0.298056,2.536,2.56851
-0.269454,0.298056,2.536,2.56763
-0.261223,0.298056,2.536,2.56678
-0.252992,0.298056,2.536,2.56596
-0.244761,0.298056,2.536,2.56516
-0.236529,0.298056,2.536,2.56439
-0.228298,0.298056,2.536,2.56364
-0.220067,0.298056,2.536,2.56292
-0.211836,0.298056,2.536,2.56223
-0.203604,0.298056,2.536,2.56156
-0.195373,0.298056,2.536,2.56092
-0.187142,0.298056,2.536,2.5603
-0.180251,0.300289,2.555,2.57889
-0.171958,0.300289,2.555,2.57833
-0.163665,0.300289,2.555,2.57779
-0.155372,0.300289,2.555,2.57727
-0.14708,0.300289,2.555,2.57679
-0.138787,0.300289,2.555,2.57633
-0.130494,0.300289,2.555,2.57589
-0.122201,0.300289,2.555,2.57549
-0.113908,0.300289,2.555,2.57511
-0.105615,0.300289,2.555,2.57475
-0.0973222,0.300289,2.555,2.57443
-0.0890293,0.300289,2.555,2.57413
-0.0807364,0.300289,2.555,2.57385
-0.0724435,0.300289,2.555,2.57361
-0.0641506,0.300289,2.555,2.57339
-0.0558577,0.300289,2.555,2.57319
-0.0475648,0.300289,2.555,2.57303
-0.0389799,0.298056,2.536,2.55375
-0.0307487,0.298056,2.536,2.55364
-0.0225174,0.298056,2.536,2.55355
-0.0142862,0.298056,2.536,2.5535
-0.00605498,0.298056,2.536,2.55346
0.00215994,0.295823,2.517,2.53433
0.0102556,0.293707,2.499,2.51622
0.0183668,0.293707,2.499,2.51627
0.0264779,0.293707,2.499,2.51634
0.034589,0.293707,2.499,2.51644
0.0427002,0.293707,2.499,2.51656
0.0504453,0.291592,2.481,2.49859
0.058498,0.291592,2.481,2.49876
0.0665507,0.291592,2.481,2.49896
0.0746034,0.291592,2.481,2.49919
0.0826561,0.291592,2.481,2.49944
0.0907089,0.291592,2.481,2.49972
0.0987616,0.291592,2.481,2.50003
0.106814,0.291592,2.481,2.50036
0.114867,0.291592,2.481,2.50072
0.12292,0.291592,2.481,2.5011
0.130022,0.289476,2.463,2.48336
0.138016,0.289476,2.463,2.48379
0.146011,0.289476,2.463,2.48425
0.154005,0.289476,2.463,2.48473
0.161999,0.289476,2.463,2.48524
0.169994,0.289476,2.463,2.48577
0.177988,0.289476,2.463,2.48633
0.185982,0.289476,2.463,2.48692
0.193976,0.289476,2.463,2.48753
0.201971,0.289476,2.463,2.48816
0.209965,0.289476,2.463,2.48883
0.217959,0.289476,2.463,2.48951
nan,nan,nan,NaN
0.235658,0.291592,2.481,2.50917
0.24371,0.291592,2.481,2.50994
0.251763,0.291592,2.481,2.51073
0.261701,0.293707,2.499,2.52977
0.269812,0.293707,2.499,2.53063
nan,nan,nan,NaN
nan,nan,nan,NaN
nan,nan,nan,NaN
nan,nan,nan,NaN
nan,nan,nan,NaN
nan,nan,nan,NaN
nan,nan,nan,NaN
nan,nan,nan,NaN
nan,nan,nan,NaN
nan,nan,nan,NaN
nan,nan,nan,NaN
nan,nan,nan,NaN
nan,nan,nan,NaN
nan,nan,nan,NaN
nan,nan,nan,NaN
nan,nan,nan,NaN
nan,nan,nan,NaN
nan,nan,nan,NaN
nan,nan,nan,NaN
nan,nan,nan,NaN
nan,nan,nan,NaN
nan,nan,nan,NaN
nan,nan,nan,NaN
0.474888,0.300289,2.555,2.61605
0.48318,0.300289,2.555,2.61757
0.487819,0.298056,2.536,2.59963
0.492333,0.295823,2.517,2.5817
0.500503,0.295823,2.517,2.58327
0.505035,0.293707,2.499,2.56638
0.50945,0.291592,2.481,2.5495
0.517502,0.291592,2.481,2.55112
0.525555,0.291592,2.481,2.55276
0.537479,0.293707,2.499,2.57297
0.54559,0.293707,2.499,2.57467
0.553702,0.293707,2.499,2.5764
0.561813,0.293707,2.499,2.57816
0.565819,0.291592,2.481,2.56135
0.573871,0.291592,2.481,2.56315
0.577702,0.289476,2.463,2.54635
0.581416,0.287361,2.445,2.52955
0.589352,0.287361,2.445,2.53139
0.593135,0.285363,2.428,2.51564
0.592599,0.281367,2.394,2.48225
0.60037,0.281367,2.394,2.48412
0.599757,0.277488,2.361,2.45174
0.595071,0.271847,2.313,2.40374
0.602579,0.271847,2.313,2.40561
0.60191,0.268203,2.282,2.37524
0.605311,0.26644,2.267,2.3615
0.612669,0.26644,2.267,2.3634
0.615925,0.264677,2.252,2.34966
0.615209,0.261269,2.223,2.32131
0.618504,0.259624,2.209,2.3086
0.625674,0.259624,2.209,2.31053
0.632844,0.259624,2.209,2.31248
0.640014,0.259624,2.209,2.31446
0.651285,0.261269,2.223,2.33113
0.6585,0.261269,2.223,2.33316
0.661523,0.259624,2.209,2.3205
0.668693,0.259624,2.209,2.32255
0.675863,0.259624,2.209,2.32462
0.683033,0.259624,2.209,2.32672
0.690203,0.259624,2.209,2.32883
0.697373,0.259624,2.209,2.33097
0.709008,0.261269,2.223,2.34791
0.716223,0.261269,2.223,2.3501
0.727994,0.262915,2.237,2.36712
0.735255,0.262915,2.237,2.36937
0.742516,0.262915,2.237,2.37163
nan,nan,nan,NaN
nan,nan,nan,NaN
nan,nan,nan,NaN
nan,nan,nan,NaN
nan,nan,nan,NaN
0.801893,0.268203,2.282,2.43362
0.8093,0.268203,2.282,2.43607
0.816707,0.268203,2.282,2.43854
0.818697,0.26644,2.267,2.42498
0.826055,0.26644,2.267,2.42748
0.833413,0.26644,2.267,2.42999
0.840771,0.26644,2.267,2.43252
0.848129,0.26644,2.267,2.43508
0.855487,0.26644,2.267,2.43765
0.862845,0.26644,2.267,2.44024
0.870203,0.26644,2.267,2.44285
0.883368,0.268203,2.282,2.46167
0.890775,0.268203,2.282,2.46433
0.898182,0.268203,2.282,2.46702
0.911938,0.270084,2.298,2.48704
0.925398,0.271847,2.313,2.50604
0.932905,0.271847,2.313,2.50882
0.946918,0.273727,2.329,2.529
0.967592,0.277488,2.361,2.56662
0.975255,0.277488,2.361,2.56952
0.989579,0.279369,2.377,2.58987
1.00443,0.281367,2.394,2.61137
1.0122,0.281367,2.394,2.61437
1.02721,0.283365,2.411,2.63598
1.04233,0.285363,2.428,2.65764
1.05021,0.285363,2.428,2.66075
1.0581,0.285363,2.428,2.66387
1.06598,0.285363,2.428,2.66701
1.07386,0.285363,2.428,2.67017
1.08174,0.285363,2.428,2.67334
1.08962,0.285363,2.428,2.67654
1.0975,0.285363,2.428,2.67976
1.10538,0.285363,2.428,2.683
1.11326,0.285363,2.428,2.68625
1.12114,0.285363,2.428,2.68953
1.12902,0.285363,2.428,2.69283
1.1369,0.285363,2.428,2.69614
1.14478,0.285363,2.428,2.69947
1.15266,0.285363,2.428,2.70282
1.16054,0.285363,2.428,2.70619
1.16842,0.285363,2.428,2.70958
1.17631,0.285363,2.428,2.71299
1.18419,0.285363,2.428,2.71642
1.19207,0.285363,2.428,2.71986
1.19995,0.285363,2.428,2.72332
1.20783,0.285363,2.428,2.72681
1.21571,0.285363,2.428,2.7303
1.23216,0.287361,2.445,2.75296
1.24009,0.287361,2.445,2.75653
1.24803,0.287361,2.445,2.7601
1.25596,0.287361,2.445,2.7637
1.2639,0.287361,2.445,2.76732
1.27184,0.287361,2.445,2.77095
1.28919,0.289476,2.463,2.79503
1.29719,0.289476,2.463,2.79873
1.30518,0.289476,2.463,2.80244
1.32277,0.291592,2.481,2.82668
1.34048,0.293707,2.499,2.85099
1.34859,0.293707,2.499,2.85481
1.36648,0.295823,2.517,2.87925
1.3954,0.300289,2.555,2.92666
1.41413,0.302522,2.574,2.95242
1.42248,0.302522,2.574,2.95643
1.46364,0.309456,2.633,3.02831
1.48392,0.311925,2.654,3.05664
1.49254,0.311925,2.654,3.06083
1.52491,0.316861,2.696,3.11355
1.55812,0.321915,2.739,3.16757
1.56701,0.321915,2.739,3.17195
1.58856,0.3245,2.761,3.20186
1.61025,0.327086,2.783,3.23187
1.63266,0.329789,2.806,3.26313
1.64177,0.329789,2.806,3.26769
1.65088,0.329789,2.806,3.27228
1.65999,0.329789,2.806,3.27688
1.66909,0.329789,2.806,3.28151
1.66445,0.327086,2.783,3.25921
1.67348,0.327086,2.783,3.26383
1.66921,0.3245,2.761,3.24264
1.67817,0.3245,2.761,3.24726
1.68714,0.3245,2.761,3.2519
1.66907,0.319329,2.717,3.20466
1.66492,0.316861,2.696,3.18446
1.67367,0.316861,2.696,3.18904
1.65621,0.311925,2.654,3.14389
1.65165,0.309456,2.633,3.12352
1.63497,0.304755,2.593,3.08053
1.64339,0.304755,2.593,3.08501
1.6397,0.302522,2.574,3.06686
1.62373,0.298056,2.536,3.02599
1.63196,0.298056,2.536,3.03042
1.61626,0.293707,2.499,2.99058
1.61267,0.291592,2.481,2.9734
1.62072,0.291592,2.481,2.97777
1.61696,0.289476,2.463,2.96053
1.61308,0.287361,2.445,2.94323
1.62101,0.287361,2.445,2.94759
1.62895,0.287361,2.445,2.95196
1.6255,0.285363,2.428,2.93579
1.63339,0.285363,2.428,2.94016
1.62977,0.283365,2.411,2.92393
1.62605,0.281367,2.394,2.90765
-1.70866,0.297468,2.463,3.01237
-1.70067,0.297468,2.463,3.00785
-1.69268,0.297468,2.463,3.00333
-1.68468,0.297468,2.463,2.99883
-1.68894,0.299642,2.481,3.01623
-1.68089,0.299642,2.481,3.01173
-1.68497,0.301816,2.499,3.02906
-1.67686,0.301816,2.499,3.02456
-1.68077,0.30399,2.517,3.04182
-1.6726,0.30399,2.517,3.03732
-1.66443,0.30399,2.517,3.03282
-1.66876,0.306285,2.536,3.05121
-1.67297,0.30858,2.555,3.06954
-1.66468,0.30858,2.555,3.06503
-1.6687,0.310874,2.574,3.08329
-1.66035,0.310874,2.574,3.07878
-1.66419,0.313169,2.593,3.09697
-1.65577,0.313169,2.593,3.09246
-1.64736,0.313169,2.593,3.08796
-1.65158,0.315585,2.613,3.10726
-1.6431,0.315585,2.613,3.10276
-1.62211,0.313169,2.593,3.07457
-1.61369,0.313169,2.593,3.07013
-1.60528,0.313169,2.593,3.06572
-1.59686,0.313169,2.593,3.06132
-1.58844,0.313169,2.593,3.05694
-1.58003,0.313169,2.593,3.05257
-1.56009,0.310874,2.574,3.02589
-1.54029,0.30858,2.555,2.99929
-1.53199,0.30858,2.555,2.99504
-1.51237,0.306285,2.536,2.96856
-1.48219,0.301816,2.499,2.92113
-1.47408,0.301816,2.499,2.91702
-1.44485,0.297468,2.463,2.87097
-1.42636,0.295294,2.445,2.846
-1.41842,0.295294,2.445,2.84203
-1.40068,0.293241,2.428,2.81835
-1.38305,0.291188,2.411,2.79473
-1.37522,0.291188,2.411,2.79087
-1.35775,0.289135,2.394,2.76737
-1.34998,0.289135,2.394,2.76356
-1.34221,0.289135,2.394,2.75978
-1.33444,0.289135,2.394,2.75601
-1.32667,0.289135,2.394,2.75225
-1.32827,0.291188,2.411,2.76803
-1.32975,0.293241,2.428,2.78378
-1.32187,0.293241,2.428,2.78002
-1.34267,0.299642,2.481,2.83689
-1.35399,0.30399,2.517,2.87419
-1.35598,0.306285,2.536,2.89202
-1.34774,0.306285,2.536,2.88817
-1.35959,0.310874,2.574,2.92756
-1.3717,0.315585,2.613,2.96799
-1.36322,0.315585,2.613,2.96407
-1.376,0.320536,2.654,3.00663
-1.38902,0.325609,2.696,3.05022
-1.38027,0.325609,2.696,3.04624
-1.38221,0.328145,2.717,3.06598
-1.37339,0.328145,2.717,3.06202
-1.37562,0.330802,2.739,3.08284
-1.36673,0.330802,2.739,3.07888
-1.35784,0.330802,2.739,3.07494
-1.34895,0.330802,2.739,3.07103
-1.32929,0.328145,2.717,3.0425
-1.32047,0.328145,2.717,3.03865
-1.31166,0.328145,2.717,3.03483
-1.30284,0.328145,2.717,3.03103
-1.28402,0.325609,2.696,3.00385
-1.2554,0.320536,2.654,2.95339
-1.24679,0.320536,2.654,2.94973
-1.21904,0.315585,2.613,2.90059
-1.19249,0.310874,2.574,2.8538
-1.18414,0.310874,2.574,2.85032
-1.16711,0.30858,2.555,2.82584
-1.14158,0.30399,2.517,2.78045
-1.13341,0.30399,2.517,2.77711
-1.11719,0.301816,2.499,2.75394
-1.0931,0.297468,2.463,2.71104
-1.08511,0.297468,2.463,2.70783
-1.06924,0.295294,2.445,2.68487
-1.05393,0.293241,2.428,2.66307
-1.04605,0.293241,2.428,2.65996
-1.03817,0.293241,2.428,2.65687
-1.03029,0.293241,2.428,2.6538
-1.02241,0.293241,2.428,2.65075
-1.01452,0.293241,2.428,2.64772
-1.00664,0.293241,2.428,2.64471
-1.00576,0.295294,2.445,2.66022
-0.997821,0.295294,2.445,2.65723
-0.989885,0.295294,2.445,2.65426
-0.981949,0.295294,2.445,2.65131
-0.974013,0.295294,2.445,2.64838
-0.966077,0.295294,2.445,2.64547
-0.958141,0.295294,2.445,2.64259
-0.950205,0.295294,2.445,2.63972
-0.94227,0.295294,2.445,2.63687
-0.934334,0.295294,2.445,2.63405
-0.926398,0.295294,2.445,2.63124
-0.918462,0.295294,2.445,2.62846
-0.910526,0.295294,2.445,2.6257
-0.90259,0.295294,2.445,2.62296
-0.894654,0.295294,2.445,2.62023
-0.886718,0.295294,2.445,2.61754
-0.878783,0.295294,2.445,2.61486
-0.870847,0.295294,2.445,2.6122
-0.869264,0.297468,2.463,2.62878
-0.861269,0.297468,2.463,2.62615
-0.853275,0.297468,2.463,2.62353
-0.845281,0.297468,2.463,2.62095
-0.837286,0.297468,2.463,2.61838
-0.829292,0.297468,2.463,2.61583
-0.821298,0.297468,2.463,2.61331
-0.813304,0.297468,2.463,2.61081
-0.811195,0.299642,2.481,2.62739
-0.803142,0.299642,2.481,2.62492
-0.795089,0.299642,2.481,2.62246
-0.787037,0.299642,2.481,2.62003
-0.778984,0.299642,2.481,2.61763
-0.776524,0.301816,2.499,2.63421
-0.768413,0.301816,2.499,2.63183
-0.760302,0.301816,2.499,2.62948
-0.752191,0.301816,2.499,2.62714
-0.74408,0.301816,2.499,2.62483
-0.735969,0.301816,2.499,2.62255
-0.727858,0.301816,2.499,2.62028
-0.719746,0.301816,2.499,2.61804
-0.711635,0.301816,2.499,2.61582
-0.703524,0.301816,2.499,2.61363
-0.695413,0.301816,2.499,2.61145
-0.687302,0.301816,2.499,2.60931
-0.684083,0.30399,2.517,2.62596
-0.675913,0.30399,2.517,2.62384
-0.667744,0.30399,2.517,2.62175
-0.659574,0.30399,2.517,2.61968
-0.656322,0.306285,2.536,2.6374
-0.648091,0.306285,2.536,2.63536
-0.639859,0.306285,2.536,2.63335
-0.631628,0.306285,2.536,2.63136
-0.623397,0.306285,2.536,2.6294
-0.615166,0.306285,2.536,2.62746
-0.606935,0.306285,2.536,2.62554
-0.598703,0.306285,2.536,2.62365
-0.590472,0.306285,2.536,2.62179
-0.582241,0.306285,2.536,2.61994
-0.57831,0.30858,2.555,2.63774
-0.570017,0.30858,2.555,2.63594
-0.561724,0.30858,2.555,2.63416
-0.553431,0.30858,2.555,2.6324
-0.545139,0.30858,2.555,2.63067
-0.536846,0.30858,2.555,2.62896
-0.528553,0.30858,2.555,2.62728
-0.52026,0.30858,2.555,2.62563
-0.511967,0.30858,2.555,2.624
-0.503674,0.30858,2.555,2.62239
-0.495381,0.30858,2.555,2.62081
-0.487088,0.30858,2.555,2.61926
-0.478795,0.30858,2.555,2.61773
-0.470502,0.30858,2.555,2.61622
-0.46221,0.30858,2.555,2.61474
-0.457292,0.310874,2.574,2.63272
-0.448938,0.310874,2.574,2.63129
-0.440583,0.310874,2.574,2.62987
-0.432229,0.310874,2.574,2.62849
-0.423874,0.310874,2.574,2.62713
-0.415519,0.310874,2.574,2.62579
-0.407165,0.310874,2.574,2.62448
-0.39881,0.310874,2.574,2.6232
-0.390456,0.310874,2.574,2.62194
-0.379281,0.30858,2.555,2.60137
-0.370988,0.30858,2.555,2.60017
-0.362695,0.30858,2.555,2.599
-0.354402,0.30858,2.555,2.59785
-0.346109,0.30858,2.555,2.59674
-0.337816,0.30858,2.555,2.59564
-0.329523,0.30858,2.555,2.59458
-0.318842,0.306285,2.536,2.57425
-0.31061,0.306285,2.536,2.57324
-0.302379,0.306285,2.536,2.57226
-0.294148,0.306285,2.536,2.57131
-0.285917,0.306285,2.536,2.57038
-0.277685,0.306285,2.536,2.56948
-0.269454,0.306285,2.536,2.5686
-0.261223,0.306285,2.536,2.56775
-0.252992,0.306285,2.536,2.56693
-0.244761,0.306285,2.536,2.56613
-0.236529,0.306285,2.536,2.56536
-0.228298,0.306285,2.536,2.56461
-0.220067,0.306285,2.536,2.56389
-0.211836,0.306285,2.536,2.5632
-0.203604,0.306285,2.536,2.56253
-0.195373,0.306285,2.536,2.56189
-0.187142,0.306285,2.536,2.56127
-0.180251,0.30858,2.555,2.57987
-0.171958,0.30858,2.555,2.57931
-0.163665,0.30858,2.555,2.57877
-0.155372,0.30858,2.555,2.57825
-0.14708,0.30858,2.555,2.57777
-0.139819,0.310874,2.574,2.59647
-0.131464,0.310874,2.574,2.59604
-0.12311,0.310874,2.574,2.59563
-0.114755,0.310874,2.574,2.59524
-0.1064,0.310874,2.574,2.59489
-0.0973222,0.30858,2.555,2.57541
-0.0890293,0.30858,2.555,2.57511
-0.0807364,0.30858,2.555,2.57483
-0.0724435,0.30858,2.555,2.57459
-0.0641506,0.30858,2.555,2.57437
-0.0558577,0.30858,2.555,2.57417
-0.0472111,0.306285,2.536,2.55486
-0.0389799,0.306285,2.536,2.55473
-0.0307487,0.306285,2.536,2.55461
-0.0223487,0.30399,2.517,2.53539
-0.0141792,0.30399,2.517,2.53533
-0.00600962,0.30399,2.517,2.5353
0.00215994,0.30399,2.517,2.53529
0.0102556,0.301816,2.499,2.51718
0.0183668,0.301816,2.499,2.51723
0.0264779,0.301816,2.499,2.5173
0.034589,0.301816,2.499,2.5174
0.0427002,0.301816,2.499,2.51752
0.0504453,0.299642,2.481,2.49954
0.058498,0.299642,2.481,2.49971
0.0665507,0.299642,2.481,2.49992
0.0746034,0.299642,2.481,2.50014
0.0826561,0.299642,2.481,2.5004
0.0907089,0.299642,2.481,2.50067
0.0987616,0.299642,2.481,2.50098
0.106814,0.299642,2.481,2.50131
0.114867,0.299642,2.481,2.50167
0.12292,0.299642,2.481,2.50205
0.130022,0.297468,2.463,2.4843
0.138016,0.297468,2.463,2.48473
0.146011,0.297468,2.463,2.48519
0.154005,0.297468,2.463,2.48567
0.161999,0.297468,2.463,2.48618
0.169994,0.297468,2.463,2.48672
0.177988,0.297468,2.463,2.48727
0.185982,0.297468,2.463,2.48786
0.193976,0.297468,2.463,2.48847
0.201971,0.297468,2.463,2.48911
0.209965,0.297468,2.463,2.48977
0.217959,0.297468,2.463,2.49045
0.227605,0.299642,2.481,2.50937
0.235658,0.299642,2.481,2.51012
0.24371,0.299642,2.481,2.51088
0.251763,0.299642,2.481,2.51168
0.261701,0.301816,2.499,2.53073
0.269812,0.301816,2.499,2.53158
0.277923,0.301816,2.499,2.53246
nan,nan,nan,NaN
nan,nan,nan,NaN
nan,nan,nan,NaN
nan,nan,nan,NaN
nan,nan,nan,NaN
nan,nan,nan,NaN
nan,nan,nan,NaN
nan,nan,nan,NaN
nan,nan,nan,NaN
nan,nan,nan,NaN
nan,nan,nan,NaN
nan,nan,nan,NaN
nan,nan,nan,NaN
nan,nan,nan,NaN
nan,nan,nan,NaN
nan,nan,nan,NaN
nan,nan,nan,NaN
nan,nan,nan,NaN
nan,nan,nan,NaN
nan,nan,nan,NaN
nan,nan,nan,NaN
nan,nan,nan,NaN
nan,nan,nan,NaN
nan,nan,nan,NaN
0.487819,0.306285,2.536,2.60059
0.49605,0.306285,2.536,2.60215
0.504281,0.306285,2.536,2.60373
0.505035,0.301816,2.499,2.56732
0.50945,0.299642,2.481,2.55043
0.517502,0.299642,2.481,2.55205
0.525555,0.299642,2.481,2.55369
0.533608,0.299642,2.481,2.55536
0.541661,0.299642,2.481,2.55706
0.553702,0.301816,2.499,2.57734
0.561813,0.301816,2.499,2.57909
0.565819,0.299642,2.481,2.56228
0.573871,0.299642,2.481,2.56407
0.577702,0.297468,2.463,2.54727
0.581416,0.295294,2.445,2.53047
0.589352,0.295294,2.445,2.5323
0.593135,0.293241,2.428,2.51654
0.596808,0.291188,2.411,2.50078
0.604633,0.291188,2.411,2.50266
0.603822,0.287082,2.377,2.46924
0.603304,0.283217,2.345,2.43787
0.610915,0.283217,2.345,2.43977
0.618527,0.283217,2.345,2.44168
nan,nan,nan,NaN
0.616723,0.275608,2.282,2.37988
0.62413,0.275608,2.282,2.38181
0.627386,0.273796,2.267,2.36809
0.630544,0.271985,2.252,2.35437
0.637853,0.271985,2.252,2.35634
0.645163,0.271985,2.252,2.35833
0.652472,0.271985,2.252,2.36034
0.659782,0.271985,2.252,2.36237
0.667091,0.271985,2.252,2.36442
0.6744,0.271985,2.252,2.36649
0.68171,0.271985,2.252,2.36859
0.689019,0.271985,2.252,2.3707
nan,nan,nan,NaN
nan,nan,nan,NaN
nan,nan,nan,NaN
0.723041,0.273796,2.267,2.39521
0.730399,0.273796,2.267,2.39744
0.737757,0.273796,2.267,2.3997
0.745115,0.273796,2.267,2.40197
0.757452,0.275608,2.282,2.42017
nan,nan,nan,NaN
nan,nan,nan,NaN
nan,nan,nan,NaN
nan,nan,nan,NaN
nan,nan,nan,NaN
0.801893,0.275608,2.282,2.43444
0.8093,0.275608,2.282,2.43689
0.816707,0.275608,2.282,2.43936
0.824114,0.275608,2.282,2.44185
0.826055,0.273796,2.267,2.4283
0.833413,0.273796,2.267,2.43081
0.840771,0.273796,2.267,2.43334
0.848129,0.273796,2.267,2.43589
0.855487,0.273796,2.267,2.43847
0.862845,0.273796,2.267,2.44106
0.870203,0.273796,2.267,2.44367
0.883368,0.275608,2.282,2.46248
0.890775,0.275608,2.282,2.46515
0.898182,0.275608,2.282,2.46784
0.911938,0.277541,2.298,2.48786
0.925398,0.279352,2.313,2.50686
0.932905,0.279352,2.313,2.50965
0.946918,0.281285,2.329,2.52983
0.967592,0.285149,2.361,2.56746
0.975255,0.285149,2.361,2.57036
0.989579,0.287082,2.377,2.59072
1.00443,0.289135,2.394,2.61222
1.0122,0.289135,2.394,2.61522
1.02721,0.291188,2.411,2.63683
1.04233,0.293241,2.428,2.6585
1.05021,0.293241,2.428,2.6616
1.0581,0.293241,2.428,2.66472
1.06598,0.293241,2.428,2.66786
1.07386,0.293241,2.428,2.67102
1.08174,0.293241,2.428,2.6742
1.08962,0.293241,2.428,2.67739
1.0975,0.293241,2.428,2.68061
1.10538,0.293241,2.428,2.68385
1.11326,0.293241,2.428,2.6871
1.12114,0.293241,2.428,2.69038
1.12902,0.293241,2.428,2.69367
1.1369,0.293241,2.428,2.69698
1.14478,0.293241,2.428,2.70032
1.15266,0.293241,2.428,2.70367
1.16054,0.293241,2.428,2.70704
1.16842,0.293241,2.428,2.71042
1.17631,0.293241,2.428,2.71383
1.18419,0.293241,2.428,2.71725
1.19207,0.293241,2.428,2.7207
1.19995,0.293241,2.428,2.72416
1.20783,0.293241,2.428,2.72764
1.22422,0.295294,2.445,2.75026
1.23216,0.295294,2.445,2.7538
1.24009,0.295294,2.445,2.75736
1.24803,0.295294,2.445,2.76094
1.25596,0.295294,2.445,2.76454
1.2639,0.295294,2.445,2.76815
1.27184,0.295294,2.445,2.77179
1.28919,0.297468,2.463,2.79587
1.29719,0.297468,2.463,2.79956
1.30518,0.297468,2.463,2.80328
1.32277,0.299642,2.481,2.82752
1.34048,0.301816,2.499,2.85184
1.34859,0.301816,2.499,2.85566
1.36648,0.30399,2.517,2.8801
1.3954,0.30858,2.555,2.92752
1.41413,0.310874,2.574,2.95328
1.42248,0.310874,2.574,2.95729
1.46364,0.318,2.633,3.0292
1.48392,0.320536,2.654,3.05753
1.49254,0.320536,2.654,3.06172
1.52491,0.325609,2.696,3.11445
1.55812,0.330802,2.739,3.16848
1.56701,0.330802,2.739,3.17287
1.58856,0.333459,2.761,3.20279
1.61025,0.336116,2.783,3.2328
1.63266,0.338894,2.806,3.26406
1.64177,0.338894,2.806,3.26862
1.65088,0.338894,2.806,3.27321
1.65999,0.338894,2.806,3.27781
1.66909,0.338894,2.806,3.28243
1.66445,0.336116,2.783,3.26013
1.67348,0.336116,2.783,3.26475
1.66921,0.333459,2.761,3.24355
1.6648,0.330802,2.739,3.22228
1.67369,0.330802,2.739,3.22689
1.66907,0.328145,2.717,3.20555
1.66492,0.325609,2.696,3.18534
1.67367,0.325609,2.696,3.18992
1.65621,0.320536,2.654,3.14476
1.6391,0.315585,2.613,3.10065
1.63497,0.313169,2.593,3.08137
1.64339,0.313169,2.593,3.08585
1.6397,0.310874,2.574,3.06769
1.62373,0.306285,2.536,3.02681
1.63196,0.306285,2.536,3.03124
1.61626,0.301816,2.499,2.99139
1.61267,0.299642,2.481,2.9742
1.62072,0.299642,2.481,2.97857
1.61696,0.297468,2.463,2.96132
1.61308,0.295294,2.445,2.94402
1.62101,0.295294,2.445,2.94837
1.61762,0.293241,2.428,2.93221
1.6255,0.293241,2.428,2.93657
1.63339,0.293241,2.428,2.94094
1.62977,0.291188,2.411,2.9247
1.62605,0.289135,2.394,2.90842
-1.70866,0.30546,2.463,3.01317
-1.70067,0.30546,2.463,3.00865
-1.69268,0.30546,2.463,3.00413
-1.68468,0.30546,2.463,2.99964
-1.68894,0.307693,2.481,3.01704
-1.68089,0.307693,2.481,3.01254
-1.68497,0.309925,2.499,3.02988
-1.67686,0.309925,2.499,3.02538
-1.68077,0.312157,2.517,3.04265
-1.6726,0.312157,2.517,3.03814
-1.66443,0.312157,2.517,3.03365
-1.66876,0.314514,2.536,3.05205
-1.67297,0.31687,2.555,3.07039
-1.66468,0.31687,2.555,3.06588
-1.6687,0.319227,2.574,3.08415
-1.66035,0.319227,2.574,3.07963
-1.66419,0.321583,2.593,3.09784
-1.65577,0.321583,2.593,3.09332
-1.64736,0.321583,2.593,3.08883
-1.65158,0.324063,2.613,3.10814
-1.6431,0.324063,2.613,3.10364
-1.62211,0.321583,2.593,3.07543
-1.61369,0.321583,2.593,3.071
-1.60528,0.321583,2.593,3.06659
-1.59686,0.321583,2.593,3.06219
-1.58844,0.321583,2.593,3.05781
-1.58003,0.321583,2.593,3.05345
-1.57161,0.321583,2.593,3.0491
-1.54029,0.31687,2.555,3.00015
-1.53199,0.31687,2.555,2.9959
-1.5237,0.31687,2.555,2.99167
-1.49287,0.312157,2.517,2.94302
-1.4847,0.312157,2.517,2.93889
-1.45541,0.307693,2.481,2.89279
-1.43686,0.30546,2.463,2.86779
-1.42886,0.30546,2.463,2.8638
-1.41049,0.303228,2.445,2.83892
-1.3928,0.30112,2.428,2.81527
-1.38492,0.30112,2.428,2.81138
-1.36739,0.299011,2.411,2.78785
-1.35957,0.299011,2.411,2.78402
-1.35174,0.299011,2.411,2.78021
-1.34392,0.299011,2.411,2.77641
-1.33609,0.299011,2.411,2.77263
-1.33763,0.30112,2.428,2.78839
-1.34892,0.30546,2.463,2.82476
-1.34093,0.30546,2.463,2.82095
-1.35241,0.309925,2.499,2.85834
-1.35399,0.312157,2.517,2.87507
-1.36614,0.31687,2.555,2.91458
-1.35784,0.31687,2.555,2.9107
-1.36962,0.321583,2.593,2.95007
-1.3822,0.326544,2.633,2.99162
-1.37366,0.326544,2.633,2.98768
-1.38689,0.331753,2.675,3.03136
-1.39984,0.336961,2.717,3.07493
-1.40229,0.33969,2.739,3.09579
-1.3934,0.33969,2.739,3.09177
-1.38451,0.33969,2.739,3.08778
-1.37562,0.33969,2.739,3.0838
-1.36673,0.33969,2.739,3.07985
-1.35784,0.33969,2.739,3.07591
-1.34895,0.33969,2.739,3.072
-1.34006,0.33969,2.739,3.0681
-1.33117,0.33969,2.739,3.06423
-1.32228,0.33969,2.739,3.06038
-1.30284,0.336961,2.717,3.032
-1.28402,0.334357,2.696,3.00481
-1.26533,0.331753,2.675,2.97771
-1.25665,0.331753,2.675,2.97403
-1.22837,0.326544,2.633,2.92373
-1.2013,0.321583,2.593,2.87579
-1.19288,0.321583,2.593,2.87229
-1.16711,0.31687,2.555,2.82676
-1.1502,0.314514,2.536,2.80235
-1.14196,0.314514,2.536,2.79898
-1.11719,0.309925,2.499,2.75485
-1.10109,0.307693,2.481,2.73175
-1.09304,0.307693,2.481,2.72851
-1.06924,0.303228,2.445,2.68575
-1.06131,0.303228,2.445,2.6826
-1.05337,0.303228,2.445,2.67947
-1.03817,0.30112,2.428,2.65775
-1.03029,0.30112,2.428,2.65468
-1.02956,0.303228,2.445,2.6702
-1.02163,0.303228,2.445,2.66715
-1.01369,0.303228,2.445,2.66412
-1.00576,0.303228,2.445,2.66111
-0.997821,0.303228,2.445,2.65812
-0.989885,0.303228,2.445,2.65515
-0.981949,0.303228,2.445,2.65221
-0.974013,0.303228,2.445,2.64928
-0.966077,0.303228,2.445,2.64637
-0.958141,0.303228,2.445,2.64348
-0.950205,0.303228,2.445,2.64062
-0.94227,0.303228,2.445,2.63777
-0.934334,0.303228,2.445,2.63495
-0.926398,0.303228,2.445,2.63214
-0.918462,0.303228,2.445,2.62936
-0.910526,0.303228,2.445,2.6266
-0.90259,0.303228,2.445,2.62386
-0.901241,0.30546,2.463,2.64044
-0.893246,0.30546,2.463,2.63772
-0.885252,0.30546,2.463,2.63502
-0.877258,0.30546,2.463,2.63235
-0.869264,0.30546,2.463,2.62969
-0.861269,0.30546,2.463,2.62706
-0.853275,0.30546,2.463,2.62445
-0.845281,0.30546,2.463,2.62186
-0.837286,0.30546,2.463,2.6193
-0.835353,0.307693,2.481,2.63588
-0.8273,0.307693,2.481,2.63334
-0.819247,0.307693,2.481,2.63082
-0.811195,0.307693,2.481,2.62832
-0.803142,0.307693,2.481,2.62585
-0.800858,0.309925,2.499,2.64243
-0.792747,0.309925,2.499,2.63998
-0.784635,0.309925,2.499,2.63756
-0.776524,0.309925,2.499,2.63516
-0.768413,0.309925,2.499,2.63278
-0.760302,0.309925,2.499,2.63042
-0.752191,0.309925,2.499,2.62809
-0.74408,0.309925,2.499,2.62578
-0.735969,0.309925,2.499,2.62349
-0.727858,0.309925,2.499,2.62123
-0.719746,0.309925,2.499,2.61899
-0.711635,0.309925,2.499,2.61677
-0.703524,0.309925,2.499,2.61457
-0.695413,0.309925,2.499,2.6124
-0.687302,0.309925,2.499,2.61026
-0.684083,0.312157,2.517,2.62692
-0.675913,0.312157,2.517,2.6248
-0.667744,0.312157,2.517,2.62271
-0.659574,0.312157,2.517,2.62064
-0.656322,0.314514,2.536,2.63837
-0.648091,0.314514,2.536,2.63633
-0.639859,0.314514,2.536,2.63432
-0.631628,0.314514,2.536,2.63233
-0.623397,0.314514,2.536,2.63037
-0.615166,0.314514,2.536,2.62843
-0.606935,0.314514,2.536,2.62652
-0.598703,0.314514,2.536,2.62463
-0.590472,0.314514,2.536,2.62276
-0.582241,0.314514,2.536,2.62092
-0.57831,0.31687,2.555,2.63873
-0.570017,0.31687,2.555,2.63692
-0.561724,0.31687,2.555,2.63514
-0.553431,0.31687,2.555,2.63339
-0.545139,0.31687,2.555,2.63165
-0.536846,0.31687,2.555,2.62995
-0.528553,0.31687,2.555,2.62827
-0.52026,0.31687,2.555,2.62661
-0.511967,0.31687,2.555,2.62498
-0.503674,0.31687,2.555,2.62338
-0.495381,0.31687,2.555,2.6218
-0.487088,0.31687,2.555,2.62025
-0.478795,0.31687,2.555,2.61872
-0.470502,0.31687,2.555,2.61721
-0.46221,0.31687,2.555,2.61574
-0.457292,0.319227,2.574,2.63372
-0.448938,0.319227,2.574,2.63229
-0.440583,0.319227,2.574,2.63087
-0.432229,0.319227,2.574,2.62949
-0.423874,0.319227,2.574,2.62813
-0.415519,0.319227,2.574,2.62679
-0.407165,0.319227,2.574,2.62548
-0.39881,0.319227,2.574,2.6242
-0.390456,0.319227,2.574,2.62294
-0.379281,0.31687,2.555,2.60236
-0.370988,0.31687,2.555,2.60117
-0.362695,0.31687,2.555,2.6
-0.354402,0.31687,2.555,2.59885
-0.346109,0.31687,2.555,2.59773
-0.337816,0.31687,2.555,2.59664
-0.329523,0.31687,2.555,2.59558
-0.318842,0.314514,2.536,2.57524
-0.31061,0.314514,2.536,2.57424
-0.302379,0.314514,2.536,2.57326
-0.294148,0.314514,2.536,2.5723
-0.285917,0.314514,2.536,2.57137
-0.277685,0.314514,2.536,2.57047
-0.269454,0.314514,2.536,2.5696
-0.261223,0.314514,2.536,2.56875
-0.252992,0.314514,2.536,2.56792
-0.244761,0.314514,2.536,2.56712
-0.236529,0.314514,2.536,2.56635
-0.228298,0.314514,2.536,2.56561
-0.220067,0.314514,2.536,2.56489
-0.211836,0.314514,2.536,2.56419
-0.203604,0.314514,2.536,2.56353
-0.195373,0.314514,2.536,2.56289
-0.187142,0.314514,2.536,2.56227
-0.178911,0.314514,2.536,2.56168
-0.170679,0.314514,2.536,2.56112
-0.162448,0.314514,2.536,2.56059
-0.154217,0.314514,2.536,2.56008
-0.145986,0.314514,2.536,2.5596
-0.138787,0.31687,2.555,2.57831
-0.130494,0.31687,2.555,2.57788
-0.122201,0.31687,2.555,2.57747
-0.113908,0.31687,2.555,2.57709
-0.105615,0.31687,2.555,2.57674
-0.0973222,0.31687,2.555,2.57641
-0.0890293,0.31687,2.555,2.57611
-0.0807364,0.31687,2.555,2.57584
-0.0724435,0.31687,2.555,2.57559
-0.0636736,0.314514,2.536,2.55622
-0.0554423,0.314514,2.536,2.55603
-0.0472111,0.314514,2.536,2.55586
-0.0389799,0.314514,2.536,2.55573
-0.0307487,0.314514,2.536,2.55561
-0.0223487,0.312157,2.517,2.53638
-0.0141792,0.312157,2.517,2.53632
-0.00600962,0.312157,2.517,2.53629
0.00215994,0.312157,2.517,2.53628
0.0102556,0.309925,2.499,2.51817
0.0183668,0.309925,2.499,2.51821
0.0264779,0.309925,2.499,2.51828
0.034589,0.309925,2.499,2.51838
0.0427002,0.309925,2.499,2.51851
0.0504453,0.307693,2.481,2.50052
0.058498,0.307693,2.481,2.50069
0.0665507,0.307693,2.481,2.50089
0.0746034,0.307693,2.481,2.50112
0.0826561,0.307693,2.481,2.50137
0.0907089,0.307693,2.481,2.50165
0.0987616,0.307693,2.481,2.50196
0.106814,0.307693,2.481,2.50229
0.114867,0.307693,2.481,2.50264
0.12292,0.307693,2.481,2.50303
0.130972,0.307693,2.481,2.50344
0.138016,0.30546,2.463,2.4857
0.146011,0.30546,2.463,2.48616
0.155131,0.307693,2.481,2.50482
0.161999,0.30546,2.463,2.48715
0.169994,0.30546,2.463,2.48768
0.177988,0.30546,2.463,2.48824
0.185982,0.30546,2.463,2.48883
0.195394,0.307693,2.481,2.50763
0.203447,0.307693,2.481,2.50827
0.2115,0.307693,2.481,2.50894
0.219552,0.307693,2.481,2.50963
0.227605,0.307693,2.481,2.51035
0.235658,0.307693,2.481,2.51109
0.24371,0.307693,2.481,2.51186
0.251763,0.307693,2.481,2.51265
0.261701,0.309925,2.499,2.53171
0.269812,0.309925,2.499,2.53256
0.277923,0.309925,2.499,2.53344
nan,nan,nan,NaN
nan,nan,nan,NaN
nan,nan,nan,NaN
nan,nan,nan,NaN
nan,nan,nan,NaN
nan,nan,nan,NaN
nan,nan,nan,NaN
nan,nan,nan,NaN
nan,nan,nan,NaN
nan,nan,nan,NaN
nan,nan,nan,NaN
nan,nan,nan,NaN
nan,nan,nan,NaN
nan,nan,nan,NaN
nan,nan,nan,NaN
nan,nan,nan,NaN
nan,nan,nan,NaN
nan,nan,nan,NaN
nan,nan,nan,NaN
nan,nan,nan,NaN
nan,nan,nan,NaN
nan,nan,nan,NaN
nan,nan,nan,NaN
nan,nan,nan,NaN
nan,nan,nan,NaN
nan,nan,nan,NaN
nan,nan,nan,NaN
0.505035,0.309925,2.499,2.56829
0.50945,0.307693,2.481,2.55139
0.517502,0.307693,2.481,2.55301
0.525555,0.307693,2.481,2.55465
0.533608,0.307693,2.481,2.55632
0.541661,0.307693,2.481,2.55801
nan,nan,nan,NaN
nan,nan,nan,NaN
nan,nan,nan,NaN
nan,nan,nan,NaN
nan,nan,nan,NaN
nan,nan,nan,NaN
nan,nan,nan,NaN
nan,nan,nan,NaN
nan,nan,nan,NaN
nan,nan,nan,NaN
nan,nan,nan,NaN
nan,nan,nan,NaN
nan,nan,nan,NaN
nan,nan,nan,NaN
nan,nan,nan,NaN
nan,nan,nan,NaN
nan,nan,nan,NaN
0.635965,0.284997,2.298,2.40135
0.638943,0.283013,2.282,2.3866
0.64635,0.283013,2.282,2.3886
0.653757,0.283013,2.282,2.39061
0.661164,0.283013,2.282,2.39265
0.668571,0.283013,2.282,2.3947
0.675978,0.283013,2.282,2.39678
0.683384,0.283013,2.282,2.39888
0.690791,0.283013,2.282,2.401
0.698198,0.283013,2.282,2.40314
nan,nan,nan,NaN
nan,nan,nan,NaN
nan,nan,nan,NaN
nan,nan,nan,NaN
0.74522,0.286857,2.313,2.44696
0.752727,0.286857,2.313,2.44926
0.760235,0.286857,2.313,2.45157
0.767742,0.286857,2.313,2.45391
nan,nan,nan,NaN
nan,nan,nan,NaN
nan,nan,nan,NaN
nan,nan,nan,NaN
nan,nan,nan,NaN
0.807516,0.284997,2.298,2.45237
0.814974,0.284997,2.298,2.45483
0.822433,0.284997,2.298,2.45732
0.824114,0.283013,2.282,2.4427
0.83152,0.283013,2.282,2.44521
0.838927,0.283013,2.282,2.44774
0.846334,0.283013,2.282,2.45029
0.848129,0.281153,2.267,2.43673
0.855487,0.281153,2.267,2.4393
0.862845,0.281153,2.267,2.44189
0.870203,0.281153,2.267,2.4445
0.883368,0.283013,2.282,2.46332
0.890775,0.283013,2.282,2.46599
0.898182,0.283013,2.282,2.46867
0.911938,0.284997,2.298,2.48871
0.925398,0.286857,2.313,2.50771
0.932905,0.286857,2.313,2.51049
0.946918,0.288842,2.329,2.53068
0.967592,0.29281,2.361,2.56833
0.975255,0.29281,2.361,2.57122
0.989579,0.294795,2.377,2.59158
1.00443,0.296903,2.394,2.61309
1.0122,0.296903,2.394,2.61609
1.02721,0.299011,2.411,2.63771
1.04233,0.30112,2.428,2.65938
1.05021,0.30112,2.428,2.66248
1.0581,0.30112,2.428,2.6656
1.06598,0.30112,2.428,2.66874
1.07386,0.30112,2.428,2.6719
1.08174,0.30112,2.428,2.67507
1.08962,0.30112,2.428,2.67827
1.0975,0.30112,2.428,2.68148
1.10538,0.30112,2.428,2.68472
1.11326,0.30112,2.428,2.68797
1.12114,0.30112,2.428,2.69125
1.12902,0.30112,2.428,2.69454
1.1369,0.30112,2.428,2.69785
1.14478,0.30112,2.428,2.70118
1.15266,0.30112,2.428,2.70453
1.16054,0.30112,2.428,2.7079
1.16842,0.30112,2.428,2.71129
1.17631,0.30112,2.428,2.71469
1.18419,0.30112,2.428,2.71812
1.19207,0.30112,2.428,2.72156
1.19995,0.30112,2.428,2.72502
1.20783,0.30112,2.428,2.7285
1.22422,0.303228,2.445,2.75113
1.23216,0.303228,2.445,2.75467
1.24009,0.303228,2.445,2.75822
1.24803,0.303228,2.445,2.7618
1.25596,0.303228,2.445,2.7654
1.2639,0.303228,2.445,2.76901
1.27184,0.303228,2.445,2.77264
1.28919,0.30546,2.463,2.79673
1.29719,0.30546,2.463,2.80042
1.30518,0.30546,2.463,2.80414
1.32277,0.307693,2.481,2.82839
1.33083,0.307693,2.481,2.83216
1.33888,0.307693,2.481,2.83595
1.36648,0.312157,2.517,2.88097
1.38502,0.314514,2.536,2.90663
1.40369,0.31687,2.555,2.93237
1.41198,0.31687,2.555,2.93635
1.4414,0.321583,2.593,2.98407
1.47218,0.326544,2.633,3.03425
1.48073,0.326544,2.633,3.0384
1.51303,0.331753,2.675,3.09111
1.55812,0.33969,2.739,3.16942
1.56701,0.33969,2.739,3.1738
1.58856,0.342418,2.761,3.20373
1.61025,0.345147,2.783,3.23375
1.63266,0.347999,2.806,3.26502
1.62831,0.345147,2.783,3.24278
1.63735,0.345147,2.783,3.24733
1.64638,0.345147,2.783,3.25189
1.65541,0.345147,2.783,3.25647
1.65129,0.342418,2.761,3.23529
1.66025,0.342418,2.761,3.23988
1.65591,0.33969,2.739,3.21863
1.65143,0.336961,2.717,3.19732
1.66025,0.336961,2.717,3.20188
1.65617,0.334357,2.696,3.18168
1.65195,0.331753,2.675,3.16143
1.66063,0.331753,2.675,3.16597
1.6431,0.326544,2.633,3.12075
1.62656,0.321583,2.593,3.07778
1.62299,0.319227,2.574,3.05966
1.63135,0.319227,2.574,3.0641
1.6276,0.31687,2.555,3.0459
1.61156,0.312157,2.517,3.00497
1.61973,0.312157,2.517,3.00936
1.61626,0.309925,2.499,2.99222
1.60097,0.30546,2.463,2.95344
1.60897,0.30546,2.463,2.95778
1.60514,0.303228,2.445,2.94049
1.60186,0.30112,2.428,2.92435
1.60974,0.30112,2.428,2.92867
1.61762,0.30112,2.428,2.93301
1.61412,0.299011,2.411,2.9168
1.62195,0.299011,2.411,2.92114
1.61828,0.296903,2.394,2.90486
1.62605,0.296903,2.394,2.9092
-1.70866,0.313452,2.463,3.01399
-1.70067,0.313452,2.463,3.00947
-1.69268,0.313452,2.463,3.00496
-1.68468,0.313452,2.463,3.00046
-1.68894,0.315743,2.481,3.01788
-1.68089,0.315743,2.481,3.01338
-1.68497,0.318034,2.499,3.03072
-1.67686,0.318034,2.499,3.02622
-1.68077,0.320325,2.517,3.0435
-1.68523,0.322743,2.536,3.06193
-1.67699,0.322743,2.536,3.05741
-1.68127,0.325161,2.555,3.07578
-1.67297,0.325161,2.555,3.07125
-1.66468,0.325161,2.555,3.06674
-1.6687,0.327579,2.574,3.08502
-1.67261,0.329997,2.593,3.10325
-1.67703,0.332542,2.613,3.12262
-1.66854,0.332542,2.613,3.11808
-1.66006,0.332542,2.613,3.11354
-1.65158,0.332542,2.613,3.10903
-1.6431,0.332542,2.613,3.10453
-1.63462,0.332542,2.613,3.10005
-1.62614,0.332542,2.613,3.09559
-1.61766,0.332542,2.613,3.09114
-1.60918,0.332542,2.613,3.08671
-1.61295,0.335087,2.633,3.10589
-1.6044,0.335087,2.633,3.10146
-1.58373,0.332542,2.613,3.07353
-1.56319,0.329997,2.593,3.04567
-1.55478,0.329997,2.593,3.04136
-1.5237,0.325161,2.555,2.99256
-1.50414,0.322743,2.536,2.96612
-1.49591,0.322743,2.536,2.96196
-1.46597,0.318034,2.499,2.91466
-1.44736,0.315743,2.481,2.88962
-1.43931,0.315743,2.481,2.88559
-1.42087,0.313452,2.463,2.86068
-1.3928,0.308998,2.428,2.81612
-1.38492,0.308998,2.428,2.81223
-1.37704,0.308998,2.428,2.80836
-1.36916,0.308998,2.428,2.80451
-1.36127,0.308998,2.428,2.80067
-1.35339,0.308998,2.428,2.79684
-1.34551,0.308998,2.428,2.79304
-1.347,0.311162,2.445,2.80878
-1.34892,0.313452,2.463,2.82563
-1.34093,0.313452,2.463,2.82183
-1.36216,0.320325,2.517,2.87982
-1.37443,0.325161,2.555,2.91938
-1.37629,0.327579,2.574,2.93717
-1.36794,0.327579,2.574,2.93326
-1.38019,0.332542,2.613,2.97376
-1.39323,0.33776,2.654,3.01643
-1.38461,0.33776,2.654,3.01247
-1.39777,0.343105,2.696,3.05613
-1.39984,0.345778,2.717,3.07591
-1.41355,0.351377,2.761,3.12165
-1.40459,0.351377,2.761,3.1176
-1.39563,0.351377,2.761,3.11358
-1.38667,0.351377,2.761,3.10957
-1.3777,0.351377,2.761,3.10559
-1.36874,0.351377,2.761,3.10162
-1.35978,0.351377,2.761,3.09768
-1.34006,0.348577,2.739,3.0691
-1.33117,0.348577,2.739,3.06523
-1.32228,0.348577,2.739,3.06138
-1.31339,0.348577,2.739,3.05755
-1.28402,0.343105,2.696,3.0058
-1.26533,0.340432,2.675,2.97869
-1.25665,0.340432,2.675,2.97501
-1.22837,0.335087,2.633,2.9247
-1.2013,0.329997,2.593,2.87674
-1.19288,0.329997,2.593,2.87324
-1.17578,0.327579,2.574,2.84873
-1.1502,0.322743,2.536,2.80329
-1.14196,0.322743,2.536,2.79992
-1.11719,0.318034,2.499,2.75577
-1.10109,0.315743,2.481,2.73267
-1.09304,0.315743,2.481,2.72943
-1.06924,0.311162,2.445,2.68666
-1.06131,0.311162,2.445,2.68351
-1.05337,0.311162,2.445,2.68038
-1.04544,0.311162,2.445,2.67727
-1.0375,0.311162,2.445,2.67418
-1.02956,0.311162,2.445,2.67111
-1.02163,0.311162,2.445,2.66807
-1.01369,0.311162,2.445,2.66504
-1.00576,0.311162,2.445,2.66203
-0.997821,0.311162,2.445,2.65904
-0.989885,0.311162,2.445,2.65607
-0.981949,0.311162,2.445,2.65312
-0.974013,0.311162,2.445,2.6502
-0.966077,0.311162,2.445,2.64729
-0.958141,0.311162,2.445,2.64441
-0.950205,0.311162,2.445,2.64154
-0.94227,0.311162,2.445,2.6387
-0.934334,0.311162,2.445,2.63587
-0.926398,0.311162,2.445,2.63307
-0.918462,0.311162,2.445,2.63029
-0.910526,0.311162,2.445,2.62753
-0.90259,0.311162,2.445,2.62479
-0.901241,0.313452,2.463,2.64137
-0.893246,0.313452,2.463,2.63866
-0.885252,0.313452,2.463,2.63596
-0.877258,0.313452,2.463,2.63329
-0.869264,0.313452,2.463,2.63064
-0.861269,0.313452,2.463,2.628
-0.853275,0.313452,2.463,2.6254
-0.845281,0.313452,2.463,2.62281
-0.837286,0.313452,2.463,2.62024
-0.835353,0.315743,2.481,2.63683
-0.8273,0.315743,2.481,2.63429
-0.819247,0.315743,2.481,2.63177
-0.811195,0.315743,2.481,2.62928
-0.803142,0.315743,2.481,2.6268
-0.800858,0.318034,2.499,2.64339
-0.792747,0.318034,2.499,2.64095
-0.784635,0.318034,2.499,2.63852
-0.776524,0.318034,2.499,2.63612
-0.768413,0.318034,2.499,2.63374
-0.760302,0.318034,2.499,2.63139
-0.752191,0.318034,2.499,2.62906
-0.74408,0.318034,2.499,2.62675
-0.735969,0.318034,2.499,2.62446
-0.727858,0.318034,2.499,2.6222
-0.719746,0.318034,2.499,2.61996
-0.711635,0.318034,2.499,2.61774
-0.703524,0.318034,2.499,2.61555
-0.695413,0.318034,2.499,2.61338
-0.687302,0.318034,2.499,2.61123
-0.684083,0.320325,2.517,2.6279
-0.675913,0.320325,2.517,2.62579
-0.667744,0.320325,2.517,2.6237
-0.659574,0.320325,2.517,2.62163
-0.651405,0.320325,2.517,2.61959
-0.643235,0.320325,2.517,2.61757
-0.639859,0.322743,2.536,2.63531
-0.631628,0.322743,2.536,2.63333
-0.623397,0.322743,2.536,2.63137
-0.615166,0.322743,2.536,2.62943
-0.606935,0.322743,2.536,2.62751
-0.598703,0.322743,2.536,2.62562
-0.590472,0.322743,2.536,2.62376
-0.582241,0.322743,2.536,2.62192
-0.57401,0.322743,2.536,2.6201
-0.565778,0.322743,2.536,2.61831
-0.561724,0.325161,2.555,2.63615
-0.553431,0.325161,2.555,2.6344
-0.545139,0.325161,2.555,2.63267
-0.536846,0.325161,2.555,2.63096
-0.528553,0.325161,2.555,2.62928
-0.52026,0.325161,2.555,2.62763
-0.511967,0.325161,2.555,2.626
-0.503674,0.325161,2.555,2.62439
-0.495381,0.325161,2.555,2.62281
-0.487088,0.325161,2.555,2.62126
-0.478795,0.325161,2.555,2.61973
-0.470502,0.325161,2.555,2.61823
-0.46221,0.325161,2.555,2.61675
-0.453917,0.325161,2.555,2.6153
-0.445624,0.325161,2.555,2.61387
-0.437331,0.325161,2.555,2.61247
-0.429038,0.325161,2.555,2.6111
-0.420745,0.325161,2.555,2.60975
-0.415519,0.327579,2.574,2.62782
-0.407165,0.327579,2.574,2.62651
-0.39881,0.327579,2.574,2.62523
-0.390456,0.327579,2.574,2.62397
-0.379281,0.325161,2.555,2.60338
-0.370988,0.325161,2.555,2.60219
-0.362695,0.325161,2.555,2.60102
-0.354402,0.325161,2.555,2.59988
-0.346109,0.325161,2.555,2.59876
-0.337816,0.325161,2.555,2.59767
-0.329523,0.325161,2.555,2.5966
-0.318842,0.322743,2.536,2.57626
-0.31061,0.322743,2.536,2.57525
-0.302379,0.322743,2.536,2.57428
-0.294148,0.322743,2.536,2.57332
-0.285917,0.322743,2.536,2.57239
-0.277685,0.322743,2.536,2.57149
-0.269454,0.322743,2.536,2.57062
-0.261223,0.322743,2.536,2.56977
-0.252992,0.322743,2.536,2.56894
-0.244761,0.322743,2.536,2.56814
-0.236529,0.322743,2.536,2.56737
-0.228298,0.322743,2.536,2.56663
-0.220067,0.322743,2.536,2.56591
-0.211836,0.322743,2.536,2.56522
-0.202079,0.320325,2.517,2.54534
-0.193909,0.320325,2.517,2.5447
-0.18574,0.320325,2.517,2.54409
-0.178911,0.322743,2.536,2.56271
-0.170679,0.322743,2.536,2.56215
-0.162448,0.322743,2.536,2.56161
-0.154217,0.322743,2.536,2.5611
-0.145986,0.322743,2.536,2.56062
-0.138787,0.325161,2.555,2.57934
-0.130494,0.325161,2.555,2.57891
-0.122201,0.325161,2.555,2.57851
-0.113908,0.325161,2.555,2.57813
-0.105615,0.325161,2.555,2.57777
-0.0973222,0.325161,2.555,2.57745
-0.0890293,0.325161,2.555,2.57715
-0.0807364,0.325161,2.555,2.57687
-0.0719048,0.322743,2.536,2.55747
-0.0636736,0.322743,2.536,2.55725
-0.0554423,0.322743,2.536,2.55706
-0.0472111,0.322743,2.536,2.55689
-0.0389799,0.322743,2.536,2.55675
-0.0307487,0.322743,2.536,2.55664
-0.0223487,0.320325,2.517,2.5374
-0.0141792,0.320325,2.517,2.53734
-0.00600962,0.320325,2.517,2.53731
0.00215994,0.320325,2.517,2.5373
0.0103295,0.320325,2.517,2.53732
0.0184991,0.320325,2.517,2.53737
0.0264779,0.318034,2.499,2.5193
0.034589,0.318034,2.499,2.51939
0.0427002,0.318034,2.499,2.51952
0.0508113,0.318034,2.499,2.51967
0.058498,0.315743,2.481,2.50169
0.0665507,0.315743,2.481,2.5019
0.0746034,0.315743,2.481,2.50212
0.0826561,0.315743,2.481,2.50238
0.0907089,0.315743,2.481,2.50266
0.0987616,0.315743,2.481,2.50296
0.106814,0.315743,2.481,2.50329
0.114867,0.315743,2.481,2.50365
0.12292,0.315743,2.481,2.50403
0.130972,0.315743,2.481,2.50444
0.139025,0.315743,2.481,2.50487
0.147078,0.315743,2.481,2.50533
0.155131,0.315743,2.481,2.50582
0.163183,0.315743,2.481,2.50633
0.171236,0.315743,2.481,2.50687
0.179289,0.315743,2.481,2.50743
0.187341,0.315743,2.481,2.50802
0.195394,0.315743,2.481,2.50863
0.203447,0.315743,2.481,2.50927
0.2115,0.315743,2.481,2.50994
0.219552,0.315743,2.481,2.51063
nan,nan,nan,NaN
0.235658,0.315743,2.481,2.51209
0.24371,0.315743,2.481,2.51286
0.25359,0.318034,2.499,2.53189
0.261701,0.318034,2.499,2.53271
0.269812,0.318034,2.499,2.53356
0.277923,0.318034,2.499,2.53444
nan,nan,nan,NaN
nan,nan,nan,NaN
nan,nan,nan,NaN
nan,nan,nan,NaN
nan,nan,nan,NaN
nan,nan,nan,NaN
nan,nan,nan,NaN
nan,nan,nan,NaN
nan,nan,nan,NaN
nan,nan,nan,NaN
nan,nan,nan,NaN
nan,nan,nan,NaN
nan,nan,nan,NaN
nan,nan,nan,NaN
nan,nan,nan,NaN
nan,nan,nan,NaN
nan,nan,nan,NaN
nan,nan,nan,NaN
nan,nan,nan,NaN
nan,nan,nan,NaN
nan,nan,nan,NaN
nan,nan,nan,NaN
nan,nan,nan,NaN
nan,nan,nan,NaN
nan,nan,nan,NaN
nan,nan,nan,NaN
nan,nan,nan,NaN
0.505035,0.318034,2.499,2.56928
0.50945,0.315743,2.481,2.55237
0.517502,0.315743,2.481,2.55399
0.525555,0.315743,2.481,2.55563
0.533608,0.315743,2.481,2.5573
0.541661,0.315743,2.481,2.55899
nan,nan,nan,NaN
nan,nan,nan,NaN
nan,nan,nan,NaN
nan,nan,nan,NaN
nan,nan,nan,NaN
nan,nan,nan,NaN
nan,nan,nan,NaN
nan,nan,nan,NaN
nan,nan,nan,NaN
nan,nan,nan,NaN
nan,nan,nan,NaN
nan,nan,nan,NaN
nan,nan,nan,NaN
nan,nan,nan,NaN
nan,nan,nan,NaN
nan,nan,nan,NaN
nan,nan,nan,NaN
0.635965,0.292454,2.298,2.40225
0.638943,0.290418,2.282,2.38749
0.64635,0.290418,2.282,2.38948
0.653757,0.290418,2.282,2.3915
0.661164,0.290418,2.282,2.39353
0.668571,0.290418,2.282,2.39559
0.675978,0.290418,2.282,2.39767
0.683384,0.290418,2.282,2.39977
0.690791,0.290418,2.282,2.40189
0.698198,0.290418,2.282,2.40403
0.71519,0.294363,2.313,2.43888
nan,nan,nan,NaN
nan,nan,nan,NaN
nan,nan,nan,NaN
0.74522,0.294363,2.313,2.44785
0.752727,0.294363,2.313,2.45015
0.760235,0.294363,2.313,2.45246
0.767742,0.294363,2.313,2.4548
0.785975,0.298435,2.345,2.49115
0.788172,0.296399,2.329,2.47655
0.795731,0.296399,2.329,2.47897
0.80329,0.296399,2.329,2.4814
0.81085,0.296399,2.329,2.48386
0.807516,0.292454,2.298,2.45325
0.814974,0.292454,2.298,2.45571
0.822433,0.292454,2.298,2.4582
0.824114,0.290418,2.282,2.44357
0.83152,0.290418,2.282,2.44608
0.838927,0.290418,2.282,2.4486
0.846334,0.290418,2.282,2.45115
0.853741,0.290418,2.282,2.45372
0.861148,0.290418,2.282,2.45631
0.868555,0.290418,2.282,2.45891
0.875961,0.290418,2.282,2.46154
0.883368,0.290418,2.282,2.46418
0.890775,0.290418,2.282,2.46685
0.898182,0.290418,2.282,2.46953
0.917891,0.294363,2.313,2.50582
0.925398,0.294363,2.313,2.50858
0.932905,0.294363,2.313,2.51136
0.953423,0.298435,2.345,2.54894
0.974149,0.302508,2.377,2.58662
0.981864,0.302508,2.377,2.58954
0.996657,0.304671,2.394,2.61101
1.00443,0.304671,2.394,2.61399
1.0122,0.304671,2.394,2.61698
1.02721,0.306835,2.411,2.6386
1.04233,0.308998,2.428,2.66029
1.05021,0.308998,2.428,2.66338
1.0581,0.308998,2.428,2.6665
1.06598,0.308998,2.428,2.66964
1.07386,0.308998,2.428,2.6728
1.08174,0.308998,2.428,2.67597
1.09725,0.311162,2.445,2.69792
1.10518,0.311162,2.445,2.70116
1.10538,0.308998,2.428,2.68562
