-0.210695,-0.360671,2.428,2.46367
-0.202814,-0.360671,2.428,2.46301
-0.194934,-0.360671,2.428,2.46237
-0.187053,-0.360671,2.428,2.46176
-0.180427,-0.363196,2.445,2.4784
-0.173761,-0.36587,2.463,2.49608
-0.165766,-0.36587,2.463,2.49554
-0.157772,-0.36587,2.463,2.49502
-0.149778,-0.36587,2.463,2.49453
-0.141784,-0.36587,2.463,2.49406
-0.133789,-0.36587,2.463,2.49362
-0.125795,-0.36587,2.463,2.4932
-0.117801,-0.36587,2.463,2.49281
-0.110609,-0.368544,2.481,2.51066
-0.102556,-0.368544,2.481,2.51032
-0.0945035,-0.368544,2.481,2.51
-0.0864508,-0.368544,2.481,2.50971
-0.078398,-0.368544,2.481,2.50945
-0.0703453,-0.368544,2.481,2.50921
-0.0622926,-0.368544,2.481,2.509
-0.0538464,-0.36587,2.463,2.49061
-0.0458521,-0.36587,2.463,2.49045
-0.0378578,-0.36587,2.463,2.49031
-0.0298635,-0.36587,2.463,2.49021
-0.0218693,-0.36587,2.463,2.49012
-0.013875,-0.36587,2.463,2.49006
-0.00592366,-0.368544,2.481,2.50823
0.0021136,-0.36587,2.463,2.49003
0.0101079,-0.36587,2.463,2.49005
0.0181022,-0.36587,2.463,2.49009
0.0260965,-0.36587,2.463,2.49016
0.0340907,-0.36587,2.463,2.49026
0.042085,-0.36587,2.463,2.49038
0.0500793,-0.36587,2.463,2.49053
0.0580736,-0.36587,2.463,2.4907
0.0660679,-0.36587,2.463,2.4909
0.0740622,-0.36587,2.463,2.49113
0.0820565,-0.36587,2.463,2.49138
0.0907089,-0.368544,2.481,2.50986
0.0987616,-0.368544,2.481,2.51017
0.106039,-0.36587,2.463,2.49228
0.114034,-0.36587,2.463,2.49264
0.122028,-0.36587,2.463,2.49301
0.130972,-0.368544,2.481,2.51164
0.139025,-0.368544,2.481,2.51207
0.147078,-0.368544,2.481,2.51253
0.155131,-0.368544,2.481,2.51302
0.163183,-0.368544,2.481,2.51353
0.171236,-0.368544,2.481,2.51406
0.180589,-0.371218,2.499,2.53287
0.188701,-0.371218,2.499,2.53346
0.196812,-0.371218,2.499,2.53408
0.204923,-0.371218,2.499,2.53472
0.213034,-0.371218,2.499,2.53539
0.221145,-0.371218,2.499,2.53608
0.229256,-0.371218,2.499,2.5368
0.237367,-0.371218,2.499,2.53755
0.245479,-0.371218,2.499,2.53832
0.25359,-0.371218,2.499,2.53912
0.263586,-0.373892,2.517,2.55823
0.271755,-0.373892,2.517,2.55909
0.282038,-0.376714,2.536,2.57929
0.290269,-0.376714,2.536,2.58021
0.296264,-0.373892,2.517,2.56181
0.304434,-0.373892,2.517,2.56277
0.312603,-0.373892,2.517,2.56375
0.320773,-0.373892,2.517,2.56476
0.328942,-0.373892,2.517,2.56579
0.337112,-0.373892,2.517,2.56685
0.347888,-0.376714,2.536,2.58732
0.356119,-0.376714,2.536,2.58844
0.36435,-0.376714,2.536,2.58959
0.372581,-0.376714,2.536,2.59076
0.383666,-0.379537,2.555,2.61137
0.391959,-0.379537,2.555,2.6126
0.400252,-0.379537,2.555,2.61386
0.408544,-0.379537,2.555,2.61514
0.416837,-0.379537,2.555,2.61645
0.42513,-0.379537,2.555,2.61779
0.433423,-0.379537,2.555,2.61915
0.441716,-0.379537,2.555,2.62053
0.450009,-0.379537,2.555,2.62194
0.454894,-0.376714,2.536,2.60387
0.463125,-0.376714,2.536,2.60532
0.471356,-0.376714,2.536,2.6068
0.475994,-0.373892,2.517,2.58876
0.480701,-0.371218,2.499,2.57175
0.488812,-0.371218,2.499,2.57327
0.496924,-0.371218,2.499,2.57483
0.505035,-0.371218,2.499,2.57641
0.513146,-0.371218,2.499,2.57801
0.521257,-0.371218,2.499,2.57963
0.529368,-0.371218,2.499,2.58129
0.537479,-0.371218,2.499,2.58296
0.54559,-0.371218,2.499,2.58466
0.553702,-0.371218,2.499,2.58639
0.565859,-0.373892,2.517,2.60678
0.574029,-0.373892,2.517,2.60856
0.582199,-0.373892,2.517,2.61037
0.590368,-0.373892,2.517,2.61221
0.598538,-0.373892,2.517,2.61406
0.606707,-0.373892,2.517,2.61595
0.619518,-0.376714,2.536,2.63761
0.627749,-0.376714,2.536,2.63956
0.635981,-0.376714,2.536,2.64153
0.644212,-0.376714,2.536,2.64352
0.657331,-0.379537,2.555,2.66536
0.665624,-0.379537,2.555,2.66742
0.673917,-0.379537,2.555,2.6695
0.68221,-0.379537,2.555,2.67161
0.690503,-0.379537,2.555,2.67374
0.698796,-0.379537,2.555,2.67589
0.707089,-0.379537,2.555,2.67807
0.715382,-0.379537,2.555,2.68027
0.718293,-0.376714,2.536,2.66255
0.726524,-0.376714,2.536,2.66478
0.734755,-0.376714,2.536,2.66703
0.73742,-0.373892,2.517,2.64932
0.74559,-0.373892,2.517,2.6516
0.753759,-0.373892,2.517,2.65391
0.761929,-0.373892,2.517,2.65624
0.764591,-0.371218,2.499,2.63958
0.772702,-0.371218,2.499,2.64194
0.780813,-0.371218,2.499,2.64433
0.783242,-0.368544,2.481,2.62767
0.791295,-0.368544,2.481,2.63008
0.799347,-0.368544,2.481,2.63252
0.8074,-0.368544,2.481,2.63497
0.815453,-0.368544,2.481,2.63745
0.823505,-0.368544,2.481,2.63995
0.831558,-0.368544,2.481,2.64248
0.833519,-0.36587,2.463,2.62583
0.841514,-0.36587,2.463,2.62838
0.849508,-0.36587,2.463,2.63095
0.851236,-0.363196,2.445,2.6143
0.859171,-0.363196,2.445,2.61689
0.867107,-0.363196,2.445,2.61951
0.875043,-0.363196,2.445,2.62214
0.882979,-0.363196,2.445,2.6248
0.890915,-0.363196,2.445,2.62748
0.898851,-0.363196,2.445,2.63018
0.900482,-0.360671,2.428,2.6146
0.908362,-0.360671,2.428,2.61733
0.916243,-0.360671,2.428,2.62007
0.924124,-0.360671,2.428,2.62284
0.932004,-0.360671,2.428,2.62562
0.939885,-0.360671,2.428,2.62843
0.947766,-0.360671,2.428,2.63126
0.955646,-0.360671,2.428,2.63411
0.963527,-0.360671,2.428,2.63698
0.971408,-0.360671,2.428,2.63987
0.972432,-0.358146,2.411,2.62427
0.980257,-0.358146,2.411,2.62718
0.988083,-0.358146,2.411,2.63011
0.995908,-0.358146,2.411,2.63306
nan,nan,nan,NaN
nan,nan,nan,NaN
nan,nan,nan,NaN
nan,nan,nan,NaN
nan,nan,nan,NaN
nan,nan,nan,NaN
nan,nan,nan,NaN
nan,nan,nan,NaN
nan,nan,nan,NaN
nan,nan,nan,NaN
1.3719,-0.454107,3.057,3.38136
1.38182,-0.454107,3.057,3.38539
1.39174,-0.454107,3.057,3.38945
1.41404,-0.458118,3.084,3.42351
1.42405,-0.458118,3.084,3.42766
1.43406,-0.458118,3.084,3.43183
1.45718,-0.462277,3.112,3.46722
1.46728,-0.462277,3.112,3.47148
1.47738,-0.462277,3.112,3.47576
1.48749,-0.462277,3.112,3.48007
1.49759,-0.462277,3.112,3.4844
1.50769,-0.462277,3.112,3.48875
1.51779,-0.462277,3.112,3.49313
1.52789,-0.462277,3.112,3.49753
1.53799,-0.462277,3.112,3.50195
1.54809,-0.462277,3.112,3.5064
1.55819,-0.462277,3.112,3.51087
1.56829,-0.462277,3.112,3.51536
1.57839,-0.462277,3.112,3.51988
1.6033,-0.466585,3.141,3.55727
1.62839,-0.470893,3.17,3.59476
1.65367,-0.475201,3.199,3.63236
1.66405,-0.475201,3.199,3.6371
1.70636,-0.484262,3.26,3.71131
1.7338,-0.489016,3.292,3.75266
1.74448,-0.489016,3.292,3.75761
1.77223,-0.493769,3.324,3.79915
1.81788,-0.503425,3.389,3.87859
1.82888,-0.503425,3.389,3.88376
1.87734,-0.513674,3.458,3.96813
1.90768,-0.518873,3.493,4.01367
1.9388,-0.524221,3.529,4.06049
1.95025,-0.524221,3.529,4.06597
1.96171,-0.524221,3.529,4.07148
1.99385,-0.529717,3.566,4.11976
2.00542,-0.529717,3.566,4.12537
2.017,-0.529717,3.566,4.13101
2.02857,-0.529717,3.566,4.13667
2.04015,-0.529717,3.566,4.14236
2.05172,-0.529717,3.566,4.14807
2.06329,-0.529717,3.566,4.15381
2.07487,-0.529717,3.566,4.15957
2.08644,-0.529717,3.566,4.16536
2.07625,-0.524221,3.529,4.12789
2.0877,-0.524221,3.529,4.13366
2.07774,-0.518873,3.493,4.09723
2.04722,-0.508475,3.423,4.02077
2.05833,-0.508475,3.423,4.02644
2.04888,-0.503425,3.389,3.99208
2.00092,-0.489016,3.292,3.88331
2.01161,-0.489016,3.292,3.88883
2.00264,-0.484262,3.26,3.85651
1.97555,-0.475201,3.199,3.78975
1.98593,-0.475201,3.199,3.79517
1.94202,-0.462277,3.112,3.69725
1.91762,-0.454107,3.057,3.63713
1.92754,-0.454107,3.057,3.64237
1.90324,-0.446086,3.003,3.5832
1.87986,-0.438361,2.951,3.52625
1.88944,-0.438361,2.951,3.53137
1.88293,-0.434647,2.926,3.50654
1.87626,-0.430934,2.901,3.48165
1.88567,-0.430934,2.901,3.48673
1.86373,-0.423804,2.853,3.43405
1.87299,-0.423804,2.853,3.43909
1.86642,-0.420238,2.829,3.41517
1.8756,-0.420238,2.829,3.42019
1.86946,-0.416822,2.806,3.39739
1.86317,-0.413405,2.783,3.37452
1.8722,-0.413405,2.783,3.37952
1.88124,-0.413405,2.783,3.38453
1.87533,-0.410137,2.761,3.36276
-2.42321,-0.507539,3.493,4.28142
-2.41187,-0.507539,3.493,4.27502
-2.40053,-0.507539,3.493,4.26863
-2.3892,-0.507539,3.493,4.26227
-2.37786,-0.507539,3.493,4.25592
-2.39091,-0.51277,3.529,4.29339
-2.37946,-0.51277,3.529,4.28703
-2.34385,-0.507539,3.493,4.23701
-2.33251,-0.507539,3.493,4.23075
-2.29791,-0.502454,3.458,4.18218
-2.26355,-0.497368,3.423,4.13376
-2.25243,-0.497368,3.423,4.12768
-2.24132,-0.497368,3.423,4.12163
-2.23021,-0.497368,3.423,4.1156
-2.19706,-0.492428,3.389,4.06877
-2.18606,-0.492428,3.389,4.06284
-2.17506,-0.492428,3.389,4.05693
-2.14299,-0.487633,3.356,4.0116
-2.1321,-0.487633,3.356,4.00579
-2.10098,-0.482983,3.324,3.96186
-2.09019,-0.482983,3.324,3.95615
-2.0794,-0.482983,3.324,3.95046
-2.06861,-0.482983,3.324,3.94479
-2.05782,-0.482983,3.324,3.93915
-2.04703,-0.482983,3.324,3.93352
-2.03625,-0.482983,3.324,3.92792
-2.02546,-0.482983,3.324,3.92234
-2.01467,-0.482983,3.324,3.91678
-2.00388,-0.482983,3.324,3.91124
-1.99309,-0.482983,3.324,3.90572
nan,nan,nan,NaN
nan,nan,nan,NaN
nan,nan,nan,NaN
nan,nan,nan,NaN
nan,nan,nan,NaN
nan,nan,nan,NaN
nan,nan,nan,NaN
nan,nan,nan,NaN
nan,nan,nan,NaN
nan,nan,nan,NaN
nan,nan,nan,NaN
nan,nan,nan,NaN
nan,nan,nan,NaN
nan,nan,nan,NaN
nan,nan,nan,NaN
nan,nan,nan,NaN
nan,nan,nan,NaN
nan,nan,nan,NaN
nan,nan,nan,NaN
nan,nan,nan,NaN
nan,nan,nan,NaN
nan,nan,nan,NaN
nan,nan,nan,NaN
nan,nan,nan,NaN
nan,nan,nan,NaN
nan,nan,nan,NaN
nan,nan,nan,NaN
nan,nan,nan,NaN
nan,nan,nan,NaN
nan,nan,nan,NaN
nan,nan,nan,NaN
nan,nan,nan,NaN
-1.17904,-0.347852,2.394,2.69116
-1.17127,-0.347852,2.394,2.68777
-1.1635,-0.347852,2.394,2.68439
-1.15572,-0.347852,2.394,2.68103
-1.14795,-0.347852,2.394,2.67769
-1.14018,-0.347852,2.394,2.67437
-1.14046,-0.350323,2.411,2.69003
-1.13263,-0.350323,2.411,2.68673
-1.1248,-0.350323,2.411,2.68344
-1.11698,-0.350323,2.411,2.68017
-1.10915,-0.350323,2.411,2.67691
-1.10133,-0.350323,2.411,2.67368
-1.0935,-0.350323,2.411,2.67047
-1.08568,-0.350323,2.411,2.66727
-1.07785,-0.350323,2.411,2.6641
-1.06248,-0.347852,2.394,2.64218
-1.05471,-0.347852,2.394,2.63906
-1.03951,-0.345382,2.377,2.61725
-1.03179,-0.345382,2.377,2.61419
-1.02408,-0.345382,2.377,2.61116
-1.01636,-0.345382,2.377,2.60814
-1.00865,-0.345382,2.377,2.60515
-1.00093,-0.345382,2.377,2.60217
-0.993215,-0.345382,2.377,2.59921
-0.9855,-0.345382,2.377,2.59627
-0.977785,-0.345382,2.377,2.59335
-0.970069,-0.345382,2.377,2.59045
-0.962354,-0.345382,2.377,2.58757
-0.954639,-0.345382,2.377,2.58472
-0.946924,-0.345382,2.377,2.58188
-0.939209,-0.345382,2.377,2.57906
-0.931494,-0.345382,2.377,2.57626
-0.923778,-0.345382,2.377,2.57348
-0.916063,-0.345382,2.377,2.57072
-0.908348,-0.345382,2.377,2.56798
-0.900633,-0.345382,2.377,2.56526
-0.892918,-0.345382,2.377,2.56256
-0.885203,-0.345382,2.377,2.55988
-0.877488,-0.345382,2.377,2.55723
-0.869772,-0.345382,2.377,2.55459
-0.862057,-0.345382,2.377,2.55197
-0.854342,-0.345382,2.377,2.54938
-0.846627,-0.345382,2.377,2.5468
-0.838912,-0.345382,2.377,2.54425
-0.831197,-0.345382,2.377,2.54171
-0.823481,-0.345382,2.377,2.5392
-0.815766,-0.345382,2.377,2.53671
-0.808051,-0.345382,2.377,2.53424
-0.800336,-0.345382,2.377,2.53179
-0.792621,-0.345382,2.377,2.52936
-0.784906,-0.345382,2.377,2.52695
-0.777191,-0.345382,2.377,2.52457
-0.769475,-0.345382,2.377,2.5222
-0.76176,-0.345382,2.377,2.51986
-0.754045,-0.345382,2.377,2.51754
-0.74633,-0.345382,2.377,2.51524
-0.738615,-0.345382,2.377,2.51296
-0.7309,-0.345382,2.377,2.5107
-0.723184,-0.345382,2.377,2.50847
-0.715469,-0.345382,2.377,2.50626
-0.712816,-0.347852,2.394,2.52197
-0.705046,-0.347852,2.394,2.51979
-0.697275,-0.347852,2.394,2.51762
-0.689505,-0.347852,2.394,2.51548
-0.686576,-0.350323,2.411,2.53121
-0.67875,-0.350323,2.411,2.5291
-0.670925,-0.350323,2.411,2.52701
-0.667775,-0.352793,2.428,2.54275
-0.659894,-0.352793,2.428,2.54069
-0.652013,-0.352793,2.428,2.53866
-0.644133,-0.352793,2.428,2.53664
-0.636252,-0.352793,2.428,2.53465
-0.628371,-0.352793,2.428,2.53269
-0.620491,-0.352793,2.428,2.53074
-0.616899,-0.355263,2.445,2.54653
-0.608963,-0.355263,2.445,2.54462
-0.601027,-0.355263,2.445,2.54273
-0.593092,-0.355263,2.445,2.54086
-0.585156,-0.355263,2.445,2.53902
-0.57722,-0.355263,2.445,2.53721
-0.569284,-0.355263,2.445,2.53541
-0.561348,-0.355263,2.445,2.53364
-0.553412,-0.355263,2.445,2.5319
-0.549492,-0.357878,2.463,2.5488
-0.541498,-0.357878,2.463,2.54709
-0.529605,-0.355263,2.445,2.5268
-0.521669,-0.355263,2.445,2.52515
-0.513733,-0.355263,2.445,2.52352
-0.505797,-0.355263,2.445,2.52192
-0.497861,-0.355263,2.445,2.52034
-0.489925,-0.355263,2.445,2.51878
-0.481989,-0.355263,2.445,2.51725
-0.474054,-0.355263,2.445,2.51574
-0.466118,-0.355263,2.445,2.51426
-0.458182,-0.355263,2.445,2.5128
-0.450246,-0.355263,2.445,2.51137
-0.44231,-0.355263,2.445,2.50996
-0.434374,-0.355263,2.445,2.50857
-0.426438,-0.355263,2.445,2.50721
-0.418503,-0.355263,2.445,2.50587
-0.410567,-0.355263,2.445,2.50456
-0.402631,-0.355263,2.445,2.50327
-0.394695,-0.355263,2.445,2.502
-0.386759,-0.355263,2.445,2.50076
-0.378823,-0.355263,2.445,2.49955
-0.370887,-0.355263,2.445,2.49836
-0.362952,-0.355263,2.445,2.49719
-0.355016,-0.355263,2.445,2.49605
-0.34708,-0.355263,2.445,2.49494
-0.339144,-0.355263,2.445,2.49384
-0.331208,-0.355263,2.445,2.49278
-0.323272,-0.355263,2.445,2.49173
-0.315336,-0.355263,2.445,2.49072
-0.3074,-0.355263,2.445,2.48973
-0.299465,-0.355263,2.445,2.48876
-0.291529,-0.355263,2.445,2.48782
-0.283593,-0.355263,2.445,2.4869
-0.275657,-0.355263,2.445,2.48601
-0.267721,-0.355263,2.445,2.48514
-0.259785,-0.355263,2.445,2.4843
-0.251849,-0.355263,2.445,2.48348
-0.243914,-0.355263,2.445,2.48269
-0.235978,-0.355263,2.445,2.48192
-0.228042,-0.355263,2.445,2.48118
-0.220106,-0.355263,2.445,2.48046
-0.21217,-0.355263,2.445,2.47977
-0.204234,-0.355263,2.445,2.4791
-0.196298,-0.355263,2.445,2.47846
-0.188363,-0.355263,2.445,2.47785
-0.180427,-0.355263,2.445,2.47725
-0.173761,-0.357878,2.463,2.49492
-0.165766,-0.357878,2.463,2.49438
-0.157772,-0.357878,2.463,2.49386
-0.149778,-0.357878,2.463,2.49337
-0.141784,-0.357878,2.463,2.4929
-0.134767,-0.360494,2.481,2.51067
-0.126714,-0.360494,2.481,2.51025
-0.118662,-0.360494,2.481,2.50986
-0.110609,-0.360494,2.481,2.50949
-0.102556,-0.360494,2.481,2.50915
-0.0945035,-0.360494,2.481,2.50883
-0.0864508,-0.360494,2.481,2.50854
-0.078398,-0.360494,2.481,2.50828
-0.0703453,-0.360494,2.481,2.50804
-0.0622926,-0.360494,2.481,2.50783
-0.0542399,-0.360494,2.481,2.50764
-0.0461872,-0.360494,2.481,2.50748
-0.0381345,-0.360494,2.481,2.50734
-0.0300818,-0.360494,2.481,2.50723
-0.0220291,-0.360494,2.481,2.50715
-0.0139764,-0.360494,2.481,2.50709
-0.00592366,-0.360494,2.481,2.50706
0.0021136,-0.357878,2.463,2.48887
0.0101079,-0.357878,2.463,2.48888
0.0181022,-0.357878,2.463,2.48893
0.0260965,-0.357878,2.463,2.489
0.0340907,-0.357878,2.463,2.4891
0.042085,-0.357878,2.463,2.48922
0.0500793,-0.357878,2.463,2.48937
0.0580736,-0.357878,2.463,2.48954
0.0660679,-0.357878,2.463,2.48974
0.0740622,-0.357878,2.463,2.48997
0.0820565,-0.357878,2.463,2.49022
0.0907089,-0.360494,2.481,2.50869
0.0987616,-0.360494,2.481,2.509
0.106039,-0.357878,2.463,2.49112
0.114034,-0.357878,2.463,2.49148
0.122028,-0.357878,2.463,2.49185
0.130972,-0.360494,2.481,2.51047
0.139025,-0.360494,2.481,2.51091
0.147078,-0.360494,2.481,2.51136
0.155131,-0.360494,2.481,2.51185
0.163183,-0.360494,2.481,2.51236
0.171236,-0.360494,2.481,2.51289
0.180589,-0.363109,2.499,2.53169
0.188701,-0.363109,2.499,2.53228
0.196812,-0.363109,2.499,2.5329
0.204923,-0.363109,2.499,2.53354
0.213034,-0.363109,2.499,2.53421
0.221145,-0.363109,2.499,2.53491
0.229256,-0.363109,2.499,2.53563
0.237367,-0.363109,2.499,2.53637
0.245479,-0.363109,2.499,2.53715
0.25359,-0.363109,2.499,2.53794
0.263586,-0.365725,2.517,2.55705
0.271755,-0.365725,2.517,2.55791
0.282038,-0.368485,2.536,2.5781
0.288094,-0.365725,2.517,2.5597
0.296264,-0.365725,2.517,2.56063
0.304434,-0.365725,2.517,2.56159
0.312603,-0.365725,2.517,2.56257
0.320773,-0.365725,2.517,2.56358
0.328942,-0.365725,2.517,2.56461
0.337112,-0.365725,2.517,2.56568
0.347888,-0.368485,2.536,2.58614
0.356119,-0.368485,2.536,2.58726
0.36435,-0.368485,2.536,2.5884
0.372581,-0.368485,2.536,2.58957
0.383666,-0.371246,2.555,2.61018
0.391959,-0.371246,2.555,2.61141
0.400252,-0.371246,2.555,2.61267
0.408544,-0.371246,2.555,2.61395
0.416837,-0.371246,2.555,2.61526
0.42513,-0.371246,2.555,2.6166
0.433423,-0.371246,2.555,2.61796
0.441716,-0.371246,2.555,2.61934
0.450009,-0.371246,2.555,2.62075
0.454894,-0.368485,2.536,2.60269
0.463125,-0.368485,2.536,2.60414
0.471356,-0.368485,2.536,2.60562
0.475994,-0.365725,2.517,2.58759
0.480701,-0.363109,2.499,2.57059
0.488812,-0.363109,2.499,2.57212
0.496924,-0.363109,2.499,2.57367
0.508672,-0.365725,2.517,2.5938
0.516842,-0.365725,2.517,2.59541
0.521257,-0.363109,2.499,2.57848
0.529368,-0.363109,2.499,2.58013
0.541351,-0.365725,2.517,2.6004
0.54559,-0.363109,2.499,2.58351
0.553702,-0.363109,2.499,2.58523
0.565859,-0.365725,2.517,2.60562
0.574029,-0.365725,2.517,2.6074
0.582199,-0.365725,2.517,2.60921
0.590368,-0.365725,2.517,2.61105
0.598538,-0.365725,2.517,2.61291
0.606707,-0.365725,2.517,2.61479
0.619518,-0.368485,2.536,2.63645
0.627749,-0.368485,2.536,2.6384
0.635981,-0.368485,2.536,2.64037
0.649038,-0.371246,2.555,2.66216
0.657331,-0.371246,2.555,2.66419
0.665624,-0.371246,2.555,2.66625
0.673917,-0.371246,2.555,2.66834
0.68221,-0.371246,2.555,2.67044
0.690503,-0.371246,2.555,2.67257
0.698796,-0.371246,2.555,2.67473
0.707089,-0.371246,2.555,2.67691
0.715382,-0.371246,2.555,2.67911
0.718293,-0.368485,2.536,2.66139
0.726524,-0.368485,2.536,2.66363
0.734755,-0.368485,2.536,2.66588
0.73742,-0.365725,2.517,2.64818
0.74559,-0.365725,2.517,2.65046
0.753759,-0.365725,2.517,2.65277
0.761929,-0.365725,2.517,2.6551
0.764591,-0.363109,2.499,2.63846
0.772702,-0.363109,2.499,2.64082
0.780813,-0.363109,2.499,2.6432
0.783242,-0.360494,2.481,2.62655
0.791295,-0.360494,2.481,2.62897
0.799347,-0.360494,2.481,2.6314
0.8074,-0.360494,2.481,2.63386
0.815453,-0.360494,2.481,2.63634
0.823505,-0.360494,2.481,2.63884
0.831558,-0.360494,2.481,2.64136
0.833519,-0.357878,2.463,2.62473
0.841514,-0.357878,2.463,2.62728
0.849508,-0.357878,2.463,2.62985
0.851236,-0.355263,2.445,2.6132
0.859171,-0.355263,2.445,2.6158
0.867107,-0.355263,2.445,2.61842
0.875043,-0.355263,2.445,2.62106
0.882979,-0.355263,2.445,2.62372
0.890915,-0.355263,2.445,2.6264
0.898851,-0.355263,2.445,2.6291
0.900482,-0.352793,2.428,2.61353
0.908362,-0.352793,2.428,2.61625
0.916243,-0.352793,2.428,2.619
0.924124,-0.352793,2.428,2.62177
0.932004,-0.352793,2.428,2.62455
0.939885,-0.352793,2.428,2.62736
0.947766,-0.352793,2.428,2.63019
0.955646,-0.352793,2.428,2.63304
0.963527,-0.352793,2.428,2.63591
0.971408,-0.352793,2.428,2.6388
0.979289,-0.352793,2.428,2.64171
0.987169,-0.352793,2.428,2.64465
0.99505,-0.352793,2.428,2.6476
1.00293,-0.352793,2.428,2.65057
nan,nan,nan,NaN
nan,nan,nan,NaN
nan,nan,nan,NaN
nan,nan,nan,NaN
nan,nan,nan,NaN
nan,nan,nan,NaN
nan,nan,nan,NaN
nan,nan,nan,NaN
nan,nan,nan,NaN
nan,nan,nan,NaN
1.39658,-0.452179,3.112,3.44085
1.40668,-0.452179,3.112,3.44496
1.41678,-0.452179,3.112,3.4491
1.42688,-0.452179,3.112,3.45326
1.45037,-0.456393,3.141,3.48966
1.46057,-0.456393,3.141,3.49391
1.47076,-0.456393,3.141,3.49819
1.48096,-0.456393,3.141,3.50249
1.49115,-0.456393,3.141,3.50681
1.51521,-0.460607,3.17,3.54357
1.5255,-0.460607,3.17,3.54799
1.53579,-0.460607,3.17,3.55242
1.54608,-0.460607,3.17,3.55688
1.55636,-0.460607,3.17,3.56137
1.56665,-0.460607,3.17,3.56587
1.57694,-0.460607,3.17,3.57041
1.58723,-0.460607,3.17,3.57496
1.59752,-0.460607,3.17,3.57954
1.60781,-0.460607,3.17,3.58415
1.6329,-0.46482,3.199,3.62161
1.65921,-0.469325,3.23,3.66144
1.6852,-0.473684,3.26,3.70025
1.69578,-0.473684,3.26,3.70508
1.72311,-0.478334,3.292,3.74636
1.75065,-0.482983,3.324,3.78775
1.76144,-0.482983,3.324,3.79275
1.78929,-0.487633,3.356,3.83433
1.83612,-0.497368,3.423,3.91608
1.84723,-0.497368,3.423,3.9213
1.87734,-0.502454,3.458,3.96669
1.90768,-0.507539,3.493,4.01222
1.9388,-0.51277,3.529,4.05903
1.95025,-0.51277,3.529,4.06451
1.96171,-0.51277,3.529,4.07002
1.99385,-0.518146,3.566,4.11828
2.00542,-0.518146,3.566,4.1239
2.017,-0.518146,3.566,4.12954
2.02857,-0.518146,3.566,4.13521
2.04015,-0.518146,3.566,4.1409
2.05172,-0.518146,3.566,4.14661
2.06329,-0.518146,3.566,4.15235
2.07487,-0.518146,3.566,4.15811
2.08644,-0.518146,3.566,4.1639
2.07625,-0.51277,3.529,4.12645
2.0877,-0.51277,3.529,4.13222
2.07774,-0.507539,3.493,4.09581
2.04722,-0.497368,3.423,4.01938
2.05833,-0.497368,3.423,4.02505
2.04888,-0.492428,3.389,3.9907
2.00092,-0.478334,3.292,3.88198
2.01161,-0.478334,3.292,3.8875
2.00264,-0.473684,3.26,3.85519
1.97555,-0.46482,3.199,3.78846
1.98593,-0.46482,3.199,3.79389
1.94202,-0.452179,3.112,3.69601
1.91762,-0.444188,3.057,3.63591
1.92754,-0.444188,3.057,3.64115
1.90324,-0.436341,3.003,3.582
1.87986,-0.428786,2.951,3.52507
1.88944,-0.428786,2.951,3.53019
1.88293,-0.425153,2.926,3.50538
1.87626,-0.421521,2.901,3.48049
1.88567,-0.421521,2.901,3.48558
1.87941,-0.418033,2.877,3.4618
1.87299,-0.414546,2.853,3.43796
1.86642,-0.411059,2.829,3.41405
1.8756,-0.411059,2.829,3.41908
1.86946,-0.407717,2.806,3.39629
1.86317,-0.404375,2.783,3.37343
1.8722,-0.404375,2.783,3.37843
1.88124,-0.404375,2.783,3.38344
1.86038,-0.397982,2.739,3.3349
-2.39893,-0.491233,3.458,4.23721
-2.3877,-0.491233,3.458,4.23086
-2.37648,-0.491233,3.458,4.22454
-2.36526,-0.491233,3.458,4.21824
-2.35403,-0.491233,3.458,4.21195
-2.34281,-0.491233,3.458,4.20569
-2.33158,-0.491233,3.458,4.19945
-2.32036,-0.491233,3.458,4.19323
-2.30914,-0.491233,3.458,4.18703
-2.27466,-0.486261,3.423,4.13853
-2.26355,-0.486261,3.423,4.13243
-2.25243,-0.486261,3.423,4.12636
-2.21906,-0.481431,3.389,4.07938
-2.20806,-0.481431,3.389,4.07341
-2.19706,-0.481431,3.389,4.06745
-2.18606,-0.481431,3.389,4.06152
-2.15388,-0.476743,3.356,4.01612
-2.12256,-0.472197,3.324,3.97205
-2.11177,-0.472197,3.324,3.9663
-2.10098,-0.472197,3.324,3.96056
-2.09019,-0.472197,3.324,3.95485
-2.09942,-0.476743,3.356,3.98718
-2.08853,-0.476743,3.356,3.98145
-2.05782,-0.472197,3.324,3.93784
-2.04703,-0.472197,3.324,3.93221
-2.03625,-0.472197,3.324,3.92661
-2.02546,-0.472197,3.324,3.92102
-2.01467,-0.472197,3.324,3.91546
-2.02317,-0.476743,3.356,3.94756
-2.01228,-0.476743,3.356,3.94199
-2.02106,-0.481431,3.389,3.97515
nan,nan,nan,NaN
nan,nan,nan,NaN
nan,nan,nan,NaN
nan,nan,nan,NaN
nan,nan,nan,NaN
nan,nan,nan,NaN
nan,nan,nan,NaN
nan,nan,nan,NaN
nan,nan,nan,NaN
nan,nan,nan,NaN
nan,nan,nan,NaN
nan,nan,nan,NaN
nan,nan,nan,NaN
nan,nan,nan,NaN
nan,nan,nan,NaN
nan,nan,nan,NaN
nan,nan,nan,NaN
nan,nan,nan,NaN
nan,nan,nan,NaN
nan,nan,nan,NaN
nan,nan,nan,NaN
nan,nan,nan,NaN
nan,nan,nan,NaN
nan,nan,nan,NaN
nan,nan,nan,NaN
nan,nan,nan,NaN
nan,nan,nan,NaN
nan,nan,nan,NaN
nan,nan,nan,NaN
nan,nan,nan,NaN
nan,nan,nan,NaN
-1.18741,-0.342499,2.411,2.70927
-1.17958,-0.342499,2.411,2.70585
-1.17176,-0.342499,2.411,2.70245
-1.16393,-0.342499,2.411,2.69907
-1.15611,-0.342499,2.411,2.6957
-1.14828,-0.342499,2.411,2.69235
-1.14046,-0.342499,2.411,2.68903
-1.13263,-0.342499,2.411,2.68572
-1.1248,-0.342499,2.411,2.68243
-1.11698,-0.342499,2.411,2.67915
-1.10915,-0.342499,2.411,2.6759
-1.10133,-0.342499,2.411,2.67267
-1.0935,-0.342499,2.411,2.66945
-1.08568,-0.342499,2.411,2.66626
-1.07785,-0.342499,2.411,2.66308
-1.06248,-0.340084,2.394,2.64117
-1.05471,-0.340084,2.394,2.63805
-1.03951,-0.337669,2.377,2.61624
-1.03179,-0.337669,2.377,2.61319
-1.02408,-0.337669,2.377,2.61015
-1.01636,-0.337669,2.377,2.60713
-1.00865,-0.337669,2.377,2.60413
-1.00093,-0.337669,2.377,2.60116
-0.993215,-0.337669,2.377,2.5982
-0.9855,-0.337669,2.377,2.59526
-0.977785,-0.337669,2.377,2.59234
-0.970069,-0.337669,2.377,2.58944
-0.962354,-0.337669,2.377,2.58656
-0.954639,-0.337669,2.377,2.5837
-0.946924,-0.337669,2.377,2.58086
-0.939209,-0.337669,2.377,2.57803
-0.931494,-0.337669,2.377,2.57523
-0.923778,-0.337669,2.377,2.57245
-0.916063,-0.337669,2.377,2.56969
-0.908348,-0.337669,2.377,2.56695
-0.900633,-0.337669,2.377,2.56423
-0.892918,-0.337669,2.377,2.56153
-0.885203,-0.337669,2.377,2.55885
-0.877488,-0.337669,2.377,2.5562
-0.869772,-0.337669,2.377,2.55356
-0.862057,-0.337669,2.377,2.55094
-0.854342,-0.337669,2.377,2.54834
-0.846627,-0.337669,2.377,2.54577
-0.838912,-0.337669,2.377,2.54321
-0.831197,-0.337669,2.377,2.54068
-0.823481,-0.337669,2.377,2.53816
-0.815766,-0.337669,2.377,2.53567
-0.808051,-0.337669,2.377,2.5332
-0.800336,-0.337669,2.377,2.53075
-0.792621,-0.337669,2.377,2.52832
-0.784906,-0.337669,2.377,2.52591
-0.777191,-0.337669,2.377,2.52352
-0.769475,-0.337669,2.377,2.52116
-0.76176,-0.337669,2.377,2.51881
-0.754045,-0.337669,2.377,2.51649
-0.74633,-0.337669,2.377,2.51419
-0.738615,-0.337669,2.377,2.51191
-0.736127,-0.340084,2.394,2.5276
-0.728357,-0.340084,2.394,2.52535
-0.720586,-0.340084,2.394,2.52312
-0.712816,-0.340084,2.394,2.52091
-0.705046,-0.340084,2.394,2.51873
-0.697275,-0.340084,2.394,2.51656
-0.694401,-0.342499,2.411,2.53228
-0.686576,-0.342499,2.411,2.53014
-0.67875,-0.342499,2.411,2.52803
-0.675655,-0.344914,2.428,2.54375
-0.667775,-0.344914,2.428,2.54167
-0.659894,-0.344914,2.428,2.53961
-0.652013,-0.344914,2.428,2.53757
-0.644133,-0.344914,2.428,2.53556
-0.640707,-0.347329,2.445,2.55131
-0.632771,-0.347329,2.445,2.54933
-0.624835,-0.347329,2.445,2.54737
-0.616899,-0.347329,2.445,2.54543
-0.608963,-0.347329,2.445,2.54352
-0.605452,-0.349886,2.463,2.56034
-0.597458,-0.349886,2.463,2.55847
-0.589464,-0.349886,2.463,2.55661
-0.581469,-0.349886,2.463,2.55478
-0.573475,-0.349886,2.463,2.55297
-0.565481,-0.349886,2.463,2.55119
-0.557486,-0.349886,2.463,2.54943
-0.549492,-0.349886,2.463,2.54769
-0.541498,-0.349886,2.463,2.54598
-0.533504,-0.349886,2.463,2.54429
-0.525509,-0.349886,2.463,2.54263
-0.517515,-0.349886,2.463,2.54099
-0.505797,-0.347329,2.445,2.52081
-0.497861,-0.347329,2.445,2.51923
-0.489925,-0.347329,2.445,2.51768
-0.481989,-0.347329,2.445,2.51614
-0.474054,-0.347329,2.445,2.51464
-0.466118,-0.347329,2.445,2.51315
-0.458182,-0.347329,2.445,2.51169
-0.450246,-0.347329,2.445,2.51026
-0.44231,-0.347329,2.445,2.50884
-0.434374,-0.347329,2.445,2.50746
-0.426438,-0.347329,2.445,2.5061
-0.418503,-0.347329,2.445,2.50476
-0.410567,-0.347329,2.445,2.50344
-0.402631,-0.347329,2.445,2.50215
-0.394695,-0.347329,2.445,2.50089
-0.386759,-0.347329,2.445,2.49965
-0.378823,-0.347329,2.445,2.49843
-0.370887,-0.347329,2.445,2.49724
-0.362952,-0.347329,2.445,2.49608
-0.355016,-0.347329,2.445,2.49493
-0.34708,-0.347329,2.445,2.49382
-0.339144,-0.347329,2.445,2.49273
-0.331208,-0.347329,2.445,2.49166
-0.323272,-0.347329,2.445,2.49062
-0.315336,-0.347329,2.445,2.4896
-0.3074,-0.347329,2.445,2.48861
-0.299465,-0.347329,2.445,2.48764
-0.291529,-0.347329,2.445,2.4867
-0.283593,-0.347329,2.445,2.48578
-0.275657,-0.347329,2.445,2.48488
-0.267721,-0.347329,2.445,2.48402
-0.259785,-0.347329,2.445,2.48317
-0.251849,-0.347329,2.445,2.48236
-0.243914,-0.347329,2.445,2.48156
-0.235978,-0.347329,2.445,2.4808
-0.228042,-0.347329,2.445,2.48005
-0.220106,-0.347329,2.445,2.47934
-0.21217,-0.347329,2.445,2.47864
-0.204234,-0.347329,2.445,2.47798
-0.196298,-0.347329,2.445,2.47734
-0.188363,-0.347329,2.445,2.47672
-0.180427,-0.347329,2.445,2.47613
-0.173761,-0.349886,2.463,2.49379
-0.165766,-0.349886,2.463,2.49324
-0.157772,-0.349886,2.463,2.49273
-0.149778,-0.349886,2.463,2.49223
-0.141784,-0.349886,2.463,2.49176
-0.134767,-0.352443,2.481,2.50953
-0.126714,-0.352443,2.481,2.50911
-0.118662,-0.352443,2.481,2.50872
-0.110609,-0.352443,2.481,2.50835
-0.102556,-0.352443,2.481,2.50801
-0.0945035,-0.352443,2.481,2.50769
-0.0864508,-0.352443,2.481,2.5074
-0.078398,-0.352443,2.481,2.50713
-0.0703453,-0.352443,2.481,2.5069
-0.0622926,-0.352443,2.481,2.50668
-0.0542399,-0.352443,2.481,2.5065
-0.0461872,-0.352443,2.481,2.50633
-0.0381345,-0.352443,2.481,2.5062
-0.0300818,-0.352443,2.481,2.50609
-0.0220291,-0.352443,2.481,2.50601
-0.0139764,-0.352443,2.481,2.50595
-0.00592366,-0.352443,2.481,2.50592
0.00212905,-0.352443,2.481,2.50591
0.0101818,-0.352443,2.481,2.50593
0.0182345,-0.352443,2.481,2.50598
0.0262872,-0.352443,2.481,2.50605
0.0343399,-0.352443,2.481,2.50614
0.0423926,-0.352443,2.481,2.50627
0.0504453,-0.352443,2.481,2.50642
0.058498,-0.352443,2.481,2.50659
0.0665507,-0.352443,2.481,2.50679
0.0746034,-0.352443,2.481,2.50702
0.0826561,-0.352443,2.481,2.50727
0.0907089,-0.352443,2.481,2.50755
0.0987616,-0.352443,2.481,2.50785
0.107589,-0.355,2.499,2.52638
0.1157,-0.355,2.499,2.52674
0.12292,-0.352443,2.481,2.50892
0.130972,-0.352443,2.481,2.50933
0.139025,-0.352443,2.481,2.50976
0.147078,-0.352443,2.481,2.51022
0.156256,-0.355,2.499,2.52892
0.164367,-0.355,2.499,2.52944
0.172478,-0.355,2.499,2.52998
0.180589,-0.355,2.499,2.53054
0.188701,-0.355,2.499,2.53113
0.198229,-0.357557,2.517,2.54999
0.206399,-0.357557,2.517,2.55063
0.214568,-0.357557,2.517,2.55131
0.222738,-0.357557,2.517,2.55201
0.230908,-0.357557,2.517,2.55273
0.239077,-0.357557,2.517,2.55349
0.247247,-0.357557,2.517,2.55426
0.255416,-0.357557,2.517,2.55507
0.263586,-0.357557,2.517,2.5559
0.273807,-0.360256,2.536,2.57605
0.282038,-0.360256,2.536,2.57694
0.288094,-0.357557,2.517,2.55854
0.296264,-0.357557,2.517,2.55947
0.306732,-0.360256,2.536,2.57976
0.314963,-0.360256,2.536,2.58075
0.323194,-0.360256,2.536,2.58177
0.331425,-0.360256,2.536,2.58281
0.339657,-0.360256,2.536,2.58388
0.347888,-0.360256,2.536,2.58498
0.356119,-0.360256,2.536,2.5861
0.36435,-0.360256,2.536,2.58724
0.372581,-0.360256,2.536,2.58842
0.383666,-0.362956,2.555,2.60902
0.391959,-0.362956,2.555,2.61025
0.400252,-0.362956,2.555,2.61151
0.408544,-0.362956,2.555,2.61279
0.416837,-0.362956,2.555,2.6141
0.42513,-0.362956,2.555,2.61543
0.4302,-0.360256,2.536,2.59734
0.438431,-0.360256,2.536,2.59871
0.446662,-0.360256,2.536,2.60011
0.454894,-0.360256,2.536,2.60154
0.463125,-0.360256,2.536,2.60299
0.471356,-0.360256,2.536,2.60447
0.475994,-0.357557,2.517,2.58645
0.484164,-0.357557,2.517,2.58796
0.492333,-0.357557,2.517,2.5895
0.500503,-0.357557,2.517,2.59107
0.508672,-0.357557,2.517,2.59266
0.516842,-0.357557,2.517,2.59427
0.521257,-0.355,2.499,2.57735
0.529368,-0.355,2.499,2.579
0.541351,-0.357557,2.517,2.59927
0.54559,-0.355,2.499,2.58238
0.553702,-0.355,2.499,2.58411
0.565859,-0.357557,2.517,2.60448
0.574029,-0.357557,2.517,2.60627
0.582199,-0.357557,2.517,2.60808
0.590368,-0.357557,2.517,2.60992
0.603056,-0.360256,2.536,2.63149
0.611287,-0.360256,2.536,2.63339
0.619518,-0.360256,2.536,2.63531
0.627749,-0.360256,2.536,2.63726
0.635981,-0.360256,2.536,2.63923
0.644212,-0.360256,2.536,2.64123
0.657331,-0.362956,2.555,2.66305
0.665624,-0.362956,2.555,2.66511
0.673917,-0.362956,2.555,2.66719
0.68221,-0.362956,2.555,2.6693
0.690503,-0.362956,2.555,2.67143
0.698796,-0.362956,2.555,2.67359
0.707089,-0.362956,2.555,2.67577
0.715382,-0.362956,2.555,2.67797
0.718293,-0.360256,2.536,2.66027
0.726524,-0.360256,2.536,2.6625
0.734755,-0.360256,2.536,2.66476
0.73742,-0.357557,2.517,2.64706
0.74559,-0.357557,2.517,2.64935
0.753759,-0.357557,2.517,2.65166
0.761929,-0.357557,2.517,2.65399
0.764591,-0.355,2.499,2.63735
0.772702,-0.355,2.499,2.63971
0.780813,-0.355,2.499,2.6421
0.783242,-0.352443,2.481,2.62546
0.791295,-0.352443,2.481,2.62787
0.799347,-0.352443,2.481,2.63031
0.8074,-0.352443,2.481,2.63277
0.815453,-0.352443,2.481,2.63525
0.823505,-0.352443,2.481,2.63775
0.831558,-0.352443,2.481,2.64028
0.833519,-0.349886,2.463,2.62365
0.841514,-0.349886,2.463,2.6262
0.849508,-0.349886,2.463,2.62877
0.857502,-0.349886,2.463,2.63137
0.859171,-0.347329,2.445,2.61473
0.867107,-0.347329,2.445,2.61735
0.875043,-0.347329,2.445,2.61999
0.882979,-0.347329,2.445,2.62265
0.890915,-0.347329,2.445,2.62534
0.898851,-0.347329,2.445,2.62804
0.906787,-0.347329,2.445,2.63077
0.914722,-0.347329,2.445,2.63351
0.916243,-0.344914,2.428,2.61795
0.924124,-0.344914,2.428,2.62072
0.932004,-0.344914,2.428,2.62351
0.939885,-0.344914,2.428,2.62632
0.947766,-0.344914,2.428,2.62915
0.955646,-0.344914,2.428,2.632
0.963527,-0.344914,2.428,2.63487
0.971408,-0.344914,2.428,2.63776
0.979289,-0.344914,2.428,2.64067
0.987169,-0.344914,2.428,2.64361
0.99505,-0.344914,2.428,2.64656
1.00293,-0.344914,2.428,2.64953
nan,nan,nan,NaN
nan,nan,nan,NaN
nan,nan,nan,NaN
nan,nan,nan,NaN
nan,nan,nan,NaN
nan,nan,nan,NaN
nan,nan,nan,NaN
nan,nan,nan,NaN
nan,nan,nan,NaN
nan,nan,nan,NaN
nan,nan,nan,NaN
nan,nan,nan,NaN
1.41678,-0.442081,3.112,3.44779
1.42688,-0.442081,3.112,3.45195
1.45037,-0.446201,3.141,3.48835
1.46057,-0.446201,3.141,3.4926
1.47076,-0.446201,3.141,3.49687
1.48096,-0.446201,3.141,3.50117
1.49115,-0.446201,3.141,3.5055
1.51521,-0.450321,3.17,3.54225
1.5255,-0.450321,3.17,3.54666
1.53579,-0.450321,3.17,3.5511
1.54608,-0.450321,3.17,3.55556
1.55636,-0.450321,3.17,3.56005
1.56665,-0.450321,3.17,3.56456
1.57694,-0.450321,3.17,3.56909
1.58723,-0.450321,3.17,3.57365
1.59752,-0.450321,3.17,3.57823
1.60781,-0.450321,3.17,3.58284
1.6329,-0.45444,3.199,3.62029
1.65921,-0.458844,3.23,3.66011
1.6852,-0.463106,3.26,3.69891
1.69578,-0.463106,3.26,3.70375
1.72311,-0.467652,3.292,3.74501
1.75065,-0.472197,3.324,3.78639
1.76144,-0.472197,3.324,3.79139
1.78929,-0.476743,3.356,3.83296
1.83612,-0.486261,3.423,3.91468
1.84723,-0.486261,3.423,3.9199
1.87734,-0.491233,3.458,3.96529
1.90768,-0.496205,3.493,4.0108
1.9388,-0.501319,3.529,4.0576
1.95025,-0.501319,3.529,4.06308
1.96171,-0.501319,3.529,4.06859
1.99385,-0.506575,3.566,4.11684
2.00542,-0.506575,3.566,4.12246
2.017,-0.506575,3.566,4.12811
2.02857,-0.506575,3.566,4.13377
2.04015,-0.506575,3.566,4.13946
2.05172,-0.506575,3.566,4.14518
2.06329,-0.506575,3.566,4.15092
2.07487,-0.506575,3.566,4.15669
2.08644,-0.506575,3.566,4.16248
2.07625,-0.501319,3.529,4.12504
2.0877,-0.501319,3.529,4.13082
2.07774,-0.496205,3.493,4.09442
2.04722,-0.486261,3.423,4.01802
2.05833,-0.486261,3.423,4.02369
2.02893,-0.476743,3.356,3.95052
2.00092,-0.467652,3.292,3.88068
2.01161,-0.467652,3.292,3.8862
1.98421,-0.458844,3.23,3.81844
1.97555,-0.45444,3.199,3.7872
1.98593,-0.45444,3.199,3.79263
1.94202,-0.442081,3.112,3.69478
1.91762,-0.434268,3.057,3.63471
1.92754,-0.434268,3.057,3.63995
1.90324,-0.426597,3.003,3.58083
1.87986,-0.41921,2.951,3.52392
1.88944,-0.41921,2.951,3.52904
1.88293,-0.415659,2.926,3.50424
1.87626,-0.412107,2.901,3.47936
1.88567,-0.412107,2.901,3.48445
1.87941,-0.408698,2.877,3.46069
1.87299,-0.405288,2.853,3.43686
1.86642,-0.401879,2.829,3.41296
1.8756,-0.401879,2.829,3.41799
1.86946,-0.398612,2.806,3.3952
1.87857,-0.398612,2.806,3.40023
1.88768,-0.398612,2.806,3.40527
1.88124,-0.395345,2.783,3.38237
1.86038,-0.389094,2.739,3.33385
-2.37465,-0.475154,3.423,4.19305
-2.36354,-0.475154,3.423,4.18677
-2.35243,-0.475154,3.423,4.1805
-2.31806,-0.470434,3.389,4.1328
-2.30706,-0.470434,3.389,4.12664
-2.3191,-0.475154,3.423,4.16184
-2.30799,-0.475154,3.423,4.15566
-2.29688,-0.475154,3.423,4.1495
-2.28577,-0.475154,3.423,4.14336
-2.25206,-0.470434,3.389,4.09615
-2.24106,-0.470434,3.389,4.09011
-2.23006,-0.470434,3.389,4.08409
-2.19745,-0.465853,3.356,4.03839
-2.18656,-0.465853,3.356,4.03247
-2.17567,-0.465853,3.356,4.02657
-2.16478,-0.465853,3.356,4.0207
-2.13335,-0.461412,3.324,3.97656
-2.12256,-0.461412,3.324,3.97078
-2.11177,-0.461412,3.324,3.96503
-2.10098,-0.461412,3.324,3.95929
-2.09019,-0.461412,3.324,3.95358
-2.09942,-0.465853,3.356,3.98589
-2.06861,-0.461412,3.324,3.94221
-2.05782,-0.461412,3.324,3.93656
-2.04703,-0.461412,3.324,3.93093
-2.03625,-0.461412,3.324,3.92532
-2.02546,-0.461412,3.324,3.91974
-2.01467,-0.461412,3.324,3.91417
-2.02317,-0.465853,3.356,3.94626
-2.01228,-0.465853,3.356,3.94069
-2.02106,-0.470434,3.389,3.97383
nan,nan,nan,NaN
nan,nan,nan,NaN
nan,nan,nan,NaN
nan,nan,nan,NaN
nan,nan,nan,NaN
nan,nan,nan,NaN
nan,nan,nan,NaN
nan,nan,nan,NaN
nan,nan,nan,NaN
nan,nan,nan,NaN
nan,nan,nan,NaN
nan,nan,nan,NaN
nan,nan,nan,NaN
nan,nan,nan,NaN
nan,nan,nan,NaN
nan,nan,nan,NaN
nan,nan,nan,NaN
nan,nan,nan,NaN
nan,nan,nan,NaN
nan,nan,nan,NaN
nan,nan,nan,NaN
nan,nan,nan,NaN
nan,nan,nan,NaN
nan,nan,nan,NaN
nan,nan,nan,NaN
nan,nan,nan,NaN
nan,nan,nan,NaN
nan,nan,nan,NaN
nan,nan,nan,NaN
nan,nan,nan,NaN
nan,nan,nan,NaN
-1.19578,-0.337036,2.428,2.72739
-1.1879,-0.337036,2.428,2.72395
-1.18002,-0.337036,2.428,2.72052
-1.17214,-0.337036,2.428,2.71711
-1.16426,-0.337036,2.428,2.71372
-1.15638,-0.337036,2.428,2.71035
-1.14046,-0.334676,2.411,2.68804
-1.13263,-0.334676,2.411,2.68473
-1.1248,-0.334676,2.411,2.68144
-1.11698,-0.334676,2.411,2.67817
-1.10915,-0.334676,2.411,2.67491
-1.10133,-0.334676,2.411,2.67168
-1.0935,-0.334676,2.411,2.66846
-1.08568,-0.334676,2.411,2.66526
-1.07785,-0.334676,2.411,2.66208
-1.06248,-0.332316,2.394,2.64018
-1.05471,-0.332316,2.394,2.63706
-1.04694,-0.332316,2.394,2.63396
-1.03917,-0.332316,2.394,2.63088
-1.0314,-0.332316,2.394,2.62782
-1.02363,-0.332316,2.394,2.62478
-1.01586,-0.332316,2.394,2.62176
-1.00809,-0.332316,2.394,2.61876
-1.00032,-0.332316,2.394,2.61578
-0.992548,-0.332316,2.394,2.61282
-0.977785,-0.329956,2.377,2.59134
-0.970069,-0.329956,2.377,2.58844
-0.962354,-0.329956,2.377,2.58556
-0.954639,-0.329956,2.377,2.5827
-0.946924,-0.329956,2.377,2.57986
-0.939209,-0.329956,2.377,2.57704
-0.931494,-0.329956,2.377,2.57423
-0.923778,-0.329956,2.377,2.57145
-0.916063,-0.329956,2.377,2.56869
-0.908348,-0.329956,2.377,2.56595
-0.900633,-0.329956,2.377,2.56323
-0.892918,-0.329956,2.377,2.56053
-0.885203,-0.329956,2.377,2.55785
-0.877488,-0.329956,2.377,2.55519
-0.869772,-0.329956,2.377,2.55255
-0.862057,-0.329956,2.377,2.54993
-0.854342,-0.329956,2.377,2.54733
-0.846627,-0.329956,2.377,2.54475
-0.838912,-0.329956,2.377,2.5422
-0.831197,-0.329956,2.377,2.53966
-0.823481,-0.329956,2.377,2.53715
-0.815766,-0.329956,2.377,2.53465
-0.808051,-0.329956,2.377,2.53218
-0.800336,-0.329956,2.377,2.52973
-0.792621,-0.329956,2.377,2.5273
-0.784906,-0.329956,2.377,2.52489
-0.777191,-0.329956,2.377,2.5225
-0.769475,-0.329956,2.377,2.52014
-0.76176,-0.329956,2.377,2.51779
-0.754045,-0.329956,2.377,2.51547
-0.74633,-0.329956,2.377,2.51317
-0.738615,-0.329956,2.377,2.51089
-0.736127,-0.332316,2.394,2.52657
-0.728357,-0.332316,2.394,2.52432
-0.720586,-0.332316,2.394,2.52209
-0.712816,-0.332316,2.394,2.51988
-0.705046,-0.332316,2.394,2.51769
-0.697275,-0.332316,2.394,2.51552
-0.694401,-0.334676,2.411,2.53123
-0.686576,-0.334676,2.411,2.52909
-0.67875,-0.334676,2.411,2.52698
-0.675655,-0.337036,2.428,2.54269
-0.667775,-0.337036,2.428,2.54061
-0.659894,-0.337036,2.428,2.53855
-0.652013,-0.337036,2.428,2.53651
-0.644133,-0.337036,2.428,2.5345
-0.640707,-0.339396,2.445,2.55024
-0.632771,-0.339396,2.445,2.54826
-0.624835,-0.339396,2.445,2.5463
-0.616899,-0.339396,2.445,2.54436
-0.608963,-0.339396,2.445,2.54245
-0.605452,-0.341894,2.463,2.55926
-0.597458,-0.341894,2.463,2.55738
-0.589464,-0.341894,2.463,2.55553
-0.581469,-0.341894,2.463,2.5537
-0.573475,-0.341894,2.463,2.55189
-0.565481,-0.341894,2.463,2.5501
-0.557486,-0.341894,2.463,2.54834
-0.549492,-0.341894,2.463,2.54661
-0.541498,-0.341894,2.463,2.54489
-0.533504,-0.341894,2.463,2.5432
-0.525509,-0.341894,2.463,2.54154
-0.517515,-0.341894,2.463,2.5399
-0.509521,-0.341894,2.463,2.53828
-0.501526,-0.341894,2.463,2.53669
-0.493532,-0.341894,2.463,2.53512
-0.485538,-0.341894,2.463,2.53358
-0.477544,-0.341894,2.463,2.53206
-0.469549,-0.341894,2.463,2.53056
-0.461555,-0.341894,2.463,2.52909
-0.453561,-0.341894,2.463,2.52764
-0.445566,-0.341894,2.463,2.52622
-0.437572,-0.341894,2.463,2.52482
-0.429578,-0.341894,2.463,2.52345
-0.421584,-0.341894,2.463,2.5221
-0.413589,-0.341894,2.463,2.52078
-0.402631,-0.339396,2.445,2.50107
-0.394695,-0.339396,2.445,2.4998
-0.386759,-0.339396,2.445,2.49856
-0.378823,-0.339396,2.445,2.49734
-0.370887,-0.339396,2.445,2.49615
-0.362952,-0.339396,2.445,2.49498
-0.355016,-0.339396,2.445,2.49384
-0.34708,-0.339396,2.445,2.49273
-0.339144,-0.339396,2.445,2.49163
-0.331208,-0.339396,2.445,2.49057
-0.323272,-0.339396,2.445,2.48952
-0.315336,-0.339396,2.445,2.4885
-0.3074,-0.339396,2.445,2.48751
-0.299465,-0.339396,2.445,2.48654
-0.291529,-0.339396,2.445,2.4856
-0.283593,-0.339396,2.445,2.48468
-0.275657,-0.339396,2.445,2.48379
-0.267721,-0.339396,2.445,2.48292
-0.259785,-0.339396,2.445,2.48208
-0.251849,-0.339396,2.445,2.48126
-0.243914,-0.339396,2.445,2.48047
-0.235978,-0.339396,2.445,2.4797
-0.228042,-0.339396,2.445,2.47896
-0.220106,-0.339396,2.445,2.47824
-0.21217,-0.339396,2.445,2.47755
-0.204234,-0.339396,2.445,2.47688
-0.196298,-0.339396,2.445,2.47624
-0.188363,-0.339396,2.445,2.47562
-0.180427,-0.339396,2.445,2.47503
-0.173761,-0.341894,2.463,2.49268
-0.165766,-0.341894,2.463,2.49214
-0.157772,-0.341894,2.463,2.49162
-0.149778,-0.341894,2.463,2.49112
-0.141784,-0.341894,2.463,2.49066
-0.134767,-0.344393,2.481,2.50841
-0.126714,-0.344393,2.481,2.50799
-0.118662,-0.344393,2.481,2.5076
-0.110609,-0.344393,2.481,2.50723
-0.102556,-0.344393,2.481,2.50689
-0.0951891,-0.346891,2.499,2.52476
-0.087078,-0.346891,2.499,2.52446
-0.0789668,-0.346891,2.499,2.5242
-0.0708557,-0.346891,2.499,2.52396
-0.0627446,-0.346891,2.499,2.52374
-0.0546334,-0.346891,2.499,2.52355
-0.0465223,-0.346891,2.499,2.52339
-0.0384112,-0.346891,2.499,2.52325
-0.0303,-0.346891,2.499,2.52314
-0.0221889,-0.346891,2.499,2.52306
-0.0140778,-0.346891,2.499,2.523
-0.00596664,-0.346891,2.499,2.52297
0.00214449,-0.346891,2.499,2.52296
0.0102556,-0.346891,2.499,2.52298
0.0183668,-0.346891,2.499,2.52303
0.0264779,-0.346891,2.499,2.5231
0.034589,-0.346891,2.499,2.5232
0.0427002,-0.346891,2.499,2.52332
0.0508113,-0.346891,2.499,2.52347
0.0589224,-0.346891,2.499,2.52365
0.0665507,-0.344393,2.481,2.50567
0.0746034,-0.344393,2.481,2.5059
0.0832558,-0.346891,2.499,2.52433
0.091367,-0.346891,2.499,2.52462
0.0994781,-0.346891,2.499,2.52492
0.107589,-0.346891,2.499,2.52525
0.1157,-0.346891,2.499,2.52561
0.12292,-0.344393,2.481,2.5078
0.130972,-0.344393,2.481,2.50821
0.140034,-0.346891,2.499,2.52684
0.148145,-0.346891,2.499,2.52731
0.156256,-0.346891,2.499,2.5278
0.164367,-0.346891,2.499,2.52831
0.172478,-0.346891,2.499,2.52885
0.180589,-0.346891,2.499,2.52942
0.19006,-0.34939,2.517,2.54823
0.198229,-0.34939,2.517,2.54885
0.206399,-0.34939,2.517,2.5495
0.214568,-0.34939,2.517,2.55018
0.222738,-0.34939,2.517,2.55088
0.230908,-0.34939,2.517,2.5516
0.239077,-0.34939,2.517,2.55236
0.249113,-0.352028,2.536,2.57241
0.257344,-0.352028,2.536,2.57322
0.265575,-0.352028,2.536,2.57405
0.273807,-0.352028,2.536,2.57492
0.282038,-0.352028,2.536,2.5758
0.290269,-0.352028,2.536,2.57672
0.2985,-0.352028,2.536,2.57766
0.306732,-0.352028,2.536,2.57862
0.314963,-0.352028,2.536,2.57962
0.323194,-0.352028,2.536,2.58063
0.331425,-0.352028,2.536,2.58168
0.339657,-0.352028,2.536,2.58275
0.347888,-0.352028,2.536,2.58384
0.356119,-0.352028,2.536,2.58496
0.36435,-0.352028,2.536,2.58611
0.372581,-0.352028,2.536,2.58728
0.383666,-0.354665,2.555,2.60788
0.391959,-0.354665,2.555,2.60911
0.400252,-0.354665,2.555,2.61037
0.408544,-0.354665,2.555,2.61165
0.416837,-0.354665,2.555,2.61296
0.42513,-0.354665,2.555,2.6143
0.4302,-0.352028,2.536,2.59621
0.438431,-0.352028,2.536,2.59758
0.446662,-0.352028,2.536,2.59899
0.454894,-0.352028,2.536,2.60041
0.463125,-0.352028,2.536,2.60187
0.471356,-0.352028,2.536,2.60334
0.475994,-0.34939,2.517,2.58533
0.484164,-0.34939,2.517,2.58685
0.492333,-0.34939,2.517,2.58839
0.500503,-0.34939,2.517,2.58995
0.508672,-0.34939,2.517,2.59155
0.516842,-0.34939,2.517,2.59316
0.521257,-0.346891,2.499,2.57625
0.529368,-0.346891,2.499,2.5779
0.541351,-0.34939,2.517,2.59816
0.54559,-0.346891,2.499,2.58128
0.553702,-0.346891,2.499,2.58301
0.565859,-0.34939,2.517,2.60337
0.574029,-0.34939,2.517,2.60516
0.582199,-0.34939,2.517,2.60698
0.590368,-0.34939,2.517,2.60881
0.603056,-0.352028,2.536,2.63038
0.611287,-0.352028,2.536,2.63228
0.619518,-0.352028,2.536,2.6342
0.627749,-0.352028,2.536,2.63615
0.635981,-0.352028,2.536,2.63812
0.644212,-0.352028,2.536,2.64012
0.657331,-0.354665,2.555,2.66193
0.665624,-0.354665,2.555,2.66399
0.673917,-0.354665,2.555,2.66608
0.68221,-0.354665,2.555,2.66819
0.690503,-0.354665,2.555,2.67032
0.698796,-0.354665,2.555,2.67248
0.70183,-0.352028,2.536,2.65477
0.710062,-0.352028,2.536,2.65695
0.718293,-0.352028,2.536,2.65917
0.721081,-0.34939,2.517,2.64146
0.729251,-0.34939,2.517,2.6437
0.73742,-0.34939,2.517,2.64597
0.74559,-0.34939,2.517,2.64826
0.753759,-0.34939,2.517,2.65057
0.75648,-0.346891,2.499,2.63393
0.764591,-0.346891,2.499,2.63627
0.772702,-0.346891,2.499,2.63864
0.780813,-0.346891,2.499,2.64102
0.783242,-0.344393,2.481,2.62439
0.791295,-0.344393,2.481,2.62681
0.799347,-0.344393,2.481,2.62924
0.8074,-0.344393,2.481,2.6317
0.815453,-0.344393,2.481,2.63419
0.823505,-0.344393,2.481,2.63669
0.825525,-0.341894,2.463,2.62007
0.833519,-0.341894,2.463,2.6226
0.841514,-0.341894,2.463,2.62515
0.849508,-0.341894,2.463,2.62772
0.857502,-0.341894,2.463,2.63032
0.859171,-0.339396,2.445,2.61369
0.867107,-0.339396,2.445,2.61631
0.875043,-0.339396,2.445,2.61895
0.882979,-0.339396,2.445,2.62162
0.890915,-0.339396,2.445,2.6243
0.898851,-0.339396,2.445,2.627
0.906787,-0.339396,2.445,2.62973
0.914722,-0.339396,2.445,2.63248
0.916243,-0.337036,2.428,2.61692
0.924124,-0.337036,2.428,2.61969
0.932004,-0.337036,2.428,2.62248
0.939885,-0.337036,2.428,2.62529
0.947766,-0.337036,2.428,2.62812
0.955646,-0.337036,2.428,2.63098
0.963527,-0.337036,2.428,2.63385
0.964606,-0.334676,2.411,2.61828
0.972432,-0.334676,2.411,2.62117
0.987169,-0.337036,2.428,2.64259
0.988083,-0.334676,2.411,2.62702
0.995908,-0.334676,2.411,2.62997
nan,nan,nan,NaN
nan,nan,nan,NaN
nan,nan,nan,NaN
nan,nan,nan,NaN
nan,nan,nan,NaN
nan,nan,nan,NaN
nan,nan,nan,NaN
nan,nan,nan,NaN
nan,nan,nan,NaN
nan,nan,nan,NaN
nan,nan,nan,NaN
nan,nan,nan,NaN
1.45639,-0.44406,3.199,3.54286
1.46677,-0.44406,3.199,3.54714
1.47715,-0.44406,3.199,3.55145
1.48754,-0.44406,3.199,3.55578
1.51244,-0.448363,3.23,3.59463
1.52292,-0.448363,3.23,3.59906
1.54765,-0.452528,3.26,3.63698
1.55823,-0.452528,3.26,3.64149
1.56881,-0.452528,3.26,3.64603
1.59489,-0.45697,3.292,3.68643
1.58997,-0.452528,3.26,3.65519
1.60055,-0.452528,3.26,3.6598
1.67489,-0.470434,3.389,3.80945
1.68589,-0.470434,3.389,3.81429
1.63229,-0.452528,3.26,3.67379
1.64288,-0.452528,3.26,3.67851
1.65346,-0.452528,3.26,3.68325
1.68037,-0.45697,3.292,3.72421
1.69106,-0.45697,3.292,3.72904
1.71828,-0.461412,3.324,3.7702
1.72907,-0.461412,3.324,3.77513
1.73986,-0.461412,3.324,3.78008
1.7675,-0.465853,3.356,3.8215
1.7784,-0.465853,3.356,3.82655
1.80688,-0.470434,3.389,3.8693
1.83612,-0.475154,3.423,3.91332
1.84723,-0.475154,3.423,3.91854
1.87734,-0.480012,3.458,3.96391
1.90768,-0.484871,3.493,4.00941
1.9388,-0.489868,3.529,4.0562
1.95025,-0.489868,3.529,4.06169
1.96171,-0.489868,3.529,4.0672
1.97316,-0.489868,3.529,4.07274
1.98461,-0.489868,3.529,4.0783
2.017,-0.495004,3.566,4.1267
2.02857,-0.495004,3.566,4.13237
2.04015,-0.495004,3.566,4.13806
2.05172,-0.495004,3.566,4.14378
2.06329,-0.495004,3.566,4.14953
2.07487,-0.495004,3.566,4.15529
2.06479,-0.489868,3.529,4.11791
2.07625,-0.489868,3.529,4.12367
2.0877,-0.489868,3.529,4.12945
2.05692,-0.480012,3.458,4.05205
2.04722,-0.475154,3.423,4.01669
2.05833,-0.475154,3.423,4.02236
2.02893,-0.465853,3.356,3.94922
2.00092,-0.45697,3.292,3.8794
2.01161,-0.45697,3.292,3.88493
1.98421,-0.448363,3.23,3.8172
1.97555,-0.44406,3.199,3.78597
1.98593,-0.44406,3.199,3.7914
1.94202,-0.431983,3.112,3.69359
1.91762,-0.424349,3.057,3.63354
1.92754,-0.424349,3.057,3.63878
1.90324,-0.416853,3.003,3.57968
1.89642,-0.413244,2.977,3.55383
1.90609,-0.413244,2.977,3.559
1.89902,-0.409635,2.951,3.53305
1.89243,-0.406164,2.926,3.50824
1.90192,-0.406164,2.926,3.51337
1.89509,-0.402694,2.901,3.48846
1.88875,-0.399362,2.877,3.46468
1.88225,-0.396031,2.853,3.44083
1.89151,-0.396031,2.853,3.44591
1.88479,-0.3927,2.829,3.42197
1.87857,-0.389507,2.806,3.39917
1.88768,-0.389507,2.806,3.40421
1.88124,-0.386314,2.783,3.38133
1.86038,-0.380206,2.739,3.33282
-2.37465,-0.464047,3.423,4.1918
-2.36354,-0.464047,3.423,4.18552
-2.35243,-0.464047,3.423,4.17926
-2.31806,-0.459438,3.389,4.13156
-2.30706,-0.459438,3.389,4.1254
-2.3191,-0.464047,3.423,4.16059
-2.30799,-0.464047,3.423,4.1544
-2.29688,-0.464047,3.423,4.14824
-2.28577,-0.464047,3.423,4.1421
-2.25206,-0.459438,3.389,4.0949
-2.24106,-0.459438,3.389,4.08886
-2.23006,-0.459438,3.389,4.08284
-2.19745,-0.454964,3.356,4.03714
-2.18656,-0.454964,3.356,4.03123
-2.17567,-0.454964,3.356,4.02533
-2.16478,-0.454964,3.356,4.01945
-2.13335,-0.450626,3.324,3.97532
-2.12256,-0.450626,3.324,3.96955
-2.11177,-0.450626,3.324,3.96379
-2.10098,-0.450626,3.324,3.95805
-2.09019,-0.450626,3.324,3.95233
-2.09942,-0.454964,3.356,3.98463
-2.06861,-0.450626,3.324,3.94096
-2.05782,-0.450626,3.324,3.93531
