1.68485,-0.0487117,3.141,3.56469
1.7107,-0.0491614,3.17,3.60247
1.72099,-0.0491614,3.17,3.60737
1.74712,-0.0496112,3.199,3.64534
1.7575,-0.0496112,3.199,3.65032
1.76788,-0.0496112,3.199,3.65533
1.7955,-0.0500919,3.23,3.69584
1.80598,-0.0500919,3.23,3.70094
1.81647,-0.0500919,3.23,3.70607
1.80941,-0.0496112,3.199,3.6756
1.8198,-0.0496112,3.199,3.68072
1.83018,-0.0496112,3.199,3.68587
1.84056,-0.0496112,3.199,3.69104
1.85095,-0.0496112,3.199,3.69622
1.86133,-0.0496112,3.199,3.70143
1.87171,-0.0496112,3.199,3.70667
1.86504,-0.0491614,3.17,3.67827
1.87532,-0.0491614,3.17,3.6835
1.88561,-0.0491614,3.17,3.68875
1.86121,-0.0482619,3.112,3.62643
1.87131,-0.0482619,3.112,3.63162
1.86449,-0.0478277,3.084,3.60412
1.85809,-0.047409,3.057,3.57771
1.86801,-0.047409,3.057,3.58287
1.86134,-0.0469903,3.03,3.55636
1.85451,-0.0465715,3.003,3.52978
1.86425,-0.0465715,3.003,3.53491
1.84155,-0.0457651,2.951,3.47876
1.83545,-0.0453774,2.926,3.45433
1.84494,-0.0453774,2.926,3.45939
1.8386,-0.0449897,2.901,3.43486
1.81743,-0.0442453,2.853,3.38299
1.7966,-0.0435164,2.806,3.33216
1.80571,-0.0435164,2.806,3.33708
1.79994,-0.0431597,2.783,3.31463
1.78037,-0.0424773,2.739,3.26706
1.78926,-0.0424773,2.739,3.27191
1.76992,-0.0418105,2.696,3.22534
1.75097,-0.0411591,2.654,3.17983
1.75958,-0.0411591,2.654,3.18458
1.74088,-0.0405233,2.613,3.14007
1.73597,-0.0402131,2.593,3.12071
1.74439,-0.0402131,2.593,3.1254
1.72711,-0.0396238,2.555,3.08424
1.7096,-0.0390345,2.517,3.04295
-1.93066,-0.0341293,2.783,3.38728
-1.90643,-0.0338595,2.761,3.35541
-1.89747,-0.0338595,2.761,3.35032
-1.87346,-0.0335897,2.739,3.3186
-1.8496,-0.0333199,2.717,3.28698
-1.84078,-0.0333199,2.717,3.28202
-1.8178,-0.0330624,2.696,3.25175
-1.79496,-0.0328049,2.675,3.22158
-1.78628,-0.0328049,2.675,3.21675
-1.77759,-0.0328049,2.675,3.21194
-1.76891,-0.0328049,2.675,3.20714
-1.76023,-0.0328049,2.675,3.20236
-1.75155,-0.0328049,2.675,3.1976
-1.74286,-0.0328049,2.675,3.19285
-1.73418,-0.0328049,2.675,3.18812
-1.7255,-0.0328049,2.675,3.1834
-1.71682,-0.0328049,2.675,3.1787
-1.70813,-0.0328049,2.675,3.17402
-1.71279,-0.0330624,2.696,3.19424
-1.70404,-0.0330624,2.696,3.18956
-1.72233,-0.0335897,2.739,3.23569
-1.7272,-0.0338595,2.761,3.25692
-1.73193,-0.0341293,2.783,3.27809
-1.7229,-0.0341293,2.783,3.27332
-1.72803,-0.0344114,2.806,3.29559
-1.71892,-0.0344114,2.806,3.29082
-1.70982,-0.0344114,2.806,3.28608
-1.7292,-0.0349878,2.853,3.33631
-1.7344,-0.0352821,2.877,3.35954
-1.72507,-0.0352821,2.877,3.35473
-1.74495,-0.035883,2.926,3.407
-1.73545,-0.035883,2.926,3.40214
-1.72596,-0.035883,2.926,3.39731
-1.70179,-0.0355764,2.901,3.36351
-1.69238,-0.0355764,2.901,3.35875
-1.68296,-0.0355764,2.901,3.35402
-1.67355,-0.0355764,2.901,3.3493
-1.67847,-0.035883,2.926,3.37343
-1.66897,-0.035883,2.926,3.36871
-1.65948,-0.035883,2.926,3.36402
nan,nan,nan,NaN
nan,nan,nan,NaN
nan,nan,nan,NaN
nan,nan,nan,NaN
-1.53321,-0.0341293,2.783,3.17758
-1.52418,-0.0341293,2.783,3.17323
-1.51514,-0.0341293,2.783,3.1689
-1.4942,-0.0338595,2.761,3.13957
-1.48524,-0.0338595,2.761,3.13532
-1.46452,-0.0335897,2.739,3.10613
-1.44394,-0.0333199,2.717,3.07704
-1.43512,-0.0333199,2.717,3.07291
-1.41528,-0.0330624,2.696,3.04508
-1.39557,-0.0328049,2.675,3.01734
-1.38689,-0.0328049,2.675,3.01333
-1.3782,-0.0328049,2.675,3.00934
-1.35877,-0.0325473,2.654,2.98178
-1.33947,-0.0322898,2.633,2.95431
-1.33093,-0.0322898,2.633,2.95044
-1.31234,-0.0320445,2.613,2.92421
-1.29387,-0.0317992,2.593,2.89806
-1.28546,-0.0317992,2.593,2.89432
-1.25833,-0.0313332,2.555,2.84823
-1.22264,-0.0306465,2.499,2.78223
-1.21453,-0.0306465,2.499,2.77867
-1.20641,-0.0306465,2.499,2.77514
-1.18967,-0.0304257,2.481,2.75166
-1.18162,-0.0304257,2.481,2.74818
-1.16505,-0.030205,2.463,2.72482
-1.1486,-0.0299843,2.445,2.70152
-1.13274,-0.0297758,2.428,2.6794
-1.12485,-0.0297758,2.428,2.67607
-1.10915,-0.0295673,2.411,2.65406
-1.10133,-0.0295673,2.411,2.6508
-1.0935,-0.0295673,2.411,2.64755
-1.07802,-0.0293588,2.394,2.62569
-1.07025,-0.0293588,2.394,2.62251
-1.06248,-0.0293588,2.394,2.61934
-1.05471,-0.0293588,2.394,2.6162
-1.03951,-0.0291503,2.377,2.59452
-1.03179,-0.0291503,2.377,2.59144
-1.02408,-0.0291503,2.377,2.58838
-1.01636,-0.0291503,2.377,2.58534
-1.00865,-0.0291503,2.377,2.58231
-1.00093,-0.0291503,2.377,2.57931
-0.993215,-0.0291503,2.377,2.57633
-0.9855,-0.0291503,2.377,2.57336
-0.977785,-0.0291503,2.377,2.57042
-0.970069,-0.0291503,2.377,2.56749
-0.962354,-0.0291503,2.377,2.56459
-0.954639,-0.0291503,2.377,2.5617
-0.946924,-0.0291503,2.377,2.55884
-0.939209,-0.0291503,2.377,2.55599
-0.931494,-0.0291503,2.377,2.55317
-0.923778,-0.0291503,2.377,2.55036
-0.916063,-0.0291503,2.377,2.54758
-0.908348,-0.0291503,2.377,2.54481
-0.900633,-0.0291503,2.377,2.54207
-0.892918,-0.0291503,2.377,2.53935
-0.885203,-0.0291503,2.377,2.53664
-0.877488,-0.0291503,2.377,2.53396
-0.869772,-0.0291503,2.377,2.5313
-0.862057,-0.0291503,2.377,2.52866
-0.854342,-0.0291503,2.377,2.52604
-0.846627,-0.0291503,2.377,2.52344
-0.838912,-0.0291503,2.377,2.52086
-0.831197,-0.0291503,2.377,2.51831
-0.823481,-0.0291503,2.377,2.51577
-0.815766,-0.0291503,2.377,2.51326
-0.808051,-0.0291503,2.377,2.51076
-0.800336,-0.0291503,2.377,2.50829
-0.792621,-0.0291503,2.377,2.50584
-0.790519,-0.0293588,2.394,2.52131
-0.782749,-0.0293588,2.394,2.51889
-0.774979,-0.0293588,2.394,2.51648
-0.767208,-0.0293588,2.394,2.5141
-0.759438,-0.0293588,2.394,2.51174
-0.751668,-0.0293588,2.394,2.5094
-0.743897,-0.0293588,2.394,2.50709
-0.736127,-0.0293588,2.394,2.50479
-0.728357,-0.0293588,2.394,2.50252
-0.720586,-0.0293588,2.394,2.50027
-0.717878,-0.0295673,2.411,2.51578
-0.710052,-0.0295673,2.411,2.51356
-0.702227,-0.0295673,2.411,2.51136
-0.694401,-0.0295673,2.411,2.50918
-0.691417,-0.0297758,2.428,2.5247
-0.683536,-0.0297758,2.428,2.52256
-0.675655,-0.0297758,2.428,2.52043
-0.667775,-0.0297758,2.428,2.51833
-0.664514,-0.0299843,2.445,2.53387
-0.656578,-0.0299843,2.445,2.5318
-0.648643,-0.0299843,2.445,2.52976
-0.645424,-0.030205,2.463,2.54634
-0.637429,-0.030205,2.463,2.54433
-0.629435,-0.030205,2.463,2.54234
-0.621441,-0.030205,2.463,2.54037
-0.613446,-0.030205,2.463,2.53842
-0.605452,-0.030205,2.463,2.5365
-0.597458,-0.030205,2.463,2.53461
-0.589464,-0.030205,2.463,2.53274
-0.581469,-0.030205,2.463,2.53089
-0.577666,-0.0304257,2.481,2.54755
-0.569613,-0.0304257,2.481,2.54573
-0.561561,-0.0304257,2.481,2.54394
-0.553508,-0.0304257,2.481,2.54218
-0.545455,-0.0304257,2.481,2.54043
-0.537403,-0.0304257,2.481,2.53872
-0.52935,-0.0304257,2.481,2.53703
-0.521297,-0.0304257,2.481,2.53536
-0.516968,-0.0306465,2.499,2.5521
-0.508857,-0.0306465,2.499,2.55047
-0.500746,-0.0306465,2.499,2.54886
-0.492635,-0.0306465,2.499,2.54728
-0.484524,-0.0306465,2.499,2.54572
-0.476412,-0.0306465,2.499,2.54419
-0.471674,-0.0308672,2.517,2.561
-0.463505,-0.0308672,2.517,2.55951
-0.455335,-0.0308672,2.517,2.55804
-0.447166,-0.0308672,2.517,2.5566
-0.44231,-0.0311002,2.536,2.57447
-0.434079,-0.0311002,2.536,2.57307
-0.425848,-0.0311002,2.536,2.57169
-0.417616,-0.0311002,2.536,2.57034
-0.409385,-0.0311002,2.536,2.56902
-0.401154,-0.0311002,2.536,2.56772
-0.392923,-0.0311002,2.536,2.56645
-0.384691,-0.0311002,2.536,2.5652
-0.37646,-0.0311002,2.536,2.56398
-0.368229,-0.0311002,2.536,2.56278
-0.359998,-0.0311002,2.536,2.56161
-0.351766,-0.0311002,2.536,2.56047
-0.343535,-0.0311002,2.536,2.55935
-0.335304,-0.0311002,2.536,2.55826
-0.327073,-0.0311002,2.536,2.55719
-0.318842,-0.0311002,2.536,2.55615
-0.31061,-0.0311002,2.536,2.55514
-0.300114,-0.0308672,2.517,2.53502
-0.291944,-0.0308672,2.517,2.53406
-0.283775,-0.0308672,2.517,2.53313
-0.275605,-0.0308672,2.517,2.53223
-0.267435,-0.0308672,2.517,2.53136
-0.257412,-0.0306465,2.499,2.51241
-0.249301,-0.0306465,2.499,2.51159
-0.24119,-0.0306465,2.499,2.5108
-0.233078,-0.0306465,2.499,2.51003
-0.224967,-0.0306465,2.499,2.50929
-0.216856,-0.0306465,2.499,2.50858
-0.207241,-0.0304257,2.481,2.48983
-0.199189,-0.0304257,2.481,2.48917
-0.191136,-0.0304257,2.481,2.48854
-0.184412,-0.0306465,2.499,2.50598
-0.1763,-0.0306465,2.499,2.5054
-0.168189,-0.0306465,2.499,2.50484
-0.160078,-0.0306465,2.499,2.50431
-0.150872,-0.0304257,2.481,2.48577
-0.14282,-0.0304257,2.481,2.48529
-0.134767,-0.0304257,2.481,2.48484
-0.126714,-0.0304257,2.481,2.48442
-0.118662,-0.0304257,2.481,2.48402
-0.110609,-0.0304257,2.481,2.48365
-0.102556,-0.0304257,2.481,2.48331
-0.0945035,-0.0304257,2.481,2.48299
-0.0864508,-0.0304257,2.481,2.48269
-0.078398,-0.0304257,2.481,2.48242
-0.0703453,-0.0304257,2.481,2.48218
-0.0622926,-0.0304257,2.481,2.48197
-0.0538464,-0.030205,2.463,2.46377
-0.0458521,-0.030205,2.463,2.46361
-0.0378578,-0.030205,2.463,2.46348
-0.0298635,-0.030205,2.463,2.46337
-0.0220291,-0.0304257,2.481,2.48128
-0.0139764,-0.0304257,2.481,2.48123
-0.00592366,-0.0304257,2.481,2.48119
0.00212905,-0.0304257,2.481,2.48119
0.0101818,-0.0304257,2.481,2.48121
0.0182345,-0.0304257,2.481,2.48125
0.0262872,-0.0304257,2.481,2.48133
0.0343399,-0.0304257,2.481,2.48142
0.0423926,-0.0304257,2.481,2.48155
0.0504453,-0.0304257,2.481,2.4817
0.058498,-0.0304257,2.481,2.48188
0.0665507,-0.0304257,2.481,2.48208
0.0746034,-0.0304257,2.481,2.48231
0.0826561,-0.0304257,2.481,2.48256
0.0907089,-0.0304257,2.481,2.48284
0.0987616,-0.0304257,2.481,2.48315
0.106814,-0.0304257,2.481,2.48348
0.114867,-0.0304257,2.481,2.48384
0.12292,-0.0304257,2.481,2.48423
0.130972,-0.0304257,2.481,2.48464
0.139025,-0.0304257,2.481,2.48508
0.147078,-0.0304257,2.481,2.48554
0.155131,-0.0304257,2.481,2.48603
0.161999,-0.030205,2.463,2.46851
0.169994,-0.030205,2.463,2.46904
0.177988,-0.030205,2.463,2.46961
0.185982,-0.030205,2.463,2.4702
0.193976,-0.030205,2.463,2.47081
0.201971,-0.030205,2.463,2.47145
0.209965,-0.030205,2.463,2.47212
0.217959,-0.030205,2.463,2.47281
0.225954,-0.030205,2.463,2.47353
0.232238,-0.0299843,2.445,2.45619
0.240174,-0.0299843,2.445,2.45695
0.24811,-0.0299843,2.445,2.45774
0.256046,-0.0299843,2.445,2.45855
0.263982,-0.0299843,2.445,2.45939
0.271917,-0.0299843,2.445,2.46026
0.279853,-0.0299843,2.445,2.46115
0.287789,-0.0299843,2.445,2.46206
0.295725,-0.0299843,2.445,2.463
0.303661,-0.0299843,2.445,2.46397
0.311597,-0.0299843,2.445,2.46496
0.319533,-0.0299843,2.445,2.46597
0.327469,-0.0299843,2.445,2.46701
0.335404,-0.0299843,2.445,2.46808
0.34334,-0.0299843,2.445,2.46917
0.351276,-0.0299843,2.445,2.47029
0.359212,-0.0299843,2.445,2.47143
0.367148,-0.0299843,2.445,2.47259
0.375084,-0.0299843,2.445,2.47379
0.380356,-0.0297758,2.428,2.45779
0.388237,-0.0297758,2.428,2.45902
0.396118,-0.0297758,2.428,2.46028
0.403999,-0.0297758,2.428,2.46156
0.408995,-0.0295673,2.411,2.44562
0.416821,-0.0295673,2.411,2.44694
0.424646,-0.0295673,2.411,2.44829
0.432472,-0.0295673,2.411,2.44966
0.443402,-0.0297758,2.428,2.46833
0.454442,-0.0299843,2.445,2.48706
0.462378,-0.0299843,2.445,2.48852
0.470314,-0.0299843,2.445,2.49
0.47825,-0.0299843,2.445,2.49152
0.482805,-0.0297758,2.428,2.47572
0.490686,-0.0297758,2.428,2.47727
0.502058,-0.0299843,2.445,2.49619
0.513748,-0.030205,2.463,2.51619
0.521742,-0.030205,2.463,2.51784
0.533608,-0.0304257,2.481,2.53792
0.541661,-0.0304257,2.481,2.53962
0.549713,-0.0304257,2.481,2.54135
0.557766,-0.0304257,2.481,2.54311
0.565819,-0.0304257,2.481,2.54488
0.573871,-0.0304257,2.481,2.54669
0.586146,-0.0306465,2.499,2.567
0.594257,-0.0306465,2.499,2.56887
0.606707,-0.0308672,2.517,2.58927
0.614877,-0.0308672,2.517,2.5912
0.623046,-0.0308672,2.517,2.59315
0.635981,-0.0311002,2.536,2.61471
0.644212,-0.0311002,2.536,2.61673
0.652443,-0.0311002,2.536,2.61877
0.660674,-0.0311002,2.536,2.62083
0.668906,-0.0311002,2.536,2.62292
0.677137,-0.0311002,2.536,2.62503
0.685368,-0.0311002,2.536,2.62716
0.693599,-0.0311002,2.536,2.62932
0.70183,-0.0311002,2.536,2.63151
0.710062,-0.0311002,2.536,2.63371
0.723674,-0.0313332,2.555,2.65569
0.726524,-0.0311002,2.536,2.6382
0.734755,-0.0311002,2.536,2.64048
0.742987,-0.0311002,2.536,2.64278
0.751218,-0.0311002,2.536,2.64511
0.759449,-0.0311002,2.536,2.64746
0.76768,-0.0311002,2.536,2.64983
0.775912,-0.0311002,2.536,2.65223
0.784143,-0.0311002,2.536,2.65465
0.792374,-0.0311002,2.536,2.65709
0.800605,-0.0311002,2.536,2.65955
0.808836,-0.0311002,2.536,2.66204
0.823189,-0.0313332,2.555,2.68452
0.831482,-0.0313332,2.555,2.68707
0.839775,-0.0313332,2.555,2.68965
0.848068,-0.0313332,2.555,2.69225
0.856361,-0.0313332,2.555,2.69488
0.864654,-0.0313332,2.555,2.69752
0.866455,-0.0311002,2.536,2.68011
0.874686,-0.0311002,2.536,2.68279
0.882918,-0.0311002,2.536,2.68548
0.884472,-0.0308672,2.517,2.66806
0.892642,-0.0308672,2.517,2.67078
0.900811,-0.0308672,2.517,2.67352
0.90248,-0.0306465,2.499,2.65714
0.904033,-0.0304257,2.481,2.64075
0.912085,-0.0304257,2.481,2.64352
0.913462,-0.030205,2.463,2.62711
0.914722,-0.0299843,2.445,2.61068
0.922658,-0.0299843,2.445,2.61347
0.930594,-0.0299843,2.445,2.61628
0.932004,-0.0297758,2.428,2.6009
0.939885,-0.0297758,2.428,2.60374
0.947766,-0.0297758,2.428,2.60659
0.948955,-0.0295673,2.411,2.5912
0.956781,-0.0295673,2.411,2.59407
0.964606,-0.0295673,2.411,2.59697
0.972432,-0.0295673,2.411,2.59989
0.980257,-0.0295673,2.411,2.60283
0.988083,-0.0295673,2.411,2.60578
0.995908,-0.0295673,2.411,2.60876
1.01081,-0.0297758,2.428,2.63017
1.02582,-0.0299843,2.445,2.65165
1.03376,-0.0299843,2.445,2.65473
1.04937,-0.030205,2.463,2.6774
1.05736,-0.030205,2.463,2.68054
1.06535,-0.030205,2.463,2.6837
1.08119,-0.0304257,2.481,2.70652
1.09715,-0.0306465,2.499,2.72941
1.10526,-0.0306465,2.499,2.73268
1.12985,-0.0311002,2.536,2.77648
1.14661,-0.0313332,2.555,2.80067
1.17208,-0.0317992,2.593,2.84578
1.1805,-0.0317992,2.593,2.84925
1.18891,-0.0317992,2.593,2.85275
1.2255,-0.0325473,2.654,2.92346
1.23411,-0.0325473,2.654,2.92708
1.25256,-0.0328049,2.675,2.95391
1.26124,-0.0328049,2.675,2.95761
1.26992,-0.0328049,2.675,2.96132
1.28864,-0.0330624,2.696,2.98833
1.3075,-0.0333199,2.717,3.01542
1.34829,-0.0341293,2.783,3.0926
1.35733,-0.0341293,2.783,3.09655
1.38894,-0.0346934,2.829,3.15176
1.40999,-0.0349878,2.853,3.18259
1.41925,-0.0349878,2.853,3.18671
1.44053,-0.0352821,2.877,3.21768
1.46196,-0.0355764,2.901,3.24875
1.48405,-0.035883,2.926,3.28103
1.49355,-0.035883,2.926,3.28534
1.52925,-0.0365084,2.977,3.34701
1.56631,-0.0371584,3.03,3.4111
1.57614,-0.0371584,3.03,3.41563
1.60011,-0.0374895,3.057,3.45065
1.61003,-0.0374895,3.057,3.45526
1.61995,-0.0374895,3.057,3.4599
1.6592,-0.038164,3.112,3.52689
1.6693,-0.038164,3.112,3.53165
1.69505,-0.0385196,3.141,3.56939
1.70524,-0.0385196,3.141,3.57424
1.73128,-0.0388753,3.17,3.61216
1.7575,-0.0392309,3.199,3.6502
1.76788,-0.0392309,3.199,3.65521
1.77827,-0.0392309,3.199,3.66024
1.78865,-0.0392309,3.199,3.6653
1.79903,-0.0392309,3.199,3.67038
1.80941,-0.0392309,3.199,3.67548
1.8198,-0.0392309,3.199,3.6806
1.83018,-0.0392309,3.199,3.68574
1.84056,-0.0392309,3.199,3.69091
1.85095,-0.0392309,3.199,3.6961
1.86133,-0.0392309,3.199,3.70131
1.87171,-0.0392309,3.199,3.70654
1.86504,-0.0388753,3.17,3.67815
1.87532,-0.0388753,3.17,3.68338
1.86836,-0.0385196,3.141,3.65488
1.86121,-0.038164,3.112,3.62631
1.87131,-0.038164,3.112,3.6315
1.86449,-0.0378206,3.084,3.604
1.85809,-0.0374895,3.057,3.57759
1.86801,-0.0374895,3.057,3.58275
1.86134,-0.0371584,3.03,3.55625
1.83845,-0.0365084,2.977,3.49911
1.84811,-0.0365084,2.977,3.50419
1.84155,-0.0361896,2.951,3.47865
1.83545,-0.035883,2.926,3.45422
1.84494,-0.035883,2.926,3.45927
1.82338,-0.0352821,2.877,3.40633
1.81743,-0.0349878,2.853,3.38288
1.7966,-0.0344114,2.806,3.33206
1.80571,-0.0344114,2.806,3.33698
1.78571,-0.0338595,2.761,3.28832
1.76607,-0.0333199,2.717,3.24071
1.77489,-0.0333199,2.717,3.24553
1.76992,-0.0330624,2.696,3.22523
1.75097,-0.0325473,2.654,3.17973
1.75958,-0.0325473,2.654,3.18448
1.74088,-0.0320445,2.613,3.13998
1.72325,-0.0315662,2.574,3.09775
1.7316,-0.0315662,2.574,3.10241
1.71427,-0.0311002,2.536,3.06121
1.7096,-0.0308672,2.517,3.04285
-1.93066,-0.0250989,2.783,3.38721
-1.90643,-0.0249005,2.761,3.35533
-1.89747,-0.0249005,2.761,3.35025
-1.87346,-0.0247021,2.739,3.31852
-1.8496,-0.0245037,2.717,3.2869
-1.84078,-0.0245037,2.717,3.28194
-1.8178,-0.0243143,2.696,3.25168
-1.79496,-0.0241249,2.675,3.2215
-1.78628,-0.0241249,2.675,3.21667
-1.77759,-0.0241249,2.675,3.21186
-1.76891,-0.0241249,2.675,3.20706
-1.76023,-0.0241249,2.675,3.20228
-1.75155,-0.0241249,2.675,3.19752
-1.74286,-0.0241249,2.675,3.19277
-1.73418,-0.0241249,2.675,3.18804
-1.7255,-0.0241249,2.675,3.18332
-1.71682,-0.0241249,2.675,3.17863
-1.70813,-0.0241249,2.675,3.17395
-1.71279,-0.0243143,2.696,3.19416
-1.70404,-0.0243143,2.696,3.18948
-1.72233,-0.0247021,2.739,3.23561
-1.7272,-0.0249005,2.761,3.25684
-1.73193,-0.0250989,2.783,3.278
-1.7229,-0.0250989,2.783,3.27324
-1.72803,-0.0253064,2.806,3.29551
-1.71892,-0.0253064,2.806,3.29074
-1.70982,-0.0253064,2.806,3.28599
-1.7292,-0.0257302,2.853,3.33622
-1.7344,-0.0259467,2.877,3.35946
-1.72507,-0.0259467,2.877,3.35465
-1.74495,-0.0263886,2.926,3.40691
-1.73545,-0.0263886,2.926,3.40205
-1.72596,-0.0263886,2.926,3.39722
-1.70179,-0.0261631,2.901,3.36342
-1.69238,-0.0261631,2.901,3.35866
-1.68296,-0.0261631,2.901,3.35393
-1.67355,-0.0261631,2.901,3.34921
-1.67847,-0.0263886,2.926,3.37334
-1.66897,-0.0263886,2.926,3.36863
-1.65948,-0.0263886,2.926,3.36393
nan,nan,nan,NaN
nan,nan,nan,NaN
nan,nan,nan,NaN
nan,nan,nan,NaN
-1.53321,-0.0250989,2.783,3.17749
-1.52418,-0.0250989,2.783,3.17314
-1.51514,-0.0250989,2.783,3.16881
-1.4942,-0.0249005,2.761,3.13949
-1.48524,-0.0249005,2.761,3.13523
-1.46452,-0.0247021,2.739,3.10605
-1.44394,-0.0245037,2.717,3.07695
-1.43512,-0.0245037,2.717,3.07283
-1.4263,-0.0245037,2.717,3.06872
-1.40652,-0.0243143,2.696,3.04094
-1.39777,-0.0243143,2.696,3.0369
-1.38902,-0.0243143,2.696,3.03289
-1.36952,-0.0241249,2.675,3.00529
-1.35016,-0.0239355,2.654,2.97779
-1.34154,-0.0239355,2.654,2.97389
-1.31234,-0.0235658,2.613,2.92413
-1.29387,-0.0233854,2.593,2.89798
-1.28546,-0.0233854,2.593,2.89424
-1.25833,-0.0230427,2.555,2.84815
-1.22264,-0.0225376,2.499,2.78215
-1.21453,-0.0225376,2.499,2.77859
-1.19772,-0.0223753,2.481,2.75507
-1.18104,-0.022213,2.463,2.73161
-1.17305,-0.022213,2.463,2.72817
-1.15654,-0.0220506,2.445,2.70483
-1.14062,-0.0218973,2.428,2.68266
-1.1248,-0.021744,2.411,2.66056
-1.11698,-0.021744,2.411,2.65726
-1.10133,-0.0215907,2.394,2.63527
-1.09356,-0.0215907,2.394,2.63203
-1.08579,-0.0215907,2.394,2.62881
-1.07037,-0.0214374,2.377,2.60697
-1.06265,-0.0214374,2.377,2.60381
-1.05494,-0.0214374,2.377,2.60067
-1.04722,-0.0214374,2.377,2.59755
-1.03951,-0.0214374,2.377,2.59445
-1.03179,-0.0214374,2.377,2.59137
-1.02408,-0.0214374,2.377,2.5883
-1.01636,-0.0214374,2.377,2.58526
-1.00865,-0.0214374,2.377,2.58224
-1.00093,-0.0214374,2.377,2.57923
-0.993215,-0.0214374,2.377,2.57625
-0.9855,-0.0214374,2.377,2.57329
-0.977785,-0.0214374,2.377,2.57034
-0.970069,-0.0214374,2.377,2.56742
-0.962354,-0.0214374,2.377,2.56451
-0.954639,-0.0214374,2.377,2.56163
-0.94055,-0.0212931,2.361,2.54154
-0.932887,-0.0212931,2.361,2.53871
-0.925224,-0.0212931,2.361,2.5359
-0.923778,-0.0214374,2.377,2.55029
-0.916063,-0.0214374,2.377,2.5475
-0.908348,-0.0214374,2.377,2.54474
-0.900633,-0.0214374,2.377,2.54199
-0.892918,-0.0214374,2.377,2.53927
-0.885203,-0.0214374,2.377,2.53657
-0.877488,-0.0214374,2.377,2.53389
-0.869772,-0.0214374,2.377,2.53122
-0.862057,-0.0214374,2.377,2.52858
-0.854342,-0.0214374,2.377,2.52596
-0.846627,-0.0214374,2.377,2.52336
-0.838912,-0.0214374,2.377,2.52079
-0.831197,-0.0214374,2.377,2.51823
-0.823481,-0.0214374,2.377,2.51569
-0.815766,-0.0214374,2.377,2.51318
-0.808051,-0.0214374,2.377,2.51068
-0.800336,-0.0214374,2.377,2.50821
-0.792621,-0.0214374,2.377,2.50576
-0.790519,-0.0215907,2.394,2.52123
-0.782749,-0.0215907,2.394,2.51881
-0.774979,-0.0215907,2.394,2.51641
-0.767208,-0.0215907,2.394,2.51402
-0.759438,-0.0215907,2.394,2.51166
-0.751668,-0.0215907,2.394,2.50932
-0.743897,-0.0215907,2.394,2.50701
-0.736127,-0.0215907,2.394,2.50471
-0.733529,-0.021744,2.411,2.52021
-0.725703,-0.021744,2.411,2.51794
-0.717878,-0.021744,2.411,2.5157
-0.715059,-0.0218973,2.428,2.5312
-0.707178,-0.0218973,2.428,2.52899
-0.699297,-0.0218973,2.428,2.52679
-0.691417,-0.0218973,2.428,2.52462
-0.683536,-0.0218973,2.428,2.52248
-0.675655,-0.0218973,2.428,2.52035
-0.67245,-0.0220506,2.445,2.53588
-0.664514,-0.0220506,2.445,2.53379
-0.656578,-0.0220506,2.445,2.53172
-0.653418,-0.022213,2.463,2.5483
-0.645424,-0.022213,2.463,2.54626
-0.637429,-0.022213,2.463,2.54424
-0.629435,-0.022213,2.463,2.54225
-0.621441,-0.022213,2.463,2.54029
-0.613446,-0.022213,2.463,2.53834
-0.605452,-0.022213,2.463,2.53642
-0.601824,-0.0223753,2.481,2.55305
-0.593771,-0.0223753,2.481,2.55116
-0.585719,-0.0223753,2.481,2.5493
-0.577666,-0.0223753,2.481,2.54746
-0.569613,-0.0223753,2.481,2.54565
-0.561561,-0.0223753,2.481,2.54386
-0.553508,-0.0223753,2.481,2.54209
-0.545455,-0.0223753,2.481,2.54035
-0.537403,-0.0223753,2.481,2.53863
-0.52935,-0.0223753,2.481,2.53694
-0.525079,-0.0225376,2.499,2.55367
-0.516968,-0.0225376,2.499,2.55201
-0.508857,-0.0225376,2.499,2.55038
-0.504353,-0.0227,2.517,2.56713
-0.496183,-0.0227,2.517,2.56554
-0.488013,-0.0227,2.517,2.56397
-0.479844,-0.0227,2.517,2.56243
-0.475235,-0.0228713,2.536,2.58025
-0.467004,-0.0228713,2.536,2.57874
-0.458772,-0.0228713,2.536,2.57726
-0.450541,-0.0228713,2.536,2.57581
-0.44231,-0.0228713,2.536,2.57438
-0.434079,-0.0228713,2.536,2.57298
-0.429038,-0.0230427,2.555,2.59087
-0.420745,-0.0230427,2.555,2.58951
-0.412452,-0.0230427,2.555,2.58818
-0.404159,-0.0230427,2.555,2.58687
-0.395866,-0.0230427,2.555,2.58559
-0.387574,-0.0230427,2.555,2.58433
-0.379281,-0.0230427,2.555,2.5831
-0.370988,-0.0230427,2.555,2.5819
-0.362695,-0.0230427,2.555,2.58072
-0.354402,-0.0230427,2.555,2.57957
-0.346109,-0.0230427,2.555,2.57844
-0.337816,-0.0230427,2.555,2.57734
-0.327073,-0.0228713,2.536,2.55711
-0.318842,-0.0228713,2.536,2.55607
-0.31061,-0.0228713,2.536,2.55505
-0.302379,-0.0228713,2.536,2.55407
-0.294148,-0.0228713,2.536,2.5531
-0.283775,-0.0227,2.517,2.53305
-0.275605,-0.0227,2.517,2.53215
-0.267435,-0.0227,2.517,2.53127
-0.259266,-0.0227,2.517,2.53042
-0.251096,-0.0227,2.517,2.5296
-0.24119,-0.0225376,2.499,2.51071
-0.233078,-0.0225376,2.499,2.50995
-0.224967,-0.0225376,2.499,2.50921
-0.216856,-0.0225376,2.499,2.50849
-0.208745,-0.0225376,2.499,2.5078
-0.200634,-0.0225376,2.499,2.50714
-0.192523,-0.0225376,2.499,2.50651
-0.184412,-0.0225376,2.499,2.5059
-0.1763,-0.0225376,2.499,2.50531
-0.168189,-0.0225376,2.499,2.50475
-0.160078,-0.0225376,2.499,2.50422
-0.151967,-0.0225376,2.499,2.50372
-0.143856,-0.0225376,2.499,2.50324
-0.135745,-0.0225376,2.499,2.50279
-0.127634,-0.0225376,2.499,2.50236
-0.119523,-0.0225376,2.499,2.50196
-0.111411,-0.0225376,2.499,2.50158
-0.1033,-0.0225376,2.499,2.50124
-0.0951891,-0.0225376,2.499,2.50091
-0.0864508,-0.0223753,2.481,2.48261
-0.078398,-0.0223753,2.481,2.48234
-0.0703453,-0.0223753,2.481,2.4821
-0.0622926,-0.0223753,2.481,2.48188
-0.0542399,-0.0223753,2.481,2.48169
-0.0461872,-0.0223753,2.481,2.48153
-0.0381345,-0.0223753,2.481,2.48139
-0.0300818,-0.0223753,2.481,2.48128
-0.0220291,-0.0223753,2.481,2.4812
-0.0139764,-0.0223753,2.481,2.48114
-0.00592366,-0.0223753,2.481,2.48111
0.00212905,-0.0223753,2.481,2.4811
0.0101818,-0.0223753,2.481,2.48112
0.0182345,-0.0223753,2.481,2.48117
0.0262872,-0.0223753,2.481,2.48124
0.0343399,-0.0223753,2.481,2.48134
0.0423926,-0.0223753,2.481,2.48146
0.0504453,-0.0223753,2.481,2.48161
0.0589224,-0.0225376,2.499,2.4998
0.0670336,-0.0225376,2.499,2.5
0.0751447,-0.0225376,2.499,2.50023
0.0832558,-0.0225376,2.499,2.50049
0.091367,-0.0225376,2.499,2.50077
0.0994781,-0.0225376,2.499,2.50108
0.107589,-0.0225376,2.499,2.50142
0.1157,-0.0225376,2.499,2.50178
0.123811,-0.0225376,2.499,2.50217
0.131923,-0.0225376,2.499,2.50258
0.139025,-0.0223753,2.481,2.48499
0.147078,-0.0223753,2.481,2.48546
0.155131,-0.0223753,2.481,2.48595
0.163183,-0.0223753,2.481,2.48646
0.171236,-0.0223753,2.481,2.487
0.179289,-0.0223753,2.481,2.48757
0.185982,-0.022213,2.463,2.47011
0.193976,-0.022213,2.463,2.47073
0.201971,-0.022213,2.463,2.47137
0.209965,-0.022213,2.463,2.47203
0.217959,-0.022213,2.463,2.47272
0.225954,-0.022213,2.463,2.47344
0.233948,-0.022213,2.463,2.47419
0.241942,-0.022213,2.463,2.47495
0.249936,-0.022213,2.463,2.47575
0.257931,-0.022213,2.463,2.47657
0.265925,-0.022213,2.463,2.47741
0.273919,-0.022213,2.463,2.47828
0.279853,-0.0220506,2.445,2.46106
0.287789,-0.0220506,2.445,2.46198
0.295725,-0.0220506,2.445,2.46292
0.303661,-0.0220506,2.445,2.46388
0.311597,-0.0220506,2.445,2.46487
0.319533,-0.0220506,2.445,2.46589
0.327469,-0.0220506,2.445,2.46693
0.335404,-0.0220506,2.445,2.468
0.34334,-0.0220506,2.445,2.46909
0.351276,-0.0220506,2.445,2.4702
0.359212,-0.0220506,2.445,2.47134
0.367148,-0.0220506,2.445,2.47251
0.375084,-0.0220506,2.445,2.4737
0.380356,-0.0218973,2.428,2.45771
0.388237,-0.0218973,2.428,2.45894
0.396118,-0.0218973,2.428,2.4602
0.403999,-0.0218973,2.428,2.46148
0.408995,-0.021744,2.411,2.44554
0.416821,-0.021744,2.411,2.44686
0.424646,-0.021744,2.411,2.44821
0.432472,-0.021744,2.411,2.44958
0.443402,-0.0218973,2.428,2.46825
0.454442,-0.0220506,2.445,2.48697
0.462378,-0.0220506,2.445,2.48843
0.470314,-0.0220506,2.445,2.48992
0.47825,-0.0220506,2.445,2.49143
0.482805,-0.0218973,2.428,2.47563
0.490686,-0.0218973,2.428,2.47718
0.502058,-0.0220506,2.445,2.49611
0.513748,-0.022213,2.463,2.51611
0.521742,-0.022213,2.463,2.51775
0.533608,-0.0223753,2.481,2.53783
0.541661,-0.0223753,2.481,2.53954
0.549713,-0.0223753,2.481,2.54127
0.557766,-0.0223753,2.481,2.54302
0.565819,-0.0223753,2.481,2.5448
0.573871,-0.0223753,2.481,2.5466
0.586146,-0.0225376,2.499,2.56692
0.594257,-0.0225376,2.499,2.56878
0.606707,-0.0227,2.517,2.58919
0.614877,-0.0227,2.517,2.59112
0.623046,-0.0227,2.517,2.59307
0.635981,-0.0228713,2.536,2.61463
0.644212,-0.0228713,2.536,2.61664
0.652443,-0.0228713,2.536,2.61868
0.660674,-0.0228713,2.536,2.62075
0.668906,-0.0228713,2.536,2.62283
0.677137,-0.0228713,2.536,2.62494
0.685368,-0.0228713,2.536,2.62708
0.693599,-0.0228713,2.536,2.62924
0.70183,-0.0228713,2.536,2.63142
0.710062,-0.0228713,2.536,2.63363
0.718293,-0.0228713,2.536,2.63586
0.726524,-0.0228713,2.536,2.63812
0.734755,-0.0228713,2.536,2.64039
0.742987,-0.0228713,2.536,2.6427
0.751218,-0.0228713,2.536,2.64502
0.759449,-0.0228713,2.536,2.64737
0.76768,-0.0228713,2.536,2.64975
0.775912,-0.0228713,2.536,2.65214
0.790018,-0.0230427,2.555,2.67445
0.798311,-0.0230427,2.555,2.67691
0.806603,-0.0230427,2.555,2.6794
0.814896,-0.0230427,2.555,2.6819
0.823189,-0.0230427,2.555,2.68444
0.831482,-0.0230427,2.555,2.68699
0.839775,-0.0230427,2.555,2.68957
0.848068,-0.0230427,2.555,2.69217
0.856361,-0.0230427,2.555,2.69479
0.864654,-0.0230427,2.555,2.69744
0.866455,-0.0228713,2.536,2.68003
0.874686,-0.0228713,2.536,2.6827
0.882918,-0.0228713,2.536,2.6854
0.891149,-0.0228713,2.536,2.68812
0.89938,-0.0228713,2.536,2.69086
0.900811,-0.0227,2.517,2.67344
0.90248,-0.0225376,2.499,2.65706
0.904033,-0.0223753,2.481,2.64067
0.912085,-0.0223753,2.481,2.64344
0.913462,-0.022213,2.463,2.62703
0.914722,-0.0220506,2.445,2.6106
0.922658,-0.0220506,2.445,2.61339
0.930594,-0.0220506,2.445,2.6162
0.932004,-0.0218973,2.428,2.60083
0.939885,-0.0218973,2.428,2.60366
0.947766,-0.0218973,2.428,2.60652
0.955646,-0.0218973,2.428,2.60939
0.963527,-0.0218973,2.428,2.61229
0.971408,-0.0218973,2.428,2.61521
0.979289,-0.0218973,2.428,2.61814
0.980257,-0.021744,2.411,2.60275
0.988083,-0.021744,2.411,2.60571
0.995908,-0.021744,2.411,2.60868
1.01081,-0.0218973,2.428,2.6301
1.01869,-0.0218973,2.428,2.63313
1.02657,-0.0218973,2.428,2.63619
1.0417,-0.0220506,2.445,2.65775
1.05736,-0.022213,2.463,2.68046
1.06535,-0.022213,2.463,2.68362
1.08119,-0.0223753,2.481,2.70644
1.09715,-0.0225376,2.499,2.72933
1.10526,-0.0225376,2.499,2.7326
1.12139,-0.0227,2.517,2.7556
1.14661,-0.0230427,2.555,2.80058
1.16349,-0.023214,2.574,2.82484
1.17185,-0.023214,2.574,2.82829
1.18891,-0.0233854,2.593,2.85267
1.2158,-0.0237461,2.633,2.90025
1.22435,-0.0237461,2.633,2.90384
1.24273,-0.0239355,2.654,2.93064
1.26124,-0.0241249,2.675,2.95752
1.26992,-0.0241249,2.675,2.96124
1.28864,-0.0243143,2.696,2.98825
1.31809,-0.0247021,2.739,3.03975
1.34829,-0.0250989,2.783,3.09251
1.35733,-0.0250989,2.783,3.09646
1.38894,-0.0255138,2.829,3.15168
1.40999,-0.0257302,2.853,3.18251
1.41925,-0.0257302,2.853,3.18662
1.44053,-0.0259467,2.877,3.21759
1.46196,-0.0261631,2.901,3.24866
1.48405,-0.0263886,2.926,3.28094
1.49355,-0.0263886,2.926,3.28525
1.52925,-0.0268486,2.977,3.34692
1.56631,-0.0273265,3.03,3.41101
1.57614,-0.0273265,3.03,3.41553
1.58598,-0.0273265,3.03,3.42008
1.61003,-0.02757,3.057,3.45517
1.61995,-0.02757,3.057,3.45981
1.64427,-0.0278136,3.084,3.49506
1.6693,-0.0280661,3.112,3.53156
1.69505,-0.0283276,3.141,3.5693
1.70524,-0.0283276,3.141,3.57415
1.73128,-0.0285892,3.17,3.61207
1.7575,-0.0288507,3.199,3.6501
1.76788,-0.0288507,3.199,3.65511
1.77827,-0.0288507,3.199,3.66015
1.78865,-0.0288507,3.199,3.6652
1.79903,-0.0288507,3.199,3.67028
1.80941,-0.0288507,3.199,3.67538
1.8198,-0.0288507,3.199,3.6805
1.83018,-0.0288507,3.199,3.68565
1.84056,-0.0288507,3.199,3.69081
1.85095,-0.0288507,3.199,3.696
1.86133,-0.0288507,3.199,3.70121
1.87171,-0.0288507,3.199,3.70645
1.86504,-0.0285892,3.17,3.67805
1.87532,-0.0285892,3.17,3.68328
1.86836,-0.0283276,3.141,3.65479
1.86121,-0.0280661,3.112,3.62622
1.87131,-0.0280661,3.112,3.63141
1.86449,-0.0278136,3.084,3.60391
1.85809,-0.02757,3.057,3.5775
1.86801,-0.02757,3.057,3.58266
1.86134,-0.0273265,3.03,3.55616
1.83845,-0.0268486,2.977,3.49902
1.84811,-0.0268486,2.977,3.50411
1.84155,-0.0266141,2.951,3.47856
1.83545,-0.0263886,2.926,3.45413
1.84494,-0.0263886,2.926,3.45919
1.82338,-0.0259467,2.877,3.40625
1.81743,-0.0257302,2.853,3.3828
1.7966,-0.0253064,2.806,3.33197
1.80571,-0.0253064,2.806,3.33689
1.78571,-0.0249005,2.761,3.28824
1.76607,-0.0245037,2.717,3.24063
1.77489,-0.0245037,2.717,3.24545
1.76992,-0.0243143,2.696,3.22516
1.75097,-0.0239355,2.654,3.17965
1.75958,-0.0239355,2.654,3.1844
1.74088,-0.0235658,2.613,3.1399
1.72325,-0.023214,2.574,3.09768
1.7316,-0.023214,2.574,3.10233
1.71427,-0.0228713,2.536,3.06113
1.7096,-0.0227,2.517,3.04278
-1.93066,-0.0160686,2.783,3.38715
-1.90643,-0.0159415,2.761,3.35527
-1.89747,-0.0159415,2.761,3.35019
-1.85842,-0.0156875,2.717,3.29181
-1.8353,-0.0155662,2.696,3.26144
-1.82655,-0.0155662,2.696,3.25652
-1.80364,-0.015445,2.675,3.2263
-1.79496,-0.015445,2.675,3.22145
-1.78628,-0.015445,2.675,3.21662
-1.77759,-0.015445,2.675,3.21181
-1.76891,-0.015445,2.675,3.20701
-1.76023,-0.015445,2.675,3.20223
-1.75155,-0.015445,2.675,3.19746
-1.74286,-0.015445,2.675,3.19272
-1.73418,-0.015445,2.675,3.18799
-1.7255,-0.015445,2.675,3.18327
-1.71682,-0.015445,2.675,3.17857
-1.70813,-0.015445,2.675,3.17389
-1.71279,-0.0155662,2.696,3.19411
-1.70404,-0.0155662,2.696,3.18942
-1.72233,-0.0158145,2.739,3.23555
-1.7272,-0.0159415,2.761,3.25678
-1.73193,-0.0160686,2.783,3.27795
-1.7229,-0.0160686,2.783,3.27318
-1.71387,-0.0160686,2.783,3.26844
-1.71892,-0.0162014,2.806,3.29068
-1.70982,-0.0162014,2.806,3.28594
-1.7292,-0.0164727,2.853,3.33617
-1.7344,-0.0166113,2.877,3.3594
-1.72507,-0.0166113,2.877,3.35459
-1.73004,-0.0167499,2.901,3.37774
-1.70639,-0.0166113,2.877,3.34502
-1.69705,-0.0166113,2.877,3.34027
-1.68771,-0.0166113,2.877,3.33553
-1.67838,-0.0166113,2.877,3.33082
-1.66904,-0.0166113,2.877,3.32612
-1.6597,-0.0166113,2.877,3.32145
-1.65036,-0.0166113,2.877,3.31679
-1.64102,-0.0166113,2.877,3.31215
-1.61807,-0.0164727,2.853,3.27995
-1.60881,-0.0164727,2.853,3.27539
nan,nan,nan,NaN
nan,nan,nan,NaN
nan,nan,nan,NaN
-1.52109,-0.0159415,2.761,3.15231
-1.51213,-0.0159415,2.761,3.148
-1.50317,-0.0159415,2.761,3.14371
-1.4942,-0.0159415,2.761,3.13943
-1.48524,-0.0159415,2.761,3.13517
-1.46452,-0.0158145,2.739,3.10599
-1.44394,-0.0156875,2.717,3.0769
-1.43512,-0.0156875,2.717,3.07277
-1.4263,-0.0156875,2.717,3.06866
-1.40652,-0.0155662,2.696,3.04088
-1.39777,-0.0155662,2.696,3.03685
-1.38902,-0.0155662,2.696,3.03283
-1.36952,-0.015445,2.675,3.00524
-1.35016,-0.0153237,2.654,2.97773
-1.34154,-0.0153237,2.654,2.97383
-1.32238,-0.0152025,2.633,2.94646
-1.30385,-0.015087,2.613,2.92028
-1.29537,-0.015087,2.613,2.9165
-1.25833,-0.0147521,2.555,2.84809
-1.23144,-0.0145327,2.517,2.80213
-1.22327,-0.0145327,2.517,2.79855
-1.19772,-0.0143249,2.481,2.75502
-1.18104,-0.0142209,2.463,2.73156
-1.17305,-0.0142209,2.463,2.72811
-1.15654,-0.014117,2.445,2.70477
-1.14062,-0.0140188,2.428,2.68261
-1.1248,-0.0139207,2.411,2.66051
-1.11698,-0.0139207,2.411,2.65721
-1.10133,-0.0138225,2.394,2.63522
-1.09356,-0.0138225,2.394,2.63198
-1.08579,-0.0138225,2.394,2.62876
-1.07037,-0.0137244,2.377,2.60691
-1.06265,-0.0137244,2.377,2.60376
-1.05494,-0.0137244,2.377,2.60062
-1.04722,-0.0137244,2.377,2.5975
-1.03951,-0.0137244,2.377,2.5944
-1.03179,-0.0137244,2.377,2.59131
-1.02408,-0.0137244,2.377,2.58825
-1.01636,-0.0137244,2.377,2.58521
-1.00865,-0.0137244,2.377,2.58219
-1.00093,-0.0137244,2.377,2.57918
-0.993215,-0.0137244,2.377,2.5762
-0.978866,-0.013632,2.361,2.55591
-0.971203,-0.013632,2.361,2.55299
-0.96354,-0.013632,2.361,2.55008
-0.955876,-0.013632,2.361,2.5472
-0.948213,-0.013632,2.361,2.54433
-0.94055,-0.013632,2.361,2.54148
-0.932887,-0.013632,2.361,2.53866
-0.925224,-0.013632,2.361,2.53585
-0.923778,-0.0137244,2.377,2.55023
-0.916063,-0.0137244,2.377,2.54745
-0.908348,-0.0137244,2.377,2.54468
-0.900633,-0.0137244,2.377,2.54194
-0.892918,-0.0137244,2.377,2.53922
-0.885203,-0.0137244,2.377,2.53651
-0.877488,-0.0137244,2.377,2.53383
-0.869772,-0.0137244,2.377,2.53117
-0.862057,-0.0137244,2.377,2.52853
-0.854342,-0.0137244,2.377,2.52591
-0.846627,-0.0137244,2.377,2.52331
-0.838912,-0.0137244,2.377,2.52073
-0.837141,-0.0138225,2.394,2.53618
-0.829371,-0.0138225,2.394,2.53363
-0.821601,-0.0138225,2.394,2.5311
-0.81383,-0.0138225,2.394,2.52859
-0.80606,-0.0138225,2.394,2.5261
-0.79829,-0.0138225,2.394,2.52363
-0.790519,-0.0138225,2.394,2.52118
-0.782749,-0.0138225,2.394,2.51875
-0.774979,-0.0138225,2.394,2.51635
-0.767208,-0.0138225,2.394,2.51397
-0.759438,-0.0138225,2.394,2.51161
-0.757005,-0.0139207,2.411,2.52709
-0.74918,-0.0139207,2.411,2.52475
-0.741354,-0.0139207,2.411,2.52244
-0.733529,-0.0139207,2.411,2.52015
-0.725703,-0.0139207,2.411,2.51789
-0.722939,-0.0140188,2.428,2.53338
-0.715059,-0.0140188,2.428,2.53114
-0.707178,-0.0140188,2.428,2.52893
-0.704194,-0.014117,2.445,2.54443
-0.696258,-0.014117,2.445,2.54224
-0.688322,-0.014117,2.445,2.54008
-0.680386,-0.014117,2.445,2.53794
-0.67245,-0.014117,2.445,2.53583
-0.669406,-0.0142209,2.463,2.55239
-0.661412,-0.0142209,2.463,2.5503
-0.653418,-0.0142209,2.463,2.54824
-0.645424,-0.0142209,2.463,2.5462
-0.637429,-0.0142209,2.463,2.54419
-0.629435,-0.0142209,2.463,2.5422
-0.621441,-0.0142209,2.463,2.54023
-0.61793,-0.0143249,2.481,2.55683
-0.609877,-0.0143249,2.481,2.5549
-0.601824,-0.0143249,2.481,2.55299
-0.593771,-0.0143249,2.481,2.5511
-0.585719,-0.0143249,2.481,2.54924
-0.577666,-0.0143249,2.481,2.5474
-0.569613,-0.0143249,2.481,2.54559
-0.561561,-0.0143249,2.481,2.5438
-0.553508,-0.0143249,2.481,2.54203
-0.545455,-0.0143249,2.481,2.54029
-0.537403,-0.0143249,2.481,2.53858
-0.52935,-0.0143249,2.481,2.53688
-0.525079,-0.0144288,2.499,2.55361
-0.516968,-0.0144288,2.499,2.55195
-0.508857,-0.0144288,2.499,2.55032
-0.504353,-0.0145327,2.517,2.56707
-0.496183,-0.0145327,2.517,2.56548
-0.488013,-0.0145327,2.517,2.56391
-0.483466,-0.0146424,2.536,2.58171
-0.475235,-0.0146424,2.536,2.58019
-0.470502,-0.0147521,2.555,2.598
-0.46221,-0.0147521,2.555,2.59651
-0.453917,-0.0147521,2.555,2.59505
-0.445624,-0.0147521,2.555,2.59361
-0.437331,-0.0147521,2.555,2.5922
-0.429038,-0.0147521,2.555,2.59081
-0.423874,-0.0148618,2.574,2.60871
-0.415519,-0.0148618,2.574,2.60737
-0.404159,-0.0147521,2.555,2.58681
-0.395866,-0.0147521,2.555,2.58553
-0.387574,-0.0147521,2.555,2.58427
-0.379281,-0.0147521,2.555,2.58304
-0.370988,-0.0147521,2.555,2.58184
-0.362695,-0.0147521,2.555,2.58066
-0.354402,-0.0147521,2.555,2.5795
-0.346109,-0.0147521,2.555,2.57838
-0.337816,-0.0147521,2.555,2.57728
-0.329523,-0.0147521,2.555,2.5762
-0.318842,-0.0146424,2.536,2.55601
-0.31061,-0.0146424,2.536,2.55499
-0.302379,-0.0146424,2.536,2.55401
-0.294148,-0.0146424,2.536,2.55304
-0.283775,-0.0145327,2.517,2.53299
-0.275605,-0.0145327,2.517,2.53209
-0.267435,-0.0145327,2.517,2.53121
-0.259266,-0.0145327,2.517,2.53036
-0.251096,-0.0145327,2.517,2.52954
-0.24119,-0.0144288,2.499,2.51065
-0.233078,-0.0144288,2.499,2.50989
-0.224967,-0.0144288,2.499,2.50915
-0.216856,-0.0144288,2.499,2.50843
-0.208745,-0.0144288,2.499,2.50774
-0.200634,-0.0144288,2.499,2.50708
-0.192523,-0.0144288,2.499,2.50645
-0.184412,-0.0144288,2.499,2.50584
-0.1763,-0.0144288,2.499,2.50525
-0.168189,-0.0144288,2.499,2.50469
-0.160078,-0.0144288,2.499,2.50416
-0.151967,-0.0144288,2.499,2.50366
-0.143856,-0.0144288,2.499,2.50318
-0.135745,-0.0144288,2.499,2.50273
-0.127634,-0.0144288,2.499,2.5023
-0.119523,-0.0144288,2.499,2.5019
-0.111411,-0.0144288,2.499,2.50152
-0.1033,-0.0144288,2.499,2.50118
-0.0951891,-0.0144288,2.499,2.50085
-0.0864508,-0.0143249,2.481,2.48255
-0.078398,-0.0143249,2.481,2.48228
-0.0703453,-0.0143249,2.481,2.48204
-0.0622926,-0.0143249,2.481,2.48182
-0.0542399,-0.0143249,2.481,2.48163
-0.0461872,-0.0143249,2.481,2.48147
-0.0381345,-0.0143249,2.481,2.48133
-0.0300818,-0.0143249,2.481,2.48122
-0.0220291,-0.0143249,2.481,2.48114
-0.0139764,-0.0143249,2.481,2.48108
-0.00592366,-0.0143249,2.481,2.48105
0.00212905,-0.0143249,2.481,2.48104
0.0101818,-0.0143249,2.481,2.48106
0.0182345,-0.0143249,2.481,2.48111
0.0262872,-0.0143249,2.481,2.48118
0.0343399,-0.0143249,2.481,2.48128
0.0423926,-0.0143249,2.481,2.4814
0.0504453,-0.0143249,2.481,2.48155
0.0589224,-0.0144288,2.499,2.49974
0.0670336,-0.0144288,2.499,2.49994
0.0751447,-0.0144288,2.499,2.50017
0.0832558,-0.0144288,2.499,2.50043
0.091367,-0.0144288,2.499,2.50071
0.0994781,-0.0144288,2.499,2.50102
0.107589,-0.0144288,2.499,2.50136
0.1157,-0.0144288,2.499,2.50172
0.123811,-0.0144288,2.499,2.50211
0.131923,-0.0144288,2.499,2.50252
0.139025,-0.0143249,2.481,2.48493
0.147078,-0.0143249,2.481,2.4854
0.155131,-0.0143249,2.481,2.48589
0.163183,-0.0143249,2.481,2.4864
0.171236,-0.0143249,2.481,2.48694
0.179289,-0.0143249,2.481,2.48751
0.185982,-0.0142209,2.463,2.47005
0.193976,-0.0142209,2.463,2.47067
0.201971,-0.0142209,2.463,2.47131
0.209965,-0.0142209,2.463,2.47197
0.217959,-0.0142209,2.463,2.47267
0.225954,-0.0142209,2.463,2.47338
0.233948,-0.0142209,2.463,2.47413
0.241942,-0.0142209,2.463,2.4749
0.249936,-0.0142209,2.463,2.47569
0.257931,-0.0142209,2.463,2.47651
0.265925,-0.0142209,2.463,2.47736
0.273919,-0.0142209,2.463,2.47823
0.279853,-0.014117,2.445,2.461
0.287789,-0.014117,2.445,2.46192
0.295725,-0.014117,2.445,2.46286
0.303661,-0.014117,2.445,2.46383
0.311597,-0.014117,2.445,2.46482
0.319533,-0.014117,2.445,2.46583
0.327469,-0.014117,2.445,2.46687
0.335404,-0.014117,2.445,2.46794
0.34334,-0.014117,2.445,2.46903
0.351276,-0.014117,2.445,2.47015
0.359212,-0.014117,2.445,2.47129
0.367148,-0.014117,2.445,2.47245
0.375084,-0.014117,2.445,2.47364
0.38302,-0.014117,2.445,2.47486
0.388237,-0.0140188,2.428,2.45888
0.396118,-0.0140188,2.428,2.46014
0.403999,-0.0140188,2.428,2.46142
0.411879,-0.0140188,2.428,2.46273
0.41976,-0.0140188,2.428,2.46406
0.427641,-0.0140188,2.428,2.46541
0.435521,-0.0140188,2.428,2.46679
0.446507,-0.014117,2.445,2.48548
0.454442,-0.014117,2.445,2.48691
0.462378,-0.014117,2.445,2.48838
0.470314,-0.014117,2.445,2.48986
0.481771,-0.0142209,2.463,2.50972
0.486186,-0.014117,2.445,2.49291
0.494122,-0.014117,2.445,2.49447
0.502058,-0.014117,2.445,2.49605
0.513748,-0.0142209,2.463,2.51605
0.521742,-0.0142209,2.463,2.51769
0.533608,-0.0143249,2.481,2.53778
0.541661,-0.0143249,2.481,2.53948
0.549713,-0.0143249,2.481,2.54121
0.557766,-0.0143249,2.481,2.54296
0.569924,-0.0144288,2.499,2.56321
0.578035,-0.0144288,2.499,2.56502
0.586146,-0.0144288,2.499,2.56686
0.594257,-0.0144288,2.499,2.56873
0.606707,-0.0145327,2.517,2.58913
0.614877,-0.0145327,2.517,2.59106
0.623046,-0.0145327,2.517,2.59301
0.631216,-0.0145327,2.517,2.59498
0.639385,-0.0145327,2.517,2.59698
0.652443,-0.0146424,2.536,2.61862
0.660674,-0.0146424,2.536,2.62069
0.668906,-0.0146424,2.536,2.62277
0.677137,-0.0146424,2.536,2.62489
0.685368,-0.0146424,2.536,2.62702
0.693599,-0.0146424,2.536,2.62918
0.70183,-0.0146424,2.536,2.63136
0.710062,-0.0146424,2.536,2.63357
0.718293,-0.0146424,2.536,2.6358
0.726524,-0.0146424,2.536,2.63806
0.74026,-0.0147521,2.555,2.66012
0.748553,-0.0147521,2.555,2.66244
0.756846,-0.0147521,2.555,2.66478
0.765139,-0.0147521,2.555,2.66715
0.773432,-0.0147521,2.555,2.66954
0.781725,-0.0147521,2.555,2.67195
0.790018,-0.0147521,2.555,2.67439
0.798311,-0.0147521,2.555,2.67685
0.806603,-0.0147521,2.555,2.67934
0.814896,-0.0147521,2.555,2.68185
0.823189,-0.0147521,2.555,2.68438
0.831482,-0.0147521,2.555,2.68693
0.839775,-0.0147521,2.555,2.68951
0.848068,-0.0147521,2.555,2.69211
0.856361,-0.0147521,2.555,2.69474
0.864654,-0.0147521,2.555,2.69738
0.866455,-0.0146424,2.536,2.67997
0.874686,-0.0146424,2.536,2.68265
0.882918,-0.0146424,2.536,2.68534
0.891149,-0.0146424,2.536,2.68806
0.89938,-0.0146424,2.536,2.6908
0.900811,-0.0145327,2.517,2.67338
0.90248,-0.0144288,2.499,2.65701
0.904033,-0.0143249,2.481,2.64061
0.912085,-0.0143249,2.481,2.64338
0.920138,-0.0143249,2.481,2.64617
0.921457,-0.0142209,2.463,2.62976
0.929451,-0.0142209,2.463,2.63257
0.930594,-0.014117,2.445,2.61615
0.93853,-0.014117,2.445,2.61898
0.946466,-0.014117,2.445,2.62184
0.947766,-0.0140188,2.428,2.60646
0.955646,-0.0140188,2.428,2.60934
0.963527,-0.0140188,2.428,2.61223
0.971408,-0.0140188,2.428,2.61515
0.979289,-0.0140188,2.428,2.61809
0.980257,-0.0139207,2.411,2.60269
0.988083,-0.0139207,2.411,2.60565
0.995908,-0.0139207,2.411,2.60863
1.01081,-0.0140188,2.428,2.63004
1.01869,-0.0140188,2.428,2.63308
1.02657,-0.0140188,2.428,2.63614
1.0417,-0.014117,2.445,2.6577
1.05736,-0.0142209,2.463,2.68041
1.06535,-0.0142209,2.463,2.68357
1.08119,-0.0143249,2.481,2.70639
1.09715,-0.0144288,2.499,2.72927
1.10526,-0.0144288,2.499,2.73255
1.12139,-0.0145327,2.517,2.75554
1.14661,-0.0147521,2.555,2.80053
1.16349,-0.0148618,2.574,2.82479
1.17185,-0.0148618,2.574,2.82824
1.19808,-0.015087,2.613,2.87461
1.2158,-0.0152025,2.633,2.90019
1.22435,-0.0152025,2.633,2.90378
1.24273,-0.0153237,2.654,2.93058
1.27114,-0.0155662,2.696,2.98068
1.27989,-0.0155662,2.696,2.98442
1.28864,-0.0155662,2.696,2.98819
1.31809,-0.0158145,2.739,3.03969
1.34829,-0.0160686,2.783,3.09245
1.35733,-0.0160686,2.783,3.0964
1.38894,-0.0163341,2.829,3.15161
1.40999,-0.0164727,2.853,3.18244
1.41925,-0.0164727,2.853,3.18656
1.44053,-0.0166113,2.877,3.21753
1.46196,-0.0167499,2.901,3.2486
1.48405,-0.0168942,2.926,3.28088
1.49355,-0.0168942,2.926,3.28519
1.52925,-0.0171887,2.977,3.34685
1.56631,-0.0174947,3.03,3.41094
1.57614,-0.0174947,3.03,3.41547
1.58598,-0.0174947,3.03,3.42002
1.61003,-0.0176506,3.057,3.45511
1.61995,-0.0176506,3.057,3.45974
1.64427,-0.0178065,3.084,3.495
1.6693,-0.0179681,3.112,3.53149
1.69505,-0.0181356,3.141,3.56923
1.70524,-0.0181356,3.141,3.57408
1.73128,-0.018303,3.17,3.612
1.74157,-0.018303,3.17,3.61695
1.75186,-0.018303,3.17,3.62191
1.76214,-0.018303,3.17,3.6269
1.78865,-0.0184705,3.199,3.66513
1.79903,-0.0184705,3.199,3.67021
1.80941,-0.0184705,3.199,3.67531
1.8198,-0.0184705,3.199,3.68044
1.83018,-0.0184705,3.199,3.68558
1.84056,-0.0184705,3.199,3.69075
1.83417,-0.018303,3.17,3.66243
1.84446,-0.018303,3.17,3.6676
1.85475,-0.018303,3.17,3.67278
1.84797,-0.0181356,3.141,3.64434
1.85817,-0.0181356,3.141,3.64952
1.86836,-0.0181356,3.141,3.65472
1.86121,-0.0179681,3.112,3.62615
1.87131,-0.0179681,3.112,3.63135
1.86449,-0.0178065,3.084,3.60384
1.85809,-0.0176506,3.057,3.57744
1.86801,-0.0176506,3.057,3.5826
1.86134,-0.0174947,3.03,3.5561
1.83845,-0.0171887,2.977,3.49896
1.84811,-0.0171887,2.977,3.50405
1.84155,-0.0170386,2.951,3.4785
1.81976,-0.0167499,2.901,3.42456
1.82918,-0.0167499,2.901,3.42957
1.82338,-0.0166113,2.877,3.40619
1.80215,-0.0163341,2.829,3.35429
1.78187,-0.0160686,2.783,3.30461
1.79091,-0.0160686,2.783,3.30949
1.77148,-0.0158145,2.739,3.26198
1.76607,-0.0156875,2.717,3.24058
1.77489,-0.0156875,2.717,3.24539
1.75614,-0.015445,2.675,3.19998
1.73711,-0.0152025,2.633,3.15444
1.74566,-0.0152025,2.633,3.15915
1.72755,-0.0149715,2.593,3.11582
1.71053,-0.0147521,2.555,3.07476
1.71882,-0.0147521,2.555,3.07938
1.71427,-0.0146424,2.536,3.06108
1.69737,-0.0144288,2.499,3.02097
-1.93066,-0.00703817,2.783,3.38712
-1.90643,-0.00698254,2.761,3.35524
-1.89747,-0.00698254,2.761,3.35016
-1.85842,-0.00687126,2.717,3.29178
-1.8353,-0.00681815,2.696,3.26141
-1.82655,-0.00681815,2.696,3.25649
-1.80364,-0.00676504,2.675,3.22627
-1.79496,-0.00676504,2.675,3.22142
-1.78628,-0.00676504,2.675,3.21659
-1.77759,-0.00676504,2.675,3.21178
-1.76891,-0.00676504,2.675,3.20698
-1.76023,-0.00676504,2.675,3.2022
-1.75155,-0.00676504,2.675,3.19743
-1.74286,-0.00676504,2.675,3.19269
-1.73418,-0.00676504,2.675,3.18796
-1.7255,-0.00676504,2.675,3.18324
-1.71682,-0.00676504,2.675,3.17854
-1.70813,-0.00676504,2.675,3.17386
-1.71279,-0.00681815,2.696,3.19408
-1.70404,-0.00681815,2.696,3.18939
-1.72233,-0.0069269,2.739,3.23552
-1.7272,-0.00698254,2.761,3.25675
-1.71824,-0.00698254,2.761,3.252
-1.70928,-0.00698254,2.761,3.24728
-1.71387,-0.00703817,2.783,3.26841
-1.71892,-0.00709634,2.806,3.29065
-1.70982,-0.00709634,2.806,3.2859
-1.7292,-0.0072152,2.853,3.33613
-1.7344,-0.0072759,2.877,3.35937
-1.72507,-0.0072759,2.877,3.35455
-1.71573,-0.0072759,2.877,3.34976
-1.70639,-0.0072759,2.877,3.34499
-1.69705,-0.0072759,2.877,3.34023
-1.67364,-0.0072152,2.853,3.30768
-1.65037,-0.00715451,2.829,3.27521
-1.64119,-0.00715451,2.829,3.2706
-1.61874,-0.00709634,2.806,3.23945
-1.60963,-0.00709634,2.806,3.2349
-1.60053,-0.00709634,2.806,3.23038
-1.5659,-0.00698254,2.761,3.17415
-1.54453,-0.0069269,2.739,3.14448
-1.53564,-0.0069269,2.739,3.14012
-1.52675,-0.0069269,2.739,3.13578
-1.50567,-0.00687126,2.717,3.10631
-1.49685,-0.00687126,2.717,3.10205
-1.48803,-0.00687126,2.717,3.0978
-1.47921,-0.00687126,2.717,3.09357
-1.47039,-0.00687126,2.717,3.08937
-1.46157,-0.00687126,2.717,3.08518
-1.44153,-0.00681815,2.696,3.0572
-1.43278,-0.00681815,2.696,3.05308
-1.42403,-0.00681815,2.696,3.04899
-1.41528,-0.00681815,2.696,3.04491
-1.40652,-0.00681815,2.696,3.04085
-1.39777,-0.00681815,2.696,3.03681
-1.38902,-0.00681815,2.696,3.0328
-1.38027,-0.00681815,2.696,3.0288
-1.36084,-0.00676504,2.675,3.00126
-1.35216,-0.00676504,2.675,2.99733
-1.33293,-0.00671193,2.654,2.96993
-1.30385,-0.00660825,2.613,2.92025
-1.29537,-0.00660825,2.613,2.91647
-1.25833,-0.00646156,2.555,2.84806
-1.23144,-0.00636546,2.517,2.8021
-1.22327,-0.00636546,2.517,2.79852
-1.19772,-0.00627442,2.481,2.75499
-1.17241,-0.00618338,2.445,2.71157
-1.16447,-0.00618338,2.445,2.70815
-1.1485,-0.00614038,2.428,2.68594
-1.13263,-0.00609739,2.411,2.6638
-1.1248,-0.00609739,2.411,2.66048
-1.11698,-0.00609739,2.411,2.65718
-1.10133,-0.0060544,2.394,2.63519
-1.09356,-0.0060544,2.394,2.63195
-1.08579,-0.0060544,2.394,2.62873
-1.07037,-0.0060114,2.377,2.60689
-1.06265,-0.0060114,2.377,2.60373
-1.05494,-0.0060114,2.377,2.60059
-1.04722,-0.0060114,2.377,2.59747
-1.03951,-0.0060114,2.377,2.59437
-1.03179,-0.0060114,2.377,2.59128
-1.02408,-0.0060114,2.377,2.58822
-1.01636,-0.0060114,2.377,2.58518
-1.00865,-0.0060114,2.377,2.58216
-1.00093,-0.0060114,2.377,2.57915
-0.993215,-0.0060114,2.377,2.57617
-0.978866,-0.00597094,2.361,2.55588
-0.971203,-0.00597094,2.361,2.55296
-0.96354,-0.00597094,2.361,2.55005
-0.955876,-0.00597094,2.361,2.54717
-0.948213,-0.00597094,2.361,2.5443
-0.94055,-0.00597094,2.361,2.54145
-0.932887,-0.00597094,2.361,2.53863
-0.925224,-0.00597094,2.361,2.53582
-0.923778,-0.0060114,2.377,2.5502
-0.916063,-0.0060114,2.377,2.54742
-0.908348,-0.0060114,2.377,2.54465
-0.900633,-0.0060114,2.377,2.54191
-0.892918,-0.0060114,2.377,2.53919
-0.885203,-0.0060114,2.377,2.53648
-0.877488,-0.0060114,2.377,2.5338
-0.869772,-0.0060114,2.377,2.53114
-0.862057,-0.0060114,2.377,2.5285
-0.854342,-0.0060114,2.377,2.52588
-0.852682,-0.0060544,2.394,2.54133
-0.844912,-0.0060544,2.394,2.53873
-0.837141,-0.0060544,2.394,2.53615
-0.829371,-0.0060544,2.394,2.5336
