nan,nan,nan,NaN
nan,nan,nan,NaN
nan,nan,nan,NaN
nan,nan,nan,NaN
nan,nan,nan,NaN
nan,nan,nan,NaN
nan,nan,nan,NaN
nan,nan,nan,NaN
nan,nan,nan,NaN
nan,nan,nan,NaN
-1.25003,-0.13911,2.555,2.8478
-1.24174,-0.13911,2.555,2.84417
-1.22428,-0.138076,2.536,2.81943
-1.21605,-0.138076,2.536,2.81587
-1.20781,-0.138076,2.536,2.81233
-1.1906,-0.137042,2.517,2.78776
-1.17397,-0.136061,2.499,2.76437
-1.16586,-0.136061,2.499,2.76093
-1.14941,-0.135081,2.481,2.73765
-1.13308,-0.134101,2.463,2.71445
-1.11686,-0.133121,2.445,2.6913
-1.10892,-0.133121,2.445,2.68802
-1.09333,-0.132196,2.428,2.66609
-1.08545,-0.132196,2.428,2.66287
-1.07757,-0.132196,2.428,2.65967
-1.0622,-0.13127,2.411,2.63788
-1.05437,-0.13127,2.411,2.63474
-1.04655,-0.13127,2.411,2.63162
-1.03872,-0.13127,2.411,2.62852
-1.0309,-0.13127,2.411,2.62543
-1.02307,-0.13127,2.411,2.62237
-1.01525,-0.13127,2.411,2.61933
-1.00032,-0.130345,2.394,2.59786
-0.992548,-0.130345,2.394,2.59488
-0.984778,-0.130345,2.394,2.59191
-0.977007,-0.130345,2.394,2.58897
-0.969237,-0.130345,2.394,2.58605
-0.961466,-0.130345,2.394,2.58315
-0.953696,-0.130345,2.394,2.58026
-0.945926,-0.130345,2.394,2.5774
-0.938156,-0.130345,2.394,2.57456
-0.930385,-0.130345,2.394,2.57174
-0.922615,-0.130345,2.394,2.56894
-0.914845,-0.130345,2.394,2.56616
-0.907074,-0.130345,2.394,2.5634
-0.899304,-0.130345,2.394,2.56066
-0.891534,-0.130345,2.394,2.55794
-0.883763,-0.130345,2.394,2.55524
-0.875993,-0.130345,2.394,2.55257
-0.868223,-0.130345,2.394,2.54991
-0.860452,-0.130345,2.394,2.54727
-0.852682,-0.130345,2.394,2.54466
-0.844912,-0.130345,2.394,2.54207
-0.837141,-0.130345,2.394,2.53949
-0.829371,-0.130345,2.394,2.53694
-0.821601,-0.130345,2.394,2.53441
-0.81383,-0.130345,2.394,2.53191
-0.80606,-0.130345,2.394,2.52942
-0.79829,-0.130345,2.394,2.52695
-0.790519,-0.130345,2.394,2.52451
-0.782749,-0.130345,2.394,2.52209
-0.774979,-0.130345,2.394,2.51969
-0.767208,-0.130345,2.394,2.51731
-0.759438,-0.130345,2.394,2.51495
-0.751668,-0.130345,2.394,2.51261
-0.743897,-0.130345,2.394,2.5103
-0.7309,-0.129419,2.377,2.4902
-0.723184,-0.129419,2.377,2.48795
-0.715469,-0.129419,2.377,2.48571
-0.707754,-0.129419,2.377,2.4835
-0.700039,-0.129419,2.377,2.48132
-0.692324,-0.129419,2.377,2.47915
-0.684609,-0.129419,2.377,2.47701
-0.676894,-0.129419,2.377,2.47489
-0.669178,-0.129419,2.377,2.47279
-0.661463,-0.129419,2.377,2.47071
-0.658424,-0.130345,2.394,2.48631
-0.650653,-0.130345,2.394,2.48427
-0.642883,-0.130345,2.394,2.48224
-0.635113,-0.130345,2.394,2.48024
-0.631797,-0.13127,2.411,2.49586
-0.623972,-0.13127,2.411,2.49389
-0.616146,-0.13127,2.411,2.49194
-0.608321,-0.13127,2.411,2.49002
-0.600495,-0.13127,2.411,2.48812
-0.59267,-0.13127,2.411,2.48624
-0.588968,-0.132196,2.428,2.50191
-0.581087,-0.132196,2.428,2.50006
-0.573206,-0.132196,2.428,2.49824
-0.565326,-0.132196,2.428,2.49645
-0.561348,-0.133121,2.445,2.51214
-0.553412,-0.133121,2.445,2.51038
-0.545476,-0.133121,2.445,2.50864
-0.53754,-0.133121,2.445,2.50693
-0.529605,-0.133121,2.445,2.50524
-0.521669,-0.133121,2.445,2.50357
-0.517515,-0.134101,2.463,2.52035
-0.509521,-0.134101,2.463,2.51872
-0.501526,-0.134101,2.463,2.51712
-0.493532,-0.134101,2.463,2.51554
-0.485538,-0.134101,2.463,2.51398
-0.477544,-0.134101,2.463,2.51245
-0.472981,-0.135081,2.481,2.52929
-0.464928,-0.135081,2.481,2.5278
-0.456875,-0.135081,2.481,2.52633
-0.448823,-0.135081,2.481,2.52489
-0.44077,-0.135081,2.481,2.52347
-0.432717,-0.135081,2.481,2.52207
-0.424665,-0.135081,2.481,2.5207
-0.416612,-0.135081,2.481,2.51936
-0.411523,-0.136061,2.499,2.53631
-0.403412,-0.136061,2.499,2.53501
-0.395301,-0.136061,2.499,2.53373
-0.38719,-0.136061,2.499,2.53248
-0.379079,-0.136061,2.499,2.53125
-0.37364,-0.137042,2.517,2.54827
-0.36547,-0.137042,2.517,2.54708
-0.357301,-0.137042,2.517,2.54592
-0.349131,-0.137042,2.517,2.54479
-0.340961,-0.137042,2.517,2.54368
-0.332792,-0.137042,2.517,2.5426
-0.324622,-0.137042,2.517,2.54154
-0.316453,-0.137042,2.517,2.54051
-0.308283,-0.137042,2.517,2.53951
-0.300114,-0.137042,2.517,2.53853
-0.291944,-0.137042,2.517,2.53758
-0.283775,-0.137042,2.517,2.53665
-0.275605,-0.137042,2.517,2.53575
-0.267435,-0.137042,2.517,2.53488
-0.259266,-0.137042,2.517,2.53403
-0.251096,-0.137042,2.517,2.5332
-0.242927,-0.137042,2.517,2.53241
-0.234757,-0.137042,2.517,2.53164
-0.226588,-0.137042,2.517,2.53089
-0.218418,-0.137042,2.517,2.53017
-0.210249,-0.137042,2.517,2.52948
-0.202079,-0.137042,2.517,2.52882
-0.193909,-0.137042,2.517,2.52818
-0.18574,-0.137042,2.517,2.52756
-0.17757,-0.137042,2.517,2.52697
-0.169401,-0.137042,2.517,2.52641
-0.161231,-0.137042,2.517,2.52588
-0.153062,-0.137042,2.517,2.52537
-0.144892,-0.137042,2.517,2.52489
-0.136723,-0.137042,2.517,2.52443
-0.128553,-0.137042,2.517,2.524
-0.120383,-0.137042,2.517,2.5236
-0.111411,-0.136061,2.499,2.50518
-0.1033,-0.136061,2.499,2.50483
-0.0958747,-0.137042,2.517,2.52255
-0.0877052,-0.137042,2.517,2.52225
-0.0795356,-0.137042,2.517,2.52198
-0.0713661,-0.137042,2.517,2.52174
-0.0627446,-0.136061,2.499,2.50349
-0.0546334,-0.136061,2.499,2.5033
-0.0465223,-0.136061,2.499,2.50313
-0.0384112,-0.136061,2.499,2.503
-0.0303,-0.136061,2.499,2.50288
-0.0221889,-0.136061,2.499,2.5028
-0.0140778,-0.136061,2.499,2.50274
-0.00596664,-0.136061,2.499,2.50271
0.00214449,-0.136061,2.499,2.5027
0.0102556,-0.136061,2.499,2.50272
0.0183668,-0.136061,2.499,2.50277
0.0262872,-0.135081,2.481,2.48481
0.0343399,-0.135081,2.481,2.48491
0.0423926,-0.135081,2.481,2.48504
0.0504453,-0.135081,2.481,2.48519
0.058498,-0.135081,2.481,2.48536
0.0665507,-0.135081,2.481,2.48557
0.0746034,-0.135081,2.481,2.48579
0.0826561,-0.135081,2.481,2.48605
0.0907089,-0.135081,2.481,2.48633
0.0987616,-0.135081,2.481,2.48664
0.106814,-0.135081,2.481,2.48697
0.114867,-0.135081,2.481,2.48733
0.122028,-0.134101,2.463,2.46966
0.130022,-0.134101,2.463,2.47007
0.138016,-0.134101,2.463,2.47051
0.146011,-0.134101,2.463,2.47097
0.154005,-0.134101,2.463,2.47145
0.161999,-0.134101,2.463,2.47196
0.169994,-0.134101,2.463,2.4725
0.177988,-0.134101,2.463,2.47306
0.185982,-0.134101,2.463,2.47365
0.193976,-0.134101,2.463,2.47426
0.201971,-0.134101,2.463,2.4749
0.209965,-0.134101,2.463,2.47557
0.219552,-0.135081,2.481,2.49436
0.227605,-0.135081,2.481,2.49508
0.235658,-0.135081,2.481,2.49583
0.24371,-0.135081,2.481,2.4966
0.25359,-0.136061,2.499,2.51552
0.261701,-0.136061,2.499,2.51635
0.269812,-0.136061,2.499,2.5172
0.277923,-0.136061,2.499,2.51809
0.286034,-0.136061,2.499,2.51899
0.294145,-0.136061,2.499,2.51993
0.304434,-0.137042,2.517,2.53905
0.312603,-0.137042,2.517,2.54004
0.320773,-0.137042,2.517,2.54106
0.328942,-0.137042,2.517,2.5421
0.337112,-0.137042,2.517,2.54317
0.345281,-0.137042,2.517,2.54427
0.353451,-0.137042,2.517,2.54539
0.36162,-0.137042,2.517,2.54653
0.36979,-0.137042,2.517,2.54771
0.37796,-0.137042,2.517,2.54891
0.386129,-0.137042,2.517,2.55013
0.394299,-0.137042,2.517,2.55138
0.402468,-0.137042,2.517,2.55266
0.410638,-0.137042,2.517,2.55396
0.418807,-0.137042,2.517,2.55528
0.423923,-0.136061,2.499,2.53835
0.432035,-0.136061,2.499,2.53972
0.443316,-0.137042,2.517,2.55941
0.448257,-0.136061,2.499,2.54253
0.456368,-0.136061,2.499,2.54397
0.464479,-0.136061,2.499,2.54544
0.47259,-0.136061,2.499,2.54693
0.480701,-0.136061,2.499,2.54845
0.488812,-0.136061,2.499,2.54999
0.496924,-0.136061,2.499,2.55156
0.505035,-0.136061,2.499,2.55315
0.513146,-0.136061,2.499,2.55477
0.521257,-0.136061,2.499,2.55641
0.529368,-0.136061,2.499,2.55807
0.537479,-0.136061,2.499,2.55977
0.54559,-0.136061,2.499,2.56148
0.553702,-0.136061,2.499,2.56322
0.561813,-0.136061,2.499,2.56498
0.569924,-0.136061,2.499,2.56677
0.578035,-0.136061,2.499,2.56859
0.586146,-0.136061,2.499,2.57042
0.594257,-0.136061,2.499,2.57229
0.602368,-0.136061,2.499,2.57417
0.610479,-0.136061,2.499,2.57608
0.618591,-0.136061,2.499,2.57802
0.626702,-0.136061,2.499,2.57997
0.63024,-0.135081,2.481,2.56336
0.638293,-0.135081,2.481,2.56535
0.646346,-0.135081,2.481,2.56737
0.654399,-0.135081,2.481,2.56941
0.662451,-0.135081,2.481,2.57147
0.670504,-0.135081,2.481,2.57355
0.678557,-0.135081,2.481,2.57566
0.686609,-0.135081,2.481,2.5778
0.694662,-0.135081,2.481,2.57995
0.702715,-0.135081,2.481,2.58213
0.710768,-0.135081,2.481,2.58434
0.71882,-0.135081,2.481,2.58656
0.726873,-0.135081,2.481,2.58881
0.734926,-0.135081,2.481,2.59109
0.742978,-0.135081,2.481,2.59338
0.751031,-0.135081,2.481,2.5957
0.753577,-0.134101,2.463,2.57919
0.761571,-0.134101,2.463,2.58154
0.769565,-0.134101,2.463,2.58391
0.777559,-0.134101,2.463,2.5863
0.785554,-0.134101,2.463,2.58872
0.793548,-0.134101,2.463,2.59115
0.801542,-0.134101,2.463,2.59361
0.809537,-0.134101,2.463,2.59609
0.817531,-0.134101,2.463,2.5986
0.825525,-0.134101,2.463,2.60112
0.833519,-0.134101,2.463,2.60367
0.841514,-0.134101,2.463,2.60624
0.849508,-0.134101,2.463,2.60883
0.857502,-0.134101,2.463,2.61145
0.859171,-0.133121,2.445,2.59498
0.867107,-0.133121,2.445,2.59762
0.875043,-0.133121,2.445,2.60028
0.882979,-0.133121,2.445,2.60296
0.890915,-0.133121,2.445,2.60566
0.892601,-0.132196,2.428,2.59025
0.900482,-0.132196,2.428,2.59298
0.902002,-0.13127,2.411,2.57755
0.909828,-0.13127,2.411,2.5803
0.917653,-0.13127,2.411,2.58307
0.918953,-0.130345,2.394,2.56763
0.926724,-0.130345,2.394,2.57042
0.934494,-0.130345,2.394,2.57323
0.942264,-0.130345,2.394,2.57606
0.950035,-0.130345,2.394,2.57891
0.957805,-0.130345,2.394,2.58179
0.972432,-0.13127,2.411,2.60303
0.980257,-0.13127,2.411,2.60597
0.988083,-0.13127,2.411,2.60892
0.995908,-0.13127,2.411,2.61189
1.01789,-0.133121,2.445,2.65176
1.04093,-0.135081,2.481,2.69391
1.04898,-0.135081,2.481,2.69703
nan,nan,nan,NaN
nan,nan,nan,NaN
nan,nan,nan,NaN
nan,nan,nan,NaN
nan,nan,nan,NaN
nan,nan,nan,NaN
nan,nan,nan,NaN
nan,nan,nan,NaN
nan,nan,nan,NaN
nan,nan,nan,NaN
nan,nan,nan,NaN
nan,nan,nan,NaN
nan,nan,nan,NaN
nan,nan,nan,NaN
nan,nan,nan,NaN
nan,nan,nan,NaN
nan,nan,nan,NaN
nan,nan,nan,NaN
nan,nan,nan,NaN
nan,nan,nan,NaN
nan,nan,nan,NaN
nan,nan,nan,NaN
nan,nan,nan,NaN
nan,nan,nan,NaN
nan,nan,nan,NaN
nan,nan,nan,NaN
nan,nan,nan,NaN
nan,nan,nan,NaN
nan,nan,nan,NaN
nan,nan,nan,NaN
nan,nan,nan,NaN
nan,nan,nan,NaN
1.79588,-0.184519,3.389,3.83987
1.80688,-0.184519,3.389,3.84502
1.83612,-0.18637,3.423,3.88883
1.86612,-0.188276,3.458,3.93391
1.87734,-0.188276,3.458,3.93924
1.88857,-0.188276,3.458,3.9446
1.91902,-0.190181,3.493,3.98997
1.93036,-0.190181,3.493,3.99543
1.94169,-0.190181,3.493,4.00092
1.95303,-0.190181,3.493,4.00644
1.94469,-0.188276,3.458,3.97178
1.95591,-0.188276,3.458,3.97729
1.96713,-0.188276,3.458,3.98282
1.95833,-0.18637,3.423,3.948
1.94988,-0.184519,3.389,3.91426
1.96088,-0.184519,3.389,3.91975
1.97188,-0.184519,3.389,3.92526
1.96357,-0.182722,3.356,3.89252
1.95564,-0.18098,3.324,3.86086
1.96643,-0.18098,3.324,3.86634
1.97722,-0.18098,3.324,3.87184
1.96887,-0.179237,3.292,3.84003
1.97955,-0.179237,3.292,3.84552
1.99024,-0.179237,3.292,3.85103
1.96324,-0.175862,3.23,3.78393
1.97372,-0.175862,3.23,3.78938
1.98421,-0.175862,3.23,3.79485
1.95764,-0.172595,3.17,3.72975
1.96793,-0.172595,3.17,3.73516
1.94202,-0.169437,3.112,3.67215
1.91762,-0.166443,3.057,3.61251
1.92754,-0.166443,3.057,3.61779
1.90324,-0.163502,3.003,3.55908
1.87986,-0.160671,2.951,3.50258
1.85743,-0.157949,2.901,3.4483
1.86684,-0.157949,2.901,3.45338
1.84521,-0.155336,2.853,3.40126
1.80897,-0.151524,2.783,3.32272
1.81801,-0.151524,2.783,3.32764
1.79815,-0.149129,2.739,3.2799
1.77867,-0.146787,2.696,3.23321
1.78743,-0.146787,2.696,3.23803
1.78218,-0.145644,2.675,3.21761
1.77681,-0.144501,2.654,3.19713
1.78542,-0.144501,2.654,3.20193
1.76632,-0.142268,2.613,3.1572
1.74831,-0.140145,2.574,3.11476
-2.02986,-0.149816,2.926,3.5643
-2.02036,-0.149816,2.926,3.5589
-2.01087,-0.149816,2.926,3.55352
-1.98427,-0.148536,2.901,3.51784
-1.94218,-0.146078,2.853,3.45442
-1.93292,-0.146078,2.853,3.44922
-1.90748,-0.144849,2.829,3.41507
-1.88286,-0.143672,2.806,3.38222
-1.87375,-0.143672,2.806,3.37716
-1.84936,-0.142494,2.783,3.34448
-1.82578,-0.141367,2.761,3.31309
-1.81682,-0.141367,2.761,3.30816
-1.79345,-0.140241,2.739,3.27693
-1.78456,-0.140241,2.739,3.27207
-1.77567,-0.140241,2.739,3.26723
-1.78097,-0.141367,2.761,3.28861
-1.77201,-0.141367,2.761,3.28377
-1.7771,-0.142494,2.783,3.30507
-1.76807,-0.142494,2.783,3.30022
-1.75903,-0.142494,2.783,3.29539
-1.79402,-0.146078,2.853,3.37334
-1.78476,-0.146078,2.853,3.36843
-1.7755,-0.146078,2.853,3.36353
-1.76624,-0.146078,2.853,3.35865
-1.77176,-0.147307,2.877,3.382
-1.77712,-0.148536,2.901,3.40529
-1.7677,-0.148536,2.901,3.40039
-1.74374,-0.147307,2.877,3.36741
-1.7344,-0.147307,2.877,3.36259
-1.72507,-0.147307,2.877,3.35778
-1.71573,-0.147307,2.877,3.35299
-1.70639,-0.147307,2.877,3.34822
-1.6829,-0.146078,2.853,3.31558
-1.67364,-0.146078,2.853,3.31089
-1.66438,-0.146078,2.853,3.30622
nan,nan,nan,NaN
nan,nan,nan,NaN
nan,nan,nan,NaN
nan,nan,nan,NaN
nan,nan,nan,NaN
nan,nan,nan,NaN
nan,nan,nan,NaN
nan,nan,nan,NaN
nan,nan,nan,NaN
nan,nan,nan,NaN
nan,nan,nan,NaN
nan,nan,nan,NaN
nan,nan,nan,NaN
nan,nan,nan,NaN
nan,nan,nan,NaN
nan,nan,nan,NaN
nan,nan,nan,NaN
nan,nan,nan,NaN
nan,nan,nan,NaN
nan,nan,nan,NaN
nan,nan,nan,NaN
nan,nan,nan,NaN
nan,nan,nan,NaN
nan,nan,nan,NaN
nan,nan,nan,NaN
nan,nan,nan,NaN
nan,nan,nan,NaN
nan,nan,nan,NaN
-1.25003,-0.13082,2.555,2.84741
-1.24174,-0.13082,2.555,2.84378
-1.22428,-0.129847,2.536,2.81904
-1.21605,-0.129847,2.536,2.81548
-1.20781,-0.129847,2.536,2.81193
-1.1906,-0.128874,2.517,2.78737
-1.17397,-0.127953,2.499,2.76398
-1.16586,-0.127953,2.499,2.76054
-1.14941,-0.127031,2.481,2.73727
-1.13308,-0.126109,2.463,2.71406
-1.11686,-0.125188,2.445,2.69092
-1.10892,-0.125188,2.445,2.68764
-1.09333,-0.124317,2.428,2.66571
-1.08545,-0.124317,2.428,2.66249
-1.07757,-0.124317,2.428,2.65929
-1.0622,-0.123447,2.411,2.6375
-1.05437,-0.123447,2.411,2.63436
-1.04655,-0.123447,2.411,2.63124
-1.03872,-0.123447,2.411,2.62814
-1.0309,-0.123447,2.411,2.62505
-1.02307,-0.123447,2.411,2.62199
-1.01525,-0.123447,2.411,2.61895
-1.00032,-0.122576,2.394,2.59748
-0.992548,-0.122576,2.394,2.5945
-0.984778,-0.122576,2.394,2.59153
-0.977007,-0.122576,2.394,2.58859
-0.969237,-0.122576,2.394,2.58567
-0.961466,-0.122576,2.394,2.58277
-0.953696,-0.122576,2.394,2.57988
-0.945926,-0.122576,2.394,2.57702
-0.938156,-0.122576,2.394,2.57418
-0.930385,-0.122576,2.394,2.57136
-0.922615,-0.122576,2.394,2.56856
-0.914845,-0.122576,2.394,2.56578
-0.907074,-0.122576,2.394,2.56301
-0.899304,-0.122576,2.394,2.56028
-0.891534,-0.122576,2.394,2.55756
-0.883763,-0.122576,2.394,2.55486
-0.875993,-0.122576,2.394,2.55218
-0.868223,-0.122576,2.394,2.54952
-0.860452,-0.122576,2.394,2.54689
-0.852682,-0.122576,2.394,2.54427
-0.844912,-0.122576,2.394,2.54168
-0.837141,-0.122576,2.394,2.53911
-0.829371,-0.122576,2.394,2.53656
-0.821601,-0.122576,2.394,2.53403
-0.81383,-0.122576,2.394,2.53152
-0.80606,-0.122576,2.394,2.52903
-0.79829,-0.122576,2.394,2.52656
-0.796133,-0.123447,2.411,2.54204
-0.788307,-0.123447,2.411,2.5396
-0.780482,-0.123447,2.411,2.53719
-0.772656,-0.123447,2.411,2.53479
-0.759438,-0.122576,2.394,2.51456
-0.751668,-0.122576,2.394,2.51222
-0.743897,-0.122576,2.394,2.50991
-0.736127,-0.122576,2.394,2.50762
-0.728357,-0.122576,2.394,2.50535
-0.715469,-0.121706,2.377,2.48532
-0.707754,-0.121706,2.377,2.48311
-0.700039,-0.121706,2.377,2.48093
-0.692324,-0.121706,2.377,2.47876
-0.684609,-0.121706,2.377,2.47662
-0.676894,-0.121706,2.377,2.4745
-0.669178,-0.121706,2.377,2.4724
-0.661463,-0.121706,2.377,2.47032
-0.658424,-0.122576,2.394,2.48592
-0.650653,-0.122576,2.394,2.48387
-0.642883,-0.122576,2.394,2.48185
-0.635113,-0.122576,2.394,2.47984
-0.631797,-0.123447,2.411,2.49546
-0.623972,-0.123447,2.411,2.49349
-0.616146,-0.123447,2.411,2.49154
-0.608321,-0.123447,2.411,2.48962
-0.600495,-0.123447,2.411,2.48772
-0.596848,-0.124317,2.428,2.50337
-0.588968,-0.124317,2.428,2.5015
-0.581087,-0.124317,2.428,2.49966
-0.573206,-0.124317,2.428,2.49784
-0.569284,-0.125188,2.445,2.51352
-0.561348,-0.125188,2.445,2.51173
-0.553412,-0.125188,2.445,2.50997
-0.545476,-0.125188,2.445,2.50823
-0.53754,-0.125188,2.445,2.50652
-0.529605,-0.125188,2.445,2.50483
-0.525509,-0.126109,2.463,2.52159
-0.517515,-0.126109,2.463,2.51994
-0.509521,-0.126109,2.463,2.51831
-0.501526,-0.126109,2.463,2.5167
-0.493532,-0.126109,2.463,2.51512
-0.485538,-0.126109,2.463,2.51357
-0.477544,-0.126109,2.463,2.51204
-0.469549,-0.126109,2.463,2.51053
-0.461555,-0.126109,2.463,2.50904
-0.453561,-0.126109,2.463,2.50759
-0.445566,-0.126109,2.463,2.50615
-0.44077,-0.127031,2.481,2.52305
-0.432717,-0.127031,2.481,2.52165
-0.424665,-0.127031,2.481,2.52029
-0.416612,-0.127031,2.481,2.51894
-0.411523,-0.127953,2.499,2.53589
-0.403412,-0.127953,2.499,2.53458
-0.395301,-0.127953,2.499,2.53331
-0.38719,-0.127953,2.499,2.53205
-0.379079,-0.127953,2.499,2.53082
-0.370968,-0.127953,2.499,2.52962
-0.362857,-0.127953,2.499,2.52845
-0.354745,-0.127953,2.499,2.52729
-0.349131,-0.128874,2.517,2.54436
-0.340961,-0.128874,2.517,2.54326
-0.332792,-0.128874,2.517,2.54217
-0.324622,-0.128874,2.517,2.54112
-0.316453,-0.128874,2.517,2.54009
-0.308283,-0.128874,2.517,2.53908
-0.300114,-0.128874,2.517,2.5381
-0.291944,-0.128874,2.517,2.53715
-0.283775,-0.128874,2.517,2.53622
-0.275605,-0.128874,2.517,2.53532
-0.267435,-0.128874,2.517,2.53445
-0.257412,-0.127953,2.499,2.51548
-0.249301,-0.127953,2.499,2.51466
-0.24119,-0.127953,2.499,2.51387
-0.233078,-0.127953,2.499,2.51311
-0.226588,-0.128874,2.517,2.53046
-0.218418,-0.128874,2.517,2.52974
-0.210249,-0.128874,2.517,2.52905
-0.202079,-0.128874,2.517,2.52839
-0.193909,-0.128874,2.517,2.52775
-0.18574,-0.128874,2.517,2.52713
-0.17757,-0.128874,2.517,2.52655
-0.169401,-0.128874,2.517,2.52598
-0.161231,-0.128874,2.517,2.52545
-0.153062,-0.128874,2.517,2.52494
-0.144892,-0.128874,2.517,2.52446
-0.136723,-0.128874,2.517,2.524
-0.128553,-0.128874,2.517,2.52357
-0.120383,-0.128874,2.517,2.52317
-0.112214,-0.128874,2.517,2.52279
-0.104044,-0.128874,2.517,2.52244
-0.0958747,-0.128874,2.517,2.52212
-0.0877052,-0.128874,2.517,2.52182
-0.0795356,-0.128874,2.517,2.52155
-0.0713661,-0.128874,2.517,2.52131
-0.0627446,-0.127953,2.499,2.50306
-0.0546334,-0.127953,2.499,2.50287
-0.0465223,-0.127953,2.499,2.50271
-0.0384112,-0.127953,2.499,2.50257
-0.0303,-0.127953,2.499,2.50246
-0.0221889,-0.127953,2.499,2.50237
-0.0140778,-0.127953,2.499,2.50231
-0.00596664,-0.127953,2.499,2.50228
0.00214449,-0.127953,2.499,2.50227
0.0102556,-0.127953,2.499,2.50229
0.0183668,-0.127953,2.499,2.50234
0.0262872,-0.127031,2.481,2.48439
0.0343399,-0.127031,2.481,2.48449
0.0423926,-0.127031,2.481,2.48461
0.0504453,-0.127031,2.481,2.48476
0.058498,-0.127031,2.481,2.48494
0.0665507,-0.127031,2.481,2.48514
0.0746034,-0.127031,2.481,2.48537
0.0826561,-0.127031,2.481,2.48562
0.0907089,-0.127031,2.481,2.48591
0.0987616,-0.127031,2.481,2.48621
0.106814,-0.127031,2.481,2.48655
0.114867,-0.127031,2.481,2.4869
0.122028,-0.126109,2.463,2.46924
0.130022,-0.126109,2.463,2.46965
0.138016,-0.126109,2.463,2.47009
0.146011,-0.126109,2.463,2.47054
0.154005,-0.126109,2.463,2.47103
0.161999,-0.126109,2.463,2.47154
0.169994,-0.126109,2.463,2.47208
0.177988,-0.126109,2.463,2.47264
0.185982,-0.126109,2.463,2.47323
0.193976,-0.126109,2.463,2.47384
0.201971,-0.126109,2.463,2.47448
0.209965,-0.126109,2.463,2.47515
0.219552,-0.127031,2.481,2.49393
0.227605,-0.127031,2.481,2.49465
0.235658,-0.127031,2.481,2.4954
0.24371,-0.127031,2.481,2.49618
0.251763,-0.127031,2.481,2.49697
0.259816,-0.127031,2.481,2.4978
0.267868,-0.127031,2.481,2.49865
0.277923,-0.127953,2.499,2.51766
0.286034,-0.127953,2.499,2.51857
0.294145,-0.127953,2.499,2.5195
0.302256,-0.127953,2.499,2.52046
0.310368,-0.127953,2.499,2.52145
0.318479,-0.127953,2.499,2.52246
0.328942,-0.128874,2.517,2.54167
0.337112,-0.128874,2.517,2.54274
0.345281,-0.128874,2.517,2.54384
0.350923,-0.127953,2.499,2.52676
0.359034,-0.127953,2.499,2.5279
0.367146,-0.127953,2.499,2.52906
0.375257,-0.127953,2.499,2.53026
0.383368,-0.127953,2.499,2.53147
0.391479,-0.127953,2.499,2.53271
0.39959,-0.127953,2.499,2.53398
0.407701,-0.127953,2.499,2.53527
0.415812,-0.127953,2.499,2.53659
0.423923,-0.127953,2.499,2.53793
0.432035,-0.127953,2.499,2.5393
0.440146,-0.127953,2.499,2.54069
0.448257,-0.127953,2.499,2.54211
0.456368,-0.127953,2.499,2.54355
0.464479,-0.127953,2.499,2.54502
0.47259,-0.127953,2.499,2.54651
0.480701,-0.127953,2.499,2.54803
0.488812,-0.127953,2.499,2.54957
0.496924,-0.127953,2.499,2.55114
0.501397,-0.127031,2.481,2.53434
0.50945,-0.127031,2.481,2.53595
0.517502,-0.127031,2.481,2.53758
0.525555,-0.127031,2.481,2.53923
0.533608,-0.127031,2.481,2.54091
0.541661,-0.127031,2.481,2.54262
0.549713,-0.127031,2.481,2.54434
0.561813,-0.127953,2.499,2.56457
0.569924,-0.127953,2.499,2.56636
0.578035,-0.127953,2.499,2.56817
0.586146,-0.127953,2.499,2.57001
0.594257,-0.127953,2.499,2.57187
0.602368,-0.127953,2.499,2.57376
0.606082,-0.127031,2.481,2.55711
0.614135,-0.127031,2.481,2.55904
0.622188,-0.127031,2.481,2.56098
0.63024,-0.127031,2.481,2.56295
0.638293,-0.127031,2.481,2.56494
0.646346,-0.127031,2.481,2.56696
0.654399,-0.127031,2.481,2.569
0.662451,-0.127031,2.481,2.57106
0.670504,-0.127031,2.481,2.57314
0.678557,-0.127031,2.481,2.57525
0.686609,-0.127031,2.481,2.57739
0.694662,-0.127031,2.481,2.57955
0.702715,-0.127031,2.481,2.58173
0.710768,-0.127031,2.481,2.58393
0.71882,-0.127031,2.481,2.58616
0.726873,-0.127031,2.481,2.58841
0.734926,-0.127031,2.481,2.59068
0.742978,-0.127031,2.481,2.59297
0.751031,-0.127031,2.481,2.59529
0.759084,-0.127031,2.481,2.59764
0.767137,-0.127031,2.481,2.6
0.775189,-0.127031,2.481,2.60239
0.783242,-0.127031,2.481,2.6048
0.785554,-0.126109,2.463,2.58831
0.793548,-0.126109,2.463,2.59075
0.801542,-0.126109,2.463,2.59321
0.809537,-0.126109,2.463,2.59569
0.817531,-0.126109,2.463,2.5982
0.825525,-0.126109,2.463,2.60072
0.833519,-0.126109,2.463,2.60327
0.841514,-0.126109,2.463,2.60584
0.849508,-0.126109,2.463,2.60844
0.857502,-0.126109,2.463,2.61105
0.859171,-0.125188,2.445,2.59459
0.867107,-0.125188,2.445,2.59722
0.875043,-0.125188,2.445,2.59988
0.882979,-0.125188,2.445,2.60257
0.890915,-0.125188,2.445,2.60527
0.892601,-0.124317,2.428,2.58986
0.900482,-0.124317,2.428,2.59259
0.902002,-0.123447,2.411,2.57716
0.909828,-0.123447,2.411,2.57991
0.917653,-0.123447,2.411,2.58268
0.918953,-0.122576,2.394,2.56724
0.926724,-0.122576,2.394,2.57003
0.934494,-0.122576,2.394,2.57285
0.942264,-0.122576,2.394,2.57568
0.950035,-0.122576,2.394,2.57853
0.957805,-0.122576,2.394,2.5814
0.972432,-0.123447,2.411,2.60265
0.980257,-0.123447,2.411,2.60558
0.988083,-0.123447,2.411,2.60854
0.995908,-0.123447,2.411,2.61151
1.01789,-0.125188,2.445,2.65138
1.04093,-0.127031,2.481,2.69352
1.04898,-0.127031,2.481,2.69664
1.07237,-0.128874,2.517,2.73896
1.11317,-0.132766,2.593,2.82496
1.12158,-0.132766,2.593,2.82829
1.14743,-0.134814,2.633,2.87532
1.21217,-0.141367,2.761,3.01869
1.27244,-0.147307,2.877,3.14928
1.28178,-0.147307,2.877,3.15306
1.33599,-0.152427,2.977,3.2666
1.39402,-0.157906,3.084,3.38811
1.40403,-0.157906,3.084,3.39224
1.42688,-0.159339,3.112,3.42723
1.45037,-0.160824,3.141,3.46343
1.47405,-0.162309,3.17,3.49972
1.48434,-0.162309,3.17,3.50407
1.49463,-0.162309,3.17,3.50844
1.50492,-0.162309,3.17,3.51284
1.51521,-0.162309,3.17,3.51726
1.5255,-0.162309,3.17,3.5217
1.53579,-0.162309,3.17,3.52617
1.54608,-0.162309,3.17,3.53066
1.55636,-0.162309,3.17,3.53518
1.56665,-0.162309,3.17,3.53972
1.56252,-0.160824,3.141,3.51187
1.57271,-0.160824,3.141,3.51641
1.58291,-0.160824,3.141,3.52099
1.5931,-0.160824,3.141,3.52558
1.6033,-0.160824,3.141,3.5302
1.62839,-0.162309,3.17,3.56748
1.65367,-0.163794,3.199,3.60486
1.66405,-0.163794,3.199,3.60964
1.70636,-0.166917,3.26,3.68336
1.7338,-0.168555,3.292,3.72448
1.74448,-0.168555,3.292,3.72946
1.78929,-0.171832,3.356,3.80708
1.81788,-0.173522,3.389,3.84969
1.86612,-0.177055,3.458,3.93338
1.87734,-0.177055,3.458,3.93872
1.88857,-0.177055,3.458,3.94408
1.91902,-0.178847,3.493,3.98945
1.93036,-0.178847,3.493,3.99491
1.94169,-0.178847,3.493,4.0004
1.95303,-0.178847,3.493,4.00592
1.94469,-0.177055,3.458,3.97126
1.95591,-0.177055,3.458,3.97677
1.96713,-0.177055,3.458,3.9823
1.95833,-0.175263,3.423,3.9475
1.94988,-0.173522,3.389,3.91375
1.96088,-0.173522,3.389,3.91925
1.97188,-0.173522,3.389,3.92476
1.96357,-0.171832,3.356,3.89203
1.95564,-0.170194,3.324,3.86037
1.96643,-0.170194,3.324,3.86585
1.97722,-0.170194,3.324,3.87135
1.96887,-0.168555,3.292,3.83955
1.97955,-0.168555,3.292,3.84504
1.99024,-0.168555,3.292,3.85055
1.96324,-0.165381,3.23,3.78346
1.97372,-0.165381,3.23,3.78891
1.98421,-0.165381,3.23,3.79438
1.95764,-0.162309,3.17,3.72929
1.96793,-0.162309,3.17,3.7347
1.94202,-0.159339,3.112,3.6717
1.91762,-0.156523,3.057,3.61207
1.92754,-0.156523,3.057,3.61734
1.90324,-0.153758,3.003,3.55865
1.87986,-0.151096,2.951,3.50216
1.85743,-0.148536,2.901,3.44788
1.86684,-0.148536,2.901,3.45296
1.84521,-0.146078,2.853,3.40085
1.80897,-0.142494,2.783,3.32232
1.81801,-0.142494,2.783,3.32724
1.79815,-0.140241,2.739,3.2795
1.77867,-0.138039,2.696,3.23282
1.78743,-0.138039,2.696,3.23765
1.78218,-0.136964,2.675,3.21723
1.77681,-0.135889,2.654,3.19675
1.78542,-0.135889,2.654,3.20155
1.76632,-0.13379,2.613,3.15683
1.74831,-0.131793,2.574,3.11439
-2.02986,-0.140321,2.926,3.56392
-2.0031,-0.139122,2.901,3.52811
-1.99369,-0.139122,2.901,3.52277
-1.95144,-0.13682,2.853,3.45925
-1.92584,-0.135669,2.829,3.42498
-1.91666,-0.135669,2.829,3.41983
-1.87646,-0.133464,2.783,3.35917
-1.86743,-0.133464,2.783,3.35413
-1.85839,-0.133464,2.783,3.34911
-1.82012,-0.131353,2.739,3.29123
-1.81123,-0.131353,2.739,3.28633
-1.80234,-0.131353,2.739,3.28143
-1.77905,-0.130298,2.717,3.25024
-1.77023,-0.130298,2.717,3.24542
-1.76141,-0.130298,2.717,3.24062
-1.75259,-0.130298,2.717,3.23584
-1.74377,-0.130298,2.717,3.23107
-1.7771,-0.133464,2.783,3.30469
-1.76807,-0.133464,2.783,3.29984
-1.75903,-0.133464,2.783,3.29501
-1.76446,-0.134567,2.806,3.31739
-1.76974,-0.135669,2.829,3.33971
-1.76056,-0.135669,2.829,3.33485
-1.76624,-0.13682,2.853,3.35826
-1.75698,-0.13682,2.853,3.3534
-1.76242,-0.137971,2.877,3.37673
-1.75308,-0.137971,2.877,3.37186
-1.74374,-0.137971,2.877,3.36702
-1.7344,-0.137971,2.877,3.36219
-1.72507,-0.137971,2.877,3.35738
-1.71573,-0.137971,2.877,3.35259
-1.70639,-0.137971,2.877,3.34783
-1.6829,-0.13682,2.853,3.31519
-1.67364,-0.13682,2.853,3.3105
-1.66438,-0.13682,2.853,3.30582
-1.65511,-0.13682,2.853,3.30117
-1.64585,-0.13682,2.853,3.29654
nan,nan,nan,NaN
nan,nan,nan,NaN
nan,nan,nan,NaN
nan,nan,nan,NaN
nan,nan,nan,NaN
nan,nan,nan,NaN
nan,nan,nan,NaN
nan,nan,nan,NaN
nan,nan,nan,NaN
nan,nan,nan,NaN
nan,nan,nan,NaN
nan,nan,nan,NaN
nan,nan,nan,NaN
nan,nan,nan,NaN
nan,nan,nan,NaN
nan,nan,nan,NaN
nan,nan,nan,NaN
nan,nan,nan,NaN
nan,nan,nan,NaN
nan,nan,nan,NaN
nan,nan,nan,NaN
nan,nan,nan,NaN
nan,nan,nan,NaN
nan,nan,nan,NaN
nan,nan,nan,NaN
nan,nan,nan,NaN
-1.25933,-0.123441,2.574,2.86821
-1.25098,-0.123441,2.574,2.86455
-1.23345,-0.122529,2.555,2.83979
-1.22516,-0.122529,2.555,2.8362
-1.21686,-0.122529,2.555,2.83263
-1.19958,-0.121618,2.536,2.80804
-1.18243,-0.120707,2.517,2.78352
-1.16586,-0.119844,2.499,2.76018
-1.15775,-0.119844,2.499,2.75676
-1.14136,-0.118981,2.481,2.73353
-1.12508,-0.118117,2.463,2.71037
-1.11709,-0.118117,2.463,2.70707
-1.10099,-0.117254,2.445,2.68402
-1.08545,-0.116439,2.428,2.66213
-1.07757,-0.116439,2.428,2.65893
-1.0622,-0.115624,2.411,2.63715
-1.05437,-0.115624,2.411,2.63401
-1.04655,-0.115624,2.411,2.63088
-1.03872,-0.115624,2.411,2.62778
-1.0309,-0.115624,2.411,2.6247
-1.02307,-0.115624,2.411,2.62163
-1.01525,-0.115624,2.411,2.61859
-1.00742,-0.115624,2.411,2.61557
-0.999596,-0.115624,2.411,2.61256
-0.99177,-0.115624,2.411,2.60958
-0.977007,-0.114808,2.394,2.58823
-0.969237,-0.114808,2.394,2.58531
-0.961466,-0.114808,2.394,2.58241
-0.953696,-0.114808,2.394,2.57953
-0.945926,-0.114808,2.394,2.57666
-0.938156,-0.114808,2.394,2.57382
-0.930385,-0.114808,2.394,2.571
-0.922615,-0.114808,2.394,2.5682
-0.914845,-0.114808,2.394,2.56542
-0.907074,-0.114808,2.394,2.56266
-0.899304,-0.114808,2.394,2.55992
-0.891534,-0.114808,2.394,2.5572
-0.883763,-0.114808,2.394,2.5545
-0.875993,-0.114808,2.394,2.55182
-0.868223,-0.114808,2.394,2.54916
-0.860452,-0.114808,2.394,2.54653
-0.852682,-0.114808,2.394,2.54391
-0.844912,-0.114808,2.394,2.54132
-0.837141,-0.114808,2.394,2.53874
-0.829371,-0.114808,2.394,2.53619
-0.821601,-0.114808,2.394,2.53366
-0.819609,-0.115624,2.411,2.54913
-0.811784,-0.115624,2.411,2.54662
-0.803958,-0.115624,2.411,2.54414
-0.796133,-0.115624,2.411,2.54168
-0.788307,-0.115624,2.411,2.53924
-0.780482,-0.115624,2.411,2.53682
-0.772656,-0.115624,2.411,2.53442
-0.759438,-0.114808,2.394,2.51419
-0.751668,-0.114808,2.394,2.51186
-0.743897,-0.114808,2.394,2.50954
-0.736127,-0.114808,2.394,2.50725
-0.728357,-0.114808,2.394,2.50498
-0.720586,-0.114808,2.394,2.50273
-0.712816,-0.114808,2.394,2.5005
-0.705046,-0.114808,2.394,2.4983
-0.692324,-0.113993,2.377,2.47839
-0.684609,-0.113993,2.377,2.47625
-0.676894,-0.113993,2.377,2.47413
-0.669178,-0.113993,2.377,2.47203
-0.666194,-0.114808,2.394,2.48762
-0.658424,-0.114808,2.394,2.48555
-0.650653,-0.114808,2.394,2.4835
-0.642883,-0.114808,2.394,2.48147
-0.639623,-0.115624,2.411,2.49708
-0.631797,-0.115624,2.411,2.49509
-0.623972,-0.115624,2.411,2.49312
-0.616146,-0.115624,2.411,2.49117
-0.61261,-0.116439,2.428,2.5068
-0.604729,-0.116439,2.428,2.50488
-0.596848,-0.116439,2.428,2.50299
-0.588968,-0.116439,2.428,2.50113
-0.585156,-0.117254,2.445,2.51678
-0.57722,-0.117254,2.445,2.51495
-0.569284,-0.117254,2.445,2.51314
-0.561348,-0.117254,2.445,2.51135
-0.553412,-0.117254,2.445,2.50959
-0.549492,-0.118117,2.463,2.52631
-0.541498,-0.118117,2.463,2.52459
-0.533504,-0.118117,2.463,2.52288
-0.525509,-0.118117,2.463,2.52121
-0.517515,-0.118117,2.463,2.51955
-0.509521,-0.118117,2.463,2.51792
-0.501526,-0.118117,2.463,2.51632
-0.493532,-0.118117,2.463,2.51474
-0.485538,-0.118117,2.463,2.51318
-0.477544,-0.118117,2.463,2.51165
-0.469549,-0.118117,2.463,2.51014
-0.461555,-0.118117,2.463,2.50866
-0.453561,-0.118117,2.463,2.5072
-0.445566,-0.118117,2.463,2.50576
-0.44077,-0.118981,2.481,2.52266
-0.432717,-0.118981,2.481,2.52126
-0.424665,-0.118981,2.481,2.51989
-0.419634,-0.119844,2.499,2.53682
-0.411523,-0.119844,2.499,2.53549
-0.403412,-0.119844,2.499,2.53419
-0.395301,-0.119844,2.499,2.53291
-0.38719,-0.119844,2.499,2.53166
-0.379079,-0.119844,2.499,2.53043
-0.370968,-0.119844,2.499,2.52923
-0.362857,-0.119844,2.499,2.52805
-0.354745,-0.119844,2.499,2.5269
-0.349131,-0.120707,2.517,2.54396
-0.340961,-0.120707,2.517,2.54286
-0.332792,-0.120707,2.517,2.54177
-0.324622,-0.120707,2.517,2.54072
-0.316453,-0.120707,2.517,2.53969
-0.308283,-0.120707,2.517,2.53868
-0.300114,-0.120707,2.517,2.5377
-0.291944,-0.120707,2.517,2.53675
-0.283775,-0.120707,2.517,2.53582
-0.275605,-0.120707,2.517,2.53492
-0.267435,-0.120707,2.517,2.53404
-0.257412,-0.119844,2.499,2.51508
-0.249301,-0.119844,2.499,2.51426
-0.24119,-0.119844,2.499,2.51347
-0.233078,-0.119844,2.499,2.51271
-0.224967,-0.119844,2.499,2.51197
-0.216856,-0.119844,2.499,2.51125
-0.208745,-0.119844,2.499,2.51057
-0.200634,-0.119844,2.499,2.5099
-0.192523,-0.119844,2.499,2.50927
-0.18574,-0.120707,2.517,2.52673
-0.17757,-0.120707,2.517,2.52614
-0.169401,-0.120707,2.517,2.52558
-0.161231,-0.120707,2.517,2.52505
-0.153062,-0.120707,2.517,2.52454
-0.144892,-0.120707,2.517,2.52406
-0.136723,-0.120707,2.517,2.5236
-0.128553,-0.120707,2.517,2.52317
-0.120383,-0.120707,2.517,2.52277
-0.112214,-0.120707,2.517,2.52239
-0.104044,-0.120707,2.517,2.52204
-0.0958747,-0.120707,2.517,2.52172
-0.0877052,-0.120707,2.517,2.52142
-0.0795356,-0.120707,2.517,2.52115
-0.0713661,-0.120707,2.517,2.5209
-0.0627446,-0.119844,2.499,2.50266
-0.0546334,-0.119844,2.499,2.50247
-0.0465223,-0.119844,2.499,2.5023
-0.0384112,-0.119844,2.499,2.50217
-0.0303,-0.119844,2.499,2.50206
-0.0221889,-0.119844,2.499,2.50197
-0.0140778,-0.119844,2.499,2.50191
-0.00596664,-0.119844,2.499,2.50188
0.00214449,-0.119844,2.499,2.50187
0.0102556,-0.119844,2.499,2.50189
0.0183668,-0.119844,2.499,2.50194
0.0262872,-0.118981,2.481,2.48399
0.0343399,-0.118981,2.481,2.48409
0.0423926,-0.118981,2.481,2.48421
0.0504453,-0.118981,2.481,2.48436
0.058498,-0.118981,2.481,2.48454
0.0665507,-0.118981,2.481,2.48474
0.0746034,-0.118981,2.481,2.48497
0.0826561,-0.118981,2.481,2.48523
0.0907089,-0.118981,2.481,2.48551
0.0987616,-0.118981,2.481,2.48581
0.106814,-0.118981,2.481,2.48615
0.114867,-0.118981,2.481,2.48651
0.122028,-0.118117,2.463,2.46885
0.130022,-0.118117,2.463,2.46926
0.138016,-0.118117,2.463,2.46969
0.146011,-0.118117,2.463,2.47015
0.154005,-0.118117,2.463,2.47064
0.161999,-0.118117,2.463,2.47115
0.169994,-0.118117,2.463,2.47168
0.177988,-0.118117,2.463,2.47225
0.185982,-0.118117,2.463,2.47283
0.193976,-0.118117,2.463,2.47345
0.201971,-0.118117,2.463,2.47409
0.209965,-0.118117,2.463,2.47475
0.217959,-0.118117,2.463,2.47544
0.227605,-0.118981,2.481,2.49426
0.235658,-0.118981,2.481,2.49501
0.24371,-0.118981,2.481,2.49578
0.251763,-0.118981,2.481,2.49658
0.259816,-0.118981,2.481,2.4974
0.267868,-0.118981,2.481,2.49825
0.277923,-0.119844,2.499,2.51726
0.286034,-0.119844,2.499,2.51817
0.294145,-0.119844,2.499,2.5191
0.302256,-0.119844,2.499,2.52006
0.310368,-0.119844,2.499,2.52105
0.318479,-0.119844,2.499,2.52206
0.32659,-0.119844,2.499,2.5231
0.334701,-0.119844,2.499,2.52416
0.342812,-0.119844,2.499,2.52525
0.350923,-0.119844,2.499,2.52636
0.359034,-0.119844,2.499,2.5275
0.367146,-0.119844,2.499,2.52867
0.375257,-0.119844,2.499,2.52986
0.383368,-0.119844,2.499,2.53107
0.391479,-0.119844,2.499,2.53232
0.39959,-0.119844,2.499,2.53358
0.407701,-0.119844,2.499,2.53487
0.415812,-0.119844,2.499,2.53619
0.423923,-0.119844,2.499,2.53753
0.432035,-0.119844,2.499,2.5389
0.440146,-0.119844,2.499,2.54029
0.448257,-0.119844,2.499,2.54171
0.453081,-0.118981,2.481,2.52484
0.461134,-0.118981,2.481,2.52629
0.469186,-0.118981,2.481,2.52778
0.477239,-0.118981,2.481,2.52928
0.485292,-0.118981,2.481,2.53082
0.493344,-0.118981,2.481,2.53237
0.501397,-0.118981,2.481,2.53395
0.50945,-0.118981,2.481,2.53556
0.517502,-0.118981,2.481,2.53719
0.525555,-0.118981,2.481,2.53884
0.533608,-0.118981,2.481,2.54052
0.541661,-0.118981,2.481,2.54223
0.549713,-0.118981,2.481,2.54395
0.557766,-0.118981,2.481,2.54571
0.565819,-0.118981,2.481,2.54748
0.573871,-0.118981,2.481,2.54928
0.581924,-0.118981,2.481,2.55111
0.594257,-0.119844,2.499,2.57148
0.602368,-0.119844,2.499,2.57337
0.606082,-0.118981,2.481,2.55673
0.614135,-0.118981,2.481,2.55865
0.622188,-0.118981,2.481,2.56059
0.63024,-0.118981,2.481,2.56256
0.638293,-0.118981,2.481,2.56455
0.646346,-0.118981,2.481,2.56657
0.654399,-0.118981,2.481,2.56861
0.662451,-0.118981,2.481,2.57067
0.670504,-0.118981,2.481,2.57276
0.678557,-0.118981,2.481,2.57487
0.686609,-0.118981,2.481,2.577
0.694662,-0.118981,2.481,2.57916
0.702715,-0.118981,2.481,2.58134
0.710768,-0.118981,2.481,2.58355
0.71882,-0.118981,2.481,2.58577
0.726873,-0.118981,2.481,2.58802
0.734926,-0.118981,2.481,2.5903
0.742978,-0.118981,2.481,2.59259
0.751031,-0.118981,2.481,2.59491
0.759084,-0.118981,2.481,2.59725
0.767137,-0.118981,2.481,2.59962
0.775189,-0.118981,2.481,2.60201
0.783242,-0.118981,2.481,2.60442
0.785554,-0.118117,2.463,2.58794
0.793548,-0.118117,2.463,2.59037
0.801542,-0.118117,2.463,2.59283
0.809537,-0.118117,2.463,2.59532
0.817531,-0.118117,2.463,2.59782
0.831558,-0.118981,2.481,2.61935
0.833519,-0.118117,2.463,2.6029
0.841514,-0.118117,2.463,2.60547
0.849508,-0.118117,2.463,2.60806
0.857502,-0.118117,2.463,2.61068
0.865497,-0.118117,2.463,2.61331
0.873491,-0.118117,2.463,2.61597
0.875043,-0.117254,2.445,2.59951
0.882979,-0.117254,2.445,2.6022
0.890915,-0.117254,2.445,2.6049
0.892601,-0.116439,2.428,2.58949
0.900482,-0.116439,2.428,2.59222
0.902002,-0.115624,2.411,2.5768
0.909828,-0.115624,2.411,2.57955
0.917653,-0.115624,2.411,2.58232
0.925479,-0.115624,2.411,2.58511
0.933304,-0.115624,2.411,2.58792
0.934494,-0.114808,2.394,2.57249
0.942264,-0.114808,2.394,2.57532
0.950035,-0.114808,2.394,2.57817
0.957805,-0.114808,2.394,2.58105
0.972432,-0.115624,2.411,2.60229
0.980257,-0.115624,2.411,2.60522
0.988083,-0.115624,2.411,2.60818
1.00293,-0.116439,2.428,2.62957
1.01789,-0.117254,2.445,2.65101
1.04093,-0.118981,2.481,2.69315
1.04898,-0.118981,2.481,2.69627
1.07237,-0.120707,2.517,2.73858
1.11317,-0.124352,2.593,2.82458
1.12158,-0.124352,2.593,2.82791
1.14743,-0.12627,2.633,2.87493
1.21217,-0.132408,2.761,3.01828
1.27244,-0.137971,2.877,3.14885
1.28178,-0.137971,2.877,3.15264
1.33599,-0.142767,2.977,3.26616
1.39402,-0.147898,3.084,3.38766
1.40403,-0.147898,3.084,3.39179
1.42688,-0.149241,3.112,3.42678
1.45037,-0.150632,3.141,3.46297
1.47405,-0.152023,3.17,3.49926
1.48434,-0.152023,3.17,3.50361
1.49463,-0.152023,3.17,3.50798
1.50492,-0.152023,3.17,3.51238
1.51521,-0.152023,3.17,3.5168
1.5255,-0.152023,3.17,3.52124
1.53579,-0.152023,3.17,3.52571
1.54608,-0.152023,3.17,3.53021
1.55636,-0.152023,3.17,3.53473
1.56665,-0.152023,3.17,3.53927
1.56252,-0.150632,3.141,3.51141
1.57271,-0.150632,3.141,3.51596
1.58291,-0.150632,3.141,3.52053
1.5931,-0.150632,3.141,3.52513
1.6033,-0.150632,3.141,3.52975
1.62839,-0.152023,3.17,3.56702
1.65367,-0.153413,3.199,3.60441
1.66405,-0.153413,3.199,3.60918
1.70636,-0.156339,3.26,3.6829
1.7338,-0.157873,3.292,3.72401
1.74448,-0.157873,3.292,3.729
1.78929,-0.160943,3.356,3.8066
1.81788,-0.162525,3.389,3.84921
1.84723,-0.164156,3.423,3.89309
1.85834,-0.164156,3.423,3.89837
1.88857,-0.165834,3.458,3.9436
1.89979,-0.165834,3.458,3.94898
1.91102,-0.165834,3.458,3.9544
1.92224,-0.165834,3.458,3.95983
1.93346,-0.165834,3.458,3.96529
1.925,-0.164156,3.423,3.93059
1.93611,-0.164156,3.423,3.93604
1.94722,-0.164156,3.423,3.94152
1.93888,-0.162525,3.389,3.90781
1.9309,-0.160943,3.356,3.87518
1.94179,-0.160943,3.356,3.88062
1.95268,-0.160943,3.356,3.88608
1.94485,-0.159408,3.324,3.85446
1.95564,-0.159408,3.324,3.85991
1.96643,-0.159408,3.324,3.86539
1.95818,-0.157873,3.292,3.83362
1.96887,-0.157873,3.292,3.83909
1.97955,-0.157873,3.292,3.84458
1.97089,-0.156339,3.26,3.81267
1.96324,-0.1549,3.23,3.78301
1.97372,-0.1549,3.23,3.78847
1.94735,-0.152023,3.17,3.72346
1.93973,-0.150632,3.141,3.69474
1.94992,-0.150632,3.141,3.7001
1.92455,-0.147898,3.084,3.63824
1.90068,-0.145309,3.03,3.57975
1.91052,-0.145309,3.03,3.58498
1.88676,-0.142767,2.977,3.52743
1.86394,-0.140321,2.926,3.47209
1.84206,-0.137971,2.877,3.41897
1.8514,-0.137971,2.877,3.42401
1.82969,-0.135669,2.829,3.37186
1.79467,-0.132408,2.761,3.29568
1.80364,-0.132408,2.761,3.30057
1.78371,-0.130298,2.717,3.2528
1.77867,-0.129291,2.696,3.23246
1.78743,-0.129291,2.696,3.23729
1.78218,-0.128284,2.675,3.21687
1.76275,-0.12627,2.633,3.17111
1.77129,-0.12627,2.633,3.17586
1.7528,-0.124352,2.593,3.13232
1.73541,-0.122529,2.555,3.09106
-2.01252,-0.129709,2.901,3.53311
-1.98653,-0.128636,2.877,3.49857
-1.97719,-0.128636,2.877,3.49327
-1.93502,-0.12649,2.829,3.4298
-1.91018,-0.125461,2.806,3.39679
-1.90108,-0.125461,2.806,3.39168
-1.87646,-0.124433,2.783,3.35882
-1.85267,-0.123449,2.761,3.32727
-1.8437,-0.123449,2.761,3.32229
-1.82012,-0.122466,2.739,3.29089
-1.81123,-0.122466,2.739,3.28598
-1.80234,-0.122466,2.739,3.28109
-1.7653,-0.120543,2.696,3.22478
-1.75655,-0.120543,2.696,3.22
-1.76141,-0.121482,2.717,3.24028
-1.75259,-0.121482,2.717,3.23549
-1.74377,-0.121482,2.717,3.23073
-1.7771,-0.124433,2.783,3.30434
-1.76807,-0.124433,2.783,3.29949
-1.75903,-0.124433,2.783,3.29466
-1.76446,-0.125461,2.806,3.31703
-1.76974,-0.12649,2.829,3.33935
-1.76056,-0.12649,2.829,3.33449
-1.75138,-0.12649,2.829,3.32965
-1.75698,-0.127563,2.853,3.35304
-1.76242,-0.128636,2.877,3.37636
-1.75308,-0.128636,2.877,3.37149
-1.74374,-0.128636,2.877,3.36665
-1.7344,-0.128636,2.877,3.36182
-1.72507,-0.128636,2.877,3.35701
-1.71573,-0.128636,2.877,3.35222
-1.70639,-0.128636,2.877,3.34745
-1.6829,-0.127563,2.853,3.31482
-1.67364,-0.127563,2.853,3.31013
-1.66438,-0.127563,2.853,3.30545
-1.65511,-0.127563,2.853,3.3008
-1.64585,-0.127563,2.853,3.29617
nan,nan,nan,NaN
nan,nan,nan,NaN
nan,nan,nan,NaN
nan,nan,nan,NaN
nan,nan,nan,NaN
nan,nan,nan,NaN
nan,nan,nan,NaN
nan,nan,nan,NaN
nan,nan,nan,NaN
nan,nan,nan,NaN
nan,nan,nan,NaN
nan,nan,nan,NaN
nan,nan,nan,NaN
nan,nan,nan,NaN
nan,nan,nan,NaN
nan,nan,nan,NaN
nan,nan,nan,NaN
nan,nan,nan,NaN
nan,nan,nan,NaN
nan,nan,nan,NaN
nan,nan,nan,NaN
nan,nan,nan,NaN
nan,nan,nan,NaN
nan,nan,nan,NaN
nan,nan,nan,NaN
-1.28689,-0.116832,2.613,2.91505
-1.26863,-0.115938,2.593,2.88903
-1.26021,-0.115938,2.593,2.88535
-1.25179,-0.115938,2.593,2.88168
-1.22516,-0.114239,2.555,2.83586
-1.21686,-0.114239,2.555,2.83228
-1.20857,-0.114239,2.555,2.82873
-1.19135,-0.113389,2.536,2.80419
-1.16586,-0.111735,2.499,2.75984
-1.15775,-0.111735,2.499,2.75642
-1.14136,-0.11093,2.481,2.7332
-1.12508,-0.110125,2.463,2.71004
-1.11709,-0.110125,2.463,2.70673
-1.10099,-0.109321,2.445,2.68368
-1.09305,-0.109321,2.445,2.68044
-1.08512,-0.109321,2.445,2.67721
-1.06969,-0.10856,2.428,2.65541
-1.06181,-0.10856,2.428,2.65225
-1.05393,-0.10856,2.428,2.6491
-1.04605,-0.10856,2.428,2.64598
-1.0309,-0.1078,2.411,2.62437
-1.02307,-0.1078,2.411,2.6213
-1.01525,-0.1078,2.411,2.61826
-1.00742,-0.1078,2.411,2.61523
-0.999596,-0.1078,2.411,2.61223
-0.99177,-0.1078,2.411,2.60924
-0.983945,-0.1078,2.411,2.60628
-0.976119,-0.1078,2.411,2.60333
-0.968294,-0.1078,2.411,2.60041
-0.953696,-0.10704,2.394,2.57919
-0.945926,-0.10704,2.394,2.57633
-0.938156,-0.10704,2.394,2.57349
-0.930385,-0.10704,2.394,2.57066
-0.922615,-0.10704,2.394,2.56786
-0.914845,-0.10704,2.394,2.56508
-0.907074,-0.10704,2.394,2.56232
-0.899304,-0.10704,2.394,2.55958
-0.891534,-0.10704,2.394,2.55686
-0.883763,-0.10704,2.394,2.55416
-0.875993,-0.10704,2.394,2.55148
-0.868223,-0.10704,2.394,2.54882
-0.860452,-0.10704,2.394,2.54619
-0.852682,-0.10704,2.394,2.54357
-0.844912,-0.10704,2.394,2.54098
-0.837141,-0.10704,2.394,2.5384
-0.829371,-0.10704,2.394,2.53585
-0.821601,-0.10704,2.394,2.53332
-0.819609,-0.1078,2.411,2.54878
-0.811784,-0.1078,2.411,2.54628
-0.803958,-0.1078,2.411,2.54379
-0.796133,-0.1078,2.411,2.54133
-0.788307,-0.1078,2.411,2.53889
-0.780482,-0.1078,2.411,2.53647
-0.772656,-0.1078,2.411,2.53408
-0.764831,-0.1078,2.411,2.5317
-0.757005,-0.1078,2.411,2.52935
-0.743897,-0.10704,2.394,2.5092
-0.736127,-0.10704,2.394,2.50691
-0.728357,-0.10704,2.394,2.50464
-0.720586,-0.10704,2.394,2.50239
-0.712816,-0.10704,2.394,2.50016
-0.705046,-0.10704,2.394,2.49796
-0.697275,-0.10704,2.394,2.49577
-0.684609,-0.10628,2.377,2.47591
-0.676894,-0.10628,2.377,2.47378
-0.669178,-0.10628,2.377,2.47168
-0.666194,-0.10704,2.394,2.48727
-0.658424,-0.10704,2.394,2.4852
-0.650653,-0.10704,2.394,2.48315
-0.642883,-0.10704,2.394,2.48113
-0.639623,-0.1078,2.411,2.49673
-0.631797,-0.1078,2.411,2.49474
-0.623972,-0.1078,2.411,2.49277
-0.616146,-0.1078,2.411,2.49082
-0.61261,-0.10856,2.428,2.50644
-0.604729,-0.10856,2.428,2.50453
-0.596848,-0.10856,2.428,2.50264
-0.588968,-0.10856,2.428,2.50077
-0.585156,-0.109321,2.445,2.51642
-0.57722,-0.109321,2.445,2.51459
-0.569284,-0.109321,2.445,2.51278
-0.561348,-0.109321,2.445,2.51099
-0.553412,-0.109321,2.445,2.50923
-0.549492,-0.110125,2.463,2.52595
-0.541498,-0.110125,2.463,2.52423
-0.533504,-0.110125,2.463,2.52252
-0.525509,-0.110125,2.463,2.52084
-0.517515,-0.110125,2.463,2.51919
-0.509521,-0.110125,2.463,2.51756
-0.501526,-0.110125,2.463,2.51595
-0.493532,-0.110125,2.463,2.51437
-0.485538,-0.110125,2.463,2.51282
-0.477544,-0.110125,2.463,2.51128
-0.469549,-0.110125,2.463,2.50978
-0.461555,-0.110125,2.463,2.50829
-0.453561,-0.110125,2.463,2.50683
-0.445566,-0.110125,2.463,2.5054
-0.44077,-0.11093,2.481,2.52229
-0.432717,-0.11093,2.481,2.5209
-0.424665,-0.11093,2.481,2.51953
-0.416612,-0.11093,2.481,2.51818
-0.408559,-0.11093,2.481,2.51686
-0.400506,-0.11093,2.481,2.51557
-0.395301,-0.111735,2.499,2.53254
-0.38719,-0.111735,2.499,2.53128
-0.379079,-0.111735,2.499,2.53006
-0.370968,-0.111735,2.499,2.52885
-0.362857,-0.111735,2.499,2.52768
-0.354745,-0.111735,2.499,2.52653
-0.349131,-0.11254,2.517,2.54359
-0.340961,-0.11254,2.517,2.54248
-0.332792,-0.11254,2.517,2.5414
-0.324622,-0.11254,2.517,2.54034
-0.316453,-0.11254,2.517,2.53931
-0.308283,-0.11254,2.517,2.53831
-0.300114,-0.11254,2.517,2.53733
-0.291944,-0.11254,2.517,2.53637
-0.283775,-0.11254,2.517,2.53545
-0.275605,-0.11254,2.517,2.53454
-0.265523,-0.111735,2.499,2.51555
-0.257412,-0.111735,2.499,2.51471
-0.249301,-0.111735,2.499,2.51389
-0.24119,-0.111735,2.499,2.5131
-0.233078,-0.111735,2.499,2.51233
-0.224967,-0.111735,2.499,2.51159
-0.216856,-0.111735,2.499,2.51088
-0.208745,-0.111735,2.499,2.51019
-0.200634,-0.111735,2.499,2.50953
-0.192523,-0.111735,2.499,2.50889
-0.184412,-0.111735,2.499,2.50829
-0.17757,-0.11254,2.517,2.52576
-0.169401,-0.11254,2.517,2.5252
-0.161231,-0.11254,2.517,2.52467
-0.153062,-0.11254,2.517,2.52416
-0.144892,-0.11254,2.517,2.52368
-0.136723,-0.11254,2.517,2.52322
-0.128553,-0.11254,2.517,2.52279
-0.120383,-0.11254,2.517,2.52239
-0.112214,-0.11254,2.517,2.52201
-0.104044,-0.11254,2.517,2.52166
-0.0958747,-0.11254,2.517,2.52134
-0.0877052,-0.11254,2.517,2.52104
-0.0795356,-0.11254,2.517,2.52077
-0.0713661,-0.11254,2.517,2.52053
-0.0631965,-0.11254,2.517,2.52031
-0.055027,-0.11254,2.517,2.52012
-0.0468574,-0.11254,2.517,2.51995
-0.0386878,-0.11254,2.517,2.51981
-0.0303,-0.111735,2.499,2.50168
-0.0221889,-0.111735,2.499,2.5016
-0.0140778,-0.111735,2.499,2.50154
-0.00596664,-0.111735,2.499,2.5015
0.00214449,-0.111735,2.499,2.5015
0.0102556,-0.111735,2.499,2.50152
0.0183668,-0.111735,2.499,2.50156
0.0264779,-0.111735,2.499,2.50164
0.0343399,-0.11093,2.481,2.48372
0.0423926,-0.11093,2.481,2.48384
0.0504453,-0.11093,2.481,2.48399
0.058498,-0.11093,2.481,2.48417
0.0665507,-0.11093,2.481,2.48437
0.0746034,-0.11093,2.481,2.4846
0.0826561,-0.11093,2.481,2.48485
0.0907089,-0.11093,2.481,2.48513
0.0987616,-0.11093,2.481,2.48544
0.106814,-0.11093,2.481,2.48577
0.114867,-0.11093,2.481,2.48613
0.122028,-0.110125,2.463,2.46848
0.130022,-0.110125,2.463,2.46889
0.138016,-0.110125,2.463,2.46932
0.146011,-0.110125,2.463,2.46978
0.154005,-0.110125,2.463,2.47027
0.161999,-0.110125,2.463,2.47078
0.169994,-0.110125,2.463,2.47131
0.177988,-0.110125,2.463,2.47188
0.185982,-0.110125,2.463,2.47247
0.193976,-0.110125,2.463,2.47308
0.201971,-0.110125,2.463,2.47372
0.209965,-0.110125,2.463,2.47439
0.217959,-0.110125,2.463,2.47508
0.227605,-0.11093,2.481,2.49389
0.235658,-0.11093,2.481,2.49463
0.24371,-0.11093,2.481,2.49541
0.251763,-0.11093,2.481,2.49621
0.259816,-0.11093,2.481,2.49703
0.267868,-0.11093,2.481,2.49788
0.275921,-0.11093,2.481,2.49876
0.283974,-0.11093,2.481,2.49966
0.294145,-0.111735,2.499,2.51873
0.302256,-0.111735,2.499,2.51969
0.310368,-0.111735,2.499,2.52068
0.318479,-0.111735,2.499,2.52169
0.32659,-0.111735,2.499,2.52273
0.334701,-0.111735,2.499,2.52379
0.342812,-0.111735,2.499,2.52488
0.348396,-0.11093,2.481,2.5078
0.356448,-0.11093,2.481,2.50893
0.364501,-0.11093,2.481,2.51009
0.372554,-0.11093,2.481,2.51127
0.383368,-0.111735,2.499,2.5307
0.391479,-0.111735,2.499,2.53194
0.39959,-0.111735,2.499,2.53321
0.407701,-0.111735,2.499,2.5345
0.415812,-0.111735,2.499,2.53582
0.423923,-0.111735,2.499,2.53716
0.432035,-0.111735,2.499,2.53853
0.440146,-0.111735,2.499,2.53992
0.448257,-0.111735,2.499,2.54134
0.453081,-0.11093,2.481,2.52447
0.461134,-0.11093,2.481,2.52593
0.469186,-0.11093,2.481,2.52741
0.477239,-0.11093,2.481,2.52892
0.485292,-0.11093,2.481,2.53045
0.493344,-0.11093,2.481,2.53201
0.501397,-0.11093,2.481,2.53359
0.50945,-0.11093,2.481,2.53519
0.517502,-0.11093,2.481,2.53682
0.525555,-0.11093,2.481,2.53848
0.533608,-0.11093,2.481,2.54016
0.541661,-0.11093,2.481,2.54186
0.549713,-0.11093,2.481,2.54359
0.557766,-0.11093,2.481,2.54534
0.565819,-0.11093,2.481,2.54712
0.573871,-0.11093,2.481,2.54892
0.581924,-0.11093,2.481,2.55075
0.594257,-0.111735,2.499,2.57111
0.602368,-0.111735,2.499,2.573
0.606082,-0.11093,2.481,2.55637
0.614135,-0.11093,2.481,2.55829
0.622188,-0.11093,2.481,2.56023
0.63024,-0.11093,2.481,2.5622
0.638293,-0.11093,2.481,2.56419
0.646346,-0.11093,2.481,2.56621
0.654399,-0.11093,2.481,2.56825
0.662451,-0.11093,2.481,2.57031
0.670504,-0.11093,2.481,2.5724
0.678557,-0.11093,2.481,2.57451
0.686609,-0.11093,2.481,2.57665
0.694662,-0.11093,2.481,2.5788
