nan,nan,nan,NaN
nan,nan,nan,NaN
nan,nan,nan,NaN
nan,nan,nan,NaN
nan,nan,nan,NaN
nan,nan,nan,NaN
nan,nan,nan,NaN
nan,nan,nan,NaN
nan,nan,nan,NaN
nan,nan,nan,NaN
nan,nan,nan,NaN
nan,nan,nan,NaN
nan,nan,nan,NaN
nan,nan,nan,NaN
nan,nan,nan,NaN
nan,nan,nan,NaN
nan,nan,nan,NaN
nan,nan,nan,NaN
nan,nan,nan,NaN
nan,nan,nan,NaN
nan,nan,nan,NaN
nan,nan,nan,NaN
nan,nan,nan,NaN
nan,nan,nan,NaN
nan,nan,nan,NaN
nan,nan,nan,NaN
nan,nan,nan,NaN
nan,nan,nan,NaN
-1.16278,-0.335396,2.361,2.65309
-1.15512,-0.335396,2.361,2.64974
-1.14746,-0.335396,2.361,2.64641
-1.13979,-0.335396,2.361,2.64309
-1.13213,-0.335396,2.361,2.6398
-1.12447,-0.335396,2.361,2.63652
-1.12437,-0.337669,2.377,2.65111
-1.11666,-0.337669,2.377,2.64784
-1.10894,-0.337669,2.377,2.6446
-1.10123,-0.337669,2.377,2.64137
-1.09351,-0.337669,2.377,2.63817
-1.0858,-0.337669,2.377,2.63498
-1.07808,-0.337669,2.377,2.63181
-1.07037,-0.337669,2.377,2.62866
-1.06265,-0.337669,2.377,2.62552
-1.05494,-0.337669,2.377,2.62241
-1.04722,-0.337669,2.377,2.61932
-1.03951,-0.337669,2.377,2.61624
-1.03179,-0.337669,2.377,2.61319
-1.02408,-0.337669,2.377,2.61015
-1.01636,-0.337669,2.377,2.60713
-1.00865,-0.337669,2.377,2.60413
-1.00093,-0.337669,2.377,2.60116
-0.993215,-0.337669,2.377,2.5982
-0.992548,-0.340084,2.394,2.61382
-0.984778,-0.340084,2.394,2.61088
-0.977007,-0.340084,2.394,2.60796
-0.969237,-0.340084,2.394,2.60506
-0.961466,-0.340084,2.394,2.60217
-0.953696,-0.340084,2.394,2.59931
-0.952643,-0.342499,2.411,2.61491
-0.944817,-0.342499,2.411,2.61207
-0.936992,-0.342499,2.411,2.60925
-0.929166,-0.342499,2.411,2.60645
-0.921341,-0.342499,2.411,2.60367
-0.913515,-0.342499,2.411,2.60091
-0.90569,-0.342499,2.411,2.59817
-0.897864,-0.342499,2.411,2.59546
-0.896315,-0.344914,2.428,2.61104
-0.888434,-0.344914,2.428,2.60835
-0.880553,-0.344914,2.428,2.60567
-0.872672,-0.344914,2.428,2.60302
-0.864792,-0.344914,2.428,2.60039
-0.856911,-0.344914,2.428,2.59778
-0.84903,-0.344914,2.428,2.59519
-0.84115,-0.344914,2.428,2.59262
-0.833269,-0.344914,2.428,2.59008
-0.831167,-0.347329,2.445,2.60567
-0.823232,-0.347329,2.445,2.60315
-0.815296,-0.347329,2.445,2.60065
-0.80736,-0.347329,2.445,2.59817
-0.799424,-0.347329,2.445,2.59572
-0.791488,-0.347329,2.445,2.59328
-0.783552,-0.347329,2.445,2.59087
-0.775616,-0.347329,2.445,2.58848
-0.767681,-0.347329,2.445,2.58612
-0.765338,-0.349886,2.463,2.60279
-0.757344,-0.349886,2.463,2.60045
-0.749349,-0.349886,2.463,2.59814
-0.741355,-0.349886,2.463,2.59584
-0.733361,-0.349886,2.463,2.59357
-0.725366,-0.349886,2.463,2.59132
-0.717372,-0.349886,2.463,2.58909
-0.709378,-0.349886,2.463,2.58689
-0.701384,-0.349886,2.463,2.58471
-0.693389,-0.349886,2.463,2.58255
-0.690404,-0.352443,2.481,2.59928
-0.682351,-0.352443,2.481,2.59715
-0.674299,-0.352443,2.481,2.59504
-0.666246,-0.352443,2.481,2.59296
-0.658193,-0.352443,2.481,2.59091
-0.65014,-0.352443,2.481,2.58887
-0.642088,-0.352443,2.481,2.58686
-0.634035,-0.352443,2.481,2.58487
-0.630524,-0.355,2.499,2.60165
-0.622413,-0.355,2.499,2.5997
-0.614302,-0.355,2.499,2.59777
-0.606191,-0.355,2.499,2.59586
-0.598079,-0.355,2.499,2.59398
-0.585719,-0.352443,2.481,2.57345
-0.577666,-0.352443,2.481,2.57163
-0.569613,-0.352443,2.481,2.56983
-0.561561,-0.352443,2.481,2.56806
-0.557524,-0.355,2.499,2.58493
-0.549413,-0.355,2.499,2.58319
-0.541301,-0.355,2.499,2.58148
-0.53319,-0.355,2.499,2.57979
-0.525079,-0.355,2.499,2.57813
-0.513244,-0.352443,2.481,2.55793
-0.505192,-0.352443,2.481,2.55632
-0.500746,-0.355,2.499,2.57328
-0.492635,-0.355,2.499,2.57171
-0.484524,-0.355,2.499,2.57017
-0.476412,-0.355,2.499,2.56866
-0.468301,-0.355,2.499,2.56716
-0.46019,-0.355,2.499,2.5657
-0.452079,-0.355,2.499,2.56425
-0.443968,-0.355,2.499,2.56284
-0.435857,-0.355,2.499,2.56144
-0.427746,-0.355,2.499,2.56008
-0.419634,-0.355,2.499,2.55873
-0.411523,-0.355,2.499,2.55742
-0.403412,-0.355,2.499,2.55612
-0.395301,-0.355,2.499,2.55486
-0.38719,-0.355,2.499,2.55361
-0.376348,-0.352443,2.481,2.53401
-0.368296,-0.352443,2.481,2.53283
-0.360243,-0.352443,2.481,2.53167
-0.35219,-0.352443,2.481,2.53054
-0.344137,-0.352443,2.481,2.52943
-0.336085,-0.352443,2.481,2.52835
-0.325652,-0.349886,2.463,2.50895
-0.317658,-0.349886,2.463,2.50793
-0.309664,-0.349886,2.463,2.50693
-0.301669,-0.349886,2.463,2.50595
-0.291529,-0.347329,2.445,2.4867
-0.283593,-0.347329,2.445,2.48578
-0.275657,-0.347329,2.445,2.48488
-0.26586,-0.344914,2.428,2.46675
-0.257979,-0.344914,2.428,2.46591
-0.250098,-0.344914,2.428,2.4651
-0.242218,-0.344914,2.428,2.46431
-0.234337,-0.344914,2.428,2.46355
-0.226456,-0.344914,2.428,2.46281
-0.217045,-0.342499,2.411,2.44486
-0.20922,-0.342499,2.411,2.44418
-0.201394,-0.342499,2.411,2.44352
-0.193569,-0.342499,2.411,2.44289
-0.185743,-0.342499,2.411,2.44228
-0.177918,-0.342499,2.411,2.4417
-0.170092,-0.342499,2.411,2.44114
-0.162267,-0.342499,2.411,2.44061
-0.154441,-0.342499,2.411,2.4401
-0.146616,-0.342499,2.411,2.43962
-0.13879,-0.342499,2.411,2.43916
-0.130965,-0.342499,2.411,2.43872
-0.124007,-0.344914,2.428,2.45551
-0.116127,-0.344914,2.428,2.45512
-0.108246,-0.344914,2.428,2.45476
-0.100365,-0.344914,2.428,2.45443
-0.0931322,-0.347329,2.445,2.4713
-0.0851963,-0.347329,2.445,2.47102
-0.0778293,-0.349886,2.463,2.48895
-0.069835,-0.349886,2.463,2.48871
-0.0618407,-0.349886,2.463,2.4885
-0.0542399,-0.352443,2.481,2.5065
-0.0461872,-0.352443,2.481,2.50633
-0.0381345,-0.352443,2.481,2.5062
-0.0303,-0.355,2.499,2.52427
-0.0221889,-0.355,2.499,2.52419
-0.0141792,-0.357557,2.517,2.54231
-0.00600962,-0.357557,2.517,2.54228
0.00215994,-0.357557,2.517,2.54227
0.0104075,-0.360256,2.536,2.56148
0.0186387,-0.360256,2.536,2.56153
0.0268699,-0.360256,2.536,2.5616
0.0353641,-0.362956,2.555,2.58089
0.043657,-0.362956,2.555,2.58102
0.0523362,-0.365655,2.574,2.60037
0.0606908,-0.365655,2.574,2.60055
0.0690454,-0.365655,2.574,2.60076
0.0768286,-0.362956,2.555,2.58179
0.0851215,-0.362956,2.555,2.58205
0.0934144,-0.362956,2.555,2.58234
0.101707,-0.362956,2.555,2.58265
0.11,-0.362956,2.555,2.58299
0.118293,-0.362956,2.555,2.58336
0.126586,-0.362956,2.555,2.58375
0.134879,-0.362956,2.555,2.58417
0.143172,-0.362956,2.555,2.58462
0.151465,-0.362956,2.555,2.58509
0.159758,-0.362956,2.555,2.58559
0.166801,-0.360256,2.536,2.56689
0.175032,-0.360256,2.536,2.56743
0.183263,-0.360256,2.536,2.56801
0.191494,-0.360256,2.536,2.56861
0.199726,-0.360256,2.536,2.56924
0.207957,-0.360256,2.536,2.56989
0.216188,-0.360256,2.536,2.57057
0.224419,-0.360256,2.536,2.57127
0.232651,-0.360256,2.536,2.572
0.240882,-0.360256,2.536,2.57276
0.249113,-0.360256,2.536,2.57355
0.257344,-0.360256,2.536,2.57436
0.265575,-0.360256,2.536,2.57519
0.275858,-0.362956,2.555,2.59535
0.284151,-0.362956,2.555,2.59625
0.292444,-0.362956,2.555,2.59717
0.300737,-0.362956,2.555,2.59812
0.30903,-0.362956,2.555,2.59909
0.317323,-0.362956,2.555,2.60009
0.325615,-0.362956,2.555,2.60111
0.333908,-0.362956,2.555,2.60216
0.342201,-0.362956,2.555,2.60324
0.350494,-0.362956,2.555,2.60434
0.358787,-0.362956,2.555,2.60547
0.36708,-0.362956,2.555,2.60663
0.375373,-0.362956,2.555,2.60781
0.383666,-0.362956,2.555,2.60902
0.391959,-0.362956,2.555,2.61025
0.400252,-0.362956,2.555,2.61151
0.408544,-0.362956,2.555,2.61279
0.416837,-0.362956,2.555,2.6141
0.42513,-0.362956,2.555,2.61543
0.433423,-0.362956,2.555,2.6168
0.441716,-0.362956,2.555,2.61818
0.450009,-0.362956,2.555,2.61959
0.458302,-0.362956,2.555,2.62103
0.466595,-0.362956,2.555,2.62249
0.474888,-0.362956,2.555,2.62398
0.48318,-0.362956,2.555,2.6255
0.491473,-0.362956,2.555,2.62703
0.499766,-0.362956,2.555,2.6286
0.504281,-0.360256,2.536,2.61063
0.512512,-0.360256,2.536,2.61223
0.520743,-0.360256,2.536,2.61386
0.528975,-0.360256,2.536,2.61551
0.537206,-0.360256,2.536,2.61719
0.545437,-0.360256,2.536,2.61889
0.553668,-0.360256,2.536,2.62062
0.5619,-0.360256,2.536,2.62237
0.570131,-0.360256,2.536,2.62414
0.582695,-0.362956,2.555,2.64562
0.586593,-0.360256,2.536,2.62777
0.594824,-0.360256,2.536,2.62962
0.607574,-0.362956,2.555,2.65121
0.615867,-0.362956,2.555,2.65312
0.62416,-0.362956,2.555,2.65506
0.632453,-0.362956,2.555,2.65702
0.640746,-0.362956,2.555,2.65901
0.649038,-0.362956,2.555,2.66102
0.657331,-0.362956,2.555,2.66305
0.665624,-0.362956,2.555,2.66511
0.673917,-0.362956,2.555,2.66719
0.68221,-0.362956,2.555,2.6693
0.690503,-0.362956,2.555,2.67143
0.698796,-0.362956,2.555,2.67359
0.707089,-0.362956,2.555,2.67577
0.715382,-0.362956,2.555,2.67797
0.723674,-0.362956,2.555,2.6802
0.731967,-0.362956,2.555,2.68245
0.74026,-0.362956,2.555,2.68472
0.748553,-0.362956,2.555,2.68702
0.751218,-0.360256,2.536,2.66935
0.759449,-0.360256,2.536,2.67167
0.76768,-0.360256,2.536,2.67403
0.775912,-0.360256,2.536,2.6764
0.784143,-0.360256,2.536,2.6788
0.792374,-0.360256,2.536,2.68122
0.800605,-0.360256,2.536,2.68366
0.808836,-0.360256,2.536,2.68613
0.817068,-0.360256,2.536,2.68862
0.825299,-0.360256,2.536,2.69113
0.83353,-0.360256,2.536,2.69367
0.841761,-0.360256,2.536,2.69623
0.849993,-0.360256,2.536,2.69881
0.858224,-0.360256,2.536,2.70141
0.859963,-0.357557,2.517,2.68378
0.868133,-0.357557,2.517,2.68641
0.876303,-0.357557,2.517,2.68906
0.884472,-0.357557,2.517,2.69173
0.892642,-0.357557,2.517,2.69443
0.900811,-0.357557,2.517,2.69715
0.90248,-0.355,2.499,2.68058
0.910591,-0.355,2.499,2.68332
0.912085,-0.352443,2.481,2.66674
0.920138,-0.352443,2.481,2.6695
0.928191,-0.352443,2.481,2.67229
0.936243,-0.352443,2.481,2.67509
0.944296,-0.352443,2.481,2.67792
0.945439,-0.349886,2.463,2.66132
0.953434,-0.349886,2.463,2.66417
0.961428,-0.349886,2.463,2.66705
0.969422,-0.349886,2.463,2.66994
0.977417,-0.349886,2.463,2.67285
0.985411,-0.349886,2.463,2.67578
0.993405,-0.349886,2.463,2.67874
1.0014,-0.349886,2.463,2.68171
1.00202,-0.347329,2.445,2.66509
1.00995,-0.347329,2.445,2.66808
1.02538,-0.349886,2.463,2.69076
1.03338,-0.349886,2.463,2.69382
nan,nan,nan,NaN
nan,nan,nan,NaN
nan,nan,nan,NaN
nan,nan,nan,NaN
nan,nan,nan,NaN
nan,nan,nan,NaN
nan,nan,nan,NaN
nan,nan,nan,NaN
nan,nan,nan,NaN
nan,nan,nan,NaN
nan,nan,nan,NaN
nan,nan,nan,NaN
nan,nan,nan,NaN
nan,nan,nan,NaN
nan,nan,nan,NaN
nan,nan,nan,NaN
nan,nan,nan,NaN
nan,nan,nan,NaN
nan,nan,nan,NaN
nan,nan,nan,NaN
nan,nan,nan,NaN
nan,nan,nan,NaN
nan,nan,nan,NaN
nan,nan,nan,NaN
nan,nan,nan,NaN
nan,nan,nan,NaN
nan,nan,nan,NaN
1.68037,-0.467652,3.292,3.72554
1.69106,-0.467652,3.292,3.73037
1.71828,-0.472197,3.324,3.77153
1.72907,-0.472197,3.324,3.77646
nan,nan,nan,NaN
nan,nan,nan,NaN
nan,nan,nan,NaN
1.92151,-0.511973,3.604,4.11621
1.93321,-0.511973,3.604,4.12168
1.94491,-0.511973,3.604,4.12718
1.99841,-0.522912,3.681,4.221
2.01036,-0.522912,3.681,4.22667
2.04428,-0.528594,3.721,4.27836
2.05636,-0.528594,3.721,4.28414
2.06844,-0.528594,3.721,4.28995
2.08051,-0.528594,3.721,4.29579
2.09259,-0.528594,3.721,4.30165
2.10467,-0.528594,3.721,4.30754
2.11675,-0.528594,3.721,4.31345
2.12882,-0.528594,3.721,4.31939
2.11789,-0.522912,3.681,4.27886
2.12983,-0.522912,3.681,4.28479
2.11909,-0.517371,3.642,4.24528
2.10868,-0.511973,3.604,4.20683
2.09802,-0.506575,3.566,4.16829
2.10959,-0.506575,3.566,4.17413
2.09916,-0.501319,3.529,4.13662
2.06815,-0.491233,3.458,4.0591
2.07937,-0.491233,3.458,4.06483
2.06944,-0.486261,3.423,4.02939
2.03982,-0.476743,3.356,3.95612
2.05072,-0.476743,3.356,3.96175
2.02229,-0.467652,3.292,3.89174
1.99469,-0.458844,3.23,3.8239
2.00517,-0.458844,3.23,3.82938
1.97821,-0.450321,3.17,3.76364
1.93456,-0.438104,3.084,3.66681
1.94457,-0.438104,3.084,3.6721
1.92035,-0.430433,3.03,3.61302
1.89642,-0.422904,2.977,3.55497
1.90609,-0.422904,2.977,3.56013
1.88293,-0.415659,2.926,3.50424
1.86074,-0.408698,2.877,3.45058
1.87007,-0.408698,2.877,3.45562
1.84806,-0.401879,2.829,3.40295
1.84214,-0.398612,2.806,3.38024
1.83607,-0.395345,2.783,3.35746
1.84511,-0.395345,2.783,3.36241
1.83948,-0.392219,2.761,3.34076
1.83371,-0.389094,2.739,3.31904
1.8426,-0.389094,2.739,3.32396
1.83662,-0.385969,2.717,3.30216
1.83118,-0.382986,2.696,3.28151
-2.32817,-0.465853,3.356,4.11098
-2.31727,-0.465853,3.356,4.10482
-2.32906,-0.470434,3.389,4.13898
-2.31806,-0.470434,3.389,4.1328
-2.30706,-0.470434,3.389,4.12664
-2.29606,-0.470434,3.389,4.1205
-2.28506,-0.470434,3.389,4.11438
-2.27406,-0.470434,3.389,4.10828
-2.26306,-0.470434,3.389,4.1022
-2.25206,-0.470434,3.389,4.09615
-2.26355,-0.475154,3.423,4.13114
-2.25243,-0.475154,3.423,4.12507
-2.24132,-0.475154,3.423,4.11901
-2.23021,-0.475154,3.423,4.11297
-2.24179,-0.480012,3.458,4.14895
-2.23057,-0.480012,3.458,4.1429
-2.21935,-0.480012,3.458,4.13687
-2.23047,-0.484871,3.493,4.17267
-2.21914,-0.484871,3.493,4.16662
-2.2078,-0.484871,3.493,4.16059
-2.2191,-0.489868,3.529,4.1974
-2.20764,-0.489868,3.529,4.19136
-2.19619,-0.489868,3.529,4.18534
-2.18474,-0.489868,3.529,4.17934
-2.17328,-0.489868,3.529,4.17336
-2.16183,-0.489868,3.529,4.16741
-2.15037,-0.489868,3.529,4.16148
-2.13892,-0.489868,3.529,4.15557
-2.12746,-0.489868,3.529,4.14969
-2.11601,-0.489868,3.529,4.14383
-2.10456,-0.489868,3.529,4.13799
nan,nan,nan,NaN
nan,nan,nan,NaN
nan,nan,nan,NaN
nan,nan,nan,NaN
nan,nan,nan,NaN
nan,nan,nan,NaN
nan,nan,nan,NaN
nan,nan,nan,NaN
nan,nan,nan,NaN
nan,nan,nan,NaN
nan,nan,nan,NaN
nan,nan,nan,NaN
nan,nan,nan,NaN
nan,nan,nan,NaN
nan,nan,nan,NaN
nan,nan,nan,NaN
nan,nan,nan,NaN
nan,nan,nan,NaN
nan,nan,nan,NaN
nan,nan,nan,NaN
nan,nan,nan,NaN
nan,nan,nan,NaN
nan,nan,nan,NaN
nan,nan,nan,NaN
nan,nan,nan,NaN
nan,nan,nan,NaN
nan,nan,nan,NaN
nan,nan,nan,NaN
nan,nan,nan,NaN
nan,nan,nan,NaN
nan,nan,nan,NaN
-1.17066,-0.329956,2.377,2.6701
-1.16295,-0.329956,2.377,2.66673
-1.15523,-0.329956,2.377,2.66337
-1.14752,-0.329956,2.377,2.66004
-1.1398,-0.329956,2.377,2.65672
-1.13209,-0.329956,2.377,2.65342
-1.12437,-0.329956,2.377,2.65013
-1.11666,-0.329956,2.377,2.64687
-1.10894,-0.329956,2.377,2.64363
-1.10123,-0.329956,2.377,2.6404
-1.09351,-0.329956,2.377,2.63719
-1.0858,-0.329956,2.377,2.634
-1.07808,-0.329956,2.377,2.63083
-1.07802,-0.332316,2.394,2.64647
-1.07025,-0.332316,2.394,2.64331
-1.06248,-0.332316,2.394,2.64018
-1.05471,-0.332316,2.394,2.63706
-1.04694,-0.332316,2.394,2.63396
-1.03917,-0.332316,2.394,2.63088
-1.0314,-0.332316,2.394,2.62782
-1.02363,-0.332316,2.394,2.62478
-1.01586,-0.332316,2.394,2.62176
-1.00809,-0.332316,2.394,2.61876
-1.00032,-0.332316,2.394,2.61578
-0.992548,-0.332316,2.394,2.61282
-0.984778,-0.332316,2.394,2.60988
-0.977007,-0.332316,2.394,2.60695
-0.969237,-0.332316,2.394,2.60405
-0.961466,-0.332316,2.394,2.60117
-0.953696,-0.332316,2.394,2.59831
-0.952643,-0.334676,2.411,2.6139
-0.944817,-0.334676,2.411,2.61106
-0.936992,-0.334676,2.411,2.60823
-0.929166,-0.334676,2.411,2.60543
-0.921341,-0.334676,2.411,2.60265
-0.913515,-0.334676,2.411,2.59989
-0.90569,-0.334676,2.411,2.59715
-0.897864,-0.334676,2.411,2.59443
-0.896315,-0.337036,2.428,2.61001
-0.888434,-0.337036,2.428,2.60732
-0.880553,-0.337036,2.428,2.60464
-0.872672,-0.337036,2.428,2.60199
-0.864792,-0.337036,2.428,2.59935
-0.856911,-0.337036,2.428,2.59674
-0.84903,-0.337036,2.428,2.59415
-0.84115,-0.337036,2.428,2.59158
-0.833269,-0.337036,2.428,2.58904
-0.831167,-0.339396,2.445,2.60462
-0.823232,-0.339396,2.445,2.6021
-0.815296,-0.339396,2.445,2.5996
-0.80736,-0.339396,2.445,2.59712
-0.799424,-0.339396,2.445,2.59467
-0.791488,-0.339396,2.445,2.59223
-0.783552,-0.339396,2.445,2.58982
-0.775616,-0.339396,2.445,2.58743
-0.767681,-0.339396,2.445,2.58506
-0.765338,-0.341894,2.463,2.60173
-0.757344,-0.341894,2.463,2.59939
-0.749349,-0.341894,2.463,2.59707
-0.741355,-0.341894,2.463,2.59478
-0.733361,-0.341894,2.463,2.5925
-0.725366,-0.341894,2.463,2.59025
-0.717372,-0.341894,2.463,2.58803
-0.709378,-0.341894,2.463,2.58582
-0.701384,-0.341894,2.463,2.58364
-0.693389,-0.341894,2.463,2.58148
-0.690404,-0.344393,2.481,2.5982
-0.682351,-0.344393,2.481,2.59607
-0.674299,-0.344393,2.481,2.59396
-0.666246,-0.344393,2.481,2.59188
-0.658193,-0.344393,2.481,2.58982
-0.65014,-0.344393,2.481,2.58779
-0.642088,-0.344393,2.481,2.58578
-0.634035,-0.344393,2.481,2.58379
-0.630524,-0.346891,2.499,2.60056
-0.622413,-0.346891,2.499,2.5986
-0.614302,-0.346891,2.499,2.59667
-0.606191,-0.346891,2.499,2.59476
-0.598079,-0.346891,2.499,2.59288
-0.585719,-0.344393,2.481,2.57236
-0.577666,-0.344393,2.481,2.57054
-0.569613,-0.344393,2.481,2.56874
-0.561561,-0.344393,2.481,2.56697
-0.557524,-0.346891,2.499,2.58383
-0.549413,-0.346891,2.499,2.58209
-0.541301,-0.346891,2.499,2.58038
-0.53319,-0.346891,2.499,2.57869
-0.525079,-0.346891,2.499,2.57702
-0.516968,-0.346891,2.499,2.57538
-0.508857,-0.346891,2.499,2.57377
-0.500746,-0.346891,2.499,2.57217
-0.492635,-0.346891,2.499,2.57061
-0.484524,-0.346891,2.499,2.56907
-0.476412,-0.346891,2.499,2.56755
-0.468301,-0.346891,2.499,2.56606
-0.46019,-0.346891,2.499,2.56459
-0.452079,-0.346891,2.499,2.56314
-0.443968,-0.346891,2.499,2.56173
-0.435857,-0.346891,2.499,2.56033
-0.427746,-0.346891,2.499,2.55896
-0.419634,-0.346891,2.499,2.55762
-0.411523,-0.346891,2.499,2.5563
-0.403412,-0.346891,2.499,2.55501
-0.392454,-0.344393,2.481,2.53535
-0.384401,-0.344393,2.481,2.53411
-0.376348,-0.344393,2.481,2.5329
-0.368296,-0.344393,2.481,2.53172
-0.360243,-0.344393,2.481,2.53056
-0.35219,-0.344393,2.481,2.52943
-0.344137,-0.344393,2.481,2.52832
-0.336085,-0.344393,2.481,2.52724
-0.325652,-0.341894,2.463,2.50785
-0.315336,-0.339396,2.445,2.4885
-0.3074,-0.339396,2.445,2.48751
-0.299465,-0.339396,2.445,2.48654
-0.289502,-0.337036,2.428,2.46832
-0.281621,-0.337036,2.428,2.46741
-0.27374,-0.337036,2.428,2.46652
-0.26586,-0.337036,2.428,2.46566
-0.257979,-0.337036,2.428,2.46482
-0.250098,-0.337036,2.428,2.46401
-0.240522,-0.334676,2.411,2.44597
-0.232696,-0.334676,2.411,2.44521
-0.224871,-0.334676,2.411,2.44448
-0.217045,-0.334676,2.411,2.44378
-0.20922,-0.334676,2.411,2.44309
-0.201394,-0.334676,2.411,2.44244
-0.193569,-0.334676,2.411,2.4418
-0.185743,-0.334676,2.411,2.44119
-0.177918,-0.334676,2.411,2.44061
-0.170092,-0.334676,2.411,2.44005
-0.161123,-0.332316,2.394,2.42232
-0.153352,-0.332316,2.394,2.42181
-0.146616,-0.334676,2.411,2.43853
-0.13879,-0.334676,2.411,2.43807
-0.130965,-0.334676,2.411,2.43764
-0.123139,-0.334676,2.411,2.43723
-0.115314,-0.334676,2.411,2.43685
-0.108246,-0.337036,2.428,2.45367
-0.100365,-0.337036,2.428,2.45333
-0.0931322,-0.339396,2.445,2.4702
-0.0851963,-0.339396,2.445,2.46991
-0.0772605,-0.339396,2.445,2.46965
-0.069835,-0.341894,2.463,2.4876
-0.0618407,-0.341894,2.463,2.48739
-0.0538464,-0.341894,2.463,2.4872
-0.0461872,-0.344393,2.481,2.50521
-0.0381345,-0.344393,2.481,2.50508
-0.0300818,-0.344393,2.481,2.50497
-0.0221889,-0.346891,2.499,2.52306
-0.0141792,-0.34939,2.517,2.54117
-0.00600962,-0.34939,2.517,2.54114
0.00215994,-0.34939,2.517,2.54114
0.0103295,-0.34939,2.517,2.54116
0.0184991,-0.34939,2.517,2.5412
0.0268699,-0.352028,2.536,2.56046
0.0353641,-0.354665,2.555,2.57974
0.043657,-0.354665,2.555,2.57987
0.0519499,-0.354665,2.555,2.58002
0.0606908,-0.357302,2.574,2.59939
0.0690454,-0.357302,2.574,2.5996
0.0773999,-0.357302,2.574,2.59983
0.0851215,-0.354665,2.555,2.5809
0.0934144,-0.354665,2.555,2.58119
0.101707,-0.354665,2.555,2.5815
0.11,-0.354665,2.555,2.58184
0.118293,-0.354665,2.555,2.58221
0.126586,-0.354665,2.555,2.5826
0.134879,-0.354665,2.555,2.58302
0.143172,-0.354665,2.555,2.58347
0.151465,-0.354665,2.555,2.58394
0.159758,-0.354665,2.555,2.58444
0.16805,-0.354665,2.555,2.58497
0.176343,-0.354665,2.555,2.58552
0.183263,-0.352028,2.536,2.56687
0.191494,-0.352028,2.536,2.56747
0.199726,-0.352028,2.536,2.56809
0.207957,-0.352028,2.536,2.56875
0.216188,-0.352028,2.536,2.56943
0.224419,-0.352028,2.536,2.57013
0.232651,-0.352028,2.536,2.57086
0.240882,-0.352028,2.536,2.57162
0.249113,-0.352028,2.536,2.57241
0.257344,-0.352028,2.536,2.57322
0.265575,-0.352028,2.536,2.57405
0.275858,-0.354665,2.555,2.59421
0.284151,-0.354665,2.555,2.5951
0.292444,-0.354665,2.555,2.59602
0.300737,-0.354665,2.555,2.59697
0.30903,-0.354665,2.555,2.59794
0.317323,-0.354665,2.555,2.59894
0.325615,-0.354665,2.555,2.59997
0.333908,-0.354665,2.555,2.60102
0.342201,-0.354665,2.555,2.6021
0.350494,-0.354665,2.555,2.6032
0.358787,-0.354665,2.555,2.60433
0.36708,-0.354665,2.555,2.60549
0.375373,-0.354665,2.555,2.60667
0.383666,-0.354665,2.555,2.60788
0.391959,-0.354665,2.555,2.60911
0.400252,-0.354665,2.555,2.61037
0.408544,-0.354665,2.555,2.61165
0.416837,-0.354665,2.555,2.61296
0.42513,-0.354665,2.555,2.6143
0.433423,-0.354665,2.555,2.61566
0.441716,-0.354665,2.555,2.61705
0.450009,-0.354665,2.555,2.61846
0.458302,-0.354665,2.555,2.6199
0.466595,-0.354665,2.555,2.62136
0.474888,-0.354665,2.555,2.62285
0.48318,-0.354665,2.555,2.62436
0.491473,-0.354665,2.555,2.6259
0.499766,-0.354665,2.555,2.62747
0.504281,-0.352028,2.536,2.60951
0.512512,-0.352028,2.536,2.61111
0.520743,-0.352028,2.536,2.61274
0.528975,-0.352028,2.536,2.61439
0.537206,-0.352028,2.536,2.61607
0.545437,-0.352028,2.536,2.61777
0.553668,-0.352028,2.536,2.6195
0.5619,-0.352028,2.536,2.62125
0.570131,-0.352028,2.536,2.62303
0.582695,-0.354665,2.555,2.64449
0.586593,-0.352028,2.536,2.62665
0.594824,-0.352028,2.536,2.6285
0.607574,-0.354665,2.555,2.65009
0.615867,-0.354665,2.555,2.652
0.62416,-0.354665,2.555,2.65394
0.632453,-0.354665,2.555,2.6559
0.640746,-0.354665,2.555,2.65789
0.649038,-0.354665,2.555,2.6599
0.657331,-0.354665,2.555,2.66193
0.665624,-0.354665,2.555,2.66399
0.673917,-0.354665,2.555,2.66608
0.68221,-0.354665,2.555,2.66819
0.690503,-0.354665,2.555,2.67032
0.698796,-0.354665,2.555,2.67248
0.70183,-0.352028,2.536,2.65477
0.710062,-0.352028,2.536,2.65695
0.718293,-0.352028,2.536,2.65917
0.726524,-0.352028,2.536,2.6614
0.734755,-0.352028,2.536,2.66366
0.742987,-0.352028,2.536,2.66594
0.751218,-0.352028,2.536,2.66825
0.759449,-0.352028,2.536,2.67058
0.76768,-0.352028,2.536,2.67293
0.775912,-0.352028,2.536,2.67531
0.784143,-0.352028,2.536,2.6777
0.792374,-0.352028,2.536,2.68013
0.800605,-0.352028,2.536,2.68257
0.808836,-0.352028,2.536,2.68504
0.817068,-0.352028,2.536,2.68753
0.825299,-0.352028,2.536,2.69004
0.83353,-0.352028,2.536,2.69258
0.841761,-0.352028,2.536,2.69514
0.849993,-0.352028,2.536,2.69772
0.858224,-0.352028,2.536,2.70033
0.859963,-0.34939,2.517,2.6827
0.868133,-0.34939,2.517,2.68533
0.876303,-0.34939,2.517,2.68799
0.884472,-0.34939,2.517,2.69066
0.892642,-0.34939,2.517,2.69336
0.894369,-0.346891,2.499,2.6768
0.90248,-0.346891,2.499,2.67952
0.910591,-0.346891,2.499,2.68226
0.912085,-0.344393,2.481,2.66568
0.920138,-0.344393,2.481,2.66845
0.928191,-0.344393,2.481,2.67124
0.936243,-0.344393,2.481,2.67405
0.944296,-0.344393,2.481,2.67688
0.945439,-0.341894,2.463,2.66028
0.953434,-0.341894,2.463,2.66314
0.961428,-0.341894,2.463,2.66601
0.969422,-0.341894,2.463,2.6689
0.977417,-0.341894,2.463,2.67182
0.985411,-0.341894,2.463,2.67475
0.993405,-0.341894,2.463,2.67771
1.0014,-0.341894,2.463,2.68068
1.00202,-0.339396,2.445,2.66407
1.00995,-0.339396,2.445,2.66706
1.02538,-0.341894,2.463,2.68973
1.03338,-0.341894,2.463,2.69279
nan,nan,nan,NaN
nan,nan,nan,NaN
nan,nan,nan,NaN
nan,nan,nan,NaN
nan,nan,nan,NaN
nan,nan,nan,NaN
nan,nan,nan,NaN
nan,nan,nan,NaN
nan,nan,nan,NaN
nan,nan,nan,NaN
nan,nan,nan,NaN
nan,nan,nan,NaN
nan,nan,nan,NaN
nan,nan,nan,NaN
nan,nan,nan,NaN
nan,nan,nan,NaN
nan,nan,nan,NaN
nan,nan,nan,NaN
nan,nan,nan,NaN
nan,nan,nan,NaN
nan,nan,nan,NaN
nan,nan,nan,NaN
nan,nan,nan,NaN
nan,nan,nan,NaN
nan,nan,nan,NaN
nan,nan,nan,NaN
nan,nan,nan,NaN
1.68037,-0.45697,3.292,3.72421
1.69106,-0.45697,3.292,3.72904
1.75188,-0.470434,3.389,3.84392
1.76288,-0.470434,3.389,3.84895
nan,nan,nan,NaN
nan,nan,nan,NaN
1.87007,-0.489868,3.529,4.0238
1.88153,-0.489868,3.529,4.02914
1.93321,-0.500279,3.604,4.12024
1.94491,-0.500279,3.604,4.12574
1.97724,-0.505554,3.642,4.17483
2.01036,-0.510967,3.681,4.22521
2.02231,-0.510967,3.681,4.23091
2.03425,-0.510967,3.681,4.23663
2.06844,-0.51652,3.721,4.28848
2.08051,-0.51652,3.721,4.29432
2.09259,-0.51652,3.721,4.30018
2.10467,-0.51652,3.721,4.30607
2.11675,-0.51652,3.721,4.31199
2.12882,-0.51652,3.721,4.31793
2.1409,-0.51652,3.721,4.3239
2.15298,-0.51652,3.721,4.32989
2.14178,-0.510967,3.681,4.2893
2.13091,-0.505554,3.642,4.24977
2.12037,-0.500279,3.604,4.2113
2.13207,-0.500279,3.604,4.21721
2.09916,-0.489868,3.529,4.13525
2.06815,-0.480012,3.458,4.05776
2.07937,-0.480012,3.458,4.06349
2.06944,-0.475154,3.423,4.02806
2.03982,-0.465853,3.356,3.95482
2.05072,-0.465853,3.356,3.96045
2.04195,-0.461412,3.324,3.92829
1.99469,-0.448363,3.23,3.82266
2.00517,-0.448363,3.23,3.82814
1.97821,-0.440034,3.17,3.76243
1.93456,-0.428097,3.084,3.66563
1.94457,-0.428097,3.084,3.67092
1.92035,-0.420601,3.03,3.61186
1.89642,-0.413244,2.977,3.55383
1.90609,-0.413244,2.977,3.559
1.88293,-0.406164,2.926,3.50312
1.87626,-0.402694,2.901,3.47826
1.88567,-0.402694,2.901,3.48335
1.86373,-0.396031,2.853,3.43074
1.85724,-0.3927,2.829,3.40687
1.85125,-0.389507,2.806,3.38415
1.86035,-0.389507,2.806,3.38914
1.85414,-0.386314,2.783,3.36633
1.83371,-0.380206,2.739,3.31801
1.8426,-0.380206,2.739,3.32293
1.85149,-0.380206,2.739,3.32787
1.84544,-0.377153,2.717,3.30605
-2.32817,-0.454964,3.356,4.10976
-2.31727,-0.454964,3.356,4.10359
-2.32906,-0.459438,3.389,4.13774
-2.31806,-0.459438,3.389,4.13156
-2.30706,-0.459438,3.389,4.1254
-2.29606,-0.459438,3.389,4.11926
-2.28506,-0.459438,3.389,4.11314
-2.27406,-0.459438,3.389,4.10704
-2.26306,-0.459438,3.389,4.10096
-2.25206,-0.459438,3.389,4.0949
-2.26355,-0.464047,3.423,4.12988
-2.25243,-0.464047,3.423,4.1238
-2.24132,-0.464047,3.423,4.11774
-2.23021,-0.464047,3.423,4.11171
-2.24179,-0.468792,3.458,4.14767
-2.23057,-0.468792,3.458,4.14162
-2.21935,-0.468792,3.458,4.13558
-2.23047,-0.473537,3.493,4.17137
-2.21914,-0.473537,3.493,4.16531
-2.2078,-0.473537,3.493,4.15929
-2.2191,-0.478417,3.529,4.19608
-2.23079,-0.483433,3.566,4.23397
-2.21922,-0.483433,3.566,4.22788
-2.20764,-0.483433,3.566,4.22182
-2.19607,-0.483433,3.566,4.21578
-2.18449,-0.483433,3.566,4.20976
-2.17292,-0.483433,3.566,4.20376
-2.16134,-0.483433,3.566,4.19779
-2.14977,-0.483433,3.566,4.19185
-2.11601,-0.478417,3.529,4.14249
-2.10456,-0.478417,3.529,4.13665
nan,nan,nan,NaN
nan,nan,nan,NaN
nan,nan,nan,NaN
nan,nan,nan,NaN
nan,nan,nan,NaN
nan,nan,nan,NaN
nan,nan,nan,NaN
nan,nan,nan,NaN
nan,nan,nan,NaN
nan,nan,nan,NaN
nan,nan,nan,NaN
nan,nan,nan,NaN
nan,nan,nan,NaN
nan,nan,nan,NaN
nan,nan,nan,NaN
nan,nan,nan,NaN
nan,nan,nan,NaN
nan,nan,nan,NaN
nan,nan,nan,NaN
nan,nan,nan,NaN
nan,nan,nan,NaN
nan,nan,nan,NaN
nan,nan,nan,NaN
nan,nan,nan,NaN
nan,nan,nan,NaN
nan,nan,nan,NaN
nan,nan,nan,NaN
nan,nan,nan,NaN
nan,nan,nan,NaN
nan,nan,nan,NaN
nan,nan,nan,NaN
-1.17066,-0.322243,2.377,2.66916
-1.16295,-0.322243,2.377,2.66579
-1.15523,-0.322243,2.377,2.66243
-1.14752,-0.322243,2.377,2.65909
-1.1398,-0.322243,2.377,2.65577
-1.13209,-0.322243,2.377,2.65247
-1.12437,-0.322243,2.377,2.64919
-1.11666,-0.322243,2.377,2.64592
-1.10894,-0.322243,2.377,2.64267
-1.10123,-0.322243,2.377,2.63945
-1.09351,-0.322243,2.377,2.63624
-1.0858,-0.322243,2.377,2.63304
-1.07808,-0.322243,2.377,2.62987
-1.07802,-0.324548,2.394,2.64551
-1.07025,-0.324548,2.394,2.64235
-1.06248,-0.324548,2.394,2.63921
-1.05471,-0.324548,2.394,2.63609
-1.04694,-0.324548,2.394,2.63299
-1.03917,-0.324548,2.394,2.62991
-1.0314,-0.324548,2.394,2.62685
-1.02363,-0.324548,2.394,2.62381
-1.01586,-0.324548,2.394,2.62079
-1.00809,-0.324548,2.394,2.61779
-1.00032,-0.324548,2.394,2.6148
-0.992548,-0.324548,2.394,2.61184
-0.984778,-0.324548,2.394,2.6089
-0.977007,-0.324548,2.394,2.60598
-0.969237,-0.324548,2.394,2.60307
-0.968294,-0.326853,2.411,2.61865
-0.960468,-0.326853,2.411,2.61577
-0.952643,-0.326853,2.411,2.61291
-0.944817,-0.326853,2.411,2.61006
-0.936992,-0.326853,2.411,2.60724
-0.929166,-0.326853,2.411,2.60444
-0.921341,-0.326853,2.411,2.60166
-0.913515,-0.326853,2.411,2.5989
-0.90569,-0.326853,2.411,2.59616
-0.897864,-0.326853,2.411,2.59344
-0.896315,-0.329157,2.428,2.60901
-0.888434,-0.329157,2.428,2.60631
-0.880553,-0.329157,2.428,2.60363
-0.872672,-0.329157,2.428,2.60098
-0.864792,-0.329157,2.428,2.59834
-0.856911,-0.329157,2.428,2.59573
-0.84903,-0.329157,2.428,2.59314
-0.84115,-0.329157,2.428,2.59057
-0.839103,-0.331462,2.445,2.60614
-0.831167,-0.331462,2.445,2.6036
-0.823232,-0.331462,2.445,2.60108
-0.815296,-0.331462,2.445,2.59858
-0.80736,-0.331462,2.445,2.5961
-0.799424,-0.331462,2.445,2.59364
-0.791488,-0.331462,2.445,2.59121
-0.783552,-0.331462,2.445,2.58879
-0.781326,-0.333902,2.463,2.60544
-0.773332,-0.333902,2.463,2.60306
-0.765338,-0.333902,2.463,2.60069
-0.757344,-0.333902,2.463,2.59835
-0.749349,-0.333902,2.463,2.59603
-0.741355,-0.333902,2.463,2.59374
-0.733361,-0.333902,2.463,2.59146
-0.725366,-0.333902,2.463,2.58921
-0.717372,-0.333902,2.463,2.58698
-0.714562,-0.336342,2.481,2.60367
-0.706509,-0.336342,2.481,2.60147
-0.698457,-0.336342,2.481,2.59929
-0.690404,-0.336342,2.481,2.59714
-0.682351,-0.336342,2.481,2.59501
-0.674299,-0.336342,2.481,2.59291
-0.666246,-0.336342,2.481,2.59082
-0.658193,-0.336342,2.481,2.58877
-0.654857,-0.338783,2.499,2.6055
-0.646746,-0.338783,2.499,2.60347
-0.638635,-0.338783,2.499,2.60147
-0.630524,-0.338783,2.499,2.59949
-0.622413,-0.338783,2.499,2.59753
-0.614302,-0.338783,2.499,2.5956
-0.606191,-0.338783,2.499,2.59369
-0.598079,-0.338783,2.499,2.59181
-0.585719,-0.336342,2.481,2.57129
-0.577666,-0.336342,2.481,2.56947
-0.569613,-0.336342,2.481,2.56767
-0.561561,-0.336342,2.481,2.5659
-0.557524,-0.338783,2.499,2.58275
-0.549413,-0.338783,2.499,2.58101
-0.541301,-0.338783,2.499,2.5793
-0.53319,-0.338783,2.499,2.57761
-0.525079,-0.338783,2.499,2.57594
-0.516968,-0.338783,2.499,2.5743
-0.508857,-0.338783,2.499,2.57269
-0.500746,-0.338783,2.499,2.57109
-0.492635,-0.338783,2.499,2.56953
-0.484524,-0.338783,2.499,2.56798
-0.476412,-0.338783,2.499,2.56647
-0.468301,-0.338783,2.499,2.56497
-0.46019,-0.338783,2.499,2.5635
-0.452079,-0.338783,2.499,2.56206
-0.443968,-0.338783,2.499,2.56064
-0.435857,-0.338783,2.499,2.55925
-0.427746,-0.338783,2.499,2.55788
-0.422657,-0.341223,2.517,2.57495
-0.411523,-0.338783,2.499,2.55522
-0.403412,-0.338783,2.499,2.55392
-0.392454,-0.336342,2.481,2.53427
-0.384401,-0.336342,2.481,2.53303
-0.376348,-0.336342,2.481,2.53182
-0.368296,-0.336342,2.481,2.53064
-0.360243,-0.336342,2.481,2.52948
-0.35219,-0.336342,2.481,2.52834
-0.344137,-0.336342,2.481,2.52724
-0.336085,-0.336342,2.481,2.52615
-0.325652,-0.333902,2.463,2.50677
-0.315336,-0.331462,2.445,2.48743
-0.3074,-0.331462,2.445,2.48644
-0.299465,-0.331462,2.445,2.48547
-0.289502,-0.329157,2.428,2.46725
-0.281621,-0.329157,2.428,2.46634
-0.27374,-0.329157,2.428,2.46545
-0.26586,-0.329157,2.428,2.46459
-0.257979,-0.329157,2.428,2.46375
-0.250098,-0.329157,2.428,2.46294
-0.240522,-0.326853,2.411,2.44491
-0.232696,-0.326853,2.411,2.44416
-0.224871,-0.326853,2.411,2.44342
-0.217045,-0.326853,2.411,2.44272
-0.20922,-0.326853,2.411,2.44203
-0.201394,-0.326853,2.411,2.44138
-0.193569,-0.326853,2.411,2.44074
-0.185743,-0.326853,2.411,2.44013
-0.177918,-0.326853,2.411,2.43955
-0.170092,-0.326853,2.411,2.43899
-0.161123,-0.324548,2.394,2.42127
-0.153352,-0.324548,2.394,2.42076
-0.146616,-0.326853,2.411,2.43747
-0.13879,-0.326853,2.411,2.43701
-0.130965,-0.326853,2.411,2.43658
-0.123139,-0.326853,2.411,2.43617
-0.115314,-0.326853,2.411,2.43579
-0.108246,-0.329157,2.428,2.4526
-0.100365,-0.329157,2.428,2.45226
-0.0931322,-0.331462,2.445,2.46912
-0.0851963,-0.331462,2.445,2.46884
-0.0772605,-0.331462,2.445,2.46858
-0.069835,-0.333902,2.463,2.48651
-0.0618407,-0.333902,2.463,2.4863
-0.0538464,-0.333902,2.463,2.48611
-0.0461872,-0.336342,2.481,2.50412
-0.0381345,-0.336342,2.481,2.50399
-0.0300818,-0.336342,2.481,2.50388
-0.0221889,-0.338783,2.499,2.52196
-0.0141792,-0.341223,2.517,2.54006
-0.00600962,-0.341223,2.517,2.54003
0.00215994,-0.341223,2.517,2.54003
0.0103295,-0.341223,2.517,2.54005
0.0184991,-0.341223,2.517,2.54009
0.0268699,-0.343799,2.536,2.55934
0.0353641,-0.346374,2.555,2.57861
0.043657,-0.346374,2.555,2.57874
0.0519499,-0.346374,2.555,2.57889
0.0606908,-0.34895,2.574,2.59825
0.0690454,-0.34895,2.574,2.59846
0.0773999,-0.34895,2.574,2.5987
0.0851215,-0.346374,2.555,2.57978
0.0934144,-0.346374,2.555,2.58006
0.101707,-0.346374,2.555,2.58038
0.11,-0.346374,2.555,2.58072
0.118293,-0.346374,2.555,2.58108
0.126586,-0.346374,2.555,2.58148
0.134879,-0.346374,2.555,2.5819
0.143172,-0.346374,2.555,2.58234
0.150338,-0.343799,2.536,2.56361
0.15857,-0.343799,2.536,2.56411
0.166801,-0.343799,2.536,2.56463
0.176343,-0.346374,2.555,2.58439
0.183263,-0.343799,2.536,2.56575
0.191494,-0.343799,2.536,2.56635
0.199726,-0.343799,2.536,2.56698
0.207957,-0.343799,2.536,2.56763
0.216188,-0.343799,2.536,2.56831
0.224419,-0.343799,2.536,2.56902
0.232651,-0.343799,2.536,2.56975
0.240882,-0.343799,2.536,2.57051
0.249113,-0.343799,2.536,2.57129
0.257344,-0.343799,2.536,2.5721
0.265575,-0.343799,2.536,2.57294
0.273807,-0.343799,2.536,2.5738
0.282038,-0.343799,2.536,2.57469
0.290269,-0.343799,2.536,2.57561
0.300737,-0.346374,2.555,2.59585
0.30903,-0.346374,2.555,2.59682
0.317323,-0.346374,2.555,2.59782
0.325615,-0.346374,2.555,2.59885
0.333908,-0.346374,2.555,2.5999
0.342201,-0.346374,2.555,2.60098
0.350494,-0.346374,2.555,2.60209
0.358787,-0.346374,2.555,2.60321
0.36708,-0.346374,2.555,2.60437
0.375373,-0.346374,2.555,2.60555
0.383666,-0.346374,2.555,2.60676
0.391959,-0.346374,2.555,2.60799
0.400252,-0.346374,2.555,2.60925
0.408544,-0.346374,2.555,2.61054
0.416837,-0.346374,2.555,2.61185
0.42513,-0.346374,2.555,2.61319
0.433423,-0.346374,2.555,2.61455
0.441716,-0.346374,2.555,2.61593
0.450009,-0.346374,2.555,2.61735
0.458302,-0.346374,2.555,2.61879
0.466595,-0.346374,2.555,2.62025
0.474888,-0.346374,2.555,2.62174
0.479587,-0.343799,2.536,2.60375
0.487819,-0.343799,2.536,2.60528
0.49605,-0.343799,2.536,2.60683
0.504281,-0.343799,2.536,2.60841
0.512512,-0.343799,2.536,2.61001
0.520743,-0.343799,2.536,2.61164
0.525012,-0.341223,2.517,2.59372
0.533181,-0.341223,2.517,2.59538
0.541351,-0.341223,2.517,2.59707
0.54952,-0.341223,2.517,2.59879
0.55769,-0.341223,2.517,2.60053
0.565859,-0.341223,2.517,2.60229
0.574029,-0.341223,2.517,2.60408
0.582199,-0.341223,2.517,2.60589
0.594824,-0.343799,2.536,2.62741
0.603056,-0.343799,2.536,2.62929
0.611287,-0.343799,2.536,2.63119
0.619518,-0.343799,2.536,2.63312
0.627749,-0.343799,2.536,2.63506
0.635981,-0.343799,2.536,2.63704
0.644212,-0.343799,2.536,2.63903
0.652443,-0.343799,2.536,2.64106
0.660674,-0.343799,2.536,2.6431
0.668906,-0.343799,2.536,2.64517
0.677137,-0.343799,2.536,2.64726
0.685368,-0.343799,2.536,2.64938
0.693599,-0.343799,2.536,2.65152
0.70183,-0.343799,2.536,2.65369
0.710062,-0.343799,2.536,2.65588
0.718293,-0.343799,2.536,2.65809
0.726524,-0.343799,2.536,2.66033
0.734755,-0.343799,2.536,2.66259
0.742987,-0.343799,2.536,2.66487
0.751218,-0.343799,2.536,2.66717
0.759449,-0.343799,2.536,2.6695
0.76768,-0.343799,2.536,2.67186
0.775912,-0.343799,2.536,2.67423
0.784143,-0.343799,2.536,2.67663
0.792374,-0.343799,2.536,2.67906
0.800605,-0.343799,2.536,2.6815
0.808836,-0.343799,2.536,2.68397
0.817068,-0.343799,2.536,2.68646
0.819116,-0.341223,2.517,2.66883
0.827285,-0.341223,2.517,2.67135
0.835455,-0.341223,2.517,2.67389
0.843624,-0.341223,2.517,2.67646
0.858224,-0.343799,2.536,2.69927
0.859963,-0.341223,2.517,2.68165
0.868133,-0.341223,2.517,2.68428
0.876303,-0.341223,2.517,2.68694
0.878147,-0.338783,2.499,2.67038
0.886258,-0.338783,2.499,2.67306
0.894369,-0.338783,2.499,2.67576
0.90248,-0.338783,2.499,2.67848
0.910591,-0.338783,2.499,2.68122
0.918703,-0.338783,2.499,2.68399
0.920138,-0.336342,2.481,2.66742
0.928191,-0.336342,2.481,2.67021
0.936243,-0.336342,2.481,2.67302
0.937445,-0.333902,2.463,2.65644
0.945439,-0.333902,2.463,2.65927
0.953434,-0.333902,2.463,2.66212
0.961428,-0.333902,2.463,2.665
0.969422,-0.333902,2.463,2.66789
0.977417,-0.333902,2.463,2.67081
0.985411,-0.333902,2.463,2.67374
0.993405,-0.333902,2.463,2.6767
1.0014,-0.333902,2.463,2.67968
1.00939,-0.333902,2.463,2.68267
1.01739,-0.333902,2.463,2.68569
1.02538,-0.333902,2.463,2.68873
1.03338,-0.333902,2.463,2.69179
nan,nan,nan,NaN
nan,nan,nan,NaN
nan,nan,nan,NaN
nan,nan,nan,NaN
nan,nan,nan,NaN
nan,nan,nan,NaN
nan,nan,nan,NaN
nan,nan,nan,NaN
nan,nan,nan,NaN
nan,nan,nan,NaN
nan,nan,nan,NaN
nan,nan,nan,NaN
nan,nan,nan,NaN
nan,nan,nan,NaN
nan,nan,nan,NaN
nan,nan,nan,NaN
nan,nan,nan,NaN
nan,nan,nan,NaN
nan,nan,nan,NaN
nan,nan,nan,NaN
nan,nan,nan,NaN
nan,nan,nan,NaN
nan,nan,nan,NaN
nan,nan,nan,NaN
nan,nan,nan,NaN
nan,nan,nan,NaN
nan,nan,nan,NaN
1.72989,-0.459438,3.389,3.83261
1.74088,-0.459438,3.389,3.83759
1.76946,-0.464047,3.423,3.88114
1.78057,-0.464047,3.423,3.88622
nan,nan,nan,NaN
nan,nan,nan,NaN
1.87007,-0.478417,3.529,4.02242
1.88153,-0.478417,3.529,4.02776
1.93321,-0.488585,3.604,4.11884
1.94491,-0.488585,3.604,4.12434
1.97724,-0.493736,3.642,4.17342
2.01036,-0.499023,3.681,4.22378
2.02231,-0.499023,3.681,4.22948
2.03425,-0.499023,3.681,4.23521
2.06844,-0.504446,3.721,4.28704
2.08051,-0.504446,3.721,4.29288
2.09259,-0.504446,3.721,4.29875
2.10467,-0.504446,3.721,4.30464
2.14007,-0.510004,3.762,4.35806
2.15228,-0.510004,3.762,4.36406
2.1409,-0.504446,3.721,4.32247
2.15298,-0.504446,3.721,4.32847
2.14178,-0.499023,3.681,4.28789
2.15373,-0.499023,3.681,4.29387
2.12037,-0.488585,3.604,4.20993
2.13207,-0.488585,3.604,4.21583
2.12117,-0.483433,3.566,4.17725
2.08908,-0.473537,3.493,4.09751
2.10042,-0.473537,3.493,4.1033
2.06944,-0.464047,3.423,4.02676
2.03982,-0.454964,3.356,3.95356
2.05072,-0.454964,3.356,3.95919
2.04195,-0.450626,3.324,3.92703
2.01322,-0.441949,3.26,3.85694
2.0238,-0.441949,3.26,3.86247
1.97821,-0.429748,3.17,3.76124
1.93456,-0.41809,3.084,3.66447
1.94457,-0.41809,3.084,3.66977
1.93746,-0.414429,3.057,3.64291
1.91299,-0.407109,3.003,3.58375
1.92273,-0.407109,3.003,3.58896
1.89902,-0.400059,2.951,3.53196
1.89243,-0.39667,2.926,3.50715
1.90192,-0.39667,2.926,3.51228
1.87941,-0.390027,2.877,3.45853
1.87299,-0.386773,2.853,3.43472
1.85125,-0.380402,2.806,3.38311
1.86035,-0.380402,2.806,3.38811
1.85414,-0.377284,2.783,3.3653
1.84844,-0.374301,2.761,3.34365
1.8574,-0.374301,2.761,3.34861
1.85149,-0.371319,2.739,3.32686
1.84544,-0.368336,2.717,3.30506
-2.28377,-0.435606,3.292,4.03021
-2.29518,-0.43984,3.324,4.06328
-2.28439,-0.43984,3.324,4.0572
-2.2736,-0.43984,3.324,4.05114
-2.2846,-0.444074,3.356,4.08403
-2.2737,-0.444074,3.356,4.07795
-2.26281,-0.444074,3.356,4.07189
-2.25192,-0.444074,3.356,4.06584
-2.24102,-0.444074,3.356,4.05982
-2.23013,-0.444074,3.356,4.05382
-2.24106,-0.448441,3.389,4.08764
-2.23006,-0.448441,3.389,4.08162
-2.24132,-0.45294,3.423,4.11651
-2.23021,-0.45294,3.423,4.11047
-2.2191,-0.45294,3.423,4.10445
-2.23057,-0.457571,3.458,4.14036
-2.21935,-0.457571,3.458,4.13432
-2.20812,-0.457571,3.458,4.12831
-2.21914,-0.462202,3.493,4.16404
-2.2078,-0.462202,3.493,4.15801
-2.2191,-0.466966,3.529,4.19479
-2.23079,-0.471862,3.566,4.23266
-2.21922,-0.471862,3.566,4.22657
-2.20764,-0.471862,3.566,4.22051
-2.19607,-0.471862,3.566,4.21447
-2.18449,-0.471862,3.566,4.20845
-2.17292,-0.471862,3.566,4.20245
-2.16134,-0.471862,3.566,4.19648
-2.14977,-0.471862,3.566,4.19053
-2.13819,-0.471862,3.566,4.1846
-2.14928,-0.47689,3.604,4.22323
nan,nan,nan,NaN
nan,nan,nan,NaN
nan,nan,nan,NaN
nan,nan,nan,NaN
nan,nan,nan,NaN
nan,nan,nan,NaN
nan,nan,nan,NaN
nan,nan,nan,NaN
nan,nan,nan,NaN
nan,nan,nan,NaN
nan,nan,nan,NaN
nan,nan,nan,NaN
nan,nan,nan,NaN
nan,nan,nan,NaN
nan,nan,nan,NaN
nan,nan,nan,NaN
nan,nan,nan,NaN
nan,nan,nan,NaN
nan,nan,nan,NaN
nan,nan,nan,NaN
nan,nan,nan,NaN
nan,nan,nan,NaN
nan,nan,nan,NaN
nan,nan,nan,NaN
nan,nan,nan,NaN
nan,nan,nan,NaN
nan,nan,nan,NaN
nan,nan,nan,NaN
nan,nan,nan,NaN
nan,nan,nan,NaN
nan,nan,nan,NaN
-1.17904,-0.31678,2.394,2.68732
-1.17127,-0.31678,2.394,2.68392
-1.1635,-0.31678,2.394,2.68054
-1.15572,-0.31678,2.394,2.67718
-1.14795,-0.31678,2.394,2.67383
-1.14018,-0.31678,2.394,2.67051
-1.13241,-0.31678,2.394,2.6672
-1.12464,-0.31678,2.394,2.66391
-1.11687,-0.31678,2.394,2.66064
-1.1091,-0.31678,2.394,2.65739
-1.10133,-0.31678,2.394,2.65415
-1.09356,-0.31678,2.394,2.65094
-1.08579,-0.31678,2.394,2.64774
-1.07802,-0.31678,2.394,2.64456
-1.07025,-0.31678,2.394,2.64141
-1.06248,-0.31678,2.394,2.63827
-1.05471,-0.31678,2.394,2.63515
-1.04694,-0.31678,2.394,2.63205
-1.03917,-0.31678,2.394,2.62897
-1.0314,-0.31678,2.394,2.6259
-1.02363,-0.31678,2.394,2.62286
-1.01586,-0.31678,2.394,2.61984
-1.00809,-0.31678,2.394,2.61684
-1.00032,-0.31678,2.394,2.61385
-0.992548,-0.31678,2.394,2.61089
-0.984778,-0.31678,2.394,2.60794
-0.977007,-0.31678,2.394,2.60502
-0.976119,-0.319029,2.411,2.62059
-0.968294,-0.319029,2.411,2.61769
-0.960468,-0.319029,2.411,2.6148
-0.952643,-0.319029,2.411,2.61194
-0.944817,-0.319029,2.411,2.6091
-0.936992,-0.319029,2.411,2.60627
-0.929166,-0.319029,2.411,2.60347
-0.921341,-0.319029,2.411,2.60069
-0.913515,-0.319029,2.411,2.59792
-0.90569,-0.319029,2.411,2.59518
-0.904195,-0.321279,2.428,2.61074
-0.896315,-0.321279,2.428,2.60802
-0.888434,-0.321279,2.428,2.60533
-0.880553,-0.321279,2.428,2.60265
-0.872672,-0.321279,2.428,2.59999
-0.864792,-0.321279,2.428,2.59736
-0.856911,-0.321279,2.428,2.59474
-0.854975,-0.323528,2.445,2.6103
-0.847039,-0.323528,2.445,2.60771
-0.839103,-0.323528,2.445,2.60515
-0.831167,-0.323528,2.445,2.6026
-0.829292,-0.32591,2.463,2.61922
-0.821298,-0.32591,2.463,2.6167
-0.813304,-0.32591,2.463,2.6142
-0.805309,-0.32591,2.463,2.61173
-0.797315,-0.32591,2.463,2.60927
-0.789321,-0.32591,2.463,2.60684
-0.781326,-0.32591,2.463,2.60443
-0.773332,-0.32591,2.463,2.60204
-0.765338,-0.32591,2.463,2.59968
-0.757344,-0.32591,2.463,2.59734
-0.749349,-0.32591,2.463,2.59502
-0.741355,-0.32591,2.463,2.59272
-0.73872,-0.328292,2.481,2.60938
-0.730668,-0.328292,2.481,2.60711
-0.722615,-0.328292,2.481,2.60486
-0.714562,-0.328292,2.481,2.60264
-0.706509,-0.328292,2.481,2.60044
-0.698457,-0.328292,2.481,2.59826
-0.690404,-0.328292,2.481,2.59611
-0.687302,-0.330674,2.499,2.6128
-0.679191,-0.330674,2.499,2.61068
-0.67108,-0.330674,2.499,2.60858
-0.662968,-0.330674,2.499,2.60651
-0.654857,-0.330674,2.499,2.60445
-0.646746,-0.330674,2.499,2.60243
-0.638635,-0.330674,2.499,2.60042
-0.630524,-0.330674,2.499,2.59844
-0.622413,-0.330674,2.499,2.59649
-0.614302,-0.330674,2.499,2.59455
-0.606191,-0.330674,2.499,2.59265
-0.598079,-0.330674,2.499,2.59076
-0.585719,-0.328292,2.481,2.57025
-0.577666,-0.328292,2.481,2.56843
-0.569613,-0.328292,2.481,2.56663
-0.561561,-0.328292,2.481,2.56486
-0.557524,-0.330674,2.499,2.5817
-0.549413,-0.330674,2.499,2.57996
-0.541301,-0.330674,2.499,2.57825
-0.53319,-0.330674,2.499,2.57656
-0.525079,-0.330674,2.499,2.57489
-0.516968,-0.330674,2.499,2.57325
-0.508857,-0.330674,2.499,2.57163
-0.500746,-0.330674,2.499,2.57004
-0.492635,-0.330674,2.499,2.56847
-0.484524,-0.330674,2.499,2.56693
-0.476412,-0.330674,2.499,2.56541
-0.468301,-0.330674,2.499,2.56391
-0.46019,-0.330674,2.499,2.56244
-0.455335,-0.333056,2.517,2.57945
-0.447166,-0.333056,2.517,2.57802
-0.438996,-0.333056,2.517,2.57661
-0.430827,-0.333056,2.517,2.57523
-0.422657,-0.333056,2.517,2.57388
-0.411523,-0.330674,2.499,2.55415
-0.403412,-0.330674,2.499,2.55286
-0.395301,-0.330674,2.499,2.55159
-0.38719,-0.330674,2.499,2.55035
-0.376348,-0.328292,2.481,2.53077
-0.368296,-0.328292,2.481,2.52958
-0.360243,-0.328292,2.481,2.52842
-0.35219,-0.328292,2.481,2.52729
-0.341641,-0.32591,2.463,2.50785
-0.333646,-0.32591,2.463,2.50677
-0.325652,-0.32591,2.463,2.50572
-0.315336,-0.323528,2.445,2.48639
-0.3074,-0.323528,2.445,2.4854
-0.297382,-0.321279,2.428,2.46715
-0.289502,-0.321279,2.428,2.46621
-0.281621,-0.321279,2.428,2.4653
-0.27374,-0.321279,2.428,2.46441
-0.263998,-0.319029,2.411,2.4463
-0.256173,-0.319029,2.411,2.44547
-0.248347,-0.319029,2.411,2.44466
-0.240522,-0.319029,2.411,2.44388
-0.232696,-0.319029,2.411,2.44312
-0.224871,-0.319029,2.411,2.44239
-0.217045,-0.319029,2.411,2.44168
-0.20922,-0.319029,2.411,2.441
-0.201394,-0.319029,2.411,2.44034
-0.193569,-0.319029,2.411,2.43971
-0.184434,-0.31678,2.394,2.4219
-0.176663,-0.31678,2.394,2.42132
-0.168893,-0.31678,2.394,2.42077
-0.161123,-0.31678,2.394,2.42024
-0.153352,-0.31678,2.394,2.41973
-0.146616,-0.319029,2.411,2.43643
-0.13879,-0.319029,2.411,2.43597
-0.130965,-0.319029,2.411,2.43554
-0.123139,-0.319029,2.411,2.43513
-0.115314,-0.319029,2.411,2.43475
-0.108246,-0.321279,2.428,2.45156
-0.100365,-0.321279,2.428,2.45122
-0.0931322,-0.323528,2.445,2.46807
-0.0851963,-0.323528,2.445,2.46778
-0.0772605,-0.323528,2.445,2.46752
-0.069835,-0.32591,2.463,2.48545
-0.0618407,-0.32591,2.463,2.48524
-0.0538464,-0.32591,2.463,2.48505
-0.0461872,-0.328292,2.481,2.50305
-0.0381345,-0.328292,2.481,2.50292
-0.0300818,-0.328292,2.481,2.50281
-0.0221889,-0.330674,2.499,2.52088
-0.0140778,-0.330674,2.499,2.52082
-0.00596664,-0.330674,2.499,2.52079
0.00215994,-0.333056,2.517,2.53894
0.0103295,-0.333056,2.517,2.53896
0.0184991,-0.333056,2.517,2.53901
0.0268699,-0.33557,2.536,2.55825
0.0351011,-0.33557,2.536,2.55835
0.0433324,-0.33557,2.536,2.55847
0.0515636,-0.33557,2.536,2.55862
0.0597948,-0.33557,2.536,2.5588
0.0685357,-0.338084,2.555,2.57818
0.0768286,-0.338084,2.555,2.57842
0.0851215,-0.338084,2.555,2.57868
0.0934144,-0.338084,2.555,2.57896
0.101707,-0.338084,2.555,2.57928
0.11,-0.338084,2.555,2.57962
0.118293,-0.338084,2.555,2.57998
0.126586,-0.338084,2.555,2.58038
0.134879,-0.338084,2.555,2.5808
0.143172,-0.338084,2.555,2.58124
0.150338,-0.33557,2.536,2.56252
0.15857,-0.33557,2.536,2.56302
0.166801,-0.33557,2.536,2.56354
0.176343,-0.338084,2.555,2.5833
0.183263,-0.33557,2.536,2.56466
0.191494,-0.33557,2.536,2.56526
0.199726,-0.33557,2.536,2.56589
0.207957,-0.33557,2.536,2.56654
0.216188,-0.33557,2.536,2.56722
0.224419,-0.33557,2.536,2.56793
0.232651,-0.33557,2.536,2.56866
0.240882,-0.33557,2.536,2.56942
0.249113,-0.33557,2.536,2.57021
0.257344,-0.33557,2.536,2.57102
0.265575,-0.33557,2.536,2.57185
0.273807,-0.33557,2.536,2.57272
0.282038,-0.33557,2.536,2.57361
0.290269,-0.33557,2.536,2.57452
0.300737,-0.338084,2.555,2.59476
0.30903,-0.338084,2.555,2.59573
0.317323,-0.338084,2.555,2.59673
0.325615,-0.338084,2.555,2.59776
0.333908,-0.338084,2.555,2.59881
0.342201,-0.338084,2.555,2.59989
0.350494,-0.338084,2.555,2.60099
0.358787,-0.338084,2.555,2.60212
0.36708,-0.338084,2.555,2.60328
0.375373,-0.338084,2.555,2.60446
0.383666,-0.338084,2.555,2.60567
0.391959,-0.338084,2.555,2.60691
0.400252,-0.338084,2.555,2.60817
0.405506,-0.33557,2.536,2.59005
0.413738,-0.33557,2.536,2.59135
0.421969,-0.33557,2.536,2.59267
0.4302,-0.33557,2.536,2.59403
0.438431,-0.33557,2.536,2.5954
0.446662,-0.33557,2.536,2.59681
0.454894,-0.33557,2.536,2.59824
0.463125,-0.33557,2.536,2.59969
0.471356,-0.33557,2.536,2.60117
0.475994,-0.333056,2.517,2.58317
0.484164,-0.333056,2.517,2.58469
0.492333,-0.333056,2.517,2.58623
0.500503,-0.333056,2.517,2.5878
0.508672,-0.333056,2.517,2.58939
0.516842,-0.333056,2.517,2.59101
0.525012,-0.333056,2.517,2.59265
0.533181,-0.333056,2.517,2.59432
0.541351,-0.333056,2.517,2.59601
0.54952,-0.333056,2.517,2.59773
0.55769,-0.333056,2.517,2.59947
0.565859,-0.333056,2.517,2.60123
0.574029,-0.333056,2.517,2.60302
0.582199,-0.333056,2.517,2.60484
0.590368,-0.333056,2.517,2.60667
0.598538,-0.333056,2.517,2.60854
0.606707,-0.333056,2.517,2.61042
0.619518,-0.33557,2.536,2.63205
0.627749,-0.33557,2.536,2.634
0.631216,-0.333056,2.517,2.61623
0.639385,-0.333056,2.517,2.61821
0.647555,-0.333056,2.517,2.62022
0.655725,-0.333056,2.517,2.62225
0.663894,-0.333056,2.517,2.6243
0.672064,-0.333056,2.517,2.62638
0.680233,-0.333056,2.517,2.62848
0.688403,-0.333056,2.517,2.63061
0.696572,-0.333056,2.517,2.63276
0.704742,-0.333056,2.517,2.63493
0.712911,-0.333056,2.517,2.63713
0.726524,-0.33557,2.536,2.65927
0.734755,-0.33557,2.536,2.66154
0.742987,-0.33557,2.536,2.66382
0.751218,-0.33557,2.536,2.66613
0.759449,-0.33557,2.536,2.66846
0.76768,-0.33557,2.536,2.67081
0.775912,-0.33557,2.536,2.67319
0.784143,-0.33557,2.536,2.67559
0.792374,-0.33557,2.536,2.67801
0.800605,-0.33557,2.536,2.68046
0.808836,-0.33557,2.536,2.68293
0.817068,-0.33557,2.536,2.68542
0.819116,-0.333056,2.517,2.6678
0.827285,-0.333056,2.517,2.67032
0.835455,-0.333056,2.517,2.67286
0.843624,-0.333056,2.517,2.67543
0.858224,-0.33557,2.536,2.69823
0.859963,-0.333056,2.517,2.68063
0.868133,-0.333056,2.517,2.68326
0.876303,-0.333056,2.517,2.68591
0.878147,-0.330674,2.499,2.66936
0.886258,-0.330674,2.499,2.67204
0.894369,-0.330674,2.499,2.67474
0.90248,-0.330674,2.499,2.67746
