-1.00742,-0.0373906,2.411,2.61328
-0.999596,-0.0373906,2.411,2.61027
-0.99177,-0.0373906,2.411,2.60728
-0.983945,-0.0373906,2.411,2.60432
-0.976119,-0.0373906,2.411,2.60137
-0.968294,-0.0373906,2.411,2.59844
-0.953696,-0.037127,2.394,2.57724
-0.945926,-0.037127,2.394,2.57437
-0.938156,-0.037127,2.394,2.57153
-0.930385,-0.037127,2.394,2.5687
-0.922615,-0.037127,2.394,2.5659
-0.914845,-0.037127,2.394,2.56311
-0.907074,-0.037127,2.394,2.56035
-0.892918,-0.0368633,2.377,2.53945
-0.885203,-0.0368633,2.377,2.53674
-0.877488,-0.0368633,2.377,2.53406
-0.869772,-0.0368633,2.377,2.5314
-0.868223,-0.037127,2.394,2.54685
-0.860452,-0.037127,2.394,2.54421
-0.852682,-0.037127,2.394,2.54159
-0.844912,-0.037127,2.394,2.53899
-0.837141,-0.037127,2.394,2.53642
-0.829371,-0.037127,2.394,2.53386
-0.821601,-0.037127,2.394,2.53133
-0.81383,-0.037127,2.394,2.52882
-0.811784,-0.0373906,2.411,2.54427
-0.803958,-0.0373906,2.411,2.54178
-0.796133,-0.0373906,2.411,2.53932
-0.793866,-0.0376542,2.428,2.55477
-0.785985,-0.0376542,2.428,2.55233
-0.778104,-0.0376542,2.428,2.54991
-0.775616,-0.0379179,2.445,2.56535
-0.773332,-0.038197,2.463,2.58183
-0.765338,-0.038197,2.463,2.57945
-0.757344,-0.038197,2.463,2.57709
-0.754826,-0.0384762,2.481,2.59357
-0.746773,-0.0384762,2.481,2.59124
-0.73872,-0.0384762,2.481,2.58893
-0.735969,-0.0387553,2.499,2.60541
-0.727858,-0.0387553,2.499,2.60313
-0.719746,-0.0387553,2.499,2.60087
-0.711635,-0.0387553,2.499,2.59864
-0.708592,-0.0390345,2.517,2.61513
-0.700422,-0.0390345,2.517,2.61293
-0.692252,-0.0390345,2.517,2.61075
-0.684083,-0.0390345,2.517,2.6086
-0.675913,-0.0390345,2.517,2.60647
-0.667744,-0.0390345,2.517,2.60436
-0.659574,-0.0390345,2.517,2.60228
-0.651405,-0.0390345,2.517,2.60022
-0.643235,-0.0390345,2.517,2.59819
-0.630524,-0.0387553,2.499,2.57761
-0.622413,-0.0387553,2.499,2.57564
-0.614302,-0.0387553,2.499,2.57369
-0.606191,-0.0387553,2.499,2.57176
-0.598079,-0.0387553,2.499,2.56986
-0.589968,-0.0387553,2.499,2.56799
-0.586048,-0.0390345,2.517,2.58462
-0.577879,-0.0390345,2.517,2.58278
-0.565635,-0.0387553,2.499,2.56251
-0.557524,-0.0387553,2.499,2.56073
-0.549413,-0.0387553,2.499,2.55898
-0.5452,-0.0390345,2.517,2.57567
-0.537031,-0.0390345,2.517,2.57395
-0.528861,-0.0390345,2.517,2.57226
-0.520692,-0.0390345,2.517,2.57059
-0.512522,-0.0390345,2.517,2.56895
-0.504353,-0.0390345,2.517,2.56733
-0.496183,-0.0390345,2.517,2.56574
-0.488013,-0.0390345,2.517,2.56417
-0.479844,-0.0390345,2.517,2.56263
-0.475235,-0.0393291,2.536,2.58044
-0.467004,-0.0393291,2.536,2.57894
-0.458772,-0.0393291,2.536,2.57746
-0.450541,-0.0393291,2.536,2.57601
-0.44231,-0.0393291,2.536,2.57458
-0.434079,-0.0393291,2.536,2.57318
-0.425848,-0.0393291,2.536,2.57181
-0.417616,-0.0393291,2.536,2.57046
-0.409385,-0.0393291,2.536,2.56913
-0.401154,-0.0393291,2.536,2.56783
-0.392923,-0.0393291,2.536,2.56656
-0.384691,-0.0393291,2.536,2.56531
-0.37646,-0.0393291,2.536,2.56409
-0.368229,-0.0393291,2.536,2.5629
-0.359998,-0.0393291,2.536,2.56173
-0.351766,-0.0393291,2.536,2.56058
-0.346109,-0.0396238,2.555,2.57864
-0.337816,-0.0396238,2.555,2.57754
-0.329523,-0.0396238,2.555,2.57647
-0.32123,-0.0396238,2.555,2.57542
-0.312937,-0.0396238,2.555,2.5744
-0.304645,-0.0396238,2.555,2.5734
-0.296352,-0.0396238,2.555,2.57243
-0.288059,-0.0396238,2.555,2.57149
-0.279766,-0.0396238,2.555,2.57058
-0.271473,-0.0396238,2.555,2.56969
-0.261223,-0.0393291,2.536,2.54972
-0.252992,-0.0393291,2.536,2.54889
-0.244761,-0.0393291,2.536,2.54809
-0.236529,-0.0393291,2.536,2.54731
-0.228298,-0.0393291,2.536,2.54656
-0.220067,-0.0393291,2.536,2.54583
-0.211836,-0.0393291,2.536,2.54514
-0.203604,-0.0393291,2.536,2.54446
-0.195373,-0.0393291,2.536,2.54382
-0.188544,-0.0396238,2.555,2.56225
-0.180251,-0.0396238,2.555,2.56166
-0.171958,-0.0396238,2.555,2.56109
-0.163665,-0.0396238,2.555,2.56054
-0.155372,-0.0396238,2.555,2.56003
-0.14708,-0.0396238,2.555,2.55954
-0.138787,-0.0396238,2.555,2.55907
-0.130494,-0.0396238,2.555,2.55864
-0.122201,-0.0396238,2.555,2.55823
-0.113908,-0.0396238,2.555,2.55784
-0.105615,-0.0396238,2.555,2.55749
-0.0973222,-0.0396238,2.555,2.55716
-0.0890293,-0.0396238,2.555,2.55686
-0.0807364,-0.0396238,2.555,2.55658
-0.0719048,-0.0393291,2.536,2.53732
-0.0636736,-0.0393291,2.536,2.5371
-0.0554423,-0.0393291,2.536,2.53691
-0.0472111,-0.0393291,2.536,2.53674
-0.0389799,-0.0393291,2.536,2.5366
-0.0305183,-0.0390345,2.517,2.51749
-0.0223487,-0.0390345,2.517,2.5174
-0.0141792,-0.0390345,2.517,2.51734
-0.00600962,-0.0390345,2.517,2.51731
0.00215994,-0.0390345,2.517,2.5173
0.0103295,-0.0390345,2.517,2.51732
0.0184991,-0.0390345,2.517,2.51737
0.0266686,-0.0390345,2.517,2.51744
0.034589,-0.0387553,2.499,2.49954
0.0427002,-0.0387553,2.499,2.49967
0.0508113,-0.0387553,2.499,2.49982
0.0589224,-0.0387553,2.499,2.49999
0.0670336,-0.0387553,2.499,2.5002
0.0751447,-0.0387553,2.499,2.50043
0.0832558,-0.0387553,2.499,2.50069
0.091367,-0.0387553,2.499,2.50097
0.0994781,-0.0387553,2.499,2.50128
0.107589,-0.0387553,2.499,2.50162
0.1157,-0.0387553,2.499,2.50198
0.123811,-0.0387553,2.499,2.50237
0.131923,-0.0387553,2.499,2.50278
0.140034,-0.0387553,2.499,2.50322
0.148145,-0.0387553,2.499,2.50369
0.156256,-0.0387553,2.499,2.50418
0.164367,-0.0387553,2.499,2.5047
0.172478,-0.0387553,2.499,2.50524
0.180589,-0.0387553,2.499,2.50582
0.188701,-0.0387553,2.499,2.50641
0.196812,-0.0387553,2.499,2.50704
0.204923,-0.0387553,2.499,2.50769
0.213034,-0.0387553,2.499,2.50836
0.221145,-0.0387553,2.499,2.50907
0.229256,-0.0387553,2.499,2.50979
0.237367,-0.0387553,2.499,2.51055
0.245479,-0.0387553,2.499,2.51133
0.255416,-0.0390345,2.517,2.53023
0.263586,-0.0390345,2.517,2.53107
0.271755,-0.0390345,2.517,2.53193
0.279925,-0.0390345,2.517,2.53282
0.288094,-0.0390345,2.517,2.53373
0.296264,-0.0390345,2.517,2.53468
0.304434,-0.0390345,2.517,2.53564
0.312603,-0.0390345,2.517,2.53664
0.320773,-0.0390345,2.517,2.53766
0.328942,-0.0390345,2.517,2.5387
0.337112,-0.0390345,2.517,2.53978
0.345281,-0.0390345,2.517,2.54087
0.353451,-0.0390345,2.517,2.542
0.36162,-0.0390345,2.517,2.54314
0.36979,-0.0390345,2.517,2.54432
0.37796,-0.0390345,2.517,2.54552
0.386129,-0.0390345,2.517,2.54674
0.394299,-0.0390345,2.517,2.548
0.402468,-0.0390345,2.517,2.54927
0.410638,-0.0390345,2.517,2.55058
0.418807,-0.0390345,2.517,2.5519
0.426977,-0.0390345,2.517,2.55326
0.435146,-0.0390345,2.517,2.55464
0.443316,-0.0390345,2.517,2.55604
0.451486,-0.0390345,2.517,2.55747
0.459655,-0.0390345,2.517,2.55892
0.467825,-0.0390345,2.517,2.56041
0.475994,-0.0390345,2.517,2.56191
0.484164,-0.0390345,2.517,2.56344
0.492333,-0.0390345,2.517,2.565
0.500503,-0.0390345,2.517,2.56658
0.508672,-0.0390345,2.517,2.56818
0.520743,-0.0393291,2.536,2.58921
0.528975,-0.0393291,2.536,2.59088
0.537206,-0.0393291,2.536,2.59257
0.545437,-0.0393291,2.536,2.59429
0.553668,-0.0393291,2.536,2.59603
0.5619,-0.0393291,2.536,2.5978
0.565859,-0.0390345,2.517,2.58012
0.574029,-0.0390345,2.517,2.58192
0.582199,-0.0390345,2.517,2.58375
0.590368,-0.0390345,2.517,2.5856
0.598538,-0.0390345,2.517,2.58748
0.606707,-0.0390345,2.517,2.58938
0.610479,-0.0387553,2.499,2.57278
0.618591,-0.0387553,2.499,2.57472
0.626702,-0.0387553,2.499,2.57668
0.63024,-0.0384762,2.481,2.56009
0.638293,-0.0384762,2.481,2.56208
0.646346,-0.0384762,2.481,2.5641
0.654399,-0.0384762,2.481,2.56614
0.662451,-0.0384762,2.481,2.56821
0.675369,-0.0387553,2.499,2.58894
0.68348,-0.0387553,2.499,2.59107
0.691591,-0.0387553,2.499,2.59322
0.699702,-0.0387553,2.499,2.5954
0.707813,-0.0387553,2.499,2.5976
0.715924,-0.0387553,2.499,2.59982
0.724035,-0.0387553,2.499,2.60206
0.732147,-0.0387553,2.499,2.60433
0.740258,-0.0387553,2.499,2.60662
0.748369,-0.0387553,2.499,2.60894
0.761929,-0.0390345,2.517,2.63009
0.770098,-0.0390345,2.517,2.63246
0.778268,-0.0390345,2.517,2.63487
0.786437,-0.0390345,2.517,2.63729
0.788924,-0.0387553,2.499,2.62086
0.797036,-0.0387553,2.499,2.62331
0.810946,-0.0390345,2.517,2.6447
0.819116,-0.0390345,2.517,2.64722
0.827285,-0.0390345,2.517,2.64976
0.835455,-0.0390345,2.517,2.65232
0.843624,-0.0390345,2.517,2.6549
0.845702,-0.0387553,2.499,2.63851
0.853814,-0.0387553,2.499,2.64112
0.861925,-0.0387553,2.499,2.64375
0.870036,-0.0387553,2.499,2.64641
0.871822,-0.0384762,2.481,2.63
0.879874,-0.0384762,2.481,2.63268
0.887927,-0.0384762,2.481,2.63539
0.889479,-0.038197,2.463,2.61897
0.897474,-0.038197,2.463,2.6217
0.905468,-0.038197,2.463,2.62444
0.913462,-0.038197,2.463,2.62721
0.914722,-0.0379179,2.445,2.61078
0.922658,-0.0379179,2.445,2.61357
0.930594,-0.0379179,2.445,2.61638
0.93853,-0.0379179,2.445,2.61922
0.946466,-0.0379179,2.445,2.62207
0.947766,-0.0376542,2.428,2.6067
0.955646,-0.0376542,2.428,2.60957
0.963527,-0.0376542,2.428,2.61247
0.971408,-0.0376542,2.428,2.61538
0.979289,-0.0376542,2.428,2.61832
0.994081,-0.0379179,2.445,2.63963
1.00202,-0.0379179,2.445,2.64263
1.00995,-0.0379179,2.445,2.64565
1.03288,-0.0384762,2.481,2.68769
1.04848,-0.0387553,2.499,2.71032
1.05659,-0.0387553,2.499,2.71346
1.08047,-0.0393291,2.536,2.75686
1.09685,-0.0396238,2.555,2.78077
1.10515,-0.0396238,2.555,2.78405
1.13872,-0.0405233,2.613,2.85063
1.1652,-0.0411591,2.654,2.89881
1.1831,-0.0414848,2.675,2.92525
1.19178,-0.0414848,2.675,2.92877
1.21931,-0.0421361,2.717,2.97835
1.23808,-0.0424773,2.739,3.00612
1.24697,-0.0424773,2.739,3.00979
1.25586,-0.0424773,2.739,3.01349
1.27491,-0.0428185,2.761,3.04144
1.28387,-0.0428185,2.761,3.0452
1.30313,-0.0431597,2.783,3.07329
1.31216,-0.0431597,2.783,3.07713
1.3212,-0.0431597,2.783,3.08099
1.33023,-0.0431597,2.783,3.08488
1.35033,-0.0435164,2.806,3.11431
1.35944,-0.0435164,2.806,3.11827
1.36854,-0.0435164,2.806,3.12225
1.40073,-0.0442453,2.853,3.17862
1.42185,-0.0446175,2.877,3.20948
1.43119,-0.0446175,2.877,3.21363
1.45254,-0.0449897,2.901,3.24464
1.46196,-0.0449897,2.901,3.24887
1.48405,-0.0453774,2.926,3.28115
1.49355,-0.0453774,2.926,3.28546
1.52925,-0.0461683,2.977,3.34713
1.56631,-0.0469903,3.03,3.41122
1.57614,-0.0469903,3.03,3.41575
1.58598,-0.0469903,3.03,3.4203
1.61003,-0.047409,3.057,3.45539
1.61995,-0.047409,3.057,3.46002
1.64427,-0.0478277,3.084,3.49528
1.6693,-0.0482619,3.112,3.53177
1.6794,-0.0482619,3.112,3.53656
1.70524,-0.0487117,3.141,3.57437
1.71544,-0.0487117,3.141,3.57924
1.74157,-0.0491614,3.17,3.61723
1.75186,-0.0491614,3.17,3.6222
1.76214,-0.0491614,3.17,3.62719
1.77243,-0.0491614,3.17,3.63219
1.78272,-0.0491614,3.17,3.63723
1.79301,-0.0491614,3.17,3.64228
1.8033,-0.0491614,3.17,3.64736
1.81359,-0.0491614,3.17,3.65245
1.80719,-0.0487117,3.141,3.62411
1.81739,-0.0487117,3.141,3.62921
1.82758,-0.0487117,3.141,3.63432
1.83778,-0.0487117,3.141,3.63946
1.86504,-0.0491614,3.17,3.67827
1.87532,-0.0491614,3.17,3.6835
1.86836,-0.0487117,3.141,3.655
1.87856,-0.0487117,3.141,3.66022
1.88875,-0.0487117,3.141,3.66547
1.88142,-0.0482619,3.112,3.63684
1.89152,-0.0482619,3.112,3.64207
1.90162,-0.0482619,3.112,3.64733
1.89452,-0.0478277,3.084,3.61974
1.88785,-0.047409,3.057,3.59326
1.89778,-0.047409,3.057,3.59848
1.89085,-0.0469903,3.03,3.57189
1.88375,-0.0465715,3.003,3.54523
1.8771,-0.0461683,2.977,3.51968
1.88676,-0.0461683,2.977,3.52485
1.86394,-0.0453774,2.926,3.46955
1.84206,-0.0446175,2.877,3.41648
1.8514,-0.0446175,2.877,3.42152
1.82969,-0.0438731,2.829,3.36941
1.80897,-0.0431597,2.783,3.31954
1.81801,-0.0431597,2.783,3.32447
1.78371,-0.0421361,2.717,3.25046
1.76482,-0.0414848,2.675,3.20499
1.7735,-0.0414848,2.675,3.20978
1.7542,-0.0408334,2.633,3.16411
1.73597,-0.0402131,2.593,3.12071
1.74439,-0.0402131,2.593,3.1254
1.72711,-0.0396238,2.555,3.08424
1.7225,-0.0393291,2.536,3.06592
-1.93066,-0.0341293,2.783,3.38728
-1.92163,-0.0341293,2.783,3.38214
-1.91259,-0.0341293,2.783,3.37702
-1.90356,-0.0341293,2.783,3.37191
-1.89453,-0.0341293,2.783,3.36682
-1.88549,-0.0341293,2.783,3.36175
-1.86163,-0.0338595,2.761,3.33015
-1.85267,-0.0338595,2.761,3.32515
-1.8437,-0.0338595,2.761,3.32017
-1.83474,-0.0338595,2.761,3.3152
-1.82578,-0.0338595,2.761,3.31025
-1.81682,-0.0338595,2.761,3.30531
-1.80786,-0.0338595,2.761,3.3004
-1.7989,-0.0338595,2.761,3.2955
-1.8042,-0.0341293,2.783,3.31683
-1.79516,-0.0341293,2.783,3.31193
-1.78613,-0.0341293,2.783,3.30704
-1.7771,-0.0341293,2.783,3.30217
-1.76807,-0.0341293,2.783,3.29732
-1.75903,-0.0341293,2.783,3.29248
-1.75,-0.0341293,2.783,3.28767
-1.75535,-0.0344114,2.806,3.31
-1.74625,-0.0344114,2.806,3.30518
-1.73714,-0.0344114,2.806,3.30038
-1.7422,-0.0346934,2.829,3.3226
-1.73301,-0.0346934,2.829,3.3178
-1.72383,-0.0346934,2.829,3.31301
-1.74374,-0.0352821,2.877,3.36437
-1.7344,-0.0352821,2.877,3.35954
-1.72507,-0.0352821,2.877,3.35473
-1.73004,-0.0355764,2.901,3.37789
-1.73545,-0.035883,2.926,3.40214
-1.72596,-0.035883,2.926,3.39731
-1.71646,-0.035883,2.926,3.39249
-1.69238,-0.0355764,2.901,3.35875
-1.68296,-0.0355764,2.901,3.35402
-1.67355,-0.0355764,2.901,3.3493
-1.65036,-0.0352821,2.877,3.31694
-1.64102,-0.0352821,2.877,3.3123
-1.63169,-0.0352821,2.877,3.30768
nan,nan,nan,NaN
nan,nan,nan,NaN
-1.55128,-0.0341293,2.783,3.18633
-1.50567,-0.0333199,2.717,3.10648
-1.47371,-0.0328049,2.675,3.05426
-1.46503,-0.0328049,2.675,3.05008
-1.43348,-0.0322898,2.633,2.9981
-1.42493,-0.0322898,2.633,2.99402
-1.41639,-0.0322898,2.633,2.98996
-1.40784,-0.0322898,2.633,2.98593
-1.41046,-0.0325473,2.654,3.00569
-1.40184,-0.0325473,2.654,3.00166
-1.39323,-0.0325473,2.654,2.99764
-1.39557,-0.0328049,2.675,3.01734
-1.38689,-0.0328049,2.675,3.01333
-1.3782,-0.0328049,2.675,3.00934
-1.36952,-0.0328049,2.675,3.00538
-1.36084,-0.0328049,2.675,3.00143
-1.35216,-0.0328049,2.675,2.9975
-1.33293,-0.0325473,2.654,2.9701
-1.31383,-0.0322898,2.633,2.94277
-1.30529,-0.0322898,2.633,2.93896
-1.27704,-0.0317992,2.593,2.89059
-1.25933,-0.0315662,2.574,2.86573
-1.25098,-0.0315662,2.574,2.86206
-1.22428,-0.0311002,2.536,2.81622
-1.21605,-0.0311002,2.536,2.81266
-1.19876,-0.0308672,2.517,2.78806
-1.1906,-0.0308672,2.517,2.78456
-1.16551,-0.0304257,2.481,2.7413
-1.14906,-0.030205,2.463,2.71802
-1.14107,-0.030205,2.463,2.71465
-1.13308,-0.030205,2.463,2.7113
-1.11686,-0.0299843,2.445,2.68818
-1.10892,-0.0299843,2.445,2.68489
-1.09333,-0.0297758,2.428,2.66298
-1.08545,-0.0297758,2.428,2.65975
-1.07757,-0.0297758,2.428,2.65654
-1.06969,-0.0297758,2.428,2.65336
-1.06181,-0.0297758,2.428,2.65019
-1.04655,-0.0295673,2.411,2.62851
-1.03872,-0.0295673,2.411,2.6254
-1.0309,-0.0295673,2.411,2.62232
-1.02307,-0.0295673,2.411,2.61925
-1.01525,-0.0295673,2.411,2.6162
-1.00742,-0.0295673,2.411,2.61318
-0.999596,-0.0295673,2.411,2.61017
-0.99177,-0.0295673,2.411,2.60718
-0.983945,-0.0295673,2.411,2.60422
-0.976119,-0.0295673,2.411,2.60127
-0.968294,-0.0295673,2.411,2.59834
-0.953696,-0.0293588,2.394,2.57714
-0.945926,-0.0293588,2.394,2.57427
-0.938156,-0.0293588,2.394,2.57143
-0.930385,-0.0293588,2.394,2.5686
-0.922615,-0.0293588,2.394,2.5658
-0.914845,-0.0293588,2.394,2.56301
-0.907074,-0.0293588,2.394,2.56025
-0.892918,-0.0291503,2.377,2.53935
-0.885203,-0.0291503,2.377,2.53664
-0.877488,-0.0291503,2.377,2.53396
-0.869772,-0.0291503,2.377,2.5313
-0.868223,-0.0293588,2.394,2.54674
-0.860452,-0.0293588,2.394,2.54411
-0.852682,-0.0293588,2.394,2.54149
-0.844912,-0.0293588,2.394,2.53889
-0.837141,-0.0293588,2.394,2.53632
-0.829371,-0.0293588,2.394,2.53376
-0.821601,-0.0293588,2.394,2.53123
-0.81383,-0.0293588,2.394,2.52872
-0.811784,-0.0295673,2.411,2.54417
-0.803958,-0.0295673,2.411,2.54168
-0.796133,-0.0295673,2.411,2.53922
-0.793866,-0.0297758,2.428,2.55466
-0.785985,-0.0297758,2.428,2.55222
-0.778104,-0.0297758,2.428,2.54981
-0.775616,-0.0299843,2.445,2.56525
-0.773332,-0.030205,2.463,2.58173
-0.765338,-0.030205,2.463,2.57935
-0.757344,-0.030205,2.463,2.57698
-0.749349,-0.030205,2.463,2.57465
-0.741355,-0.030205,2.463,2.57233
-0.73872,-0.0304257,2.481,2.58882
-0.730668,-0.0304257,2.481,2.58653
-0.722615,-0.0304257,2.481,2.58427
-0.714562,-0.0304257,2.481,2.58203
-0.711635,-0.0306465,2.499,2.59853
-0.703524,-0.0306465,2.499,2.59632
-0.695413,-0.0306465,2.499,2.59414
-0.687302,-0.0306465,2.499,2.59197
-0.679191,-0.0306465,2.499,2.58983
-0.67108,-0.0306465,2.499,2.58772
-0.662968,-0.0306465,2.499,2.58563
-0.654857,-0.0306465,2.499,2.58356
-0.646746,-0.0306465,2.499,2.58152
-0.638635,-0.0306465,2.499,2.5795
-0.630524,-0.0306465,2.499,2.5775
-0.622413,-0.0306465,2.499,2.57553
-0.614302,-0.0306465,2.499,2.57358
-0.606191,-0.0306465,2.499,2.57165
-0.598079,-0.0306465,2.499,2.56975
-0.589968,-0.0306465,2.499,2.56788
-0.581857,-0.0306465,2.499,2.56603
-0.573746,-0.0306465,2.499,2.5642
-0.565635,-0.0306465,2.499,2.5624
-0.557524,-0.0306465,2.499,2.56062
-0.549413,-0.0306465,2.499,2.55887
-0.541301,-0.0306465,2.499,2.55714
-0.53319,-0.0306465,2.499,2.55543
-0.528861,-0.0308672,2.517,2.57215
-0.520692,-0.0308672,2.517,2.57048
-0.512522,-0.0308672,2.517,2.56884
-0.504353,-0.0308672,2.517,2.56722
-0.496183,-0.0308672,2.517,2.56563
-0.488013,-0.0308672,2.517,2.56406
-0.479844,-0.0308672,2.517,2.56252
-0.475235,-0.0311002,2.536,2.58033
-0.467004,-0.0311002,2.536,2.57883
-0.458772,-0.0311002,2.536,2.57735
-0.450541,-0.0311002,2.536,2.5759
-0.44231,-0.0311002,2.536,2.57447
-0.434079,-0.0311002,2.536,2.57307
-0.425848,-0.0311002,2.536,2.57169
-0.417616,-0.0311002,2.536,2.57034
-0.409385,-0.0311002,2.536,2.56902
-0.401154,-0.0311002,2.536,2.56772
-0.392923,-0.0311002,2.536,2.56645
-0.384691,-0.0311002,2.536,2.5652
-0.37646,-0.0311002,2.536,2.56398
-0.368229,-0.0311002,2.536,2.56278
-0.359998,-0.0311002,2.536,2.56161
-0.351766,-0.0311002,2.536,2.56047
-0.346109,-0.0313332,2.555,2.57853
-0.337816,-0.0313332,2.555,2.57743
-0.329523,-0.0313332,2.555,2.57635
-0.32123,-0.0313332,2.555,2.5753
-0.312937,-0.0313332,2.555,2.57428
-0.304645,-0.0313332,2.555,2.57329
-0.296352,-0.0313332,2.555,2.57232
-0.288059,-0.0313332,2.555,2.57138
-0.279766,-0.0313332,2.555,2.57046
-0.271473,-0.0313332,2.555,2.56957
-0.261223,-0.0311002,2.536,2.54961
-0.252992,-0.0311002,2.536,2.54878
-0.244761,-0.0311002,2.536,2.54797
-0.236529,-0.0311002,2.536,2.5472
-0.228298,-0.0311002,2.536,2.54645
-0.220067,-0.0311002,2.536,2.54572
-0.211836,-0.0311002,2.536,2.54502
-0.203604,-0.0311002,2.536,2.54435
-0.195373,-0.0311002,2.536,2.5437
-0.187142,-0.0311002,2.536,2.54309
-0.178911,-0.0311002,2.536,2.54249
-0.171958,-0.0313332,2.555,2.56097
-0.163665,-0.0313332,2.555,2.56043
-0.155372,-0.0313332,2.555,2.55991
-0.14708,-0.0313332,2.555,2.55942
-0.138787,-0.0313332,2.555,2.55896
-0.130494,-0.0313332,2.555,2.55852
-0.122201,-0.0313332,2.555,2.55811
-0.113908,-0.0313332,2.555,2.55773
-0.105615,-0.0313332,2.555,2.55737
-0.0973222,-0.0313332,2.555,2.55704
-0.0890293,-0.0313332,2.555,2.55674
-0.0807364,-0.0313332,2.555,2.55647
-0.0719048,-0.0311002,2.536,2.53721
-0.0636736,-0.0311002,2.536,2.53699
-0.0554423,-0.0311002,2.536,2.5368
-0.0472111,-0.0311002,2.536,2.53663
-0.0389799,-0.0311002,2.536,2.53649
-0.0307487,-0.0311002,2.536,2.53638
-0.0223487,-0.0308672,2.517,2.51729
-0.0141792,-0.0308672,2.517,2.51723
-0.00600962,-0.0308672,2.517,2.5172
0.00215994,-0.0308672,2.517,2.51719
0.0103295,-0.0308672,2.517,2.51721
0.0184991,-0.0308672,2.517,2.51726
0.0266686,-0.0308672,2.517,2.51733
0.0348382,-0.0308672,2.517,2.51743
0.0430077,-0.0308672,2.517,2.51756
0.0508113,-0.0306465,2.499,2.4997
0.0589224,-0.0306465,2.499,2.49988
0.0670336,-0.0306465,2.499,2.50009
0.0751447,-0.0306465,2.499,2.50032
0.0832558,-0.0306465,2.499,2.50057
0.091367,-0.0306465,2.499,2.50086
0.0994781,-0.0306465,2.499,2.50117
0.107589,-0.0306465,2.499,2.5015
0.1157,-0.0306465,2.499,2.50186
0.123811,-0.0306465,2.499,2.50225
0.131923,-0.0306465,2.499,2.50267
0.140034,-0.0306465,2.499,2.50311
0.148145,-0.0306465,2.499,2.50357
0.156256,-0.0306465,2.499,2.50407
0.164367,-0.0306465,2.499,2.50459
0.173721,-0.0308672,2.517,2.52318
0.18189,-0.0308672,2.517,2.52375
0.188701,-0.0306465,2.499,2.5063
0.196812,-0.0306465,2.499,2.50693
0.204923,-0.0306465,2.499,2.50758
0.214568,-0.0308672,2.517,2.52632
0.222738,-0.0308672,2.517,2.52702
0.230908,-0.0308672,2.517,2.52776
0.239077,-0.0308672,2.517,2.52852
0.247247,-0.0308672,2.517,2.5293
0.255416,-0.0308672,2.517,2.53011
0.263586,-0.0308672,2.517,2.53095
0.273807,-0.0311002,2.536,2.55093
0.282038,-0.0311002,2.536,2.55182
0.290269,-0.0311002,2.536,2.55275
0.2985,-0.0311002,2.536,2.5537
0.304434,-0.0308672,2.517,2.53553
0.312603,-0.0308672,2.517,2.53653
0.320773,-0.0308672,2.517,2.53755
0.328942,-0.0308672,2.517,2.53859
0.337112,-0.0308672,2.517,2.53966
0.345281,-0.0308672,2.517,2.54076
0.353451,-0.0308672,2.517,2.54188
0.36162,-0.0308672,2.517,2.54303
0.36979,-0.0308672,2.517,2.54421
0.37796,-0.0308672,2.517,2.54541
0.386129,-0.0308672,2.517,2.54663
0.394299,-0.0308672,2.517,2.54788
0.402468,-0.0308672,2.517,2.54916
0.410638,-0.0308672,2.517,2.55046
0.418807,-0.0308672,2.517,2.55179
0.426977,-0.0308672,2.517,2.55315
0.435146,-0.0308672,2.517,2.55452
0.443316,-0.0308672,2.517,2.55593
0.451486,-0.0308672,2.517,2.55736
0.459655,-0.0308672,2.517,2.55881
0.467825,-0.0308672,2.517,2.56029
0.475994,-0.0308672,2.517,2.5618
0.484164,-0.0308672,2.517,2.56333
0.492333,-0.0308672,2.517,2.56488
0.500503,-0.0308672,2.517,2.56647
0.508672,-0.0308672,2.517,2.56807
0.520743,-0.0311002,2.536,2.5891
0.528975,-0.0311002,2.536,2.59077
0.537206,-0.0311002,2.536,2.59246
0.545437,-0.0311002,2.536,2.59418
0.553668,-0.0311002,2.536,2.59592
0.5619,-0.0311002,2.536,2.59769
0.565859,-0.0308672,2.517,2.58001
0.574029,-0.0308672,2.517,2.58181
0.582199,-0.0308672,2.517,2.58364
0.590368,-0.0308672,2.517,2.58549
0.598538,-0.0308672,2.517,2.58737
0.606707,-0.0308672,2.517,2.58927
0.610479,-0.0306465,2.499,2.57267
0.618591,-0.0306465,2.499,2.57461
0.626702,-0.0306465,2.499,2.57657
0.634813,-0.0306465,2.499,2.57855
0.642924,-0.0306465,2.499,2.58056
0.651035,-0.0306465,2.499,2.58259
0.659146,-0.0306465,2.499,2.58465
0.667257,-0.0306465,2.499,2.58673
0.675369,-0.0306465,2.499,2.58883
0.68348,-0.0306465,2.499,2.59096
0.691591,-0.0306465,2.499,2.59311
0.699702,-0.0306465,2.499,2.59529
0.707813,-0.0306465,2.499,2.59749
0.715924,-0.0306465,2.499,2.59971
0.724035,-0.0306465,2.499,2.60195
0.732147,-0.0306465,2.499,2.60422
0.740258,-0.0306465,2.499,2.60652
0.753759,-0.0308672,2.517,2.62762
0.761929,-0.0308672,2.517,2.62998
0.770098,-0.0308672,2.517,2.63236
0.778268,-0.0308672,2.517,2.63476
0.786437,-0.0308672,2.517,2.63718
0.788924,-0.0306465,2.499,2.62075
0.797036,-0.0306465,2.499,2.62321
0.810946,-0.0308672,2.517,2.64459
0.819116,-0.0308672,2.517,2.64711
0.827285,-0.0308672,2.517,2.64965
0.835455,-0.0308672,2.517,2.65221
0.843624,-0.0308672,2.517,2.6548
0.845702,-0.0306465,2.499,2.6384
0.853814,-0.0306465,2.499,2.64101
0.861925,-0.0306465,2.499,2.64364
0.863769,-0.0304257,2.481,2.62724
0.871822,-0.0304257,2.481,2.6299
0.879874,-0.0304257,2.481,2.63258
0.887927,-0.0304257,2.481,2.63528
0.889479,-0.030205,2.463,2.61887
0.897474,-0.030205,2.463,2.62159
0.905468,-0.030205,2.463,2.62434
0.913462,-0.030205,2.463,2.62711
0.914722,-0.0299843,2.445,2.61068
0.922658,-0.0299843,2.445,2.61347
0.930594,-0.0299843,2.445,2.61628
0.93853,-0.0299843,2.445,2.61912
0.946466,-0.0299843,2.445,2.62197
0.947766,-0.0297758,2.428,2.60659
0.955646,-0.0297758,2.428,2.60947
0.963527,-0.0297758,2.428,2.61237
0.971408,-0.0297758,2.428,2.61528
0.979289,-0.0297758,2.428,2.61822
0.994081,-0.0299843,2.445,2.63953
1.00202,-0.0299843,2.445,2.64253
1.00995,-0.0299843,2.445,2.64555
1.02538,-0.030205,2.463,2.66809
1.04848,-0.0306465,2.499,2.71021
1.05659,-0.0306465,2.499,2.71336
1.07237,-0.0308672,2.517,2.7361
1.0887,-0.0311002,2.536,2.75999
1.09693,-0.0311002,2.536,2.76324
1.12172,-0.0315662,2.574,2.80798
1.13842,-0.0317992,2.593,2.83208
1.16452,-0.0322898,2.633,2.87921
1.17307,-0.0322898,2.633,2.88268
1.20046,-0.0328049,2.675,2.9322
1.21864,-0.0330624,2.696,2.95882
1.22739,-0.0330624,2.696,2.96243
1.24577,-0.0333199,2.717,2.98917
1.26475,-0.0335897,2.739,3.01709
1.27364,-0.0335897,2.739,3.02083
1.28253,-0.0335897,2.739,3.02459
1.30179,-0.0338595,2.761,3.05269
1.31075,-0.0338595,2.761,3.05652
1.31971,-0.0338595,2.761,3.06038
1.33926,-0.0341293,2.783,3.08867
1.35944,-0.0344114,2.806,3.11816
1.36854,-0.0344114,2.806,3.12214
1.40073,-0.0349878,2.853,3.1785
1.42185,-0.0352821,2.877,3.20937
1.43119,-0.0352821,2.877,3.21351
1.45254,-0.0355764,2.901,3.24453
1.46196,-0.0355764,2.901,3.24875
1.48405,-0.035883,2.926,3.28103
1.49355,-0.035883,2.926,3.28534
1.52925,-0.0365084,2.977,3.34701
1.55235,-0.0368273,3.003,3.3807
1.5621,-0.0368273,3.003,3.38519
1.58598,-0.0371584,3.03,3.42018
1.61003,-0.0374895,3.057,3.45526
1.61995,-0.0374895,3.057,3.4599
1.64427,-0.0378206,3.084,3.49516
1.6693,-0.038164,3.112,3.53165
1.6794,-0.038164,3.112,3.53644
1.70524,-0.0385196,3.141,3.57424
1.71544,-0.0385196,3.141,3.57912
1.74157,-0.0388753,3.17,3.61711
1.75186,-0.0388753,3.17,3.62207
1.76214,-0.0388753,3.17,3.62706
1.77243,-0.0388753,3.17,3.63207
1.78272,-0.0388753,3.17,3.6371
1.77661,-0.0385196,3.141,3.60884
1.7868,-0.0385196,3.141,3.61387
1.797,-0.0385196,3.141,3.61892
1.80719,-0.0385196,3.141,3.62399
1.81739,-0.0385196,3.141,3.62909
1.82758,-0.0385196,3.141,3.6342
1.83778,-0.0385196,3.141,3.63934
1.84797,-0.0385196,3.141,3.6445
1.85817,-0.0385196,3.141,3.64968
1.86836,-0.0385196,3.141,3.65488
1.87856,-0.0385196,3.141,3.6601
1.88875,-0.0385196,3.141,3.66534
1.88142,-0.038164,3.112,3.63672
1.89152,-0.038164,3.112,3.64195
1.90162,-0.038164,3.112,3.64721
1.89452,-0.0378206,3.084,3.61962
1.88785,-0.0374895,3.057,3.59314
1.89778,-0.0374895,3.057,3.59836
1.89085,-0.0371584,3.03,3.57178
1.88375,-0.0368273,3.003,3.54512
1.8771,-0.0365084,2.977,3.51957
1.88676,-0.0365084,2.977,3.52473
1.86394,-0.035883,2.926,3.46944
1.85743,-0.0355764,2.901,3.44487
1.86684,-0.0355764,2.901,3.44995
1.84521,-0.0349878,2.853,3.39789
1.82392,-0.0344114,2.806,3.34687
1.83303,-0.0344114,2.806,3.35184
1.8126,-0.0338595,2.761,3.30299
1.77867,-0.0330624,2.696,3.23005
1.78743,-0.0330624,2.696,3.23487
1.76819,-0.0325473,2.654,3.18925
1.73597,-0.0317992,2.593,3.12062
1.74439,-0.0317992,2.593,3.12531
1.72711,-0.0313332,2.555,3.08414
1.7225,-0.0311002,2.536,3.06582
-1.93066,-0.0250989,2.783,3.38721
-1.90643,-0.0249005,2.761,3.35533
-1.89747,-0.0249005,2.761,3.35025
-1.88851,-0.0249005,2.761,3.34518
-1.89453,-0.0250989,2.783,3.36674
-1.88549,-0.0250989,2.783,3.36167
-1.86163,-0.0249005,2.761,3.33007
-1.85267,-0.0249005,2.761,3.32507
-1.8437,-0.0249005,2.761,3.32009
-1.83474,-0.0249005,2.761,3.31512
-1.82578,-0.0249005,2.761,3.31017
-1.81682,-0.0249005,2.761,3.30523
-1.80786,-0.0249005,2.761,3.30032
-1.7989,-0.0249005,2.761,3.29542
-1.8042,-0.0250989,2.783,3.31675
-1.79516,-0.0250989,2.783,3.31185
-1.78613,-0.0250989,2.783,3.30696
-1.7771,-0.0250989,2.783,3.30209
-1.76807,-0.0250989,2.783,3.29724
-1.75903,-0.0250989,2.783,3.2924
-1.75,-0.0250989,2.783,3.28759
-1.75535,-0.0253064,2.806,3.30992
-1.74625,-0.0253064,2.806,3.3051
-1.73714,-0.0253064,2.806,3.30029
-1.7422,-0.0255138,2.829,3.32252
-1.73301,-0.0255138,2.829,3.31771
-1.72383,-0.0255138,2.829,3.31293
-1.74374,-0.0259467,2.877,3.36429
-1.7344,-0.0259467,2.877,3.35946
-1.72507,-0.0259467,2.877,3.35465
-1.73004,-0.0261631,2.901,3.3778
-1.73545,-0.0263886,2.926,3.40205
-1.72596,-0.0263886,2.926,3.39722
-1.71646,-0.0263886,2.926,3.3924
-1.69238,-0.0261631,2.901,3.35866
-1.68296,-0.0261631,2.901,3.35393
-1.67355,-0.0261631,2.901,3.34921
-1.65036,-0.0259467,2.877,3.31685
-1.64102,-0.0259467,2.877,3.31221
-1.63169,-0.0259467,2.877,3.3076
nan,nan,nan,NaN
nan,nan,nan,NaN
nan,nan,nan,NaN
-1.50567,-0.0245037,2.717,3.1064
-1.49685,-0.0245037,2.717,3.10214
nan,nan,nan,NaN
-1.44491,-0.0239355,2.654,3.02193
-1.4363,-0.0239355,2.654,3.01782
-1.42768,-0.0239355,2.654,3.01373
-1.41907,-0.0239355,2.654,3.00966
-1.41046,-0.0239355,2.654,3.00561
-1.41293,-0.0241249,2.675,3.02532
-1.40425,-0.0241249,2.675,3.02128
-1.39557,-0.0241249,2.675,3.01725
-1.39777,-0.0243143,2.696,3.0369
-1.38902,-0.0243143,2.696,3.03289
-1.38027,-0.0243143,2.696,3.02889
-1.36084,-0.0241249,2.675,3.00135
-1.35216,-0.0241249,2.675,2.99742
-1.33293,-0.0239355,2.654,2.97001
-1.31383,-0.0237461,2.633,2.94269
-1.30529,-0.0237461,2.633,2.93888
-1.27704,-0.0233854,2.593,2.89051
-1.25933,-0.023214,2.574,2.86565
-1.25098,-0.023214,2.574,2.86198
-1.22428,-0.0228713,2.536,2.81614
-1.21605,-0.0228713,2.536,2.81258
-1.19876,-0.0227,2.517,2.78798
-1.1906,-0.0227,2.517,2.78448
-1.16551,-0.0223753,2.481,2.74122
-1.14906,-0.022213,2.463,2.71794
-1.14107,-0.022213,2.463,2.71457
-1.13308,-0.022213,2.463,2.71122
-1.11686,-0.0220506,2.445,2.6881
-1.10892,-0.0220506,2.445,2.68481
-1.09333,-0.0218973,2.428,2.6629
-1.08545,-0.0218973,2.428,2.65967
-1.07757,-0.0218973,2.428,2.65647
-1.06969,-0.0218973,2.428,2.65328
-1.06181,-0.0218973,2.428,2.65011
-1.04655,-0.021744,2.411,2.62843
-1.03872,-0.021744,2.411,2.62533
-1.0309,-0.021744,2.411,2.62224
-1.02307,-0.021744,2.411,2.61917
-1.01525,-0.021744,2.411,2.61613
-1.00742,-0.021744,2.411,2.6131
-0.999596,-0.021744,2.411,2.61009
-0.99177,-0.021744,2.411,2.60711
-0.983945,-0.021744,2.411,2.60414
-0.969237,-0.0215907,2.394,2.58285
-0.961466,-0.0215907,2.394,2.57995
-0.953696,-0.0215907,2.394,2.57706
-0.945926,-0.0215907,2.394,2.57419
-0.938156,-0.0215907,2.394,2.57135
-0.930385,-0.0215907,2.394,2.56852
-0.916063,-0.0214374,2.377,2.5475
-0.908348,-0.0214374,2.377,2.54474
-0.900633,-0.0214374,2.377,2.54199
-0.892918,-0.0214374,2.377,2.53927
-0.885203,-0.0214374,2.377,2.53657
-0.877488,-0.0214374,2.377,2.53389
-0.869772,-0.0214374,2.377,2.53122
-0.862057,-0.0214374,2.377,2.52858
-0.854342,-0.0214374,2.377,2.52596
-0.846627,-0.0214374,2.377,2.52336
-0.838912,-0.0214374,2.377,2.52079
-0.837141,-0.0215907,2.394,2.53624
-0.829371,-0.0215907,2.394,2.53368
-0.821601,-0.0215907,2.394,2.53115
-0.81383,-0.0215907,2.394,2.52864
-0.80606,-0.0215907,2.394,2.52615
-0.79829,-0.0215907,2.394,2.52368
-0.796133,-0.021744,2.411,2.53914
-0.793866,-0.0218973,2.428,2.55458
-0.785985,-0.0218973,2.428,2.55214
-0.778104,-0.0218973,2.428,2.54973
-0.775616,-0.0220506,2.445,2.56517
-0.767681,-0.0220506,2.445,2.56278
-0.759745,-0.0220506,2.445,2.56041
-0.757344,-0.022213,2.463,2.5769
-0.749349,-0.022213,2.463,2.57457
-0.741355,-0.022213,2.463,2.57225
-0.73872,-0.0223753,2.481,2.58874
-0.730668,-0.0223753,2.481,2.58645
-0.722615,-0.0223753,2.481,2.58419
-0.714562,-0.0223753,2.481,2.58195
-0.711635,-0.0225376,2.499,2.59845
-0.703524,-0.0225376,2.499,2.59624
-0.695413,-0.0225376,2.499,2.59405
-0.687302,-0.0225376,2.499,2.59189
-0.679191,-0.0225376,2.499,2.58975
-0.67108,-0.0225376,2.499,2.58764
-0.662968,-0.0225376,2.499,2.58554
-0.654857,-0.0225376,2.499,2.58348
-0.646746,-0.0225376,2.499,2.58143
-0.638635,-0.0225376,2.499,2.57941
-0.630524,-0.0225376,2.499,2.57742
-0.622413,-0.0225376,2.499,2.57544
-0.614302,-0.0225376,2.499,2.57349
-0.606191,-0.0225376,2.499,2.57157
-0.598079,-0.0225376,2.499,2.56967
-0.589968,-0.0225376,2.499,2.5678
-0.581857,-0.0225376,2.499,2.56594
-0.573746,-0.0225376,2.499,2.56412
-0.565635,-0.0225376,2.499,2.56231
-0.557524,-0.0225376,2.499,2.56054
-0.549413,-0.0225376,2.499,2.55878
-0.541301,-0.0225376,2.499,2.55705
-0.53319,-0.0225376,2.499,2.55535
-0.525079,-0.0225376,2.499,2.55367
-0.520692,-0.0227,2.517,2.57039
-0.512522,-0.0227,2.517,2.56875
-0.504353,-0.0227,2.517,2.56713
-0.496183,-0.0227,2.517,2.56554
-0.488013,-0.0227,2.517,2.56397
-0.483466,-0.0228713,2.536,2.58177
-0.475235,-0.0228713,2.536,2.58025
-0.467004,-0.0228713,2.536,2.57874
-0.458772,-0.0228713,2.536,2.57726
-0.450541,-0.0228713,2.536,2.57581
-0.44231,-0.0228713,2.536,2.57438
-0.434079,-0.0228713,2.536,2.57298
-0.425848,-0.0228713,2.536,2.57161
-0.417616,-0.0228713,2.536,2.57026
-0.409385,-0.0228713,2.536,2.56893
-0.401154,-0.0228713,2.536,2.56763
-0.392923,-0.0228713,2.536,2.56636
-0.384691,-0.0228713,2.536,2.56511
-0.37646,-0.0228713,2.536,2.56389
-0.368229,-0.0228713,2.536,2.5627
-0.359998,-0.0228713,2.536,2.56153
-0.351766,-0.0228713,2.536,2.56038
-0.346109,-0.0230427,2.555,2.57844
-0.337816,-0.0230427,2.555,2.57734
-0.329523,-0.0230427,2.555,2.57627
-0.32123,-0.0230427,2.555,2.57522
-0.312937,-0.0230427,2.555,2.5742
-0.304645,-0.0230427,2.555,2.5732
-0.296352,-0.0230427,2.555,2.57223
-0.288059,-0.0230427,2.555,2.57129
-0.279766,-0.0230427,2.555,2.57037
-0.269454,-0.0228713,2.536,2.55038
-0.261223,-0.0228713,2.536,2.54952
-0.252992,-0.0228713,2.536,2.54869
-0.244761,-0.0228713,2.536,2.54789
-0.236529,-0.0228713,2.536,2.54711
-0.228298,-0.0228713,2.536,2.54636
-0.220067,-0.0228713,2.536,2.54563
-0.211836,-0.0228713,2.536,2.54493
-0.203604,-0.0228713,2.536,2.54426
-0.195373,-0.0228713,2.536,2.54362
-0.187142,-0.0228713,2.536,2.543
-0.178911,-0.0228713,2.536,2.54241
-0.171958,-0.0230427,2.555,2.56088
-0.163665,-0.0230427,2.555,2.56034
-0.155372,-0.0230427,2.555,2.55982
-0.14708,-0.0230427,2.555,2.55933
-0.138787,-0.0230427,2.555,2.55887
-0.130494,-0.0230427,2.555,2.55843
-0.122201,-0.0230427,2.555,2.55802
-0.113908,-0.0230427,2.555,2.55764
-0.105615,-0.0230427,2.555,2.55729
-0.0973222,-0.0230427,2.555,2.55696
-0.0890293,-0.0230427,2.555,2.55665
-0.0807364,-0.0230427,2.555,2.55638
-0.0719048,-0.0228713,2.536,2.53712
-0.0636736,-0.0228713,2.536,2.5369
-0.0554423,-0.0228713,2.536,2.53671
-0.0472111,-0.0228713,2.536,2.53654
-0.0389799,-0.0228713,2.536,2.5364
-0.0307487,-0.0228713,2.536,2.53629
-0.0225174,-0.0228713,2.536,2.5362
-0.0142862,-0.0228713,2.536,2.53614
-0.00600962,-0.0227,2.517,2.51711
0.00215994,-0.0227,2.517,2.5171
0.0103295,-0.0227,2.517,2.51712
0.0184991,-0.0227,2.517,2.51717
0.0266686,-0.0227,2.517,2.51724
0.0348382,-0.0227,2.517,2.51734
0.0430077,-0.0227,2.517,2.51747
0.0511773,-0.0227,2.517,2.51762
0.0589224,-0.0225376,2.499,2.4998
0.0670336,-0.0225376,2.499,2.5
0.0751447,-0.0225376,2.499,2.50023
0.0832558,-0.0225376,2.499,2.50049
0.091367,-0.0225376,2.499,2.50077
0.0994781,-0.0225376,2.499,2.50108
0.107589,-0.0225376,2.499,2.50142
0.1157,-0.0225376,2.499,2.50178
0.123811,-0.0225376,2.499,2.50217
0.131923,-0.0225376,2.499,2.50258
0.140034,-0.0225376,2.499,2.50302
0.148145,-0.0225376,2.499,2.50349
0.156256,-0.0225376,2.499,2.50398
0.165551,-0.0227,2.517,2.52254
0.173721,-0.0227,2.517,2.52309
0.18189,-0.0227,2.517,2.52367
0.19006,-0.0227,2.517,2.52427
0.198229,-0.0227,2.517,2.5249
0.206399,-0.0227,2.517,2.52555
0.214568,-0.0227,2.517,2.52623
0.222738,-0.0227,2.517,2.52694
0.232651,-0.0228713,2.536,2.54675
0.240882,-0.0228713,2.536,2.54752
0.249113,-0.0228713,2.536,2.54831
0.257344,-0.0228713,2.536,2.54913
0.265575,-0.0228713,2.536,2.54997
0.273807,-0.0228713,2.536,2.55084
0.282038,-0.0228713,2.536,2.55174
0.290269,-0.0228713,2.536,2.55266
0.2985,-0.0228713,2.536,2.55361
0.304434,-0.0227,2.517,2.53545
0.312603,-0.0227,2.517,2.53644
0.320773,-0.0227,2.517,2.53746
0.328942,-0.0227,2.517,2.53851
0.337112,-0.0227,2.517,2.53958
0.345281,-0.0227,2.517,2.54067
0.353451,-0.0227,2.517,2.5418
0.36162,-0.0227,2.517,2.54295
0.36979,-0.0227,2.517,2.54412
0.37796,-0.0227,2.517,2.54532
0.386129,-0.0227,2.517,2.54655
0.394299,-0.0227,2.517,2.5478
0.402468,-0.0227,2.517,2.54908
0.407701,-0.0225376,2.499,2.53214
0.415812,-0.0225376,2.499,2.53346
0.423923,-0.0225376,2.499,2.5348
0.435146,-0.0227,2.517,2.55444
0.443316,-0.0227,2.517,2.55584
0.451486,-0.0227,2.517,2.55727
0.459655,-0.0227,2.517,2.55873
0.467825,-0.0227,2.517,2.56021
0.475994,-0.0227,2.517,2.56171
0.484164,-0.0227,2.517,2.56324
0.492333,-0.0227,2.517,2.5648
0.500503,-0.0227,2.517,2.56638
0.508672,-0.0227,2.517,2.56799
0.520743,-0.0228713,2.536,2.58901
0.528975,-0.0228713,2.536,2.59068
0.537206,-0.0228713,2.536,2.59238
0.545437,-0.0228713,2.536,2.59409
0.553668,-0.0228713,2.536,2.59584
0.5619,-0.0228713,2.536,2.5976
0.565859,-0.0227,2.517,2.57992
0.574029,-0.0227,2.517,2.58173
0.582199,-0.0227,2.517,2.58356
0.590368,-0.0227,2.517,2.58541
0.598538,-0.0227,2.517,2.58729
0.606707,-0.0227,2.517,2.58919
0.610479,-0.0225376,2.499,2.57259
0.618591,-0.0225376,2.499,2.57452
0.626702,-0.0225376,2.499,2.57648
0.634813,-0.0225376,2.499,2.57847
0.642924,-0.0225376,2.499,2.58048
0.651035,-0.0225376,2.499,2.58251
0.659146,-0.0225376,2.499,2.58457
0.667257,-0.0225376,2.499,2.58665
0.675369,-0.0225376,2.499,2.58875
0.68348,-0.0225376,2.499,2.59088
0.691591,-0.0225376,2.499,2.59303
0.699702,-0.0225376,2.499,2.59521
0.707813,-0.0225376,2.499,2.5974
0.715924,-0.0225376,2.499,2.59963
0.724035,-0.0225376,2.499,2.60187
0.732147,-0.0225376,2.499,2.60414
0.740258,-0.0225376,2.499,2.60643
0.753759,-0.0227,2.517,2.62754
0.761929,-0.0227,2.517,2.62989
0.770098,-0.0227,2.517,2.63227
0.778268,-0.0227,2.517,2.63467
0.786437,-0.0227,2.517,2.6371
0.794607,-0.0227,2.517,2.63955
0.802777,-0.0227,2.517,2.64202
0.810946,-0.0227,2.517,2.64451
0.819116,-0.0227,2.517,2.64703
0.827285,-0.0227,2.517,2.64957
0.82948,-0.0225376,2.499,2.63316
0.837591,-0.0225376,2.499,2.63573
0.845702,-0.0225376,2.499,2.63832
0.853814,-0.0225376,2.499,2.64093
0.861925,-0.0225376,2.499,2.64356
0.863769,-0.0223753,2.481,2.62716
0.871822,-0.0223753,2.481,2.62982
0.879874,-0.0223753,2.481,2.6325
0.887927,-0.0223753,2.481,2.6352
0.889479,-0.022213,2.463,2.61879
0.897474,-0.022213,2.463,2.62151
0.905468,-0.022213,2.463,2.62426
0.913462,-0.022213,2.463,2.62703
0.914722,-0.0220506,2.445,2.6106
0.922658,-0.0220506,2.445,2.61339
0.930594,-0.0220506,2.445,2.6162
0.93853,-0.0220506,2.445,2.61904
0.946466,-0.0220506,2.445,2.62189
0.947766,-0.0218973,2.428,2.60652
0.955646,-0.0218973,2.428,2.60939
0.963527,-0.0218973,2.428,2.61229
0.971408,-0.0218973,2.428,2.61521
0.979289,-0.0218973,2.428,2.61814
0.994081,-0.0220506,2.445,2.63945
1.00202,-0.0220506,2.445,2.64245
1.00995,-0.0220506,2.445,2.64547
1.02538,-0.022213,2.463,2.66801
1.04093,-0.0223753,2.481,2.69061
1.04898,-0.0223753,2.481,2.69374
1.0647,-0.0225376,2.499,2.71645
1.08054,-0.0227,2.517,2.73923
1.08871,-0.0227,2.517,2.74246
1.11344,-0.0230427,2.555,2.78717
1.13008,-0.023214,2.574,2.81124
1.14683,-0.0233854,2.593,2.83539
1.15525,-0.0233854,2.593,2.8388
1.18162,-0.0237461,2.633,2.88608
1.19965,-0.0239355,2.654,2.91264
1.20827,-0.0239355,2.654,2.9162
1.22651,-0.0241249,2.675,2.94288
1.24489,-0.0243143,2.696,2.96964
1.25364,-0.0243143,2.696,2.97332
1.27223,-0.0245037,2.717,3.00021
1.28104,-0.0245037,2.717,3.00396
1.30031,-0.0247021,2.739,3.03208
1.3092,-0.0247021,2.739,3.03591
1.33926,-0.0250989,2.783,3.08858
1.35944,-0.0253064,2.806,3.11807
1.36854,-0.0253064,2.806,3.12205
1.40073,-0.0257302,2.853,3.17841
1.42185,-0.0259467,2.877,3.20928
1.43119,-0.0259467,2.877,3.21342
1.45254,-0.0261631,2.901,3.24444
1.46196,-0.0261631,2.901,3.24866
1.48405,-0.0263886,2.926,3.28094
1.49355,-0.0263886,2.926,3.28525
1.52925,-0.0268486,2.977,3.34692
1.55235,-0.027083,3.003,3.38061
1.5621,-0.027083,3.003,3.3851
1.58598,-0.0273265,3.03,3.42008
1.61003,-0.02757,3.057,3.45517
1.61995,-0.02757,3.057,3.45981
1.64427,-0.0278136,3.084,3.49506
1.6693,-0.0280661,3.112,3.53156
1.69505,-0.0283276,3.141,3.5693
1.70524,-0.0283276,3.141,3.57415
1.71544,-0.0283276,3.141,3.57902
1.74157,-0.0285892,3.17,3.61701
1.75186,-0.0285892,3.17,3.62198
1.76214,-0.0285892,3.17,3.62696
1.77243,-0.0285892,3.17,3.63197
1.78272,-0.0285892,3.17,3.63701
1.77661,-0.0283276,3.141,3.60874
1.7868,-0.0283276,3.141,3.61377
1.797,-0.0283276,3.141,3.61882
1.80719,-0.0283276,3.141,3.6239
1.81739,-0.0283276,3.141,3.62899
1.82758,-0.0283276,3.141,3.63411
1.83778,-0.0283276,3.141,3.63925
1.84797,-0.0283276,3.141,3.64441
1.85817,-0.0283276,3.141,3.64959
1.86836,-0.0283276,3.141,3.65479
1.87856,-0.0283276,3.141,3.66001
1.88875,-0.0283276,3.141,3.66525
1.88142,-0.0280661,3.112,3.63663
1.89152,-0.0280661,3.112,3.64186
1.90162,-0.0280661,3.112,3.64712
1.89452,-0.0278136,3.084,3.61953
1.90453,-0.0278136,3.084,3.62478
1.91454,-0.0278136,3.084,3.63005
1.9077,-0.02757,3.057,3.60352
1.90068,-0.0273265,3.03,3.5769
1.8771,-0.0268486,2.977,3.51948
1.88676,-0.0268486,2.977,3.52465
1.87986,-0.0266141,2.951,3.499
1.85743,-0.0261631,2.901,3.44478
1.86684,-0.0261631,2.901,3.44987
1.84521,-0.0257302,2.853,3.39781
1.82392,-0.0253064,2.806,3.34679
1.83303,-0.0253064,2.806,3.35176
1.8126,-0.0249005,2.761,3.30292
1.79253,-0.0245037,2.717,3.25513
1.80135,-0.0245037,2.717,3.25999
1.78218,-0.0241249,2.675,3.2144
1.74936,-0.0235658,2.613,3.14461
1.75784,-0.0235658,2.613,3.14934
1.73996,-0.023214,2.574,3.107
1.73541,-0.0230427,2.555,3.08872
-1.93066,-0.0160686,2.783,3.38715
-1.90643,-0.0159415,2.761,3.35527
-1.89747,-0.0159415,2.761,3.35019
-1.88851,-0.0159415,2.761,3.34512
-1.86457,-0.0158145,2.739,3.31346
-1.85568,-0.0158145,2.739,3.30846
-1.84679,-0.0158145,2.739,3.30349
-1.8379,-0.0158145,2.739,3.29852
-1.82901,-0.0158145,2.739,3.29358
-1.82012,-0.0158145,2.739,3.28865
-1.81123,-0.0158145,2.739,3.28374
-1.80234,-0.0158145,2.739,3.27884
-1.80786,-0.0159415,2.761,3.30026
-1.78456,-0.0158145,2.739,3.2691
-1.77567,-0.0158145,2.739,3.26426
-1.78097,-0.0159415,2.761,3.28561
-1.77201,-0.0159415,2.761,3.28076
-1.749,-0.0158145,2.739,3.24983
-1.74011,-0.0158145,2.739,3.24505
-1.73122,-0.0158145,2.739,3.24029
-1.73617,-0.0159415,2.761,3.26154
-1.74097,-0.0160686,2.783,3.28273
-1.73193,-0.0160686,2.783,3.27795
-1.7229,-0.0160686,2.783,3.27318
-1.72803,-0.0162014,2.806,3.29545
-1.71892,-0.0162014,2.806,3.29068
-1.70982,-0.0162014,2.806,3.28594
-1.7292,-0.0164727,2.853,3.33617
-1.71994,-0.0164727,2.853,3.33138
-1.71068,-0.0164727,2.853,3.3266
-1.73004,-0.0167499,2.901,3.37774
-1.72062,-0.0167499,2.901,3.37293
-1.72596,-0.0168942,2.926,3.39716
-1.71646,-0.0168942,2.926,3.39234
-1.69238,-0.0167499,2.901,3.3586
-1.68296,-0.0167499,2.901,3.35387
-1.6597,-0.0166113,2.877,3.32145
-1.63659,-0.0164727,2.853,3.28912
-1.62733,-0.0164727,2.853,3.28452
-1.59142,-0.0162014,2.806,3.22591
-1.56934,-0.0160686,2.783,3.19502
-1.56031,-0.0160686,2.783,3.1906
-1.52675,-0.0158145,2.739,3.13581
-1.49403,-0.0155662,2.696,3.08233
-1.47371,-0.015445,2.675,3.05413
-1.46503,-0.015445,2.675,3.04995
-1.44491,-0.0153237,2.654,3.02187
-1.4363,-0.0153237,2.654,3.01776
-1.42768,-0.0153237,2.654,3.01367
-1.41907,-0.0153237,2.654,3.0096
-1.41046,-0.0153237,2.654,3.00555
-1.41293,-0.015445,2.675,3.02527
-1.40425,-0.015445,2.675,3.02122
-1.39557,-0.015445,2.675,3.0172
-1.39777,-0.0155662,2.696,3.03685
-1.38902,-0.0155662,2.696,3.03283
-1.38027,-0.0155662,2.696,3.02883
-1.36084,-0.015445,2.675,3.00129
-1.35216,-0.015445,2.675,2.99736
-1.33293,-0.0153237,2.654,2.96996
-1.31383,-0.0152025,2.633,2.94263
-1.30529,-0.0152025,2.633,2.93883
-1.27704,-0.0149715,2.593,2.89045
-1.25933,-0.0148618,2.574,2.86559
-1.25098,-0.0148618,2.574,2.86193
-1.23345,-0.0147521,2.555,2.83719
-1.21605,-0.0146424,2.536,2.81252
-1.19876,-0.0145327,2.517,2.78793
-1.1906,-0.0145327,2.517,2.78442
-1.16551,-0.0143249,2.481,2.74117
-1.14906,-0.0142209,2.463,2.71789
-1.14107,-0.0142209,2.463,2.71452
-1.12479,-0.014117,2.445,2.69135
-1.11686,-0.014117,2.445,2.68805
-1.10892,-0.014117,2.445,2.68476
-1.09333,-0.0140188,2.428,2.66285
-1.08545,-0.0140188,2.428,2.65962
-1.07757,-0.0140188,2.428,2.65641
-1.06969,-0.0140188,2.428,2.65323
-1.05437,-0.0139207,2.411,2.63151
-1.04655,-0.0139207,2.411,2.62838
-1.03872,-0.0139207,2.411,2.62527
-1.02363,-0.0138225,2.394,2.6037
-1.01586,-0.0138225,2.394,2.60065
-1.00809,-0.0138225,2.394,2.59763
-1.00032,-0.0138225,2.394,2.59462
-0.992548,-0.0138225,2.394,2.59164
-0.984778,-0.0138225,2.394,2.58867
-0.977007,-0.0138225,2.394,2.58572
-0.969237,-0.0138225,2.394,2.5828
-0.961466,-0.0138225,2.394,2.57989
-0.953696,-0.0138225,2.394,2.57701
-0.945926,-0.0138225,2.394,2.57414
-0.931494,-0.0137244,2.377,2.55304
-0.923778,-0.0137244,2.377,2.55023
-0.916063,-0.0137244,2.377,2.54745
-0.908348,-0.0137244,2.377,2.54468
-0.900633,-0.0137244,2.377,2.54194
-0.892918,-0.0137244,2.377,2.53922
-0.885203,-0.0137244,2.377,2.53651
-0.877488,-0.0137244,2.377,2.53383
-0.869772,-0.0137244,2.377,2.53117
-0.862057,-0.0137244,2.377,2.52853
-0.854342,-0.0137244,2.377,2.52591
-0.846627,-0.0137244,2.377,2.52331
-0.838912,-0.0137244,2.377,2.52073
-0.837141,-0.0138225,2.394,2.53618
-0.829371,-0.0138225,2.394,2.53363
-0.821601,-0.0138225,2.394,2.5311
-0.81383,-0.0138225,2.394,2.52859
-0.80606,-0.0138225,2.394,2.5261
-0.79829,-0.0138225,2.394,2.52363
-0.796133,-0.0139207,2.411,2.53908
-0.788307,-0.0139207,2.411,2.53664
-0.785985,-0.0140188,2.428,2.55209
-0.778104,-0.0140188,2.428,2.54967
-0.775616,-0.014117,2.445,2.56511
-0.767681,-0.014117,2.445,2.56272
-0.759745,-0.014117,2.445,2.56036
-0.757344,-0.0142209,2.463,2.57685
-0.749349,-0.0142209,2.463,2.57451
-0.741355,-0.0142209,2.463,2.57219
-0.73872,-0.0143249,2.481,2.58868
-0.730668,-0.0143249,2.481,2.5864
-0.722615,-0.0143249,2.481,2.58413
-0.714562,-0.0143249,2.481,2.58189
-0.711635,-0.0144288,2.499,2.59839
-0.703524,-0.0144288,2.499,2.59618
-0.695413,-0.0144288,2.499,2.59399
-0.687302,-0.0144288,2.499,2.59183
-0.679191,-0.0144288,2.499,2.58969
-0.67108,-0.0144288,2.499,2.58758
-0.662968,-0.0144288,2.499,2.58549
-0.654857,-0.0144288,2.499,2.58342
-0.646746,-0.0144288,2.499,2.58137
-0.638635,-0.0144288,2.499,2.57935
-0.630524,-0.0144288,2.499,2.57736
-0.622413,-0.0144288,2.499,2.57538
-0.614302,-0.0144288,2.499,2.57344
-0.606191,-0.0144288,2.499,2.57151
-0.598079,-0.0144288,2.499,2.56961
-0.589968,-0.0144288,2.499,2.56774
-0.581857,-0.0144288,2.499,2.56589
-0.573746,-0.0144288,2.499,2.56406
-0.565635,-0.0144288,2.499,2.56226
-0.557524,-0.0144288,2.499,2.56048
-0.549413,-0.0144288,2.499,2.55872
-0.541301,-0.0144288,2.499,2.55699
-0.53319,-0.0144288,2.499,2.55529
-0.525079,-0.0144288,2.499,2.55361
-0.520692,-0.0145327,2.517,2.57033
-0.512522,-0.0145327,2.517,2.56869
-0.504353,-0.0145327,2.517,2.56707
-0.496183,-0.0145327,2.517,2.56548
-0.488013,-0.0145327,2.517,2.56391
-0.483466,-0.0146424,2.536,2.58171
-0.475235,-0.0146424,2.536,2.58019
-0.467004,-0.0146424,2.536,2.57868
-0.458772,-0.0146424,2.536,2.5772
-0.450541,-0.0146424,2.536,2.57575
-0.44231,-0.0146424,2.536,2.57432
-0.434079,-0.0146424,2.536,2.57292
-0.425848,-0.0146424,2.536,2.57155
-0.417616,-0.0146424,2.536,2.5702
-0.409385,-0.0146424,2.536,2.56887
-0.401154,-0.0146424,2.536,2.56757
-0.392923,-0.0146424,2.536,2.5663
-0.384691,-0.0146424,2.536,2.56505
-0.37646,-0.0146424,2.536,2.56383
-0.368229,-0.0146424,2.536,2.56264
-0.359998,-0.0146424,2.536,2.56147
-0.351766,-0.0146424,2.536,2.56032
-0.346109,-0.0147521,2.555,2.57838
-0.337816,-0.0147521,2.555,2.57728
-0.329523,-0.0147521,2.555,2.5762
-0.32123,-0.0147521,2.555,2.57516
-0.312937,-0.0147521,2.555,2.57414
-0.304645,-0.0147521,2.555,2.57314
-0.296352,-0.0147521,2.555,2.57217
-0.288059,-0.0147521,2.555,2.57123
-0.279766,-0.0147521,2.555,2.57031
-0.269454,-0.0146424,2.536,2.55032
-0.261223,-0.0146424,2.536,2.54946
-0.252992,-0.0146424,2.536,2.54863
-0.244761,-0.0146424,2.536,2.54783
-0.236529,-0.0146424,2.536,2.54705
-0.228298,-0.0146424,2.536,2.5463
-0.220067,-0.0146424,2.536,2.54557
-0.211836,-0.0146424,2.536,2.54487
-0.203604,-0.0146424,2.536,2.5442
-0.195373,-0.0146424,2.536,2.54356
-0.187142,-0.0146424,2.536,2.54294
-0.178911,-0.0146424,2.536,2.54235
-0.170679,-0.0146424,2.536,2.54178
-0.162448,-0.0146424,2.536,2.54124
-0.154217,-0.0146424,2.536,2.54073
-0.145986,-0.0146424,2.536,2.54024
-0.137755,-0.0146424,2.536,2.53978
-0.129523,-0.0146424,2.536,2.53935
-0.122201,-0.0147521,2.555,2.55796
-0.113908,-0.0147521,2.555,2.55758
-0.105615,-0.0147521,2.555,2.55722
-0.0973222,-0.0147521,2.555,2.5569
-0.0890293,-0.0147521,2.555,2.55659
-0.0807364,-0.0147521,2.555,2.55632
-0.0719048,-0.0146424,2.536,2.53706
-0.0636736,-0.0146424,2.536,2.53684
-0.0554423,-0.0146424,2.536,2.53665
-0.0472111,-0.0146424,2.536,2.53648
-0.0389799,-0.0146424,2.536,2.53634
-0.0307487,-0.0146424,2.536,2.53623
-0.0225174,-0.0146424,2.536,2.53614
-0.0142862,-0.0146424,2.536,2.53608
-0.00600962,-0.0145327,2.517,2.51705
0.00215994,-0.0145327,2.517,2.51704
0.0103295,-0.0145327,2.517,2.51706
0.0184991,-0.0145327,2.517,2.51711
0.0266686,-0.0145327,2.517,2.51718
0.0348382,-0.0145327,2.517,2.51728
0.0430077,-0.0145327,2.517,2.51741
0.0511773,-0.0145327,2.517,2.51756
0.0589224,-0.0144288,2.499,2.49974
0.0670336,-0.0144288,2.499,2.49994
0.0751447,-0.0144288,2.499,2.50017
0.0832558,-0.0144288,2.499,2.50043
0.091367,-0.0144288,2.499,2.50071
0.0994781,-0.0144288,2.499,2.50102
0.107589,-0.0144288,2.499,2.50136
0.1157,-0.0144288,2.499,2.50172
0.123811,-0.0144288,2.499,2.50211
0.131923,-0.0144288,2.499,2.50252
0.140034,-0.0144288,2.499,2.50296
0.148145,-0.0144288,2.499,2.50343
0.156256,-0.0144288,2.499,2.50392
0.165551,-0.0145327,2.517,2.52248
