nan,nan,nan,NaN
nan,nan,nan,NaN
nan,nan,nan,NaN
nan,nan,nan,NaN
-1.1319,-0.398866,2.329,2.62003
-1.12435,-0.398866,2.329,2.61677
-1.11679,-0.398866,2.329,2.61353
-1.10923,-0.398866,2.329,2.61031
-1.10924,-0.401606,2.345,2.62502
-1.10162,-0.401606,2.345,2.62181
-1.09401,-0.401606,2.345,2.61862
-1.0864,-0.401606,2.345,2.61545
-1.07879,-0.401606,2.345,2.6123
-1.07118,-0.401606,2.345,2.60916
-1.06357,-0.401606,2.345,2.60605
-1.05596,-0.401606,2.345,2.60295
-1.04835,-0.401606,2.345,2.59987
-1.04073,-0.401606,2.345,2.59681
-1.03312,-0.401606,2.345,2.59377
-1.02551,-0.401606,2.345,2.59075
-1.0179,-0.401606,2.345,2.58775
-1.01029,-0.401606,2.345,2.58476
-1.00268,-0.401606,2.345,2.5818
-1.00186,-0.404346,2.361,2.59645
-0.994193,-0.404346,2.361,2.5935
-0.986529,-0.404346,2.361,2.59057
-0.978866,-0.404346,2.361,2.58766
-0.971203,-0.404346,2.361,2.58477
-0.96354,-0.404346,2.361,2.5819
-0.955876,-0.404346,2.361,2.57905
-0.948213,-0.404346,2.361,2.57622
-0.94055,-0.404346,2.361,2.57341
-0.926565,-0.401606,2.345,2.5532
-0.918953,-0.401606,2.345,2.55045
-0.911342,-0.401606,2.345,2.54772
-0.903731,-0.401606,2.345,2.545
-0.89612,-0.401606,2.345,2.54231
-0.888508,-0.401606,2.345,2.53964
-0.880897,-0.401606,2.345,2.53698
-0.873286,-0.401606,2.345,2.53435
-0.865674,-0.401606,2.345,2.53174
-0.858063,-0.401606,2.345,2.52915
-0.850452,-0.401606,2.345,2.52658
-0.842841,-0.401606,2.345,2.52402
-0.835229,-0.401606,2.345,2.52149
-0.833265,-0.404346,2.361,2.53617
-0.825602,-0.404346,2.361,2.53366
-0.817938,-0.404346,2.361,2.53117
-0.810275,-0.404346,2.361,2.52871
-0.802612,-0.404346,2.361,2.52626
-0.794949,-0.404346,2.361,2.52384
-0.787286,-0.404346,2.361,2.52144
-0.779622,-0.404346,2.361,2.51905
-0.771959,-0.404346,2.361,2.51669
-0.764296,-0.404346,2.361,2.51435
-0.76176,-0.407086,2.377,2.52906
-0.754045,-0.407086,2.377,2.52674
-0.74633,-0.407086,2.377,2.52445
-0.743897,-0.409998,2.394,2.54022
-0.736127,-0.409998,2.394,2.53796
-0.728357,-0.409998,2.394,2.53571
-0.720586,-0.409998,2.394,2.53349
-0.712816,-0.409998,2.394,2.53129
-0.705046,-0.409998,2.394,2.52912
-0.697275,-0.409998,2.394,2.52696
-0.694401,-0.412909,2.411,2.54276
-0.686576,-0.412909,2.411,2.54063
-0.67875,-0.412909,2.411,2.53853
-0.670925,-0.412909,2.411,2.53645
-0.663099,-0.412909,2.411,2.53439
-0.655274,-0.412909,2.411,2.53235
-0.647448,-0.412909,2.411,2.53034
-0.639623,-0.412909,2.411,2.52835
-0.631797,-0.412909,2.411,2.52638
-0.623972,-0.412909,2.411,2.52443
-0.620491,-0.41582,2.428,2.5403
-0.61261,-0.41582,2.428,2.53838
-0.604729,-0.41582,2.428,2.53649
-0.601027,-0.418732,2.445,2.55237
-0.593092,-0.418732,2.445,2.55051
-0.585156,-0.418732,2.445,2.54868
-0.57722,-0.418732,2.445,2.54687
-0.569284,-0.418732,2.445,2.54508
-0.561348,-0.418732,2.445,2.54332
-0.553412,-0.418732,2.445,2.54158
-0.545476,-0.418732,2.445,2.53986
-0.53754,-0.418732,2.445,2.53817
-0.529605,-0.418732,2.445,2.5365
-0.521669,-0.418732,2.445,2.53486
-0.513733,-0.418732,2.445,2.53324
-0.505797,-0.418732,2.445,2.53164
-0.501526,-0.421815,2.463,2.54869
-0.493532,-0.421815,2.463,2.54713
-0.485538,-0.421815,2.463,2.54559
-0.477544,-0.421815,2.463,2.54408
-0.469549,-0.421815,2.463,2.54259
-0.461555,-0.421815,2.463,2.54113
-0.456875,-0.424897,2.481,2.55825
-0.448823,-0.424897,2.481,2.55682
-0.44077,-0.424897,2.481,2.55542
-0.432717,-0.424897,2.481,2.55404
-0.424665,-0.424897,2.481,2.55269
-0.416612,-0.424897,2.481,2.55137
-0.408559,-0.424897,2.481,2.55006
-0.400506,-0.424897,2.481,2.54879
-0.392454,-0.424897,2.481,2.54753
-0.384401,-0.424897,2.481,2.5463
-0.376348,-0.424897,2.481,2.5451
-0.368296,-0.424897,2.481,2.54392
-0.360243,-0.424897,2.481,2.54277
-0.349635,-0.421815,2.463,2.5232
-0.341641,-0.421815,2.463,2.52211
-0.333646,-0.421815,2.463,2.52103
-0.325652,-0.421815,2.463,2.51999
-0.317658,-0.421815,2.463,2.51897
-0.309664,-0.421815,2.463,2.51797
-0.299465,-0.418732,2.445,2.49861
-0.291529,-0.418732,2.445,2.49767
-0.283593,-0.418732,2.445,2.49676
-0.275657,-0.418732,2.445,2.49587
-0.267721,-0.418732,2.445,2.495
-0.259785,-0.418732,2.445,2.49416
-0.251849,-0.418732,2.445,2.49335
-0.243914,-0.418732,2.445,2.49256
-0.235978,-0.418732,2.445,2.4918
-0.228042,-0.418732,2.445,2.49106
-0.220106,-0.418732,2.445,2.49034
-0.21217,-0.418732,2.445,2.48965
-0.204234,-0.418732,2.445,2.48899
-0.196298,-0.418732,2.445,2.48835
-0.188363,-0.418732,2.445,2.48774
-0.180427,-0.418732,2.445,2.48715
-0.172491,-0.418732,2.445,2.48659
-0.164555,-0.418732,2.445,2.48605
-0.156619,-0.418732,2.445,2.48554
-0.148683,-0.418732,2.445,2.48505
-0.140747,-0.418732,2.445,2.48459
-0.132812,-0.418732,2.445,2.48415
-0.125795,-0.421815,2.463,2.50202
-0.117801,-0.421815,2.463,2.50163
-0.109806,-0.421815,2.463,2.50127
-0.101812,-0.421815,2.463,2.50093
-0.0938178,-0.421815,2.463,2.50062
-0.0858236,-0.421815,2.463,2.50033
-0.078398,-0.424897,2.481,2.51834
-0.0703453,-0.424897,2.481,2.5181
-0.0622926,-0.424897,2.481,2.51789
-0.0542399,-0.424897,2.481,2.51771
-0.0465223,-0.42798,2.499,2.53581
-0.0384112,-0.42798,2.499,2.53567
-0.0305183,-0.431063,2.517,2.55383
-0.0223487,-0.431063,2.517,2.55374
-0.0141792,-0.431063,2.517,2.55368
-0.00600962,-0.431063,2.517,2.55365
0.00215994,-0.431063,2.517,2.55365
0.0103295,-0.431063,2.517,2.55367
0.0184991,-0.431063,2.517,2.55371
0.0266686,-0.431063,2.517,2.55378
0.0348382,-0.431063,2.517,2.55388
0.0430077,-0.431063,2.517,2.55401
0.0511773,-0.431063,2.517,2.55416
0.0593468,-0.431063,2.517,2.55433
0.0675164,-0.431063,2.517,2.55454
0.075686,-0.431063,2.517,2.55477
0.0838555,-0.431063,2.517,2.55502
0.0920251,-0.431063,2.517,2.5553
0.100195,-0.431063,2.517,2.55561
0.108364,-0.431063,2.517,2.55594
0.116534,-0.431063,2.517,2.5563
0.124703,-0.431063,2.517,2.55669
0.132873,-0.431063,2.517,2.5571
0.141042,-0.431063,2.517,2.55754
0.149212,-0.431063,2.517,2.558
0.157382,-0.431063,2.517,2.55849
0.165551,-0.431063,2.517,2.55901
0.173721,-0.431063,2.517,2.55955
0.18189,-0.431063,2.517,2.56012
0.188701,-0.42798,2.499,2.5424
0.196812,-0.42798,2.499,2.54301
0.204923,-0.42798,2.499,2.54365
0.213034,-0.42798,2.499,2.54432
0.221145,-0.42798,2.499,2.54501
0.229256,-0.42798,2.499,2.54573
0.237367,-0.42798,2.499,2.54647
0.245479,-0.42798,2.499,2.54724
0.251763,-0.424897,2.481,2.52968
0.259816,-0.424897,2.481,2.53049
0.267868,-0.424897,2.481,2.53133
0.275921,-0.424897,2.481,2.5322
0.283974,-0.424897,2.481,2.53309
0.292027,-0.424897,2.481,2.534
0.300079,-0.424897,2.481,2.53495
0.305896,-0.421815,2.463,2.51751
0.313891,-0.421815,2.463,2.5185
0.32659,-0.42798,2.499,2.55633
0.334701,-0.42798,2.499,2.55738
0.342812,-0.42798,2.499,2.55845
0.350923,-0.42798,2.499,2.55955
0.359034,-0.42798,2.499,2.56068
0.367146,-0.42798,2.499,2.56183
0.375257,-0.42798,2.499,2.563
0.386129,-0.431063,2.517,2.58267
0.394299,-0.431063,2.517,2.58391
0.405506,-0.434317,2.536,2.60468
0.413738,-0.434317,2.536,2.60597
0.421969,-0.434317,2.536,2.60729
0.4302,-0.434317,2.536,2.60864
0.438431,-0.434317,2.536,2.61001
0.446662,-0.434317,2.536,2.6114
0.458302,-0.437571,2.555,2.6324
0.466595,-0.437571,2.555,2.63386
0.474888,-0.437571,2.555,2.63534
0.48318,-0.437571,2.555,2.63685
0.491473,-0.437571,2.555,2.63838
0.499766,-0.437571,2.555,2.63994
0.508059,-0.437571,2.555,2.64152
0.516352,-0.437571,2.555,2.64313
0.524645,-0.437571,2.555,2.64476
0.532938,-0.437571,2.555,2.64642
0.541231,-0.437571,2.555,2.6481
0.549524,-0.437571,2.555,2.64981
0.557817,-0.437571,2.555,2.65154
0.566109,-0.437571,2.555,2.65329
0.574402,-0.437571,2.555,2.65508
0.582695,-0.437571,2.555,2.65688
0.590988,-0.437571,2.555,2.65871
0.599281,-0.437571,2.555,2.66057
0.607574,-0.437571,2.555,2.66245
0.615867,-0.437571,2.555,2.66435
0.62416,-0.437571,2.555,2.66628
0.632453,-0.437571,2.555,2.66824
0.635981,-0.434317,2.536,2.65036
0.644212,-0.434317,2.536,2.65235
0.652443,-0.434317,2.536,2.65436
0.660674,-0.434317,2.536,2.65639
0.668906,-0.434317,2.536,2.65845
0.677137,-0.434317,2.536,2.66053
0.685368,-0.434317,2.536,2.66264
0.688403,-0.431063,2.517,2.64481
0.696572,-0.431063,2.517,2.64694
0.704742,-0.431063,2.517,2.64911
0.712911,-0.431063,2.517,2.65129
0.715924,-0.42798,2.499,2.63452
0.724035,-0.42798,2.499,2.63674
0.732147,-0.42798,2.499,2.63898
0.740258,-0.42798,2.499,2.64124
0.748369,-0.42798,2.499,2.64352
0.75648,-0.42798,2.499,2.64583
0.759084,-0.424897,2.481,2.62909
0.767137,-0.424897,2.481,2.63143
0.775189,-0.424897,2.481,2.63378
0.777559,-0.421815,2.463,2.61704
0.785554,-0.421815,2.463,2.61943
0.793548,-0.421815,2.463,2.62183
0.801542,-0.421815,2.463,2.62426
0.809537,-0.421815,2.463,2.62672
0.817531,-0.421815,2.463,2.62919
0.819492,-0.418732,2.445,2.61246
0.827428,-0.418732,2.445,2.61496
0.835364,-0.418732,2.445,2.61748
0.837436,-0.41582,2.428,2.60181
0.845317,-0.41582,2.428,2.60435
0.853198,-0.41582,2.428,2.60692
0.861078,-0.41582,2.428,2.60951
0.868959,-0.41582,2.428,2.61212
0.87684,-0.41582,2.428,2.61475
0.88472,-0.41582,2.428,2.61741
0.886351,-0.412909,2.411,2.60174
0.894177,-0.412909,2.411,2.60441
0.902002,-0.412909,2.411,2.60711
0.909828,-0.412909,2.411,2.60983
0.917653,-0.412909,2.411,2.61257
0.925479,-0.412909,2.411,2.61533
0.933304,-0.412909,2.411,2.6181
0.94113,-0.412909,2.411,2.6209
0.948955,-0.412909,2.411,2.62372
0.956781,-0.412909,2.411,2.62657
0.964606,-0.412909,2.411,2.62943
nan,nan,nan,NaN
nan,nan,nan,NaN
nan,nan,nan,NaN
nan,nan,nan,NaN
nan,nan,nan,NaN
nan,nan,nan,NaN
nan,nan,nan,NaN
nan,nan,nan,NaN
nan,nan,nan,NaN
nan,nan,nan,NaN
nan,nan,nan,NaN
nan,nan,nan,NaN
nan,nan,nan,NaN
1.33791,-0.514295,3.003,3.32754
1.34766,-0.514295,3.003,3.33147
1.35741,-0.514295,3.003,3.33543
1.36716,-0.514295,3.003,3.3394
1.38928,-0.518919,3.03,3.37347
1.39912,-0.518919,3.03,3.37753
1.40895,-0.518919,3.03,3.38162
1.43143,-0.523543,3.057,3.41589
1.44135,-0.523543,3.057,3.42006
1.45127,-0.523543,3.057,3.42426
1.4612,-0.523543,3.057,3.42848
1.47112,-0.523543,3.057,3.43272
1.48104,-0.523543,3.057,3.43698
1.49096,-0.523543,3.057,3.44127
1.48763,-0.518919,3.03,3.41515
1.49746,-0.518919,3.03,3.41944
1.5073,-0.518919,3.03,3.42376
1.50361,-0.514295,3.003,3.39755
1.51336,-0.514295,3.003,3.40188
1.52311,-0.514295,3.003,3.40622
1.53285,-0.514295,3.003,3.41059
1.55647,-0.518919,3.03,3.44569
1.56631,-0.518919,3.03,3.45014
1.60423,-0.528167,3.084,3.51619
1.64408,-0.537929,3.141,3.58584
1.68482,-0.547862,3.199,3.65682
1.6952,-0.547862,3.199,3.66162
1.73811,-0.558309,3.26,3.73635
1.78302,-0.56927,3.324,3.81473
1.79381,-0.56927,3.324,3.81979
1.82197,-0.57475,3.356,3.86169
1.85088,-0.580402,3.389,3.90486
1.86188,-0.580402,3.389,3.91009
1.89167,-0.586225,3.423,3.95462
1.92224,-0.592219,3.458,4.00044
1.93346,-0.592219,3.458,4.00584
1.925,-0.586225,3.423,3.97067
1.93611,-0.586225,3.423,3.97607
1.94722,-0.586225,3.423,3.98149
1.95833,-0.586225,3.423,3.98694
1.96944,-0.586225,3.423,3.99241
1.98055,-0.586225,3.423,3.9979
1.99166,-0.586225,3.423,4.00341
2.00277,-0.586225,3.423,4.00895
2.01389,-0.586225,3.423,4.01451
2.00488,-0.580402,3.389,3.98017
1.99625,-0.57475,3.356,3.94691
1.98801,-0.56927,3.324,3.91474
1.99879,-0.56927,3.324,3.92023
1.99024,-0.56379,3.292,3.88795
2.00092,-0.56379,3.292,3.89343
2.01161,-0.56379,3.292,3.89893
2.00264,-0.558309,3.26,3.8665
1.97555,-0.547862,3.199,3.79954
1.98593,-0.547862,3.199,3.80495
1.94202,-0.532963,3.112,3.70676
1.95212,-0.532963,3.112,3.71206
nan,nan,nan,NaN
nan,nan,nan,NaN
1.84801,-0.496827,2.901,3.47531
1.85743,-0.496827,2.901,3.48033
1.82051,-0.484496,2.829,3.39886
1.79994,-0.476618,2.783,3.34844
1.80897,-0.476618,2.783,3.3533
1.80364,-0.47285,2.761,3.33164
1.78371,-0.465315,2.717,3.28333
1.79253,-0.465315,2.717,3.28813
1.7735,-0.458122,2.675,3.24204
1.76819,-0.454525,2.654,3.22131
1.76275,-0.450929,2.633,3.20052
1.77129,-0.450929,2.633,3.20523
1.76632,-0.447504,2.613,3.18558
1.7748,-0.447504,2.613,3.19029
-2.52657,-0.611913,3.642,4.47462
-2.51475,-0.611913,3.642,4.46795
-2.47682,-0.605528,3.604,4.41476
-2.43913,-0.599144,3.566,4.36173
-2.37786,-0.586879,3.493,4.26611
-2.36652,-0.586879,3.493,4.2598
-2.30799,-0.575118,3.423,4.16827
-2.27406,-0.569405,3.389,4.12079
-2.26306,-0.569405,3.389,4.11473
-2.25206,-0.569405,3.389,4.10869
-2.24106,-0.569405,3.389,4.10267
-2.23006,-0.569405,3.389,4.09667
-2.21906,-0.569405,3.389,4.09069
-2.20806,-0.569405,3.389,4.08474
-2.19706,-0.569405,3.389,4.0788
-2.18606,-0.569405,3.389,4.07289
-2.17506,-0.569405,3.389,4.06699
-2.16406,-0.569405,3.389,4.06112
-2.17466,-0.575118,3.423,4.09596
-2.16355,-0.575118,3.423,4.09007
-2.17445,-0.580998,3.458,4.12596
-2.16323,-0.580998,3.458,4.12006
-2.152,-0.580998,3.458,4.11418
-2.14078,-0.580998,3.458,4.10832
-2.12956,-0.580998,3.458,4.10248
-2.11833,-0.580998,3.458,4.09666
-2.10711,-0.580998,3.458,4.09087
-2.09589,-0.580998,3.458,4.0851
-2.08466,-0.580998,3.458,4.07935
-2.07344,-0.580998,3.458,4.07363
-2.06221,-0.580998,3.458,4.06793
nan,nan,nan,NaN
nan,nan,nan,NaN
nan,nan,nan,NaN
nan,nan,nan,NaN
nan,nan,nan,NaN
nan,nan,nan,NaN
nan,nan,nan,NaN
nan,nan,nan,NaN
nan,nan,nan,NaN
nan,nan,nan,NaN
nan,nan,nan,NaN
nan,nan,nan,NaN
nan,nan,nan,NaN
nan,nan,nan,NaN
nan,nan,nan,NaN
nan,nan,nan,NaN
nan,nan,nan,NaN
nan,nan,nan,NaN
nan,nan,nan,NaN
nan,nan,nan,NaN
nan,nan,nan,NaN
nan,nan,nan,NaN
nan,nan,nan,NaN
nan,nan,nan,NaN
nan,nan,nan,NaN
nan,nan,nan,NaN
nan,nan,nan,NaN
nan,nan,nan,NaN
nan,nan,nan,NaN
nan,nan,nan,NaN
nan,nan,nan,NaN
-1.1549,-0.393997,2.345,2.64349
-1.14729,-0.393997,2.345,2.64018
-1.1319,-0.391308,2.329,2.61889
-1.12435,-0.391308,2.329,2.61563
-1.11679,-0.391308,2.329,2.61239
-1.10923,-0.391308,2.329,2.60917
-1.10924,-0.393997,2.345,2.62386
-1.10162,-0.393997,2.345,2.62066
-1.09401,-0.393997,2.345,2.61747
-1.0864,-0.393997,2.345,2.61429
-1.07879,-0.393997,2.345,2.61114
-1.07118,-0.393997,2.345,2.608
-1.06357,-0.393997,2.345,2.60489
-1.05596,-0.393997,2.345,2.60179
-1.04835,-0.393997,2.345,2.59871
-1.04073,-0.393997,2.345,2.59565
-1.03312,-0.393997,2.345,2.59261
-1.02551,-0.393997,2.345,2.58958
-1.0179,-0.393997,2.345,2.58658
-1.01029,-0.393997,2.345,2.58359
-1.00268,-0.393997,2.345,2.58062
-1.00186,-0.396685,2.361,2.59526
-0.994193,-0.396685,2.361,2.59232
-0.986529,-0.396685,2.361,2.58939
-0.978866,-0.396685,2.361,2.58648
-0.971203,-0.396685,2.361,2.58359
-0.96354,-0.396685,2.361,2.58071
-0.955876,-0.396685,2.361,2.57786
-0.948213,-0.396685,2.361,2.57503
-0.94055,-0.396685,2.361,2.57222
-0.926565,-0.393997,2.345,2.55202
-0.918953,-0.393997,2.345,2.54926
-0.911342,-0.393997,2.345,2.54653
-0.903731,-0.393997,2.345,2.54381
-0.89612,-0.393997,2.345,2.54112
-0.888508,-0.393997,2.345,2.53845
-0.880897,-0.393997,2.345,2.53579
-0.873286,-0.393997,2.345,2.53316
-0.865674,-0.393997,2.345,2.53054
-0.863918,-0.396685,2.361,2.5452
-0.856255,-0.396685,2.361,2.54261
-0.848591,-0.396685,2.361,2.54004
-0.840928,-0.396685,2.361,2.53749
-0.833265,-0.396685,2.361,2.53496
-0.825602,-0.396685,2.361,2.53245
-0.817938,-0.396685,2.361,2.52996
-0.810275,-0.396685,2.361,2.52749
-0.802612,-0.396685,2.361,2.52505
-0.794949,-0.396685,2.361,2.52262
-0.792621,-0.399373,2.377,2.5373
-0.784906,-0.399373,2.377,2.5349
-0.777191,-0.399373,2.377,2.53252
-0.769475,-0.399373,2.377,2.53016
-0.76176,-0.399373,2.377,2.52783
-0.759438,-0.402229,2.394,2.54357
-0.751668,-0.402229,2.394,2.54127
-0.743897,-0.402229,2.394,2.53898
-0.736127,-0.402229,2.394,2.53671
-0.728357,-0.402229,2.394,2.53447
-0.720586,-0.402229,2.394,2.53225
-0.712816,-0.402229,2.394,2.53005
-0.705046,-0.402229,2.394,2.52787
-0.702227,-0.405086,2.411,2.54365
-0.694401,-0.405086,2.411,2.5415
-0.686576,-0.405086,2.411,2.53937
-0.67875,-0.405086,2.411,2.53727
-0.670925,-0.405086,2.411,2.53518
-0.663099,-0.405086,2.411,2.53312
-0.655274,-0.405086,2.411,2.53109
-0.647448,-0.405086,2.411,2.52907
-0.644133,-0.407942,2.428,2.5449
-0.636252,-0.407942,2.428,2.54292
-0.628371,-0.407942,2.428,2.54095
-0.620491,-0.407942,2.428,2.53902
-0.616899,-0.410798,2.445,2.55487
-0.608963,-0.410798,2.445,2.55296
-0.601027,-0.410798,2.445,2.55108
-0.593092,-0.410798,2.445,2.54922
-0.585156,-0.410798,2.445,2.54739
-0.57722,-0.410798,2.445,2.54558
-0.569284,-0.410798,2.445,2.54379
-0.561348,-0.410798,2.445,2.54203
-0.553412,-0.410798,2.445,2.54028
-0.545476,-0.410798,2.445,2.53857
-0.53754,-0.410798,2.445,2.53687
-0.529605,-0.410798,2.445,2.5352
-0.521669,-0.410798,2.445,2.53356
-0.517515,-0.413823,2.463,2.55058
-0.509521,-0.413823,2.463,2.54897
-0.501526,-0.413823,2.463,2.54738
-0.493532,-0.413823,2.463,2.54582
-0.485538,-0.413823,2.463,2.54428
-0.477544,-0.413823,2.463,2.54277
-0.472981,-0.416847,2.481,2.55985
-0.464928,-0.416847,2.481,2.55837
-0.456875,-0.416847,2.481,2.55692
-0.448823,-0.416847,2.481,2.5555
-0.44077,-0.416847,2.481,2.5541
-0.432717,-0.416847,2.481,2.55272
-0.424665,-0.416847,2.481,2.55136
-0.416612,-0.416847,2.481,2.55004
-0.408559,-0.416847,2.481,2.54873
-0.400506,-0.416847,2.481,2.54746
-0.392454,-0.416847,2.481,2.5462
-0.384401,-0.416847,2.481,2.54497
-0.376348,-0.416847,2.481,2.54377
-0.368296,-0.416847,2.481,2.54259
-0.360243,-0.416847,2.481,2.54144
-0.349635,-0.413823,2.463,2.52188
-0.341641,-0.413823,2.463,2.52078
-0.333646,-0.413823,2.463,2.51971
-0.325652,-0.413823,2.463,2.51866
-0.317658,-0.413823,2.463,2.51764
-0.309664,-0.413823,2.463,2.51665
-0.301669,-0.413823,2.463,2.51568
-0.291529,-0.410798,2.445,2.49635
-0.283593,-0.410798,2.445,2.49544
-0.275657,-0.410798,2.445,2.49455
-0.267721,-0.410798,2.445,2.49368
-0.259785,-0.410798,2.445,2.49284
-0.251849,-0.410798,2.445,2.49203
-0.243914,-0.410798,2.445,2.49124
-0.235978,-0.410798,2.445,2.49048
-0.228042,-0.410798,2.445,2.48974
-0.220106,-0.410798,2.445,2.48902
-0.21217,-0.410798,2.445,2.48833
-0.204234,-0.410798,2.445,2.48767
-0.196298,-0.410798,2.445,2.48703
-0.188363,-0.410798,2.445,2.48642
-0.180427,-0.410798,2.445,2.48583
-0.172491,-0.410798,2.445,2.48526
-0.164555,-0.410798,2.445,2.48473
-0.156619,-0.410798,2.445,2.48421
-0.148683,-0.410798,2.445,2.48372
-0.140747,-0.410798,2.445,2.48326
-0.132812,-0.410798,2.445,2.48283
-0.125795,-0.413823,2.463,2.50069
-0.117801,-0.413823,2.463,2.5003
-0.109806,-0.413823,2.463,2.49994
-0.101812,-0.413823,2.463,2.4996
-0.0945035,-0.416847,2.481,2.51755
-0.0864508,-0.416847,2.481,2.51726
-0.078398,-0.416847,2.481,2.517
-0.0703453,-0.416847,2.481,2.51676
-0.0622926,-0.416847,2.481,2.51655
-0.0546334,-0.419871,2.499,2.53462
-0.0465223,-0.419871,2.499,2.53445
-0.0384112,-0.419871,2.499,2.53432
-0.0305183,-0.422895,2.517,2.55246
-0.0223487,-0.422895,2.517,2.55238
-0.0141792,-0.422895,2.517,2.55232
-0.00600962,-0.422895,2.517,2.55229
0.00215994,-0.422895,2.517,2.55228
0.0103295,-0.422895,2.517,2.5523
0.0184991,-0.422895,2.517,2.55235
0.0266686,-0.422895,2.517,2.55242
0.0348382,-0.422895,2.517,2.55252
0.0430077,-0.422895,2.517,2.55264
0.0511773,-0.422895,2.517,2.55279
0.0593468,-0.422895,2.517,2.55297
0.0675164,-0.422895,2.517,2.55317
0.075686,-0.422895,2.517,2.5534
0.0838555,-0.422895,2.517,2.55366
0.0920251,-0.422895,2.517,2.55394
0.100195,-0.422895,2.517,2.55425
0.109182,-0.426088,2.536,2.57386
0.117413,-0.426088,2.536,2.57422
0.125645,-0.426088,2.536,2.57461
0.133876,-0.426088,2.536,2.57503
0.142107,-0.426088,2.536,2.57547
0.150338,-0.426088,2.536,2.57594
0.157382,-0.422895,2.517,2.55713
0.165551,-0.422895,2.517,2.55764
0.173721,-0.422895,2.517,2.55818
0.18189,-0.422895,2.517,2.55875
0.19006,-0.422895,2.517,2.55935
0.198229,-0.422895,2.517,2.55997
0.204923,-0.419871,2.499,2.5423
0.213034,-0.419871,2.499,2.54297
0.221145,-0.419871,2.499,2.54366
0.229256,-0.419871,2.499,2.54438
0.237367,-0.419871,2.499,2.54512
0.245479,-0.419871,2.499,2.54589
0.251763,-0.416847,2.481,2.52834
0.259816,-0.416847,2.481,2.52916
0.267868,-0.416847,2.481,2.53
0.275921,-0.416847,2.481,2.53086
0.283974,-0.416847,2.481,2.53175
0.292027,-0.416847,2.481,2.53267
0.300079,-0.416847,2.481,2.53361
0.305896,-0.413823,2.463,2.51619
0.313891,-0.413823,2.463,2.51717
0.32659,-0.419871,2.499,2.55499
0.334701,-0.419871,2.499,2.55604
0.342812,-0.419871,2.499,2.55711
0.350923,-0.419871,2.499,2.55821
0.359034,-0.419871,2.499,2.55934
0.367146,-0.419871,2.499,2.56049
0.375257,-0.419871,2.499,2.56166
0.386129,-0.422895,2.517,2.58132
0.394299,-0.422895,2.517,2.58256
0.405506,-0.426088,2.536,2.60332
0.413738,-0.426088,2.536,2.60462
0.421969,-0.426088,2.536,2.60594
0.4302,-0.426088,2.536,2.60728
0.438431,-0.426088,2.536,2.60865
0.446662,-0.426088,2.536,2.61005
0.454894,-0.426088,2.536,2.61147
0.466595,-0.42928,2.555,2.63249
0.474888,-0.42928,2.555,2.63398
0.48318,-0.42928,2.555,2.63548
0.491473,-0.42928,2.555,2.63702
0.499766,-0.42928,2.555,2.63857
0.508059,-0.42928,2.555,2.64016
0.516352,-0.42928,2.555,2.64177
0.524645,-0.42928,2.555,2.6434
0.532938,-0.42928,2.555,2.64506
0.541231,-0.42928,2.555,2.64674
0.549524,-0.42928,2.555,2.64845
0.557817,-0.42928,2.555,2.65018
0.566109,-0.42928,2.555,2.65194
0.574402,-0.42928,2.555,2.65372
0.582695,-0.42928,2.555,2.65553
0.590988,-0.42928,2.555,2.65736
0.599281,-0.42928,2.555,2.65922
0.607574,-0.42928,2.555,2.6611
0.615867,-0.42928,2.555,2.66301
0.62416,-0.42928,2.555,2.66494
0.632453,-0.42928,2.555,2.66689
0.635981,-0.426088,2.536,2.64902
0.639385,-0.422895,2.517,2.63115
0.647555,-0.422895,2.517,2.63315
0.655725,-0.422895,2.517,2.63517
0.663894,-0.422895,2.517,2.63721
0.672064,-0.422895,2.517,2.63928
0.680233,-0.422895,2.517,2.64137
0.688403,-0.422895,2.517,2.64349
0.691591,-0.419871,2.499,2.62671
0.699702,-0.419871,2.499,2.62885
0.707813,-0.419871,2.499,2.63103
0.715924,-0.419871,2.499,2.63322
0.724035,-0.419871,2.499,2.63544
0.732147,-0.419871,2.499,2.63768
0.740258,-0.419871,2.499,2.63994
0.748369,-0.419871,2.499,2.64222
0.751031,-0.416847,2.481,2.62548
0.759084,-0.416847,2.481,2.6278
0.767137,-0.416847,2.481,2.63014
0.775189,-0.416847,2.481,2.6325
0.777559,-0.413823,2.463,2.61576
0.785554,-0.413823,2.463,2.61815
0.793548,-0.413823,2.463,2.62056
0.801542,-0.413823,2.463,2.62299
0.809537,-0.413823,2.463,2.62545
0.817531,-0.413823,2.463,2.62792
0.819492,-0.410798,2.445,2.6112
0.827428,-0.410798,2.445,2.6137
0.835364,-0.410798,2.445,2.61622
0.837436,-0.407942,2.428,2.60056
0.845317,-0.407942,2.428,2.60311
0.853198,-0.407942,2.428,2.60568
0.861078,-0.407942,2.428,2.60827
0.868959,-0.407942,2.428,2.61088
0.87684,-0.407942,2.428,2.61351
0.88472,-0.407942,2.428,2.61617
0.886351,-0.405086,2.411,2.60051
0.894177,-0.405086,2.411,2.60318
0.902002,-0.405086,2.411,2.60588
0.909828,-0.405086,2.411,2.6086
0.917653,-0.405086,2.411,2.61134
0.925479,-0.405086,2.411,2.6141
0.933304,-0.405086,2.411,2.61688
0.94113,-0.405086,2.411,2.61968
0.948955,-0.405086,2.411,2.6225
0.956781,-0.405086,2.411,2.62535
0.964606,-0.405086,2.411,2.62821
0.979289,-0.407942,2.428,2.64964
nan,nan,nan,NaN
nan,nan,nan,NaN
nan,nan,nan,NaN
nan,nan,nan,NaN
nan,nan,nan,NaN
nan,nan,nan,NaN
nan,nan,nan,NaN
nan,nan,nan,NaN
nan,nan,nan,NaN
nan,nan,nan,NaN
1.34213,-0.513624,3.057,3.37792
1.35205,-0.513624,3.057,3.38188
1.33791,-0.504551,3.003,3.32605
1.34766,-0.504551,3.003,3.32998
1.36961,-0.509087,3.03,3.36391
1.37945,-0.509087,3.03,3.36793
1.40166,-0.513624,3.057,3.40202
1.41158,-0.513624,3.057,3.40612
1.42151,-0.513624,3.057,3.41024
1.43143,-0.513624,3.057,3.41439
1.44135,-0.513624,3.057,3.41856
1.45127,-0.513624,3.057,3.42276
1.4612,-0.513624,3.057,3.42697
1.47112,-0.513624,3.057,3.43122
1.48104,-0.513624,3.057,3.43548
1.49096,-0.513624,3.057,3.43977
1.48763,-0.509087,3.03,3.41367
1.49746,-0.509087,3.03,3.41796
1.5073,-0.509087,3.03,3.42228
1.50361,-0.504551,3.003,3.39609
1.51336,-0.504551,3.003,3.40042
1.52311,-0.504551,3.003,3.40477
1.53285,-0.504551,3.003,3.40914
1.57034,-0.513624,3.057,3.47491
1.58026,-0.513624,3.057,3.47941
1.60423,-0.51816,3.084,3.5147
1.64408,-0.527737,3.141,3.58432
1.68482,-0.537482,3.199,3.65528
1.6952,-0.537482,3.199,3.66008
1.73811,-0.547731,3.26,3.73479
1.78302,-0.558484,3.324,3.81314
1.79381,-0.558484,3.324,3.8182
1.82197,-0.563861,3.356,3.86008
1.85088,-0.569405,3.389,3.90324
1.86188,-0.569405,3.389,3.90847
1.89167,-0.575118,3.423,3.95299
1.92224,-0.580998,3.458,3.99879
1.93346,-0.580998,3.458,4.0042
1.925,-0.575118,3.423,3.96905
1.93611,-0.575118,3.423,3.97445
1.94722,-0.575118,3.423,3.97987
1.95833,-0.575118,3.423,3.98532
1.96944,-0.575118,3.423,3.99079
1.98055,-0.575118,3.423,3.99628
1.99166,-0.575118,3.423,4.0018
2.00277,-0.575118,3.423,4.00734
2.01389,-0.575118,3.423,4.01291
2.00488,-0.569405,3.389,3.97858
1.99625,-0.563861,3.356,3.94534
1.98801,-0.558484,3.324,3.91319
1.99879,-0.558484,3.324,3.91868
1.99024,-0.553108,3.292,3.88642
2.00092,-0.553108,3.292,3.8919
2.01161,-0.553108,3.292,3.8974
2.00264,-0.547731,3.26,3.86499
1.97555,-0.537482,3.199,3.79806
1.98593,-0.537482,3.199,3.80347
1.99631,-0.537482,3.199,3.8089
nan,nan,nan,NaN
nan,nan,nan,NaN
nan,nan,nan,NaN
1.84801,-0.487413,2.901,3.47398
1.85743,-0.487413,2.901,3.479
1.82051,-0.475316,2.829,3.39756
1.79994,-0.467588,2.783,3.34717
1.80897,-0.467588,2.783,3.35203
1.80364,-0.463891,2.761,3.33038
1.78371,-0.456499,2.717,3.28209
1.79253,-0.456499,2.717,3.28689
1.7735,-0.449442,2.675,3.24082
1.76819,-0.445914,2.654,3.2201
1.76275,-0.442385,2.633,3.19932
1.77129,-0.442385,2.633,3.20404
1.76632,-0.439025,2.613,3.1844
1.7748,-0.439025,2.613,3.18911
-2.50021,-0.593834,3.604,4.42634
-2.48851,-0.593834,3.604,4.41975
-2.4507,-0.587573,3.566,4.36664
-2.43913,-0.587573,3.566,4.36015
-2.37786,-0.575544,3.493,4.26456
-2.36652,-0.575544,3.493,4.25825
-2.30799,-0.564011,3.423,4.16675
-2.27406,-0.558408,3.389,4.11928
-2.26306,-0.558408,3.389,4.11322
-2.25206,-0.558408,3.389,4.10718
-2.24106,-0.558408,3.389,4.10116
-2.23006,-0.558408,3.389,4.09516
-2.21906,-0.558408,3.389,4.08918
-2.20806,-0.558408,3.389,4.08322
-2.19706,-0.558408,3.389,4.07728
-2.18606,-0.558408,3.389,4.07136
-2.17506,-0.558408,3.389,4.06547
-2.16406,-0.558408,3.389,4.05959
-2.17466,-0.564011,3.423,4.09441
-2.16355,-0.564011,3.423,4.08852
-2.17445,-0.569777,3.458,4.1244
-2.16323,-0.569777,3.458,4.11849
-2.152,-0.569777,3.458,4.11261
-2.14078,-0.569777,3.458,4.10674
-2.12956,-0.569777,3.458,4.1009
-2.11833,-0.569777,3.458,4.09509
-2.10711,-0.569777,3.458,4.08929
-2.09589,-0.569777,3.458,4.08352
-2.08466,-0.569777,3.458,4.07777
-2.07344,-0.569777,3.458,4.07205
-2.06221,-0.569777,3.458,4.06634
nan,nan,nan,NaN
nan,nan,nan,NaN
nan,nan,nan,NaN
nan,nan,nan,NaN
nan,nan,nan,NaN
nan,nan,nan,NaN
nan,nan,nan,NaN
nan,nan,nan,NaN
nan,nan,nan,NaN
nan,nan,nan,NaN
nan,nan,nan,NaN
nan,nan,nan,NaN
nan,nan,nan,NaN
nan,nan,nan,NaN
nan,nan,nan,NaN
nan,nan,nan,NaN
nan,nan,nan,NaN
nan,nan,nan,NaN
nan,nan,nan,NaN
nan,nan,nan,NaN
nan,nan,nan,NaN
nan,nan,nan,NaN
nan,nan,nan,NaN
nan,nan,nan,NaN
nan,nan,nan,NaN
nan,nan,nan,NaN
nan,nan,nan,NaN
nan,nan,nan,NaN
nan,nan,nan,NaN
nan,nan,nan,NaN
nan,nan,nan,NaN
-1.1549,-0.386388,2.345,2.64237
-1.14729,-0.386388,2.345,2.63905
-1.13968,-0.386388,2.345,2.63575
-1.13207,-0.386388,2.345,2.63247
-1.12446,-0.386388,2.345,2.62921
-1.11685,-0.386388,2.345,2.62596
-1.10924,-0.386388,2.345,2.62273
-1.10162,-0.386388,2.345,2.61952
-1.09401,-0.386388,2.345,2.61633
-1.0864,-0.386388,2.345,2.61316
-1.07879,-0.386388,2.345,2.61
-1.07118,-0.386388,2.345,2.60686
-1.06357,-0.386388,2.345,2.60375
-1.05596,-0.386388,2.345,2.60065
-1.04835,-0.386388,2.345,2.59757
-1.04073,-0.386388,2.345,2.5945
-1.03312,-0.386388,2.345,2.59146
-1.02551,-0.386388,2.345,2.58843
-1.0179,-0.386388,2.345,2.58543
-1.01029,-0.386388,2.345,2.58244
-1.00952,-0.389024,2.361,2.59707
-1.00186,-0.389024,2.361,2.5941
-0.994193,-0.389024,2.361,2.59115
-0.986529,-0.389024,2.361,2.58822
-0.978866,-0.389024,2.361,2.58531
-0.971203,-0.389024,2.361,2.58242
-0.96354,-0.389024,2.361,2.57955
-0.955876,-0.389024,2.361,2.5767
-0.948213,-0.389024,2.361,2.57386
-0.94055,-0.389024,2.361,2.57105
-0.932887,-0.389024,2.361,2.56826
-0.925224,-0.389024,2.361,2.56548
-0.91756,-0.389024,2.361,2.56273
-0.909897,-0.389024,2.361,2.55999
-0.902234,-0.389024,2.361,2.55728
-0.894571,-0.389024,2.361,2.55459
-0.886907,-0.389024,2.361,2.55191
-0.879244,-0.389024,2.361,2.54926
-0.871581,-0.389024,2.361,2.54663
-0.863918,-0.389024,2.361,2.54402
-0.856255,-0.389024,2.361,2.54142
-0.848591,-0.389024,2.361,2.53885
-0.840928,-0.389024,2.361,2.5363
-0.833265,-0.389024,2.361,2.53377
-0.825602,-0.389024,2.361,2.53126
-0.817938,-0.389024,2.361,2.52877
-0.815766,-0.39166,2.377,2.54342
-0.808051,-0.39166,2.377,2.54096
-0.800336,-0.39166,2.377,2.53852
-0.792621,-0.39166,2.377,2.53609
-0.784906,-0.39166,2.377,2.53369
-0.777191,-0.39166,2.377,2.53131
-0.769475,-0.39166,2.377,2.52896
-0.76176,-0.39166,2.377,2.52662
-0.759438,-0.394461,2.394,2.54236
-0.751668,-0.394461,2.394,2.54005
-0.743897,-0.394461,2.394,2.53776
-0.736127,-0.394461,2.394,2.53549
-0.728357,-0.394461,2.394,2.53325
-0.720586,-0.394461,2.394,2.53102
-0.717878,-0.397262,2.411,2.54678
-0.710052,-0.397262,2.411,2.54458
-0.702227,-0.397262,2.411,2.54241
-0.694401,-0.397262,2.411,2.54026
-0.686576,-0.397262,2.411,2.53813
-0.67875,-0.397262,2.411,2.53603
-0.670925,-0.397262,2.411,2.53395
-0.663099,-0.397262,2.411,2.53188
-0.655274,-0.397262,2.411,2.52985
-0.652013,-0.400064,2.428,2.54565
-0.644133,-0.400064,2.428,2.54365
-0.636252,-0.400064,2.428,2.54166
-0.628371,-0.400064,2.428,2.5397
-0.620491,-0.400064,2.428,2.53776
-0.616899,-0.402865,2.445,2.5536
-0.608963,-0.402865,2.445,2.5517
-0.601027,-0.402865,2.445,2.54982
-0.593092,-0.402865,2.445,2.54796
-0.585156,-0.402865,2.445,2.54612
-0.57722,-0.402865,2.445,2.54431
-0.573475,-0.405831,2.463,2.56124
-0.565481,-0.405831,2.463,2.55946
-0.557486,-0.405831,2.463,2.55771
-0.549492,-0.405831,2.463,2.55598
-0.541498,-0.405831,2.463,2.55427
-0.533504,-0.405831,2.463,2.55259
-0.525509,-0.405831,2.463,2.55093
-0.517515,-0.405831,2.463,2.54929
-0.509521,-0.405831,2.463,2.54768
-0.505192,-0.408796,2.481,2.5647
-0.497139,-0.408796,2.481,2.56313
-0.489086,-0.408796,2.481,2.56158
-0.484524,-0.411762,2.499,2.57863
-0.476412,-0.411762,2.499,2.57711
-0.468301,-0.411762,2.499,2.57563
-0.46019,-0.411762,2.499,2.57416
-0.452079,-0.411762,2.499,2.57273
-0.443968,-0.411762,2.499,2.57131
-0.435857,-0.411762,2.499,2.56993
-0.427746,-0.411762,2.499,2.56856
-0.419634,-0.411762,2.499,2.56722
-0.408559,-0.408796,2.481,2.54743
-0.400506,-0.408796,2.481,2.54615
-0.392454,-0.408796,2.481,2.5449
-0.384401,-0.408796,2.481,2.54367
-0.376348,-0.408796,2.481,2.54246
-0.368296,-0.408796,2.481,2.54128
-0.360243,-0.408796,2.481,2.54013
-0.35219,-0.408796,2.481,2.539
-0.344137,-0.408796,2.481,2.53789
-0.336085,-0.408796,2.481,2.53681
-0.328032,-0.408796,2.481,2.53576
-0.319979,-0.408796,2.481,2.53473
-0.311927,-0.408796,2.481,2.53373
-0.301669,-0.405831,2.463,2.51437
-0.291529,-0.402865,2.445,2.49506
-0.283593,-0.402865,2.445,2.49414
-0.275657,-0.402865,2.445,2.49325
-0.267721,-0.402865,2.445,2.49239
-0.259785,-0.402865,2.445,2.49155
-0.251849,-0.402865,2.445,2.49073
-0.243914,-0.402865,2.445,2.48994
-0.235978,-0.402865,2.445,2.48918
-0.228042,-0.402865,2.445,2.48844
-0.220106,-0.402865,2.445,2.48772
-0.21217,-0.402865,2.445,2.48703
-0.204234,-0.402865,2.445,2.48637
-0.196298,-0.402865,2.445,2.48573
-0.188363,-0.402865,2.445,2.48512
-0.180427,-0.402865,2.445,2.48453
-0.172491,-0.402865,2.445,2.48396
-0.164555,-0.402865,2.445,2.48343
-0.156619,-0.402865,2.445,2.48291
-0.148683,-0.402865,2.445,2.48242
-0.140747,-0.402865,2.445,2.48196
-0.132812,-0.402865,2.445,2.48152
-0.125795,-0.405831,2.463,2.49938
-0.117801,-0.405831,2.463,2.49899
-0.109806,-0.405831,2.463,2.49862
-0.101812,-0.405831,2.463,2.49829
-0.0945035,-0.408796,2.481,2.51623
-0.0864508,-0.408796,2.481,2.51594
-0.078398,-0.408796,2.481,2.51568
-0.0703453,-0.408796,2.481,2.51544
-0.0622926,-0.408796,2.481,2.51522
-0.0546334,-0.411762,2.499,2.53329
-0.0465223,-0.411762,2.499,2.53312
-0.0384112,-0.411762,2.499,2.53299
-0.0305183,-0.414728,2.517,2.55112
-0.0223487,-0.414728,2.517,2.55104
-0.0141792,-0.414728,2.517,2.55098
-0.00600962,-0.414728,2.517,2.55095
0.00215994,-0.414728,2.517,2.55094
0.0103295,-0.414728,2.517,2.55096
0.0184991,-0.414728,2.517,2.55101
0.0266686,-0.414728,2.517,2.55108
0.0348382,-0.414728,2.517,2.55118
0.0430077,-0.414728,2.517,2.5513
0.0511773,-0.414728,2.517,2.55145
0.0593468,-0.414728,2.517,2.55163
0.0675164,-0.414728,2.517,2.55183
0.075686,-0.414728,2.517,2.55206
0.0838555,-0.414728,2.517,2.55232
0.0920251,-0.414728,2.517,2.5526
0.100195,-0.414728,2.517,2.55291
0.109182,-0.417859,2.536,2.57251
0.117413,-0.417859,2.536,2.57288
0.125645,-0.417859,2.536,2.57326
0.133876,-0.417859,2.536,2.57368
0.142107,-0.417859,2.536,2.57412
0.150338,-0.417859,2.536,2.57459
0.157382,-0.414728,2.517,2.55579
0.165551,-0.414728,2.517,2.55631
0.173721,-0.414728,2.517,2.55685
0.18189,-0.414728,2.517,2.55742
0.19006,-0.414728,2.517,2.55801
0.198229,-0.414728,2.517,2.55863
0.206399,-0.414728,2.517,2.55928
0.213034,-0.411762,2.499,2.54164
0.221145,-0.411762,2.499,2.54233
0.229256,-0.411762,2.499,2.54305
0.237367,-0.411762,2.499,2.54379
0.245479,-0.411762,2.499,2.54456
0.25359,-0.411762,2.499,2.54536
0.261701,-0.411762,2.499,2.54618
0.269812,-0.411762,2.499,2.54703
0.275921,-0.408796,2.481,2.52955
0.283974,-0.408796,2.481,2.53044
0.292027,-0.408796,2.481,2.53135
0.300079,-0.408796,2.481,2.5323
0.308132,-0.408796,2.481,2.53326
0.316185,-0.408796,2.481,2.53426
0.32659,-0.411762,2.499,2.55367
0.334701,-0.411762,2.499,2.55472
0.342812,-0.411762,2.499,2.55579
0.350923,-0.411762,2.499,2.55689
0.359034,-0.411762,2.499,2.55802
0.367146,-0.411762,2.499,2.55917
0.37796,-0.414728,2.517,2.57879
0.386129,-0.414728,2.517,2.58
0.394299,-0.414728,2.517,2.58123
0.402468,-0.414728,2.517,2.58249
0.413738,-0.417859,2.536,2.60328
0.421969,-0.417859,2.536,2.6046
0.4302,-0.417859,2.536,2.60595
0.438431,-0.417859,2.536,2.60732
0.446662,-0.417859,2.536,2.60872
0.454894,-0.417859,2.536,2.61014
0.466595,-0.420989,2.555,2.63115
0.474888,-0.420989,2.555,2.63264
0.48318,-0.420989,2.555,2.63415
0.491473,-0.420989,2.555,2.63568
0.499766,-0.420989,2.555,2.63724
0.504281,-0.417859,2.536,2.6192
0.512512,-0.417859,2.536,2.6208
0.520743,-0.417859,2.536,2.62242
0.528975,-0.417859,2.536,2.62406
0.537206,-0.417859,2.536,2.62574
0.545437,-0.417859,2.536,2.62743
0.553668,-0.417859,2.536,2.62915
0.566109,-0.420989,2.555,2.65061
0.574402,-0.420989,2.555,2.65239
0.582695,-0.420989,2.555,2.6542
0.590988,-0.420989,2.555,2.65604
0.594824,-0.417859,2.536,2.63813
0.603056,-0.417859,2.536,2.64
0.611287,-0.417859,2.536,2.64189
0.619518,-0.417859,2.536,2.64381
0.627749,-0.417859,2.536,2.64575
0.631216,-0.414728,2.517,2.62787
0.639385,-0.414728,2.517,2.62985
0.647555,-0.414728,2.517,2.63185
0.655725,-0.414728,2.517,2.63387
0.663894,-0.414728,2.517,2.63591
0.672064,-0.414728,2.517,2.63798
0.680233,-0.414728,2.517,2.64008
0.688403,-0.414728,2.517,2.64219
0.691591,-0.411762,2.499,2.62542
0.699702,-0.411762,2.499,2.62757
0.707813,-0.411762,2.499,2.62974
0.715924,-0.411762,2.499,2.63194
0.724035,-0.411762,2.499,2.63416
0.732147,-0.411762,2.499,2.6364
0.740258,-0.411762,2.499,2.63866
0.748369,-0.411762,2.499,2.64095
0.751031,-0.408796,2.481,2.62422
0.759084,-0.408796,2.481,2.62653
0.767137,-0.408796,2.481,2.62887
0.775189,-0.408796,2.481,2.63123
0.777559,-0.405831,2.463,2.61451
0.785554,-0.405831,2.463,2.6169
0.793548,-0.405831,2.463,2.61931
0.801542,-0.405831,2.463,2.62174
0.809537,-0.405831,2.463,2.6242
0.817531,-0.405831,2.463,2.62668
0.819492,-0.402865,2.445,2.60996
0.827428,-0.402865,2.445,2.61246
0.835364,-0.402865,2.445,2.61499
0.8433,-0.402865,2.445,2.61753
0.845317,-0.400064,2.428,2.60188
0.853198,-0.400064,2.428,2.60445
0.861078,-0.400064,2.428,2.60705
0.868959,-0.400064,2.428,2.60966
0.87684,-0.400064,2.428,2.61229
0.88472,-0.400064,2.428,2.61495
0.886351,-0.397262,2.411,2.5993
0.894177,-0.397262,2.411,2.60198
0.902002,-0.397262,2.411,2.60468
0.909828,-0.397262,2.411,2.6074
0.917653,-0.397262,2.411,2.61014
0.925479,-0.397262,2.411,2.6129
0.933304,-0.397262,2.411,2.61568
0.947766,-0.400064,2.428,2.63695
0.955646,-0.400064,2.428,2.63979
0.963527,-0.400064,2.428,2.64265
0.971408,-0.400064,2.428,2.64554
0.979289,-0.400064,2.428,2.64844
nan,nan,nan,NaN
nan,nan,nan,NaN
nan,nan,nan,NaN
nan,nan,nan,NaN
nan,nan,nan,NaN
nan,nan,nan,NaN
nan,nan,nan,NaN
nan,nan,nan,NaN
nan,nan,nan,NaN
nan,nan,nan,NaN
1.34213,-0.503704,3.057,3.37643
1.35205,-0.503704,3.057,3.38039
1.36197,-0.503704,3.057,3.38437
1.3719,-0.503704,3.057,3.38837
1.38182,-0.503704,3.057,3.3924
1.39174,-0.503704,3.057,3.39646
1.40166,-0.503704,3.057,3.40053
1.42405,-0.508153,3.084,3.43471
1.43406,-0.508153,3.084,3.43887
1.44407,-0.508153,3.084,3.44305
1.45408,-0.508153,3.084,3.44726
1.46409,-0.508153,3.084,3.4515
1.4741,-0.508153,3.084,3.45576
1.47112,-0.503704,3.057,3.42975
1.48104,-0.503704,3.057,3.43401
1.49096,-0.503704,3.057,3.4383
nan,nan,nan,NaN
nan,nan,nan,NaN
1.5073,-0.499256,3.03,3.42083
1.51713,-0.499256,3.03,3.42518
1.52697,-0.499256,3.03,3.42955
1.5368,-0.499256,3.03,3.43394
1.56042,-0.503704,3.057,3.46899
1.58421,-0.508153,3.084,3.50414
1.59422,-0.508153,3.084,3.50868
1.6188,-0.512767,3.112,3.54513
1.65925,-0.522323,3.17,3.61592
1.70114,-0.53221,3.23,3.68918
1.71163,-0.53221,3.23,3.69402
1.73811,-0.537153,3.26,3.73325
1.78302,-0.547698,3.324,3.81157
1.79381,-0.547698,3.324,3.81663
1.82197,-0.552971,3.356,3.85851
1.85088,-0.558408,3.389,3.90165
1.86188,-0.558408,3.389,3.90689
1.89167,-0.564011,3.423,3.95139
1.90278,-0.564011,3.423,3.95672
1.91389,-0.564011,3.423,3.96207
1.925,-0.564011,3.423,3.96745
1.93611,-0.564011,3.423,3.97285
1.94722,-0.564011,3.423,3.97828
1.95833,-0.564011,3.423,3.98373
1.96944,-0.564011,3.423,3.9892
1.98055,-0.564011,3.423,3.9947
1.99166,-0.564011,3.423,4.00022
2.00277,-0.564011,3.423,4.00576
2.01389,-0.564011,3.423,4.01133
2.00488,-0.558408,3.389,3.97702
1.99625,-0.552971,3.356,3.9438
1.98801,-0.547698,3.324,3.91166
1.99879,-0.547698,3.324,3.91716
1.99024,-0.542426,3.292,3.88491
2.00092,-0.542426,3.292,3.8904
2.01161,-0.542426,3.292,3.8959
2.00264,-0.537153,3.26,3.86351
1.97555,-0.527102,3.199,3.79661
1.98593,-0.527102,3.199,3.80202
1.94202,-0.512767,3.112,3.70391
1.95212,-0.512767,3.112,3.70921
nan,nan,nan,NaN
1.87028,-0.486239,2.951,3.52743
1.83272,-0.474046,2.877,3.44394
1.84206,-0.474046,2.877,3.44892
1.82051,-0.466137,2.829,3.39629
1.79994,-0.458557,2.783,3.34592
1.80897,-0.458557,2.783,3.35078
1.80364,-0.454932,2.761,3.32914
1.78371,-0.447682,2.717,3.28087
1.79253,-0.447682,2.717,3.28568
1.7735,-0.440762,2.675,3.23963
1.76819,-0.437302,2.654,3.21892
1.76275,-0.433842,2.633,3.19815
1.77129,-0.433842,2.633,3.20287
1.76632,-0.430546,2.613,3.18324
1.7748,-0.430546,2.613,3.18796
-2.50021,-0.58214,3.604,4.42479
-2.46228,-0.576002,3.566,4.37161
-2.4507,-0.576002,3.566,4.3651
-2.43913,-0.576002,3.566,4.35861
-2.37786,-0.56421,3.493,4.26305
-2.36652,-0.56421,3.493,4.25674
-2.30799,-0.552903,3.423,4.16526
-2.29688,-0.552903,3.423,4.15912
-2.28577,-0.552903,3.423,4.15299
-2.25206,-0.547412,3.389,4.1057
-2.24106,-0.547412,3.389,4.09968
-2.23006,-0.547412,3.389,4.09367
-2.21906,-0.547412,3.389,4.08769
-2.20806,-0.547412,3.389,4.08173
-2.19706,-0.547412,3.389,4.07579
-2.20799,-0.552903,3.423,4.1107
-2.19688,-0.552903,3.423,4.10474
-2.18577,-0.552903,3.423,4.09881
-2.17466,-0.552903,3.423,4.0929
-2.16355,-0.552903,3.423,4.087
-2.17445,-0.558557,3.458,4.12286
-2.16323,-0.558557,3.458,4.11695
-2.152,-0.558557,3.458,4.11107
-2.14078,-0.558557,3.458,4.1052
-2.108,-0.552903,3.423,4.05787
-2.09689,-0.552903,3.423,4.05211
-2.08578,-0.552903,3.423,4.04637
-2.07467,-0.552903,3.423,4.04066
-2.06356,-0.552903,3.423,4.03496
-2.05245,-0.552903,3.423,4.02929
-2.04134,-0.552903,3.423,4.02364
nan,nan,nan,NaN
nan,nan,nan,NaN
nan,nan,nan,NaN
nan,nan,nan,NaN
nan,nan,nan,NaN
nan,nan,nan,NaN
nan,nan,nan,NaN
nan,nan,nan,NaN
nan,nan,nan,NaN
nan,nan,nan,NaN
nan,nan,nan,NaN
nan,nan,nan,NaN
nan,nan,nan,NaN
nan,nan,nan,NaN
nan,nan,nan,NaN
nan,nan,nan,NaN
nan,nan,nan,NaN
nan,nan,nan,NaN
nan,nan,nan,NaN
nan,nan,nan,NaN
nan,nan,nan,NaN
nan,nan,nan,NaN
nan,nan,nan,NaN
nan,nan,nan,NaN
nan,nan,nan,NaN
nan,nan,nan,NaN
nan,nan,nan,NaN
nan,nan,nan,NaN
nan,nan,nan,NaN
nan,nan,nan,NaN
nan,nan,nan,NaN
-1.1549,-0.378778,2.345,2.64127
-1.14729,-0.378778,2.345,2.63795
-1.13968,-0.378778,2.345,2.63465
-1.13979,-0.381363,2.361,2.64932
-1.13213,-0.381363,2.361,2.64603
-1.12447,-0.381363,2.361,2.64276
-1.1168,-0.381363,2.361,2.63951
-1.10914,-0.381363,2.361,2.63628
-1.10148,-0.381363,2.361,2.63306
-1.09381,-0.381363,2.361,2.62986
-1.08615,-0.381363,2.361,2.62669
-1.07849,-0.381363,2.361,2.62353
-1.07082,-0.381363,2.361,2.62039
-1.06316,-0.381363,2.361,2.61726
-1.0555,-0.381363,2.361,2.61416
-1.04784,-0.381363,2.361,2.61108
-1.04017,-0.381363,2.361,2.60801
-1.03251,-0.381363,2.361,2.60496
-1.02485,-0.381363,2.361,2.60194
-1.01718,-0.381363,2.361,2.59893
-1.00952,-0.381363,2.361,2.59594
-1.00186,-0.381363,2.361,2.59297
-0.994193,-0.381363,2.361,2.59001
-0.993215,-0.383947,2.377,2.60462
-0.9855,-0.383947,2.377,2.60168
-0.977785,-0.383947,2.377,2.59877
-0.96354,-0.381363,2.361,2.5784
-0.955876,-0.381363,2.361,2.57555
-0.948213,-0.381363,2.361,2.57272
-0.94055,-0.381363,2.361,2.5699
-0.932887,-0.381363,2.361,2.56711
-0.925224,-0.381363,2.361,2.56433
-0.91756,-0.381363,2.361,2.56158
-0.909897,-0.381363,2.361,2.55884
-0.902234,-0.381363,2.361,2.55613
-0.894571,-0.381363,2.361,2.55343
-0.886907,-0.381363,2.361,2.55076
-0.885203,-0.383947,2.377,2.56537
-0.877488,-0.383947,2.377,2.56272
-0.869772,-0.383947,2.377,2.56009
-0.862057,-0.383947,2.377,2.55748
-0.854342,-0.383947,2.377,2.55489
-0.846627,-0.383947,2.377,2.55232
-0.838912,-0.383947,2.377,2.54977
-0.831197,-0.383947,2.377,2.54724
-0.823481,-0.383947,2.377,2.54473
-0.815766,-0.383947,2.377,2.54225
-0.808051,-0.383947,2.377,2.53978
-0.800336,-0.383947,2.377,2.53734
-0.79829,-0.386693,2.394,2.55304
-0.790519,-0.386693,2.394,2.55063
-0.782749,-0.386693,2.394,2.54823
-0.769475,-0.383947,2.377,2.52777
-0.76176,-0.383947,2.377,2.52544
-0.759438,-0.386693,2.394,2.54116
-0.751668,-0.386693,2.394,2.53885
-0.743897,-0.386693,2.394,2.53656
-0.736127,-0.386693,2.394,2.53429
-0.728357,-0.386693,2.394,2.53205
-0.720586,-0.386693,2.394,2.52982
-0.717878,-0.389439,2.411,2.54557
-0.710052,-0.389439,2.411,2.54338
-0.702227,-0.389439,2.411,2.5412
-0.694401,-0.389439,2.411,2.53905
-0.686576,-0.389439,2.411,2.53692
-0.67875,-0.389439,2.411,2.53481
-0.670925,-0.389439,2.411,2.53273
-0.663099,-0.389439,2.411,2.53067
-0.655274,-0.389439,2.411,2.52863
-0.652013,-0.392185,2.428,2.54443
-0.644133,-0.392185,2.428,2.54242
-0.636252,-0.392185,2.428,2.54044
-0.628371,-0.392185,2.428,2.53847
-0.620491,-0.392185,2.428,2.53653
-0.616899,-0.394931,2.445,2.55236
-0.608963,-0.394931,2.445,2.55046
-0.601027,-0.394931,2.445,2.54857
-0.593092,-0.394931,2.445,2.54671
-0.585156,-0.394931,2.445,2.54488
-0.57722,-0.394931,2.445,2.54306
-0.573475,-0.397838,2.463,2.55998
-0.565481,-0.397838,2.463,2.55821
-0.557486,-0.397838,2.463,2.55645
-0.549492,-0.397838,2.463,2.55472
-0.541498,-0.397838,2.463,2.55301
-0.533504,-0.397838,2.463,2.55133
-0.525509,-0.397838,2.463,2.54967
-0.517515,-0.397838,2.463,2.54803
-0.509521,-0.397838,2.463,2.54642
-0.505192,-0.400746,2.481,2.56343
-0.497139,-0.400746,2.481,2.56186
-0.489086,-0.400746,2.481,2.56031
-0.484524,-0.403653,2.499,2.57734
-0.476412,-0.403653,2.499,2.57583
-0.468301,-0.403653,2.499,2.57434
-0.46019,-0.403653,2.499,2.57288
-0.452079,-0.403653,2.499,2.57144
-0.443968,-0.403653,2.499,2.57003
-0.435857,-0.403653,2.499,2.56864
-0.427746,-0.403653,2.499,2.56728
-0.419634,-0.403653,2.499,2.56594
-0.408559,-0.400746,2.481,2.54615
-0.400506,-0.400746,2.481,2.54487
-0.392454,-0.400746,2.481,2.54362
-0.384401,-0.400746,2.481,2.54239
-0.376348,-0.400746,2.481,2.54118
-0.368296,-0.400746,2.481,2.54
-0.360243,-0.400746,2.481,2.53885
-0.35219,-0.400746,2.481,2.53771
-0.344137,-0.400746,2.481,2.53661
-0.336085,-0.400746,2.481,2.53553
-0.328032,-0.400746,2.481,2.53448
-0.319979,-0.400746,2.481,2.53345
-0.311927,-0.400746,2.481,2.53244
-0.301669,-0.397838,2.463,2.5131
-0.293675,-0.397838,2.463,2.51215
-0.285681,-0.397838,2.463,2.51123
-0.275657,-0.394931,2.445,2.49198
-0.267721,-0.394931,2.445,2.49112
-0.259785,-0.394931,2.445,2.49028
-0.253704,-0.397838,2.463,2.50779
-0.245709,-0.397838,2.463,2.50699
-0.237715,-0.397838,2.463,2.50622
-0.229721,-0.397838,2.463,2.50548
-0.221726,-0.397838,2.463,2.50476
-0.213732,-0.397838,2.463,2.50406
-0.205738,-0.397838,2.463,2.50339
-0.197744,-0.397838,2.463,2.50275
-0.189749,-0.397838,2.463,2.50213
-0.181755,-0.397838,2.463,2.50154
-0.173761,-0.397838,2.463,2.50097
-0.165766,-0.397838,2.463,2.50042
-0.157772,-0.397838,2.463,2.49991
-0.149778,-0.397838,2.463,2.49942
-0.141784,-0.397838,2.463,2.49895
-0.133789,-0.397838,2.463,2.49851
-0.125795,-0.397838,2.463,2.49809
-0.117801,-0.397838,2.463,2.4977
-0.110609,-0.400746,2.481,2.51559
-0.102556,-0.400746,2.481,2.51525
-0.0945035,-0.400746,2.481,2.51493
-0.0864508,-0.400746,2.481,2.51464
-0.0789668,-0.403653,2.499,2.53262
-0.0708557,-0.403653,2.499,2.53238
-0.0627446,-0.403653,2.499,2.53217
-0.0546334,-0.403653,2.499,2.53198
-0.0465223,-0.403653,2.499,2.53182
-0.0384112,-0.403653,2.499,2.53168
-0.0305183,-0.406561,2.517,2.54981
-0.0223487,-0.406561,2.517,2.54972
-0.0141792,-0.406561,2.517,2.54966
-0.00600962,-0.406561,2.517,2.54963
0.00215994,-0.406561,2.517,2.54962
0.0103295,-0.406561,2.517,2.54964
0.0184991,-0.406561,2.517,2.54969
0.0266686,-0.406561,2.517,2.54976
0.0351011,-0.40963,2.536,2.56911
0.0433324,-0.40963,2.536,2.56924
0.0515636,-0.40963,2.536,2.56939
0.0597948,-0.40963,2.536,2.56957
0.0680261,-0.40963,2.536,2.56977
0.0762573,-0.40963,2.536,2.57
0.0844885,-0.40963,2.536,2.57026
0.0927197,-0.40963,2.536,2.57054
0.100951,-0.40963,2.536,2.57085
0.109182,-0.40963,2.536,2.57119
0.117413,-0.40963,2.536,2.57155
0.125645,-0.40963,2.536,2.57194
0.133876,-0.40963,2.536,2.57236
0.142107,-0.40963,2.536,2.5728
0.150338,-0.40963,2.536,2.57327
0.15857,-0.40963,2.536,2.57376
0.166801,-0.40963,2.536,2.57428
0.175032,-0.40963,2.536,2.57483
0.18189,-0.406561,2.517,2.5561
0.19006,-0.406561,2.517,2.5567
0.198229,-0.406561,2.517,2.55732
0.206399,-0.406561,2.517,2.55796
0.214568,-0.406561,2.517,2.55864
0.222738,-0.406561,2.517,2.55933
0.230908,-0.406561,2.517,2.56006
0.237367,-0.403653,2.499,2.5425
0.245479,-0.403653,2.499,2.54327
0.25359,-0.403653,2.499,2.54406
0.261701,-0.403653,2.499,2.54488
0.269812,-0.403653,2.499,2.54573
0.275921,-0.400746,2.481,2.52826
0.283974,-0.400746,2.481,2.52915
0.292027,-0.400746,2.481,2.53007
0.302256,-0.403653,2.499,2.54937
0.310368,-0.403653,2.499,2.55035
0.318479,-0.403653,2.499,2.55135
0.32659,-0.403653,2.499,2.55237
0.334701,-0.403653,2.499,2.55342
0.342812,-0.403653,2.499,2.5545
0.350923,-0.403653,2.499,2.5556
0.359034,-0.403653,2.499,2.55673
0.367146,-0.403653,2.499,2.55788
0.37796,-0.406561,2.517,2.57749
0.386129,-0.406561,2.517,2.5787
0.394299,-0.406561,2.517,2.57993
0.402468,-0.406561,2.517,2.58119
0.413738,-0.40963,2.536,2.60197
0.421969,-0.40963,2.536,2.6033
0.4302,-0.40963,2.536,2.60464
0.441716,-0.412699,2.555,2.62554
0.450009,-0.412699,2.555,2.62695
0.458302,-0.412699,2.555,2.62838
0.466595,-0.412699,2.555,2.62984
0.474888,-0.412699,2.555,2.63132
0.48318,-0.412699,2.555,2.63283
0.491473,-0.412699,2.555,2.63437
0.499766,-0.412699,2.555,2.63593
0.504281,-0.40963,2.536,2.6179
0.512512,-0.40963,2.536,2.6195
0.520743,-0.40963,2.536,2.62112
0.528975,-0.40963,2.536,2.62277
0.537206,-0.40963,2.536,2.62444
0.545437,-0.40963,2.536,2.62614
0.553668,-0.40963,2.536,2.62786
0.566109,-0.412699,2.555,2.64931
0.574402,-0.412699,2.555,2.65109
0.582695,-0.412699,2.555,2.6529
0.590988,-0.412699,2.555,2.65473
0.594824,-0.40963,2.536,2.63684
0.603056,-0.40963,2.536,2.63871
0.611287,-0.40963,2.536,2.6406
0.619518,-0.40963,2.536,2.64252
0.627749,-0.40963,2.536,2.64446
0.631216,-0.406561,2.517,2.6266
0.639385,-0.406561,2.517,2.62857
0.647555,-0.406561,2.517,2.63057
0.655725,-0.406561,2.517,2.6326
0.663894,-0.406561,2.517,2.63464
0.672064,-0.406561,2.517,2.63671
0.680233,-0.406561,2.517,2.63881
0.688403,-0.406561,2.517,2.64092
0.691591,-0.403653,2.499,2.62416
0.699702,-0.403653,2.499,2.62631
0.707813,-0.403653,2.499,2.62849
0.715924,-0.403653,2.499,2.63068
0.724035,-0.403653,2.499,2.6329
0.732147,-0.403653,2.499,2.63514
0.740258,-0.403653,2.499,2.63741
0.748369,-0.403653,2.499,2.6397
0.751031,-0.400746,2.481,2.62298
0.759084,-0.400746,2.481,2.62529
0.767137,-0.400746,2.481,2.62763
0.775189,-0.400746,2.481,2.63
0.777559,-0.397838,2.463,2.61328
0.785554,-0.397838,2.463,2.61567
0.793548,-0.397838,2.463,2.61808
