-0.38719,-0.119844,2.499,2.53166
-0.379079,-0.119844,2.499,2.53043
-0.37364,-0.120707,2.517,2.54744
-0.36547,-0.120707,2.517,2.54626
-0.357301,-0.120707,2.517,2.5451
-0.349131,-0.120707,2.517,2.54396
-0.340961,-0.120707,2.517,2.54286
-0.332792,-0.120707,2.517,2.54177
-0.324622,-0.120707,2.517,2.54072
-0.316453,-0.120707,2.517,2.53969
-0.308283,-0.120707,2.517,2.53868
-0.300114,-0.120707,2.517,2.5377
-0.289856,-0.119844,2.499,2.51861
-0.281745,-0.119844,2.499,2.51769
-0.273634,-0.119844,2.499,2.51679
-0.265523,-0.119844,2.499,2.51592
-0.257412,-0.119844,2.499,2.51508
-0.249301,-0.119844,2.499,2.51426
-0.24119,-0.119844,2.499,2.51347
-0.2314,-0.118981,2.481,2.49461
-0.223347,-0.118981,2.481,2.49387
-0.215294,-0.118981,2.481,2.49316
-0.208745,-0.119844,2.499,2.51057
-0.200634,-0.119844,2.499,2.5099
-0.192523,-0.119844,2.499,2.50927
-0.184412,-0.119844,2.499,2.50866
-0.1763,-0.119844,2.499,2.50808
-0.168189,-0.119844,2.499,2.50752
-0.160078,-0.119844,2.499,2.50699
-0.151967,-0.119844,2.499,2.50648
-0.143856,-0.119844,2.499,2.506
-0.135745,-0.119844,2.499,2.50555
-0.127634,-0.119844,2.499,2.50513
-0.119523,-0.119844,2.499,2.50473
-0.111411,-0.119844,2.499,2.50435
-0.1033,-0.119844,2.499,2.504
-0.0951891,-0.119844,2.499,2.50368
-0.087078,-0.119844,2.499,2.50339
-0.0789668,-0.119844,2.499,2.50312
-0.0708557,-0.119844,2.499,2.50288
-0.0627446,-0.119844,2.499,2.50266
-0.0546334,-0.119844,2.499,2.50247
-0.0465223,-0.119844,2.499,2.5023
-0.0384112,-0.119844,2.499,2.50217
-0.0303,-0.119844,2.499,2.50206
-0.0220291,-0.118981,2.481,2.48395
-0.0139764,-0.118981,2.481,2.48389
-0.00592366,-0.118981,2.481,2.48386
0.00212905,-0.118981,2.481,2.48385
0.0101818,-0.118981,2.481,2.48387
0.0182345,-0.118981,2.481,2.48392
0.0262872,-0.118981,2.481,2.48399
0.0343399,-0.118981,2.481,2.48409
0.0423926,-0.118981,2.481,2.48421
0.0504453,-0.118981,2.481,2.48436
0.058498,-0.118981,2.481,2.48454
0.0665507,-0.118981,2.481,2.48474
0.0746034,-0.118981,2.481,2.48497
0.0832558,-0.119844,2.499,2.50326
0.091367,-0.119844,2.499,2.50354
0.0987616,-0.118981,2.481,2.48581
0.106814,-0.118981,2.481,2.48615
0.1157,-0.119844,2.499,2.50455
0.123811,-0.119844,2.499,2.50493
0.131923,-0.119844,2.499,2.50535
0.140034,-0.119844,2.499,2.50579
0.148145,-0.119844,2.499,2.50625
0.156256,-0.119844,2.499,2.50675
0.164367,-0.119844,2.499,2.50727
0.172478,-0.119844,2.499,2.50781
0.180589,-0.119844,2.499,2.50838
0.188701,-0.119844,2.499,2.50898
0.196812,-0.119844,2.499,2.5096
0.204923,-0.119844,2.499,2.51025
0.2115,-0.118981,2.481,2.49284
0.219552,-0.118981,2.481,2.49354
0.227605,-0.118981,2.481,2.49426
0.233948,-0.118117,2.463,2.4769
0.241942,-0.118117,2.463,2.47767
0.249936,-0.118117,2.463,2.47847
0.257931,-0.118117,2.463,2.47928
0.265925,-0.118117,2.463,2.48013
0.273919,-0.118117,2.463,2.481
0.281914,-0.118117,2.463,2.48189
0.287789,-0.117254,2.445,2.46467
0.295725,-0.117254,2.445,2.46561
0.303661,-0.117254,2.445,2.46657
0.313891,-0.118117,2.463,2.48573
0.321885,-0.118117,2.463,2.48675
0.329879,-0.118117,2.463,2.4878
0.337874,-0.118117,2.463,2.48887
0.345868,-0.118117,2.463,2.48997
0.353862,-0.118117,2.463,2.49109
0.361856,-0.118117,2.463,2.49224
0.372554,-0.118981,2.481,2.51164
0.380606,-0.118981,2.481,2.51284
0.388659,-0.118981,2.481,2.51408
0.396712,-0.118981,2.481,2.51533
0.404765,-0.118981,2.481,2.51662
0.412817,-0.118981,2.481,2.51792
0.42087,-0.118981,2.481,2.51926
0.428923,-0.118981,2.481,2.52061
0.436975,-0.118981,2.481,2.522
0.445028,-0.118981,2.481,2.5234
0.453081,-0.118981,2.481,2.52484
0.461134,-0.118981,2.481,2.52629
0.465782,-0.118117,2.463,2.50944
0.473776,-0.118117,2.463,2.51093
0.481771,-0.118117,2.463,2.51245
0.489765,-0.118117,2.463,2.514
0.497759,-0.118117,2.463,2.51557
0.505754,-0.118117,2.463,2.51716
0.513748,-0.118117,2.463,2.51878
0.521742,-0.118117,2.463,2.52042
0.529737,-0.118117,2.463,2.52209
0.537731,-0.118117,2.463,2.52378
0.545725,-0.118117,2.463,2.5255
0.553719,-0.118117,2.463,2.52724
0.561714,-0.118117,2.463,2.529
0.569708,-0.118117,2.463,2.53079
0.577702,-0.118117,2.463,2.5326
0.585697,-0.118117,2.463,2.53444
0.593691,-0.118117,2.463,2.53629
0.606082,-0.118981,2.481,2.55673
0.614135,-0.118981,2.481,2.55865
0.622188,-0.118981,2.481,2.56059
0.63024,-0.118981,2.481,2.56256
0.638293,-0.118981,2.481,2.56455
0.646346,-0.118981,2.481,2.56657
0.654399,-0.118981,2.481,2.56861
0.662451,-0.118981,2.481,2.57067
0.670504,-0.118981,2.481,2.57276
0.678557,-0.118981,2.481,2.57487
0.686609,-0.118981,2.481,2.577
0.699702,-0.119844,2.499,2.59787
0.707813,-0.119844,2.499,2.60007
0.715924,-0.119844,2.499,2.60229
0.724035,-0.119844,2.499,2.60453
0.732147,-0.119844,2.499,2.6068
0.740258,-0.119844,2.499,2.60909
0.753759,-0.120707,2.517,2.63021
0.761929,-0.120707,2.517,2.63256
0.770098,-0.120707,2.517,2.63494
0.778268,-0.120707,2.517,2.63734
0.786437,-0.120707,2.517,2.63976
0.794607,-0.120707,2.517,2.64221
0.802777,-0.120707,2.517,2.64468
0.817068,-0.121618,2.536,2.66715
0.819116,-0.120707,2.517,2.64968
0.827285,-0.120707,2.517,2.65222
0.835455,-0.120707,2.517,2.65478
0.843624,-0.120707,2.517,2.65736
0.851794,-0.120707,2.517,2.65996
0.859963,-0.120707,2.517,2.66259
0.868133,-0.120707,2.517,2.66524
0.870036,-0.119844,2.499,2.64883
0.878147,-0.119844,2.499,2.65151
0.886258,-0.119844,2.499,2.65421
0.887927,-0.118981,2.481,2.63779
0.889479,-0.118117,2.463,2.62135
0.897474,-0.118117,2.463,2.62408
0.898851,-0.117254,2.445,2.60762
0.900482,-0.116439,2.428,2.59222
0.902002,-0.115624,2.411,2.5768
0.909828,-0.115624,2.411,2.57955
0.911183,-0.114808,2.394,2.56411
0.906286,-0.113226,2.361,2.5315
0.913949,-0.113226,2.361,2.53425
0.921612,-0.113226,2.361,2.53703
0.922978,-0.112458,2.345,2.52261
0.930589,-0.112458,2.345,2.5254
0.938201,-0.112458,2.345,2.52822
0.939359,-0.111691,2.329,2.51378
0.946918,-0.111691,2.329,2.51662
0.954477,-0.111691,2.329,2.51947
0.962037,-0.111691,2.329,2.52235
0.969596,-0.111691,2.329,2.52524
0.977155,-0.111691,2.329,2.52815
0.998245,-0.113226,2.361,2.56586
1.03445,-0.116439,2.428,2.64175
1.08054,-0.120707,2.517,2.74179
1.08871,-0.120707,2.517,2.74502
1.13,-0.124352,2.593,2.83126
1.22183,-0.133464,2.783,3.04233
1.23087,-0.133464,2.783,3.04597
1.2399,-0.133464,2.783,3.04963
1.31311,-0.140321,2.926,3.2102
1.35741,-0.144014,3.003,3.29868
1.36716,-0.144014,3.003,3.30271
1.42688,-0.149241,3.112,3.42678
1.45037,-0.150632,3.141,3.46297
1.46057,-0.150632,3.141,3.46725
1.47076,-0.150632,3.141,3.47156
1.48096,-0.150632,3.141,3.47589
1.49115,-0.150632,3.141,3.48024
1.50135,-0.150632,3.141,3.48463
1.51154,-0.150632,3.141,3.48903
1.52174,-0.150632,3.141,3.49346
1.53193,-0.150632,3.141,3.49791
1.54213,-0.150632,3.141,3.50239
1.55232,-0.150632,3.141,3.50689
1.56252,-0.150632,3.141,3.51141
1.57271,-0.150632,3.141,3.51596
1.58291,-0.150632,3.141,3.52053
1.5931,-0.150632,3.141,3.52513
1.6033,-0.150632,3.141,3.52975
1.64328,-0.153413,3.199,3.59966
1.66969,-0.1549,3.23,3.63934
1.68018,-0.1549,3.23,3.64416
1.70636,-0.156339,3.26,3.6829
1.7338,-0.157873,3.292,3.72401
1.74448,-0.157873,3.292,3.729
1.78929,-0.160943,3.356,3.8066
1.80018,-0.160943,3.356,3.81173
1.82888,-0.162525,3.389,3.85442
1.83988,-0.162525,3.389,3.85965
1.85088,-0.162525,3.389,3.86491
1.88056,-0.164156,3.423,3.90901
1.87288,-0.162525,3.389,3.87549
1.86554,-0.160943,3.356,3.84303
1.87643,-0.160943,3.356,3.84833
1.88732,-0.160943,3.356,3.85365
1.89822,-0.160943,3.356,3.859
1.90911,-0.160943,3.356,3.86437
1.92,-0.160943,3.356,3.86976
1.91248,-0.159408,3.324,3.83823
1.90476,-0.157873,3.292,3.80661
1.91544,-0.157873,3.292,3.81197
1.92613,-0.157873,3.292,3.81735
1.91799,-0.156339,3.26,3.78559
1.92857,-0.156339,3.26,3.79096
1.93915,-0.156339,3.26,3.79636
1.93179,-0.1549,3.23,3.76679
1.94227,-0.1549,3.23,3.77218
1.93401,-0.153413,3.199,3.74133
1.92677,-0.152023,3.17,3.71274
1.93706,-0.152023,3.17,3.71809
1.91172,-0.149241,3.112,3.65534
1.88785,-0.146604,3.057,3.59593
1.89778,-0.146604,3.057,3.60115
1.89085,-0.145309,3.03,3.57454
1.86744,-0.142767,2.977,3.51713
1.8771,-0.142767,2.977,3.52227
1.85444,-0.140321,2.926,3.467
1.84801,-0.139122,2.901,3.44243
1.82669,-0.13682,2.853,3.39045
1.82051,-0.135669,2.829,3.36688
1.81482,-0.134567,2.806,3.34444
1.79467,-0.132408,2.761,3.29568
1.80364,-0.132408,2.761,3.30057
1.76992,-0.129291,2.696,3.22766
1.76482,-0.128284,2.675,3.20728
1.7735,-0.128284,2.675,3.21207
1.7542,-0.12627,2.633,3.16636
1.74936,-0.125311,2.613,3.14702
1.75784,-0.125311,2.613,3.15174
1.7528,-0.124352,2.593,3.13232
1.74831,-0.123441,2.574,3.11405
-2.12074,-0.136684,3.057,3.7231
-2.09218,-0.135477,3.03,3.68462
-2.08234,-0.135477,3.03,3.67905
-2.05404,-0.13427,3.003,3.64076
-2.00889,-0.131945,2.951,3.57232
-1.99931,-0.131945,2.951,3.56694
-1.97288,-0.130827,2.926,3.53141
-1.94661,-0.129709,2.901,3.49598
-1.93719,-0.129709,2.901,3.49075
-1.91183,-0.128636,2.877,3.4567
-1.90249,-0.128636,2.877,3.45154
-1.87736,-0.127563,2.853,3.41765
-1.8681,-0.127563,2.853,3.41258
-1.85884,-0.127563,2.853,3.40752
-1.86514,-0.128636,2.877,3.43109
-1.87128,-0.129709,2.901,3.45461
-1.86186,-0.129709,2.901,3.44952
nan,nan,nan,NaN
nan,nan,nan,NaN
-1.84942,-0.130827,2.926,3.46395
-1.83992,-0.130827,2.926,3.45889
-1.83042,-0.130827,2.926,3.45384
-1.82093,-0.130827,2.926,3.44882
-1.81143,-0.130827,2.926,3.44382
-1.78654,-0.129709,2.901,3.40945
-1.77712,-0.129709,2.901,3.40452
-1.7677,-0.129709,2.901,3.39962
-1.74374,-0.128636,2.877,3.36665
-1.7344,-0.128636,2.877,3.36182
-1.72507,-0.128636,2.877,3.35701
-1.70142,-0.127563,2.853,3.32426
-1.69216,-0.127563,2.853,3.31953
-1.66874,-0.12649,2.829,3.28693
-1.64606,-0.125461,2.806,3.2556
-1.62354,-0.124433,2.783,3.22435
-1.61451,-0.124433,2.783,3.21981
-1.60547,-0.124433,2.783,3.21529
-1.59644,-0.124433,2.783,3.21079
nan,nan,nan,NaN
nan,nan,nan,NaN
nan,nan,nan,NaN
nan,nan,nan,NaN
nan,nan,nan,NaN
nan,nan,nan,NaN
nan,nan,nan,NaN
nan,nan,nan,NaN
nan,nan,nan,NaN
nan,nan,nan,NaN
nan,nan,nan,NaN
nan,nan,nan,NaN
nan,nan,nan,NaN
nan,nan,nan,NaN
nan,nan,nan,NaN
nan,nan,nan,NaN
nan,nan,nan,NaN
nan,nan,nan,NaN
nan,nan,nan,NaN
nan,nan,nan,NaN
nan,nan,nan,NaN
nan,nan,nan,NaN
nan,nan,nan,NaN
nan,nan,nan,NaN
-1.24897,-0.113389,2.536,2.82915
-1.23144,-0.11254,2.517,2.80436
-1.22327,-0.11254,2.517,2.80078
-1.2151,-0.11254,2.517,2.79722
-1.1983,-0.111735,2.499,2.7737
-1.19019,-0.111735,2.499,2.77021
-1.18208,-0.111735,2.499,2.76673
-1.16551,-0.11093,2.481,2.74337
-1.14906,-0.110125,2.463,2.72008
-1.14107,-0.110125,2.463,2.71671
-1.12479,-0.109321,2.445,2.69354
-1.11686,-0.109321,2.445,2.69023
-1.10892,-0.109321,2.445,2.68695
-1.09333,-0.10856,2.428,2.66502
-1.08545,-0.10856,2.428,2.6618
-1.07757,-0.10856,2.428,2.6586
-1.0622,-0.1078,2.411,2.63682
-1.05437,-0.1078,2.411,2.63368
-1.04655,-0.1078,2.411,2.63055
-1.0314,-0.10704,2.394,2.60892
-1.02363,-0.10704,2.394,2.60586
-1.01586,-0.10704,2.394,2.60282
-1.00809,-0.10704,2.394,2.5998
-1.00032,-0.10704,2.394,2.59679
-0.992548,-0.10704,2.394,2.59381
-0.984778,-0.10704,2.394,2.59085
-0.977007,-0.10704,2.394,2.5879
-0.969237,-0.10704,2.394,2.58498
-0.961466,-0.10704,2.394,2.58208
-0.953696,-0.10704,2.394,2.57919
-0.945926,-0.10704,2.394,2.57633
-0.938156,-0.10704,2.394,2.57349
-0.930385,-0.10704,2.394,2.57066
-0.916063,-0.10628,2.377,2.54963
-0.908348,-0.10628,2.377,2.54686
-0.900633,-0.10628,2.377,2.54412
-0.892918,-0.10628,2.377,2.5414
-0.885203,-0.10628,2.377,2.5387
-0.877488,-0.10628,2.377,2.53602
-0.869772,-0.10628,2.377,2.53336
-0.862057,-0.10628,2.377,2.53072
-0.854342,-0.10628,2.377,2.52811
-0.846627,-0.10628,2.377,2.52551
-0.838912,-0.10628,2.377,2.52293
-0.831197,-0.10628,2.377,2.52038
-0.823481,-0.10628,2.377,2.51785
-0.815766,-0.10628,2.377,2.51533
-0.808051,-0.10628,2.377,2.51284
-0.800336,-0.10628,2.377,2.51037
-0.792621,-0.10628,2.377,2.50792
-0.784906,-0.10628,2.377,2.50549
-0.777191,-0.10628,2.377,2.50309
-0.769475,-0.10628,2.377,2.5007
-0.767208,-0.10704,2.394,2.51621
-0.759438,-0.10704,2.394,2.51385
-0.751668,-0.10704,2.394,2.51151
-0.743897,-0.10704,2.394,2.5092
-0.736127,-0.10704,2.394,2.50691
-0.728357,-0.10704,2.394,2.50464
-0.720586,-0.10704,2.394,2.50239
-0.712816,-0.10704,2.394,2.50016
-0.705046,-0.10704,2.394,2.49796
-0.697275,-0.10704,2.394,2.49577
-0.689505,-0.10704,2.394,2.49361
-0.681735,-0.10704,2.394,2.49148
-0.673964,-0.10704,2.394,2.48936
-0.666194,-0.10704,2.394,2.48727
-0.658424,-0.10704,2.394,2.4852
-0.650653,-0.10704,2.394,2.48315
-0.642883,-0.10704,2.394,2.48113
-0.635113,-0.10704,2.394,2.47913
-0.627342,-0.10704,2.394,2.47715
-0.619572,-0.10704,2.394,2.47519
-0.611802,-0.10704,2.394,2.47326
-0.604031,-0.10704,2.394,2.47135
-0.596261,-0.10704,2.394,2.46946
-0.59267,-0.1078,2.411,2.48512
-0.584844,-0.1078,2.411,2.48326
-0.577019,-0.1078,2.411,2.48143
-0.569193,-0.1078,2.411,2.47962
-0.561368,-0.1078,2.411,2.47784
-0.557445,-0.10856,2.428,2.49353
-0.549564,-0.10856,2.428,2.49178
-0.541684,-0.10856,2.428,2.49006
-0.533803,-0.10856,2.428,2.48836
-0.525922,-0.10856,2.428,2.48668
-0.521669,-0.109321,2.445,2.50242
-0.513733,-0.109321,2.445,2.50078
-0.505797,-0.109321,2.445,2.49916
-0.497861,-0.109321,2.445,2.49757
-0.489925,-0.109321,2.445,2.496
-0.481989,-0.109321,2.445,2.49445
-0.474054,-0.109321,2.445,2.49293
-0.469549,-0.110125,2.463,2.50978
-0.461555,-0.110125,2.463,2.50829
-0.453561,-0.110125,2.463,2.50683
-0.445566,-0.110125,2.463,2.5054
-0.44077,-0.11093,2.481,2.52229
-0.432717,-0.11093,2.481,2.5209
-0.424665,-0.11093,2.481,2.51953
-0.419634,-0.111735,2.499,2.53645
-0.411523,-0.111735,2.499,2.53512
-0.403412,-0.111735,2.499,2.53382
-0.395301,-0.111735,2.499,2.53254
-0.38719,-0.111735,2.499,2.53128
-0.379079,-0.111735,2.499,2.53006
-0.37364,-0.11254,2.517,2.54707
-0.36547,-0.11254,2.517,2.54588
-0.357301,-0.11254,2.517,2.54472
-0.349131,-0.11254,2.517,2.54359
-0.340961,-0.11254,2.517,2.54248
-0.332792,-0.11254,2.517,2.5414
-0.324622,-0.11254,2.517,2.54034
-0.316453,-0.11254,2.517,2.53931
-0.308283,-0.11254,2.517,2.53831
-0.300114,-0.11254,2.517,2.53733
-0.289856,-0.111735,2.499,2.51823
-0.281745,-0.111735,2.499,2.51731
-0.273634,-0.111735,2.499,2.51642
-0.265523,-0.111735,2.499,2.51555
-0.257412,-0.111735,2.499,2.51471
-0.249301,-0.111735,2.499,2.51389
-0.24119,-0.111735,2.499,2.5131
-0.233078,-0.111735,2.499,2.51233
-0.224967,-0.111735,2.499,2.51159
-0.216856,-0.111735,2.499,2.51088
-0.208745,-0.111735,2.499,2.51019
-0.200634,-0.111735,2.499,2.50953
-0.192523,-0.111735,2.499,2.50889
-0.184412,-0.111735,2.499,2.50829
-0.1763,-0.111735,2.499,2.5077
-0.168189,-0.111735,2.499,2.50714
-0.160078,-0.111735,2.499,2.50661
-0.151967,-0.111735,2.499,2.50611
-0.143856,-0.111735,2.499,2.50563
-0.135745,-0.111735,2.499,2.50518
-0.127634,-0.111735,2.499,2.50475
-0.119523,-0.111735,2.499,2.50435
-0.111411,-0.111735,2.499,2.50398
-0.1033,-0.111735,2.499,2.50363
-0.0951891,-0.111735,2.499,2.50331
-0.087078,-0.111735,2.499,2.50301
-0.0789668,-0.111735,2.499,2.50274
-0.0708557,-0.111735,2.499,2.5025
-0.0627446,-0.111735,2.499,2.50228
-0.0546334,-0.111735,2.499,2.50209
-0.0465223,-0.111735,2.499,2.50193
-0.0384112,-0.111735,2.499,2.50179
-0.0303,-0.111735,2.499,2.50168
-0.0221889,-0.111735,2.499,2.5016
-0.0140778,-0.111735,2.499,2.50154
-0.00596664,-0.111735,2.499,2.5015
0.00212905,-0.11093,2.481,2.48348
0.0101818,-0.11093,2.481,2.4835
0.0182345,-0.11093,2.481,2.48355
0.0262872,-0.11093,2.481,2.48362
0.034589,-0.111735,2.499,2.50174
0.0427002,-0.111735,2.499,2.50186
0.0508113,-0.111735,2.499,2.50201
0.0589224,-0.111735,2.499,2.50219
0.0670336,-0.111735,2.499,2.50239
0.0751447,-0.111735,2.499,2.50263
0.0832558,-0.111735,2.499,2.50288
0.091367,-0.111735,2.499,2.50316
0.0987616,-0.11093,2.481,2.48544
0.106814,-0.11093,2.481,2.48577
0.1157,-0.111735,2.499,2.50417
0.123811,-0.111735,2.499,2.50456
0.131923,-0.111735,2.499,2.50497
0.140034,-0.111735,2.499,2.50541
0.148145,-0.111735,2.499,2.50588
0.156256,-0.111735,2.499,2.50637
0.164367,-0.111735,2.499,2.50689
0.172478,-0.111735,2.499,2.50744
0.180589,-0.111735,2.499,2.50801
0.188701,-0.111735,2.499,2.5086
0.196812,-0.111735,2.499,2.50923
0.203447,-0.11093,2.481,2.4918
0.2115,-0.11093,2.481,2.49247
0.219552,-0.11093,2.481,2.49316
0.227605,-0.11093,2.481,2.49389
0.235658,-0.11093,2.481,2.49463
0.241942,-0.110125,2.463,2.4773
0.249936,-0.110125,2.463,2.4781
0.257931,-0.110125,2.463,2.47892
0.265925,-0.110125,2.463,2.47976
0.273919,-0.110125,2.463,2.48063
0.281914,-0.110125,2.463,2.48153
0.287789,-0.109321,2.445,2.46431
0.295725,-0.109321,2.445,2.46524
0.303661,-0.109321,2.445,2.46621
0.313891,-0.110125,2.463,2.48536
0.321885,-0.110125,2.463,2.48638
0.329879,-0.110125,2.463,2.48743
0.337874,-0.110125,2.463,2.4885
0.345868,-0.110125,2.463,2.4896
0.353862,-0.110125,2.463,2.49073
0.361856,-0.110125,2.463,2.49187
0.372554,-0.11093,2.481,2.51127
0.380606,-0.11093,2.481,2.51247
0.388659,-0.11093,2.481,2.51371
0.396712,-0.11093,2.481,2.51496
0.404765,-0.11093,2.481,2.51625
0.412817,-0.11093,2.481,2.51756
0.42087,-0.11093,2.481,2.51889
0.428923,-0.11093,2.481,2.52025
0.436975,-0.11093,2.481,2.52163
0.445028,-0.11093,2.481,2.52304
0.453081,-0.11093,2.481,2.52447
0.461134,-0.11093,2.481,2.52593
0.469186,-0.11093,2.481,2.52741
0.477239,-0.11093,2.481,2.52892
0.485292,-0.11093,2.481,2.53045
0.493344,-0.11093,2.481,2.53201
0.501397,-0.11093,2.481,2.53359
0.50945,-0.11093,2.481,2.53519
0.517502,-0.11093,2.481,2.53682
0.525555,-0.11093,2.481,2.53848
0.533608,-0.11093,2.481,2.54016
0.541661,-0.11093,2.481,2.54186
0.549713,-0.11093,2.481,2.54359
0.557766,-0.11093,2.481,2.54534
0.565819,-0.11093,2.481,2.54712
0.573871,-0.11093,2.481,2.54892
0.581924,-0.11093,2.481,2.55075
0.589977,-0.11093,2.481,2.55259
0.59803,-0.11093,2.481,2.55447
0.606082,-0.11093,2.481,2.55637
0.614135,-0.11093,2.481,2.55829
0.622188,-0.11093,2.481,2.56023
0.63024,-0.11093,2.481,2.5622
0.638293,-0.11093,2.481,2.56419
0.646346,-0.11093,2.481,2.56621
0.654399,-0.11093,2.481,2.56825
0.662451,-0.11093,2.481,2.57031
0.670504,-0.11093,2.481,2.5724
0.678557,-0.11093,2.481,2.57451
0.686609,-0.11093,2.481,2.57665
0.699702,-0.111735,2.499,2.59751
0.707813,-0.111735,2.499,2.59971
0.715924,-0.111735,2.499,2.60193
0.724035,-0.111735,2.499,2.60417
0.732147,-0.111735,2.499,2.60644
0.740258,-0.111735,2.499,2.60873
0.753759,-0.11254,2.517,2.62985
0.761929,-0.11254,2.517,2.6322
0.770098,-0.11254,2.517,2.63458
0.778268,-0.11254,2.517,2.63698
0.786437,-0.11254,2.517,2.6394
0.794607,-0.11254,2.517,2.64185
0.802777,-0.11254,2.517,2.64432
0.817068,-0.113389,2.536,2.66679
0.825299,-0.113389,2.536,2.66932
0.83353,-0.113389,2.536,2.67188
0.835455,-0.11254,2.517,2.65442
0.843624,-0.11254,2.517,2.657
0.851794,-0.11254,2.517,2.65961
0.859963,-0.11254,2.517,2.66223
0.868133,-0.11254,2.517,2.66488
0.870036,-0.111735,2.499,2.64848
0.878147,-0.111735,2.499,2.65116
0.886258,-0.111735,2.499,2.65385
0.887927,-0.11093,2.481,2.63744
0.889479,-0.110125,2.463,2.62101
0.897474,-0.110125,2.463,2.62373
0.898851,-0.109321,2.445,2.60728
0.900482,-0.10856,2.428,2.59188
0.895642,-0.10704,2.394,2.55829
0.903413,-0.10704,2.394,2.56102
0.904712,-0.10628,2.377,2.54557
0.906286,-0.105565,2.361,2.53117
0.913949,-0.105565,2.361,2.53392
0.915367,-0.104849,2.345,2.51951
0.916681,-0.104134,2.329,2.50507
0.92424,-0.104134,2.329,2.50785
0.931799,-0.104134,2.329,2.51064
0.939359,-0.104134,2.329,2.51346
0.946918,-0.104134,2.329,2.51629
0.954477,-0.104134,2.329,2.51915
0.962037,-0.104134,2.329,2.52202
0.969596,-0.104134,2.329,2.52492
0.977155,-0.104134,2.329,2.52783
0.998245,-0.105565,2.361,2.56553
1.03445,-0.10856,2.428,2.64141
1.08054,-0.11254,2.517,2.74145
1.08871,-0.11254,2.517,2.74468
1.13,-0.115938,2.593,2.8309
1.17442,-0.119604,2.675,2.9239
1.22114,-0.123449,2.761,3.02151
1.2301,-0.123449,2.761,3.02514
1.29112,-0.128636,2.877,3.15605
1.3339,-0.131945,2.951,3.24116
1.34348,-0.131945,2.951,3.24511
1.38928,-0.135477,3.03,3.33607
1.41158,-0.136684,3.057,3.36994
1.42151,-0.136684,3.057,3.37411
1.43143,-0.136684,3.057,3.3783
1.44135,-0.136684,3.057,3.38252
1.45127,-0.136684,3.057,3.38676
1.4612,-0.136684,3.057,3.39102
1.47112,-0.136684,3.057,3.39531
1.48104,-0.136684,3.057,3.39962
1.49096,-0.136684,3.057,3.40395
1.50089,-0.136684,3.057,3.40831
1.51081,-0.136684,3.057,3.41269
1.52073,-0.136684,3.057,3.4171
1.53065,-0.136684,3.057,3.42152
1.55418,-0.137891,3.084,3.45623
1.56419,-0.137891,3.084,3.46075
1.5742,-0.137891,3.084,3.46528
1.61349,-0.14044,3.141,3.53397
1.65367,-0.143033,3.199,3.60398
1.66405,-0.143033,3.199,3.60876
1.69066,-0.144419,3.23,3.64857
1.71694,-0.145761,3.26,3.68738
1.72753,-0.145761,3.26,3.69232
1.75517,-0.147191,3.292,3.73357
1.78302,-0.148622,3.324,3.77495
1.81108,-0.150053,3.356,3.81644
1.82197,-0.150053,3.356,3.82163
1.83286,-0.150053,3.356,3.82683
1.84375,-0.150053,3.356,3.83206
1.85465,-0.150053,3.356,3.83731
1.84775,-0.148622,3.324,3.80595
1.85854,-0.148622,3.324,3.8112
1.86933,-0.148622,3.324,3.81647
1.88012,-0.148622,3.324,3.82177
1.89091,-0.148622,3.324,3.82709
1.9017,-0.148622,3.324,3.83243
1.89407,-0.147191,3.292,3.80085
1.88624,-0.145761,3.26,3.76919
1.89682,-0.145761,3.26,3.77449
1.9074,-0.145761,3.26,3.77982
1.90034,-0.144419,3.23,3.75034
1.91082,-0.144419,3.23,3.75566
1.90286,-0.143033,3.199,3.72491
1.91325,-0.143033,3.199,3.73022
1.92363,-0.143033,3.199,3.73556
1.91648,-0.141737,3.17,3.70701
1.89152,-0.139143,3.112,3.64441
1.90162,-0.139143,3.112,3.64966
1.89452,-0.137891,3.084,3.62205
1.88785,-0.136684,3.057,3.59554
1.89778,-0.136684,3.057,3.60076
1.874,-0.13427,3.003,3.5423
1.85113,-0.131945,2.951,3.48604
1.86071,-0.131945,2.951,3.49114
1.8386,-0.129709,2.901,3.43701
1.83272,-0.128636,2.877,3.41358
1.81133,-0.12649,2.829,3.36157
1.82051,-0.12649,2.829,3.36653
1.81482,-0.125461,2.806,3.34409
1.78037,-0.122466,2.739,3.26907
1.78926,-0.122466,2.739,3.27392
1.76992,-0.120543,2.696,3.22732
1.76482,-0.119604,2.675,3.20695
1.7735,-0.119604,2.675,3.21173
1.7542,-0.117726,2.633,3.16603
1.74936,-0.116832,2.613,3.14669
1.75784,-0.116832,2.613,3.15142
1.7528,-0.115938,2.593,3.132
1.74831,-0.115088,2.574,3.11373
-2.12074,-0.126765,3.057,3.72275
-2.09218,-0.125645,3.03,3.68428
-2.08234,-0.125645,3.03,3.6787
-2.03625,-0.123447,2.977,3.60889
-2.00889,-0.122369,2.951,3.57198
-1.99931,-0.122369,2.951,3.5666
-1.97288,-0.121333,2.926,3.53107
-1.94661,-0.120296,2.901,3.49565
-1.93719,-0.120296,2.901,3.49041
-1.91183,-0.119301,2.877,3.45636
-1.90249,-0.119301,2.877,3.45121
-1.87736,-0.118305,2.853,3.41732
-1.8681,-0.118305,2.853,3.41224
-1.85884,-0.118305,2.853,3.40718
nan,nan,nan,NaN
nan,nan,nan,NaN
nan,nan,nan,NaN
nan,nan,nan,NaN
nan,nan,nan,NaN
nan,nan,nan,NaN
nan,nan,nan,NaN
-1.83042,-0.121333,2.926,3.4535
-1.82093,-0.121333,2.926,3.44847
-1.81143,-0.121333,2.926,3.44347
-1.78654,-0.120296,2.901,3.4091
-1.77712,-0.120296,2.901,3.40418
-1.7677,-0.120296,2.901,3.39927
-1.74374,-0.119301,2.877,3.3663
-1.7344,-0.119301,2.877,3.36148
-1.72507,-0.119301,2.877,3.35667
-1.70142,-0.118305,2.853,3.32392
-1.69216,-0.118305,2.853,3.31919
-1.66874,-0.11731,2.829,3.28659
-1.65956,-0.11731,2.829,3.28194
-1.63696,-0.116356,2.806,3.25066
-1.62785,-0.116356,2.806,3.24608
-1.61874,-0.116356,2.806,3.24153
-1.60963,-0.116356,2.806,3.23699
nan,nan,nan,NaN
nan,nan,nan,NaN
nan,nan,nan,NaN
nan,nan,nan,NaN
nan,nan,nan,NaN
nan,nan,nan,NaN
nan,nan,nan,NaN
nan,nan,nan,NaN
nan,nan,nan,NaN
nan,nan,nan,NaN
nan,nan,nan,NaN
nan,nan,nan,NaN
nan,nan,nan,NaN
nan,nan,nan,NaN
nan,nan,nan,NaN
nan,nan,nan,NaN
nan,nan,nan,NaN
nan,nan,nan,NaN
nan,nan,nan,NaN
nan,nan,nan,NaN
nan,nan,nan,NaN
nan,nan,nan,NaN
nan,nan,nan,NaN
nan,nan,nan,NaN
-1.25833,-0.105948,2.555,2.85002
-1.24074,-0.10516,2.536,2.82521
-1.23251,-0.10516,2.536,2.8216
-1.22428,-0.10516,2.536,2.81801
-1.1983,-0.103626,2.499,2.77339
-1.19019,-0.103626,2.499,2.76989
-1.18208,-0.103626,2.499,2.76642
-1.16551,-0.10288,2.481,2.74306
-1.14906,-0.102133,2.463,2.71977
-1.14107,-0.102133,2.463,2.7164
-1.12479,-0.101387,2.445,2.69323
-1.11686,-0.101387,2.445,2.68992
-1.10892,-0.101387,2.445,2.68664
-1.09333,-0.100682,2.428,2.66471
-1.08545,-0.100682,2.428,2.66149
-1.07757,-0.100682,2.428,2.65829
-1.0622,-0.099977,2.411,2.63651
-1.05437,-0.099977,2.411,2.63337
-1.04655,-0.099977,2.411,2.63024
-1.0314,-0.0992721,2.394,2.60862
-1.02363,-0.0992721,2.394,2.60555
-1.01586,-0.0992721,2.394,2.60251
-1.00809,-0.0992721,2.394,2.59949
-1.00032,-0.0992721,2.394,2.59648
-0.992548,-0.0992721,2.394,2.5935
-0.984778,-0.0992721,2.394,2.59054
-0.977007,-0.0992721,2.394,2.58759
-0.969237,-0.0992721,2.394,2.58467
-0.961466,-0.0992721,2.394,2.58176
-0.953696,-0.0992721,2.394,2.57888
-0.945926,-0.0992721,2.394,2.57602
-0.938156,-0.0992721,2.394,2.57317
-0.930385,-0.0992721,2.394,2.57035
-0.916063,-0.0985671,2.377,2.54932
-0.908348,-0.0985671,2.377,2.54655
-0.900633,-0.0985671,2.377,2.54381
-0.892918,-0.0985671,2.377,2.54109
-0.885203,-0.0985671,2.377,2.53839
-0.877488,-0.0985671,2.377,2.53571
-0.869772,-0.0985671,2.377,2.53305
-0.862057,-0.0985671,2.377,2.53041
-0.854342,-0.0985671,2.377,2.52779
-0.846627,-0.0985671,2.377,2.5252
-0.838912,-0.0985671,2.377,2.52262
-0.831197,-0.0985671,2.377,2.52007
-0.823481,-0.0985671,2.377,2.51753
-0.815766,-0.0985671,2.377,2.51502
-0.808051,-0.0985671,2.377,2.51253
-0.800336,-0.0985671,2.377,2.51006
-0.792621,-0.0985671,2.377,2.50761
-0.784906,-0.0985671,2.377,2.50518
-0.777191,-0.0985671,2.377,2.50277
-0.769475,-0.0985671,2.377,2.50039
-0.767208,-0.0992721,2.394,2.51589
-0.759438,-0.0992721,2.394,2.51353
-0.751668,-0.0992721,2.394,2.51119
-0.743897,-0.0992721,2.394,2.50888
-0.736127,-0.0992721,2.394,2.50659
-0.728357,-0.0992721,2.394,2.50432
-0.720586,-0.0992721,2.394,2.50207
-0.712816,-0.0992721,2.394,2.49984
-0.705046,-0.0992721,2.394,2.49764
-0.697275,-0.0992721,2.394,2.49545
-0.689505,-0.0992721,2.394,2.49329
-0.681735,-0.0992721,2.394,2.49116
-0.673964,-0.0992721,2.394,2.48904
-0.670925,-0.099977,2.411,2.50461
-0.663099,-0.099977,2.411,2.50252
-0.655274,-0.099977,2.411,2.50046
-0.647448,-0.099977,2.411,2.49842
-0.639623,-0.099977,2.411,2.4964
-0.631797,-0.099977,2.411,2.49441
-0.623972,-0.099977,2.411,2.49244
-0.616146,-0.099977,2.411,2.49049
-0.608321,-0.099977,2.411,2.48857
-0.600495,-0.099977,2.411,2.48667
-0.59267,-0.099977,2.411,2.48479
-0.584844,-0.099977,2.411,2.48293
-0.581087,-0.100682,2.428,2.4986
-0.573206,-0.100682,2.428,2.49678
-0.565326,-0.100682,2.428,2.49498
-0.561348,-0.101387,2.445,2.51066
-0.553412,-0.101387,2.445,2.5089
-0.545476,-0.101387,2.445,2.50716
-0.53754,-0.101387,2.445,2.50545
-0.529605,-0.101387,2.445,2.50375
-0.521669,-0.101387,2.445,2.50209
-0.513733,-0.101387,2.445,2.50045
-0.505797,-0.101387,2.445,2.49883
-0.497861,-0.101387,2.445,2.49723
-0.489925,-0.101387,2.445,2.49566
-0.481989,-0.101387,2.445,2.49412
-0.474054,-0.101387,2.445,2.4926
-0.469549,-0.102133,2.463,2.50944
-0.461555,-0.102133,2.463,2.50795
-0.453561,-0.102133,2.463,2.50649
-0.445566,-0.102133,2.463,2.50506
-0.44077,-0.10288,2.481,2.52195
-0.432717,-0.10288,2.481,2.52055
-0.424665,-0.10288,2.481,2.51918
-0.416612,-0.10288,2.481,2.51784
-0.411523,-0.103626,2.499,2.53478
-0.403412,-0.103626,2.499,2.53347
-0.395301,-0.103626,2.499,2.53219
-0.389979,-0.104373,2.517,2.54917
-0.381809,-0.104373,2.517,2.54793
-0.37364,-0.104373,2.517,2.54672
-0.36547,-0.104373,2.517,2.54554
-0.357301,-0.104373,2.517,2.54438
-0.349131,-0.104373,2.517,2.54324
-0.340961,-0.104373,2.517,2.54213
-0.332792,-0.104373,2.517,2.54105
-0.324622,-0.104373,2.517,2.53999
-0.316453,-0.104373,2.517,2.53896
-0.308283,-0.104373,2.517,2.53796
-0.300114,-0.104373,2.517,2.53698
-0.289856,-0.103626,2.499,2.51789
-0.281745,-0.103626,2.499,2.51697
-0.273634,-0.103626,2.499,2.51607
-0.265523,-0.103626,2.499,2.5152
-0.257412,-0.103626,2.499,2.51436
-0.249301,-0.103626,2.499,2.51354
-0.24119,-0.103626,2.499,2.51275
-0.233078,-0.103626,2.499,2.51198
-0.224967,-0.103626,2.499,2.51124
-0.216856,-0.103626,2.499,2.51053
-0.208745,-0.103626,2.499,2.50984
-0.200634,-0.103626,2.499,2.50918
-0.192523,-0.103626,2.499,2.50855
-0.184412,-0.103626,2.499,2.50794
-0.1763,-0.103626,2.499,2.50735
-0.168189,-0.103626,2.499,2.5068
-0.160078,-0.103626,2.499,2.50627
-0.151967,-0.103626,2.499,2.50576
-0.143856,-0.103626,2.499,2.50528
-0.135745,-0.103626,2.499,2.50483
-0.127634,-0.103626,2.499,2.5044
-0.119523,-0.103626,2.499,2.504
-0.111411,-0.103626,2.499,2.50363
-0.1033,-0.103626,2.499,2.50328
-0.0951891,-0.103626,2.499,2.50296
-0.087078,-0.103626,2.499,2.50266
-0.0789668,-0.103626,2.499,2.50239
-0.0708557,-0.103626,2.499,2.50215
-0.0627446,-0.103626,2.499,2.50193
-0.0546334,-0.103626,2.499,2.50174
-0.0465223,-0.103626,2.499,2.50158
-0.0384112,-0.103626,2.499,2.50144
-0.0303,-0.103626,2.499,2.50133
-0.0221889,-0.103626,2.499,2.50125
-0.0140778,-0.103626,2.499,2.50119
-0.00596664,-0.103626,2.499,2.50115
0.00212905,-0.10288,2.481,2.48313
0.0101818,-0.10288,2.481,2.48315
0.0182345,-0.10288,2.481,2.4832
0.0262872,-0.10288,2.481,2.48327
0.034589,-0.103626,2.499,2.50139
0.0427002,-0.103626,2.499,2.50151
0.0508113,-0.103626,2.499,2.50166
0.0589224,-0.103626,2.499,2.50184
0.0670336,-0.103626,2.499,2.50205
0.0751447,-0.103626,2.499,2.50228
0.0832558,-0.103626,2.499,2.50253
0.091367,-0.103626,2.499,2.50282
0.0994781,-0.103626,2.499,2.50313
0.107589,-0.103626,2.499,2.50346
0.1157,-0.103626,2.499,2.50382
0.123811,-0.103626,2.499,2.50421
0.131923,-0.103626,2.499,2.50462
0.140034,-0.103626,2.499,2.50506
0.148145,-0.103626,2.499,2.50553
0.156256,-0.103626,2.499,2.50602
0.164367,-0.103626,2.499,2.50654
0.172478,-0.103626,2.499,2.50709
0.180589,-0.103626,2.499,2.50766
0.188701,-0.103626,2.499,2.50826
0.196812,-0.103626,2.499,2.50888
0.203447,-0.10288,2.481,2.49145
0.2115,-0.10288,2.481,2.49212
0.219552,-0.10288,2.481,2.49282
0.227605,-0.10288,2.481,2.49354
0.235658,-0.10288,2.481,2.49429
0.24371,-0.10288,2.481,2.49506
0.251763,-0.10288,2.481,2.49586
0.259816,-0.10288,2.481,2.49669
0.265925,-0.102133,2.463,2.47942
0.273919,-0.102133,2.463,2.48029
0.281914,-0.102133,2.463,2.48118
0.289908,-0.102133,2.463,2.48211
0.297902,-0.102133,2.463,2.48305
0.305896,-0.102133,2.463,2.48402
0.316185,-0.10288,2.481,2.50318
0.324237,-0.10288,2.481,2.50421
0.33229,-0.10288,2.481,2.50527
0.340343,-0.10288,2.481,2.50635
0.348396,-0.10288,2.481,2.50745
0.356448,-0.10288,2.481,2.50859
0.364501,-0.10288,2.481,2.50974
0.372554,-0.10288,2.481,2.51092
0.380606,-0.10288,2.481,2.51213
0.388659,-0.10288,2.481,2.51336
0.396712,-0.10288,2.481,2.51462
0.404765,-0.10288,2.481,2.51591
0.412817,-0.10288,2.481,2.51721
0.42087,-0.10288,2.481,2.51855
0.428923,-0.10288,2.481,2.51991
0.436975,-0.10288,2.481,2.52129
0.445028,-0.10288,2.481,2.5227
0.453081,-0.10288,2.481,2.52413
0.461134,-0.10288,2.481,2.52559
0.469186,-0.10288,2.481,2.52707
0.477239,-0.10288,2.481,2.52858
0.485292,-0.10288,2.481,2.53011
0.493344,-0.10288,2.481,2.53167
0.501397,-0.10288,2.481,2.53325
0.50945,-0.10288,2.481,2.53485
0.517502,-0.10288,2.481,2.53648
0.525555,-0.10288,2.481,2.53814
0.533608,-0.10288,2.481,2.53982
0.541661,-0.10288,2.481,2.54152
0.549713,-0.10288,2.481,2.54325
0.557766,-0.10288,2.481,2.545
0.565819,-0.10288,2.481,2.54678
0.573871,-0.10288,2.481,2.54858
0.581924,-0.10288,2.481,2.55041
0.589977,-0.10288,2.481,2.55226
0.59803,-0.10288,2.481,2.55413
0.606082,-0.10288,2.481,2.55603
0.614135,-0.10288,2.481,2.55795
0.622188,-0.10288,2.481,2.5599
0.63024,-0.10288,2.481,2.56186
0.638293,-0.10288,2.481,2.56386
0.646346,-0.10288,2.481,2.56587
0.654399,-0.10288,2.481,2.56791
0.662451,-0.10288,2.481,2.56998
0.670504,-0.10288,2.481,2.57207
0.678557,-0.10288,2.481,2.57418
0.686609,-0.10288,2.481,2.57631
0.699702,-0.103626,2.499,2.59718
0.707813,-0.103626,2.499,2.59937
0.715924,-0.103626,2.499,2.60159
0.724035,-0.103626,2.499,2.60384
0.732147,-0.103626,2.499,2.6061
0.740258,-0.103626,2.499,2.60839
0.753759,-0.104373,2.517,2.62951
0.761929,-0.104373,2.517,2.63187
0.770098,-0.104373,2.517,2.63424
0.778268,-0.104373,2.517,2.63664
0.786437,-0.104373,2.517,2.63907
0.794607,-0.104373,2.517,2.64151
0.802777,-0.104373,2.517,2.64398
0.817068,-0.10516,2.536,2.66645
0.825299,-0.10516,2.536,2.66898
0.83353,-0.10516,2.536,2.67154
0.835455,-0.104373,2.517,2.65409
0.843624,-0.104373,2.517,2.65667
0.851794,-0.104373,2.517,2.65927
0.859963,-0.104373,2.517,2.6619
0.868133,-0.104373,2.517,2.66455
0.876303,-0.104373,2.517,2.66723
0.878147,-0.103626,2.499,2.65083
0.886258,-0.103626,2.499,2.65352
0.887927,-0.10288,2.481,2.63711
0.889479,-0.102133,2.463,2.62068
0.897474,-0.102133,2.463,2.62341
0.898851,-0.101387,2.445,2.60696
0.900482,-0.100682,2.428,2.59156
0.895642,-0.0992721,2.394,2.55798
0.903413,-0.0992721,2.394,2.56071
0.904712,-0.0985671,2.377,2.54526
0.906286,-0.0979037,2.361,2.53086
0.913949,-0.0979037,2.361,2.53362
0.915367,-0.0972402,2.345,2.5192
0.916681,-0.0965767,2.329,2.50477
0.92424,-0.0965767,2.329,2.50755
0.931799,-0.0965767,2.329,2.51034
0.939359,-0.0965767,2.329,2.51316
0.946918,-0.0965767,2.329,2.51599
0.954477,-0.0965767,2.329,2.51885
0.962037,-0.0965767,2.329,2.52172
0.976257,-0.0972402,2.345,2.54196
0.997294,-0.0985671,2.377,2.57962
1.00501,-0.0985671,2.377,2.58261
1.0417,-0.101387,2.445,2.65959
1.08054,-0.104373,2.517,2.74112
1.08871,-0.104373,2.517,2.74435
1.13,-0.107524,2.593,2.83057
1.17442,-0.110924,2.675,2.92356
1.22114,-0.11449,2.761,3.02116
1.2301,-0.11449,2.761,3.02479
1.28035,-0.118305,2.853,3.12936
1.3339,-0.122369,2.951,3.24078
1.34348,-0.122369,2.951,3.24474
1.38928,-0.125645,3.03,3.33569
1.41158,-0.126765,3.057,3.36955
1.42151,-0.126765,3.057,3.37372
1.43143,-0.126765,3.057,3.37791
1.44135,-0.126765,3.057,3.38213
1.45127,-0.126765,3.057,3.38637
1.44829,-0.125645,3.03,3.36069
1.45812,-0.125645,3.03,3.36494
1.46796,-0.125645,3.03,3.36921
1.47779,-0.125645,3.03,3.37351
1.48763,-0.125645,3.03,3.37783
1.49746,-0.125645,3.03,3.38217
1.5073,-0.125645,3.03,3.38654
1.53065,-0.126765,3.057,3.42114
1.54057,-0.126765,3.057,3.42559
1.56419,-0.127884,3.084,3.46036
1.5742,-0.127884,3.084,3.4649
1.59859,-0.129045,3.112,3.50096
1.63868,-0.13145,3.17,3.57092
1.64897,-0.13145,3.17,3.57565
1.65925,-0.13145,3.17,3.58041
1.70114,-0.133939,3.23,3.65304
1.71163,-0.133939,3.23,3.65794
1.72211,-0.133939,3.23,3.66286
1.76585,-0.136509,3.292,3.7382
1.77654,-0.136509,3.292,3.74326
1.78722,-0.136509,3.292,3.74834
1.81538,-0.137836,3.324,3.78993
1.82617,-0.137836,3.324,3.79511
1.83696,-0.137836,3.324,3.80032
1.82996,-0.136509,3.292,3.76891
1.84065,-0.136509,3.292,3.77411
1.85133,-0.136509,3.292,3.77933
1.86202,-0.136509,3.292,3.78457
1.8727,-0.136509,3.292,3.78984
1.88339,-0.136509,3.292,3.79513
1.87566,-0.135182,3.26,3.76351
1.88624,-0.135182,3.26,3.76879
1.87937,-0.133939,3.23,3.73937
1.88985,-0.133939,3.23,3.74465
1.90034,-0.133939,3.23,3.74995
1.91082,-0.133939,3.23,3.75527
1.90286,-0.132653,3.199,3.72453
1.91325,-0.132653,3.199,3.72984
1.92363,-0.132653,3.199,3.73518
1.91648,-0.13145,3.17,3.70663
1.89152,-0.129045,3.112,3.64404
1.90162,-0.129045,3.112,3.64929
1.89452,-0.127884,3.084,3.62169
1.88785,-0.126765,3.057,3.59518
1.89778,-0.126765,3.057,3.6004
1.874,-0.124525,3.003,3.54195
1.85113,-0.122369,2.951,3.48569
1.86071,-0.122369,2.951,3.49079
1.8386,-0.120296,2.901,3.43667
1.83272,-0.119301,2.877,3.41324
1.81133,-0.11731,2.829,3.36124
1.82051,-0.11731,2.829,3.36619
1.81482,-0.116356,2.806,3.34376
1.78037,-0.113578,2.739,3.26875
1.78926,-0.113578,2.739,3.2736
1.76992,-0.111795,2.696,3.227
1.76482,-0.110924,2.675,3.20664
1.7735,-0.110924,2.675,3.21142
1.76819,-0.110053,2.654,3.19098
1.74936,-0.108353,2.613,3.14639
1.75784,-0.108353,2.613,3.15111
1.7528,-0.107524,2.593,3.1317
1.74831,-0.106736,2.574,3.11343
-2.12074,-0.116845,3.057,3.72242
-2.09218,-0.115813,3.03,3.68395
-2.08234,-0.115813,3.03,3.67838
-2.03625,-0.113787,2.977,3.60857
-2.00889,-0.112794,2.951,3.57166
-1.99931,-0.112794,2.951,3.56628
-1.97288,-0.111838,2.926,3.53076
-1.94661,-0.110883,2.901,3.49534
-1.93719,-0.110883,2.901,3.4901
-1.91183,-0.109965,2.877,3.45605
-1.88662,-0.109048,2.853,3.42211
-1.87736,-0.109048,2.853,3.41701
-1.8681,-0.109048,2.853,3.41193
-1.8432,-0.108131,2.829,3.37821
-1.83402,-0.108131,2.829,3.37321
nan,nan,nan,NaN
nan,nan,nan,NaN
nan,nan,nan,NaN
nan,nan,nan,NaN
nan,nan,nan,NaN
nan,nan,nan,NaN
-1.81478,-0.110883,2.901,3.42367
-1.80537,-0.110883,2.901,3.41869
-1.78109,-0.109965,2.877,3.38549
-1.77176,-0.109965,2.877,3.38058
-1.76242,-0.109965,2.877,3.3757
-1.75308,-0.109965,2.877,3.37083
-1.74374,-0.109965,2.877,3.36599
-1.7344,-0.109965,2.877,3.36116
-1.72507,-0.109965,2.877,3.35635
-1.70142,-0.109048,2.853,3.3236
-1.69216,-0.109048,2.853,3.31887
-1.66874,-0.108131,2.829,3.28628
-1.65956,-0.108131,2.829,3.28162
-1.63696,-0.107251,2.806,3.25035
-1.62785,-0.107251,2.806,3.24577
-1.61874,-0.107251,2.806,3.24121
-1.60963,-0.107251,2.806,3.23667
-1.62733,-0.109048,2.853,3.28629
-1.61807,-0.109048,2.853,3.28172
nan,nan,nan,NaN
nan,nan,nan,NaN
nan,nan,nan,NaN
nan,nan,nan,NaN
nan,nan,nan,NaN
nan,nan,nan,NaN
nan,nan,nan,NaN
nan,nan,nan,NaN
nan,nan,nan,NaN
nan,nan,nan,NaN
nan,nan,nan,NaN
nan,nan,nan,NaN
nan,nan,nan,NaN
nan,nan,nan,NaN
nan,nan,nan,NaN
nan,nan,nan,NaN
nan,nan,nan,NaN
nan,nan,nan,NaN
nan,nan,nan,NaN
nan,nan,nan,NaN
nan,nan,nan,NaN
nan,nan,nan,NaN
-1.25833,-0.0976577,2.555,2.84973
-1.24074,-0.0969315,2.536,2.82491
-1.23251,-0.0969315,2.536,2.82131
-1.22428,-0.0969315,2.536,2.81772
-1.20693,-0.0962052,2.517,2.79307
-1.19876,-0.0962052,2.517,2.78955
-1.1906,-0.0962052,2.517,2.78605
-1.17397,-0.0955173,2.499,2.76267
-1.15746,-0.0948293,2.481,2.73936
-1.14941,-0.0948293,2.481,2.73596
-1.13308,-0.0941413,2.463,2.71276
-1.12508,-0.0941413,2.463,2.70944
-1.11709,-0.0941413,2.463,2.70613
-1.10099,-0.0934533,2.445,2.68308
-1.09305,-0.0934533,2.445,2.67984
-1.08512,-0.0934533,2.445,2.67661
-1.06969,-0.0928035,2.428,2.65481
-1.05437,-0.0921537,2.411,2.63308
-1.04655,-0.0921537,2.411,2.62996
-1.03872,-0.0921537,2.411,2.62685
-1.0309,-0.0921537,2.411,2.62377
-1.02307,-0.0921537,2.411,2.6207
-1.01525,-0.0921537,2.411,2.61766
-1.00032,-0.0915039,2.394,2.5962
-0.992548,-0.0915039,2.394,2.59321
-0.984778,-0.0915039,2.394,2.59025
-0.977007,-0.0915039,2.394,2.58731
-0.969237,-0.0915039,2.394,2.58438
-0.961466,-0.0915039,2.394,2.58148
-0.953696,-0.0915039,2.394,2.57859
-0.945926,-0.0915039,2.394,2.57573
-0.938156,-0.0915039,2.394,2.57289
-0.930385,-0.0915039,2.394,2.57006
-0.922615,-0.0915039,2.394,2.56726
-0.914845,-0.0915039,2.394,2.56448
-0.907074,-0.0915039,2.394,2.56172
-0.899304,-0.0915039,2.394,2.55898
-0.891534,-0.0915039,2.394,2.55626
-0.883763,-0.0915039,2.394,2.55356
-0.875993,-0.0915039,2.394,2.55088
-0.868223,-0.0915039,2.394,2.54822
-0.860452,-0.0915039,2.394,2.54558
-0.852682,-0.0915039,2.394,2.54297
-0.844912,-0.0915039,2.394,2.54037
-0.837141,-0.0915039,2.394,2.5378
-0.829371,-0.0915039,2.394,2.53524
-0.815766,-0.0908541,2.377,2.51473
-0.808051,-0.0908541,2.377,2.51224
-0.800336,-0.0908541,2.377,2.50977
-0.792621,-0.0908541,2.377,2.50732
-0.790519,-0.0915039,2.394,2.5228
-0.782749,-0.0915039,2.394,2.52038
-0.774979,-0.0915039,2.394,2.51798
-0.767208,-0.0915039,2.394,2.51559
-0.759438,-0.0915039,2.394,2.51324
-0.751668,-0.0915039,2.394,2.5109
-0.743897,-0.0915039,2.394,2.50858
-0.736127,-0.0915039,2.394,2.50629
-0.728357,-0.0915039,2.394,2.50402
-0.720586,-0.0915039,2.394,2.50177
-0.717878,-0.0921537,2.411,2.51729
-0.710052,-0.0921537,2.411,2.51507
-0.702227,-0.0921537,2.411,2.51287
-0.694401,-0.0921537,2.411,2.5107
-0.686576,-0.0921537,2.411,2.50855
-0.67875,-0.0921537,2.411,2.50641
-0.670925,-0.0921537,2.411,2.50431
-0.663099,-0.0921537,2.411,2.50222
-0.655274,-0.0921537,2.411,2.50016
-0.647448,-0.0921537,2.411,2.49812
-0.639623,-0.0921537,2.411,2.4961
-0.636252,-0.0928035,2.428,2.5117
-0.623972,-0.0921537,2.411,2.49214
-0.616146,-0.0921537,2.411,2.49019
-0.608321,-0.0921537,2.411,2.48827
-0.600495,-0.0921537,2.411,2.48636
-0.596848,-0.0928035,2.428,2.502
-0.588968,-0.0928035,2.428,2.50014
-0.581087,-0.0928035,2.428,2.49829
-0.573206,-0.0928035,2.428,2.49647
-0.569284,-0.0934533,2.445,2.51214
-0.561348,-0.0934533,2.445,2.51035
-0.553412,-0.0934533,2.445,2.50859
-0.545476,-0.0934533,2.445,2.50685
-0.53754,-0.0934533,2.445,2.50514
-0.529605,-0.0934533,2.445,2.50345
-0.521669,-0.0934533,2.445,2.50178
-0.513733,-0.0934533,2.445,2.50014
-0.505797,-0.0934533,2.445,2.49852
-0.497861,-0.0934533,2.445,2.49692
-0.489925,-0.0934533,2.445,2.49535
-0.485538,-0.0941413,2.463,2.51217
-0.477544,-0.0941413,2.463,2.51063
-0.469549,-0.0941413,2.463,2.50912
-0.461555,-0.0941413,2.463,2.50764
-0.453561,-0.0941413,2.463,2.50618
-0.445566,-0.0941413,2.463,2.50475
-0.44077,-0.0948293,2.481,2.52163
-0.432717,-0.0948293,2.481,2.52024
-0.424665,-0.0948293,2.481,2.51887
-0.416612,-0.0948293,2.481,2.51752
-0.411523,-0.0955173,2.499,2.53446
-0.403412,-0.0955173,2.499,2.53315
-0.395301,-0.0955173,2.499,2.53187
-0.389979,-0.0962052,2.517,2.54885
-0.381809,-0.0962052,2.517,2.54761
-0.37364,-0.0962052,2.517,2.5464
-0.36547,-0.0962052,2.517,2.54521
-0.357301,-0.0962052,2.517,2.54405
-0.349131,-0.0962052,2.517,2.54292
-0.340961,-0.0962052,2.517,2.54181
-0.335304,-0.0969315,2.536,2.55991
-0.327073,-0.0969315,2.536,2.55884
-0.316453,-0.0962052,2.517,2.53864
-0.308283,-0.0962052,2.517,2.53763
-0.300114,-0.0962052,2.517,2.53665
-0.291944,-0.0962052,2.517,2.5357
-0.283775,-0.0962052,2.517,2.53477
-0.273634,-0.0955173,2.499,2.51575
-0.265523,-0.0955173,2.499,2.51488
-0.257412,-0.0955173,2.499,2.51404
-0.249301,-0.0955173,2.499,2.51322
-0.24119,-0.0955173,2.499,2.51243
-0.233078,-0.0955173,2.499,2.51166
-0.224967,-0.0955173,2.499,2.51092
-0.216856,-0.0955173,2.499,2.51021
-0.208745,-0.0955173,2.499,2.50952
-0.200634,-0.0955173,2.499,2.50886
-0.192523,-0.0955173,2.499,2.50822
-0.184412,-0.0955173,2.499,2.50761
-0.1763,-0.0955173,2.499,2.50703
-0.168189,-0.0955173,2.499,2.50647
-0.160078,-0.0955173,2.499,2.50594
-0.151967,-0.0955173,2.499,2.50544
-0.143856,-0.0955173,2.499,2.50496
-0.135745,-0.0955173,2.499,2.50451
-0.127634,-0.0955173,2.499,2.50408
-0.119523,-0.0955173,2.499,2.50368
-0.111411,-0.0955173,2.499,2.50331
-0.1033,-0.0955173,2.499,2.50296
-0.0951891,-0.0955173,2.499,2.50264
-0.087078,-0.0955173,2.499,2.50234
-0.0789668,-0.0955173,2.499,2.50207
-0.0708557,-0.0955173,2.499,2.50183
-0.0627446,-0.0955173,2.499,2.50161
-0.0546334,-0.0955173,2.499,2.50142
-0.0465223,-0.0955173,2.499,2.50126
-0.0384112,-0.0955173,2.499,2.50112
-0.0303,-0.0955173,2.499,2.50101
-0.0221889,-0.0955173,2.499,2.50092
-0.0140778,-0.0955173,2.499,2.50086
-0.00596664,-0.0955173,2.499,2.50083
0.00212905,-0.0948293,2.481,2.48281
0.0101818,-0.0948293,2.481,2.48283
0.0182345,-0.0948293,2.481,2.48288
0.0262872,-0.0948293,2.481,2.48295
0.034589,-0.0955173,2.499,2.50106
0.0427002,-0.0955173,2.499,2.50119
0.0508113,-0.0955173,2.499,2.50134
0.0589224,-0.0955173,2.499,2.50152
0.0670336,-0.0955173,2.499,2.50172
0.0751447,-0.0955173,2.499,2.50195
0.0832558,-0.0955173,2.499,2.50221
0.091367,-0.0955173,2.499,2.50249
0.0994781,-0.0955173,2.499,2.5028
0.107589,-0.0955173,2.499,2.50314
0.1157,-0.0955173,2.499,2.5035
0.123811,-0.0955173,2.499,2.50389
0.131923,-0.0955173,2.499,2.5043
0.140034,-0.0955173,2.499,2.50474
0.148145,-0.0955173,2.499,2.50521
0.156256,-0.0955173,2.499,2.5057
0.164367,-0.0955173,2.499,2.50622
0.172478,-0.0955173,2.499,2.50677
0.180589,-0.0955173,2.499,2.50734
0.188701,-0.0955173,2.499,2.50793
0.196812,-0.0955173,2.499,2.50856
0.203447,-0.0948293,2.481,2.49113
0.2115,-0.0948293,2.481,2.4918
0.219552,-0.0948293,2.481,2.4925
0.227605,-0.0948293,2.481,2.49322
0.235658,-0.0948293,2.481,2.49397
0.24371,-0.0948293,2.481,2.49474
0.251763,-0.0948293,2.481,2.49554
0.259816,-0.0948293,2.481,2.49637
0.265925,-0.0941413,2.463,2.4791
0.273919,-0.0941413,2.463,2.47997
0.281914,-0.0941413,2.463,2.48087
0.289908,-0.0941413,2.463,2.48179
0.297902,-0.0941413,2.463,2.48274
0.305896,-0.0941413,2.463,2.48371
0.316185,-0.0948293,2.481,2.50286
0.324237,-0.0948293,2.481,2.50389
0.33229,-0.0948293,2.481,2.50495
0.340343,-0.0948293,2.481,2.50603
0.348396,-0.0948293,2.481,2.50714
0.356448,-0.0948293,2.481,2.50827
0.364501,-0.0948293,2.481,2.50943
0.372554,-0.0948293,2.481,2.51061
0.380606,-0.0948293,2.481,2.51182
0.388659,-0.0948293,2.481,2.51305
0.396712,-0.0948293,2.481,2.51431
0.404765,-0.0948293,2.481,2.51559
0.412817,-0.0948293,2.481,2.5169
0.42087,-0.0948293,2.481,2.51823
0.428923,-0.0948293,2.481,2.51959
0.440146,-0.0955173,2.499,2.53926
0.445028,-0.0948293,2.481,2.52238
0.453081,-0.0948293,2.481,2.52381
0.461134,-0.0948293,2.481,2.52527
0.469186,-0.0948293,2.481,2.52675
0.480701,-0.0955173,2.499,2.54661
0.488812,-0.0955173,2.499,2.54815
0.493344,-0.0948293,2.481,2.53135
0.501397,-0.0948293,2.481,2.53293
0.50945,-0.0948293,2.481,2.53454
0.517502,-0.0948293,2.481,2.53617
0.525555,-0.0948293,2.481,2.53783
0.533608,-0.0948293,2.481,2.53951
0.541661,-0.0948293,2.481,2.54121
0.549713,-0.0948293,2.481,2.54294
0.557766,-0.0948293,2.481,2.54469
0.565819,-0.0948293,2.481,2.54647
0.573871,-0.0948293,2.481,2.54827
0.581924,-0.0948293,2.481,2.5501
0.589977,-0.0948293,2.481,2.55195
0.59803,-0.0948293,2.481,2.55382
0.606082,-0.0948293,2.481,2.55572
0.614135,-0.0948293,2.481,2.55764
0.622188,-0.0948293,2.481,2.55958
0.63024,-0.0948293,2.481,2.56155
0.638293,-0.0948293,2.481,2.56355
0.646346,-0.0948293,2.481,2.56556
0.654399,-0.0948293,2.481,2.5676
0.662451,-0.0948293,2.481,2.56967
0.675369,-0.0955173,2.499,2.59041
0.68348,-0.0955173,2.499,2.59254
0.691591,-0.0955173,2.499,2.59469
0.699702,-0.0955173,2.499,2.59686
0.707813,-0.0955173,2.499,2.59906
0.715924,-0.0955173,2.499,2.60128
0.724035,-0.0955173,2.499,2.60353
0.73742,-0.0962052,2.517,2.62456
0.74559,-0.0962052,2.517,2.62687
0.753759,-0.0962052,2.517,2.6292
0.761929,-0.0962052,2.517,2.63155
0.770098,-0.0962052,2.517,2.63393
0.778268,-0.0962052,2.517,2.63633
0.792374,-0.0969315,2.536,2.65867
0.800605,-0.0969315,2.536,2.66114
0.808836,-0.0969315,2.536,2.66363
0.817068,-0.0969315,2.536,2.66614
0.825299,-0.0969315,2.536,2.66867
0.83353,-0.0969315,2.536,2.67123
0.841761,-0.0969315,2.536,2.67381
0.849993,-0.0969315,2.536,2.67641
0.851794,-0.0962052,2.517,2.65897
0.859963,-0.0962052,2.517,2.66159
0.868133,-0.0962052,2.517,2.66424
0.870036,-0.0955173,2.499,2.64785
0.878147,-0.0955173,2.499,2.65052
0.886258,-0.0955173,2.499,2.65322
0.887927,-0.0948293,2.481,2.63681
0.889479,-0.0941413,2.463,2.62038
0.897474,-0.0941413,2.463,2.62311
0.898851,-0.0934533,2.445,2.60666
0.894177,-0.0921537,2.411,2.57312
0.895642,-0.0915039,2.394,2.55769
0.903413,-0.0915039,2.394,2.56042
0.904712,-0.0908541,2.377,2.54497
0.906286,-0.0902426,2.361,2.53058
0.913949,-0.0902426,2.361,2.53333
0.915367,-0.089631,2.345,2.51892
0.916681,-0.0890195,2.329,2.50449
0.92424,-0.0890195,2.329,2.50727
0.931799,-0.0890195,2.329,2.51006
0.939359,-0.0890195,2.329,2.51288
0.946918,-0.0890195,2.329,2.51571
0.954477,-0.0890195,2.329,2.51857
0.968646,-0.089631,2.345,2.53877
0.982918,-0.0902426,2.361,2.55902
1.00443,-0.0915039,2.394,2.59778
1.0122,-0.0915039,2.394,2.6008
1.04937,-0.0941413,2.463,2.67888
1.0887,-0.0969315,2.536,2.76151
1.09693,-0.0969315,2.536,2.76477
1.13872,-0.0998746,2.613,2.85209
1.17442,-0.102244,2.675,2.92324
1.22114,-0.105531,2.761,3.02083
1.2301,-0.105531,2.761,3.02447
1.28035,-0.109048,2.853,3.12902
1.3339,-0.112794,2.951,3.24044
1.34348,-0.112794,2.951,3.24439
1.38928,-0.115813,3.03,3.33533
1.41158,-0.116845,3.057,3.36919
1.42151,-0.116845,3.057,3.37336
1.43143,-0.116845,3.057,3.37756
1.44135,-0.116845,3.057,3.38177
1.45127,-0.116845,3.057,3.38602
1.44829,-0.115813,3.03,3.36034
1.45812,-0.115813,3.03,3.36459
1.46796,-0.115813,3.03,3.36886
1.47779,-0.115813,3.03,3.37316
1.48763,-0.115813,3.03,3.37748
1.49746,-0.115813,3.03,3.38182
1.5073,-0.115813,3.03,3.38619
1.53065,-0.116845,3.057,3.42079
1.54057,-0.116845,3.057,3.42524
1.56419,-0.117877,3.084,3.46001
1.5742,-0.117877,3.084,3.46454
1.59859,-0.118947,3.112,3.5006
1.63868,-0.121164,3.17,3.57055
1.64897,-0.121164,3.17,3.57529
1.65925,-0.121164,3.17,3.58004
1.70114,-0.123458,3.23,3.65267
1.71163,-0.123458,3.23,3.65757
1.72211,-0.123458,3.23,3.66249
1.76585,-0.125827,3.292,3.73782
1.77654,-0.125827,3.292,3.74288
1.78722,-0.125827,3.292,3.74797
1.81538,-0.127051,3.324,3.78956
1.82617,-0.127051,3.324,3.79474
1.83696,-0.127051,3.324,3.79994
1.82996,-0.125827,3.292,3.76854
1.84065,-0.125827,3.292,3.77374
1.85133,-0.125827,3.292,3.77896
1.86202,-0.125827,3.292,3.7842
1.8727,-0.125827,3.292,3.78947
1.88339,-0.125827,3.292,3.79477
1.87566,-0.124604,3.26,3.76314
1.88624,-0.124604,3.26,3.76843
