-0.904896,0.690728,1.967,2.27267
-0.893487,0.686865,1.956,2.25744
-0.887138,0.686865,1.956,2.25494
-0.880789,0.686865,1.956,2.25245
-0.869523,0.683003,1.945,2.23732
-0.86321,0.683003,1.945,2.23487
-0.856897,0.683003,1.945,2.23244
-0.850584,0.683003,1.945,2.23003
-0.844271,0.683003,1.945,2.22762
-0.837958,0.683003,1.945,2.22524
-0.831645,0.683003,1.945,2.22287
-0.825332,0.683003,1.945,2.22052
-0.819019,0.683003,1.945,2.21818
-0.812706,0.683003,1.945,2.21585
-0.806393,0.683003,1.945,2.21355
-0.804605,0.686865,1.956,2.22376
-0.798256,0.686865,1.956,2.22147
-0.791908,0.686865,1.956,2.2192
-0.785559,0.686865,1.956,2.21694
-0.77921,0.686865,1.956,2.2147
-0.772862,0.686865,1.956,2.21247
-0.766513,0.686865,1.956,2.21026
-0.760164,0.686865,1.956,2.20807
-0.753816,0.686865,1.956,2.20589
-0.743263,0.683003,1.945,2.19134
-0.732783,0.67914,1.934,2.17682
-0.726505,0.67914,1.934,2.17472
-0.716132,0.675277,1.923,2.16027
-0.70989,0.675277,1.923,2.15821
-0.703648,0.675277,1.923,2.15617
-0.689791,0.667903,1.902,2.13061
-0.683617,0.667903,1.902,2.12862
-0.673526,0.66404,1.891,2.11435
-0.667388,0.66404,1.891,2.1124
-0.657754,0.660529,1.881,2.09931
-0.648184,0.657017,1.871,2.08625
-0.642111,0.657017,1.871,2.08438
-0.636039,0.657017,1.871,2.08251
-0.626599,0.653505,1.861,2.06955
-0.620558,0.653505,1.861,2.06772
-0.614518,0.653505,1.861,2.06592
-0.608478,0.653505,1.861,2.06413
-0.602437,0.653505,1.861,2.06236
-0.596397,0.653505,1.861,2.0606
-0.590357,0.653505,1.861,2.05886
-0.584316,0.653505,1.861,2.05714
-0.578276,0.653505,1.861,2.05543
-0.572236,0.653505,1.861,2.05374
-0.566195,0.653505,1.861,2.05206
-0.560155,0.653505,1.861,2.05041
-0.554115,0.653505,1.861,2.04876
-0.548074,0.653505,1.861,2.04714
-0.542034,0.653505,1.861,2.04553
-0.535994,0.653505,1.861,2.04394
-0.529953,0.653505,1.861,2.04236
-0.520816,0.649643,1.85,2.02874
-0.514812,0.649643,1.85,2.02721
-0.508807,0.649643,1.85,2.02569
-0.502802,0.649643,1.85,2.02419
-0.496798,0.649643,1.85,2.02271
-0.490793,0.649643,1.85,2.02124
-0.48243,0.646482,1.841,2.00996
-0.476454,0.646482,1.841,2.00854
-0.470479,0.646482,1.841,2.00713
-0.464504,0.646482,1.841,2.00574
-0.458528,0.646482,1.841,2.00436
-0.450095,0.642971,1.831,1.99212
-0.444152,0.642971,1.831,1.99079
-0.438209,0.642971,1.831,1.98947
-0.432266,0.642971,1.831,1.98817
-0.426323,0.642971,1.831,1.98689
-0.418084,0.639459,1.821,1.97478
-0.412173,0.639459,1.821,1.97353
-0.406263,0.639459,1.821,1.97231
-0.400352,0.639459,1.821,1.9711
-0.394442,0.639459,1.821,1.96991
-0.388531,0.639459,1.821,1.96873
-0.382621,0.639459,1.821,1.96757
-0.37671,0.639459,1.821,1.96643
-0.3708,0.639459,1.821,1.96531
-0.364889,0.639459,1.821,1.9642
-0.358979,0.639459,1.821,1.96311
-0.353068,0.639459,1.821,1.96204
-0.347158,0.639459,1.821,1.96099
-0.343121,0.642971,1.831,1.97071
-0.337178,0.642971,1.831,1.96969
-0.331235,0.642971,1.831,1.96868
-0.325292,0.642971,1.831,1.96769
-0.321093,0.646482,1.841,1.97745
-0.315118,0.646482,1.841,1.97649
-0.309142,0.646482,1.841,1.97555
-0.303167,0.646482,1.841,1.97462
-0.297192,0.646482,1.841,1.97371
-0.291216,0.646482,1.841,1.97282
-0.285241,0.646482,1.841,1.97195
-0.279265,0.646482,1.841,1.97109
-0.27329,0.646482,1.841,1.97026
-0.265862,0.642971,1.831,1.95874
-0.259919,0.642971,1.831,1.95794
-0.253977,0.642971,1.831,1.95716
-0.246679,0.639459,1.821,1.94571
-0.240768,0.639459,1.821,1.94497
-0.233568,0.635948,1.811,1.93357
-0.22769,0.635948,1.811,1.93287
-0.221812,0.635948,1.811,1.93219
-0.215934,0.635948,1.811,1.93152
-0.209012,0.632787,1.802,1.92128
-0.202036,0.629276,1.792,1.90999
-0.196219,0.629276,1.792,1.90939
-0.190403,0.629276,1.792,1.9088
-0.18366,0.626115,1.783,1.89864
-0.177872,0.626115,1.783,1.89809
-0.172085,0.626115,1.783,1.89756
-0.165459,0.622955,1.774,1.88747
-0.159701,0.622955,1.774,1.88697
-0.153943,0.622955,1.774,1.88649
-0.147433,0.619794,1.765,1.87646
-0.140982,0.616634,1.756,1.86645
-0.135282,0.616634,1.756,1.86603
-0.129583,0.616634,1.756,1.86563
-0.123883,0.616634,1.756,1.86524
-0.118183,0.616634,1.756,1.86487
-0.111907,0.613473,1.747,1.85496
-0.106237,0.613473,1.747,1.85463
-0.100567,0.613473,1.747,1.85431
-0.0948964,0.613473,1.747,1.85401
-0.0906051,0.622955,1.774,1.88238
-0.0848471,0.622955,1.774,1.88211
-0.0786879,0.619794,1.765,1.87231
-0.0729592,0.619794,1.765,1.87208
-0.0672304,0.619794,1.765,1.87187
-0.0615017,0.619794,1.765,1.87167
-0.0554885,0.616634,1.756,1.86195
-0.049789,0.616634,1.756,1.86179
-0.0440894,0.616634,1.756,1.86164
-0.0383899,0.616634,1.756,1.86152
-0.0326903,0.616634,1.756,1.86141
-0.0269908,0.616634,1.756,1.86132
-0.0212913,0.616634,1.756,1.86124
-0.0155917,0.616634,1.756,1.86119
-0.00989218,0.616634,1.756,1.86115
-0.00419264,0.616634,1.756,1.86113
0.0015069,0.616634,1.756,1.86112
0.00720644,0.616634,1.756,1.86114
0.012906,0.616634,1.756,1.86117
0.0186055,0.616634,1.756,1.86121
0.0243051,0.616634,1.756,1.86128
0.0300046,0.616634,1.756,1.86136
0.0355211,0.613473,1.747,1.85192
0.0411915,0.613473,1.747,1.85204
0.0468618,0.613473,1.747,1.85218
0.0525321,0.613473,1.747,1.85233
0.0582025,0.613473,1.747,1.8525
0.0638728,0.613473,1.747,1.85268
0.0695431,0.613473,1.747,1.85289
0.0752134,0.613473,1.747,1.85311
0.0808838,0.613473,1.747,1.85335
0.0865541,0.613473,1.747,1.8536
0.0917493,0.610313,1.738,1.84433
0.0973904,0.610313,1.738,1.84462
0.103032,0.610313,1.738,1.84492
0.108673,0.610313,1.738,1.84525
0.114314,0.610313,1.738,1.84559
0.119955,0.610313,1.738,1.84595
0.125596,0.610313,1.738,1.84632
0.131237,0.610313,1.738,1.84671
0.136878,0.610313,1.738,1.84712
0.142519,0.610313,1.738,1.84755
0.14816,0.610313,1.738,1.84799
0.153802,0.610313,1.738,1.84845
0.159443,0.610313,1.738,1.84893
0.165084,0.610313,1.738,1.84943
0.170725,0.610313,1.738,1.84994
0.176366,0.610313,1.738,1.85047
0.182007,0.610313,1.738,1.85101
0.187648,0.610313,1.738,1.85158
0.193289,0.610313,1.738,1.85216
0.198931,0.610313,1.738,1.85275
0.205631,0.613473,1.747,1.86297
0.211301,0.613473,1.747,1.8636
0.216972,0.613473,1.747,1.86425
0.222642,0.613473,1.747,1.86492
0.229488,0.616634,1.756,1.87522
0.236393,0.619794,1.765,1.88554
0.242122,0.619794,1.765,1.88626
0.247851,0.619794,1.765,1.88701
0.254873,0.622955,1.774,1.8974
0.260631,0.622955,1.774,1.89818
0.26774,0.626115,1.783,1.90861
0.273527,0.626115,1.783,1.90943
0.282291,0.632787,1.802,1.93062
0.28814,0.632787,1.802,1.93149
0.293989,0.632787,1.802,1.93237
0.299837,0.632787,1.802,1.93327
0.305686,0.632787,1.802,1.93418
0.313091,0.635948,1.811,1.94478
0.318969,0.635948,1.811,1.94574
0.324847,0.635948,1.811,1.94671
0.330725,0.635948,1.811,1.9477
0.336603,0.635948,1.811,1.94871
0.342481,0.635948,1.811,1.94973
0.346628,0.632787,1.802,1.94108
0.352477,0.632787,1.802,1.94213
0.358326,0.632787,1.802,1.9432
0.364175,0.632787,1.802,1.94429
0.370024,0.632787,1.802,1.94539
0.375872,0.632787,1.802,1.94651
0.379603,0.629276,1.792,1.93684
0.385419,0.629276,1.792,1.93799
0.391236,0.629276,1.792,1.93915
0.397052,0.629276,1.792,1.94034
0.402868,0.629276,1.792,1.94153
0.408685,0.629276,1.792,1.94275
0.414501,0.629276,1.792,1.94398
0.420318,0.629276,1.792,1.94523
0.426134,0.629276,1.792,1.94649
0.43195,0.629276,1.792,1.94778
0.437767,0.629276,1.792,1.94907
0.446059,0.632787,1.802,1.96127
0.451907,0.632787,1.802,1.96261
0.455216,0.629276,1.792,1.95307
0.461032,0.629276,1.792,1.95443
0.466849,0.629276,1.792,1.95581
0.472665,0.629276,1.792,1.95721
0.478482,0.629276,1.792,1.95862
0.484298,0.629276,1.792,1.96005
0.490114,0.629276,1.792,1.9615
0.49344,0.626115,1.783,1.9531
0.499227,0.626115,1.783,1.95457
0.505014,0.626115,1.783,1.95605
0.510801,0.626115,1.783,1.95756
0.513981,0.622955,1.774,1.94919
0.519739,0.622955,1.774,1.95071
0.525497,0.622955,1.774,1.95225
0.531255,0.622955,1.774,1.95381
0.537013,0.622955,1.774,1.95539
0.542771,0.622955,1.774,1.95697
0.548529,0.622955,1.774,1.95858
0.557099,0.626115,1.783,1.97014
0.562886,0.626115,1.783,1.97179
0.568673,0.626115,1.783,1.97345
0.57446,0.626115,1.783,1.97512
0.583176,0.629276,1.792,1.98679
0.588993,0.629276,1.792,1.98851
0.598128,0.632787,1.802,2.00134
0.603977,0.632787,1.802,2.0031
0.609826,0.632787,1.802,2.00487
0.615675,0.632787,1.802,2.00666
0.621524,0.632787,1.802,2.00846
0.627373,0.632787,1.802,2.01028
0.629708,0.629276,1.792,2.00095
0.635524,0.629276,1.792,2.00278
0.64134,0.629276,1.792,2.00464
0.647157,0.629276,1.792,2.00651
0.652973,0.629276,1.792,2.00839
0.65879,0.629276,1.792,2.01029
0.661268,0.626115,1.783,2.00209
0.667055,0.626115,1.783,2.00401
0.676239,0.629276,1.792,2.01607
0.67863,0.626115,1.783,2.0079
0.684417,0.626115,1.783,2.00986
0.690204,0.626115,1.783,2.01184
0.695991,0.626115,1.783,2.01383
0.698236,0.622955,1.774,2.00566
0.703994,0.622955,1.774,2.00767
0.706151,0.619794,1.765,1.9995
0.71188,0.619794,1.765,2.00154
0.717609,0.619794,1.765,2.00358
0.723337,0.619794,1.765,2.00564
0.725348,0.616634,1.756,1.99747
0.731048,0.616634,1.756,1.99955
0.736748,0.616634,1.756,2.00164
0.738642,0.613473,1.747,1.99348
0.744312,0.613473,1.747,1.99558
0.749983,0.613473,1.747,1.99771
0.755653,0.613473,1.747,1.99984
0.757401,0.610313,1.738,1.99168
0.763042,0.610313,1.738,1.99383
0.768683,0.610313,1.738,1.996
0.774324,0.610313,1.738,1.99818
0.779966,0.610313,1.738,2.00037
0.781538,0.607153,1.729,1.9922
0.78715,0.607153,1.729,1.99441
0.792762,0.607153,1.729,1.99663
0.798374,0.607153,1.729,1.99887
0.803986,0.607153,1.729,2.00112
0.809598,0.607153,1.729,2.00338
0.82794,0.616634,1.756,2.03697
0.83364,0.616634,1.756,2.0393
0.839339,0.616634,1.756,2.04163
0.845039,0.616634,1.756,2.04398
0.850738,0.616634,1.756,2.04635
0.860827,0.619794,1.765,2.05922
0.866556,0.619794,1.765,2.06162
0.872285,0.619794,1.765,2.06404
0.878014,0.619794,1.765,2.06647
0.888249,0.622955,1.774,2.07946
0.894007,0.622955,1.774,2.08192
0.899765,0.622955,1.774,2.0844
0.905523,0.622955,1.774,2.08689
0.915904,0.626115,1.783,2.1
0.921691,0.626115,1.783,2.10253
0.927478,0.626115,1.783,2.10507
0.933265,0.626115,1.783,2.10763
0.939052,0.626115,1.783,2.1102
0.949609,0.629276,1.792,2.12344
0.955425,0.629276,1.792,2.12605
0.961242,0.629276,1.792,2.12867
0.967058,0.629276,1.792,2.1313
0.972874,0.629276,1.792,2.13395
0.978691,0.629276,1.792,2.13661
0.984507,0.629276,1.792,2.13928
0.990324,0.629276,1.792,2.14196
0.99614,0.629276,1.792,2.14466
1.00196,0.629276,1.792,2.14736
1.00777,0.629276,1.792,2.15008
1.01359,0.629276,1.792,2.15282
1.01941,0.629276,1.792,2.15556
1.02522,0.629276,1.792,2.15832
1.03104,0.629276,1.792,2.16109
1.03685,0.629276,1.792,2.16387
1.03743,0.626115,1.783,2.15578
1.04322,0.626115,1.783,2.15857
1.0543,0.629276,1.792,2.17228
1.06012,0.629276,1.792,2.17511
1.06594,0.629276,1.792,2.17795
1.07175,0.629276,1.792,2.1808
1.07757,0.629276,1.792,2.18367
1.08339,0.629276,1.792,2.18654
1.0892,0.629276,1.792,2.18943
1.09502,0.629276,1.792,2.19233
1.10698,0.632787,1.802,2.20749
1.11283,0.632787,1.802,2.21043
1.11868,0.632787,1.802,2.21338
1.13014,0.635948,1.811,2.22741
1.13602,0.635948,1.811,2.2304
1.1482,0.639459,1.821,2.24573
1.15411,0.639459,1.821,2.24876
1.16002,0.639459,1.821,2.2518
1.16593,0.639459,1.821,2.25485
1.17184,0.639459,1.821,2.25791
1.17775,0.639459,1.821,2.26099
1.18367,0.639459,1.821,2.26407
1.18958,0.639459,1.821,2.26717
1.19549,0.639459,1.821,2.27027
1.2014,0.639459,1.821,2.27339
1.20731,0.639459,1.821,2.27652
1.21322,0.639459,1.821,2.27966
1.21913,0.639459,1.821,2.28281
1.22504,0.639459,1.821,2.28597
1.23095,0.639459,1.821,2.28915
1.23686,0.639459,1.821,2.29233
-1.49361,0.76303,2.153,2.72919
-1.48662,0.76303,2.153,2.72537
-1.4707,0.758422,2.14,2.70513
-1.46375,0.758422,2.14,2.70136
-1.4568,0.758422,2.14,2.69761
-1.44986,0.758422,2.14,2.69386
-1.44291,0.758422,2.14,2.69013
-1.42657,0.753461,2.126,2.66884
-1.41967,0.753461,2.126,2.66515
-1.40413,0.748854,2.113,2.64521
-1.39727,0.748854,2.113,2.64158
-1.37331,0.739639,2.087,2.6055
-1.35016,0.730779,2.062,2.57076
-1.34347,0.730779,2.062,2.56725
-1.329,0.726526,2.05,2.54884
-1.3146,0.722273,2.038,2.53048
-1.30799,0.722273,2.038,2.52705
-1.29371,0.71802,2.026,2.50877
-1.28714,0.71802,2.026,2.50538
-1.28056,0.71802,2.026,2.50201
-1.27398,0.71802,2.026,2.49865
-1.2599,0.713768,2.014,2.48053
-1.25336,0.713768,2.014,2.47721
-1.25426,0.71802,2.026,2.48865
-1.24768,0.71802,2.026,2.48534
-1.24846,0.722273,2.038,2.49675
-1.24915,0.726526,2.05,2.50813
-1.2425,0.726526,2.05,2.50482
-1.23585,0.726526,2.05,2.50153
-1.22919,0.726526,2.05,2.49825
-1.22254,0.726526,2.05,2.49498
-1.21588,0.726526,2.05,2.49173
-1.20923,0.726526,2.05,2.48849
-1.20258,0.726526,2.05,2.48526
-1.19592,0.726526,2.05,2.48205
-1.18927,0.726526,2.05,2.47885
-1.18262,0.726526,2.05,2.47567
-1.16908,0.722273,2.038,2.45802
-1.16246,0.722273,2.038,2.45488
-1.15585,0.722273,2.038,2.45176
-1.14247,0.71802,2.026,2.43423
-1.12916,0.713768,2.014,2.41675
-1.12263,0.713768,2.014,2.4137
-1.10944,0.709515,2.002,2.3963
-1.09633,0.705262,1.99,2.37896
-1.08987,0.705262,1.99,2.37599
-1.08341,0.705262,1.99,2.37303
-1.071,0.701364,1.979,2.35699
-1.06458,0.701364,1.979,2.35408
-1.05815,0.701364,1.979,2.35118
-1.04535,0.697111,1.967,2.33406
-1.03897,0.697111,1.967,2.3312
-1.03888,0.701364,1.979,2.34257
-1.0262,0.697111,1.967,2.32554
-1.01981,0.697111,1.967,2.32273
-1.01343,0.697111,1.967,2.31993
-1.00705,0.697111,1.967,2.31715
-1.00066,0.697111,1.967,2.31438
-0.994277,0.697111,1.967,2.31163
-0.99392,0.701364,1.979,2.32298
-0.987497,0.701364,1.979,2.32024
-0.981073,0.701364,1.979,2.31751
-0.97465,0.701364,1.979,2.3148
-0.968226,0.701364,1.979,2.3121
-0.961803,0.701364,1.979,2.30942
-0.95538,0.701364,1.979,2.30675
-0.943202,0.697111,1.967,2.29013
-0.931579,0.693212,1.956,2.27471
-0.92523,0.693212,1.956,2.27212
-0.918882,0.693212,1.956,2.26954
-0.907401,0.689314,1.945,2.25423
-0.895992,0.685415,1.934,2.23896
-0.889715,0.685415,1.934,2.23646
-0.883437,0.685415,1.934,2.23397
-0.872171,0.681517,1.923,2.2188
-0.86593,0.681517,1.923,2.21635
-0.85477,0.677619,1.912,2.20126
-0.848564,0.677619,1.912,2.19886
-0.842359,0.677619,1.912,2.19647
-0.836153,0.677619,1.912,2.1941
-0.829947,0.677619,1.912,2.19174
-0.823741,0.677619,1.912,2.1894
-0.822238,0.681517,1.923,2.19965
-0.815997,0.681517,1.923,2.19733
-0.809755,0.681517,1.923,2.19502
-0.80811,0.685415,1.934,2.20526
-0.801833,0.685415,1.934,2.20297
-0.795555,0.685415,1.934,2.2007
-0.789278,0.685415,1.934,2.19843
-0.783001,0.685415,1.934,2.19619
-0.776724,0.685415,1.934,2.19396
-0.770446,0.685415,1.934,2.19174
-0.768515,0.689314,1.945,2.202
-0.762202,0.689314,1.945,2.1998
-0.751614,0.685415,1.934,2.18519
-0.745337,0.685415,1.934,2.18304
-0.734856,0.681517,1.923,2.1685
-0.728615,0.681517,1.923,2.1664
-0.722373,0.681517,1.923,2.16431
-0.708311,0.674075,1.902,2.13862
-0.702138,0.674075,1.902,2.13658
-0.695964,0.674075,1.902,2.13456
-0.685802,0.670176,1.891,2.12022
-0.67607,0.666632,1.881,2.10704
-0.666403,0.663088,1.871,2.0939
-0.66033,0.663088,1.871,2.09198
-0.65076,0.659544,1.861,2.0789
-0.640909,0.655646,1.85,2.06474
-0.634904,0.655646,1.85,2.06288
-0.6289,0.655646,1.85,2.06104
-0.619865,0.652456,1.841,2.0492
-0.613889,0.652456,1.841,2.0474
-0.607914,0.652456,1.841,2.04561
-0.601938,0.652456,1.841,2.04385
-0.595963,0.652456,1.841,2.04209
-0.589988,0.652456,1.841,2.04036
-0.584012,0.652456,1.841,2.03864
-0.578037,0.652456,1.841,2.03694
-0.572061,0.652456,1.841,2.03525
-0.566086,0.652456,1.841,2.03358
-0.560111,0.652456,1.841,2.03192
-0.554135,0.652456,1.841,2.03028
-0.545182,0.648912,1.831,2.01764
-0.539239,0.648912,1.831,2.01604
-0.533296,0.648912,1.831,2.01446
-0.527353,0.648912,1.831,2.0129
-0.52141,0.648912,1.831,2.01135
-0.515467,0.648912,1.831,2.00981
-0.509524,0.648912,1.831,2.0083
-0.500831,0.645368,1.821,1.99584
-0.49492,0.645368,1.821,1.99436
-0.48901,0.645368,1.821,1.99291
-0.483099,0.645368,1.821,1.99146
-0.474568,0.641824,1.811,1.97911
-0.46869,0.641824,1.811,1.97771
-0.462812,0.641824,1.811,1.97632
-0.456934,0.641824,1.811,1.97496
-0.451056,0.641824,1.811,1.9736
-0.442966,0.638634,1.802,1.96247
-0.437117,0.638634,1.802,1.96116
-0.431268,0.638634,1.802,1.95986
-0.425419,0.638634,1.802,1.95858
-0.41957,0.638634,1.802,1.95732
-0.411426,0.63509,1.792,1.94522
-0.405609,0.63509,1.792,1.944
-0.399793,0.63509,1.792,1.94279
-0.393977,0.63509,1.792,1.9416
-0.38816,0.63509,1.792,1.94043
-0.382344,0.63509,1.792,1.93928
-0.382621,0.645368,1.821,1.9695
-0.37671,0.645368,1.821,1.96836
-0.3708,0.645368,1.821,1.96724
-0.364889,0.645368,1.821,1.96613
-0.358979,0.645368,1.821,1.96505
-0.353068,0.645368,1.821,1.96398
-0.347158,0.645368,1.821,1.96292
-0.343121,0.648912,1.831,1.97266
-0.337178,0.648912,1.831,1.97163
-0.331235,0.648912,1.831,1.97063
-0.325292,0.648912,1.831,1.96964
-0.321093,0.652456,1.841,1.97941
-0.315118,0.652456,1.841,1.97845
-0.309142,0.652456,1.841,1.97751
-0.303167,0.652456,1.841,1.97659
-0.297192,0.652456,1.841,1.97568
-0.291216,0.652456,1.841,1.97479
-0.285241,0.652456,1.841,1.97392
-0.279265,0.652456,1.841,1.97306
-0.27329,0.652456,1.841,1.97222
-0.265862,0.648912,1.831,1.9607
-0.259919,0.648912,1.831,1.9599
-0.253977,0.648912,1.831,1.95912
-0.246679,0.645368,1.821,1.94766
-0.240768,0.645368,1.821,1.94692
-0.233568,0.641824,1.811,1.93551
-0.22769,0.641824,1.811,1.93481
-0.221812,0.641824,1.811,1.93413
-0.215934,0.641824,1.811,1.93347
-0.209012,0.638634,1.802,1.92321
-0.202036,0.63509,1.792,1.91192
-0.196219,0.63509,1.792,1.91131
-0.190403,0.63509,1.792,1.91072
-0.18366,0.631901,1.783,1.90056
-0.177872,0.631901,1.783,1.90001
-0.172085,0.631901,1.783,1.89947
-0.165459,0.628711,1.774,1.88937
-0.159701,0.628711,1.774,1.88888
-0.153943,0.628711,1.774,1.8884
-0.147433,0.625521,1.765,1.87836
-0.140982,0.622332,1.756,1.86834
-0.135282,0.622332,1.756,1.86792
-0.129583,0.622332,1.756,1.86752
-0.123883,0.622332,1.756,1.86713
-0.118183,0.622332,1.756,1.86676
-0.111907,0.619142,1.747,1.85684
-0.106237,0.619142,1.747,1.85651
-0.100567,0.619142,1.747,1.85619
-0.0948964,0.619142,1.747,1.8559
-0.0887664,0.615952,1.738,1.84606
-0.0831253,0.615952,1.738,1.84579
-0.0774842,0.615952,1.738,1.84555
-0.0718431,0.615952,1.738,1.84532
-0.0658591,0.612763,1.729,1.83555
-0.0602472,0.612763,1.729,1.83536
-0.0546353,0.612763,1.729,1.83519
-0.0490234,0.612763,1.729,1.83503
-0.0434115,0.612763,1.729,1.83489
-0.0377996,0.612763,1.729,1.83476
-0.0321877,0.612763,1.729,1.83465
-0.0265758,0.612763,1.729,1.83456
-0.0209639,0.612763,1.729,1.83449
-0.015352,0.612763,1.729,1.83444
-0.00974008,0.612763,1.729,1.8344
-0.00410669,0.609573,1.72,1.82483
0.001476,0.609573,1.72,1.82482
0.0070587,0.609573,1.72,1.82484
0.0126414,0.609573,1.72,1.82487
0.0182241,0.609573,1.72,1.82491
0.0239313,0.612763,1.729,1.83453
0.0295433,0.612763,1.729,1.83461
0.0349722,0.609573,1.72,1.82516
0.0405549,0.609573,1.72,1.82527
0.0461375,0.609573,1.72,1.82541
0.0517202,0.609573,1.72,1.82556
0.0573029,0.609573,1.72,1.82572
0.0628856,0.609573,1.72,1.82591
0.0684683,0.609573,1.72,1.82611
0.074051,0.609573,1.72,1.82633
0.0796337,0.609573,1.72,1.82656
0.0852164,0.609573,1.72,1.82681
0.0903768,0.606738,1.712,1.81858
0.0959335,0.606738,1.712,1.81887
0.10149,0.606738,1.712,1.81917
0.107047,0.606738,1.712,1.81949
0.112604,0.606738,1.712,1.81982
0.11816,0.606738,1.712,1.82018
0.123717,0.606738,1.712,1.82054
0.129274,0.606738,1.712,1.82093
0.134831,0.606738,1.712,1.82133
0.140387,0.606738,1.712,1.82175
0.145944,0.606738,1.712,1.82219
0.150704,0.603548,1.703,1.81306
0.156232,0.603548,1.703,1.81353
0.161759,0.603548,1.703,1.81401
0.167287,0.603548,1.703,1.81451
0.172814,0.603548,1.703,1.81503
0.178342,0.603548,1.703,1.81557
0.183869,0.603548,1.703,1.81612
0.190398,0.606738,1.712,1.82629
0.195955,0.606738,1.712,1.82688
0.201511,0.606738,1.712,1.82748
0.207068,0.606738,1.712,1.8281
0.213618,0.609573,1.72,1.83728
0.219201,0.609573,1.72,1.83794
0.224784,0.609573,1.72,1.83862
0.231572,0.612763,1.729,1.84893
0.237184,0.612763,1.729,1.84964
0.244059,0.615952,1.738,1.86
0.250994,0.619142,1.747,1.87039
0.256664,0.619142,1.747,1.87116
0.262334,0.619142,1.747,1.87194
0.269385,0.622332,1.756,1.88239
0.275085,0.622332,1.756,1.88322
0.280784,0.622332,1.756,1.88406
0.287952,0.625521,1.765,1.89458
0.293681,0.625521,1.765,1.89546
0.29941,0.625521,1.765,1.89635
0.305138,0.625521,1.765,1.89726
0.312452,0.628711,1.774,1.90787
0.31821,0.628711,1.774,1.90882
0.323968,0.628711,1.774,1.90979
0.329726,0.628711,1.774,1.91078
0.335484,0.628711,1.774,1.91178
0.341242,0.628711,1.774,1.9128
0.34524,0.625521,1.765,1.90413
0.350968,0.625521,1.765,1.90517
0.354878,0.622332,1.756,1.89652
0.360578,0.622332,1.756,1.89759
0.366277,0.622332,1.756,1.89868
0.371977,0.622332,1.756,1.89979
0.377677,0.622332,1.756,1.90091
0.383376,0.622332,1.756,1.90205
0.389076,0.622332,1.756,1.90321
0.392752,0.619142,1.747,1.89462
0.398422,0.619142,1.747,1.89581
0.404092,0.619142,1.747,1.89701
0.409763,0.619142,1.747,1.89822
0.415433,0.619142,1.747,1.89946
0.421103,0.619142,1.747,1.9007
0.428972,0.622332,1.756,1.91177
0.434672,0.622332,1.756,1.91305
0.440371,0.622332,1.756,1.91436
0.446071,0.622332,1.756,1.91568
0.449455,0.619142,1.747,1.90719
0.455125,0.619142,1.747,1.90853
0.460796,0.619142,1.747,1.90989
0.466466,0.619142,1.747,1.91127
0.472136,0.619142,1.747,1.91266
0.477807,0.619142,1.747,1.91407
0.483477,0.619142,1.747,1.91549
0.489147,0.619142,1.747,1.91693
0.494818,0.619142,1.747,1.91838
0.500488,0.619142,1.747,1.91985
0.503551,0.615952,1.738,1.91144
0.509192,0.615952,1.738,1.91293
0.514833,0.615952,1.738,1.91444
0.523169,0.619142,1.747,1.92589
0.52884,0.619142,1.747,1.92744
0.53451,0.619142,1.747,1.929
0.54018,0.619142,1.747,1.93058
0.557099,0.631901,1.783,1.97199
0.562886,0.631901,1.783,1.97363
0.568673,0.631901,1.783,1.97529
0.57446,0.631901,1.783,1.97697
0.583176,0.63509,1.792,1.98864
0.588993,0.63509,1.792,1.99036
0.598128,0.638634,1.802,2.0032
0.603977,0.638634,1.802,2.00496
0.609826,0.638634,1.802,2.00673
0.615675,0.638634,1.802,2.00851
0.621524,0.638634,1.802,2.01031
0.627373,0.638634,1.802,2.01213
0.629708,0.63509,1.792,2.00278
0.635524,0.63509,1.792,2.00462
0.64134,0.63509,1.792,2.00647
0.647157,0.63509,1.792,2.00834
0.652973,0.63509,1.792,2.01022
0.65879,0.63509,1.792,2.01212
0.661268,0.631901,1.783,2.00391
0.667055,0.631901,1.783,2.00583
0.676239,0.63509,1.792,2.0179
0.67863,0.631901,1.783,2.00971
0.684417,0.631901,1.783,2.01167
0.690204,0.631901,1.783,2.01365
0.695991,0.631901,1.783,2.01564
0.698236,0.628711,1.774,2.00746
0.703994,0.628711,1.774,2.00947
0.706151,0.625521,1.765,2.00129
0.71188,0.625521,1.765,2.00332
0.717609,0.625521,1.765,2.00536
0.723337,0.625521,1.765,2.00742
0.725348,0.622332,1.756,1.99924
0.731048,0.622332,1.756,2.00132
0.736748,0.622332,1.756,2.0034
0.738642,0.619142,1.747,1.99523
0.744312,0.619142,1.747,1.99733
0.749983,0.619142,1.747,1.99945
0.755653,0.619142,1.747,2.00159
0.757401,0.615952,1.738,1.99341
0.763042,0.615952,1.738,1.99556
0.768683,0.615952,1.738,1.99773
0.774324,0.615952,1.738,1.9999
0.779966,0.615952,1.738,2.0021
0.781538,0.612763,1.729,1.99392
0.78715,0.612763,1.729,1.99613
0.792762,0.612763,1.729,1.99835
0.798374,0.612763,1.729,2.00058
0.803986,0.612763,1.729,2.00283
0.809598,0.612763,1.729,2.00509
0.81521,0.612763,1.729,2.00736
0.820822,0.612763,1.729,2.00964
0.826434,0.612763,1.729,2.01194
0.836377,0.615952,1.738,2.02474
0.842018,0.615952,1.738,2.02708
0.847659,0.615952,1.738,2.02943
0.8533,0.615952,1.738,2.03179
0.858941,0.615952,1.738,2.03416
0.864582,0.615952,1.738,2.03655
0.87473,0.619142,1.747,2.04951
0.884936,0.622332,1.756,2.06251
0.890635,0.622332,1.756,2.06496
0.896335,0.622332,1.756,2.06743
0.906657,0.625521,1.765,2.08051
0.912386,0.625521,1.765,2.08301
0.918115,0.625521,1.765,2.08553
0.928554,0.628711,1.774,2.09871
0.934312,0.628711,1.774,2.10126
0.94007,0.628711,1.774,2.10383
0.945828,0.628711,1.774,2.10641
0.956414,0.631901,1.783,2.1197
0.962201,0.631901,1.783,2.12231
0.963102,0.628711,1.774,2.11422
0.96886,0.628711,1.774,2.11685
0.974618,0.628711,1.774,2.11949
0.980376,0.628711,1.774,2.12214
0.986134,0.628711,1.774,2.12481
0.98686,0.625521,1.765,2.11669
0.992589,0.625521,1.765,2.11937
0.998317,0.625521,1.765,2.12206
0.998926,0.622332,1.756,2.11393
1.00463,0.622332,1.756,2.11663
1.01033,0.622332,1.756,2.11934
1.01603,0.622332,1.756,2.12206
1.02172,0.622332,1.756,2.1248
1.02742,0.622332,1.756,2.12754
1.03312,0.622332,1.756,2.1303
1.03882,0.622332,1.756,2.13307
1.04452,0.622332,1.756,2.13585
1.05022,0.622332,1.756,2.13864
1.05051,0.619142,1.747,2.13047
1.05618,0.619142,1.747,2.13328
1.06732,0.622332,1.756,2.14709
1.06752,0.619142,1.747,2.13891
1.07319,0.619142,1.747,2.14175
1.08442,0.622332,1.756,2.15564
1.09012,0.622332,1.756,2.15852
1.09582,0.622332,1.756,2.1614
1.10716,0.625521,1.765,2.17539
1.11857,0.628711,1.774,2.18942
1.12433,0.628711,1.774,2.19236
1.13008,0.628711,1.774,2.19532
1.1416,0.631901,1.783,2.20944
1.14739,0.631901,1.783,2.21244
1.15318,0.631901,1.783,2.21545
1.16482,0.63509,1.792,2.22966
1.17063,0.63509,1.792,2.23271
1.17054,0.631901,1.783,2.22453
1.17633,0.631901,1.783,2.22758
1.18211,0.631901,1.783,2.23065
1.1879,0.631901,1.783,2.23372
1.19369,0.631901,1.783,2.2368
1.19948,0.631901,1.783,2.23989
1.20526,0.631901,1.783,2.243
1.21105,0.631901,1.783,2.24611
-1.4395,0.742119,2.075,2.63221
-1.43276,0.742119,2.075,2.62853
-1.42603,0.742119,2.075,2.62486
-1.4275,0.746411,2.087,2.63637
-1.42072,0.746411,2.087,2.63271
-1.41395,0.746411,2.087,2.62906
-1.40718,0.746411,2.087,2.62542
-1.39235,0.742119,2.075,2.60672
-1.38562,0.742119,2.075,2.60313
-1.37024,0.73747,2.062,2.58327
-1.36355,0.73747,2.062,2.57972
-1.34896,0.733178,2.05,2.5612
-1.31873,0.720303,2.014,2.51279
-1.3122,0.720303,2.014,2.50936
-1.29788,0.716011,2.002,2.49102
-1.29138,0.716011,2.002,2.48764
-1.28488,0.716011,2.002,2.48427
-1.27072,0.711719,1.99,2.46605
-1.25728,0.707785,1.979,2.44911
-1.25085,0.707785,1.979,2.44582
-1.24443,0.707785,1.979,2.44254
-1.24489,0.711719,1.99,2.45283
-1.23843,0.711719,1.99,2.44956
-1.23197,0.711719,1.99,2.4463
-1.22551,0.711719,1.99,2.44306
-1.2264,0.716011,2.002,2.45453
-1.21991,0.716011,2.002,2.45129
-1.21341,0.716011,2.002,2.44807
-1.21414,0.720303,2.014,2.45951
-1.20761,0.720303,2.014,2.45629
-1.20107,0.720303,2.014,2.45308
-1.20165,0.724595,2.026,2.46448
-1.19507,0.724595,2.026,2.46128
-1.1885,0.724595,2.026,2.4581
-1.17492,0.720303,2.014,2.44038
-1.16838,0.720303,2.014,2.43724
-1.16185,0.720303,2.014,2.43412
-1.14843,0.716011,2.002,2.41652
-1.14193,0.716011,2.002,2.41344
-1.13543,0.716011,2.002,2.41037
-1.11596,0.707785,1.979,2.37966
-1.10954,0.707785,1.979,2.37665
-1.10312,0.707785,1.979,2.37366
-1.08395,0.699559,1.956,2.34313
-1.0776,0.699559,1.956,2.3402
-1.06523,0.695625,1.945,2.32414
-1.05891,0.695625,1.945,2.32125
-1.04665,0.691691,1.934,2.30527
-1.04037,0.691691,1.934,2.30243
-1.03997,0.695625,1.945,2.31267
-1.03366,0.695625,1.945,2.30984
-1.02154,0.691691,1.934,2.29398
-1.01526,0.691691,1.934,2.29119
-1.00898,0.691691,1.934,2.28841
-1.00271,0.691691,1.934,2.28565
-1.0021,0.695625,1.945,2.29589
-0.995783,0.695625,1.945,2.29314
-0.98947,0.695625,1.945,2.29041
-0.983157,0.695625,1.945,2.28769
-0.976844,0.695625,1.945,2.28498
-0.970531,0.695625,1.945,2.28229
-0.964218,0.695625,1.945,2.27961
-0.957905,0.695625,1.945,2.27695
-0.951592,0.695625,1.945,2.2743
-0.945279,0.695625,1.945,2.27167
-0.938966,0.695625,1.945,2.26905
-0.927378,0.691691,1.934,2.25362
-0.915862,0.687757,1.923,2.23825
-0.909621,0.687757,1.923,2.2357
-0.903379,0.687757,1.923,2.23317
-0.892006,0.683823,1.912,2.21789
-0.881167,0.680246,1.902,2.20381
-0.874993,0.680246,1.902,2.20135
-0.86882,0.680246,1.902,2.19891
-0.857658,0.676312,1.891,2.18377
-0.85152,0.676312,1.891,2.18137
-0.840912,0.672736,1.881,2.16746
-0.834806,0.672736,1.881,2.16509
-0.833107,0.676312,1.891,2.17425
-0.826969,0.676312,1.891,2.1719
-0.820831,0.676312,1.891,2.16957
-0.814694,0.676312,1.891,2.16726
-0.808556,0.676312,1.891,2.16496
-0.802418,0.676312,1.891,2.16267
-0.79628,0.676312,1.891,2.1604
-0.794739,0.680246,1.902,2.1707
-0.788566,0.680246,1.902,2.16845
-0.782392,0.680246,1.902,2.16621
-0.776219,0.680246,1.902,2.16399
-0.770045,0.680246,1.902,2.16178
-0.763872,0.680246,1.902,2.15959
-0.757698,0.680246,1.902,2.15742
-0.755476,0.683823,1.912,2.16659
-0.745352,0.680246,1.902,2.15311
-0.739178,0.680246,1.902,2.15098
-0.733005,0.680246,1.902,2.14887
-0.722628,0.676312,1.891,2.13435
-0.71649,0.676312,1.891,2.13228
-0.722373,0.687757,1.923,2.16628
-0.708311,0.680246,1.902,2.14057
-0.702138,0.680246,1.902,2.13854
-0.695964,0.680246,1.902,2.13652
-0.685802,0.676312,1.891,2.12217
-0.67607,0.672736,1.881,2.10898
-0.666403,0.669159,1.871,2.09583
-0.66033,0.669159,1.871,2.09391
-0.65076,0.665583,1.861,2.08082
-0.640909,0.661649,1.85,2.06665
-0.634904,0.661649,1.85,2.0648
-0.6289,0.661649,1.85,2.06296
-0.619865,0.65843,1.841,2.05111
-0.613889,0.65843,1.841,2.04931
-0.607914,0.65843,1.841,2.04753
-0.601938,0.65843,1.841,2.04576
-0.595963,0.65843,1.841,2.04401
-0.589988,0.65843,1.841,2.04228
-0.584012,0.65843,1.841,2.04056
-0.578037,0.65843,1.841,2.03886
-0.572061,0.65843,1.841,2.03717
-0.566086,0.65843,1.841,2.0355
-0.560111,0.65843,1.841,2.03385
-0.554135,0.65843,1.841,2.03221
-0.545182,0.654853,1.831,2.01956
-0.539239,0.654853,1.831,2.01796
-0.533296,0.654853,1.831,2.01638
-0.527353,0.654853,1.831,2.01482
-0.52141,0.654853,1.831,2.01327
-0.515467,0.654853,1.831,2.01174
-0.509524,0.654853,1.831,2.01023
-0.500831,0.651277,1.821,1.99776
-0.49492,0.651277,1.821,1.99628
-0.48901,0.651277,1.821,1.99483
-0.483099,0.651277,1.821,1.99339
-0.474568,0.6477,1.811,1.98102
-0.46869,0.6477,1.811,1.97962
-0.462812,0.6477,1.811,1.97824
-0.456934,0.6477,1.811,1.97687
-0.451056,0.6477,1.811,1.97552
-0.442966,0.644481,1.802,1.96438
-0.437117,0.644481,1.802,1.96307
-0.431268,0.644481,1.802,1.96177
-0.425419,0.644481,1.802,1.9605
-0.41957,0.644481,1.802,1.95923
-0.411426,0.640905,1.792,1.94712
-0.405609,0.640905,1.792,1.9459
-0.399793,0.640905,1.792,1.9447
-0.393977,0.640905,1.792,1.94351
-0.38816,0.640905,1.792,1.94234
-0.382344,0.640905,1.792,1.94119
-0.376527,0.640905,1.792,1.94005
-0.370711,0.640905,1.792,1.93893
-0.364895,0.640905,1.792,1.93783
-0.359078,0.640905,1.792,1.93674
-0.355233,0.644481,1.802,1.94647
-0.349384,0.644481,1.802,1.94541
-0.343535,0.644481,1.802,1.94437
-0.337687,0.644481,1.802,1.94335
-0.331838,0.644481,1.802,1.94234
-0.325989,0.644481,1.802,1.94135
-0.321739,0.6477,1.811,1.95006
-0.315861,0.6477,1.811,1.9491
-0.309983,0.6477,1.811,1.94816
-0.304105,0.6477,1.811,1.94723
-0.298227,0.6477,1.811,1.94632
-0.292349,0.6477,1.811,1.94543
-0.286471,0.6477,1.811,1.94456
-0.280593,0.6477,1.811,1.9437
-0.274715,0.6477,1.811,1.94286
-0.268836,0.6477,1.811,1.94204
-0.262958,0.6477,1.811,1.94123
-0.25708,0.6477,1.811,1.94045
-0.249954,0.644481,1.802,1.93004
-0.24275,0.640905,1.792,1.91858
-0.236934,0.640905,1.792,1.91785
-0.231118,0.640905,1.792,1.91714
-0.225301,0.640905,1.792,1.91645
-0.218383,0.637686,1.783,1.90615
-0.212595,0.637686,1.783,1.9055
-0.206808,0.637686,1.783,1.90486
-0.200006,0.634467,1.774,1.89463
-0.194248,0.634467,1.774,1.89403
-0.18849,0.634467,1.774,1.89345
-0.181805,0.631248,1.765,1.88328
-0.176077,0.631248,1.765,1.88274
-0.170348,0.631248,1.765,1.88221
-0.16378,0.62803,1.756,1.87211
-0.15808,0.62803,1.756,1.87162
-0.152381,0.62803,1.756,1.87114
-0.145929,0.624811,1.747,1.8611
-0.139536,0.621592,1.738,1.85108
-0.133895,0.621592,1.738,1.85066
-0.128254,0.621592,1.738,1.85026
-0.121978,0.618373,1.729,1.8403
-0.116366,0.618373,1.729,1.83994
-0.110754,0.618373,1.729,1.83959
-0.104595,0.615154,1.72,1.82969
-0.0990125,0.615154,1.72,1.82938
-0.0934298,0.615154,1.72,1.82908
-0.0878471,0.615154,1.72,1.82881
-0.0822644,0.615154,1.72,1.82855
-0.076325,0.612293,1.712,1.8198
-0.0707683,0.612293,1.712,1.81958
-0.0648688,0.609074,1.703,1.8098
-0.0593413,0.609074,1.703,1.80961
-0.0538137,0.609074,1.703,1.80944
-0.0482862,0.609074,1.703,1.80929
-0.0427587,0.609074,1.703,1.80915
-0.0372312,0.609074,1.703,1.80902
-0.0317037,0.609074,1.703,1.80892
-0.0261762,0.609074,1.703,1.80883
-0.0205516,0.606213,1.695,1.80026
-0.0150501,0.606213,1.695,1.80021
-0.00954855,0.606213,1.695,1.80017
-0.004047,0.606213,1.695,1.80015
0.00145455,0.606213,1.695,1.80014
0.0069561,0.606213,1.695,1.80016
0.0124576,0.606213,1.695,1.80019
0.0179592,0.606213,1.695,1.80023
0.0234607,0.606213,1.695,1.8003
0.0289623,0.606213,1.695,1.80038
0.0344638,0.606213,1.695,1.80047
0.0399654,0.606213,1.695,1.80059
0.0454669,0.606213,1.695,1.80072
0.0509685,0.606213,1.695,1.80087
0.05647,0.606213,1.695,1.80103
0.0619716,0.606213,1.695,1.80121
0.0674731,0.606213,1.695,1.80141
0.0729747,0.606213,1.695,1.80162
0.0784762,0.606213,1.695,1.80185
0.0839778,0.606213,1.695,1.8021
0.0894793,0.606213,1.695,1.80237
0.0949809,0.606213,1.695,1.80265
0.100482,0.606213,1.695,1.80295
0.105984,0.606213,1.695,1.80326
0.110894,0.602994,1.686,1.79402
0.116366,0.602994,1.686,1.79436
0.121838,0.602994,1.686,1.79473
0.126706,0.600133,1.678,1.78659
0.132153,0.600133,1.678,1.78698
0.137599,0.600133,1.678,1.78739
0.143046,0.600133,1.678,1.78782
0.148492,0.600133,1.678,1.78827
0.153938,0.600133,1.678,1.78873
0.159385,0.600133,1.678,1.7892
0.164831,0.600133,1.678,1.7897
0.170277,0.600133,1.678,1.79021
0.175724,0.600133,1.678,1.79073
0.18117,0.600133,1.678,1.79128
0.186617,0.600133,1.678,1.79183
0.192063,0.600133,1.678,1.79241
0.197509,0.600133,1.678,1.793
0.202956,0.600133,1.678,1.79361
0.208402,0.600133,1.678,1.79423
0.214868,0.602994,1.686,1.80343
0.221517,0.606213,1.695,1.81372
0.227018,0.606213,1.695,1.8144
0.23252,0.606213,1.695,1.8151
0.239145,0.609074,1.703,1.82438
0.245965,0.612293,1.712,1.83476
0.251522,0.612293,1.712,1.83551
0.262334,0.624811,1.747,1.87382
0.269385,0.62803,1.756,1.88428
0.275085,0.62803,1.756,1.88511
0.280784,0.62803,1.756,1.88595
0.287952,0.631248,1.765,1.89647
0.293681,0.631248,1.765,1.89735
0.29941,0.631248,1.765,1.89825
0.305138,0.631248,1.765,1.89916
0.312452,0.634467,1.774,1.90978
0.31821,0.634467,1.774,1.91073
0.323968,0.634467,1.774,1.9117
0.329726,0.634467,1.774,1.91268
0.335484,0.634467,1.774,1.91368
0.341242,0.634467,1.774,1.9147
0.34524,0.631248,1.765,1.90601
0.350968,0.631248,1.765,1.90706
0.354878,0.62803,1.756,1.89839
0.360578,0.62803,1.756,1.89947
0.366277,0.62803,1.756,1.90056
0.371977,0.62803,1.756,1.90166
0.377677,0.62803,1.756,1.90279
0.383376,0.62803,1.756,1.90393
0.389076,0.62803,1.756,1.90508
0.392752,0.624811,1.747,1.89648
0.398422,0.624811,1.747,1.89767
0.404092,0.624811,1.747,1.89887
0.409763,0.624811,1.747,1.90008
0.415433,0.624811,1.747,1.90131
0.421103,0.624811,1.747,1.90256
0.428972,0.62803,1.756,1.91363
0.434672,0.62803,1.756,1.91491
0.440371,0.62803,1.756,1.91622
0.446071,0.62803,1.756,1.91753
0.449455,0.624811,1.747,1.90903
0.455125,0.624811,1.747,1.91038
0.460796,0.624811,1.747,1.91173
0.466466,0.624811,1.747,1.91311
0.472136,0.624811,1.747,1.9145
0.477807,0.624811,1.747,1.91591
0.483477,0.624811,1.747,1.91733
0.489147,0.624811,1.747,1.91877
0.494818,0.624811,1.747,1.92022
0.500488,0.624811,1.747,1.92169
0.503551,0.621592,1.738,1.91327
0.509192,0.621592,1.738,1.91476
0.514833,0.621592,1.738,1.91627
0.523169,0.624811,1.747,1.92772
0.52884,0.624811,1.747,1.92927
0.53451,0.624811,1.747,1.93083
0.54018,0.624811,1.747,1.93241
0.545851,0.624811,1.747,1.934
0.551521,0.624811,1.747,1.93561
0.557191,0.624811,1.747,1.93723
0.565761,0.62803,1.756,1.94886
0.571461,0.62803,1.756,1.95052
0.57716,0.62803,1.756,1.9522
0.585847,0.631248,1.765,1.9639
0.591576,0.631248,1.765,1.96562
0.597305,0.631248,1.765,1.96735
0.603034,0.631248,1.765,1.9691
0.608762,0.631248,1.765,1.97086
0.614491,0.631248,1.765,1.97264
0.62022,0.631248,1.765,1.97443
0.625949,0.631248,1.765,1.97624
0.631677,0.631248,1.765,1.97806
0.637406,0.631248,1.765,1.9799
0.643135,0.631248,1.765,1.98175
0.648864,0.631248,1.765,1.98361
0.654592,0.631248,1.765,1.9855
0.660321,0.631248,1.765,1.98739
0.66605,0.631248,1.765,1.9893
0.671779,0.631248,1.765,1.99123
0.674053,0.62803,1.756,1.983
0.679752,0.62803,1.756,1.98495
0.685452,0.62803,1.756,1.98691
0.687609,0.624811,1.747,1.97869
0.693279,0.624811,1.747,1.98066
0.69895,0.624811,1.747,1.98266
0.70099,0.621592,1.738,1.97444
0.706631,0.621592,1.738,1.97645
0.712272,0.621592,1.738,1.97847
0.714196,0.618373,1.729,1.97025
0.719808,0.618373,1.729,1.9723
0.725419,0.618373,1.729,1.97435
0.731031,0.618373,1.729,1.97642
0.736643,0.618373,1.729,1.9785
0.742255,0.618373,1.729,1.9806
0.743974,0.615154,1.72,1.97239
0.749557,0.615154,1.72,1.9745
0.75514,0.615154,1.72,1.97663
0.757184,0.612293,1.712,1.96956
0.762741,0.612293,1.712,1.97171
0.768297,0.612293,1.712,1.97386
0.769786,0.609074,1.703,1.96564
0.775313,0.609074,1.703,1.96781
0.780841,0.609074,1.703,1.97
0.786369,0.609074,1.703,1.9722
0.791896,0.609074,1.703,1.97441
0.797424,0.609074,1.703,1.97663
0.802951,0.609074,1.703,1.97887
0.808479,0.609074,1.703,1.98112
0.814006,0.609074,1.703,1.98338
0.823865,0.612293,1.712,1.99615
0.829421,0.612293,1.712,1.99845
0.834978,0.612293,1.712,2.00076
0.844463,0.615154,1.72,2.01244
0.850045,0.615154,1.72,2.01479
0.855628,0.615154,1.72,2.01715
0.865717,0.618373,1.729,2.0301
0.875865,0.621592,1.738,2.04308
0.881506,0.621592,1.738,2.0455
0.891741,0.624811,1.747,2.05854
0.902034,0.62803,1.756,2.07162
0.907734,0.62803,1.756,2.07411
0.918115,0.631248,1.765,2.08726
0.923844,0.631248,1.765,2.08978
0.929572,0.631248,1.765,2.09232
0.935301,0.631248,1.765,2.09487
0.94103,0.631248,1.765,2.09744
0.946759,0.631248,1.765,2.10001
0.952487,0.631248,1.765,2.1026
0.95333,0.62803,1.756,2.09447
0.95903,0.62803,1.756,2.09707
0.964729,0.62803,1.756,2.09968
0.970429,0.62803,1.756,2.10231
0.976128,0.62803,1.756,2.10494
0.971763,0.621592,1.738,2.08599
0.972343,0.618373,1.729,2.07781
0.977955,0.618373,1.729,2.08044
0.983567,0.618373,1.729,2.08308
0.989179,0.618373,1.729,2.08574
0.994791,0.618373,1.729,2.08841
0.995195,0.615154,1.72,2.0802
1.00078,0.615154,1.72,2.08288
1.00636,0.615154,1.72,2.08556
1.00724,0.612293,1.712,2.07855
1.01279,0.612293,1.712,2.08125
1.01835,0.612293,1.712,2.08396
1.02391,0.612293,1.712,2.08668
1.02946,0.612293,1.712,2.08941
1.03502,0.612293,1.712,2.09216
1.04058,0.612293,1.712,2.09491
1.04613,0.612293,1.712,2.09768
1.05169,0.612293,1.712,2.10045
1.05725,0.612293,1.712,2.10324
1.0628,0.612293,1.712,2.10604
1.07335,0.615154,1.72,2.1187
1.09023,0.621592,1.738,2.14374
1.09587,0.621592,1.738,2.14661
1.10151,0.621592,1.738,2.1495
1.10715,0.621592,1.738,2.15239
1.11855,0.624811,1.747,2.16646
1.12422,0.624811,1.747,2.1694
1.12989,0.624811,1.747,2.17234
1.14141,0.62803,1.756,2.1865
1.14711,0.62803,1.756,2.18948
1.15281,0.62803,1.756,2.19247
1.15851,0.62803,1.756,2.19548
1.16421,0.62803,1.756,2.19849
1.16991,0.62803,1.756,2.20151
1.17561,0.62803,1.756,2.20455
1.18131,0.62803,1.756,2.20759
1.18701,0.62803,1.756,2.21065
1.21105,0.637686,1.783,2.24775
-1.3729,0.714207,1.979,2.51225
-1.36647,0.714207,1.979,2.50874
-1.36761,0.718176,1.99,2.51917
-1.36115,0.718176,1.99,2.51567
-1.35469,0.718176,1.99,2.51218
-1.35636,0.722507,2.002,2.52383
-1.34986,0.722507,2.002,2.52035
-1.34337,0.722507,2.002,2.51687
-1.34488,0.726838,2.014,2.52848
-1.33835,0.726838,2.014,2.52501
-1.33181,0.726838,2.014,2.52155
-1.30948,0.718176,1.99,2.48809
-1.28796,0.709876,1.967,2.45598
-1.28158,0.709876,1.967,2.45264
-1.27519,0.709876,1.967,2.44931
-1.26171,0.705906,1.956,2.43231
-1.25536,0.705906,1.956,2.42903
-1.24901,0.705906,1.956,2.42575
-1.23568,0.701936,1.945,2.40887
-1.22936,0.701936,1.945,2.40563
-1.22305,0.701936,1.945,2.40241
-1.21674,0.701936,1.945,2.39921
-1.21042,0.701936,1.945,2.39601
-1.20411,0.701936,1.945,2.39283
-1.1978,0.701936,1.945,2.38966
-1.19822,0.705906,1.956,2.4
-1.19858,0.709876,1.967,2.41031
-1.19219,0.709876,1.967,2.40714
-1.19304,0.714207,1.979,2.41865
-1.18662,0.714207,1.979,2.41549
-1.1802,0.714207,1.979,2.41234
-1.17377,0.714207,1.979,2.40921
-1.16735,0.714207,1.979,2.40608
-1.16093,0.714207,1.979,2.40297
-1.1545,0.714207,1.979,2.39988
-1.14112,0.709876,1.967,2.38226
-1.13473,0.709876,1.967,2.37921
-1.12204,0.705906,1.956,2.36288
-1.10942,0.701936,1.945,2.3466
-1.1031,0.701936,1.945,2.34362
-1.09679,0.701936,1.945,2.34066
-1.08431,0.697966,1.934,2.32449
-1.07803,0.697966,1.934,2.32157
-1.05956,0.690027,1.912,2.29228
-1.05336,0.690027,1.912,2.28942
-1.05318,0.693997,1.923,2.29973
-1.04694,0.693997,1.923,2.29688
-1.03474,0.690027,1.912,2.28091
-1.02853,0.690027,1.912,2.27811
-1.03997,0.701936,1.945,2.31458
-1.03366,0.701936,1.945,2.31175
-1.02154,0.697966,1.934,2.29588
-1.01526,0.697966,1.934,2.29309
-1.00898,0.697966,1.934,2.29032
-1.00271,0.697966,1.934,2.28756
-1.0021,0.701936,1.945,2.29781
-0.995783,0.701936,1.945,2.29506
-0.98947,0.701936,1.945,2.29233
-0.983157,0.701936,1.945,2.28962
-0.976844,0.701936,1.945,2.28691
-0.970531,0.701936,1.945,2.28422
-0.964218,0.701936,1.945,2.28155
-0.957905,0.701936,1.945,2.27889
-0.951592,0.701936,1.945,2.27624
-0.945279,0.701936,1.945,2.27361
-0.938966,0.701936,1.945,2.27099
-0.927378,0.697966,1.934,2.25556
-0.915862,0.693997,1.923,2.24017
-0.909621,0.693997,1.923,2.23763
-0.903379,0.693997,1.923,2.2351
-0.892006,0.690027,1.912,2.21981
-0.881167,0.686418,1.902,2.20573
-0.874993,0.686418,1.902,2.20327
-0.86882,0.686418,1.902,2.20082
-0.857658,0.682448,1.891,2.18568
-0.85152,0.682448,1.891,2.18328
-0.840912,0.678839,1.881,2.16936
-0.834806,0.678839,1.881,2.167
-0.833107,0.682448,1.891,2.17616
-0.826969,0.682448,1.891,2.17382
-0.820831,0.682448,1.891,2.17149
-0.814694,0.682448,1.891,2.16918
-0.808556,0.682448,1.891,2.16688
-0.802418,0.682448,1.891,2.1646
-0.79628,0.682448,1.891,2.16233
-0.794739,0.686418,1.902,2.17264
-0.788566,0.686418,1.902,2.17039
-0.782392,0.686418,1.902,2.16816
-0.776219,0.686418,1.902,2.16594
-0.770045,0.686418,1.902,2.16373
-0.763872,0.686418,1.902,2.16154
-0.757698,0.686418,1.902,2.15937
-0.755476,0.690027,1.912,2.16855
-0.745352,0.686418,1.902,2.15507
-0.739178,0.686418,1.902,2.15294
-0.733005,0.686418,1.902,2.15083
-0.722628,0.682448,1.891,2.13631
-0.712701,0.678839,1.881,2.12295
-0.706596,0.678839,1.881,2.12091
-0.700491,0.678839,1.881,2.11888
-0.687002,0.671621,1.861,2.09437
-0.680962,0.671621,1.861,2.09239
-0.674922,0.671621,1.861,2.09043
-0.664928,0.667651,1.85,2.07615
-0.655717,0.664403,1.841,2.06414
-0.649742,0.664403,1.841,2.06225
-0.64027,0.660795,1.831,2.04918
-0.634327,0.660795,1.831,2.04734
-0.628384,0.660795,1.831,2.0455
-0.622441,0.660795,1.831,2.04368
-0.613131,0.657186,1.821,2.03073
-0.60722,0.657186,1.821,2.02895
-0.60131,0.657186,1.821,2.02719
-0.595399,0.657186,1.821,2.02545
-0.589489,0.657186,1.821,2.02372
-0.583578,0.657186,1.821,2.022
-0.577668,0.657186,1.821,2.02031
-0.571757,0.657186,1.821,2.01862
-0.565847,0.657186,1.821,2.01696
-0.556861,0.653577,1.811,2.00424
-0.550983,0.653577,1.811,2.00261
-0.545105,0.653577,1.811,2.00101
-0.539227,0.653577,1.811,1.99941
-0.530699,0.650329,1.802,1.98791
-0.52485,0.650329,1.802,1.98635
-0.519001,0.650329,1.802,1.98482
-0.513152,0.650329,1.802,1.98329
-0.507303,0.650329,1.802,1.98179
-0.498672,0.64672,1.792,1.96931
-0.492855,0.64672,1.792,1.96785
-0.487039,0.64672,1.792,1.9664
-0.481222,0.64672,1.792,1.96496
-0.473018,0.643472,1.783,1.95369
-0.467231,0.643472,1.783,1.95229
-0.461444,0.643472,1.783,1.95092
-0.455657,0.643472,1.783,1.94956
-0.44987,0.643472,1.783,1.94821
-0.444082,0.643472,1.783,1.94688
-0.436083,0.640224,1.774,1.93575
-0.430325,0.640224,1.774,1.93446
-0.424567,0.640224,1.774,1.93319
-0.418809,0.640224,1.774,1.93193
-0.413051,0.640224,1.774,1.93069
-0.405227,0.636976,1.765,1.91968
-0.399498,0.636976,1.765,1.91848
-0.393769,0.636976,1.765,1.91729
-0.38804,0.636976,1.765,1.91613
-0.382312,0.636976,1.765,1.91497
-0.376583,0.636976,1.765,1.91384
-0.370854,0.636976,1.765,1.91272
-0.365125,0.636976,1.765,1.91162
-0.359397,0.636976,1.765,1.91053
-0.353668,0.636976,1.765,1.90946
-0.349713,0.640224,1.774,1.91814
-0.343955,0.640224,1.774,1.9171
-0.338198,0.640224,1.774,1.91607
-0.33244,0.640224,1.774,1.91507
-0.326682,0.640224,1.774,1.91408
-0.320924,0.640224,1.774,1.9131
-0.315166,0.640224,1.774,1.91214
-0.310977,0.643472,1.783,1.9209
-0.30519,0.643472,1.783,1.91997
-0.299403,0.643472,1.783,1.91906
-0.293616,0.643472,1.783,1.91816
-0.287829,0.643472,1.783,1.91729
-0.282042,0.643472,1.783,1.91643
-0.276254,0.643472,1.783,1.91558
-0.270467,0.643472,1.783,1.91476
-0.26468,0.643472,1.783,1.91395
-0.257586,0.640224,1.774,1.9035
-0.251828,0.640224,1.774,1.90273
-0.24607,0.640224,1.774,1.90198
-0.240312,0.640224,1.774,1.90124
-0.234554,0.640224,1.774,1.90052
-0.228796,0.640224,1.774,1.89982
-0.221907,0.636976,1.765,1.8895
-0.215076,0.633728,1.756,1.8792
-0.209376,0.633728,1.756,1.87856
-0.203677,0.633728,1.756,1.87793
-0.197977,0.633728,1.756,1.87732
-0.192277,0.633728,1.756,1.87673
-0.185622,0.63048,1.747,1.86654
-0.179951,0.63048,1.747,1.86598
-0.174281,0.63048,1.747,1.86545
-0.167742,0.627232,1.738,1.85532
-0.161262,0.623984,1.729,1.84521
-0.15565,0.623984,1.729,1.84473
-0.150038,0.623984,1.729,1.84426
-0.143674,0.620735,1.72,1.83422
-0.138091,0.620735,1.72,1.83379
-0.132509,0.620735,1.72,1.83338
-0.126336,0.617848,1.712,1.82446
-0.120779,0.617848,1.712,1.82408
-0.115222,0.617848,1.712,1.82372
-0.109089,0.6146,1.703,1.81379
-0.103075,0.611713,1.695,1.80495
-0.0975733,0.611713,1.695,1.80464
-0.0920718,0.611713,1.695,1.80435
-0.0865702,0.611713,1.695,1.80408
-0.0810687,0.611713,1.695,1.80383
-0.0751659,0.608465,1.686,1.79401
-0.0696936,0.608465,1.686,1.79379
-0.0642212,0.608465,1.686,1.79359
-0.0584701,0.605578,1.678,1.78489
-0.0530238,0.605578,1.678,1.78472
-0.0475774,0.605578,1.678,1.78457
-0.042131,0.605578,1.678,1.78443
-0.0365097,0.602691,1.67,1.7758
-0.0310893,0.602691,1.67,1.7757
-0.0256689,0.602691,1.67,1.77561
-0.0202485,0.602691,1.67,1.77554
-0.0150501,0.611713,1.695,1.80207
-0.00954855,0.611713,1.695,1.80203
-0.004047,0.611713,1.695,1.80201
0.00145455,0.611713,1.695,1.802
0.0069561,0.611713,1.695,1.80202
0.0124576,0.611713,1.695,1.80205
0.0179592,0.611713,1.695,1.80209
0.0234607,0.611713,1.695,1.80216
0.0289623,0.611713,1.695,1.80224
0.0344638,0.611713,1.695,1.80233
0.0399654,0.611713,1.695,1.80245
0.0454669,0.611713,1.695,1.80258
0.0509685,0.611713,1.695,1.80272
0.05647,0.611713,1.695,1.80289
0.0619716,0.611713,1.695,1.80307
0.0674731,0.611713,1.695,1.80327
0.0729747,0.611713,1.695,1.80348
0.0784762,0.611713,1.695,1.80371
0.0839778,0.611713,1.695,1.80396
0.0894793,0.611713,1.695,1.80422
0.0949809,0.611713,1.695,1.80451
0.100482,0.611713,1.695,1.8048
0.105984,0.611713,1.695,1.80512
0.110894,0.608465,1.686,1.79586
0.116366,0.608465,1.686,1.79621
0.121838,0.608465,1.686,1.79657
0.126706,0.605578,1.678,1.78842
0.132153,0.605578,1.678,1.78882
0.137599,0.605578,1.678,1.78923
0.143046,0.605578,1.678,1.78966
0.148492,0.605578,1.678,1.7901
0.153938,0.605578,1.678,1.79056
0.159385,0.605578,1.678,1.79104
0.164831,0.605578,1.678,1.79153
0.170277,0.605578,1.678,1.79204
0.175724,0.605578,1.678,1.79256
0.18117,0.605578,1.678,1.79311
0.186617,0.605578,1.678,1.79367
0.192063,0.605578,1.678,1.79424
0.197509,0.605578,1.678,1.79483
0.202956,0.605578,1.678,1.79544
0.208402,0.605578,1.678,1.79606
0.214868,0.608465,1.686,1.80527
0.221517,0.611713,1.695,1.81557
0.227018,0.611713,1.695,1.81625
0.23252,0.611713,1.695,1.81694
0.239145,0.6146,1.703,1.82623
0.245965,0.617848,1.712,1.83662
0.251522,0.617848,1.712,1.83737
0.25828,0.620735,1.72,1.84673
0.263863,0.620735,1.72,1.84752
0.269445,0.620735,1.72,1.84833
0.276467,0.623984,1.729,1.85883
0.283547,0.627232,1.738,1.86935
0.289188,0.627232,1.738,1.87021
0.29483,0.627232,1.738,1.87109
0.302027,0.63048,1.747,1.88168
0.307697,0.63048,1.747,1.8826
0.311753,0.627232,1.738,1.87383
0.317394,0.627232,1.738,1.87478
0.323035,0.627232,1.738,1.87574
0.328676,0.627232,1.738,1.87672
0.334317,0.627232,1.738,1.87772
0.339958,0.627232,1.738,1.87873
0.34381,0.623984,1.729,1.87003
0.349422,0.623984,1.729,1.87107
0.355034,0.623984,1.729,1.87212
0.360646,0.623984,1.729,1.8732
0.364351,0.620735,1.72,1.86453
0.369934,0.620735,1.72,1.86563
0.375516,0.620735,1.72,1.86674
0.379327,0.617848,1.712,1.85919
0.384883,0.617848,1.712,1.86033
0.39044,0.617848,1.712,1.86148
0.395997,0.617848,1.712,1.86266
0.401553,0.617848,1.712,1.86385
0.409013,0.620735,1.72,1.87377
0.414595,0.620735,1.72,1.87499
0.420178,0.620735,1.72,1.87624
0.425761,0.620735,1.72,1.87749
0.431343,0.620735,1.72,1.87877
0.436926,0.620735,1.72,1.88006
0.442509,0.620735,1.72,1.88136
0.448091,0.620735,1.72,1.88268
0.453674,0.620735,1.72,1.88402
0.457121,0.617848,1.712,1.8766
