0.0102556,-0.0468642,2.499,2.49946
0.0183668,-0.0468642,2.499,2.49951
0.0262872,-0.0465266,2.481,2.48158
0.0343399,-0.0465266,2.481,2.48167
0.0423926,-0.0465266,2.481,2.4818
0.0504453,-0.0465266,2.481,2.48195
0.058498,-0.0465266,2.481,2.48213
0.0665507,-0.0465266,2.481,2.48233
0.0746034,-0.0465266,2.481,2.48256
0.0826561,-0.0465266,2.481,2.48281
0.0907089,-0.0465266,2.481,2.48309
0.098045,-0.0461891,2.463,2.46538
0.106039,-0.0461891,2.463,2.46571
0.114034,-0.0461891,2.463,2.46607
0.122028,-0.0461891,2.463,2.46645
0.130022,-0.0461891,2.463,2.46686
0.138016,-0.0461891,2.463,2.4673
0.146011,-0.0461891,2.463,2.46776
0.15288,-0.0458515,2.445,2.4502
0.160815,-0.0458515,2.445,2.45071
0.168751,-0.0458515,2.445,2.45125
0.176687,-0.0458515,2.445,2.4518
0.183339,-0.0455327,2.428,2.43534
0.19122,-0.0455327,2.428,2.43594
0.199101,-0.0455327,2.428,2.43658
0.206981,-0.0455327,2.428,2.43723
0.216366,-0.0458515,2.445,2.45498
0.224302,-0.0458515,2.445,2.4557
0.232238,-0.0458515,2.445,2.45643
0.240174,-0.0458515,2.445,2.4572
0.24811,-0.0458515,2.445,2.45798
0.254265,-0.0455327,2.428,2.4417
0.262146,-0.0455327,2.428,2.44254
0.270027,-0.0455327,2.428,2.44339
0.277908,-0.0455327,2.428,2.44428
0.285788,-0.0455327,2.428,2.44519
0.293669,-0.0455327,2.428,2.44612
0.30155,-0.0455327,2.428,2.44708
0.30943,-0.0455327,2.428,2.44806
0.317311,-0.0455327,2.428,2.44907
0.325192,-0.0455327,2.428,2.4501
0.333072,-0.0455327,2.428,2.45116
0.340953,-0.0455327,2.428,2.45225
0.348834,-0.0455327,2.428,2.45335
0.356714,-0.0455327,2.428,2.45449
0.364595,-0.0455327,2.428,2.45564
0.372476,-0.0455327,2.428,2.45683
0.380356,-0.0455327,2.428,2.45803
0.388237,-0.0455327,2.428,2.45927
0.396118,-0.0455327,2.428,2.46052
0.403999,-0.0455327,2.428,2.4618
0.411879,-0.0455327,2.428,2.46311
0.41976,-0.0455327,2.428,2.46444
0.427641,-0.0455327,2.428,2.46579
0.435521,-0.0455327,2.428,2.46717
0.443402,-0.0455327,2.428,2.46858
0.451283,-0.0455327,2.428,2.47
0.459163,-0.0455327,2.428,2.47145
0.467044,-0.0455327,2.428,2.47293
0.47825,-0.0458515,2.445,2.49176
0.486186,-0.0458515,2.445,2.49329
0.494122,-0.0458515,2.445,2.49485
0.502058,-0.0458515,2.445,2.49644
0.513748,-0.0461891,2.463,2.51643
0.521742,-0.0461891,2.463,2.51808
0.529737,-0.0461891,2.463,2.51975
0.537731,-0.0461891,2.463,2.52144
0.545725,-0.0461891,2.463,2.52316
0.557766,-0.0465266,2.481,2.54335
0.565819,-0.0465266,2.481,2.54513
0.573871,-0.0465266,2.481,2.54693
0.581924,-0.0465266,2.481,2.54876
0.594257,-0.0468642,2.499,2.56911
0.602368,-0.0468642,2.499,2.571
0.610479,-0.0468642,2.499,2.57291
0.618591,-0.0468642,2.499,2.57485
0.631216,-0.0472017,2.517,2.59537
0.639385,-0.0472017,2.517,2.59737
0.647555,-0.0472017,2.517,2.59939
0.655725,-0.0472017,2.517,2.60144
0.663894,-0.0472017,2.517,2.60351
0.672064,-0.0472017,2.517,2.60561
0.680233,-0.0472017,2.517,2.60773
0.688403,-0.0472017,2.517,2.60987
0.696572,-0.0472017,2.517,2.61204
0.704742,-0.0472017,2.517,2.61423
0.712911,-0.0472017,2.517,2.61644
0.715924,-0.0468642,2.499,2.59995
0.724035,-0.0468642,2.499,2.6022
0.732147,-0.0468642,2.499,2.60446
0.740258,-0.0468642,2.499,2.60676
0.748369,-0.0468642,2.499,2.60907
0.75648,-0.0468642,2.499,2.61141
0.764591,-0.0468642,2.499,2.61377
0.772702,-0.0468642,2.499,2.61615
0.780813,-0.0468642,2.499,2.61856
0.788924,-0.0468642,2.499,2.62099
0.797036,-0.0468642,2.499,2.62345
0.805147,-0.0468642,2.499,2.62592
0.813258,-0.0468642,2.499,2.62842
0.821369,-0.0468642,2.499,2.63094
0.823505,-0.0465266,2.481,2.61451
0.831558,-0.0465266,2.481,2.61706
0.839611,-0.0465266,2.481,2.61963
0.847664,-0.0465266,2.481,2.62222
0.855716,-0.0465266,2.481,2.62484
0.863769,-0.0465266,2.481,2.62747
0.865497,-0.0461891,2.463,2.61105
0.873491,-0.0461891,2.463,2.61371
0.881485,-0.0461891,2.463,2.61639
0.889479,-0.0461891,2.463,2.6191
0.890915,-0.0458515,2.445,2.60266
0.898851,-0.0458515,2.445,2.60539
0.906787,-0.0458515,2.445,2.60814
0.914722,-0.0458515,2.445,2.61091
0.922658,-0.0458515,2.445,2.6137
0.924124,-0.0455327,2.428,2.59832
0.932004,-0.0455327,2.428,2.60113
0.939885,-0.0455327,2.428,2.60397
0.94113,-0.0452139,2.411,2.58857
0.948955,-0.0452139,2.411,2.59142
0.956781,-0.0452139,2.411,2.5943
0.964606,-0.0452139,2.411,2.5972
0.972432,-0.0452139,2.411,2.60011
0.980257,-0.0452139,2.411,2.60305
0.988083,-0.0452139,2.411,2.60601
1.00293,-0.0455327,2.428,2.62738
1.02538,-0.0461891,2.463,2.66832
1.04093,-0.0465266,2.481,2.69092
1.04898,-0.0465266,2.481,2.69405
1.07237,-0.0472017,2.517,2.73633
1.10501,-0.0482707,2.574,2.80158
1.11337,-0.0482707,2.574,2.80489
1.13872,-0.049002,2.613,2.85076
1.17442,-0.0501647,2.675,2.92188
1.20168,-0.0509524,2.717,2.97131
1.21049,-0.0509524,2.717,2.97489
1.24893,-0.0521901,2.783,3.05084
1.27876,-0.0530527,2.829,3.10504
1.28794,-0.0530527,2.829,3.10883
1.31913,-0.0539529,2.877,3.16546
1.33955,-0.0544029,2.901,3.1958
1.34897,-0.0544029,2.901,3.19976
1.37009,-0.0548718,2.926,3.23135
1.39137,-0.0553406,2.951,3.26303
1.40095,-0.0553406,2.951,3.26713
1.41053,-0.0553406,2.951,3.27125
1.42011,-0.0553406,2.951,3.27539
1.44228,-0.0558282,2.977,3.30845
1.45195,-0.0558282,2.977,3.31267
1.46161,-0.0558282,2.977,3.31692
1.47127,-0.0558282,2.977,3.32119
1.48093,-0.0558282,2.977,3.32548
1.50361,-0.0563158,3.003,3.35887
1.51336,-0.0563158,3.003,3.36325
1.52311,-0.0563158,3.003,3.36765
1.53285,-0.0563158,3.003,3.37207
1.55647,-0.0568221,3.03,3.40687
1.58026,-0.0573284,3.057,3.44177
1.59019,-0.0573284,3.057,3.44634
1.61424,-0.0578348,3.084,3.4814
1.65427,-0.0589037,3.141,3.55049
1.66447,-0.0589037,3.141,3.55525
1.69012,-0.0594476,3.17,3.5929
1.71597,-0.0599914,3.199,3.63067
1.74308,-0.0605727,3.23,3.67082
1.75356,-0.0605727,3.23,3.67581
1.76405,-0.0605727,3.23,3.68082
1.79101,-0.0611353,3.26,3.72009
1.80159,-0.0611353,3.26,3.72519
1.81217,-0.0611353,3.26,3.73032
1.82276,-0.0611353,3.26,3.73548
1.81647,-0.0605727,3.23,3.70623
1.82695,-0.0605727,3.23,3.71138
1.83743,-0.0605727,3.23,3.71655
1.83018,-0.0599914,3.199,3.68602
1.84056,-0.0599914,3.199,3.69119
1.83417,-0.0594476,3.17,3.66287
1.84446,-0.0594476,3.17,3.66803
1.83778,-0.0589037,3.141,3.63961
1.83091,-0.0583599,3.112,3.61112
1.84101,-0.0583599,3.112,3.61625
1.83446,-0.0578348,3.084,3.58882
1.82832,-0.0573284,3.057,3.56248
1.83824,-0.0573284,3.057,3.56759
1.81552,-0.0563158,3.003,3.5096
1.79366,-0.0553406,2.951,3.45379
1.80324,-0.0553406,2.951,3.45878
1.79746,-0.0548718,2.926,3.43443
1.77669,-0.0539529,2.877,3.38182
1.78603,-0.0539529,2.877,3.38673
1.78039,-0.0535028,2.853,3.36337
1.7746,-0.0530527,2.829,3.33995
1.78378,-0.0530527,2.829,3.34484
1.77839,-0.0526214,2.806,3.32251
1.75883,-0.0517775,2.761,3.27403
1.76779,-0.0517775,2.761,3.27885
1.76259,-0.0513649,2.739,3.25753
1.74367,-0.0505585,2.696,3.21113
1.73877,-0.0501647,2.675,3.19084
1.74746,-0.0501647,2.675,3.19558
1.72856,-0.0493771,2.633,3.15009
1.71072,-0.048627,2.593,3.10686
1.71914,-0.048627,2.593,3.1115
1.70224,-0.0479144,2.555,3.07049
1.69781,-0.047558,2.536,3.05223
1.70604,-0.047558,2.536,3.05682
1.70143,-0.0472017,2.517,3.03848
1.68515,-0.0465266,2.481,2.99954
-2.02986,-0.0453774,2.926,3.56144
-2.0031,-0.0449897,2.901,3.52566
-1.99369,-0.0449897,2.901,3.52031
-1.96786,-0.0446175,2.877,3.48591
-1.95852,-0.0446175,2.877,3.48065
-1.94918,-0.0446175,2.877,3.4754
-1.92366,-0.0442453,2.853,3.44123
-1.9144,-0.0442453,2.853,3.43606
-1.90514,-0.0442453,2.853,3.43091
-1.89588,-0.0442453,2.853,3.42577
-1.87075,-0.0438731,2.829,3.39188
-1.86157,-0.0438731,2.829,3.38683
-1.8681,-0.0442453,2.853,3.41048
-1.85884,-0.0442453,2.853,3.40541
-1.83402,-0.0438731,2.829,3.37176
-1.82484,-0.0438731,2.829,3.36678
-1.81565,-0.0438731,2.829,3.36181
-1.80647,-0.0438731,2.829,3.35686
-1.79729,-0.0438731,2.829,3.35193
-1.78811,-0.0438731,2.829,3.34701
-1.79402,-0.0442453,2.853,3.37047
-1.79977,-0.0446175,2.877,3.39386
-1.79043,-0.0446175,2.877,3.38892
-1.78109,-0.0446175,2.877,3.38399
-1.78654,-0.0449897,2.901,3.40728
-1.77712,-0.0449897,2.901,3.40235
-1.7677,-0.0449897,2.901,3.39744
-1.77344,-0.0453774,2.926,3.42179
-1.77902,-0.0457651,2.951,3.44607
-1.76944,-0.0457651,2.951,3.44113
-1.77536,-0.0461683,2.977,3.46649
-1.78112,-0.0465715,3.003,3.49179
-1.77138,-0.0465715,3.003,3.48683
-1.76163,-0.0465715,3.003,3.48188
-1.75188,-0.0465715,3.003,3.47696
-1.74213,-0.0465715,3.003,3.47206
-1.73239,-0.0465715,3.003,3.46718
-1.72264,-0.0465715,3.003,3.46232
-1.71289,-0.0465715,3.003,3.45748
-1.70315,-0.0465715,3.003,3.45266
nan,nan,nan,NaN
-1.62647,-0.0449897,2.901,3.32614
-1.61705,-0.0449897,2.901,3.32155
-1.58103,-0.0442453,2.853,3.26209
-1.54588,-0.0435164,2.806,3.20395
-1.53677,-0.0435164,2.806,3.19956
-1.51514,-0.0431597,2.783,3.16901
-1.4942,-0.0428185,2.761,3.13968
-1.48524,-0.0428185,2.761,3.13543
-1.46452,-0.0424773,2.739,3.10624
-1.45563,-0.0424773,2.739,3.10206
-1.44674,-0.0424773,2.739,3.0979
-1.43785,-0.0424773,2.739,3.09376
-1.41748,-0.0421361,2.717,3.06482
-1.39777,-0.0418105,2.696,3.03709
-1.38902,-0.0418105,2.696,3.03308
-1.38027,-0.0418105,2.696,3.02908
-1.36084,-0.0414848,2.675,3.00154
-1.35216,-0.0414848,2.675,2.99761
-1.32238,-0.0408334,2.633,2.9467
-1.29387,-0.0402131,2.593,2.89817
-1.28546,-0.0402131,2.593,2.89442
-1.26769,-0.0399185,2.574,2.86951
-1.24074,-0.0393291,2.536,2.82352
-1.23251,-0.0393291,2.536,2.81991
-1.22428,-0.0393291,2.536,2.81633
-1.20693,-0.0390345,2.517,2.79168
-1.19876,-0.0390345,2.517,2.78816
-1.18208,-0.0387553,2.499,2.76475
-1.16551,-0.0384762,2.481,2.7414
-1.14906,-0.038197,2.463,2.71812
-1.14107,-0.038197,2.463,2.71475
-1.12479,-0.0379179,2.445,2.69158
-1.10909,-0.0376542,2.428,2.66959
-1.10121,-0.0376542,2.428,2.66632
-1.08568,-0.0373906,2.411,2.64443
-1.07025,-0.037127,2.394,2.6226
-1.06248,-0.037127,2.394,2.61944
-1.04722,-0.0368633,2.377,2.59772
-1.03951,-0.0368633,2.377,2.59462
-1.03179,-0.0368633,2.377,2.59154
-1.01718,-0.0366152,2.361,2.57105
-1.00952,-0.0366152,2.361,2.56803
-1.00186,-0.0366152,2.361,2.56503
-0.994193,-0.0366152,2.361,2.56205
-0.986529,-0.0366152,2.361,2.55908
-0.978866,-0.0366152,2.361,2.55614
-0.971203,-0.0366152,2.361,2.55321
-0.96354,-0.0366152,2.361,2.55031
-0.955876,-0.0366152,2.361,2.54742
-0.954639,-0.0368633,2.377,2.5618
-0.946924,-0.0368633,2.377,2.55894
-0.939209,-0.0368633,2.377,2.55609
-0.931494,-0.0368633,2.377,2.55327
-0.923778,-0.0368633,2.377,2.55046
-0.916063,-0.0368633,2.377,2.54768
-0.908348,-0.0368633,2.377,2.54491
-0.900633,-0.0368633,2.377,2.54217
-0.892918,-0.0368633,2.377,2.53945
-0.885203,-0.0368633,2.377,2.53674
-0.883763,-0.037127,2.394,2.55219
-0.875993,-0.037127,2.394,2.54951
-0.868223,-0.037127,2.394,2.54685
-0.860452,-0.037127,2.394,2.54421
-0.852682,-0.037127,2.394,2.54159
-0.844912,-0.037127,2.394,2.53899
-0.837141,-0.037127,2.394,2.53642
-0.829371,-0.037127,2.394,2.53386
-0.821601,-0.037127,2.394,2.53133
-0.819609,-0.0373906,2.411,2.54678
-0.811784,-0.0373906,2.411,2.54427
-0.803958,-0.0373906,2.411,2.54178
-0.796133,-0.0373906,2.411,2.53932
-0.793866,-0.0376542,2.428,2.55477
-0.785985,-0.0376542,2.428,2.55233
-0.778104,-0.0376542,2.428,2.54991
-0.770224,-0.0376542,2.428,2.54752
-0.762343,-0.0376542,2.428,2.54515
-0.754462,-0.0376542,2.428,2.5428
-0.751809,-0.0379179,2.445,2.55826
-0.743873,-0.0379179,2.445,2.55594
-0.735937,-0.0379179,2.445,2.55364
-0.728001,-0.0379179,2.445,2.55136
-0.720065,-0.0379179,2.445,2.54911
-0.712129,-0.0379179,2.445,2.54688
-0.704194,-0.0379179,2.445,2.54467
-0.696258,-0.0379179,2.445,2.54249
-0.688322,-0.0379179,2.445,2.54032
-0.680386,-0.0379179,2.445,2.53819
-0.67245,-0.0379179,2.445,2.53607
-0.664514,-0.0379179,2.445,2.53398
-0.656578,-0.0379179,2.445,2.53191
-0.648643,-0.0379179,2.445,2.52986
-0.640707,-0.0379179,2.445,2.52784
-0.628371,-0.0376542,2.428,2.50828
-0.620491,-0.0376542,2.428,2.50631
-0.61261,-0.0376542,2.428,2.50437
-0.604729,-0.0376542,2.428,2.50246
-0.596848,-0.0376542,2.428,2.50057
-0.588968,-0.0376542,2.428,2.4987
-0.581087,-0.0376542,2.428,2.49685
-0.573206,-0.0376542,2.428,2.49503
-0.565326,-0.0376542,2.428,2.49323
-0.557445,-0.0376542,2.428,2.49146
-0.549564,-0.0376542,2.428,2.4897
-0.541684,-0.0376542,2.428,2.48798
-0.53754,-0.0379179,2.445,2.50368
-0.529605,-0.0379179,2.445,2.50199
-0.521669,-0.0379179,2.445,2.50032
-0.513733,-0.0379179,2.445,2.49868
-0.505797,-0.0379179,2.445,2.49706
-0.497861,-0.0379179,2.445,2.49546
-0.489925,-0.0379179,2.445,2.49389
-0.485538,-0.038197,2.463,2.51069
-0.477544,-0.038197,2.463,2.50916
-0.469549,-0.038197,2.463,2.50765
-0.464928,-0.0384762,2.481,2.52448
-0.456875,-0.0384762,2.481,2.52301
-0.448823,-0.0384762,2.481,2.52156
-0.44077,-0.0384762,2.481,2.52014
-0.435857,-0.0387553,2.499,2.53702
-0.427746,-0.0387553,2.499,2.53564
-0.419634,-0.0387553,2.499,2.53428
-0.411523,-0.0387553,2.499,2.53295
-0.403412,-0.0387553,2.499,2.53165
-0.395301,-0.0387553,2.499,2.53037
-0.389979,-0.0390345,2.517,2.54733
-0.381809,-0.0390345,2.517,2.54609
-0.37364,-0.0390345,2.517,2.54488
-0.36547,-0.0390345,2.517,2.54369
-0.357301,-0.0390345,2.517,2.54253
-0.349131,-0.0390345,2.517,2.5414
-0.340961,-0.0390345,2.517,2.54029
-0.332792,-0.0390345,2.517,2.53921
-0.322301,-0.0387553,2.499,2.52
-0.31419,-0.0387553,2.499,2.51897
-0.306079,-0.0387553,2.499,2.51797
-0.297967,-0.0387553,2.499,2.517
-0.289856,-0.0387553,2.499,2.51605
-0.281745,-0.0387553,2.499,2.51513
-0.271663,-0.0384762,2.481,2.49613
-0.26361,-0.0384762,2.481,2.49526
-0.253704,-0.038197,2.463,2.47633
-0.245709,-0.038197,2.463,2.47552
-0.237715,-0.038197,2.463,2.47474
-0.229721,-0.038197,2.463,2.47398
-0.221726,-0.038197,2.463,2.47326
-0.213732,-0.038197,2.463,2.47255
-0.204234,-0.0379179,2.445,2.45381
-0.196298,-0.0379179,2.445,2.45316
-0.188363,-0.0379179,2.445,2.45254
-0.180427,-0.0379179,2.445,2.45194
-0.172491,-0.0379179,2.445,2.45137
-0.164555,-0.0379179,2.445,2.45082
-0.157772,-0.038197,2.463,2.46834
-0.149778,-0.038197,2.463,2.46785
-0.141784,-0.038197,2.463,2.46737
-0.133789,-0.038197,2.463,2.46693
-0.125795,-0.038197,2.463,2.46651
-0.117801,-0.038197,2.463,2.46611
-0.109806,-0.038197,2.463,2.46574
-0.101812,-0.038197,2.463,2.4654
-0.0945035,-0.0384762,2.481,2.4831
-0.0864508,-0.0384762,2.481,2.4828
-0.078398,-0.0384762,2.481,2.48254
-0.0703453,-0.0384762,2.481,2.4823
-0.0622926,-0.0384762,2.481,2.48208
-0.0542399,-0.0384762,2.481,2.48189
-0.0461872,-0.0384762,2.481,2.48173
-0.0384112,-0.0387553,2.499,2.4996
-0.0303,-0.0387553,2.499,2.49948
-0.0221889,-0.0387553,2.499,2.4994
-0.0140778,-0.0387553,2.499,2.49934
-0.00596664,-0.0387553,2.499,2.49931
0.00214449,-0.0387553,2.499,2.4993
0.0102556,-0.0387553,2.499,2.49932
0.0183668,-0.0387553,2.499,2.49937
0.0262872,-0.0384762,2.481,2.48144
0.0343399,-0.0384762,2.481,2.48154
0.0423926,-0.0384762,2.481,2.48166
0.0504453,-0.0384762,2.481,2.48181
0.058498,-0.0384762,2.481,2.48199
0.0665507,-0.0384762,2.481,2.48219
0.0746034,-0.0384762,2.481,2.48242
0.0826561,-0.0384762,2.481,2.48267
0.0907089,-0.0384762,2.481,2.48296
0.098045,-0.038197,2.463,2.46525
0.106039,-0.038197,2.463,2.46558
0.114034,-0.038197,2.463,2.46593
0.122028,-0.038197,2.463,2.46632
0.130022,-0.038197,2.463,2.46673
0.138016,-0.038197,2.463,2.46716
0.146011,-0.038197,2.463,2.46762
0.154005,-0.038197,2.463,2.46811
0.161999,-0.038197,2.463,2.46862
0.169994,-0.038197,2.463,2.46915
0.177988,-0.038197,2.463,2.46972
0.184623,-0.0379179,2.445,2.45225
0.192559,-0.0379179,2.445,2.45286
0.200495,-0.0379179,2.445,2.4535
0.208431,-0.0379179,2.445,2.45416
0.216366,-0.0379179,2.445,2.45485
0.224302,-0.0379179,2.445,2.45556
0.232238,-0.0379179,2.445,2.4563
0.240174,-0.0379179,2.445,2.45706
0.24811,-0.0379179,2.445,2.45785
0.256046,-0.0379179,2.445,2.45866
0.263982,-0.0379179,2.445,2.4595
0.271917,-0.0379179,2.445,2.46037
0.279853,-0.0379179,2.445,2.46126
0.287789,-0.0379179,2.445,2.46217
0.295725,-0.0379179,2.445,2.46311
0.303661,-0.0379179,2.445,2.46408
0.311597,-0.0379179,2.445,2.46507
0.319533,-0.0379179,2.445,2.46608
0.327469,-0.0379179,2.445,2.46712
0.335404,-0.0379179,2.445,2.46819
0.34334,-0.0379179,2.445,2.46928
0.351276,-0.0379179,2.445,2.4704
0.359212,-0.0379179,2.445,2.47154
0.367148,-0.0379179,2.445,2.4727
0.375084,-0.0379179,2.445,2.47389
0.38302,-0.0379179,2.445,2.47511
0.388237,-0.0376542,2.428,2.45913
0.396118,-0.0376542,2.428,2.46039
0.403999,-0.0376542,2.428,2.46167
0.411879,-0.0376542,2.428,2.46298
0.41976,-0.0376542,2.428,2.46431
0.427641,-0.0376542,2.428,2.46566
0.435521,-0.0376542,2.428,2.46704
0.446507,-0.0379179,2.445,2.48573
0.454442,-0.0379179,2.445,2.48716
0.462378,-0.0379179,2.445,2.48863
0.470314,-0.0379179,2.445,2.49011
0.47825,-0.0379179,2.445,2.49162
0.486186,-0.0379179,2.445,2.49316
0.497759,-0.038197,2.463,2.51308
0.505754,-0.038197,2.463,2.51468
0.513748,-0.038197,2.463,2.5163
0.521742,-0.038197,2.463,2.51794
0.533608,-0.0384762,2.481,2.53803
0.541661,-0.0384762,2.481,2.53973
0.549713,-0.0384762,2.481,2.54146
0.557766,-0.0384762,2.481,2.54322
0.569924,-0.0387553,2.499,2.56346
0.578035,-0.0387553,2.499,2.56527
0.586146,-0.0387553,2.499,2.56711
0.594257,-0.0387553,2.499,2.56898
0.602368,-0.0387553,2.499,2.57087
0.610479,-0.0387553,2.499,2.57278
0.623046,-0.0390345,2.517,2.59326
0.631216,-0.0390345,2.517,2.59524
0.639385,-0.0390345,2.517,2.59723
0.647555,-0.0390345,2.517,2.59926
0.655725,-0.0390345,2.517,2.60131
0.663894,-0.0390345,2.517,2.60338
0.672064,-0.0390345,2.517,2.60547
0.680233,-0.0390345,2.517,2.60759
0.688403,-0.0390345,2.517,2.60973
0.696572,-0.0390345,2.517,2.6119
0.704742,-0.0390345,2.517,2.61409
0.712911,-0.0390345,2.517,2.61631
0.721081,-0.0390345,2.517,2.61854
0.724035,-0.0387553,2.499,2.60206
0.732147,-0.0387553,2.499,2.60433
0.740258,-0.0387553,2.499,2.60662
0.748369,-0.0387553,2.499,2.60894
0.75648,-0.0387553,2.499,2.61128
0.764591,-0.0387553,2.499,2.61364
0.772702,-0.0387553,2.499,2.61602
0.780813,-0.0387553,2.499,2.61843
0.788924,-0.0387553,2.499,2.62086
0.797036,-0.0387553,2.499,2.62331
0.805147,-0.0387553,2.499,2.62579
0.813258,-0.0387553,2.499,2.62829
0.821369,-0.0387553,2.499,2.63081
0.823505,-0.0384762,2.481,2.61438
0.831558,-0.0384762,2.481,2.61693
0.839611,-0.0384762,2.481,2.6195
0.847664,-0.0384762,2.481,2.62209
0.855716,-0.0384762,2.481,2.62471
0.863769,-0.0384762,2.481,2.62734
0.865497,-0.038197,2.463,2.61092
0.873491,-0.038197,2.463,2.61358
0.881485,-0.038197,2.463,2.61627
0.889479,-0.038197,2.463,2.61897
0.890915,-0.0379179,2.445,2.60254
0.898851,-0.0379179,2.445,2.60526
0.906787,-0.0379179,2.445,2.60801
0.914722,-0.0379179,2.445,2.61078
0.922658,-0.0379179,2.445,2.61357
0.924124,-0.0376542,2.428,2.59819
0.932004,-0.0376542,2.428,2.60101
0.939885,-0.0376542,2.428,2.60384
0.94113,-0.0373906,2.411,2.58844
0.948955,-0.0373906,2.411,2.5913
0.956781,-0.0373906,2.411,2.59418
0.964606,-0.0373906,2.411,2.59707
0.972432,-0.0373906,2.411,2.59999
0.980257,-0.0373906,2.411,2.60293
0.99505,-0.0376542,2.428,2.62426
1.00293,-0.0376542,2.428,2.62726
1.02538,-0.038197,2.463,2.66819
1.04093,-0.0384762,2.481,2.69079
1.04898,-0.0384762,2.481,2.69392
1.07237,-0.0390345,2.517,2.7362
1.10501,-0.0399185,2.574,2.80145
1.11337,-0.0399185,2.574,2.80476
1.13872,-0.0405233,2.613,2.85063
1.17442,-0.0414848,2.675,2.92175
1.20168,-0.0421361,2.717,2.97118
1.21049,-0.0421361,2.717,2.97475
1.24893,-0.0431597,2.783,3.0507
1.27876,-0.0438731,2.829,3.1049
1.28794,-0.0438731,2.829,3.10869
1.31913,-0.0446175,2.877,3.16532
1.33955,-0.0449897,2.901,3.19566
1.34897,-0.0449897,2.901,3.19962
1.37009,-0.0453774,2.926,3.2312
1.39137,-0.0457651,2.951,3.26288
1.40095,-0.0457651,2.951,3.26698
1.41053,-0.0457651,2.951,3.2711
1.42011,-0.0457651,2.951,3.27524
1.44228,-0.0461683,2.977,3.3083
1.45195,-0.0461683,2.977,3.31252
1.46161,-0.0461683,2.977,3.31677
1.47127,-0.0461683,2.977,3.32104
1.48093,-0.0461683,2.977,3.32533
1.4906,-0.0461683,2.977,3.32965
1.50026,-0.0461683,2.977,3.33398
1.50992,-0.0461683,2.977,3.33834
1.51958,-0.0461683,2.977,3.34272
1.5426,-0.0465715,3.003,3.37636
1.56631,-0.0469903,3.03,3.41122
1.57614,-0.0469903,3.03,3.41575
1.60011,-0.047409,3.057,3.45077
1.62425,-0.0478277,3.084,3.4859
1.63426,-0.0478277,3.084,3.49058
1.67466,-0.0487117,3.141,3.55988
1.70041,-0.0491614,3.17,3.5976
1.72635,-0.0496112,3.199,3.63543
1.73673,-0.0496112,3.199,3.64037
1.76405,-0.0500919,3.23,3.68066
1.79101,-0.0505572,3.26,3.71993
1.80159,-0.0505572,3.26,3.72504
1.81217,-0.0505572,3.26,3.73017
1.82276,-0.0505572,3.26,3.73532
1.81647,-0.0500919,3.23,3.70607
1.82695,-0.0500919,3.23,3.71122
1.83743,-0.0500919,3.23,3.71639
1.83018,-0.0496112,3.199,3.68587
1.84056,-0.0496112,3.199,3.69104
1.83417,-0.0491614,3.17,3.66272
1.84446,-0.0491614,3.17,3.66788
1.83778,-0.0487117,3.141,3.63946
1.83091,-0.0482619,3.112,3.61097
1.84101,-0.0482619,3.112,3.6161
1.83446,-0.0478277,3.084,3.58867
1.81217,-0.0469903,3.03,3.53087
1.82201,-0.0469903,3.03,3.53593
1.81552,-0.0465715,3.003,3.50946
1.79366,-0.0457651,2.951,3.45365
1.80324,-0.0457651,2.951,3.45864
1.79746,-0.0453774,2.926,3.4343
1.77669,-0.0446175,2.877,3.38168
1.78603,-0.0446175,2.877,3.3866
1.78039,-0.0442453,2.853,3.36324
1.7746,-0.0438731,2.829,3.33982
1.78378,-0.0438731,2.829,3.3447
1.77839,-0.0435164,2.806,3.32238
1.75883,-0.0428185,2.761,3.2739
1.76779,-0.0428185,2.761,3.27872
1.76259,-0.0424773,2.739,3.2574
1.74367,-0.0418105,2.696,3.21101
1.73877,-0.0414848,2.675,3.19072
1.74746,-0.0414848,2.675,3.19546
1.72856,-0.0408334,2.633,3.14997
1.71072,-0.0402131,2.593,3.10674
1.71914,-0.0402131,2.593,3.11138
1.70224,-0.0396238,2.555,3.07037
1.69781,-0.0393291,2.536,3.05211
1.70604,-0.0393291,2.536,3.0567
1.70143,-0.0390345,2.517,3.03837
1.68515,-0.0384762,2.481,2.99943
-1.97922,-0.0349878,2.853,3.47248
-1.96996,-0.0349878,2.853,3.46721
-1.9607,-0.0349878,2.853,3.46196
-1.95144,-0.0349878,2.853,3.45673
-1.92584,-0.0346934,2.829,3.42247
-1.91666,-0.0346934,2.829,3.41731
-1.90748,-0.0346934,2.829,3.41217
-1.88286,-0.0344114,2.806,3.37935
-1.87375,-0.0344114,2.806,3.37428
-1.86465,-0.0344114,2.806,3.36923
-1.85554,-0.0344114,2.806,3.3642
-1.84643,-0.0344114,2.806,3.35919
-1.83732,-0.0344114,2.806,3.35419
-1.82822,-0.0344114,2.806,3.34921
-1.81911,-0.0344114,2.806,3.34425
-1.81,-0.0344114,2.806,3.3393
-1.78613,-0.0341293,2.783,3.30704
-1.7771,-0.0341293,2.783,3.30217
-1.78268,-0.0344114,2.806,3.32457
-1.77357,-0.0344114,2.806,3.31969
-1.77893,-0.0346934,2.829,3.34201
-1.78476,-0.0349878,2.853,3.36544
-1.79043,-0.0352821,2.877,3.38881
-1.78109,-0.0352821,2.877,3.38388
-1.77176,-0.0352821,2.877,3.37898
-1.76242,-0.0352821,2.877,3.37409
-1.75308,-0.0352821,2.877,3.36922
-1.75829,-0.0355764,2.901,3.39244
-1.76394,-0.035883,2.926,3.41676
-1.75445,-0.035883,2.926,3.41187
-1.75986,-0.0361896,2.951,3.4361
-1.7657,-0.0365084,2.977,3.46144
-1.75604,-0.0365084,2.977,3.45652
-1.74638,-0.0365084,2.977,3.45162
-1.72155,-0.0361896,2.951,3.41664
-1.71197,-0.0361896,2.951,3.41182
-1.70239,-0.0361896,2.951,3.40703
-1.69281,-0.0361896,2.951,3.40225
-1.68323,-0.0361896,2.951,3.3975
-1.67365,-0.0361896,2.951,3.39276
nan,nan,nan,NaN
-1.62647,-0.0355764,2.901,3.32603
-1.61705,-0.0355764,2.901,3.32143
-1.58103,-0.0349878,2.853,3.26198
-1.54588,-0.0344114,2.806,3.20384
-1.53677,-0.0344114,2.806,3.19945
-1.49119,-0.0335897,2.739,3.1188
-1.4823,-0.0335897,2.739,3.11456
-1.48524,-0.0338595,2.761,3.13532
-1.46452,-0.0335897,2.739,3.10613
-1.45563,-0.0335897,2.739,3.10195
-1.44674,-0.0335897,2.739,3.09779
-1.43785,-0.0335897,2.739,3.09365
-1.41748,-0.0333199,2.717,3.06471
-1.39777,-0.0330624,2.696,3.03699
-1.38902,-0.0330624,2.696,3.03297
-1.38027,-0.0330624,2.696,3.02897
-1.36084,-0.0328049,2.675,3.00143
-1.35216,-0.0328049,2.675,2.9975
-1.33293,-0.0325473,2.654,2.9701
-1.31383,-0.0322898,2.633,2.94277
-1.30529,-0.0322898,2.633,2.93896
-1.26769,-0.0315662,2.574,2.86941
-1.25003,-0.0313332,2.555,2.84457
-1.24174,-0.0313332,2.555,2.84094
-1.22428,-0.0311002,2.536,2.81622
-1.20693,-0.0308672,2.517,2.79158
-1.19876,-0.0308672,2.517,2.78806
-1.18208,-0.0306465,2.499,2.76464
-1.16551,-0.0304257,2.481,2.7413
-1.14906,-0.030205,2.463,2.71802
-1.14107,-0.030205,2.463,2.71465
-1.12479,-0.0299843,2.445,2.69148
-1.10909,-0.0297758,2.428,2.66949
-1.10121,-0.0297758,2.428,2.66622
-1.08568,-0.0295673,2.411,2.64433
-1.07025,-0.0293588,2.394,2.62251
-1.06248,-0.0293588,2.394,2.61934
-1.04722,-0.0291503,2.377,2.59762
-1.03951,-0.0291503,2.377,2.59452
-1.03179,-0.0291503,2.377,2.59144
-1.01718,-0.0289541,2.361,2.57096
-1.00952,-0.0289541,2.361,2.56793
-1.00186,-0.0289541,2.361,2.56493
-0.994193,-0.0289541,2.361,2.56195
-0.986529,-0.0289541,2.361,2.55898
-0.978866,-0.0289541,2.361,2.55604
-0.971203,-0.0289541,2.361,2.55311
-0.96354,-0.0289541,2.361,2.55021
-0.955876,-0.0289541,2.361,2.54732
-0.954639,-0.0291503,2.377,2.5617
-0.946924,-0.0291503,2.377,2.55884
-0.939209,-0.0291503,2.377,2.55599
-0.931494,-0.0291503,2.377,2.55317
-0.923778,-0.0291503,2.377,2.55036
-0.916063,-0.0291503,2.377,2.54758
-0.908348,-0.0291503,2.377,2.54481
-0.900633,-0.0291503,2.377,2.54207
-0.892918,-0.0291503,2.377,2.53935
-0.885203,-0.0291503,2.377,2.53664
-0.883763,-0.0293588,2.394,2.55208
-0.875993,-0.0293588,2.394,2.5494
-0.868223,-0.0293588,2.394,2.54674
-0.860452,-0.0293588,2.394,2.54411
-0.852682,-0.0293588,2.394,2.54149
-0.844912,-0.0293588,2.394,2.53889
-0.837141,-0.0293588,2.394,2.53632
-0.829371,-0.0293588,2.394,2.53376
-0.821601,-0.0293588,2.394,2.53123
-0.819609,-0.0295673,2.411,2.54668
-0.811784,-0.0295673,2.411,2.54417
-0.803958,-0.0295673,2.411,2.54168
-0.796133,-0.0295673,2.411,2.53922
-0.793866,-0.0297758,2.428,2.55466
-0.785985,-0.0297758,2.428,2.55222
-0.778104,-0.0297758,2.428,2.54981
-0.770224,-0.0297758,2.428,2.54741
-0.762343,-0.0297758,2.428,2.54504
-0.754462,-0.0297758,2.428,2.54269
-0.751809,-0.0299843,2.445,2.55815
-0.743873,-0.0299843,2.445,2.55583
-0.735937,-0.0299843,2.445,2.55353
-0.728001,-0.0299843,2.445,2.55126
-0.720065,-0.0299843,2.445,2.549
-0.712129,-0.0299843,2.445,2.54677
-0.704194,-0.0299843,2.445,2.54457
-0.696258,-0.0299843,2.445,2.54238
-0.688322,-0.0299843,2.445,2.54022
-0.680386,-0.0299843,2.445,2.53808
-0.67245,-0.0299843,2.445,2.53596
-0.664514,-0.0299843,2.445,2.53387
-0.656578,-0.0299843,2.445,2.5318
-0.648643,-0.0299843,2.445,2.52976
-0.640707,-0.0299843,2.445,2.52773
-0.628371,-0.0297758,2.428,2.50817
-0.620491,-0.0297758,2.428,2.50621
-0.61261,-0.0297758,2.428,2.50427
-0.604729,-0.0297758,2.428,2.50235
-0.596848,-0.0297758,2.428,2.50046
-0.588968,-0.0297758,2.428,2.49859
-0.581087,-0.0297758,2.428,2.49674
-0.573206,-0.0297758,2.428,2.49492
-0.565326,-0.0297758,2.428,2.49312
-0.557445,-0.0297758,2.428,2.49135
-0.549564,-0.0297758,2.428,2.4896
-0.541684,-0.0297758,2.428,2.48787
-0.53754,-0.0299843,2.445,2.50357
-0.529605,-0.0299843,2.445,2.50188
-0.521669,-0.0299843,2.445,2.50021
-0.513733,-0.0299843,2.445,2.49857
-0.505797,-0.0299843,2.445,2.49695
-0.497861,-0.0299843,2.445,2.49535
-0.489925,-0.0299843,2.445,2.49378
-0.485538,-0.030205,2.463,2.51058
-0.477544,-0.030205,2.463,2.50905
-0.469549,-0.030205,2.463,2.50754
-0.464928,-0.0304257,2.481,2.52437
-0.456875,-0.0304257,2.481,2.5229
-0.448823,-0.0304257,2.481,2.52145
-0.44077,-0.0304257,2.481,2.52003
-0.435857,-0.0306465,2.499,2.53691
-0.427746,-0.0306465,2.499,2.53553
-0.419634,-0.0306465,2.499,2.53417
-0.411523,-0.0306465,2.499,2.53284
-0.403412,-0.0306465,2.499,2.53154
-0.395301,-0.0306465,2.499,2.53026
-0.389979,-0.0308672,2.517,2.54722
-0.381809,-0.0308672,2.517,2.54598
-0.37364,-0.0308672,2.517,2.54477
-0.36547,-0.0308672,2.517,2.54358
-0.357301,-0.0308672,2.517,2.54242
-0.349131,-0.0308672,2.517,2.54129
-0.340961,-0.0308672,2.517,2.54018
-0.332792,-0.0308672,2.517,2.53909
-0.324622,-0.0308672,2.517,2.53804
-0.316453,-0.0308672,2.517,2.537
-0.308283,-0.0308672,2.517,2.536
-0.297967,-0.0306465,2.499,2.51689
-0.289856,-0.0306465,2.499,2.51594
-0.281745,-0.0306465,2.499,2.51502
-0.273634,-0.0306465,2.499,2.51412
-0.26361,-0.0304257,2.481,2.49515
-0.253704,-0.030205,2.463,2.47622
-0.245709,-0.030205,2.463,2.47541
-0.237715,-0.030205,2.463,2.47463
-0.229721,-0.030205,2.463,2.47387
-0.221726,-0.030205,2.463,2.47314
-0.21217,-0.0299843,2.445,2.45437
-0.204234,-0.0299843,2.445,2.4537
-0.197744,-0.030205,2.463,2.47111
-0.188363,-0.0299843,2.445,2.45243
-0.180427,-0.0299843,2.445,2.45183
-0.172491,-0.0299843,2.445,2.45126
-0.164555,-0.0299843,2.445,2.45071
-0.157772,-0.030205,2.463,2.46823
-0.149778,-0.030205,2.463,2.46773
-0.141784,-0.030205,2.463,2.46726
-0.133789,-0.030205,2.463,2.46682
-0.125795,-0.030205,2.463,2.4664
-0.117801,-0.030205,2.463,2.466
-0.109806,-0.030205,2.463,2.46563
-0.102556,-0.0304257,2.481,2.48331
-0.0951891,-0.0306465,2.499,2.501
-0.087078,-0.0306465,2.499,2.5007
-0.0789668,-0.0306465,2.499,2.50044
-0.0708557,-0.0306465,2.499,2.50019
-0.0627446,-0.0306465,2.499,2.49998
-0.0546334,-0.0306465,2.499,2.49978
-0.0465223,-0.0306465,2.499,2.49962
-0.0384112,-0.0306465,2.499,2.49948
-0.0303,-0.0306465,2.499,2.49937
-0.0221889,-0.0306465,2.499,2.49929
-0.0141792,-0.0308672,2.517,2.51723
-0.00600962,-0.0308672,2.517,2.5172
0.00214449,-0.0306465,2.499,2.49919
0.0102556,-0.0306465,2.499,2.49921
0.0183668,-0.0306465,2.499,2.49926
0.0264779,-0.0306465,2.499,2.49933
0.034589,-0.0306465,2.499,2.49943
0.0427002,-0.0306465,2.499,2.49955
0.0508113,-0.0306465,2.499,2.4997
0.058498,-0.0304257,2.481,2.48188
0.0665507,-0.0304257,2.481,2.48208
0.0746034,-0.0304257,2.481,2.48231
0.0826561,-0.0304257,2.481,2.48256
0.0907089,-0.0304257,2.481,2.48284
0.0987616,-0.0304257,2.481,2.48315
0.106814,-0.0304257,2.481,2.48348
0.114867,-0.0304257,2.481,2.48384
0.12292,-0.0304257,2.481,2.48423
0.130972,-0.0304257,2.481,2.48464
0.138016,-0.030205,2.463,2.46705
0.146011,-0.030205,2.463,2.46751
0.154005,-0.030205,2.463,2.46799
0.161999,-0.030205,2.463,2.46851
0.169994,-0.030205,2.463,2.46904
0.177988,-0.030205,2.463,2.46961
0.184623,-0.0299843,2.445,2.45214
0.192559,-0.0299843,2.445,2.45275
0.200495,-0.0299843,2.445,2.45339
0.208431,-0.0299843,2.445,2.45405
0.216366,-0.0299843,2.445,2.45474
0.225954,-0.030205,2.463,2.47353
0.233948,-0.030205,2.463,2.47427
0.241942,-0.030205,2.463,2.47504
0.249936,-0.030205,2.463,2.47583
0.257931,-0.030205,2.463,2.47665
0.263982,-0.0299843,2.445,2.45939
0.271917,-0.0299843,2.445,2.46026
0.279853,-0.0299843,2.445,2.46115
0.287789,-0.0299843,2.445,2.46206
0.297902,-0.030205,2.463,2.48113
0.305896,-0.030205,2.463,2.48211
0.313891,-0.030205,2.463,2.4831
0.321885,-0.030205,2.463,2.48413
0.329879,-0.030205,2.463,2.48518
0.335404,-0.0299843,2.445,2.46808
0.34334,-0.0299843,2.445,2.46917
0.351276,-0.0299843,2.445,2.47029
0.359212,-0.0299843,2.445,2.47143
0.367148,-0.0299843,2.445,2.47259
0.375084,-0.0299843,2.445,2.47379
0.38302,-0.0299843,2.445,2.475
0.390955,-0.0299843,2.445,2.47624
0.398891,-0.0299843,2.445,2.47751
0.406827,-0.0299843,2.445,2.4788
0.414763,-0.0299843,2.445,2.48011
0.422699,-0.0299843,2.445,2.48145
0.430635,-0.0299843,2.445,2.48282
0.438571,-0.0299843,2.445,2.4842
0.446507,-0.0299843,2.445,2.48562
0.454442,-0.0299843,2.445,2.48706
0.462378,-0.0299843,2.445,2.48852
0.473776,-0.030205,2.463,2.50834
0.481771,-0.030205,2.463,2.50986
0.489765,-0.030205,2.463,2.5114
0.497759,-0.030205,2.463,2.51298
0.50945,-0.0304257,2.481,2.53295
0.517502,-0.0304257,2.481,2.53458
0.525555,-0.0304257,2.481,2.53624
0.533608,-0.0304257,2.481,2.53792
0.54559,-0.0306465,2.499,2.55805
0.553702,-0.0306465,2.499,2.55979
0.561813,-0.0306465,2.499,2.56156
0.569924,-0.0306465,2.499,2.56335
0.578035,-0.0306465,2.499,2.56516
0.586146,-0.0306465,2.499,2.567
0.598538,-0.0308672,2.517,2.58737
0.606707,-0.0308672,2.517,2.58927
0.614877,-0.0308672,2.517,2.5912
0.623046,-0.0308672,2.517,2.59315
0.631216,-0.0308672,2.517,2.59513
0.639385,-0.0308672,2.517,2.59712
0.647555,-0.0308672,2.517,2.59915
0.655725,-0.0308672,2.517,2.6012
0.663894,-0.0308672,2.517,2.60327
0.672064,-0.0308672,2.517,2.60536
0.680233,-0.0308672,2.517,2.60748
0.688403,-0.0308672,2.517,2.60962
0.696572,-0.0308672,2.517,2.61179
0.704742,-0.0308672,2.517,2.61398
0.712911,-0.0308672,2.517,2.6162
0.721081,-0.0308672,2.517,2.61843
0.729251,-0.0308672,2.517,2.6207
0.73742,-0.0308672,2.517,2.62298
0.740258,-0.0306465,2.499,2.60652
0.748369,-0.0306465,2.499,2.60883
0.75648,-0.0306465,2.499,2.61117
0.764591,-0.0306465,2.499,2.61353
0.772702,-0.0306465,2.499,2.61591
0.780813,-0.0306465,2.499,2.61832
0.788924,-0.0306465,2.499,2.62075
0.797036,-0.0306465,2.499,2.62321
0.805147,-0.0306465,2.499,2.62568
0.813258,-0.0306465,2.499,2.62818
0.815453,-0.0304257,2.481,2.61175
0.823505,-0.0304257,2.481,2.61428
0.831558,-0.0304257,2.481,2.61683
0.839611,-0.0304257,2.481,2.6194
0.847664,-0.0304257,2.481,2.62199
0.855716,-0.0304257,2.481,2.6246
0.857502,-0.030205,2.463,2.60818
0.865497,-0.030205,2.463,2.61082
0.873491,-0.030205,2.463,2.61348
0.881485,-0.030205,2.463,2.61616
0.889479,-0.030205,2.463,2.61887
0.890915,-0.0299843,2.445,2.60243
0.898851,-0.0299843,2.445,2.60516
0.906787,-0.0299843,2.445,2.60791
0.914722,-0.0299843,2.445,2.61068
0.922658,-0.0299843,2.445,2.61347
0.924124,-0.0297758,2.428,2.59809
0.932004,-0.0297758,2.428,2.6009
0.939885,-0.0297758,2.428,2.60374
0.94113,-0.0295673,2.411,2.58834
0.948955,-0.0295673,2.411,2.5912
0.956781,-0.0295673,2.411,2.59407
0.957805,-0.0293588,2.394,2.57866
0.965575,-0.0293588,2.394,2.58156
0.980257,-0.0295673,2.411,2.60283
0.988083,-0.0295673,2.411,2.60578
0.995908,-0.0295673,2.411,2.60876
1.01789,-0.0299843,2.445,2.64859
1.03338,-0.030205,2.463,2.67117
1.04137,-0.030205,2.463,2.67427
1.0647,-0.0306465,2.499,2.71653
1.0887,-0.0311002,2.536,2.75999
1.09693,-0.0311002,2.536,2.76324
1.13,-0.0317992,2.593,2.8287
1.15598,-0.0322898,2.633,2.87576
1.19239,-0.0330624,2.696,2.9481
1.20114,-0.0330624,2.696,2.95165
1.22919,-0.0335897,2.739,3.00236
1.25796,-0.0341293,2.783,3.0543
1.267,-0.0341293,2.783,3.05803
1.29712,-0.0346934,2.829,3.11239
1.31739,-0.0349878,2.853,3.14266
1.32665,-0.0349878,2.853,3.14656
1.34714,-0.0352821,2.877,3.17698
1.3678,-0.0355764,2.901,3.20748
1.37721,-0.0355764,2.901,3.21151
1.38663,-0.0355764,2.901,3.21556
1.40808,-0.035883,2.926,3.24738
1.42969,-0.0361896,2.951,3.27929
1.43926,-0.0361896,2.951,3.28347
1.44884,-0.0361896,2.951,3.28768
1.47127,-0.0365084,2.977,3.32092
1.48093,-0.0365084,2.977,3.32521
1.47758,-0.0361896,2.951,3.30045
1.48716,-0.0361896,2.951,3.30475
1.50992,-0.0365084,2.977,3.33822
1.51958,-0.0365084,2.977,3.3426
1.52925,-0.0365084,2.977,3.34701
1.55235,-0.0368273,3.003,3.3807
1.5621,-0.0368273,3.003,3.38519
1.60011,-0.0374895,3.057,3.45065
1.62425,-0.0378206,3.084,3.48578
1.63426,-0.0378206,3.084,3.49046
1.6592,-0.038164,3.112,3.52689
1.68485,-0.0385196,3.141,3.56456
1.7107,-0.0388753,3.17,3.60235
1.72099,-0.0388753,3.17,3.60724
1.76405,-0.0396111,3.23,3.68053
1.79101,-0.039979,3.26,3.7198
1.80159,-0.039979,3.26,3.72491
1.81217,-0.039979,3.26,3.73004
1.82276,-0.039979,3.26,3.73519
1.81647,-0.0396111,3.23,3.70594
1.82695,-0.0396111,3.23,3.71109
1.83743,-0.0396111,3.23,3.71627
1.83018,-0.0392309,3.199,3.68574
1.84056,-0.0392309,3.199,3.69091
1.83417,-0.0388753,3.17,3.66259
1.84446,-0.0388753,3.17,3.66776
1.83778,-0.0385196,3.141,3.63934
1.83091,-0.038164,3.112,3.61085
1.84101,-0.038164,3.112,3.61598
1.83446,-0.0378206,3.084,3.58855
1.81217,-0.0371584,3.03,3.53076
1.82201,-0.0371584,3.03,3.53582
1.81552,-0.0368273,3.003,3.50934
1.80946,-0.0365084,2.977,3.48397
1.81912,-0.0365084,2.977,3.48899
1.79746,-0.035883,2.926,3.43418
1.79152,-0.0355764,2.901,3.40978
1.80093,-0.0355764,2.901,3.41474
1.79537,-0.0352821,2.877,3.39142
1.7746,-0.0346934,2.829,3.33971
1.78378,-0.0346934,2.829,3.3446
1.77839,-0.0344114,2.806,3.32227
1.75883,-0.0338595,2.761,3.2738
1.7537,-0.0335897,2.739,3.2525
1.76259,-0.0335897,2.739,3.2573
1.74367,-0.0330624,2.696,3.2109
1.73877,-0.0328049,2.675,3.19062
1.74746,-0.0328049,2.675,3.19536
1.72856,-0.0322898,2.633,3.14987
1.71072,-0.0317992,2.593,3.10664
1.71914,-0.0317992,2.593,3.11128
1.70224,-0.0313332,2.555,3.07028
1.69781,-0.0311002,2.536,3.05202
1.70604,-0.0311002,2.536,3.05661
1.70143,-0.0308672,2.517,3.03827
1.69737,-0.0306465,2.499,3.02109
-1.96257,-0.0255138,2.829,3.44319
-1.95339,-0.0255138,2.829,3.43797
-1.94421,-0.0255138,2.829,3.43276
-1.93502,-0.0255138,2.829,3.42757
-1.92584,-0.0255138,2.829,3.42239
-1.91666,-0.0255138,2.829,3.41723
-1.90748,-0.0255138,2.829,3.41209
-1.88286,-0.0253064,2.806,3.37927
-1.87375,-0.0253064,2.806,3.3742
-1.86465,-0.0253064,2.806,3.36915
-1.85554,-0.0253064,2.806,3.36412
-1.84643,-0.0253064,2.806,3.3591
-1.83732,-0.0253064,2.806,3.35411
-1.82822,-0.0253064,2.806,3.34913
-1.81911,-0.0253064,2.806,3.34416
-1.81,-0.0253064,2.806,3.33922
-1.78613,-0.0250989,2.783,3.30696
-1.7771,-0.0250989,2.783,3.30209
-1.78268,-0.0253064,2.806,3.32449
-1.77357,-0.0253064,2.806,3.31961
-1.77893,-0.0255138,2.829,3.34193
-1.78476,-0.0257302,2.853,3.36536
-1.79043,-0.0259467,2.877,3.38872
-1.78109,-0.0259467,2.877,3.3838
-1.77176,-0.0259467,2.877,3.37889
-1.76242,-0.0259467,2.877,3.37401
-1.75308,-0.0259467,2.877,3.36914
-1.75829,-0.0261631,2.901,3.39235
-1.76394,-0.0263886,2.926,3.41668
-1.75445,-0.0263886,2.926,3.41178
-1.75986,-0.0266141,2.951,3.43602
-1.7657,-0.0268486,2.977,3.46135
-1.75604,-0.0268486,2.977,3.45643
-1.74638,-0.0268486,2.977,3.45153
-1.72155,-0.0266141,2.951,3.41655
-1.71197,-0.0266141,2.951,3.41174
-1.70239,-0.0266141,2.951,3.40694
-1.69281,-0.0266141,2.951,3.40216
-1.68323,-0.0266141,2.951,3.39741
-1.67365,-0.0266141,2.951,3.39267
nan,nan,nan,NaN
nan,nan,nan,NaN
nan,nan,nan,NaN
nan,nan,nan,NaN
nan,nan,nan,NaN
nan,nan,nan,NaN
-1.49119,-0.0247021,2.739,3.11871
-1.4823,-0.0247021,2.739,3.11447
-1.48524,-0.0249005,2.761,3.13523
-1.46452,-0.0247021,2.739,3.10605
-1.45563,-0.0247021,2.739,3.10187
-1.44674,-0.0247021,2.739,3.09771
-1.43785,-0.0247021,2.739,3.09356
-1.41748,-0.0245037,2.717,3.06463
-1.40866,-0.0245037,2.717,3.06056
-1.39984,-0.0245037,2.717,3.05651
-1.39102,-0.0245037,2.717,3.05248
-1.37152,-0.0243143,2.696,3.02491
-1.36277,-0.0243143,2.696,3.02095
-1.33293,-0.0239355,2.654,2.97001
-1.31383,-0.0237461,2.633,2.94269
-1.30529,-0.0237461,2.633,2.93888
-1.26769,-0.023214,2.574,2.86933
-1.25003,-0.0230427,2.555,2.84449
-1.24174,-0.0230427,2.555,2.84086
-1.22428,-0.0228713,2.536,2.81614
-1.20693,-0.0227,2.517,2.7915
-1.19019,-0.0225376,2.499,2.76804
-1.18208,-0.0225376,2.499,2.76457
-1.15706,-0.022213,2.463,2.72133
-1.14067,-0.0220506,2.445,2.69808
-1.13273,-0.0220506,2.445,2.69473
-1.11697,-0.0218973,2.428,2.67269
-1.10909,-0.0218973,2.428,2.66941
-1.10121,-0.0218973,2.428,2.66615
-1.07802,-0.0215907,2.394,2.62561
-1.06265,-0.0214374,2.377,2.60381
-1.05494,-0.0214374,2.377,2.60067
-1.04722,-0.0214374,2.377,2.59755
-1.03251,-0.0212931,2.361,2.57698
-1.02485,-0.0212931,2.361,2.57392
-1.01718,-0.0212931,2.361,2.57088
-1.00952,-0.0212931,2.361,2.56786
-1.00186,-0.0212931,2.361,2.56486
-0.994193,-0.0212931,2.361,2.56187
-0.986529,-0.0212931,2.361,2.55891
-0.978866,-0.0212931,2.361,2.55596
-0.971203,-0.0212931,2.361,2.55304
-0.96354,-0.0212931,2.361,2.55013
-0.955876,-0.0212931,2.361,2.54725
-0.948213,-0.0212931,2.361,2.54438
-0.94055,-0.0212931,2.361,2.54154
-0.932887,-0.0212931,2.361,2.53871
-0.925224,-0.0212931,2.361,2.5359
-0.91756,-0.0212931,2.361,2.53312
-0.909897,-0.0212931,2.361,2.53035
-0.908348,-0.0214374,2.377,2.54474
-0.900633,-0.0214374,2.377,2.54199
-0.892918,-0.0214374,2.377,2.53927
-0.885203,-0.0214374,2.377,2.53657
-0.877488,-0.0214374,2.377,2.53389
-0.869772,-0.0214374,2.377,2.53122
-0.862057,-0.0214374,2.377,2.52858
-0.854342,-0.0214374,2.377,2.52596
-0.846627,-0.0214374,2.377,2.52336
-0.838912,-0.0214374,2.377,2.52079
-0.837141,-0.0215907,2.394,2.53624
-0.829371,-0.0215907,2.394,2.53368
-0.821601,-0.0215907,2.394,2.53115
-0.81383,-0.0215907,2.394,2.52864
-0.811784,-0.021744,2.411,2.54409
-0.803958,-0.021744,2.411,2.5416
-0.796133,-0.021744,2.411,2.53914
-0.788307,-0.021744,2.411,2.5367
-0.785985,-0.0218973,2.428,2.55214
-0.778104,-0.0218973,2.428,2.54973
-0.770224,-0.0218973,2.428,2.54733
-0.767681,-0.0220506,2.445,2.56278
-0.759745,-0.0220506,2.445,2.56041
-0.751809,-0.0220506,2.445,2.55807
-0.743873,-0.0220506,2.445,2.55575
-0.735937,-0.0220506,2.445,2.55345
-0.728001,-0.0220506,2.445,2.55118
-0.720065,-0.0220506,2.445,2.54892
-0.712129,-0.0220506,2.445,2.54669
-0.704194,-0.0220506,2.445,2.54448
-0.696258,-0.0220506,2.445,2.5423
-0.688322,-0.0220506,2.445,2.54014
-0.680386,-0.0220506,2.445,2.538
-0.67245,-0.0220506,2.445,2.53588
-0.664514,-0.0220506,2.445,2.53379
-0.656578,-0.0220506,2.445,2.53172
-0.648643,-0.0220506,2.445,2.52967
-0.640707,-0.0220506,2.445,2.52765
-0.632771,-0.0220506,2.445,2.52565
-0.620491,-0.0218973,2.428,2.50613
-0.61261,-0.0218973,2.428,2.50419
-0.604729,-0.0218973,2.428,2.50227
-0.596848,-0.0218973,2.428,2.50038
-0.588968,-0.0218973,2.428,2.49851
-0.581087,-0.0218973,2.428,2.49666
-0.573206,-0.0218973,2.428,2.49484
-0.569284,-0.0220506,2.445,2.5105
-0.561348,-0.0220506,2.445,2.50871
-0.553412,-0.0220506,2.445,2.50695
-0.545476,-0.0220506,2.445,2.50521
-0.53754,-0.0220506,2.445,2.50349
-0.529605,-0.0220506,2.445,2.5018
-0.521669,-0.0220506,2.445,2.50013
-0.513733,-0.0220506,2.445,2.49849
-0.509521,-0.022213,2.463,2.51525
-0.501526,-0.022213,2.463,2.51364
-0.493532,-0.022213,2.463,2.51206
-0.485538,-0.022213,2.463,2.5105
-0.477544,-0.022213,2.463,2.50897
-0.472981,-0.0223753,2.481,2.52578
-0.464928,-0.0223753,2.481,2.52429
-0.456875,-0.0223753,2.481,2.52282
-0.452079,-0.0225376,2.499,2.53966
-0.443968,-0.0225376,2.499,2.53823
-0.435857,-0.0225376,2.499,2.53682
-0.427746,-0.0225376,2.499,2.53544
-0.419634,-0.0225376,2.499,2.53409
-0.411523,-0.0225376,2.499,2.53276
-0.403412,-0.0225376,2.499,2.53145
-0.395301,-0.0225376,2.499,2.53017
-0.389979,-0.0227,2.517,2.54713
-0.381809,-0.0227,2.517,2.5459
-0.37364,-0.0227,2.517,2.54468
-0.36547,-0.0227,2.517,2.5435
-0.357301,-0.0227,2.517,2.54234
-0.349131,-0.0227,2.517,2.5412
-0.340961,-0.0227,2.517,2.54009
-0.332792,-0.0227,2.517,2.53901
-0.324622,-0.0227,2.517,2.53795
-0.31419,-0.0225376,2.499,2.51877
-0.306079,-0.0225376,2.499,2.51778
-0.297967,-0.0225376,2.499,2.5168
-0.289856,-0.0225376,2.499,2.51585
-0.281745,-0.0225376,2.499,2.51493
-0.271663,-0.0223753,2.481,2.49593
-0.26361,-0.0223753,2.481,2.49507
-0.253704,-0.022213,2.463,2.47613
-0.245709,-0.022213,2.463,2.47533
-0.237715,-0.022213,2.463,2.47454
-0.228042,-0.0220506,2.445,2.45571
-0.220106,-0.0220506,2.445,2.45499
-0.21217,-0.0220506,2.445,2.45429
-0.204234,-0.0220506,2.445,2.45361
-0.197744,-0.022213,2.463,2.47103
-0.189749,-0.022213,2.463,2.4704
-0.181755,-0.022213,2.463,2.4698
-0.173761,-0.022213,2.463,2.46922
-0.166978,-0.0223753,2.481,2.48671
-0.158925,-0.0223753,2.481,2.48619
-0.150872,-0.0223753,2.481,2.48568
-0.14282,-0.0223753,2.481,2.48521
-0.134767,-0.0223753,2.481,2.48476
-0.126714,-0.0223753,2.481,2.48433
-0.119523,-0.0225376,2.499,2.50196
-0.111411,-0.0225376,2.499,2.50158
-0.1033,-0.0225376,2.499,2.50124
-0.0951891,-0.0225376,2.499,2.50091
-0.087078,-0.0225376,2.499,2.50062
-0.0789668,-0.0225376,2.499,2.50035
-0.0713661,-0.0227,2.517,2.51811
-0.0631965,-0.0227,2.517,2.5179
-0.055027,-0.0227,2.517,2.5177
-0.0468574,-0.0227,2.517,2.51754
-0.0386878,-0.0227,2.517,2.5174
-0.0305183,-0.0227,2.517,2.51729
-0.0223487,-0.0227,2.517,2.5172
-0.0141792,-0.0227,2.517,2.51714
-0.00600962,-0.0227,2.517,2.51711
0.00215994,-0.0227,2.517,2.5171
0.0103295,-0.0227,2.517,2.51712
0.0184991,-0.0227,2.517,2.51717
0.0266686,-0.0227,2.517,2.51724
0.0348382,-0.0227,2.517,2.51734
0.0430077,-0.0227,2.517,2.51747
0.0508113,-0.0225376,2.499,2.49962
0.0589224,-0.0225376,2.499,2.4998
0.0670336,-0.0225376,2.499,2.5
0.0751447,-0.0225376,2.499,2.50023
0.0826561,-0.0223753,2.481,2.48248
0.0907089,-0.0223753,2.481,2.48276
0.0987616,-0.0223753,2.481,2.48307
0.106814,-0.0223753,2.481,2.4834
0.114867,-0.0223753,2.481,2.48376
0.12292,-0.0223753,2.481,2.48414
0.130972,-0.0223753,2.481,2.48456
0.138016,-0.022213,2.463,2.46696
0.146011,-0.022213,2.463,2.46742
0.154005,-0.022213,2.463,2.46791
0.161999,-0.022213,2.463,2.46842
0.169994,-0.022213,2.463,2.46896
0.177988,-0.022213,2.463,2.46952
0.185982,-0.022213,2.463,2.47011
0.193976,-0.022213,2.463,2.47073
0.201971,-0.022213,2.463,2.47137
0.209965,-0.022213,2.463,2.47203
0.217959,-0.022213,2.463,2.47272
0.225954,-0.022213,2.463,2.47344
0.233948,-0.022213,2.463,2.47419
0.241942,-0.022213,2.463,2.47495
0.249936,-0.022213,2.463,2.47575
0.257931,-0.022213,2.463,2.47657
0.265925,-0.022213,2.463,2.47741
0.273919,-0.022213,2.463,2.47828
0.279853,-0.0220506,2.445,2.46106
0.287789,-0.0220506,2.445,2.46198
0.297902,-0.022213,2.463,2.48105
0.305896,-0.022213,2.463,2.48202
0.313891,-0.022213,2.463,2.48302
0.321885,-0.022213,2.463,2.48404
0.329879,-0.022213,2.463,2.48509
0.335404,-0.0220506,2.445,2.468
0.34334,-0.0220506,2.445,2.46909
0.351276,-0.0220506,2.445,2.4702
0.359212,-0.0220506,2.445,2.47134
0.367148,-0.0220506,2.445,2.47251
0.375084,-0.0220506,2.445,2.4737
0.38302,-0.0220506,2.445,2.47492
0.390955,-0.0220506,2.445,2.47616
0.398891,-0.0220506,2.445,2.47742
0.406827,-0.0220506,2.445,2.47871
0.414763,-0.0220506,2.445,2.48003
0.422699,-0.0220506,2.445,2.48137
0.430635,-0.0220506,2.445,2.48273
0.438571,-0.0220506,2.445,2.48412
0.446507,-0.0220506,2.445,2.48553
0.454442,-0.0220506,2.445,2.48697
0.462378,-0.0220506,2.445,2.48843
0.473776,-0.022213,2.463,2.50825
0.481771,-0.022213,2.463,2.50977
0.489765,-0.022213,2.463,2.51132
0.497759,-0.022213,2.463,2.51289
0.50945,-0.0223753,2.481,2.53286
0.517502,-0.0223753,2.481,2.5345
0.525555,-0.0223753,2.481,2.53615
0.533608,-0.0223753,2.481,2.53783
0.54559,-0.0225376,2.499,2.55796
0.553702,-0.0225376,2.499,2.55971
0.561813,-0.0225376,2.499,2.56147
0.569924,-0.0225376,2.499,2.56326
0.578035,-0.0225376,2.499,2.56508
0.586146,-0.0225376,2.499,2.56692
0.598538,-0.0227,2.517,2.58729
0.606707,-0.0227,2.517,2.58919
0.614877,-0.0227,2.517,2.59112
0.623046,-0.0227,2.517,2.59307
0.631216,-0.0227,2.517,2.59504
0.639385,-0.0227,2.517,2.59704
0.647555,-0.0227,2.517,2.59906
0.655725,-0.0227,2.517,2.60111
0.663894,-0.0227,2.517,2.60318
0.672064,-0.0227,2.517,2.60528
0.680233,-0.0227,2.517,2.6074
0.688403,-0.0227,2.517,2.60954
0.696572,-0.0227,2.517,2.61171
0.704742,-0.0227,2.517,2.6139
0.712911,-0.0227,2.517,2.61611
0.721081,-0.0227,2.517,2.61835
0.729251,-0.0227,2.517,2.62061
0.73742,-0.0227,2.517,2.6229
0.740258,-0.0225376,2.499,2.60643
0.748369,-0.0225376,2.499,2.60875
0.75648,-0.0225376,2.499,2.61109
0.764591,-0.0225376,2.499,2.61345
0.772702,-0.0225376,2.499,2.61583
0.780813,-0.0225376,2.499,2.61824
0.788924,-0.0225376,2.499,2.62067
0.797036,-0.0225376,2.499,2.62312
0.805147,-0.0225376,2.499,2.6256
0.813258,-0.0225376,2.499,2.6281
0.815453,-0.0223753,2.481,2.61167
0.823505,-0.0223753,2.481,2.6142
0.831558,-0.0223753,2.481,2.61674
0.839611,-0.0223753,2.481,2.61931
0.847664,-0.0223753,2.481,2.62191
0.855716,-0.0223753,2.481,2.62452
0.857502,-0.022213,2.463,2.6081
0.865497,-0.022213,2.463,2.61074
0.873491,-0.022213,2.463,2.6134
0.881485,-0.022213,2.463,2.61608
0.889479,-0.022213,2.463,2.61879
0.890915,-0.0220506,2.445,2.60235
0.898851,-0.0220506,2.445,2.60508
0.900482,-0.0218973,2.428,2.5897
0.908362,-0.0218973,2.428,2.59245
0.916243,-0.0218973,2.428,2.59522
0.924124,-0.0218973,2.428,2.59801
0.925479,-0.021744,2.411,2.58262
0.933304,-0.021744,2.411,2.58543
0.94113,-0.021744,2.411,2.58827
0.942264,-0.0215907,2.394,2.57285
0.950035,-0.0215907,2.394,2.57571
0.957805,-0.0215907,2.394,2.57858
0.965575,-0.0215907,2.394,2.58148
0.980257,-0.021744,2.411,2.60275
0.988083,-0.021744,2.411,2.60571
0.995908,-0.021744,2.411,2.60868
1.01789,-0.0220506,2.445,2.64851
1.02582,-0.0220506,2.445,2.65157
1.03376,-0.0220506,2.445,2.65465
1.05703,-0.0223753,2.481,2.69688
1.08054,-0.0227,2.517,2.73923
1.08871,-0.0227,2.517,2.74246
1.11344,-0.0230427,2.555,2.78717
1.13842,-0.0233854,2.593,2.83199
1.17381,-0.0239355,2.654,2.90209
1.18243,-0.0239355,2.654,2.90558
1.20989,-0.0243143,2.696,2.95514
1.23808,-0.0247021,2.739,3.00592
1.24697,-0.0247021,2.739,3.00959
1.28658,-0.0253064,2.806,3.087
1.3063,-0.0255138,2.829,3.11614
1.31549,-0.0255138,2.829,3.12
1.33591,-0.0257302,2.853,3.15038
1.35648,-0.0259467,2.877,3.18086
1.37721,-0.0261631,2.901,3.21142
1.38663,-0.0261631,2.901,3.21547
1.40808,-0.0263886,2.926,3.24728
1.41757,-0.0263886,2.926,3.25141
1.42707,-0.0263886,2.926,3.25557
1.44884,-0.0266141,2.951,3.28759
1.45842,-0.0266141,2.951,3.29182
1.468,-0.0266141,2.951,3.29608
1.47758,-0.0266141,2.951,3.30036
1.48716,-0.0266141,2.951,3.30465
1.49673,-0.0266141,2.951,3.30898
