0.577702,-0.182054,2.463,2.53639
0.585697,-0.182054,2.463,2.53822
0.593691,-0.182054,2.463,2.54008
0.601685,-0.182054,2.463,2.54196
0.609679,-0.182054,2.463,2.54386
0.617674,-0.182054,2.463,2.54579
0.625668,-0.182054,2.463,2.54774
0.633662,-0.182054,2.463,2.54971
0.641657,-0.182054,2.463,2.55171
0.649651,-0.182054,2.463,2.55373
0.657645,-0.182054,2.463,2.55578
0.670504,-0.183384,2.481,2.57654
0.678557,-0.183384,2.481,2.57865
0.686609,-0.183384,2.481,2.58078
0.694662,-0.183384,2.481,2.58293
0.702715,-0.183384,2.481,2.58511
0.715924,-0.184715,2.499,2.60608
0.724035,-0.184715,2.499,2.60832
0.73742,-0.186045,2.517,2.62939
0.74559,-0.186045,2.517,2.63169
0.753759,-0.186045,2.517,2.63402
0.76768,-0.187449,2.536,2.65627
0.775912,-0.187449,2.536,2.65866
0.784143,-0.187449,2.536,2.66107
0.792374,-0.187449,2.536,2.66351
0.800605,-0.187449,2.536,2.66597
0.808836,-0.187449,2.536,2.66845
0.817068,-0.187449,2.536,2.67096
0.825299,-0.187449,2.536,2.67349
0.83353,-0.187449,2.536,2.67604
0.848068,-0.188854,2.555,2.69869
0.856361,-0.188854,2.555,2.7013
0.864654,-0.188854,2.555,2.70394
0.872947,-0.188854,2.555,2.70661
0.881239,-0.188854,2.555,2.70929
0.889532,-0.188854,2.555,2.712
0.897825,-0.188854,2.555,2.71473
0.906118,-0.188854,2.555,2.71749
0.907611,-0.187449,2.536,2.70004
0.915842,-0.187449,2.536,2.70281
0.924074,-0.187449,2.536,2.70561
0.932305,-0.187449,2.536,2.70844
0.933489,-0.186045,2.517,2.69097
0.934925,-0.184715,2.499,2.67455
0.943036,-0.184715,2.499,2.67739
0.951147,-0.184715,2.499,2.68026
0.959258,-0.184715,2.499,2.68315
0.967369,-0.184715,2.499,2.68606
0.968454,-0.183384,2.481,2.66962
0.976507,-0.183384,2.481,2.67256
0.98456,-0.183384,2.481,2.67551
0.992612,-0.183384,2.481,2.67848
0.993405,-0.182054,2.463,2.66202
1.0014,-0.182054,2.463,2.66502
1.00939,-0.182054,2.463,2.66803
1.01739,-0.182054,2.463,2.67107
nan,nan,nan,NaN
nan,nan,nan,NaN
nan,nan,nan,NaN
nan,nan,nan,NaN
nan,nan,nan,NaN
nan,nan,nan,NaN
nan,nan,nan,NaN
nan,nan,nan,NaN
nan,nan,nan,NaN
nan,nan,nan,NaN
nan,nan,nan,NaN
nan,nan,nan,NaN
nan,nan,nan,NaN
nan,nan,nan,NaN
nan,nan,nan,NaN
nan,nan,nan,NaN
1.72361,-0.272083,3.681,4.07365
1.73556,-0.272083,3.681,4.07872
1.74751,-0.272083,3.681,4.08382
1.74082,-0.2692,3.642,4.04562
1.75264,-0.2692,3.642,4.05072
1.76446,-0.2692,3.642,4.05585
1.77628,-0.2692,3.642,4.06101
1.76944,-0.266391,3.604,4.02377
1.78114,-0.266391,3.604,4.02893
1.79284,-0.266391,3.604,4.03411
1.80454,-0.266391,3.604,4.03932
nan,nan,nan,NaN
nan,nan,nan,NaN
nan,nan,nan,NaN
nan,nan,nan,NaN
nan,nan,nan,NaN
nan,nan,nan,NaN
nan,nan,nan,NaN
nan,nan,nan,NaN
nan,nan,nan,NaN
nan,nan,nan,NaN
2.04049,-0.281174,3.804,4.32586
2.05284,-0.281174,3.804,4.3317
2.06519,-0.281174,3.804,4.33757
2.0546,-0.27807,3.762,4.2955
2.06681,-0.27807,3.762,4.30135
2.07902,-0.27807,3.762,4.30724
2.06844,-0.275039,3.721,4.26614
2.08051,-0.275039,3.721,4.272
2.0701,-0.272083,3.681,4.23191
2.05998,-0.2692,3.642,4.19287
2.07181,-0.2692,3.642,4.19869
2.06189,-0.266391,3.604,4.16067
2.07358,-0.266391,3.604,4.16648
2.06329,-0.263582,3.566,4.12832
2.07487,-0.263582,3.566,4.13412
2.06479,-0.260847,3.529,4.09698
2.05507,-0.258186,3.493,4.06091
2.06641,-0.258186,3.493,4.06666
2.05692,-0.255599,3.458,4.03163
2.02688,-0.250499,3.389,3.95681
2.03788,-0.250499,3.389,3.96245
2.02893,-0.24806,3.356,3.92948
2.00092,-0.243329,3.292,3.86007
2.01161,-0.243329,3.292,3.86562
1.98421,-0.238747,3.23,3.79829
1.95764,-0.234312,3.17,3.73311
1.96793,-0.234312,3.17,3.73852
1.94202,-0.230025,3.112,3.67545
1.91762,-0.225959,3.057,3.61574
1.92754,-0.225959,3.057,3.62101
1.90324,-0.221968,3.003,3.56225
1.87986,-0.218124,2.951,3.50569
1.88944,-0.218124,2.951,3.51084
1.86684,-0.214429,2.901,3.45643
1.84521,-0.210881,2.853,3.40425
1.82392,-0.207407,2.806,3.35311
1.83303,-0.207407,2.806,3.35807
1.82704,-0.205707,2.783,3.33549
1.80704,-0.202454,2.739,3.28763
1.81593,-0.202454,2.739,3.29253
1.79618,-0.199276,2.696,3.24567
1.79087,-0.197724,2.675,3.2252
1.79955,-0.197724,2.675,3.23003
1.79404,-0.196171,2.654,3.20948
1.78839,-0.194619,2.633,3.18887
-1.96257,-0.199927,2.829,3.4489
-1.95339,-0.199927,2.829,3.44368
-1.9284,-0.198302,2.806,3.41053
-1.90356,-0.196676,2.783,3.37747
-1.86457,-0.193567,2.739,3.31907
-1.85568,-0.193567,2.739,3.31408
-1.83196,-0.192012,2.717,3.28253
-1.82314,-0.192012,2.717,3.27762
-1.81432,-0.192012,2.717,3.27272
-1.8055,-0.192012,2.717,3.26784
-1.79668,-0.192012,2.717,3.26298
-1.80234,-0.193567,2.739,3.28451
-1.79345,-0.193567,2.739,3.27964
-1.7989,-0.195121,2.761,3.30109
-1.81911,-0.198302,2.806,3.34994
-1.82484,-0.199927,2.829,3.37242
-1.81565,-0.199927,2.829,3.36746
-1.83712,-0.203319,2.877,3.41957
-1.85891,-0.206782,2.926,3.47272
-1.84942,-0.206782,2.926,3.46765
-1.85564,-0.208549,2.951,3.49218
-1.87859,-0.212224,3.003,3.54854
-1.90245,-0.21604,3.057,3.60711
-1.89253,-0.21604,3.057,3.60189
-1.86598,-0.214132,3.03,3.56492
-1.85614,-0.214132,3.03,3.55978
-1.84631,-0.214132,3.03,3.55466
-1.82011,-0.212224,3.003,3.51793
-1.81036,-0.212224,3.003,3.5129
-1.78503,-0.210386,2.977,3.47752
-1.75986,-0.208549,2.951,3.44224
-1.75028,-0.208549,2.951,3.43735
-1.7407,-0.208549,2.951,3.43248
nan,nan,nan,NaN
nan,nan,nan,NaN
nan,nan,nan,NaN
nan,nan,nan,NaN
nan,nan,nan,NaN
nan,nan,nan,NaN
nan,nan,nan,NaN
nan,nan,nan,NaN
nan,nan,nan,NaN
nan,nan,nan,NaN
nan,nan,nan,NaN
nan,nan,nan,NaN
nan,nan,nan,NaN
nan,nan,nan,NaN
nan,nan,nan,NaN
nan,nan,nan,NaN
nan,nan,nan,NaN
nan,nan,nan,NaN
nan,nan,nan,NaN
nan,nan,nan,NaN
nan,nan,nan,NaN
nan,nan,nan,NaN
nan,nan,nan,NaN
nan,nan,nan,NaN
nan,nan,nan,NaN
nan,nan,nan,NaN
nan,nan,nan,NaN
nan,nan,nan,NaN
nan,nan,nan,NaN
nan,nan,nan,NaN
-1.19622,-0.17279,2.445,2.72742
-1.18828,-0.17279,2.445,2.72395
-1.18035,-0.17279,2.445,2.7205
-1.17241,-0.17279,2.445,2.71706
-1.16447,-0.17279,2.445,2.71365
-1.15654,-0.17279,2.445,2.71025
-1.14062,-0.171588,2.428,2.68805
-1.13274,-0.171588,2.428,2.68472
-1.12485,-0.171588,2.428,2.6814
-1.11697,-0.171588,2.428,2.67811
-1.10133,-0.170387,2.411,2.6561
-1.0935,-0.170387,2.411,2.65287
-1.08568,-0.170387,2.411,2.64965
-1.07025,-0.169185,2.394,2.62779
-1.06248,-0.169185,2.394,2.62464
-1.05471,-0.169185,2.394,2.6215
-1.03951,-0.167984,2.377,2.59979
-1.03179,-0.167984,2.377,2.59672
-1.02408,-0.167984,2.377,2.59366
-1.01636,-0.167984,2.377,2.59062
-1.00865,-0.167984,2.377,2.58761
-0.994193,-0.166853,2.361,2.56721
-0.986529,-0.166853,2.361,2.56425
-0.978866,-0.166853,2.361,2.56132
-0.971203,-0.166853,2.361,2.5584
-0.95701,-0.165722,2.345,2.53818
-0.949399,-0.165722,2.345,2.53532
-0.941787,-0.165722,2.345,2.53248
-0.934176,-0.165722,2.345,2.52966
-0.920243,-0.164592,2.329,2.50962
-0.912683,-0.164592,2.329,2.50686
-0.905124,-0.164592,2.329,2.50411
-0.891399,-0.163461,2.313,2.48421
-0.883891,-0.163461,2.313,2.48152
-0.876384,-0.163461,2.313,2.47886
-0.868876,-0.163461,2.313,2.47621
-0.855783,-0.162401,2.298,2.45755
-0.848324,-0.162401,2.298,2.45496
-0.840865,-0.162401,2.298,2.45239
-0.833407,-0.162401,2.298,2.44985
-0.825948,-0.162401,2.298,2.44732
-0.818489,-0.162401,2.298,2.44481
-0.81103,-0.162401,2.298,2.44232
-0.803572,-0.162401,2.298,2.43986
-0.796113,-0.162401,2.298,2.43741
-0.788654,-0.162401,2.298,2.43499
-0.781195,-0.162401,2.298,2.43258
-0.773737,-0.162401,2.298,2.43019
-0.766278,-0.162401,2.298,2.42783
-0.758819,-0.162401,2.298,2.42549
-0.756265,-0.163461,2.313,2.43898
-0.748757,-0.163461,2.313,2.43666
-0.74125,-0.163461,2.313,2.43437
-0.738818,-0.164592,2.329,2.44891
-0.731259,-0.164592,2.329,2.44664
-0.7237,-0.164592,2.329,2.4444
-0.71614,-0.164592,2.329,2.44217
-0.713449,-0.165722,2.345,2.45673
-0.705837,-0.165722,2.345,2.45453
-0.70299,-0.166853,2.361,2.46908
-0.695327,-0.166853,2.361,2.46691
-0.687664,-0.166853,2.361,2.46476
-0.68,-0.166853,2.361,2.46263
-0.672337,-0.166853,2.361,2.46053
-0.664674,-0.166853,2.361,2.45845
-0.657011,-0.166853,2.361,2.45638
-0.649348,-0.166853,2.361,2.45435
-0.641684,-0.166853,2.361,2.45233
-0.634021,-0.166853,2.361,2.45034
-0.630603,-0.167984,2.377,2.46496
-0.622887,-0.167984,2.377,2.46299
-0.615172,-0.167984,2.377,2.46105
-0.607457,-0.167984,2.377,2.45914
-0.599742,-0.167984,2.377,2.45724
-0.592027,-0.167984,2.377,2.45537
-0.584312,-0.167984,2.377,2.45352
-0.576597,-0.167984,2.377,2.4517
-0.568881,-0.167984,2.377,2.44989
-0.561166,-0.167984,2.377,2.44811
-0.553451,-0.167984,2.377,2.44636
-0.545736,-0.167984,2.377,2.44462
-0.538021,-0.167984,2.377,2.44291
-0.530306,-0.167984,2.377,2.44122
-0.522591,-0.167984,2.377,2.43956
-0.514875,-0.167984,2.377,2.43792
-0.50716,-0.167984,2.377,2.4363
-0.499445,-0.167984,2.377,2.43471
-0.49173,-0.167984,2.377,2.43314
-0.484015,-0.167984,2.377,2.43159
-0.4763,-0.167984,2.377,2.43006
-0.468584,-0.167984,2.377,2.42856
-0.460869,-0.167984,2.377,2.42709
-0.453154,-0.167984,2.377,2.42563
-0.445439,-0.167984,2.377,2.4242
-0.437724,-0.167984,2.377,2.4228
-0.433084,-0.169185,2.394,2.43873
-0.425314,-0.169185,2.394,2.43737
-0.417543,-0.169185,2.394,2.43602
-0.409773,-0.169185,2.394,2.4347
-0.404857,-0.170387,2.411,2.45069
-0.397032,-0.170387,2.411,2.44941
-0.389206,-0.170387,2.411,2.44815
-0.38407,-0.171588,2.428,2.46417
-0.376189,-0.171588,2.428,2.46295
-0.368309,-0.171588,2.428,2.46176
-0.362952,-0.17279,2.445,2.47782
-0.355016,-0.17279,2.445,2.47667
-0.34708,-0.17279,2.445,2.47555
-0.339144,-0.17279,2.445,2.47445
-0.331208,-0.17279,2.445,2.47337
-0.323272,-0.17279,2.445,2.47232
-0.315336,-0.17279,2.445,2.4713
-0.3074,-0.17279,2.445,2.4703
-0.301669,-0.174062,2.463,2.4875
-0.293675,-0.174062,2.463,2.48655
-0.285681,-0.174062,2.463,2.48561
-0.277686,-0.174062,2.463,2.48471
-0.269692,-0.174062,2.463,2.48383
-0.261698,-0.174062,2.463,2.48297
-0.253704,-0.174062,2.463,2.48214
-0.245709,-0.174062,2.463,2.48134
-0.237715,-0.174062,2.463,2.48056
-0.229721,-0.174062,2.463,2.47981
-0.221726,-0.174062,2.463,2.47908
-0.213732,-0.174062,2.463,2.47838
-0.205738,-0.174062,2.463,2.4777
-0.197744,-0.174062,2.463,2.47705
-0.189749,-0.174062,2.463,2.47642
-0.181755,-0.174062,2.463,2.47582
-0.173761,-0.174062,2.463,2.47525
-0.165766,-0.174062,2.463,2.4747
-0.157772,-0.174062,2.463,2.47418
-0.150872,-0.175334,2.481,2.49176
-0.14282,-0.175334,2.481,2.49129
-0.134767,-0.175334,2.481,2.49084
-0.126714,-0.175334,2.481,2.49041
-0.118662,-0.175334,2.481,2.49002
-0.110609,-0.175334,2.481,2.48965
-0.102556,-0.175334,2.481,2.4893
-0.0951891,-0.176606,2.499,2.50704
-0.087078,-0.176606,2.499,2.50675
-0.0789668,-0.176606,2.499,2.50648
-0.0708557,-0.176606,2.499,2.50623
-0.0627446,-0.176606,2.499,2.50602
-0.0546334,-0.176606,2.499,2.50583
-0.0468574,-0.177878,2.517,2.52371
-0.0389799,-0.179221,2.536,2.54262
-0.0307487,-0.179221,2.536,2.54251
-0.0225174,-0.179221,2.536,2.54242
-0.0142862,-0.179221,2.536,2.54237
-0.00605498,-0.179221,2.536,2.54233
0.00217625,-0.179221,2.536,2.54233
0.0104075,-0.179221,2.536,2.54235
0.0184991,-0.177878,2.517,2.52335
0.0266686,-0.177878,2.517,2.52342
0.0348382,-0.177878,2.517,2.52352
0.0430077,-0.177878,2.517,2.52364
0.0508113,-0.176606,2.499,2.50575
0.058498,-0.175334,2.481,2.48788
0.0665507,-0.175334,2.481,2.48808
0.0746034,-0.175334,2.481,2.48831
0.0826561,-0.175334,2.481,2.48856
0.0907089,-0.175334,2.481,2.48884
0.0987616,-0.175334,2.481,2.48915
0.106814,-0.175334,2.481,2.48948
0.114867,-0.175334,2.481,2.48984
0.12292,-0.175334,2.481,2.49022
0.130972,-0.175334,2.481,2.49063
0.139025,-0.175334,2.481,2.49107
0.147078,-0.175334,2.481,2.49153
0.155131,-0.175334,2.481,2.49202
0.163183,-0.175334,2.481,2.49254
0.171236,-0.175334,2.481,2.49308
0.179289,-0.175334,2.481,2.49364
0.188701,-0.176606,2.499,2.51233
0.196812,-0.176606,2.499,2.51295
0.204923,-0.176606,2.499,2.5136
0.213034,-0.176606,2.499,2.51427
0.222738,-0.177878,2.517,2.53309
0.230908,-0.177878,2.517,2.53382
0.239077,-0.177878,2.517,2.53458
0.247247,-0.177878,2.517,2.53536
0.255416,-0.177878,2.517,2.53617
0.263586,-0.177878,2.517,2.53701
0.271755,-0.177878,2.517,2.53787
0.279925,-0.177878,2.517,2.53876
0.288094,-0.177878,2.517,2.53967
0.296264,-0.177878,2.517,2.54061
0.304434,-0.177878,2.517,2.54158
0.312603,-0.177878,2.517,2.54257
0.320773,-0.177878,2.517,2.54359
0.328942,-0.177878,2.517,2.54463
0.337112,-0.177878,2.517,2.5457
0.345281,-0.177878,2.517,2.54679
0.350923,-0.176606,2.499,2.52969
0.359034,-0.176606,2.499,2.53083
0.367146,-0.176606,2.499,2.53199
0.375257,-0.176606,2.499,2.53318
0.383368,-0.176606,2.499,2.5344
0.391479,-0.176606,2.499,2.53564
0.39959,-0.176606,2.499,2.5369
0.407701,-0.176606,2.499,2.53819
0.415812,-0.176606,2.499,2.53951
0.423923,-0.176606,2.499,2.54085
0.428923,-0.175334,2.481,2.5239
0.436975,-0.175334,2.481,2.52528
0.445028,-0.175334,2.481,2.52669
0.453081,-0.175334,2.481,2.52812
0.461134,-0.175334,2.481,2.52957
0.469186,-0.175334,2.481,2.53105
0.477239,-0.175334,2.481,2.53256
0.485292,-0.175334,2.481,2.53409
0.493344,-0.175334,2.481,2.53564
0.501397,-0.175334,2.481,2.53722
0.50945,-0.175334,2.481,2.53883
0.517502,-0.175334,2.481,2.54046
0.525555,-0.175334,2.481,2.54211
0.529737,-0.174062,2.463,2.52533
0.537731,-0.174062,2.463,2.52702
0.545725,-0.174062,2.463,2.52873
0.553719,-0.174062,2.463,2.53047
0.561714,-0.174062,2.463,2.53223
0.569708,-0.174062,2.463,2.53402
0.577702,-0.174062,2.463,2.53582
0.585697,-0.174062,2.463,2.53766
0.593691,-0.174062,2.463,2.53951
0.601685,-0.174062,2.463,2.5414
0.609679,-0.174062,2.463,2.5433
0.617674,-0.174062,2.463,2.54523
0.625668,-0.174062,2.463,2.54718
0.633662,-0.174062,2.463,2.54916
0.646346,-0.175334,2.481,2.5698
0.654399,-0.175334,2.481,2.57184
0.662451,-0.175334,2.481,2.5739
0.670504,-0.175334,2.481,2.57598
0.678557,-0.175334,2.481,2.57809
0.691591,-0.176606,2.499,2.59894
0.699702,-0.176606,2.499,2.60111
0.707813,-0.176606,2.499,2.6033
0.715924,-0.176606,2.499,2.60552
0.729251,-0.177878,2.517,2.62654
0.73742,-0.177878,2.517,2.62882
0.74559,-0.177878,2.517,2.63113
0.759449,-0.179221,2.536,2.65333
0.76768,-0.179221,2.536,2.6557
0.775912,-0.179221,2.536,2.65809
0.790018,-0.180563,2.555,2.68044
0.798311,-0.180563,2.555,2.6829
0.806603,-0.180563,2.555,2.68537
0.814896,-0.180563,2.555,2.68788
0.823189,-0.180563,2.555,2.6904
0.831482,-0.180563,2.555,2.69295
0.839775,-0.180563,2.555,2.69552
0.848068,-0.180563,2.555,2.69812
0.856361,-0.180563,2.555,2.70074
0.864654,-0.180563,2.555,2.70338
0.872947,-0.180563,2.555,2.70604
0.881239,-0.180563,2.555,2.70873
0.889532,-0.180563,2.555,2.71144
0.891149,-0.179221,2.536,2.69399
0.89938,-0.179221,2.536,2.69672
0.907611,-0.179221,2.536,2.69948
0.915842,-0.179221,2.536,2.70226
0.924074,-0.179221,2.536,2.70506
0.92532,-0.177878,2.517,2.68759
0.933489,-0.177878,2.517,2.69042
0.934925,-0.176606,2.499,2.674
0.943036,-0.176606,2.499,2.67685
0.951147,-0.176606,2.499,2.67971
0.959258,-0.176606,2.499,2.6826
0.967369,-0.176606,2.499,2.68552
0.968454,-0.175334,2.481,2.66908
0.976507,-0.175334,2.481,2.67202
0.991703,-0.176606,2.499,2.69438
0.992612,-0.175334,2.481,2.67794
1.00067,-0.175334,2.481,2.68094
1.00872,-0.175334,2.481,2.68396
1.01677,-0.175334,2.481,2.68699
1.02482,-0.175334,2.481,2.69005
1.04037,-0.176606,2.499,2.71267
1.04848,-0.176606,2.499,2.71579
1.05659,-0.176606,2.499,2.71893
nan,nan,nan,NaN
nan,nan,nan,NaN
nan,nan,nan,NaN
nan,nan,nan,NaN
nan,nan,nan,NaN
nan,nan,nan,NaN
nan,nan,nan,NaN
nan,nan,nan,NaN
nan,nan,nan,NaN
nan,nan,nan,NaN
nan,nan,nan,NaN
nan,nan,nan,NaN
nan,nan,nan,NaN
1.72361,-0.260138,3.681,4.07287
1.73556,-0.260138,3.681,4.07794
1.74751,-0.260138,3.681,4.08304
1.74082,-0.257382,3.642,4.04486
1.75264,-0.257382,3.642,4.04996
1.76446,-0.257382,3.642,4.05509
1.77628,-0.257382,3.642,4.06024
1.76944,-0.254697,3.604,4.02301
1.78114,-0.254697,3.604,4.02817
1.79284,-0.254697,3.604,4.03336
1.80454,-0.254697,3.604,4.03857
nan,nan,nan,NaN
nan,nan,nan,NaN
nan,nan,nan,NaN
nan,nan,nan,NaN
nan,nan,nan,NaN
nan,nan,nan,NaN
nan,nan,nan,NaN
nan,nan,nan,NaN
nan,nan,nan,NaN
nan,nan,nan,NaN
2.04049,-0.268831,3.804,4.32508
2.05284,-0.268831,3.804,4.33092
2.06519,-0.268831,3.804,4.33678
2.0546,-0.265863,3.762,4.29473
2.06681,-0.265863,3.762,4.30058
2.07902,-0.265863,3.762,4.30646
2.06844,-0.262965,3.721,4.26537
2.08051,-0.262965,3.721,4.27124
2.0701,-0.260138,3.681,4.23116
2.05998,-0.257382,3.642,4.19213
2.07181,-0.257382,3.642,4.19795
2.08363,-0.257382,3.642,4.2038
2.07358,-0.254697,3.604,4.16575
2.06329,-0.252011,3.566,4.1276
2.07487,-0.252011,3.566,4.13339
2.06479,-0.249396,3.529,4.09627
2.05507,-0.246852,3.493,4.06021
2.06641,-0.246852,3.493,4.06596
2.05692,-0.244379,3.458,4.03093
2.02688,-0.239503,3.389,3.95613
2.03788,-0.239503,3.389,3.96177
2.02893,-0.23717,3.356,3.92881
2.00092,-0.232647,3.292,3.85941
2.01161,-0.232647,3.292,3.86497
1.98421,-0.228266,3.23,3.79764
1.95764,-0.224026,3.17,3.73248
1.96793,-0.224026,3.17,3.73789
1.94202,-0.219927,3.112,3.67483
1.91762,-0.21604,3.057,3.61513
1.92754,-0.21604,3.057,3.62041
1.90324,-0.212224,3.003,3.56165
1.87986,-0.208549,2.951,3.50511
1.88944,-0.208549,2.951,3.51025
1.8514,-0.203319,2.877,3.42726
1.82969,-0.199927,2.829,3.37505
1.82392,-0.198302,2.806,3.35256
1.83303,-0.198302,2.806,3.35752
1.8126,-0.195121,2.761,3.30858
1.80704,-0.193567,2.739,3.2871
1.81593,-0.193567,2.739,3.29199
1.79618,-0.190528,2.696,3.24514
1.79087,-0.189044,2.675,3.22468
1.79955,-0.189044,2.675,3.22951
1.79404,-0.18756,2.654,3.20897
1.7748,-0.184662,2.613,3.16414
-1.96257,-0.190747,2.829,3.44838
-1.95339,-0.190747,2.829,3.44316
-1.9284,-0.189197,2.806,3.41001
-1.90356,-0.187646,2.783,3.37696
-1.86457,-0.184679,2.739,3.31856
-1.85568,-0.184679,2.739,3.31358
-1.83196,-0.183196,2.717,3.28203
-1.82314,-0.183196,2.717,3.27712
-1.81432,-0.183196,2.717,3.27222
-1.8055,-0.183196,2.717,3.26734
-1.79668,-0.183196,2.717,3.26247
-1.78787,-0.183196,2.717,3.25762
-1.77905,-0.183196,2.717,3.25279
-1.7989,-0.186162,2.761,3.30058
-1.78993,-0.186162,2.761,3.2957
-1.81,-0.189197,2.806,3.34448
-1.80089,-0.189197,2.806,3.33956
-1.8218,-0.192366,2.853,3.39051
-1.82778,-0.193984,2.877,3.41402
-1.81845,-0.193984,2.877,3.40903
-1.85564,-0.198973,2.951,3.49162
-1.84606,-0.198973,2.951,3.48654
-1.83648,-0.198973,2.951,3.48148
-1.843,-0.200726,2.977,3.50706
-1.84935,-0.202479,3.003,3.53258
-1.8396,-0.202479,3.003,3.52749
-1.81401,-0.200726,2.977,3.49191
-1.78859,-0.198973,2.951,3.45645
-1.77902,-0.198973,2.951,3.45151
-1.76944,-0.198973,2.951,3.44658
-1.74495,-0.197288,2.926,3.41251
-1.73545,-0.197288,2.926,3.40767
-1.72596,-0.197288,2.926,3.40284
nan,nan,nan,NaN
nan,nan,nan,NaN
nan,nan,nan,NaN
nan,nan,nan,NaN
nan,nan,nan,NaN
nan,nan,nan,NaN
nan,nan,nan,NaN
nan,nan,nan,NaN
nan,nan,nan,NaN
nan,nan,nan,NaN
nan,nan,nan,NaN
nan,nan,nan,NaN
nan,nan,nan,NaN
nan,nan,nan,NaN
nan,nan,nan,NaN
nan,nan,nan,NaN
nan,nan,nan,NaN
nan,nan,nan,NaN
nan,nan,nan,NaN
nan,nan,nan,NaN
nan,nan,nan,NaN
nan,nan,nan,NaN
nan,nan,nan,NaN
nan,nan,nan,NaN
nan,nan,nan,NaN
nan,nan,nan,NaN
nan,nan,nan,NaN
nan,nan,nan,NaN
nan,nan,nan,NaN
nan,nan,nan,NaN
nan,nan,nan,NaN
nan,nan,nan,NaN
-1.18904,-0.16607,2.463,2.74003
-1.18104,-0.16607,2.463,2.73657
-1.17305,-0.16607,2.463,2.73313
-1.15654,-0.164856,2.445,2.70976
-1.1486,-0.164856,2.445,2.70638
-1.14067,-0.164856,2.445,2.70302
-1.12485,-0.16371,2.428,2.68091
-1.11697,-0.16371,2.428,2.67761
-1.10133,-0.162563,2.411,2.65561
-1.0935,-0.162563,2.411,2.65238
-1.08568,-0.162563,2.411,2.64916
-1.07025,-0.161417,2.394,2.6273
-1.06248,-0.161417,2.394,2.62415
-1.05471,-0.161417,2.394,2.62101
-1.03951,-0.160271,2.377,2.59931
-1.03179,-0.160271,2.377,2.59623
-1.02408,-0.160271,2.377,2.59317
-1.00952,-0.159192,2.361,2.5727
-1.00186,-0.159192,2.361,2.5697
-0.994193,-0.159192,2.361,2.56673
-0.986529,-0.159192,2.361,2.56377
-0.978866,-0.159192,2.361,2.56083
-0.971203,-0.159192,2.361,2.55791
-0.95701,-0.158113,2.345,2.53769
-0.949399,-0.158113,2.345,2.53483
-0.941787,-0.158113,2.345,2.53199
-0.927802,-0.157035,2.329,2.51192
-0.920243,-0.157035,2.329,2.50913
-0.912683,-0.157035,2.329,2.50637
-0.905124,-0.157035,2.329,2.50363
-0.891399,-0.155956,2.313,2.48372
-0.883891,-0.155956,2.313,2.48104
-0.876384,-0.155956,2.313,2.47837
-0.868876,-0.155956,2.313,2.47573
-0.855783,-0.154944,2.298,2.45707
-0.848324,-0.154944,2.298,2.45448
-0.840865,-0.154944,2.298,2.45191
-0.833407,-0.154944,2.298,2.44936
-0.825948,-0.154944,2.298,2.44684
-0.818489,-0.154944,2.298,2.44433
-0.81103,-0.154944,2.298,2.44184
-0.803572,-0.154944,2.298,2.43937
-0.796113,-0.154944,2.298,2.43693
-0.788654,-0.154944,2.298,2.4345
-0.781195,-0.154944,2.298,2.43209
-0.773737,-0.154944,2.298,2.42971
-0.766278,-0.154944,2.298,2.42734
-0.758819,-0.154944,2.298,2.425
-0.756265,-0.155956,2.313,2.43849
-0.748757,-0.155956,2.313,2.43617
-0.74125,-0.155956,2.313,2.43387
-0.738818,-0.157035,2.329,2.44842
-0.731259,-0.157035,2.329,2.44615
-0.7237,-0.157035,2.329,2.4439
-0.71614,-0.157035,2.329,2.44167
-0.713449,-0.158113,2.345,2.45622
-0.705837,-0.158113,2.345,2.45402
-0.70299,-0.159192,2.361,2.46857
-0.695327,-0.159192,2.361,2.4664
-0.687664,-0.159192,2.361,2.46425
-0.68,-0.159192,2.361,2.46213
-0.676894,-0.160271,2.377,2.47669
-0.669178,-0.160271,2.377,2.47459
-0.661463,-0.160271,2.377,2.47252
-0.653748,-0.160271,2.377,2.47047
-0.646033,-0.160271,2.377,2.46844
-0.638318,-0.160271,2.377,2.46643
-0.630603,-0.160271,2.377,2.46444
-0.622887,-0.160271,2.377,2.46248
-0.615172,-0.160271,2.377,2.46054
-0.611802,-0.161417,2.394,2.47621
-0.604031,-0.161417,2.394,2.4743
-0.596261,-0.161417,2.394,2.47241
-0.584312,-0.160271,2.377,2.45301
-0.576597,-0.160271,2.377,2.45118
-0.568881,-0.160271,2.377,2.44938
-0.561166,-0.160271,2.377,2.4476
-0.553451,-0.160271,2.377,2.44584
-0.545736,-0.160271,2.377,2.4441
-0.538021,-0.160271,2.377,2.44239
-0.530306,-0.160271,2.377,2.4407
-0.522591,-0.160271,2.377,2.43904
-0.514875,-0.160271,2.377,2.4374
-0.50716,-0.160271,2.377,2.43578
-0.499445,-0.160271,2.377,2.43419
-0.49173,-0.160271,2.377,2.43261
-0.484015,-0.160271,2.377,2.43107
-0.4763,-0.160271,2.377,2.42954
-0.468584,-0.160271,2.377,2.42804
-0.460869,-0.160271,2.377,2.42656
-0.453154,-0.160271,2.377,2.42511
-0.445439,-0.160271,2.377,2.42368
-0.437724,-0.160271,2.377,2.42228
-0.433084,-0.161417,2.394,2.43821
-0.425314,-0.161417,2.394,2.43684
-0.417543,-0.161417,2.394,2.43549
-0.409773,-0.161417,2.394,2.43417
-0.404857,-0.162563,2.411,2.45015
-0.397032,-0.162563,2.411,2.44887
-0.389206,-0.162563,2.411,2.44762
-0.38407,-0.16371,2.428,2.46363
-0.376189,-0.16371,2.428,2.46242
-0.368309,-0.16371,2.428,2.46123
-0.362952,-0.164856,2.445,2.47728
-0.355016,-0.164856,2.445,2.47613
-0.34708,-0.164856,2.445,2.47501
-0.339144,-0.164856,2.445,2.47391
-0.331208,-0.164856,2.445,2.47283
-0.323272,-0.164856,2.445,2.47178
-0.315336,-0.164856,2.445,2.47076
-0.3074,-0.164856,2.445,2.46976
-0.301669,-0.16607,2.463,2.48696
-0.293675,-0.16607,2.463,2.486
-0.285681,-0.16607,2.463,2.48507
-0.277686,-0.16607,2.463,2.48416
-0.269692,-0.16607,2.463,2.48328
-0.261698,-0.16607,2.463,2.48242
-0.253704,-0.16607,2.463,2.4816
-0.245709,-0.16607,2.463,2.48079
-0.237715,-0.16607,2.463,2.48001
-0.229721,-0.16607,2.463,2.47926
-0.221726,-0.16607,2.463,2.47853
-0.213732,-0.16607,2.463,2.47783
-0.205738,-0.16607,2.463,2.47715
-0.197744,-0.16607,2.463,2.4765
-0.189749,-0.16607,2.463,2.47587
-0.181755,-0.16607,2.463,2.47527
-0.173761,-0.16607,2.463,2.4747
-0.165766,-0.16607,2.463,2.47415
-0.157772,-0.16607,2.463,2.47363
-0.149778,-0.16607,2.463,2.47313
-0.14282,-0.167283,2.481,2.49073
-0.134767,-0.167283,2.481,2.49028
-0.126714,-0.167283,2.481,2.48986
-0.118662,-0.167283,2.481,2.48946
-0.110609,-0.167283,2.481,2.48909
-0.102556,-0.167283,2.481,2.48875
-0.0951891,-0.168497,2.499,2.50648
-0.087078,-0.168497,2.499,2.50619
-0.0789668,-0.168497,2.499,2.50592
-0.0708557,-0.168497,2.499,2.50568
-0.0627446,-0.168497,2.499,2.50546
-0.0546334,-0.168497,2.499,2.50527
-0.0468574,-0.169711,2.517,2.52315
-0.0389799,-0.170992,2.536,2.54206
-0.0307487,-0.170992,2.536,2.54194
-0.0225174,-0.170992,2.536,2.54186
-0.0142862,-0.170992,2.536,2.5418
-0.00605498,-0.170992,2.536,2.54177
0.00217625,-0.170992,2.536,2.54176
0.0104075,-0.170992,2.536,2.54178
0.0186387,-0.170992,2.536,2.54183
0.0266686,-0.169711,2.517,2.52286
0.0348382,-0.169711,2.517,2.52296
0.0430077,-0.169711,2.517,2.52308
0.0511773,-0.169711,2.517,2.52323
0.0589224,-0.168497,2.499,2.50537
0.0670336,-0.168497,2.499,2.50557
0.0751447,-0.168497,2.499,2.5058
0.0832558,-0.168497,2.499,2.50606
0.091367,-0.168497,2.499,2.50634
0.0987616,-0.167283,2.481,2.48859
0.106814,-0.167283,2.481,2.48893
0.114867,-0.167283,2.481,2.48928
0.12292,-0.167283,2.481,2.48967
0.130972,-0.167283,2.481,2.49008
0.139025,-0.167283,2.481,2.49052
0.147078,-0.167283,2.481,2.49098
0.155131,-0.167283,2.481,2.49147
0.163183,-0.167283,2.481,2.49198
0.171236,-0.167283,2.481,2.49252
0.179289,-0.167283,2.481,2.49309
0.188701,-0.168497,2.499,2.51177
0.196812,-0.168497,2.499,2.51239
0.204923,-0.168497,2.499,2.51304
0.213034,-0.168497,2.499,2.51372
0.221145,-0.168497,2.499,2.51442
0.229256,-0.168497,2.499,2.51514
0.237367,-0.168497,2.499,2.5159
0.245479,-0.168497,2.499,2.51667
0.255416,-0.169711,2.517,2.53561
0.263586,-0.169711,2.517,2.53645
0.271755,-0.169711,2.517,2.53731
0.279925,-0.169711,2.517,2.5382
0.288094,-0.169711,2.517,2.53911
0.296264,-0.169711,2.517,2.54005
0.304434,-0.169711,2.517,2.54102
0.312603,-0.169711,2.517,2.54201
0.320773,-0.169711,2.517,2.54303
0.328942,-0.169711,2.517,2.54407
0.337112,-0.169711,2.517,2.54514
0.345281,-0.169711,2.517,2.54623
0.350923,-0.168497,2.499,2.52914
0.359034,-0.168497,2.499,2.53028
0.367146,-0.168497,2.499,2.53144
0.375257,-0.168497,2.499,2.53263
0.383368,-0.168497,2.499,2.53384
0.391479,-0.168497,2.499,2.53508
0.39959,-0.168497,2.499,2.53635
0.407701,-0.168497,2.499,2.53764
0.415812,-0.168497,2.499,2.53895
0.423923,-0.168497,2.499,2.5403
0.428923,-0.167283,2.481,2.52336
0.436975,-0.167283,2.481,2.52474
0.445028,-0.167283,2.481,2.52614
0.453081,-0.167283,2.481,2.52757
0.461134,-0.167283,2.481,2.52903
0.469186,-0.167283,2.481,2.53051
0.477239,-0.167283,2.481,2.53202
0.485292,-0.167283,2.481,2.53355
0.493344,-0.167283,2.481,2.5351
0.501397,-0.167283,2.481,2.53668
0.50945,-0.167283,2.481,2.53828
0.517502,-0.167283,2.481,2.53991
0.525555,-0.167283,2.481,2.54157
0.533608,-0.167283,2.481,2.54324
0.541661,-0.167283,2.481,2.54494
0.549713,-0.167283,2.481,2.54667
0.557766,-0.167283,2.481,2.54842
0.565819,-0.167283,2.481,2.5502
0.573871,-0.167283,2.481,2.55199
0.581924,-0.167283,2.481,2.55382
0.589977,-0.167283,2.481,2.55566
0.59803,-0.167283,2.481,2.55753
0.606082,-0.167283,2.481,2.55943
0.614135,-0.167283,2.481,2.56135
0.622188,-0.167283,2.481,2.56329
0.63024,-0.167283,2.481,2.56526
0.638293,-0.167283,2.481,2.56725
0.646346,-0.167283,2.481,2.56926
0.654399,-0.167283,2.481,2.5713
0.662451,-0.167283,2.481,2.57336
0.675369,-0.168497,2.499,2.59413
0.68348,-0.168497,2.499,2.59625
0.691591,-0.168497,2.499,2.5984
0.699702,-0.168497,2.499,2.60057
0.707813,-0.168497,2.499,2.60277
0.721081,-0.169711,2.517,2.62375
0.729251,-0.169711,2.517,2.626
0.73742,-0.169711,2.517,2.62828
0.74559,-0.169711,2.517,2.63059
0.759449,-0.170992,2.536,2.65279
0.773432,-0.172273,2.555,2.67505
0.781725,-0.172273,2.555,2.67746
0.790018,-0.172273,2.555,2.67989
0.798311,-0.172273,2.555,2.68235
0.806603,-0.172273,2.555,2.68483
0.814896,-0.172273,2.555,2.68733
0.823189,-0.172273,2.555,2.68986
0.831482,-0.172273,2.555,2.69241
0.839775,-0.172273,2.555,2.69498
0.848068,-0.172273,2.555,2.69758
0.856361,-0.172273,2.555,2.7002
0.864654,-0.172273,2.555,2.70284
0.872947,-0.172273,2.555,2.7055
0.881239,-0.172273,2.555,2.70819
0.889532,-0.172273,2.555,2.7109
0.891149,-0.170992,2.536,2.69345
0.89938,-0.170992,2.536,2.69619
0.907611,-0.170992,2.536,2.69894
0.915842,-0.170992,2.536,2.70172
0.924074,-0.170992,2.536,2.70452
0.92532,-0.169711,2.517,2.68706
0.933489,-0.169711,2.517,2.68989
0.941659,-0.169711,2.517,2.69273
0.949829,-0.169711,2.517,2.6956
0.951147,-0.168497,2.499,2.67919
0.959258,-0.168497,2.499,2.68208
0.967369,-0.168497,2.499,2.68499
0.975481,-0.168497,2.499,2.68793
0.983592,-0.168497,2.499,2.69088
0.991703,-0.168497,2.499,2.69386
0.999814,-0.168497,2.499,2.69685
1.00793,-0.168497,2.499,2.69987
1.01604,-0.168497,2.499,2.70291
1.02415,-0.168497,2.499,2.70597
1.03226,-0.168497,2.499,2.70905
1.04037,-0.168497,2.499,2.71215
1.04848,-0.168497,2.499,2.71527
1.05659,-0.168497,2.499,2.71841
nan,nan,nan,NaN
nan,nan,nan,NaN
nan,nan,nan,NaN
nan,nan,nan,NaN
nan,nan,nan,NaN
nan,nan,nan,NaN
nan,nan,nan,NaN
nan,nan,nan,NaN
nan,nan,nan,NaN
nan,nan,nan,NaN
nan,nan,nan,NaN
1.62953,-0.237945,3.529,3.89433
1.64099,-0.237945,3.529,3.89914
1.65244,-0.237945,3.529,3.90398
1.68134,-0.24044,3.566,3.94982
1.69292,-0.24044,3.566,3.95476
1.70449,-0.24044,3.566,3.95973
1.69826,-0.237945,3.529,3.92359
1.70971,-0.237945,3.529,3.92856
1.72117,-0.237945,3.529,3.93356
1.71495,-0.235518,3.493,3.89841
1.72628,-0.235518,3.493,3.90341
1.73762,-0.235518,3.493,3.90843
1.74896,-0.235518,3.493,3.91349
1.74266,-0.233158,3.458,3.8793
1.75388,-0.233158,3.458,3.88436
1.76511,-0.233158,3.458,3.88944
nan,nan,nan,NaN
nan,nan,nan,NaN
nan,nan,nan,NaN
nan,nan,nan,NaN
nan,nan,nan,NaN
nan,nan,nan,NaN
nan,nan,nan,NaN
2.01796,-0.253656,3.762,4.27658
2.03017,-0.253656,3.762,4.28236
2.04238,-0.253656,3.762,4.28816
2.0546,-0.253656,3.762,4.29399
2.06681,-0.253656,3.762,4.29985
2.05636,-0.250891,3.721,4.2588
2.06844,-0.250891,3.721,4.26465
2.08051,-0.250891,3.721,4.27052
2.0701,-0.248194,3.681,4.23044
2.05998,-0.245564,3.642,4.19142
2.07181,-0.245564,3.642,4.19724
2.08363,-0.245564,3.642,4.20309
2.07358,-0.243002,3.604,4.16505
2.06329,-0.24044,3.566,4.12691
2.07487,-0.24044,3.566,4.1327
2.06479,-0.237945,3.529,4.09559
2.05507,-0.235518,3.493,4.05954
2.06641,-0.235518,3.493,4.06529
2.05692,-0.233158,3.458,4.03027
2.02688,-0.228506,3.389,3.95548
2.03788,-0.228506,3.389,3.96112
2.02893,-0.226281,3.356,3.92817
2.00092,-0.221965,3.292,3.85879
2.01161,-0.221965,3.292,3.86434
1.98421,-0.217785,3.23,3.79703
1.95764,-0.21374,3.17,3.73188
1.96793,-0.21374,3.17,3.73729
1.94202,-0.209829,3.112,3.67424
1.91762,-0.20612,3.057,3.61455
1.92754,-0.20612,3.057,3.61983
1.88676,-0.200726,2.977,3.53025
1.86394,-0.197288,2.926,3.47486
1.87343,-0.197288,2.926,3.47996
1.83595,-0.192366,2.853,3.39814
1.81482,-0.189197,2.806,3.34709
1.80897,-0.187646,2.783,3.32456
1.81801,-0.187646,2.783,3.32948
1.79815,-0.184679,2.739,3.2817
1.77867,-0.18178,2.696,3.23499
1.78743,-0.18178,2.696,3.23981
1.78218,-0.180364,2.675,3.21937
1.77681,-0.178948,2.654,3.19887
1.78542,-0.178948,2.654,3.20367
1.77984,-0.177532,2.633,3.18309
1.7748,-0.176183,2.613,3.16366
-1.96257,-0.181568,2.829,3.44788
-1.95339,-0.181568,2.829,3.44266
-1.9284,-0.180092,2.806,3.40951
-1.88851,-0.177203,2.761,3.34978
-1.86457,-0.175791,2.739,3.31808
-1.85568,-0.175791,2.739,3.31309
-1.83196,-0.174379,2.717,3.28155
-1.82314,-0.174379,2.717,3.27664
-1.81432,-0.174379,2.717,3.27174
-1.8055,-0.174379,2.717,3.26686
-1.79668,-0.174379,2.717,3.26199
-1.78787,-0.174379,2.717,3.25714
-1.77905,-0.174379,2.717,3.25231
-1.77023,-0.174379,2.717,3.24749
-1.77567,-0.175791,2.739,3.26895
-1.78097,-0.177203,2.761,3.29035
-1.77201,-0.177203,2.761,3.28551
-1.79179,-0.180092,2.806,3.33415
-1.81254,-0.183108,2.853,3.38503
-1.80328,-0.183108,2.853,3.38008
-1.8242,-0.186189,2.901,3.43193
-1.81478,-0.186189,2.901,3.42694
-1.80537,-0.186189,2.901,3.42196
-1.81143,-0.187793,2.926,3.44645
-1.83334,-0.191066,2.977,3.50145
-1.82368,-0.191066,2.977,3.4964
-1.79817,-0.189398,2.951,3.46088
-1.78859,-0.189398,2.951,3.45591
-1.77902,-0.189398,2.951,3.45097
-1.75445,-0.187793,2.926,3.41684
-1.74495,-0.187793,2.926,3.41198
-1.73545,-0.187793,2.926,3.40713
-1.71121,-0.186189,2.901,3.37323
-1.70179,-0.186189,2.901,3.36847
nan,nan,nan,NaN
nan,nan,nan,NaN
nan,nan,nan,NaN
nan,nan,nan,NaN
nan,nan,nan,NaN
nan,nan,nan,NaN
nan,nan,nan,NaN
nan,nan,nan,NaN
nan,nan,nan,NaN
nan,nan,nan,NaN
nan,nan,nan,NaN
nan,nan,nan,NaN
nan,nan,nan,NaN
nan,nan,nan,NaN
nan,nan,nan,NaN
nan,nan,nan,NaN
nan,nan,nan,NaN
nan,nan,nan,NaN
nan,nan,nan,NaN
nan,nan,nan,NaN
nan,nan,nan,NaN
nan,nan,nan,NaN
nan,nan,nan,NaN
nan,nan,nan,NaN
nan,nan,nan,NaN
nan,nan,nan,NaN
nan,nan,nan,NaN
nan,nan,nan,NaN
nan,nan,nan,NaN
nan,nan,nan,NaN
nan,nan,nan,NaN
-1.19772,-0.159233,2.481,2.75958
-1.18967,-0.159233,2.481,2.75609
-1.18162,-0.159233,2.481,2.75262
-1.16505,-0.158078,2.463,2.72923
-1.1486,-0.156922,2.445,2.70591
-1.14067,-0.156922,2.445,2.70255
-1.12485,-0.155831,2.428,2.68044
-1.11697,-0.155831,2.428,2.67714
-1.10133,-0.15474,2.411,2.65514
-1.0935,-0.15474,2.411,2.65191
-1.08568,-0.15474,2.411,2.64869
-1.07025,-0.153649,2.394,2.62684
-1.06248,-0.153649,2.394,2.62368
-1.05471,-0.153649,2.394,2.62055
-1.03951,-0.152558,2.377,2.59884
-1.03179,-0.152558,2.377,2.59576
-1.02408,-0.152558,2.377,2.59271
-1.00952,-0.151531,2.361,2.57224
-1.00186,-0.151531,2.361,2.56924
-0.994193,-0.151531,2.361,2.56626
-0.986529,-0.151531,2.361,2.5633
-0.978866,-0.151531,2.361,2.56036
-0.971203,-0.151531,2.361,2.55744
-0.95701,-0.150504,2.345,2.53723
-0.949399,-0.150504,2.345,2.53437
-0.941787,-0.150504,2.345,2.53153
-0.927802,-0.149477,2.329,2.51145
-0.920243,-0.149477,2.329,2.50867
-0.912683,-0.149477,2.329,2.50591
-0.905124,-0.149477,2.329,2.50316
-0.891399,-0.14845,2.313,2.48326
-0.883891,-0.14845,2.313,2.48058
-0.876384,-0.14845,2.313,2.47791
-0.868876,-0.14845,2.313,2.47527
-0.855783,-0.147488,2.298,2.45661
-0.848324,-0.147488,2.298,2.45402
-0.840865,-0.147488,2.298,2.45145
-0.833407,-0.147488,2.298,2.4489
-0.825948,-0.147488,2.298,2.44637
-0.818489,-0.147488,2.298,2.44387
-0.81103,-0.147488,2.298,2.44138
-0.803572,-0.147488,2.298,2.43891
-0.796113,-0.147488,2.298,2.43646
-0.788654,-0.147488,2.298,2.43404
-0.781195,-0.147488,2.298,2.43163
-0.773737,-0.147488,2.298,2.42924
-0.766278,-0.147488,2.298,2.42688
-0.758819,-0.147488,2.298,2.42453
-0.756265,-0.14845,2.313,2.43802
-0.748757,-0.14845,2.313,2.4357
-0.74125,-0.14845,2.313,2.4334
-0.738818,-0.149477,2.329,2.44795
-0.731259,-0.149477,2.329,2.44567
-0.7237,-0.149477,2.329,2.44342
-0.71614,-0.149477,2.329,2.4412
-0.713449,-0.150504,2.345,2.45575
-0.705837,-0.150504,2.345,2.45355
-0.70299,-0.151531,2.361,2.46809
-0.695327,-0.151531,2.361,2.46592
-0.687664,-0.151531,2.361,2.46377
-0.68,-0.151531,2.361,2.46164
-0.676894,-0.152558,2.377,2.4762
-0.669178,-0.152558,2.377,2.47411
-0.661463,-0.152558,2.377,2.47203
-0.653748,-0.152558,2.377,2.46998
-0.646033,-0.152558,2.377,2.46795
-0.638318,-0.152558,2.377,2.46594
-0.630603,-0.152558,2.377,2.46395
-0.622887,-0.152558,2.377,2.46199
-0.615172,-0.152558,2.377,2.46005
-0.611802,-0.153649,2.394,2.47571
-0.604031,-0.153649,2.394,2.4738
-0.596261,-0.153649,2.394,2.47192
-0.584312,-0.152558,2.377,2.45251
-0.576597,-0.152558,2.377,2.45069
-0.568881,-0.152558,2.377,2.44888
-0.561166,-0.152558,2.377,2.4471
-0.553451,-0.152558,2.377,2.44534
-0.545736,-0.152558,2.377,2.44361
-0.538021,-0.152558,2.377,2.4419
-0.530306,-0.152558,2.377,2.44021
-0.522591,-0.152558,2.377,2.43855
-0.514875,-0.152558,2.377,2.4369
-0.50716,-0.152558,2.377,2.43529
-0.499445,-0.152558,2.377,2.43369
-0.49173,-0.152558,2.377,2.43212
-0.484015,-0.152558,2.377,2.43057
-0.4763,-0.152558,2.377,2.42905
-0.468584,-0.152558,2.377,2.42755
-0.460869,-0.152558,2.377,2.42607
-0.453154,-0.152558,2.377,2.42461
-0.445439,-0.152558,2.377,2.42318
-0.437724,-0.152558,2.377,2.42178
-0.433084,-0.153649,2.394,2.43771
-0.425314,-0.153649,2.394,2.43634
-0.417543,-0.153649,2.394,2.43499
-0.412683,-0.15474,2.411,2.45095
-0.404857,-0.15474,2.411,2.44965
-0.397032,-0.15474,2.411,2.44837
-0.389206,-0.15474,2.411,2.44711
-0.38407,-0.155831,2.428,2.46312
-0.376189,-0.155831,2.428,2.46191
-0.368309,-0.155831,2.428,2.46072
-0.362952,-0.156922,2.445,2.47677
-0.355016,-0.156922,2.445,2.47562
-0.34708,-0.156922,2.445,2.47449
-0.339144,-0.156922,2.445,2.47339
-0.331208,-0.156922,2.445,2.47232
-0.323272,-0.156922,2.445,2.47127
-0.315336,-0.156922,2.445,2.47024
-0.309664,-0.158078,2.463,2.48742
-0.301669,-0.158078,2.463,2.48644
-0.293675,-0.158078,2.463,2.48548
-0.285681,-0.158078,2.463,2.48455
-0.277686,-0.158078,2.463,2.48364
-0.269692,-0.158078,2.463,2.48276
-0.261698,-0.158078,2.463,2.4819
-0.253704,-0.158078,2.463,2.48107
-0.245709,-0.158078,2.463,2.48027
-0.237715,-0.158078,2.463,2.47949
-0.229721,-0.158078,2.463,2.47874
-0.221726,-0.158078,2.463,2.47801
-0.213732,-0.158078,2.463,2.4773
-0.205738,-0.158078,2.463,2.47663
-0.197744,-0.158078,2.463,2.47598
-0.189749,-0.158078,2.463,2.47535
-0.181755,-0.158078,2.463,2.47475
-0.173761,-0.158078,2.463,2.47418
-0.165766,-0.158078,2.463,2.47363
-0.157772,-0.158078,2.463,2.47311
-0.149778,-0.158078,2.463,2.47261
-0.141784,-0.158078,2.463,2.47214
-0.133789,-0.158078,2.463,2.47169
-0.126714,-0.159233,2.481,2.48933
-0.118662,-0.159233,2.481,2.48893
-0.110609,-0.159233,2.481,2.48856
-0.102556,-0.159233,2.481,2.48822
-0.0951891,-0.160388,2.499,2.50595
-0.087078,-0.160388,2.499,2.50566
-0.0789668,-0.160388,2.499,2.50539
-0.0708557,-0.160388,2.499,2.50514
-0.0627446,-0.160388,2.499,2.50493
-0.0546334,-0.160388,2.499,2.50474
-0.0468574,-0.161543,2.517,2.52261
-0.0389799,-0.162763,2.536,2.54152
-0.0307487,-0.162763,2.536,2.5414
-0.0225174,-0.162763,2.536,2.54132
-0.0142862,-0.162763,2.536,2.54126
-0.00605498,-0.162763,2.536,2.54122
0.00217625,-0.162763,2.536,2.54122
0.0104075,-0.162763,2.536,2.54124
0.0186387,-0.162763,2.536,2.54129
0.0268699,-0.162763,2.536,2.54136
0.0351011,-0.162763,2.536,2.54146
0.0433324,-0.162763,2.536,2.54159
0.0511773,-0.161543,2.517,2.5227
0.0593468,-0.161543,2.517,2.52288
0.0675164,-0.161543,2.517,2.52308
0.0751447,-0.160388,2.499,2.50527
0.0832558,-0.160388,2.499,2.50553
0.091367,-0.160388,2.499,2.50581
0.0987616,-0.159233,2.481,2.48807
0.106814,-0.159233,2.481,2.4884
0.114867,-0.159233,2.481,2.48876
0.12292,-0.159233,2.481,2.48914
0.130972,-0.159233,2.481,2.48955
0.139025,-0.159233,2.481,2.48999
0.147078,-0.159233,2.481,2.49045
0.155131,-0.159233,2.481,2.49094
0.163183,-0.159233,2.481,2.49145
0.171236,-0.159233,2.481,2.492
0.179289,-0.159233,2.481,2.49256
0.188701,-0.160388,2.499,2.51124
0.196812,-0.160388,2.499,2.51186
0.204923,-0.160388,2.499,2.51251
0.213034,-0.160388,2.499,2.51319
0.221145,-0.160388,2.499,2.51389
0.229256,-0.160388,2.499,2.51461
0.237367,-0.160388,2.499,2.51537
0.245479,-0.160388,2.499,2.51614
0.255416,-0.161543,2.517,2.53508
0.263586,-0.161543,2.517,2.53591
0.271755,-0.161543,2.517,2.53678
0.279925,-0.161543,2.517,2.53767
0.288094,-0.161543,2.517,2.53858
0.296264,-0.161543,2.517,2.53952
0.304434,-0.161543,2.517,2.54049
0.312603,-0.161543,2.517,2.54148
0.320773,-0.161543,2.517,2.5425
0.328942,-0.161543,2.517,2.54354
0.337112,-0.161543,2.517,2.54461
0.345281,-0.161543,2.517,2.5457
0.350923,-0.160388,2.499,2.52861
0.359034,-0.160388,2.499,2.52975
0.367146,-0.160388,2.499,2.53091
0.375257,-0.160388,2.499,2.5321
0.383368,-0.160388,2.499,2.53332
0.391479,-0.160388,2.499,2.53456
0.39959,-0.160388,2.499,2.53582
0.407701,-0.160388,2.499,2.53711
0.415812,-0.160388,2.499,2.53843
0.423923,-0.160388,2.499,2.53977
0.428923,-0.159233,2.481,2.52283
0.436975,-0.159233,2.481,2.52422
0.445028,-0.159233,2.481,2.52562
0.453081,-0.159233,2.481,2.52705
0.461134,-0.159233,2.481,2.52851
0.469186,-0.159233,2.481,2.52999
0.477239,-0.159233,2.481,2.5315
0.485292,-0.159233,2.481,2.53303
0.493344,-0.159233,2.481,2.53458
0.501397,-0.159233,2.481,2.53616
0.50945,-0.159233,2.481,2.53777
0.517502,-0.159233,2.481,2.53939
0.525555,-0.159233,2.481,2.54105
0.533608,-0.159233,2.481,2.54273
0.541661,-0.159233,2.481,2.54443
0.549713,-0.159233,2.481,2.54615
0.557766,-0.159233,2.481,2.54791
0.565819,-0.159233,2.481,2.54968
0.573871,-0.159233,2.481,2.55148
0.581924,-0.159233,2.481,2.5533
0.589977,-0.159233,2.481,2.55515
0.59803,-0.159233,2.481,2.55702
0.606082,-0.159233,2.481,2.55892
0.614135,-0.159233,2.481,2.56084
0.622188,-0.159233,2.481,2.56278
0.63024,-0.159233,2.481,2.56475
0.638293,-0.159233,2.481,2.56674
0.646346,-0.159233,2.481,2.56875
0.654399,-0.159233,2.481,2.57079
0.662451,-0.159233,2.481,2.57285
0.675369,-0.160388,2.499,2.59362
0.68348,-0.160388,2.499,2.59574
0.691591,-0.160388,2.499,2.59789
0.699702,-0.160388,2.499,2.60006
0.707813,-0.160388,2.499,2.60225
0.721081,-0.161543,2.517,2.62323
0.729251,-0.161543,2.517,2.62549
0.73742,-0.161543,2.517,2.62777
0.74559,-0.161543,2.517,2.63007
0.759449,-0.162763,2.536,2.65227
0.773432,-0.163982,2.555,2.67453
0.781725,-0.163982,2.555,2.67694
0.790018,-0.163982,2.555,2.67937
0.798311,-0.163982,2.555,2.68183
0.806603,-0.163982,2.555,2.68431
0.814896,-0.163982,2.555,2.68681
0.823189,-0.163982,2.555,2.68934
0.831482,-0.163982,2.555,2.69189
0.839775,-0.163982,2.555,2.69446
0.848068,-0.163982,2.555,2.69706
0.856361,-0.163982,2.555,2.69968
0.864654,-0.163982,2.555,2.70232
0.872947,-0.163982,2.555,2.70499
0.881239,-0.163982,2.555,2.70767
0.889532,-0.163982,2.555,2.71038
0.891149,-0.162763,2.536,2.69294
0.89938,-0.162763,2.536,2.69568
0.907611,-0.162763,2.536,2.69843
0.915842,-0.162763,2.536,2.70121
0.924074,-0.162763,2.536,2.70402
0.92532,-0.161543,2.517,2.68656
0.933489,-0.161543,2.517,2.68938
0.941659,-0.161543,2.517,2.69223
0.949829,-0.161543,2.517,2.6951
0.951147,-0.160388,2.499,2.67869
0.959258,-0.160388,2.499,2.68159
0.967369,-0.160388,2.499,2.6845
0.975481,-0.160388,2.499,2.68743
0.983592,-0.160388,2.499,2.69039
0.991703,-0.160388,2.499,2.69336
0.999814,-0.160388,2.499,2.69636
1.00793,-0.160388,2.499,2.69938
1.01604,-0.160388,2.499,2.70242
1.02415,-0.160388,2.499,2.70548
1.03226,-0.160388,2.499,2.70856
1.04037,-0.160388,2.499,2.71166
1.04848,-0.160388,2.499,2.71478
1.05659,-0.160388,2.499,2.71792
nan,nan,nan,NaN
nan,nan,nan,NaN
nan,nan,nan,NaN
nan,nan,nan,NaN
nan,nan,nan,NaN
nan,nan,nan,NaN
nan,nan,nan,NaN
nan,nan,nan,NaN
nan,nan,nan,NaN
nan,nan,nan,NaN
nan,nan,nan,NaN
1.62953,-0.226494,3.529,3.89365
1.64099,-0.226494,3.529,3.89846
1.65244,-0.226494,3.529,3.90329
1.68134,-0.228869,3.566,3.94913
1.69292,-0.228869,3.566,3.95407
1.70449,-0.228869,3.566,3.95904
1.69826,-0.226494,3.529,3.92291
1.70971,-0.226494,3.529,3.92788
1.72117,-0.226494,3.529,3.93288
1.71495,-0.224184,3.493,3.89774
1.72628,-0.224184,3.493,3.90274
1.73762,-0.224184,3.493,3.90777
1.74896,-0.224184,3.493,3.91282
1.74266,-0.221937,3.458,3.87864
1.75388,-0.221937,3.458,3.8837
1.76511,-0.221937,3.458,3.88878
nan,nan,nan,NaN
nan,nan,nan,NaN
nan,nan,nan,NaN
nan,nan,nan,NaN
nan,nan,nan,NaN
nan,nan,nan,NaN
1.96257,-0.23625,3.681,4.17819
1.97451,-0.23625,3.681,4.18381
2.00805,-0.238817,3.721,4.23499
2.02013,-0.238817,3.721,4.24073
2.0322,-0.238817,3.721,4.2465
2.04428,-0.238817,3.721,4.25229
2.03425,-0.23625,3.681,4.21233
2.0462,-0.23625,3.681,4.21812
2.05815,-0.23625,3.681,4.22393
2.04816,-0.233747,3.642,4.18495
2.03849,-0.231308,3.604,4.14702
2.05019,-0.231308,3.604,4.15278
2.06189,-0.231308,3.604,4.15857
2.05172,-0.228869,3.566,4.12047
2.04189,-0.226494,3.529,4.08344
2.05334,-0.226494,3.529,4.08917
2.06479,-0.226494,3.529,4.09494
2.05507,-0.224184,3.493,4.05889
2.06641,-0.224184,3.493,4.06465
2.05692,-0.221937,3.458,4.02964
2.02688,-0.217509,3.389,3.95485
2.03788,-0.217509,3.389,3.9605
2.02893,-0.215391,3.356,3.92755
2.00092,-0.211283,3.292,3.85819
2.01161,-0.211283,3.292,3.86374
1.98421,-0.207304,3.23,3.79644
1.95764,-0.203453,3.17,3.7313
1.96793,-0.203453,3.17,3.73671
1.94202,-0.199731,3.112,3.67367
1.91762,-0.196201,3.057,3.614
1.92754,-0.196201,3.057,3.61928
1.88676,-0.191066,2.977,3.52972
1.84801,-0.186189,2.901,3.44465
1.85743,-0.186189,2.901,3.44971
1.82051,-0.181568,2.829,3.36905
1.79994,-0.178615,2.783,3.31915
1.79467,-0.177203,2.761,3.29778
1.80364,-0.177203,2.761,3.30267
1.78371,-0.174379,2.717,3.25486
1.77867,-0.173032,2.696,3.23451
1.78743,-0.173032,2.696,3.23933
1.76819,-0.170336,2.654,3.19362
1.76275,-0.168988,2.633,3.17309
1.77129,-0.168988,2.633,3.17785
1.76632,-0.167705,2.613,3.15845
1.7748,-0.167705,2.613,3.1632
-1.96257,-0.172388,2.829,3.44741
-1.95339,-0.172388,2.829,3.44219
-1.9284,-0.170987,2.806,3.40905
-1.88851,-0.168244,2.761,3.34931
-1.86457,-0.166904,2.739,3.31762
-1.85568,-0.166904,2.739,3.31263
-1.83196,-0.165563,2.717,3.28109
-1.82314,-0.165563,2.717,3.27618
-1.81432,-0.165563,2.717,3.27128
-1.8055,-0.165563,2.717,3.2664
-1.79668,-0.165563,2.717,3.26153
-1.78787,-0.165563,2.717,3.25668
-1.77905,-0.165563,2.717,3.25185
-1.77023,-0.165563,2.717,3.24703
-1.77567,-0.166904,2.739,3.26848
-1.78097,-0.168244,2.761,3.28988
-1.77201,-0.168244,2.761,3.28503
-1.79179,-0.170987,2.806,3.33367
-1.81254,-0.173851,2.853,3.38454
-1.80328,-0.173851,2.853,3.37959
-1.8242,-0.176775,2.901,3.43144
-1.81478,-0.176775,2.901,3.42644
-1.80537,-0.176775,2.901,3.42146
-1.81143,-0.178299,2.926,3.44595
-1.83334,-0.181407,2.977,3.50094
-1.82368,-0.181407,2.977,3.49589
-1.79817,-0.179822,2.951,3.46037
-1.78859,-0.179822,2.951,3.4554
-1.77902,-0.179822,2.951,3.45045
-1.75445,-0.178299,2.926,3.41634
-1.74495,-0.178299,2.926,3.41147
-1.73545,-0.178299,2.926,3.40662
-1.71121,-0.176775,2.901,3.37273
-1.70179,-0.176775,2.901,3.36796
nan,nan,nan,NaN
nan,nan,nan,NaN
nan,nan,nan,NaN
nan,nan,nan,NaN
nan,nan,nan,NaN
nan,nan,nan,NaN
nan,nan,nan,NaN
nan,nan,nan,NaN
nan,nan,nan,NaN
nan,nan,nan,NaN
nan,nan,nan,NaN
nan,nan,nan,NaN
nan,nan,nan,NaN
nan,nan,nan,NaN
nan,nan,nan,NaN
nan,nan,nan,NaN
nan,nan,nan,NaN
nan,nan,nan,NaN
nan,nan,nan,NaN
nan,nan,nan,NaN
nan,nan,nan,NaN
nan,nan,nan,NaN
nan,nan,nan,NaN
nan,nan,nan,NaN
nan,nan,nan,NaN
nan,nan,nan,NaN
nan,nan,nan,NaN
nan,nan,nan,NaN
nan,nan,nan,NaN
-1.23144,-0.153376,2.517,2.80629
-1.22327,-0.153376,2.517,2.80272
-1.19772,-0.151182,2.481,2.75912
-1.18967,-0.151182,2.481,2.75564
-1.18162,-0.151182,2.481,2.75217
-1.16505,-0.150085,2.463,2.72878
-1.1486,-0.148989,2.445,2.70546
-1.14067,-0.148989,2.445,2.7021
-1.12485,-0.147953,2.428,2.67999
-1.11697,-0.147953,2.428,2.6767
-1.10133,-0.146917,2.411,2.6547
-1.0935,-0.146917,2.411,2.65146
-1.08568,-0.146917,2.411,2.64824
-1.07025,-0.145881,2.394,2.6264
-1.06248,-0.145881,2.394,2.62324
-1.04722,-0.144845,2.377,2.6015
-1.03951,-0.144845,2.377,2.5984
-1.03179,-0.144845,2.377,2.59532
-1.02408,-0.144845,2.377,2.59227
-1.00952,-0.14387,2.361,2.5718
-1.00186,-0.14387,2.361,2.5688
-0.994193,-0.14387,2.361,2.56582
-0.986529,-0.14387,2.361,2.56286
-0.972232,-0.142895,2.345,2.54257
-0.964621,-0.142895,2.345,2.53967
-0.95701,-0.142895,2.345,2.53679
-0.949399,-0.142895,2.345,2.53393
-0.941787,-0.142895,2.345,2.53109
-0.927802,-0.14192,2.329,2.51102
-0.920243,-0.14192,2.329,2.50823
-0.912683,-0.14192,2.329,2.50547
-0.905124,-0.14192,2.329,2.50272
-0.891399,-0.140945,2.313,2.48283
-0.883891,-0.140945,2.313,2.48014
-0.876384,-0.140945,2.313,2.47748
-0.868876,-0.140945,2.313,2.47483
-0.855783,-0.140031,2.298,2.45617
-0.848324,-0.140031,2.298,2.45358
-0.840865,-0.140031,2.298,2.45101
-0.833407,-0.140031,2.298,2.44846
-0.825948,-0.140031,2.298,2.44594
-0.818489,-0.140031,2.298,2.44343
-0.81103,-0.140031,2.298,2.44094
-0.803572,-0.140031,2.298,2.43847
-0.796113,-0.140031,2.298,2.43602
-0.788654,-0.140031,2.298,2.4336
-0.781195,-0.140031,2.298,2.43119
-0.773737,-0.140031,2.298,2.4288
-0.766278,-0.140031,2.298,2.42644
-0.758819,-0.140031,2.298,2.42409
-0.756265,-0.140945,2.313,2.43758
-0.748757,-0.140945,2.313,2.43526
-0.74125,-0.140945,2.313,2.43296
-0.738818,-0.14192,2.329,2.4475
-0.731259,-0.14192,2.329,2.44522
-0.7237,-0.14192,2.329,2.44297
-0.71614,-0.14192,2.329,2.44075
-0.713449,-0.142895,2.345,2.45529
-0.705837,-0.142895,2.345,2.45309
-0.698226,-0.142895,2.345,2.45091
-0.695327,-0.14387,2.361,2.46546
-0.687664,-0.14387,2.361,2.46331
-0.68,-0.14387,2.361,2.46118
-0.672337,-0.14387,2.361,2.45908
-0.664674,-0.14387,2.361,2.45699
-0.661463,-0.144845,2.377,2.47157
-0.653748,-0.144845,2.377,2.46951
-0.646033,-0.144845,2.377,2.46748
-0.638318,-0.144845,2.377,2.46547
-0.630603,-0.144845,2.377,2.46349
-0.622887,-0.144845,2.377,2.46152
-0.615172,-0.144845,2.377,2.45958
-0.611802,-0.145881,2.394,2.47524
-0.604031,-0.145881,2.394,2.47333
-0.596261,-0.145881,2.394,2.47145
-0.584312,-0.144845,2.377,2.45205
-0.576597,-0.144845,2.377,2.45022
-0.568881,-0.144845,2.377,2.44842
-0.561166,-0.144845,2.377,2.44663
-0.553451,-0.144845,2.377,2.44488
-0.545736,-0.144845,2.377,2.44314
-0.538021,-0.144845,2.377,2.44143
-0.530306,-0.144845,2.377,2.43974
-0.522591,-0.144845,2.377,2.43808
-0.514875,-0.144845,2.377,2.43643
-0.50716,-0.144845,2.377,2.43481
-0.499445,-0.144845,2.377,2.43322
-0.49173,-0.144845,2.377,2.43165
-0.484015,-0.144845,2.377,2.4301
-0.4763,-0.144845,2.377,2.42857
-0.468584,-0.144845,2.377,2.42707
