-1.02408,-0.0908541,2.377,2.58981
-1.00952,-0.0902426,2.361,2.56936
-0.995066,-0.089631,2.345,2.54896
-0.987455,-0.089631,2.345,2.546
-0.979844,-0.089631,2.345,2.54306
-0.972232,-0.089631,2.345,2.54014
-0.964621,-0.089631,2.345,2.53723
-0.95701,-0.089631,2.345,2.53435
-0.949399,-0.089631,2.345,2.53149
-0.941787,-0.089631,2.345,2.52864
-0.934176,-0.089631,2.345,2.52582
-0.926565,-0.089631,2.345,2.52301
-0.925224,-0.0902426,2.361,2.53742
-0.91756,-0.0902426,2.361,2.53464
-0.909897,-0.0902426,2.361,2.53187
-0.902234,-0.0902426,2.361,2.52913
-0.900633,-0.0908541,2.377,2.54353
-0.892918,-0.0908541,2.377,2.5408
-0.885203,-0.0908541,2.377,2.5381
-0.883763,-0.0915039,2.394,2.55356
-0.875993,-0.0915039,2.394,2.55088
-0.868223,-0.0915039,2.394,2.54822
-0.860452,-0.0915039,2.394,2.54558
-0.852682,-0.0915039,2.394,2.54297
-0.844912,-0.0915039,2.394,2.54037
-0.837141,-0.0915039,2.394,2.5378
-0.829371,-0.0915039,2.394,2.53524
-0.821601,-0.0915039,2.394,2.53271
-0.81383,-0.0915039,2.394,2.5302
-0.80606,-0.0915039,2.394,2.52771
-0.79829,-0.0915039,2.394,2.52525
-0.790519,-0.0915039,2.394,2.5228
-0.782749,-0.0915039,2.394,2.52038
-0.774979,-0.0915039,2.394,2.51798
-0.767208,-0.0915039,2.394,2.51559
-0.759438,-0.0915039,2.394,2.51324
-0.757005,-0.0921537,2.411,2.52873
-0.74918,-0.0921537,2.411,2.5264
-0.736127,-0.0915039,2.394,2.50629
-0.728357,-0.0915039,2.394,2.50402
-0.720586,-0.0915039,2.394,2.50177
-0.712816,-0.0915039,2.394,2.49954
-0.710052,-0.0921537,2.411,2.51507
-0.702227,-0.0921537,2.411,2.51287
-0.694401,-0.0921537,2.411,2.5107
-0.686576,-0.0921537,2.411,2.50855
-0.67875,-0.0921537,2.411,2.50641
-0.670925,-0.0921537,2.411,2.50431
-0.663099,-0.0921537,2.411,2.50222
-0.659894,-0.0928035,2.428,2.51779
-0.652013,-0.0928035,2.428,2.51573
-0.644133,-0.0928035,2.428,2.5137
-0.636252,-0.0928035,2.428,2.5117
-0.628371,-0.0928035,2.428,2.50971
-0.620491,-0.0928035,2.428,2.50775
-0.61261,-0.0928035,2.428,2.50581
-0.604729,-0.0928035,2.428,2.5039
-0.601027,-0.0934533,2.445,2.51952
-0.593092,-0.0934533,2.445,2.51764
-0.585156,-0.0934533,2.445,2.51578
-0.57722,-0.0934533,2.445,2.51395
-0.569284,-0.0934533,2.445,2.51214
-0.561348,-0.0934533,2.445,2.51035
-0.553412,-0.0934533,2.445,2.50859
-0.545476,-0.0934533,2.445,2.50685
-0.53754,-0.0934533,2.445,2.50514
-0.529605,-0.0934533,2.445,2.50345
-0.521669,-0.0934533,2.445,2.50178
-0.513733,-0.0934533,2.445,2.50014
-0.505797,-0.0934533,2.445,2.49852
-0.497861,-0.0934533,2.445,2.49692
-0.489925,-0.0934533,2.445,2.49535
-0.481989,-0.0934533,2.445,2.49381
-0.474054,-0.0934533,2.445,2.49229
-0.466118,-0.0934533,2.445,2.49079
-0.458182,-0.0934533,2.445,2.48932
-0.450246,-0.0934533,2.445,2.48787
-0.44231,-0.0934533,2.445,2.48644
-0.434374,-0.0934533,2.445,2.48504
-0.426438,-0.0934533,2.445,2.48367
-0.418503,-0.0934533,2.445,2.48232
-0.410567,-0.0934533,2.445,2.48099
-0.402631,-0.0934533,2.445,2.47969
-0.394695,-0.0934533,2.445,2.47842
-0.389606,-0.0941413,2.463,2.4954
-0.381612,-0.0941413,2.463,2.49417
-0.373618,-0.0941413,2.463,2.49295
-0.368296,-0.0948293,2.481,2.50998
-0.360243,-0.0948293,2.481,2.50881
-0.35219,-0.0948293,2.481,2.50767
-0.346634,-0.0955173,2.499,2.52473
-0.338523,-0.0955173,2.499,2.52363
-0.330412,-0.0955173,2.499,2.52256
-0.322301,-0.0955173,2.499,2.52151
-0.31419,-0.0955173,2.499,2.52048
-0.306079,-0.0955173,2.499,2.51949
-0.297967,-0.0955173,2.499,2.51851
-0.289856,-0.0955173,2.499,2.51757
-0.281745,-0.0955173,2.499,2.51665
-0.273634,-0.0955173,2.499,2.51575
-0.265523,-0.0955173,2.499,2.51488
-0.257412,-0.0955173,2.499,2.51404
-0.249301,-0.0955173,2.499,2.51322
-0.24119,-0.0955173,2.499,2.51243
-0.233078,-0.0955173,2.499,2.51166
-0.224967,-0.0955173,2.499,2.51092
-0.216856,-0.0955173,2.499,2.51021
-0.208745,-0.0955173,2.499,2.50952
-0.200634,-0.0955173,2.499,2.50886
-0.192523,-0.0955173,2.499,2.50822
-0.18574,-0.0962052,2.517,2.52568
-0.17757,-0.0962052,2.517,2.52509
-0.169401,-0.0962052,2.517,2.52453
-0.161231,-0.0962052,2.517,2.52399
-0.154217,-0.0969315,2.536,2.54253
-0.145986,-0.0969315,2.536,2.54205
-0.137755,-0.0969315,2.536,2.54159
-0.129523,-0.0969315,2.536,2.54115
-0.121292,-0.0969315,2.536,2.54075
-0.113061,-0.0969315,2.536,2.54037
-0.10483,-0.0969315,2.536,2.54002
-0.0965985,-0.0969315,2.536,2.53969
-0.0883672,-0.0969315,2.536,2.53939
-0.080136,-0.0969315,2.536,2.53912
-0.0713661,-0.0962052,2.517,2.51985
-0.0631965,-0.0962052,2.517,2.51963
-0.055027,-0.0962052,2.517,2.51944
-0.0465223,-0.0955173,2.499,2.50126
-0.0384112,-0.0955173,2.499,2.50112
-0.0303,-0.0955173,2.499,2.50101
-0.0220291,-0.0948293,2.481,2.48291
-0.0139764,-0.0948293,2.481,2.48285
-0.00592366,-0.0948293,2.481,2.48282
0.00212905,-0.0948293,2.481,2.48281
0.0101818,-0.0948293,2.481,2.48283
0.0181022,-0.0941413,2.463,2.46486
0.0260965,-0.0941413,2.463,2.46494
0.0338416,-0.0934533,2.445,2.44702
0.0417775,-0.0934533,2.445,2.44714
0.0497133,-0.0934533,2.445,2.44729
0.0576492,-0.0934533,2.445,2.44746
0.0655851,-0.0934533,2.445,2.44766
0.0730097,-0.0928035,2.428,2.43087
0.0808904,-0.0928035,2.428,2.43112
0.0887711,-0.0928035,2.428,2.43139
0.0959751,-0.0921537,2.411,2.41467
0.103801,-0.0921537,2.411,2.41499
0.111626,-0.0921537,2.411,2.41534
0.119452,-0.0921537,2.411,2.41572
0.127277,-0.0921537,2.411,2.41612
0.135103,-0.0921537,2.411,2.41654
0.143936,-0.0928035,2.428,2.43403
0.151817,-0.0928035,2.428,2.43451
0.159697,-0.0928035,2.428,2.43502
0.167578,-0.0928035,2.428,2.43555
0.175459,-0.0928035,2.428,2.4361
0.183339,-0.0928035,2.428,2.43668
0.19122,-0.0928035,2.428,2.43729
0.199101,-0.0928035,2.428,2.43792
0.208431,-0.0934533,2.445,2.45565
0.216366,-0.0934533,2.445,2.45633
0.224302,-0.0934533,2.445,2.45705
0.232238,-0.0934533,2.445,2.45778
0.240174,-0.0934533,2.445,2.45854
0.249936,-0.0941413,2.463,2.47744
0.257931,-0.0941413,2.463,2.47826
0.265925,-0.0941413,2.463,2.4791
0.273919,-0.0941413,2.463,2.47997
0.281914,-0.0941413,2.463,2.48087
0.289908,-0.0941413,2.463,2.48179
0.297902,-0.0941413,2.463,2.48274
0.305896,-0.0941413,2.463,2.48371
0.313891,-0.0941413,2.463,2.4847
0.321885,-0.0941413,2.463,2.48573
0.329879,-0.0941413,2.463,2.48678
0.337874,-0.0941413,2.463,2.48785
0.345868,-0.0941413,2.463,2.48895
0.353862,-0.0941413,2.463,2.49007
0.361856,-0.0941413,2.463,2.49122
0.369851,-0.0941413,2.463,2.49239
0.377845,-0.0941413,2.463,2.49359
0.385839,-0.0941413,2.463,2.49482
0.393834,-0.0941413,2.463,2.49606
0.401828,-0.0941413,2.463,2.49734
0.406827,-0.0934533,2.445,2.48038
0.414763,-0.0934533,2.445,2.48169
0.422699,-0.0934533,2.445,2.48303
0.430635,-0.0934533,2.445,2.48439
0.435521,-0.0928035,2.428,2.4685
0.443402,-0.0928035,2.428,2.4699
0.451283,-0.0928035,2.428,2.47133
0.459163,-0.0928035,2.428,2.47278
0.467044,-0.0928035,2.428,2.47425
0.474925,-0.0928035,2.428,2.47575
0.482805,-0.0928035,2.428,2.47728
0.490686,-0.0928035,2.428,2.47882
0.498567,-0.0928035,2.428,2.4804
0.506447,-0.0928035,2.428,2.48199
0.514328,-0.0928035,2.428,2.48361
0.525865,-0.0934533,2.445,2.50266
0.533801,-0.0934533,2.445,2.50434
0.53797,-0.0928035,2.428,2.48862
0.545851,-0.0928035,2.428,2.49033
0.557609,-0.0934533,2.445,2.50952
0.565544,-0.0934533,2.445,2.51129
0.57348,-0.0934533,2.445,2.51309
0.581416,-0.0934533,2.445,2.51492
0.589352,-0.0934533,2.445,2.51676
0.597288,-0.0934533,2.445,2.51863
0.605224,-0.0934533,2.445,2.52053
0.61316,-0.0934533,2.445,2.52244
0.621095,-0.0934533,2.445,2.52438
0.629031,-0.0934533,2.445,2.52635
0.641657,-0.0941413,2.463,2.54695
0.649651,-0.0941413,2.463,2.54898
0.657645,-0.0941413,2.463,2.55102
0.665639,-0.0941413,2.463,2.5531
0.673634,-0.0941413,2.463,2.55519
0.681628,-0.0941413,2.463,2.55731
0.689622,-0.0941413,2.463,2.55946
0.697617,-0.0941413,2.463,2.56162
0.710768,-0.0948293,2.481,2.58255
0.71882,-0.0948293,2.481,2.58477
0.732147,-0.0955173,2.499,2.60579
0.740258,-0.0955173,2.499,2.60808
0.748369,-0.0955173,2.499,2.6104
0.75648,-0.0955173,2.499,2.61274
0.764591,-0.0955173,2.499,2.6151
0.778268,-0.0962052,2.517,2.63633
0.786437,-0.0962052,2.517,2.63876
0.794607,-0.0962052,2.517,2.6412
0.808836,-0.0969315,2.536,2.66363
0.817068,-0.0969315,2.536,2.66614
0.825299,-0.0969315,2.536,2.66867
0.83353,-0.0969315,2.536,2.67123
0.841761,-0.0969315,2.536,2.67381
0.849993,-0.0969315,2.536,2.67641
0.858224,-0.0969315,2.536,2.67904
0.866455,-0.0969315,2.536,2.68169
0.874686,-0.0969315,2.536,2.68436
0.876303,-0.0962052,2.517,2.66692
0.884472,-0.0962052,2.517,2.66961
0.892642,-0.0962052,2.517,2.67233
0.894369,-0.0955173,2.499,2.65594
0.89598,-0.0948293,2.481,2.63953
0.904033,-0.0948293,2.481,2.64228
0.905468,-0.0941413,2.463,2.62585
0.906787,-0.0934533,2.445,2.60941
0.908362,-0.0928035,2.428,2.59402
0.916243,-0.0928035,2.428,2.59679
0.924124,-0.0928035,2.428,2.59958
0.925479,-0.0921537,2.411,2.58417
0.933304,-0.0921537,2.411,2.58698
0.94113,-0.0921537,2.411,2.58981
0.942264,-0.0915039,2.394,2.57439
0.950035,-0.0915039,2.394,2.57724
0.957805,-0.0915039,2.394,2.58012
0.972432,-0.0921537,2.411,2.60135
0.980257,-0.0921537,2.411,2.60429
0.988083,-0.0921537,2.411,2.60724
0.995908,-0.0921537,2.411,2.61022
1.00373,-0.0921537,2.411,2.61322
1.01869,-0.0928035,2.428,2.63468
1.02657,-0.0928035,2.428,2.63774
1.0417,-0.0934533,2.445,2.6593
1.06509,-0.0948293,2.481,2.70162
1.07314,-0.0948293,2.481,2.70481
1.08904,-0.0955173,2.499,2.72766
1.11339,-0.0969315,2.536,2.77134
1.12162,-0.0969315,2.536,2.77466
1.14678,-0.0983839,2.574,2.81962
1.16367,-0.0991101,2.593,2.84387
1.19016,-0.100639,2.633,2.89125
1.19871,-0.100639,2.633,2.89477
1.21688,-0.101442,2.654,2.92144
1.24489,-0.103047,2.696,2.97133
1.25364,-0.103047,2.696,2.975
1.28253,-0.104691,2.739,3.02621
1.30179,-0.105531,2.761,3.05433
1.31075,-0.105531,2.761,3.05816
1.33023,-0.106372,2.783,3.08641
1.33926,-0.106372,2.783,3.09031
1.37058,-0.108131,2.829,3.14538
1.37976,-0.108131,2.829,3.14939
1.40073,-0.109048,2.853,3.18018
1.43371,-0.110883,2.901,3.23784
1.44313,-0.110883,2.901,3.24202
1.46506,-0.111838,2.926,3.2742
1.48716,-0.112794,2.951,3.30647
1.49673,-0.112794,2.951,3.31079
1.51958,-0.113787,2.977,3.34434
1.55647,-0.115813,3.03,3.40836
1.58026,-0.116845,3.057,3.44327
1.59019,-0.116845,3.057,3.44784
1.6289,-0.118947,3.112,3.51454
1.66954,-0.121164,3.17,3.58482
1.67983,-0.121164,3.17,3.58963
1.72211,-0.123458,3.23,3.66249
1.74869,-0.124604,3.26,3.70149
1.79381,-0.127051,3.324,3.77927
1.8046,-0.127051,3.324,3.7844
1.81538,-0.127051,3.324,3.78956
1.84375,-0.128274,3.356,3.83127
1.85465,-0.128274,3.356,3.83652
1.86554,-0.128274,3.356,3.8418
1.87643,-0.128274,3.356,3.8471
1.88732,-0.128274,3.356,3.85243
1.88012,-0.127051,3.324,3.82099
1.89091,-0.127051,3.324,3.82631
1.9017,-0.127051,3.324,3.83165
1.91248,-0.127051,3.324,3.83702
1.88624,-0.124604,3.26,3.76843
1.89682,-0.124604,3.26,3.77373
1.9074,-0.124604,3.26,3.77906
1.90034,-0.123458,3.23,3.74959
1.91082,-0.123458,3.23,3.75491
1.90286,-0.122273,3.199,3.72417
1.8959,-0.121164,3.17,3.69568
1.90619,-0.121164,3.17,3.70097
1.89895,-0.120056,3.141,3.67237
1.8745,-0.117877,3.084,3.61091
1.88451,-0.117877,3.084,3.61612
1.87793,-0.116845,3.057,3.58964
1.85451,-0.114781,3.003,3.53134
1.86425,-0.114781,3.003,3.53647
1.85777,-0.113787,2.977,3.51095
1.85113,-0.112794,2.951,3.48537
1.86071,-0.112794,2.951,3.49047
1.82338,-0.109965,2.877,3.40792
1.80215,-0.108131,2.829,3.35599
1.81133,-0.108131,2.829,3.36093
1.79091,-0.106372,2.783,3.31116
1.77148,-0.104691,2.739,3.26362
1.76607,-0.10385,2.717,3.2422
1.77489,-0.10385,2.717,3.24702
1.75614,-0.102244,2.675,3.20158
1.73711,-0.100639,2.633,3.15601
1.74566,-0.100639,2.633,3.16072
1.72755,-0.0991101,2.593,3.11736
1.72325,-0.0983839,2.574,3.09915
1.7316,-0.0983839,2.574,3.10381
1.71427,-0.0969315,2.536,3.06258
1.7096,-0.0962052,2.517,3.04422
-2.02986,-0.102344,2.926,3.56262
-2.02036,-0.102344,2.926,3.55722
-2.01087,-0.102344,2.926,3.55184
-1.98427,-0.101469,2.901,3.51617
-1.95852,-0.10063,2.877,3.48182
-1.94918,-0.10063,2.877,3.47657
-1.92366,-0.0997904,2.853,3.44239
-1.89829,-0.0989509,2.829,3.40831
-1.88911,-0.0989509,2.829,3.4032
-1.87993,-0.0989509,2.829,3.39811
-1.85554,-0.0981465,2.806,3.36546
-1.84643,-0.0981465,2.806,3.36044
-1.82226,-0.097342,2.783,3.32794
-1.81323,-0.097342,2.783,3.32301
nan,nan,nan,NaN
nan,nan,nan,NaN
nan,nan,nan,NaN
nan,nan,nan,NaN
nan,nan,nan,NaN
nan,nan,nan,NaN
nan,nan,nan,NaN
-1.79977,-0.10063,2.877,3.39506
-1.79043,-0.10063,2.877,3.39012
-1.78109,-0.10063,2.877,3.3852
-1.78654,-0.101469,2.901,3.40849
-1.79244,-0.102344,2.926,3.4329
-1.78294,-0.102344,2.926,3.42795
-1.77344,-0.102344,2.926,3.42302
-1.77902,-0.103218,2.951,3.44731
-1.76944,-0.103218,2.951,3.44238
-1.75986,-0.103218,2.951,3.43746
-1.75028,-0.103218,2.951,3.43257
-1.75604,-0.104128,2.977,3.4579
-1.74638,-0.104128,2.977,3.453
-1.72155,-0.103218,2.951,3.41801
-1.71197,-0.103218,2.951,3.41319
-1.70239,-0.103218,2.951,3.4084
nan,nan,nan,NaN
nan,nan,nan,NaN
nan,nan,nan,NaN
nan,nan,nan,NaN
nan,nan,nan,NaN
nan,nan,nan,NaN
nan,nan,nan,NaN
nan,nan,nan,NaN
nan,nan,nan,NaN
nan,nan,nan,NaN
nan,nan,nan,NaN
nan,nan,nan,NaN
nan,nan,nan,NaN
nan,nan,nan,NaN
nan,nan,nan,NaN
nan,nan,nan,NaN
nan,nan,nan,NaN
nan,nan,nan,NaN
nan,nan,nan,NaN
nan,nan,nan,NaN
nan,nan,nan,NaN
nan,nan,nan,NaN
nan,nan,nan,NaN
nan,nan,nan,NaN
nan,nan,nan,NaN
-1.26769,-0.0900317,2.574,2.87065
-1.25003,-0.0893671,2.555,2.8458
-1.24174,-0.0893671,2.555,2.84217
-1.22428,-0.0887026,2.536,2.81745
-1.21605,-0.0887026,2.536,2.81388
-1.20781,-0.0887026,2.536,2.81033
-1.1906,-0.088038,2.517,2.78578
-1.17397,-0.0874084,2.499,2.7624
-1.15746,-0.0867788,2.481,2.73909
-1.14941,-0.0867788,2.481,2.7357
-1.13308,-0.0861492,2.463,2.7125
-1.11686,-0.0855196,2.445,2.68937
-1.10892,-0.0855196,2.445,2.68608
-1.09333,-0.084925,2.428,2.66416
-1.07785,-0.0843304,2.411,2.64231
-1.07003,-0.0843304,2.411,2.63913
-1.05471,-0.0837358,2.394,2.61738
-1.03951,-0.0831412,2.377,2.59569
-1.03179,-0.0831412,2.377,2.59261
-1.02408,-0.0831412,2.377,2.58955
-1.00952,-0.0825815,2.361,2.5691
-1.00186,-0.0825815,2.361,2.5661
-0.994193,-0.0825815,2.361,2.56312
-0.979844,-0.0820219,2.345,2.5428
-0.972232,-0.0820219,2.345,2.53988
-0.964621,-0.0820219,2.345,2.53698
-0.95701,-0.0820219,2.345,2.53409
-0.949399,-0.0820219,2.345,2.53123
-0.941787,-0.0820219,2.345,2.52838
-0.934176,-0.0820219,2.345,2.52556
-0.932887,-0.0825815,2.361,2.53996
-0.925224,-0.0825815,2.361,2.53716
-0.91756,-0.0825815,2.361,2.53438
-0.909897,-0.0825815,2.361,2.53161
-0.908348,-0.0831412,2.377,2.546
-0.900633,-0.0831412,2.377,2.54326
-0.892918,-0.0831412,2.377,2.54054
-0.891534,-0.0837358,2.394,2.55599
-0.883763,-0.0837358,2.394,2.55329
-0.875993,-0.0837358,2.394,2.55061
-0.868223,-0.0837358,2.394,2.54795
-0.860452,-0.0837358,2.394,2.54531
-0.852682,-0.0837358,2.394,2.5427
-0.844912,-0.0837358,2.394,2.5401
-0.837141,-0.0837358,2.394,2.53753
-0.829371,-0.0837358,2.394,2.53498
-0.821601,-0.0837358,2.394,2.53244
-0.81383,-0.0837358,2.394,2.52993
-0.80606,-0.0837358,2.394,2.52745
-0.79829,-0.0837358,2.394,2.52498
-0.790519,-0.0837358,2.394,2.52253
-0.782749,-0.0837358,2.394,2.52011
-0.774979,-0.0837358,2.394,2.51771
-0.767208,-0.0837358,2.394,2.51532
-0.764831,-0.0843304,2.411,2.53081
-0.757005,-0.0843304,2.411,2.52846
-0.74918,-0.0843304,2.411,2.52612
-0.736127,-0.0837358,2.394,2.50602
-0.728357,-0.0837358,2.394,2.50375
-0.720586,-0.0837358,2.394,2.5015
-0.712816,-0.0837358,2.394,2.49927
-0.710052,-0.0843304,2.411,2.5148
-0.702227,-0.0843304,2.411,2.5126
-0.694401,-0.0843304,2.411,2.51042
-0.686576,-0.0843304,2.411,2.50827
-0.67875,-0.0843304,2.411,2.50614
-0.670925,-0.0843304,2.411,2.50403
-0.663099,-0.0843304,2.411,2.50195
-0.659894,-0.084925,2.428,2.51751
-0.652013,-0.084925,2.428,2.51546
-0.644133,-0.084925,2.428,2.51342
-0.636252,-0.084925,2.428,2.51142
-0.628371,-0.084925,2.428,2.50943
-0.620491,-0.084925,2.428,2.50747
-0.61261,-0.084925,2.428,2.50553
-0.604729,-0.084925,2.428,2.50362
-0.601027,-0.0855196,2.445,2.51924
-0.593092,-0.0855196,2.445,2.51736
-0.585156,-0.0855196,2.445,2.5155
-0.57722,-0.0855196,2.445,2.51367
-0.569284,-0.0855196,2.445,2.51186
-0.561348,-0.0855196,2.445,2.51007
-0.553412,-0.0855196,2.445,2.50831
-0.541684,-0.084925,2.428,2.48914
-0.533803,-0.084925,2.428,2.48744
-0.525922,-0.084925,2.428,2.48576
-0.521669,-0.0855196,2.445,2.5015
-0.513733,-0.0855196,2.445,2.49985
-0.505797,-0.0855196,2.445,2.49823
-0.497861,-0.0855196,2.445,2.49664
-0.489925,-0.0855196,2.445,2.49507
-0.481989,-0.0855196,2.445,2.49352
-0.474054,-0.0855196,2.445,2.492
-0.466118,-0.0855196,2.445,2.4905
-0.458182,-0.0855196,2.445,2.48903
-0.450246,-0.0855196,2.445,2.48758
-0.44231,-0.0855196,2.445,2.48616
-0.434374,-0.0855196,2.445,2.48476
-0.426438,-0.0855196,2.445,2.48338
-0.418503,-0.0855196,2.445,2.48203
-0.410567,-0.0855196,2.445,2.48071
-0.402631,-0.0855196,2.445,2.47941
-0.394695,-0.0855196,2.445,2.47813
-0.389606,-0.0861492,2.463,2.49511
-0.381612,-0.0861492,2.463,2.49388
-0.373618,-0.0861492,2.463,2.49267
-0.368296,-0.0867788,2.481,2.50969
-0.360243,-0.0867788,2.481,2.50852
-0.35219,-0.0867788,2.481,2.50738
-0.346634,-0.0874084,2.499,2.52444
-0.338523,-0.0874084,2.499,2.52334
-0.330412,-0.0874084,2.499,2.52226
-0.322301,-0.0874084,2.499,2.52121
-0.31419,-0.0874084,2.499,2.52019
-0.306079,-0.0874084,2.499,2.51919
-0.297967,-0.0874084,2.499,2.51822
-0.289856,-0.0874084,2.499,2.51727
-0.281745,-0.0874084,2.499,2.51635
-0.273634,-0.0874084,2.499,2.51546
-0.265523,-0.0874084,2.499,2.51459
-0.257412,-0.0874084,2.499,2.51374
-0.249301,-0.0874084,2.499,2.51292
-0.24119,-0.0874084,2.499,2.51213
-0.233078,-0.0874084,2.499,2.51137
-0.224967,-0.0874084,2.499,2.51063
-0.216856,-0.0874084,2.499,2.50991
-0.208745,-0.0874084,2.499,2.50923
-0.200634,-0.0874084,2.499,2.50856
-0.192523,-0.0874084,2.499,2.50793
-0.18574,-0.088038,2.517,2.52538
-0.17757,-0.088038,2.517,2.52479
-0.169401,-0.088038,2.517,2.52423
-0.161231,-0.088038,2.517,2.52369
-0.154217,-0.0887026,2.536,2.54223
-0.145986,-0.0887026,2.536,2.54175
-0.137755,-0.0887026,2.536,2.54129
-0.129523,-0.0887026,2.536,2.54085
-0.121292,-0.0887026,2.536,2.54045
-0.113061,-0.0887026,2.536,2.54007
-0.10483,-0.0887026,2.536,2.53972
-0.0965985,-0.0887026,2.536,2.53939
-0.0883672,-0.0887026,2.536,2.53909
-0.080136,-0.0887026,2.536,2.53882
-0.0719048,-0.0887026,2.536,2.53857
-0.0636736,-0.0887026,2.536,2.53835
-0.055027,-0.088038,2.517,2.51914
-0.0468574,-0.088038,2.517,2.51898
-0.0386878,-0.088038,2.517,2.51884
-0.0303,-0.0874084,2.499,2.50071
-0.0221889,-0.0874084,2.499,2.50063
-0.0140778,-0.0874084,2.499,2.50057
-0.00596664,-0.0874084,2.499,2.50054
0.00212905,-0.0867788,2.481,2.48252
0.0101818,-0.0867788,2.481,2.48254
0.0182345,-0.0867788,2.481,2.48258
0.0260965,-0.0861492,2.463,2.46464
0.0338416,-0.0855196,2.445,2.44673
0.0417775,-0.0855196,2.445,2.44685
0.0497133,-0.0855196,2.445,2.447
0.0576492,-0.0855196,2.445,2.44717
0.0655851,-0.0855196,2.445,2.44737
0.0730097,-0.084925,2.428,2.43058
0.0808904,-0.084925,2.428,2.43083
0.0887711,-0.084925,2.428,2.43111
0.0966518,-0.084925,2.428,2.43141
0.104532,-0.084925,2.428,2.43173
0.112413,-0.084925,2.428,2.43208
0.120294,-0.084925,2.428,2.43246
0.128175,-0.084925,2.428,2.43286
0.136055,-0.084925,2.428,2.43329
0.143936,-0.084925,2.428,2.43374
0.151817,-0.084925,2.428,2.43422
0.159697,-0.084925,2.428,2.43473
0.167578,-0.084925,2.428,2.43526
0.175459,-0.084925,2.428,2.43581
0.183339,-0.084925,2.428,2.43639
0.192559,-0.0855196,2.445,2.45406
0.200495,-0.0855196,2.445,2.4547
0.208431,-0.0855196,2.445,2.45536
0.216366,-0.0855196,2.445,2.45604
0.225954,-0.0861492,2.463,2.47484
0.233948,-0.0861492,2.463,2.47559
0.241942,-0.0861492,2.463,2.47635
0.249936,-0.0861492,2.463,2.47715
0.257931,-0.0861492,2.463,2.47797
0.265925,-0.0861492,2.463,2.47881
0.275921,-0.0867788,2.481,2.4978
0.283974,-0.0867788,2.481,2.49871
0.292027,-0.0867788,2.481,2.49963
0.300079,-0.0867788,2.481,2.50059
0.308132,-0.0867788,2.481,2.50157
0.316185,-0.0867788,2.481,2.50257
0.324237,-0.0867788,2.481,2.5036
0.33229,-0.0867788,2.481,2.50466
0.340343,-0.0867788,2.481,2.50574
0.345868,-0.0861492,2.463,2.48866
0.353862,-0.0861492,2.463,2.48978
0.361856,-0.0861492,2.463,2.49093
0.369851,-0.0861492,2.463,2.4921
0.377845,-0.0861492,2.463,2.4933
0.385839,-0.0861492,2.463,2.49453
0.393834,-0.0861492,2.463,2.49578
0.401828,-0.0861492,2.463,2.49705
0.406827,-0.0855196,2.445,2.48009
0.414763,-0.0855196,2.445,2.4814
0.422699,-0.0855196,2.445,2.48274
0.430635,-0.0855196,2.445,2.48411
0.435521,-0.084925,2.428,2.46821
0.443402,-0.084925,2.428,2.46962
0.451283,-0.084925,2.428,2.47104
0.459163,-0.084925,2.428,2.47249
0.467044,-0.084925,2.428,2.47397
0.474925,-0.084925,2.428,2.47547
0.482805,-0.084925,2.428,2.47699
0.490686,-0.084925,2.428,2.47854
0.498567,-0.084925,2.428,2.48011
0.506447,-0.084925,2.428,2.48171
0.514328,-0.084925,2.428,2.48333
0.525865,-0.0855196,2.445,2.50237
0.533801,-0.0855196,2.445,2.50405
0.541737,-0.0855196,2.445,2.50576
0.549673,-0.0855196,2.445,2.50748
0.557609,-0.0855196,2.445,2.50924
0.565544,-0.0855196,2.445,2.51101
0.57348,-0.0855196,2.445,2.51281
0.581416,-0.0855196,2.445,2.51463
0.589352,-0.0855196,2.445,2.51648
0.597288,-0.0855196,2.445,2.51835
0.605224,-0.0855196,2.445,2.52025
0.61316,-0.0855196,2.445,2.52216
0.621095,-0.0855196,2.445,2.5241
0.629031,-0.0855196,2.445,2.52607
0.641657,-0.0861492,2.463,2.54667
0.649651,-0.0861492,2.463,2.54869
0.657645,-0.0861492,2.463,2.55074
0.665639,-0.0861492,2.463,2.55282
0.673634,-0.0861492,2.463,2.55491
0.681628,-0.0861492,2.463,2.55703
0.689622,-0.0861492,2.463,2.55917
0.697617,-0.0861492,2.463,2.56134
0.710768,-0.0867788,2.481,2.58226
0.71882,-0.0867788,2.481,2.58449
0.732147,-0.0874084,2.499,2.60551
0.740258,-0.0874084,2.499,2.6078
0.748369,-0.0874084,2.499,2.61011
0.761929,-0.088038,2.517,2.63127
0.770098,-0.088038,2.517,2.63365
0.778268,-0.088038,2.517,2.63605
0.792374,-0.0887026,2.536,2.65839
0.800605,-0.0887026,2.536,2.66085
0.808836,-0.0887026,2.536,2.66334
0.823189,-0.0893671,2.555,2.68582
0.831482,-0.0893671,2.555,2.68838
0.839775,-0.0893671,2.555,2.69095
0.848068,-0.0893671,2.555,2.69355
0.856361,-0.0893671,2.555,2.69618
0.864654,-0.0893671,2.555,2.69882
0.866455,-0.0887026,2.536,2.6814
0.874686,-0.0887026,2.536,2.68407
0.876303,-0.088038,2.517,2.66664
0.884472,-0.088038,2.517,2.66933
0.892642,-0.088038,2.517,2.67205
0.894369,-0.0874084,2.499,2.65566
0.89598,-0.0867788,2.481,2.63926
0.904033,-0.0867788,2.481,2.642
0.905468,-0.0861492,2.463,2.62558
0.906787,-0.0855196,2.445,2.60914
0.914722,-0.0855196,2.445,2.61191
0.922658,-0.0855196,2.445,2.6147
0.924124,-0.084925,2.428,2.59931
0.925479,-0.0843304,2.411,2.5839
0.933304,-0.0843304,2.411,2.58671
0.94113,-0.0843304,2.411,2.58955
0.942264,-0.0837358,2.394,2.57412
0.950035,-0.0837358,2.394,2.57698
0.957805,-0.0837358,2.394,2.57985
0.972432,-0.0843304,2.411,2.60109
0.980257,-0.0843304,2.411,2.60402
0.988083,-0.0843304,2.411,2.60698
0.995908,-0.0843304,2.411,2.60996
1.00373,-0.0843304,2.411,2.61295
1.01869,-0.084925,2.428,2.63441
1.02657,-0.084925,2.428,2.63747
1.0417,-0.0855196,2.445,2.65904
1.06509,-0.0867788,2.481,2.70135
1.07314,-0.0867788,2.481,2.70454
1.08904,-0.0874084,2.499,2.72739
1.11339,-0.0887026,2.536,2.77107
1.12162,-0.0887026,2.536,2.77438
1.13832,-0.0893671,2.555,2.79853
1.15514,-0.0900317,2.574,2.82275
1.18112,-0.0913958,2.613,2.869
1.1896,-0.0913958,2.613,2.8725
1.21688,-0.0928299,2.654,2.92115
1.24489,-0.0942989,2.696,2.97104
1.25364,-0.0942989,2.696,2.97471
1.27223,-0.0950335,2.717,3.00161
1.29142,-0.095803,2.739,3.0297
1.30031,-0.095803,2.739,3.0335
1.31971,-0.0965725,2.761,3.06171
1.33926,-0.097342,2.783,3.09001
1.37058,-0.0989509,2.829,3.14508
1.37976,-0.0989509,2.829,3.14909
1.40073,-0.0997904,2.853,3.17988
1.42185,-0.10063,2.877,3.21075
1.43119,-0.10063,2.877,3.2149
1.45254,-0.101469,2.901,3.24592
1.48716,-0.103218,2.951,3.30616
1.49673,-0.103218,2.951,3.31048
1.51958,-0.104128,2.977,3.34403
1.5426,-0.105037,3.003,3.37767
1.56631,-0.105981,3.03,3.41254
1.57614,-0.105981,3.03,3.41707
1.61424,-0.10787,3.084,3.48259
1.65427,-0.109864,3.141,3.5517
1.66447,-0.109864,3.141,3.55646
1.69012,-0.110878,3.17,3.59412
1.71597,-0.111893,3.199,3.6319
1.75927,-0.114026,3.26,3.70616
1.76985,-0.114026,3.26,3.7112
1.78043,-0.114026,3.26,3.71625
1.80859,-0.115145,3.292,3.75786
1.81928,-0.115145,3.292,3.76302
1.82996,-0.115145,3.292,3.76819
1.84065,-0.115145,3.292,3.77339
1.85133,-0.115145,3.292,3.77862
1.86202,-0.115145,3.292,3.78386
1.8727,-0.115145,3.292,3.78913
1.86508,-0.114026,3.26,3.75754
1.87566,-0.114026,3.26,3.76281
1.88624,-0.114026,3.26,3.76809
1.86133,-0.111893,3.199,3.70279
1.87171,-0.111893,3.199,3.70802
1.86504,-0.110878,3.17,3.67961
1.87532,-0.110878,3.17,3.68484
1.86836,-0.109864,3.141,3.65633
1.86121,-0.10885,3.112,3.62774
1.87131,-0.10885,3.112,3.63293
1.86449,-0.10787,3.084,3.60541
1.85809,-0.106926,3.057,3.57899
1.86801,-0.106926,3.057,3.58415
1.84476,-0.105037,3.003,3.52593
1.83845,-0.104128,2.977,3.50047
1.84811,-0.104128,2.977,3.50555
1.84155,-0.103218,2.951,3.47999
1.83545,-0.102344,2.926,3.45555
1.84494,-0.102344,2.926,3.4606
1.82338,-0.10063,2.877,3.40764
1.80215,-0.0989509,2.829,3.35571
1.81133,-0.0989509,2.829,3.36065
1.79091,-0.097342,2.783,3.31088
1.77148,-0.095803,2.739,3.26335
1.75242,-0.0942989,2.696,3.21688
1.76117,-0.0942989,2.696,3.22165
1.74235,-0.0928299,2.654,3.17618
1.72392,-0.0913958,2.613,3.13177
1.7324,-0.0913958,2.613,3.13645
1.72755,-0.0906963,2.593,3.1171
1.71053,-0.0893671,2.555,3.07602
1.71882,-0.0893671,2.555,3.08064
1.71427,-0.0887026,2.536,3.06233
1.7096,-0.088038,2.517,3.04397
-2.02986,-0.0928493,2.926,3.56236
-1.98653,-0.0912945,2.877,3.49739
-1.97719,-0.0912945,2.877,3.4921
-1.96786,-0.0912945,2.877,3.48682
-1.94218,-0.0905329,2.853,3.45252
-1.93292,-0.0905329,2.853,3.44732
-1.89197,-0.0890414,2.806,3.38543
-1.88286,-0.0890414,2.806,3.38034
-1.87375,-0.0890414,2.806,3.37528
-1.84936,-0.0883116,2.783,3.34261
-1.84033,-0.0883116,2.783,3.33762
-1.8313,-0.0883116,2.783,3.33265
-1.82226,-0.0883116,2.783,3.32769
-1.81323,-0.0883116,2.783,3.32275
-1.8042,-0.0883116,2.783,3.31783
-1.79516,-0.0883116,2.783,3.31293
-1.78613,-0.0883116,2.783,3.30804
-1.79179,-0.0890414,2.806,3.33047
-1.79729,-0.0897713,2.829,3.35284
-1.78811,-0.0897713,2.829,3.34793
-1.79402,-0.0905329,2.853,3.37139
-1.78476,-0.0905329,2.853,3.36648
-1.80537,-0.092056,2.901,3.41813
-1.79595,-0.092056,2.901,3.41317
-1.78654,-0.092056,2.901,3.40822
-1.79244,-0.0928493,2.926,3.43263
-1.78294,-0.0928493,2.926,3.42768
-1.78859,-0.0936427,2.951,3.45199
-1.77902,-0.0936427,2.951,3.44704
-1.76944,-0.0936427,2.951,3.4421
-1.77536,-0.0944677,2.977,3.46747
-1.7657,-0.0944677,2.977,3.46254
-1.75604,-0.0944677,2.977,3.45762
-1.74638,-0.0944677,2.977,3.45272
-1.73671,-0.0944677,2.977,3.44784
-1.72705,-0.0944677,2.977,3.44299
-1.71739,-0.0944677,2.977,3.43815
nan,nan,nan,NaN
nan,nan,nan,NaN
nan,nan,nan,NaN
nan,nan,nan,NaN
nan,nan,nan,NaN
nan,nan,nan,NaN
nan,nan,nan,NaN
nan,nan,nan,NaN
nan,nan,nan,NaN
nan,nan,nan,NaN
nan,nan,nan,NaN
nan,nan,nan,NaN
nan,nan,nan,NaN
nan,nan,nan,NaN
nan,nan,nan,NaN
nan,nan,nan,NaN
nan,nan,nan,NaN
nan,nan,nan,NaN
nan,nan,nan,NaN
nan,nan,nan,NaN
nan,nan,nan,NaN
nan,nan,nan,NaN
nan,nan,nan,NaN
nan,nan,nan,NaN
nan,nan,nan,NaN
nan,nan,nan,NaN
-1.25003,-0.0810766,2.555,2.84556
-1.24174,-0.0810766,2.555,2.84192
-1.23345,-0.0810766,2.555,2.83831
-1.21605,-0.0804737,2.536,2.81363
-1.20781,-0.0804737,2.536,2.81009
-1.1906,-0.0798707,2.517,2.78553
-1.17397,-0.0792996,2.499,2.76215
-1.15746,-0.0787284,2.481,2.73885
-1.14941,-0.0787284,2.481,2.73545
-1.13308,-0.0781572,2.463,2.71226
-1.11686,-0.077586,2.445,2.68913
-1.10892,-0.077586,2.445,2.68584
-1.09333,-0.0770466,2.428,2.66392
-1.07785,-0.0765071,2.411,2.64207
-1.07003,-0.0765071,2.411,2.63889
-1.05471,-0.0759676,2.394,2.61714
-1.03951,-0.0754282,2.377,2.59546
-1.03179,-0.0754282,2.377,2.59238
-1.02408,-0.0754282,2.377,2.58931
-1.00952,-0.0749205,2.361,2.56886
-1.00186,-0.0749205,2.361,2.56586
-0.994193,-0.0749205,2.361,2.56288
-0.979844,-0.0744128,2.345,2.54257
-0.972232,-0.0744128,2.345,2.53965
-0.964621,-0.0744128,2.345,2.53674
-0.95701,-0.0744128,2.345,2.53386
-0.949399,-0.0744128,2.345,2.53099
-0.941787,-0.0744128,2.345,2.52815
-0.934176,-0.0744128,2.345,2.52532
-0.932887,-0.0749205,2.361,2.53973
-0.925224,-0.0749205,2.361,2.53692
-0.91756,-0.0749205,2.361,2.53414
-0.909897,-0.0749205,2.361,2.53137
-0.908348,-0.0754282,2.377,2.54576
-0.900633,-0.0754282,2.377,2.54302
-0.892918,-0.0754282,2.377,2.5403
-0.891534,-0.0759676,2.394,2.55575
-0.883763,-0.0759676,2.394,2.55305
-0.875993,-0.0759676,2.394,2.55037
-0.868223,-0.0759676,2.394,2.54771
-0.860452,-0.0759676,2.394,2.54507
-0.852682,-0.0759676,2.394,2.54245
-0.844912,-0.0759676,2.394,2.53986
-0.837141,-0.0759676,2.394,2.53728
-0.829371,-0.0759676,2.394,2.53473
-0.821601,-0.0759676,2.394,2.5322
-0.81383,-0.0759676,2.394,2.52969
-0.80606,-0.0759676,2.394,2.5272
-0.79829,-0.0759676,2.394,2.52473
-0.790519,-0.0759676,2.394,2.52229
-0.782749,-0.0759676,2.394,2.51986
-0.774979,-0.0759676,2.394,2.51746
-0.767208,-0.0759676,2.394,2.51508
-0.764831,-0.0765071,2.411,2.53056
-0.757005,-0.0765071,2.411,2.52821
-0.74918,-0.0765071,2.411,2.52588
-0.736127,-0.0759676,2.394,2.50577
-0.728357,-0.0759676,2.394,2.5035
-0.720586,-0.0759676,2.394,2.50125
-0.712816,-0.0759676,2.394,2.49902
-0.710052,-0.0765071,2.411,2.51455
-0.702227,-0.0765071,2.411,2.51235
-0.694401,-0.0765071,2.411,2.51017
-0.686576,-0.0765071,2.411,2.50802
-0.67875,-0.0765071,2.411,2.50589
-0.670925,-0.0765071,2.411,2.50378
-0.663099,-0.0765071,2.411,2.50169
-0.659894,-0.0770466,2.428,2.51726
-0.652013,-0.0770466,2.428,2.5152
-0.644133,-0.0770466,2.428,2.51317
-0.636252,-0.0770466,2.428,2.51116
-0.628371,-0.0770466,2.428,2.50918
-0.620491,-0.0770466,2.428,2.50722
-0.61261,-0.0770466,2.428,2.50528
-0.604729,-0.0770466,2.428,2.50336
-0.596848,-0.0770466,2.428,2.50147
-0.588968,-0.0770466,2.428,2.4996
-0.581087,-0.0770466,2.428,2.49776
-0.573206,-0.0770466,2.428,2.49593
-0.565326,-0.0770466,2.428,2.49414
-0.557445,-0.0770466,2.428,2.49236
-0.549564,-0.0770466,2.428,2.49061
-0.541684,-0.0770466,2.428,2.48888
-0.533803,-0.0770466,2.428,2.48718
-0.525922,-0.0770466,2.428,2.4855
-0.518042,-0.0770466,2.428,2.48385
-0.510161,-0.0770466,2.428,2.48221
-0.50228,-0.0770466,2.428,2.48061
-0.4944,-0.0770466,2.428,2.47902
-0.486519,-0.0770466,2.428,2.47746
-0.478638,-0.0770466,2.428,2.47593
-0.470758,-0.0770466,2.428,2.47442
-0.462877,-0.0770466,2.428,2.47293
-0.454996,-0.0770466,2.428,2.47147
-0.447115,-0.0770466,2.428,2.47003
-0.44231,-0.077586,2.445,2.4859
-0.434374,-0.077586,2.445,2.4845
-0.426438,-0.077586,2.445,2.48312
-0.418503,-0.077586,2.445,2.48177
-0.410567,-0.077586,2.445,2.48045
-0.402631,-0.077586,2.445,2.47914
-0.394695,-0.077586,2.445,2.47787
-0.389606,-0.0781572,2.463,2.49485
-0.381612,-0.0781572,2.463,2.49361
-0.373618,-0.0781572,2.463,2.4924
-0.368296,-0.0787284,2.481,2.50942
-0.360243,-0.0787284,2.481,2.50825
-0.35219,-0.0787284,2.481,2.50711
-0.346634,-0.0792996,2.499,2.52417
-0.338523,-0.0792996,2.499,2.52307
-0.332792,-0.0798707,2.517,2.54016
-0.322301,-0.0792996,2.499,2.52095
-0.31419,-0.0792996,2.499,2.51992
-0.308283,-0.0798707,2.517,2.53707
-0.300114,-0.0798707,2.517,2.53609
-0.291944,-0.0798707,2.517,2.53513
-0.283775,-0.0798707,2.517,2.53421
-0.275605,-0.0798707,2.517,2.5333
-0.267435,-0.0798707,2.517,2.53243
-0.259266,-0.0798707,2.517,2.53158
-0.251096,-0.0798707,2.517,2.53075
-0.24119,-0.0792996,2.499,2.51186
-0.233078,-0.0792996,2.499,2.5111
-0.226588,-0.0798707,2.517,2.52844
-0.218418,-0.0798707,2.517,2.52772
-0.210249,-0.0798707,2.517,2.52703
-0.202079,-0.0798707,2.517,2.52636
-0.193909,-0.0798707,2.517,2.52572
-0.18574,-0.0798707,2.517,2.52511
-0.17757,-0.0798707,2.517,2.52452
-0.170679,-0.0804737,2.536,2.54301
-0.162448,-0.0804737,2.536,2.54247
-0.154217,-0.0804737,2.536,2.54196
-0.145986,-0.0804737,2.536,2.54147
-0.137755,-0.0804737,2.536,2.54101
-0.130494,-0.0810766,2.555,2.55961
-0.122201,-0.0810766,2.555,2.55921
-0.113908,-0.0810766,2.555,2.55882
-0.105615,-0.0810766,2.555,2.55847
-0.0973222,-0.0810766,2.555,2.55814
-0.0890293,-0.0810766,2.555,2.55784
-0.080136,-0.0804737,2.536,2.53854
-0.0719048,-0.0804737,2.536,2.5383
-0.0636736,-0.0804737,2.536,2.53808
-0.0554423,-0.0804737,2.536,2.53788
-0.0468574,-0.0798707,2.517,2.5187
-0.0386878,-0.0798707,2.517,2.51856
-0.0305183,-0.0798707,2.517,2.51845
-0.0223487,-0.0798707,2.517,2.51837
-0.0141792,-0.0798707,2.517,2.51831
-0.00596664,-0.0792996,2.499,2.50027
0.00214449,-0.0792996,2.499,2.50026
0.0102556,-0.0792996,2.499,2.50028
0.0182345,-0.0787284,2.481,2.48232
0.0260965,-0.0781572,2.463,2.46438
0.0340907,-0.0781572,2.463,2.46448
0.042085,-0.0781572,2.463,2.4646
0.0497133,-0.077586,2.445,2.44674
0.0576492,-0.077586,2.445,2.44691
0.0655851,-0.077586,2.445,2.44711
0.0735209,-0.077586,2.445,2.44734
0.0814568,-0.077586,2.445,2.44759
0.0893926,-0.077586,2.445,2.44786
0.0973285,-0.077586,2.445,2.44817
0.104532,-0.0770466,2.428,2.43147
0.112413,-0.0770466,2.428,2.43182
0.120294,-0.0770466,2.428,2.4322
0.128175,-0.0770466,2.428,2.4326
0.136055,-0.0770466,2.428,2.43303
0.144944,-0.077586,2.445,2.45052
0.15288,-0.077586,2.445,2.451
0.160815,-0.077586,2.445,2.45151
0.168751,-0.077586,2.445,2.45204
0.176687,-0.077586,2.445,2.4526
0.184623,-0.077586,2.445,2.45319
0.192559,-0.077586,2.445,2.4538
0.200495,-0.077586,2.445,2.45443
0.209965,-0.0781572,2.463,2.47317
0.217959,-0.0781572,2.463,2.47386
0.225954,-0.0781572,2.463,2.47458
0.233948,-0.0781572,2.463,2.47532
0.241942,-0.0781572,2.463,2.47609
0.251763,-0.0787284,2.481,2.49498
0.259816,-0.0787284,2.481,2.49581
0.267868,-0.0787284,2.481,2.49666
0.275921,-0.0787284,2.481,2.49754
0.283974,-0.0787284,2.481,2.49844
0.292027,-0.0787284,2.481,2.49937
0.300079,-0.0787284,2.481,2.50032
0.308132,-0.0787284,2.481,2.5013
0.316185,-0.0787284,2.481,2.50231
0.324237,-0.0787284,2.481,2.50334
0.33229,-0.0787284,2.481,2.50439
0.340343,-0.0787284,2.481,2.50547
0.348396,-0.0787284,2.481,2.50658
0.356448,-0.0787284,2.481,2.50771
0.364501,-0.0787284,2.481,2.50887
0.369851,-0.0781572,2.463,2.49184
0.377845,-0.0781572,2.463,2.49304
0.385839,-0.0781572,2.463,2.49426
0.393834,-0.0781572,2.463,2.49551
0.401828,-0.0781572,2.463,2.49679
0.406827,-0.077586,2.445,2.47983
0.414763,-0.077586,2.445,2.48114
0.422699,-0.077586,2.445,2.48248
0.430635,-0.077586,2.445,2.48385
0.438571,-0.077586,2.445,2.48523
0.443402,-0.0770466,2.428,2.46936
0.451283,-0.0770466,2.428,2.47078
0.459163,-0.0770466,2.428,2.47224
0.467044,-0.0770466,2.428,2.47371
0.474925,-0.0770466,2.428,2.47521
0.482805,-0.0770466,2.428,2.47674
0.490686,-0.0770466,2.428,2.47828
0.498567,-0.0770466,2.428,2.47986
0.506447,-0.0770466,2.428,2.48145
0.514328,-0.0770466,2.428,2.48307
0.522209,-0.0770466,2.428,2.48472
0.533801,-0.077586,2.445,2.50379
0.541737,-0.077586,2.445,2.5055
0.549673,-0.077586,2.445,2.50723
0.557609,-0.077586,2.445,2.50898
0.565544,-0.077586,2.445,2.51075
0.57348,-0.077586,2.445,2.51255
0.581416,-0.077586,2.445,2.51438
0.589352,-0.077586,2.445,2.51622
0.597288,-0.077586,2.445,2.51809
0.605224,-0.077586,2.445,2.51999
0.61316,-0.077586,2.445,2.52191
0.621095,-0.077586,2.445,2.52385
0.629031,-0.077586,2.445,2.52581
0.641657,-0.0781572,2.463,2.54641
0.649651,-0.0781572,2.463,2.54844
0.657645,-0.0781572,2.463,2.55049
0.665639,-0.0781572,2.463,2.55256
0.673634,-0.0781572,2.463,2.55465
0.681628,-0.0781572,2.463,2.55677
0.689622,-0.0781572,2.463,2.55892
0.697617,-0.0781572,2.463,2.56108
0.710768,-0.0787284,2.481,2.58201
0.71882,-0.0787284,2.481,2.58423
0.732147,-0.0792996,2.499,2.60525
0.740258,-0.0792996,2.499,2.60754
0.748369,-0.0792996,2.499,2.60986
0.761929,-0.0798707,2.517,2.63101
0.770098,-0.0798707,2.517,2.63339
0.778268,-0.0798707,2.517,2.63579
0.792374,-0.0804737,2.536,2.65812
0.800605,-0.0804737,2.536,2.66059
0.808836,-0.0804737,2.536,2.66308
0.823189,-0.0810766,2.555,2.68556
0.831482,-0.0810766,2.555,2.68811
0.839775,-0.0810766,2.555,2.69069
0.848068,-0.0810766,2.555,2.69329
0.856361,-0.0810766,2.555,2.69591
0.864654,-0.0810766,2.555,2.69856
0.866455,-0.0804737,2.536,2.68114
0.874686,-0.0804737,2.536,2.68381
0.876303,-0.0798707,2.517,2.66638
0.884472,-0.0798707,2.517,2.66907
0.892642,-0.0798707,2.517,2.67179
0.894369,-0.0792996,2.499,2.65541
0.89598,-0.0787284,2.481,2.639
0.904033,-0.0787284,2.481,2.64175
0.905468,-0.0781572,2.463,2.62533
0.906787,-0.077586,2.445,2.60889
0.914722,-0.077586,2.445,2.61166
0.922658,-0.077586,2.445,2.61445
0.924124,-0.0770466,2.428,2.59906
0.925479,-0.0765071,2.411,2.58366
0.933304,-0.0765071,2.411,2.58647
0.94113,-0.0765071,2.411,2.5893
0.948955,-0.0765071,2.411,2.59216
0.956781,-0.0765071,2.411,2.59503
0.964606,-0.0765071,2.411,2.59793
0.972432,-0.0765071,2.411,2.60085
0.980257,-0.0765071,2.411,2.60378
0.988083,-0.0765071,2.411,2.60674
1.00293,-0.0770466,2.428,2.62812
1.01081,-0.0770466,2.428,2.63113
1.02582,-0.077586,2.445,2.65261
1.03376,-0.077586,2.445,2.65569
1.04937,-0.0781572,2.463,2.67837
1.06509,-0.0787284,2.481,2.70111
1.07314,-0.0787284,2.481,2.70429
1.08904,-0.0792996,2.499,2.72714
1.11339,-0.0804737,2.536,2.77081
1.12162,-0.0804737,2.536,2.77413
1.13832,-0.0810766,2.555,2.79828
1.15514,-0.0816795,2.574,2.8225
1.18112,-0.0829171,2.613,2.86874
1.1896,-0.0829171,2.613,2.87225
1.20725,-0.0835517,2.633,2.89778
1.23519,-0.0848845,2.675,2.94763
1.24388,-0.0848845,2.675,2.95128
1.27223,-0.0862172,2.717,3.00135
1.28104,-0.0862172,2.717,3.0051
1.28986,-0.0862172,2.717,3.00887
1.31971,-0.0876135,2.761,3.06144
1.33926,-0.0883116,2.783,3.08974
1.35944,-0.0890414,2.806,3.11924
1.36854,-0.0890414,2.806,3.12322
1.40073,-0.0905329,2.853,3.1796
1.40999,-0.0905329,2.853,3.18369
1.41925,-0.0905329,2.853,3.1878
1.45254,-0.092056,2.901,3.24564
1.47456,-0.0928493,2.926,3.27787
1.48405,-0.0928493,2.926,3.28215
1.50631,-0.0936427,2.951,3.31454
1.5426,-0.0952927,3.003,3.37738
1.56631,-0.0961495,3.03,3.41225
1.57614,-0.0961495,3.03,3.41678
1.61424,-0.0978631,3.084,3.4823
1.639,-0.0987516,3.112,3.51861
1.6491,-0.0987516,3.112,3.52333
1.67466,-0.0996718,3.141,3.56094
1.70041,-0.100592,3.17,3.59867
1.7107,-0.100592,3.17,3.60354
1.73673,-0.101512,3.199,3.64145
1.76405,-0.102496,3.23,3.68175
1.77453,-0.102496,3.23,3.68678
1.78501,-0.102496,3.23,3.69184
1.7955,-0.102496,3.23,3.69692
1.80598,-0.102496,3.23,3.70202
1.81647,-0.102496,3.23,3.70715
1.80941,-0.101512,3.199,3.67667
1.8198,-0.101512,3.199,3.68179
1.83018,-0.101512,3.199,3.68693
1.82388,-0.100592,3.17,3.65863
1.83417,-0.100592,3.17,3.66377
1.84446,-0.100592,3.17,3.66893
1.83778,-0.0996718,3.141,3.6405
1.83091,-0.0987516,3.112,3.612
1.84101,-0.0987516,3.112,3.61713
1.85111,-0.0987516,3.112,3.62228
1.84447,-0.0978631,3.084,3.59482
1.85448,-0.0978631,3.084,3.59996
1.84816,-0.0970063,3.057,3.57357
1.84168,-0.0961495,3.03,3.5471
1.85151,-0.0961495,3.03,3.55222
1.84476,-0.0952927,3.003,3.52565
1.82239,-0.0936427,2.951,3.46962
1.83197,-0.0936427,2.951,3.47466
1.82595,-0.0928493,2.926,3.45024
1.81976,-0.092056,2.901,3.42576
1.82918,-0.092056,2.901,3.43077
1.82338,-0.0912945,2.877,3.40737
1.80215,-0.0897713,2.829,3.35545
1.81133,-0.0897713,2.829,3.36039
1.79091,-0.0883116,2.783,3.31063
1.77148,-0.0869154,2.739,3.2631
1.75242,-0.0855509,2.696,3.21663
1.76117,-0.0855509,2.696,3.22141
1.74235,-0.0842181,2.654,3.17594
1.72392,-0.0829171,2.613,3.13154
1.7324,-0.0829171,2.613,3.13621
1.72755,-0.0822824,2.593,3.11687
1.71053,-0.0810766,2.555,3.07579
1.71882,-0.0810766,2.555,3.08041
1.71427,-0.0804737,2.536,3.06211
1.7096,-0.0798707,2.517,3.04375
-2.02986,-0.0833549,2.926,3.56213
-1.98653,-0.0819591,2.877,3.49716
-1.97719,-0.0819591,2.877,3.49187
-1.96786,-0.0819591,2.877,3.48659
-1.94218,-0.0812754,2.853,3.45229
-1.93292,-0.0812754,2.853,3.44708
-1.89197,-0.0799364,2.806,3.3852
-1.88286,-0.0799364,2.806,3.38012
-1.87375,-0.0799364,2.806,3.37505
-1.84936,-0.0792812,2.783,3.34238
-1.84033,-0.0792812,2.783,3.33739
-1.8313,-0.0792812,2.783,3.33242
-1.82226,-0.0792812,2.783,3.32746
-1.81323,-0.0792812,2.783,3.32253
-1.8042,-0.0792812,2.783,3.31761
-1.79516,-0.0792812,2.783,3.3127
-1.78613,-0.0792812,2.783,3.30782
-1.79179,-0.0799364,2.806,3.33024
-1.79729,-0.0805916,2.829,3.35261
-1.78811,-0.0805916,2.829,3.3477
-1.79402,-0.0812754,2.853,3.37116
-1.78476,-0.0812754,2.853,3.36624
-1.80537,-0.0826428,2.901,3.41789
-1.79595,-0.0826428,2.901,3.41293
-1.78654,-0.0826428,2.901,3.40798
-1.79244,-0.0833549,2.926,3.43238
-1.78294,-0.0833549,2.926,3.42743
-1.78859,-0.0840671,2.951,3.45174
-1.77902,-0.0840671,2.951,3.44679
-1.76944,-0.0840671,2.951,3.44186
-1.75986,-0.0840671,2.951,3.43694
-1.75028,-0.0840671,2.951,3.43205
-1.75604,-0.0848078,2.977,3.45737
-1.74638,-0.0848078,2.977,3.45247
-1.73671,-0.0848078,2.977,3.44759
-1.72705,-0.0848078,2.977,3.44274
-1.70239,-0.0840671,2.951,3.40787
-1.69281,-0.0840671,2.951,3.4031
-1.68323,-0.0840671,2.951,3.39834
-1.67365,-0.0840671,2.951,3.39361
nan,nan,nan,NaN
nan,nan,nan,NaN
nan,nan,nan,NaN
nan,nan,nan,NaN
nan,nan,nan,NaN
nan,nan,nan,NaN
nan,nan,nan,NaN
nan,nan,nan,NaN
nan,nan,nan,NaN
nan,nan,nan,NaN
nan,nan,nan,NaN
nan,nan,nan,NaN
nan,nan,nan,NaN
nan,nan,nan,NaN
nan,nan,nan,NaN
nan,nan,nan,NaN
nan,nan,nan,NaN
nan,nan,nan,NaN
nan,nan,nan,NaN
nan,nan,nan,NaN
nan,nan,nan,NaN
nan,nan,nan,NaN
-1.26769,-0.0733273,2.574,2.87017
-1.25003,-0.072786,2.555,2.84533
-1.24174,-0.072786,2.555,2.8417
-1.22428,-0.0722448,2.536,2.81698
-1.21605,-0.0722448,2.536,2.81341
-1.20781,-0.0722448,2.536,2.80986
-1.1906,-0.0717035,2.517,2.78531
-1.17397,-0.0711907,2.499,2.76193
-1.15746,-0.0706779,2.481,2.73863
-1.14941,-0.0706779,2.481,2.73523
-1.13308,-0.0701652,2.463,2.71204
-1.11686,-0.0696524,2.445,2.68891
-1.10892,-0.0696524,2.445,2.68563
-1.09333,-0.0691681,2.428,2.66371
-1.07785,-0.0686838,2.411,2.64186
-1.07003,-0.0686838,2.411,2.63867
-1.05471,-0.0681995,2.394,2.61693
-1.03951,-0.0677152,2.377,2.59524
-1.03179,-0.0677152,2.377,2.59216
-1.02408,-0.0677152,2.377,2.5891
-1.00952,-0.0672594,2.361,2.56865
-1.00186,-0.0672594,2.361,2.56565
-0.994193,-0.0672594,2.361,2.56267
-0.986529,-0.0672594,2.361,2.5597
-0.972232,-0.0668036,2.345,2.53943
-0.964621,-0.0668036,2.345,2.53653
-0.95701,-0.0668036,2.345,2.53364
-0.955876,-0.0672594,2.361,2.54805
-0.948213,-0.0672594,2.361,2.54518
-0.94055,-0.0672594,2.361,2.54234
-0.932887,-0.0672594,2.361,2.53951
-0.925224,-0.0672594,2.361,2.53671
-0.91756,-0.0672594,2.361,2.53392
-0.909897,-0.0672594,2.361,2.53116
-0.908348,-0.0677152,2.377,2.54555
-0.900633,-0.0677152,2.377,2.5428
-0.892918,-0.0677152,2.377,2.54008
-0.891534,-0.0681995,2.394,2.55553
-0.883763,-0.0681995,2.394,2.55283
-0.875993,-0.0681995,2.394,2.55015
-0.868223,-0.0681995,2.394,2.54749
-0.860452,-0.0681995,2.394,2.54485
-0.852682,-0.0681995,2.394,2.54223
-0.844912,-0.0681995,2.394,2.53964
-0.837141,-0.0681995,2.394,2.53706
-0.829371,-0.0681995,2.394,2.53451
-0.821601,-0.0681995,2.394,2.53198
-0.81383,-0.0681995,2.394,2.52947
-0.80606,-0.0681995,2.394,2.52698
-0.79829,-0.0681995,2.394,2.52451
-0.790519,-0.0681995,2.394,2.52206
-0.782749,-0.0681995,2.394,2.51964
-0.774979,-0.0681995,2.394,2.51724
-0.767208,-0.0681995,2.394,2.51486
-0.764831,-0.0686838,2.411,2.53034
-0.757005,-0.0686838,2.411,2.52798
-0.74918,-0.0686838,2.411,2.52565
-0.741354,-0.0686838,2.411,2.52334
-0.733529,-0.0686838,2.411,2.52105
-0.725703,-0.0686838,2.411,2.51879
-0.717878,-0.0686838,2.411,2.51654
-0.710052,-0.0686838,2.411,2.51432
-0.702227,-0.0686838,2.411,2.51212
-0.694401,-0.0686838,2.411,2.50995
-0.686576,-0.0686838,2.411,2.50779
-0.67875,-0.0686838,2.411,2.50566
-0.670925,-0.0686838,2.411,2.50355
-0.663099,-0.0686838,2.411,2.50147
-0.659894,-0.0691681,2.428,2.51703
-0.652013,-0.0691681,2.428,2.51497
-0.644133,-0.0691681,2.428,2.51294
-0.636252,-0.0691681,2.428,2.51093
-0.628371,-0.0691681,2.428,2.50895
-0.620491,-0.0691681,2.428,2.50699
-0.61261,-0.0691681,2.428,2.50505
-0.604729,-0.0691681,2.428,2.50313
-0.596848,-0.0691681,2.428,2.50124
-0.588968,-0.0691681,2.428,2.49937
-0.581087,-0.0691681,2.428,2.49752
-0.573206,-0.0691681,2.428,2.4957
-0.565326,-0.0691681,2.428,2.49391
-0.557445,-0.0691681,2.428,2.49213
-0.549564,-0.0691681,2.428,2.49038
-0.541684,-0.0691681,2.428,2.48865
-0.533803,-0.0691681,2.428,2.48695
-0.525922,-0.0691681,2.428,2.48527
-0.518042,-0.0691681,2.428,2.48361
-0.510161,-0.0691681,2.428,2.48198
-0.50228,-0.0691681,2.428,2.48037
-0.4944,-0.0691681,2.428,2.47879
-0.486519,-0.0691681,2.428,2.47723
-0.478638,-0.0691681,2.428,2.47569
-0.470758,-0.0691681,2.428,2.47418
-0.462877,-0.0691681,2.428,2.4727
-0.454996,-0.0691681,2.428,2.47123
-0.447115,-0.0691681,2.428,2.46979
-0.44231,-0.0696524,2.445,2.48566
-0.434374,-0.0696524,2.445,2.48426
-0.426438,-0.0696524,2.445,2.48289
-0.418503,-0.0696524,2.445,2.48154
-0.410567,-0.0696524,2.445,2.48021
-0.405595,-0.0701652,2.463,2.49716
-0.397601,-0.0701652,2.463,2.49587
-0.389606,-0.0701652,2.463,2.49461
-0.384401,-0.0706779,2.481,2.5116
-0.376348,-0.0706779,2.481,2.51038
-0.368296,-0.0706779,2.481,2.50918
-0.362857,-0.0711907,2.499,2.52621
-0.354745,-0.0711907,2.499,2.52506
-0.346634,-0.0711907,2.499,2.52393
-0.340961,-0.0717035,2.517,2.541
-0.332792,-0.0717035,2.517,2.53992
-0.324622,-0.0717035,2.517,2.53886
-0.316453,-0.0717035,2.517,2.53783
-0.308283,-0.0717035,2.517,2.53682
-0.300114,-0.0717035,2.517,2.53584
-0.291944,-0.0717035,2.517,2.53489
-0.283775,-0.0717035,2.517,2.53396
-0.275605,-0.0717035,2.517,2.53306
-0.267435,-0.0717035,2.517,2.53218
-0.259266,-0.0717035,2.517,2.53133
-0.251096,-0.0717035,2.517,2.53051
-0.242927,-0.0717035,2.517,2.52971
-0.234757,-0.0717035,2.517,2.52894
-0.226588,-0.0717035,2.517,2.5282
-0.218418,-0.0717035,2.517,2.52748
-0.210249,-0.0717035,2.517,2.52678
-0.202079,-0.0717035,2.517,2.52612
-0.193909,-0.0717035,2.517,2.52548
-0.18574,-0.0717035,2.517,2.52486
-0.17757,-0.0717035,2.517,2.52427
-0.170679,-0.0722448,2.536,2.54276
-0.162448,-0.0722448,2.536,2.54222
-0.154217,-0.0722448,2.536,2.54171
-0.14708,-0.072786,2.555,2.56026
-0.138787,-0.072786,2.555,2.5598
-0.130494,-0.072786,2.555,2.55937
-0.122201,-0.072786,2.555,2.55896
-0.113908,-0.072786,2.555,2.55857
-0.105615,-0.072786,2.555,2.55822
-0.0973222,-0.072786,2.555,2.55789
-0.0890293,-0.072786,2.555,2.55759
-0.0807364,-0.072786,2.555,2.55731
-0.0719048,-0.0722448,2.536,2.53805
-0.0636736,-0.0722448,2.536,2.53783
-0.0554423,-0.0722448,2.536,2.53763
-0.0472111,-0.0722448,2.536,2.53747
-0.0389799,-0.0722448,2.536,2.53733
-0.0305183,-0.0717035,2.517,2.51821
-0.0223487,-0.0717035,2.517,2.51812
-0.0141792,-0.0717035,2.517,2.51806
-0.00596664,-0.0711907,2.499,2.50002
0.00214449,-0.0711907,2.499,2.50001
0.0102556,-0.0711907,2.499,2.50003
0.0182345,-0.0706779,2.481,2.48207
0.0260965,-0.0701652,2.463,2.46414
0.0340907,-0.0701652,2.463,2.46424
0.042085,-0.0701652,2.463,2.46436
0.0497133,-0.0696524,2.445,2.4465
0.0576492,-0.0696524,2.445,2.44667
0.0655851,-0.0696524,2.445,2.44687
0.0735209,-0.0696524,2.445,2.4471
0.0814568,-0.0696524,2.445,2.44735
0.0893926,-0.0696524,2.445,2.44763
0.0973285,-0.0696524,2.445,2.44793
0.104532,-0.0691681,2.428,2.43123
0.112413,-0.0691681,2.428,2.43159
0.120294,-0.0691681,2.428,2.43196
0.128175,-0.0691681,2.428,2.43236
0.136055,-0.0691681,2.428,2.43279
0.144944,-0.0696524,2.445,2.45028
0.15288,-0.0696524,2.445,2.45077
0.160815,-0.0696524,2.445,2.45127
0.168751,-0.0696524,2.445,2.45181
0.176687,-0.0696524,2.445,2.45237
0.184623,-0.0696524,2.445,2.45295
0.192559,-0.0696524,2.445,2.45356
0.200495,-0.0696524,2.445,2.4542
0.209965,-0.0701652,2.463,2.47293
0.217959,-0.0701652,2.463,2.47362
0.225954,-0.0701652,2.463,2.47434
0.233948,-0.0701652,2.463,2.47508
0.241942,-0.0701652,2.463,2.47585
0.251763,-0.0706779,2.481,2.49474
0.259816,-0.0706779,2.481,2.49557
0.267868,-0.0706779,2.481,2.49642
0.275921,-0.0706779,2.481,2.4973
0.283974,-0.0706779,2.481,2.4982
0.292027,-0.0706779,2.481,2.49913
0.300079,-0.0706779,2.481,2.50008
0.308132,-0.0706779,2.481,2.50106
0.316185,-0.0706779,2.481,2.50207
0.324237,-0.0706779,2.481,2.5031
0.33229,-0.0706779,2.481,2.50415
0.340343,-0.0706779,2.481,2.50523
0.348396,-0.0706779,2.481,2.50634
0.356448,-0.0706779,2.481,2.50747
0.364501,-0.0706779,2.481,2.50863
0.369851,-0.0701652,2.463,2.4916
0.377845,-0.0701652,2.463,2.4928
0.385839,-0.0701652,2.463,2.49403
0.393834,-0.0701652,2.463,2.49528
0.401828,-0.0701652,2.463,2.49655
0.406827,-0.0696524,2.445,2.47959
0.414763,-0.0696524,2.445,2.48091
0.422699,-0.0696524,2.445,2.48225
0.430635,-0.0696524,2.445,2.48361
0.435521,-0.0691681,2.428,2.46772
