1.56512,0.548751,2.675,3.14744
1.57381,0.548751,2.675,3.15177
1.58249,0.548751,2.675,3.15611
1.59117,0.548751,2.675,3.16047
1.58729,0.544443,2.654,3.14001
1.59591,0.544443,2.654,3.14437
1.60452,0.544443,2.654,3.14875
1.60037,0.540135,2.633,3.1282
1.60892,0.540135,2.633,3.13258
1.61747,0.540135,2.633,3.13698
1.60131,0.531929,2.593,3.09367
1.59793,0.528032,2.574,3.07533
1.60629,0.528032,2.574,3.07968
1.60272,0.524134,2.555,3.06128
1.58705,0.516339,2.517,3.02004
1.59522,0.516339,2.517,3.02434
1.60339,0.516339,2.517,3.02866
1.58851,0.508954,2.481,2.98961
1.59657,0.508954,2.481,2.9939
1.59298,0.505261,2.463,2.97645
1.57822,0.498081,2.428,2.93838
1.5861,0.498081,2.428,2.94262
1.58282,0.494594,2.411,2.92624
1.57943,0.491106,2.394,2.90982
1.5872,0.491106,2.394,2.91404
1.58365,0.487619,2.377,2.89756
1.58065,0.484337,2.361,2.88225
1.58831,0.484337,2.361,2.88646
1.57434,0.477772,2.329,2.8515
1.57104,0.47449,2.313,2.83607
-1.70866,0.513253,2.463,3.04127
-1.70067,0.513253,2.463,3.03679
-1.69268,0.513253,2.463,3.03232
-1.68468,0.513253,2.463,3.02786
-1.67669,0.513253,2.463,3.02342
-1.6565,0.509502,2.445,2.99693
-1.64856,0.509502,2.445,2.99255
-1.64063,0.509502,2.445,2.98819
-1.63269,0.509502,2.445,2.98384
-1.62475,0.509502,2.445,2.9795
-1.61682,0.509502,2.445,2.97518
-1.60888,0.509502,2.445,2.97088
-1.60095,0.509502,2.445,2.96659
-1.59301,0.509502,2.445,2.96231
-1.58507,0.509502,2.445,2.95805
-1.57714,0.509502,2.445,2.95381
-1.5692,0.509502,2.445,2.94958
-1.56127,0.509502,2.445,2.94536
-1.55333,0.509502,2.445,2.94117
-1.55677,0.513253,2.463,2.9586
-1.54878,0.513253,2.463,2.95441
-1.54078,0.513253,2.463,2.95022
-1.53279,0.513253,2.463,2.94606
-1.5248,0.513253,2.463,2.9419
-1.5168,0.513253,2.463,2.93777
-1.51983,0.517004,2.481,2.95509
-1.51178,0.517004,2.481,2.95095
-1.50373,0.517004,2.481,2.94684
-1.49568,0.517004,2.481,2.94274
-1.48762,0.517004,2.481,2.93865
-1.47957,0.517004,2.481,2.93458
-1.47152,0.517004,2.481,2.93053
-1.45285,0.513253,2.463,2.90526
-1.44485,0.513253,2.463,2.90127
-1.43686,0.513253,2.463,2.8973
-1.41842,0.509502,2.445,2.8722
-1.41049,0.509502,2.445,2.86829
-1.3928,0.50596,2.428,2.84448
-1.38492,0.50596,2.428,2.84063
-1.37704,0.50596,2.428,2.8368
-1.36916,0.50596,2.428,2.83298
-1.36127,0.50596,2.428,2.82918
-1.36287,0.509502,2.445,2.84518
-1.35493,0.509502,2.445,2.84138
-1.35692,0.513253,2.463,2.8585
-1.35878,0.517004,2.481,2.87558
-1.36053,0.520755,2.499,2.89261
-1.35241,0.520755,2.499,2.88881
-1.35399,0.524506,2.517,2.9058
-1.35598,0.528465,2.536,2.92391
-1.34774,0.528465,2.536,2.9201
-1.35959,0.536384,2.574,2.96001
-1.3612,0.540343,2.593,2.978
-1.36322,0.544511,2.613,2.9971
-1.35474,0.544511,2.613,2.99326
-1.34626,0.544511,2.613,2.98943
-1.33778,0.544511,2.613,2.98562
-1.3293,0.544511,2.613,2.98183
-1.32082,0.544511,2.613,2.97806
-1.31234,0.544511,2.613,2.9743
-1.30385,0.544511,2.613,2.97057
-1.28546,0.540343,2.593,2.94415
-1.27704,0.540343,2.593,2.94049
-1.26863,0.540343,2.593,2.93684
-1.25098,0.536384,2.574,2.91172
-1.23345,0.532425,2.555,2.88668
-1.22516,0.532425,2.555,2.88314
-1.20781,0.528465,2.536,2.85821
-1.19958,0.528465,2.536,2.85475
-1.19135,0.528465,2.536,2.8513
-1.17426,0.524506,2.517,2.82653
-1.16609,0.524506,2.517,2.82315
-1.15792,0.524506,2.517,2.81978
-1.14975,0.524506,2.517,2.81644
-1.14158,0.524506,2.517,2.81311
-1.1253,0.520755,2.499,2.78971
-1.11719,0.520755,2.499,2.78645
-1.10908,0.520755,2.499,2.78321
-1.10097,0.520755,2.499,2.77999
-1.09286,0.520755,2.499,2.77678
-1.07693,0.517004,2.481,2.75362
-1.06888,0.517004,2.481,2.75048
-1.06083,0.517004,2.481,2.74736
-1.04514,0.513253,2.463,2.72436
-1.03714,0.513253,2.463,2.7213
-1.02915,0.513253,2.463,2.71826
-1.02116,0.513253,2.463,2.71525
-1.01316,0.513253,2.463,2.71225
-1.00517,0.513253,2.463,2.70927
-0.997172,0.513253,2.463,2.70632
-0.989178,0.513253,2.463,2.70338
-0.981184,0.513253,2.463,2.70047
-0.973189,0.513253,2.463,2.69757
-0.965195,0.513253,2.463,2.6947
-0.957201,0.513253,2.463,2.69185
-0.949206,0.513253,2.463,2.68901
-0.941212,0.513253,2.463,2.6862
-0.933218,0.513253,2.463,2.68341
-0.925224,0.513253,2.463,2.68064
-0.917229,0.513253,2.463,2.67789
-0.909235,0.513253,2.463,2.67516
-0.901241,0.513253,2.463,2.67246
-0.893246,0.513253,2.463,2.66977
-0.885252,0.513253,2.463,2.66711
-0.877258,0.513253,2.463,2.66447
-0.875616,0.517004,2.481,2.6813
-0.867564,0.517004,2.481,2.67868
-0.859511,0.517004,2.481,2.67608
-0.851458,0.517004,2.481,2.67351
-0.843405,0.517004,2.481,2.67095
-0.841413,0.520755,2.499,2.68778
-0.833302,0.520755,2.499,2.68525
-0.831135,0.524506,2.517,2.70207
-0.822965,0.524506,2.517,2.69957
-0.814796,0.524506,2.517,2.69709
-0.806626,0.524506,2.517,2.69463
-0.798457,0.524506,2.517,2.6922
-0.790287,0.524506,2.517,2.68979
-0.782118,0.524506,2.517,2.6874
-0.773948,0.524506,2.517,2.68503
-0.760302,0.520755,2.499,2.6635
-0.752191,0.520755,2.499,2.6612
-0.74408,0.520755,2.499,2.65892
-0.735969,0.520755,2.499,2.65666
-0.727858,0.520755,2.499,2.65442
-0.719746,0.520755,2.499,2.65221
-0.711635,0.520755,2.499,2.65002
-0.703524,0.520755,2.499,2.64785
-0.695413,0.520755,2.499,2.64571
-0.687302,0.520755,2.499,2.64359
-0.679191,0.520755,2.499,2.64149
-0.67108,0.520755,2.499,2.63942
-0.662968,0.520755,2.499,2.63737
-0.654857,0.520755,2.499,2.63534
-0.646746,0.520755,2.499,2.63334
-0.638635,0.520755,2.499,2.63136
-0.630524,0.520755,2.499,2.6294
-0.622413,0.520755,2.499,2.62747
-0.618726,0.524506,2.517,2.64447
-0.610557,0.524506,2.517,2.64257
-0.602387,0.524506,2.517,2.64069
-0.594218,0.524506,2.517,2.63884
-0.586048,0.524506,2.517,2.63702
-0.577879,0.524506,2.517,2.63521
-0.569709,0.524506,2.517,2.63343
-0.561539,0.524506,2.517,2.63168
-0.55337,0.524506,2.517,2.62995
-0.5452,0.524506,2.517,2.62824
-0.537031,0.524506,2.517,2.62656
-0.528861,0.524506,2.517,2.6249
-0.520692,0.524506,2.517,2.62326
-0.512522,0.524506,2.517,2.62165
-0.504353,0.524506,2.517,2.62007
-0.496183,0.524506,2.517,2.61851
-0.488013,0.524506,2.517,2.61697
-0.479844,0.524506,2.517,2.61546
-0.471674,0.524506,2.517,2.61398
-0.463505,0.524506,2.517,2.61251
-0.458772,0.528465,2.536,2.63079
-0.450541,0.528465,2.536,2.62936
-0.44231,0.528465,2.536,2.62797
-0.434079,0.528465,2.536,2.62659
-0.425848,0.528465,2.536,2.62525
-0.417616,0.528465,2.536,2.62392
-0.409385,0.528465,2.536,2.62263
-0.401154,0.528465,2.536,2.62135
-0.392923,0.528465,2.536,2.62011
-0.384691,0.528465,2.536,2.61889
-0.37646,0.528465,2.536,2.61769
-0.368229,0.528465,2.536,2.61652
-0.362695,0.532425,2.555,2.63497
-0.354402,0.532425,2.555,2.63384
-0.346109,0.532425,2.555,2.63273
-0.337816,0.532425,2.555,2.63166
-0.329523,0.532425,2.555,2.63061
-0.318842,0.528465,2.536,2.61003
-0.31061,0.528465,2.536,2.60903
-0.302379,0.528465,2.536,2.60807
-0.294148,0.528465,2.536,2.60712
-0.285917,0.528465,2.536,2.60621
-0.277685,0.528465,2.536,2.60532
-0.269454,0.528465,2.536,2.60445
-0.261223,0.528465,2.536,2.60361
-0.252992,0.528465,2.536,2.6028
-0.244761,0.528465,2.536,2.60201
-0.234757,0.524506,2.517,2.58176
-0.226588,0.524506,2.517,2.58103
-0.218418,0.524506,2.517,2.58033
-0.208745,0.520755,2.499,2.5612
-0.200634,0.520755,2.499,2.56055
-0.192523,0.520755,2.499,2.55993
-0.184412,0.520755,2.499,2.55933
-0.1763,0.520755,2.499,2.55876
-0.168189,0.520755,2.499,2.55822
-0.160078,0.520755,2.499,2.5577
-0.150872,0.517004,2.481,2.53878
-0.14282,0.517004,2.481,2.53832
-0.134767,0.517004,2.481,2.53788
-0.126714,0.517004,2.481,2.53746
-0.118662,0.517004,2.481,2.53707
-0.110609,0.517004,2.481,2.53671
-0.102556,0.517004,2.481,2.53637
-0.0945035,0.517004,2.481,2.53606
-0.0864508,0.517004,2.481,2.53577
-0.0789668,0.520755,2.499,2.5539
-0.0708557,0.520755,2.499,2.55367
-0.0627446,0.520755,2.499,2.55345
-0.0546334,0.520755,2.499,2.55327
-0.0465223,0.520755,2.499,2.55311
-0.0384112,0.520755,2.499,2.55297
-0.0303,0.520755,2.499,2.55286
-0.0221889,0.520755,2.499,2.55278
-0.0140778,0.520755,2.499,2.55272
-0.00596664,0.520755,2.499,2.55269
0.00214449,0.520755,2.499,2.55268
0.0103295,0.524506,2.517,2.57109
0.0184991,0.524506,2.517,2.57114
0.0266686,0.524506,2.517,2.57121
0.0348382,0.524506,2.517,2.57131
0.0430077,0.524506,2.517,2.57143
0.0511773,0.524506,2.517,2.57158
0.0593468,0.524506,2.517,2.57175
0.0675164,0.524506,2.517,2.57196
0.075686,0.524506,2.517,2.57218
0.0838555,0.524506,2.517,2.57244
0.0920251,0.524506,2.517,2.57272
0.100195,0.524506,2.517,2.57302
0.108364,0.524506,2.517,2.57335
0.1157,0.520755,2.499,2.5553
0.123811,0.520755,2.499,2.55568
0.131923,0.520755,2.499,2.55609
0.140034,0.520755,2.499,2.55652
0.148145,0.520755,2.499,2.55698
0.156256,0.520755,2.499,2.55746
0.164367,0.520755,2.499,2.55797
0.172478,0.520755,2.499,2.5585
0.180589,0.520755,2.499,2.55906
0.187341,0.517004,2.481,2.54121
0.195394,0.517004,2.481,2.54182
0.203447,0.517004,2.481,2.54245
0.2115,0.517004,2.481,2.54311
0.219552,0.517004,2.481,2.54379
0.227605,0.517004,2.481,2.5445
0.235658,0.517004,2.481,2.54523
0.241942,0.513253,2.463,2.52752
0.249936,0.513253,2.463,2.52829
0.257931,0.513253,2.463,2.5291
0.265925,0.513253,2.463,2.52992
0.271917,0.509502,2.445,2.51228
0.279853,0.509502,2.445,2.51315
0.285788,0.50596,2.428,2.49657
0.293669,0.50596,2.428,2.49748
0.299438,0.502417,2.411,2.48093
0.307264,0.502417,2.411,2.48189
0.312868,0.498875,2.394,2.46536
0.320638,0.498875,2.394,2.46636
0.328408,0.498875,2.394,2.46738
0.333791,0.495332,2.377,2.4509
0.341506,0.495332,2.377,2.45196
0.349222,0.495332,2.377,2.45305
0.356937,0.495332,2.377,2.45416
0.364652,0.495332,2.377,2.45529
0.372367,0.495332,2.377,2.45645
0.380082,0.495332,2.377,2.45763
0.387797,0.495332,2.377,2.45884
0.395513,0.495332,2.377,2.46006
0.403228,0.495332,2.377,2.46132
0.410943,0.495332,2.377,2.46259
0.418658,0.495332,2.377,2.46389
0.426373,0.495332,2.377,2.46521
0.434088,0.495332,2.377,2.46656
0.441803,0.495332,2.377,2.46793
0.449519,0.495332,2.377,2.46932
0.457234,0.495332,2.377,2.47074
0.464949,0.495332,2.377,2.47218
0.472664,0.495332,2.377,2.47364
0.480379,0.495332,2.377,2.47513
0.488094,0.495332,2.377,2.47663
0.499355,0.498875,2.394,2.49589
0.507126,0.498875,2.394,2.49746
0.514896,0.498875,2.394,2.49905
0.522667,0.498875,2.394,2.50066
0.530437,0.498875,2.394,2.50229
0.538207,0.498875,2.394,2.50395
0.549854,0.502417,2.411,2.52343
0.55768,0.502417,2.411,2.52514
0.565506,0.502417,2.411,2.52688
0.569288,0.498875,2.394,2.51082
0.577059,0.498875,2.394,2.51259
0.584829,0.498875,2.394,2.51439
0.592599,0.498875,2.394,2.5162
0.60037,0.498875,2.394,2.51805
0.60814,0.498875,2.394,2.51991
0.61591,0.498875,2.394,2.5218
0.619252,0.495332,2.377,2.50578
0.626967,0.495332,2.377,2.5077
0.634682,0.495332,2.377,2.50964
0.638073,0.491998,2.361,2.4947
0.645737,0.491998,2.361,2.49667
0.6534,0.491998,2.361,2.49866
0.661063,0.491998,2.361,2.50068
0.668726,0.491998,2.361,2.50271
0.676389,0.491998,2.361,2.50477
0.684053,0.491998,2.361,2.50685
0.687028,0.488664,2.345,2.49195
0.69464,0.488664,2.345,2.49406
0.702251,0.488664,2.345,2.49619
0.709862,0.488664,2.345,2.49834
0.717473,0.488664,2.345,2.50052
0.720137,0.48533,2.329,2.48564
0.727697,0.48533,2.329,2.48784
0.735256,0.48533,2.329,2.49006
0.732928,0.47887,2.298,2.45913
0.735232,0.475535,2.282,2.44422
0.742639,0.475535,2.282,2.44646
0.745115,0.47241,2.267,2.43262
0.742516,0.466158,2.237,2.40267
0.749777,0.466158,2.237,2.40492
0.752299,0.463241,2.223,2.39213
0.749607,0.457198,2.194,2.36317
0.756728,0.457198,2.194,2.36544
0.758975,0.45428,2.18,2.35262
0.756563,0.448654,2.153,2.32574
0.75894,0.445945,2.14,2.31397
0.765886,0.445945,2.14,2.31626
0.767776,0.443027,2.126,2.3034
0.774677,0.443027,2.126,2.3057
0.781577,0.443027,2.126,2.30803
0.788478,0.443027,2.126,2.31038
0.795378,0.443027,2.126,2.31274
0.807562,0.445945,2.14,2.33037
0.814508,0.445945,2.14,2.33279
0.826444,0.448654,2.153,2.34941
0.838851,0.451571,2.167,2.36717
0.845885,0.451571,2.167,2.36967
0.858035,0.45428,2.18,2.38642
0.870667,0.457198,2.194,2.40431
0.88939,0.463241,2.223,2.43872
0.896606,0.463241,2.223,2.44136
0.909513,0.466158,2.237,2.45941
0.922921,0.469284,2.252,2.47861
0.93023,0.469284,2.252,2.48134
0.950029,0.475535,2.282,2.51718
0.964149,0.47887,2.298,2.53766
0.971608,0.47887,2.298,2.5405
0.979067,0.47887,2.298,2.54336
0.992965,0.481995,2.313,2.56286
1.00047,0.481995,2.313,2.56578
1.00798,0.481995,2.313,2.56872
1.02251,0.48533,2.329,2.58946
1.03715,0.488664,2.345,2.61027
1.04476,0.488664,2.345,2.6133
1.05955,0.491998,2.361,2.6342
1.06721,0.491998,2.361,2.6373
1.07488,0.491998,2.361,2.64041
1.08988,0.495332,2.377,2.66145
1.10544,0.498875,2.394,2.68368
1.11321,0.498875,2.394,2.68689
1.12098,0.498875,2.394,2.69011
1.13677,0.502417,2.411,2.71249
1.14459,0.502417,2.411,2.71578
1.15242,0.502417,2.411,2.71908
1.16842,0.50596,2.428,2.7416
1.18454,0.509502,2.445,2.76419
1.19248,0.509502,2.445,2.7676
1.20041,0.509502,2.445,2.77103
1.20835,0.509502,2.445,2.77448
1.22524,0.513253,2.463,2.79839
1.23323,0.513253,2.463,2.8019
1.24123,0.513253,2.463,2.80543
1.25835,0.517004,2.481,2.82951
1.2664,0.517004,2.481,2.8331
1.2837,0.520755,2.499,2.85729
1.29181,0.520755,2.499,2.86094
1.29993,0.520755,2.499,2.86461
1.30804,0.520755,2.499,2.8683
1.31615,0.520755,2.499,2.87201
1.32426,0.520755,2.499,2.87573
1.33237,0.520755,2.499,2.87948
1.35014,0.524506,2.517,2.90401
1.35831,0.524506,2.517,2.90782
1.36648,0.524506,2.517,2.91164
1.37465,0.524506,2.517,2.91548
1.39325,0.528465,2.536,2.94138
1.40148,0.528465,2.536,2.94529
1.42028,0.532425,2.555,2.97131
1.42857,0.532425,2.555,2.97528
1.43686,0.532425,2.555,2.97927
1.4559,0.536384,2.574,3.00547
1.47507,0.540343,2.593,3.03174
1.48348,0.540343,2.593,3.03584
1.50341,0.544511,2.613,3.06341
1.51189,0.544511,2.613,3.06758
1.532,0.548679,2.633,3.09528
1.54055,0.548679,2.633,3.09952
1.56145,0.553055,2.654,3.12853
1.57007,0.553055,2.654,3.13284
1.56619,0.548679,2.633,3.11234
1.57474,0.548679,2.633,3.11665
1.58328,0.548679,2.633,3.12098
1.59183,0.548679,2.633,3.12532
1.58822,0.544511,2.613,3.10591
1.5967,0.544511,2.613,3.11026
1.60518,0.544511,2.613,3.11462
1.60131,0.540343,2.593,3.09513
1.59793,0.536384,2.574,3.07678
1.60629,0.536384,2.574,3.08113
1.5908,0.528465,2.536,3.03994
1.58705,0.524506,2.517,3.02145
1.59522,0.524506,2.517,3.02575
1.59193,0.520755,2.499,3.00839
1.58851,0.517004,2.481,2.99099
1.59657,0.517004,2.481,2.99528
1.59298,0.513253,2.463,2.97781
1.58927,0.509502,2.445,2.9603
1.59721,0.509502,2.445,2.96457
1.58282,0.502417,2.411,2.92757
1.57943,0.498875,2.394,2.91114
1.5872,0.498875,2.394,2.91536
1.58365,0.495332,2.377,2.89886
1.58065,0.491998,2.361,2.88355
1.58831,0.491998,2.361,2.88775
1.58516,0.488664,2.345,2.87238
1.57104,0.481995,2.313,2.83733
-1.70866,0.521245,2.463,3.04263
-1.70067,0.521245,2.463,3.03815
-1.69268,0.521245,2.463,3.03368
-1.68468,0.521245,2.463,3.02923
-1.67669,0.521245,2.463,3.02479
-1.66869,0.521245,2.463,3.02036
-1.6607,0.521245,2.463,3.01595
-1.6527,0.521245,2.463,3.01156
-1.64471,0.521245,2.463,3.00718
-1.63672,0.521245,2.463,3.00282
-1.62872,0.521245,2.463,2.99847
-1.62073,0.521245,2.463,2.99413
-1.61273,0.521245,2.463,2.98981
-1.60474,0.521245,2.463,2.98551
-1.59674,0.521245,2.463,2.98122
-1.60036,0.525055,2.481,2.9987
-1.59231,0.525055,2.481,2.99441
-1.58425,0.525055,2.481,2.99014
-1.5762,0.525055,2.481,2.98588
-1.56815,0.525055,2.481,2.98163
-1.5601,0.525055,2.481,2.97741
-1.5633,0.528864,2.499,2.99477
-1.55519,0.528864,2.499,2.99054
-1.54708,0.528864,2.499,2.98633
-1.53897,0.528864,2.499,2.98214
-1.54189,0.532673,2.517,2.99941
-1.54529,0.536694,2.536,3.01783
-1.53706,0.536694,2.536,3.01362
-1.52883,0.536694,2.536,3.00943
-1.5206,0.536694,2.536,3.00526
-1.51237,0.536694,2.536,3.0011
-1.49287,0.532673,2.517,2.97451
-1.47408,0.528864,2.499,2.94917
-1.46597,0.528864,2.499,2.94513
-1.45786,0.528864,2.499,2.9411
-1.43931,0.525055,2.481,2.91593
-1.43125,0.525055,2.481,2.91196
-1.41288,0.521245,2.463,2.88692
-1.39461,0.517436,2.445,2.86194
-1.38668,0.517436,2.445,2.85808
-1.37874,0.517436,2.445,2.85424
-1.37081,0.517436,2.445,2.85042
-1.3729,0.521245,2.463,2.86757
-1.36491,0.521245,2.463,2.86375
-1.35692,0.521245,2.463,2.85994
-1.35878,0.525055,2.481,2.87703
-1.36053,0.528864,2.499,2.89409
-1.35241,0.528864,2.499,2.89028
-1.35399,0.532673,2.517,2.90729
-1.36614,0.540715,2.555,2.94732
-1.35784,0.540715,2.555,2.94349
-1.36962,0.548757,2.593,2.9834
-1.3612,0.548757,2.593,2.97954
-1.36322,0.55299,2.613,2.99866
-1.35474,0.55299,2.613,2.99481
-1.34626,0.55299,2.613,2.99098
-1.33778,0.55299,2.613,2.98718
-1.3293,0.55299,2.613,2.98339
-1.32082,0.55299,2.613,2.97962
-1.32238,0.557222,2.633,2.99865
-1.30385,0.55299,2.613,2.97214
-1.28546,0.548757,2.593,2.94571
-1.27704,0.548757,2.593,2.94204
-1.26863,0.548757,2.593,2.9384
-1.25098,0.544736,2.574,2.91327
-1.23345,0.540715,2.555,2.88822
-1.22516,0.540715,2.555,2.88468
-1.20781,0.536694,2.536,2.85975
-1.19958,0.536694,2.536,2.85628
-1.19135,0.536694,2.536,2.85283
-1.17426,0.532673,2.517,2.82806
-1.16609,0.532673,2.517,2.82468
-1.15792,0.532673,2.517,2.82131
-1.14975,0.532673,2.517,2.81797
-1.14158,0.532673,2.517,2.81465
-1.1253,0.528864,2.499,2.79124
-1.11719,0.528864,2.499,2.78798
-1.10908,0.528864,2.499,2.78474
-1.10097,0.528864,2.499,2.78152
-1.09286,0.528864,2.499,2.77832
-1.07693,0.525055,2.481,2.75515
-1.06888,0.525055,2.481,2.75201
-1.06083,0.525055,2.481,2.74889
-1.05278,0.525055,2.481,2.74579
-1.04472,0.525055,2.481,2.74272
-1.03667,0.525055,2.481,2.73966
-1.02116,0.521245,2.463,2.71677
-1.01316,0.521245,2.463,2.71377
-1.00517,0.521245,2.463,2.7108
-0.997172,0.521245,2.463,2.70784
-0.989178,0.521245,2.463,2.70491
-0.981184,0.521245,2.463,2.702
-0.973189,0.521245,2.463,2.6991
-0.965195,0.521245,2.463,2.69623
-0.957201,0.521245,2.463,2.69338
-0.949206,0.521245,2.463,2.69055
-0.941212,0.521245,2.463,2.68774
-0.933218,0.521245,2.463,2.68495
-0.925224,0.521245,2.463,2.68218
-0.917229,0.521245,2.463,2.67944
-0.909235,0.521245,2.463,2.67671
-0.901241,0.521245,2.463,2.674
-0.893246,0.521245,2.463,2.67132
-0.885252,0.521245,2.463,2.66866
-0.883669,0.525055,2.481,2.6855
-0.875616,0.525055,2.481,2.68286
-0.867564,0.525055,2.481,2.68024
-0.859511,0.525055,2.481,2.67765
-0.851458,0.525055,2.481,2.67507
-0.843405,0.525055,2.481,2.67252
-0.841413,0.528864,2.499,2.68936
-0.833302,0.528864,2.499,2.68684
-0.831135,0.532673,2.517,2.70367
-0.822965,0.532673,2.517,2.70117
-0.814796,0.532673,2.517,2.69869
-0.806626,0.532673,2.517,2.69623
-0.798457,0.532673,2.517,2.6938
-0.790287,0.532673,2.517,2.69139
-0.782118,0.532673,2.517,2.689
-0.768413,0.528864,2.499,2.66743
-0.760302,0.528864,2.499,2.6651
-0.752191,0.528864,2.499,2.6628
-0.74408,0.528864,2.499,2.66052
-0.735969,0.528864,2.499,2.65826
-0.727858,0.528864,2.499,2.65603
-0.719746,0.528864,2.499,2.65381
-0.711635,0.528864,2.499,2.65163
-0.703524,0.528864,2.499,2.64946
-0.695413,0.528864,2.499,2.64732
-0.687302,0.528864,2.499,2.6452
-0.679191,0.528864,2.499,2.6431
-0.67108,0.528864,2.499,2.64103
-0.662968,0.528864,2.499,2.63898
-0.654857,0.528864,2.499,2.63696
-0.646746,0.528864,2.499,2.63495
-0.638635,0.528864,2.499,2.63297
-0.630524,0.528864,2.499,2.63102
-0.622413,0.528864,2.499,2.62909
-0.618726,0.532673,2.517,2.6461
-0.610557,0.532673,2.517,2.6442
-0.602387,0.532673,2.517,2.64233
-0.594218,0.532673,2.517,2.64048
-0.586048,0.532673,2.517,2.63865
-0.577879,0.532673,2.517,2.63685
-0.569709,0.532673,2.517,2.63507
-0.561539,0.532673,2.517,2.63332
-0.55337,0.532673,2.517,2.63159
-0.5452,0.532673,2.517,2.62988
-0.537031,0.532673,2.517,2.6282
-0.528861,0.532673,2.517,2.62654
-0.520692,0.532673,2.517,2.62491
-0.512522,0.532673,2.517,2.6233
-0.504353,0.532673,2.517,2.62172
-0.496183,0.532673,2.517,2.62016
-0.488013,0.532673,2.517,2.61862
-0.479844,0.532673,2.517,2.61711
-0.471674,0.532673,2.517,2.61563
-0.463505,0.532673,2.517,2.61417
-0.455335,0.532673,2.517,2.61273
-0.447166,0.532673,2.517,2.61132
-0.438996,0.532673,2.517,2.60993
-0.434079,0.536694,2.536,2.62826
-0.425848,0.536694,2.536,2.62691
-0.417616,0.536694,2.536,2.62559
-0.409385,0.536694,2.536,2.6243
-0.401154,0.536694,2.536,2.62303
-0.392923,0.536694,2.536,2.62178
-0.384691,0.536694,2.536,2.62056
-0.37646,0.536694,2.536,2.61936
-0.368229,0.536694,2.536,2.61819
-0.359998,0.536694,2.536,2.61705
-0.354402,0.540715,2.555,2.63553
-0.346109,0.540715,2.555,2.63442
-0.337816,0.540715,2.555,2.63335
-0.329523,0.540715,2.555,2.6323
-0.32123,0.540715,2.555,2.63127
-0.31061,0.536694,2.536,2.61071
-0.302379,0.536694,2.536,2.60975
-0.294148,0.536694,2.536,2.6088
-0.285917,0.536694,2.536,2.60789
-0.277685,0.536694,2.536,2.607
-0.269454,0.536694,2.536,2.60614
-0.259266,0.532673,2.517,2.58578
-0.251096,0.532673,2.517,2.58497
-0.242927,0.532673,2.517,2.58419
-0.234757,0.532673,2.517,2.58344
-0.226588,0.532673,2.517,2.58271
-0.218418,0.532673,2.517,2.582
-0.208745,0.528864,2.499,2.56286
-0.200634,0.528864,2.499,2.56222
-0.192523,0.528864,2.499,2.56159
-0.184412,0.528864,2.499,2.561
-0.1763,0.528864,2.499,2.56043
-0.168189,0.528864,2.499,2.55988
-0.160078,0.528864,2.499,2.55936
-0.150872,0.525055,2.481,2.54043
-0.14282,0.525055,2.481,2.53997
-0.134767,0.525055,2.481,2.53953
-0.126714,0.525055,2.481,2.53911
-0.118662,0.525055,2.481,2.53873
-0.110609,0.525055,2.481,2.53836
-0.102556,0.525055,2.481,2.53802
-0.0945035,0.525055,2.481,2.53771
-0.0864508,0.525055,2.481,2.53742
-0.0789668,0.528864,2.499,2.55557
-0.0708557,0.528864,2.499,2.55533
-0.0627446,0.528864,2.499,2.55512
-0.0546334,0.528864,2.499,2.55493
-0.0465223,0.528864,2.499,2.55477
-0.0384112,0.528864,2.499,2.55464
-0.0303,0.528864,2.499,2.55453
-0.0221889,0.528864,2.499,2.55445
-0.0141792,0.532673,2.517,2.57279
-0.00600962,0.532673,2.517,2.57275
0.00215994,0.532673,2.517,2.57275
0.0103295,0.532673,2.517,2.57277
0.0186387,0.536694,2.536,2.59224
0.0268699,0.536694,2.536,2.59231
0.0351011,0.536694,2.536,2.59241
0.0433324,0.536694,2.536,2.59253
0.0515636,0.536694,2.536,2.59268
0.0597948,0.536694,2.536,2.59286
0.0680261,0.536694,2.536,2.59306
0.0762573,0.536694,2.536,2.59329
0.0838555,0.532673,2.517,2.57411
0.0920251,0.532673,2.517,2.57439
0.100195,0.532673,2.517,2.5747
0.108364,0.532673,2.517,2.57503
0.1157,0.528864,2.499,2.55697
0.123811,0.528864,2.499,2.55735
0.131923,0.528864,2.499,2.55775
0.140034,0.528864,2.499,2.55818
0.148145,0.528864,2.499,2.55864
0.156256,0.528864,2.499,2.55912
0.164367,0.528864,2.499,2.55963
0.172478,0.528864,2.499,2.56017
0.180589,0.528864,2.499,2.56072
0.187341,0.525055,2.481,2.54286
0.195394,0.525055,2.481,2.54347
0.203447,0.525055,2.481,2.5441
0.2115,0.525055,2.481,2.54475
0.219552,0.525055,2.481,2.54544
0.227605,0.525055,2.481,2.54614
0.235658,0.525055,2.481,2.54688
0.241942,0.521245,2.463,2.52915
0.249936,0.521245,2.463,2.52993
0.257931,0.521245,2.463,2.53073
0.265925,0.521245,2.463,2.53156
0.271917,0.517436,2.445,2.5139
0.279853,0.517436,2.445,2.51477
0.285788,0.513838,2.428,2.49818
0.293669,0.513838,2.428,2.49909
0.299438,0.51024,2.411,2.48252
0.307264,0.51024,2.411,2.48348
0.312868,0.506643,2.394,2.46694
0.320638,0.506643,2.394,2.46794
0.328408,0.506643,2.394,2.46896
0.333791,0.503045,2.377,2.45247
0.341506,0.503045,2.377,2.45353
0.349222,0.503045,2.377,2.45462
0.356937,0.503045,2.377,2.45573
0.364652,0.503045,2.377,2.45686
0.372367,0.503045,2.377,2.45802
0.380082,0.503045,2.377,2.4592
0.387797,0.503045,2.377,2.4604
0.395513,0.503045,2.377,2.46163
0.403228,0.503045,2.377,2.46288
0.410943,0.503045,2.377,2.46415
0.418658,0.503045,2.377,2.46545
0.426373,0.503045,2.377,2.46677
0.434088,0.503045,2.377,2.46812
0.441803,0.503045,2.377,2.46949
0.449519,0.503045,2.377,2.47088
0.457234,0.503045,2.377,2.4723
0.464949,0.503045,2.377,2.47373
0.472664,0.503045,2.377,2.4752
0.480379,0.503045,2.377,2.47668
0.488094,0.503045,2.377,2.47819
0.499355,0.506643,2.394,2.49745
0.507126,0.506643,2.394,2.49902
0.514896,0.506643,2.394,2.50061
0.522667,0.506643,2.394,2.50222
0.530437,0.506643,2.394,2.50385
0.538207,0.506643,2.394,2.50551
0.549854,0.51024,2.411,2.525
0.55768,0.51024,2.411,2.52671
0.565506,0.51024,2.411,2.52845
0.569288,0.506643,2.394,2.51237
0.577059,0.506643,2.394,2.51414
0.584829,0.506643,2.394,2.51594
0.592599,0.506643,2.394,2.51776
0.60037,0.506643,2.394,2.5196
0.60814,0.506643,2.394,2.52146
0.61591,0.506643,2.394,2.52334
0.619252,0.503045,2.377,2.50732
0.626967,0.503045,2.377,2.50924
0.634682,0.503045,2.377,2.51118
0.638073,0.499659,2.361,2.49622
0.645737,0.499659,2.361,2.49819
0.6534,0.499659,2.361,2.50018
0.656583,0.496273,2.345,2.48524
0.664194,0.496273,2.345,2.48726
0.671806,0.496273,2.345,2.4893
0.679417,0.496273,2.345,2.49137
0.687028,0.496273,2.345,2.49346
0.69464,0.496273,2.345,2.49556
0.697459,0.492887,2.329,2.48065
0.705019,0.492887,2.329,2.48279
0.712578,0.492887,2.329,2.48494
0.71519,0.489501,2.313,2.47004
0.722698,0.489501,2.313,2.47222
0.730205,0.489501,2.313,2.47443
0.732928,0.486326,2.298,2.46059
0.730399,0.479766,2.267,2.4296
0.737757,0.479766,2.267,2.43182
0.740185,0.476591,2.252,2.41796
0.742516,0.473417,2.237,2.40408
0.749777,0.473417,2.237,2.40634
0.752299,0.470454,2.223,2.39354
0.749607,0.464317,2.194,2.36456
0.751899,0.461354,2.18,2.35172
0.758975,0.461354,2.18,2.35399
0.756563,0.45564,2.153,2.3271
0.75894,0.452889,2.14,2.31532
0.765886,0.452889,2.14,2.3176
0.767776,0.449926,2.126,2.30473
0.774677,0.449926,2.126,2.30704
0.781577,0.449926,2.126,2.30937
0.788478,0.449926,2.126,2.31171
0.795378,0.449926,2.126,2.31407
0.807562,0.452889,2.14,2.33171
0.814508,0.452889,2.14,2.33412
0.826444,0.45564,2.153,2.35075
0.838851,0.458603,2.167,2.36852
0.850959,0.461354,2.18,2.38524
0.858035,0.461354,2.18,2.38778
0.870667,0.464317,2.194,2.40568
0.88939,0.470454,2.223,2.4401
0.896606,0.470454,2.223,2.44274
0.909513,0.473417,2.237,2.46079
0.922921,0.476591,2.252,2.48001
0.93023,0.476591,2.252,2.48273
0.943785,0.479766,2.267,2.50204
0.957436,0.48294,2.282,2.5214
0.971608,0.486326,2.298,2.54192
0.979067,0.486326,2.298,2.54478
0.992965,0.489501,2.313,2.56429
1.00047,0.489501,2.313,2.5672
1.00798,0.489501,2.313,2.57014
1.01549,0.489501,2.313,2.57309
1.03007,0.492887,2.329,2.59388
1.03763,0.492887,2.329,2.59689
1.05237,0.496273,2.345,2.61778
1.06721,0.499659,2.361,2.63874
1.07488,0.499659,2.361,2.64184
1.08254,0.499659,2.361,2.64497
1.09759,0.503045,2.377,2.66606
1.11321,0.506643,2.394,2.68834
1.12098,0.506643,2.394,2.69157
1.12875,0.506643,2.394,2.69481
1.14459,0.51024,2.411,2.71723
1.15242,0.51024,2.411,2.72054
1.16024,0.51024,2.411,2.72386
1.17631,0.513838,2.428,2.74644
1.18419,0.513838,2.428,2.74982
1.19207,0.513838,2.428,2.75322
1.20835,0.517436,2.445,2.77595
1.22524,0.521245,2.463,2.79987
1.23323,0.521245,2.463,2.80338
1.24123,0.521245,2.463,2.8069
1.25835,0.525055,2.481,2.83099
1.2664,0.525055,2.481,2.83458
1.27446,0.525055,2.481,2.83818
1.29181,0.528864,2.499,2.86243
1.29993,0.528864,2.499,2.8661
1.30804,0.528864,2.499,2.86978
1.31615,0.528864,2.499,2.87349
1.32426,0.528864,2.499,2.87721
1.33237,0.528864,2.499,2.88096
1.34048,0.528864,2.499,2.88472
1.35831,0.532673,2.517,2.9093
1.36648,0.532673,2.517,2.91312
1.37465,0.532673,2.517,2.91696
1.38282,0.532673,2.517,2.92082
1.39098,0.532673,2.517,2.9247
1.40972,0.536694,2.536,2.9507
1.42857,0.540715,2.555,2.97678
1.43686,0.540715,2.555,2.98077
1.4559,0.544736,2.574,3.00697
1.46426,0.544736,2.574,3.01102
1.47261,0.544736,2.574,3.0151
1.4919,0.548757,2.593,3.04147
1.50031,0.548757,2.593,3.04561
1.52037,0.55299,2.613,3.07329
1.52885,0.55299,2.613,3.07749
1.53733,0.55299,2.613,3.08171
1.55764,0.557222,2.633,3.10957
1.55429,0.55299,2.613,3.09021
1.56277,0.55299,2.613,3.09448
1.57125,0.55299,2.613,3.09878
1.56764,0.548757,2.593,3.07933
1.57606,0.548757,2.593,3.08363
1.5967,0.55299,2.613,3.11175
1.60518,0.55299,2.613,3.11611
1.60131,0.548757,2.593,3.09661
1.59793,0.544736,2.574,3.07825
1.60629,0.544736,2.574,3.08259
1.5908,0.536694,2.536,3.04138
1.58705,0.532673,2.517,3.02287
1.59522,0.532673,2.517,3.02717
1.59193,0.528864,2.499,3.00981
1.58851,0.525055,2.481,2.99239
1.59657,0.525055,2.481,2.99668
1.59298,0.521245,2.463,2.9792
1.58927,0.517436,2.445,2.96168
1.59721,0.517436,2.445,2.96595
1.58282,0.51024,2.411,2.92892
1.57943,0.506643,2.394,2.91248
1.5872,0.506643,2.394,2.9167
1.58365,0.503045,2.377,2.90019
1.58065,0.499659,2.361,2.88486
1.58831,0.499659,2.361,2.88907
1.58516,0.496273,2.345,2.87368
1.57104,0.489501,2.313,2.83862
-1.72115,0.533105,2.481,3.06626
-1.7131,0.533105,2.481,3.06174
-1.69268,0.529237,2.463,3.03506
-1.68468,0.529237,2.463,3.03061
-1.67669,0.529237,2.463,3.02618
-1.66869,0.529237,2.463,3.02175
-1.6607,0.529237,2.463,3.01735
-1.6527,0.529237,2.463,3.01295
-1.65673,0.533105,2.481,3.03056
-1.64868,0.533105,2.481,3.02617
-1.64062,0.533105,2.481,3.02179
-1.63257,0.533105,2.481,3.01742
-1.62452,0.533105,2.481,3.01308
-1.62819,0.536973,2.499,3.03057
-1.62008,0.536973,2.499,3.02622
-1.61197,0.536973,2.499,3.02189
-1.60386,0.536973,2.499,3.01757
-1.59575,0.536973,2.499,3.01326
-1.58764,0.536973,2.499,3.00898
-1.5909,0.540841,2.517,3.02635
-1.58273,0.540841,2.517,3.02206
-1.57456,0.540841,2.517,3.01779
-1.5664,0.540841,2.517,3.01353
-1.56999,0.544923,2.536,3.03201
-1.56176,0.544923,2.536,3.02776
-1.56516,0.549006,2.555,3.04617
-1.56845,0.553088,2.574,3.06454
-1.56009,0.553088,2.574,3.06027
-1.55174,0.553088,2.574,3.05602
-1.54339,0.553088,2.574,3.05179
-1.5237,0.549006,2.555,3.02508
-1.51541,0.549006,2.555,3.02091
-1.50711,0.549006,2.555,3.01676
-1.49882,0.549006,2.555,3.01262
-1.47944,0.544923,2.536,2.98613
-1.46019,0.540841,2.517,2.95972
-1.45202,0.540841,2.517,2.9557
-1.4232,0.533105,2.481,2.90948
-1.41515,0.533105,2.481,2.90555
-1.4071,0.533105,2.481,2.90163
-1.38889,0.529237,2.463,2.87671
-1.3809,0.529237,2.463,2.87286
-1.3729,0.529237,2.463,2.86903
-1.37488,0.533105,2.481,2.88615
-1.36683,0.533105,2.481,2.88232
-1.36864,0.536973,2.499,2.8994
-1.37033,0.540841,2.517,2.91643
-1.36216,0.540841,2.517,2.91261
-1.36421,0.544923,2.536,2.93075
-1.36614,0.549006,2.555,2.94886
-1.35784,0.549006,2.555,2.94502
-1.36962,0.557171,2.593,2.98495
-1.3717,0.561469,2.613,3.0041
-1.37366,0.565766,2.633,3.0232
-1.36511,0.565766,2.633,3.01932
-1.34626,0.561469,2.613,2.99256
-1.33778,0.561469,2.613,2.98876
-1.3293,0.561469,2.613,2.98497
-1.32082,0.561469,2.613,2.9812
-1.32238,0.565766,2.633,3.00025
-1.30385,0.561469,2.613,2.97373
-1.27604,0.553088,2.574,2.92569
-1.26769,0.553088,2.574,2.92206
-1.25003,0.549006,2.555,2.8969
-1.24174,0.549006,2.555,2.89333
-1.22428,0.544923,2.536,2.86829
-1.21605,0.544923,2.536,2.86479
-1.20781,0.544923,2.536,2.8613
-1.1906,0.540841,2.517,2.83643
-1.18243,0.540841,2.517,2.83301
-1.17426,0.540841,2.517,2.82961
-1.16609,0.540841,2.517,2.82623
-1.15792,0.540841,2.517,2.82287
-1.14153,0.536973,2.499,2.79936
-1.13341,0.536973,2.499,2.79606
-1.1253,0.536973,2.499,2.79278
-1.11719,0.536973,2.499,2.78953
-1.10908,0.536973,2.499,2.78629
-1.10097,0.536973,2.499,2.78307
-1.09286,0.536973,2.499,2.77987
-1.07693,0.533105,2.481,2.75669
-1.06888,0.533105,2.481,2.75356
-1.06083,0.533105,2.481,2.75044
-1.05278,0.533105,2.481,2.74734
-1.04472,0.533105,2.481,2.74427
-1.03667,0.533105,2.481,2.74121
-1.02116,0.529237,2.463,2.71831
-1.01316,0.529237,2.463,2.71532
-1.00517,0.529237,2.463,2.71235
-0.997172,0.529237,2.463,2.70939
-0.989178,0.529237,2.463,2.70646
-0.981184,0.529237,2.463,2.70355
-0.973189,0.529237,2.463,2.70066
-0.965195,0.529237,2.463,2.69779
-0.957201,0.529237,2.463,2.69494
-0.949206,0.529237,2.463,2.69211
-0.941212,0.529237,2.463,2.6893
-0.933218,0.529237,2.463,2.68651
-0.925224,0.529237,2.463,2.68375
-0.917229,0.529237,2.463,2.681
-0.909235,0.529237,2.463,2.67828
-0.901241,0.529237,2.463,2.67557
-0.893246,0.529237,2.463,2.67289
-0.885252,0.529237,2.463,2.67023
-0.883669,0.533105,2.481,2.68709
-0.875616,0.533105,2.481,2.68445
-0.867564,0.533105,2.481,2.68183
-0.859511,0.533105,2.481,2.67924
-0.851458,0.533105,2.481,2.67667
-0.843405,0.533105,2.481,2.67412
-0.841413,0.536973,2.499,2.69097
-0.839304,0.540841,2.517,2.70781
-0.831135,0.540841,2.517,2.70529
-0.822965,0.540841,2.517,2.70279
-0.814796,0.540841,2.517,2.70031
-0.806626,0.540841,2.517,2.69786
-0.798457,0.540841,2.517,2.69543
-0.790287,0.540841,2.517,2.69302
-0.782118,0.540841,2.517,2.69063
-0.768413,0.536973,2.499,2.66904
-0.760302,0.536973,2.499,2.66672
-0.752191,0.536973,2.499,2.66442
-0.74408,0.536973,2.499,2.66214
-0.735969,0.536973,2.499,2.65989
-0.727858,0.536973,2.499,2.65765
-0.719746,0.536973,2.499,2.65544
-0.711635,0.536973,2.499,2.65326
-0.703524,0.536973,2.499,2.65109
-0.695413,0.536973,2.499,2.64895
-0.687302,0.536973,2.499,2.64683
-0.679191,0.536973,2.499,2.64474
-0.67108,0.536973,2.499,2.64267
-0.662968,0.536973,2.499,2.64062
-0.654857,0.536973,2.499,2.63859
-0.646746,0.536973,2.499,2.63659
-0.638635,0.536973,2.499,2.63461
-0.630524,0.536973,2.499,2.63266
-0.622413,0.536973,2.499,2.63073
-0.618726,0.540841,2.517,2.64776
-0.610557,0.540841,2.517,2.64586
-0.602387,0.540841,2.517,2.64399
-0.594218,0.540841,2.517,2.64214
-0.586048,0.540841,2.517,2.64031
-0.577879,0.540841,2.517,2.63851
-0.569709,0.540841,2.517,2.63673
-0.561539,0.540841,2.517,2.63498
-0.55337,0.540841,2.517,2.63325
-0.5452,0.540841,2.517,2.63155
-0.537031,0.540841,2.517,2.62987
-0.528861,0.540841,2.517,2.62821
-0.520692,0.540841,2.517,2.62658
-0.512522,0.540841,2.517,2.62497
-0.504353,0.540841,2.517,2.62339
-0.496183,0.540841,2.517,2.62183
-0.488013,0.540841,2.517,2.6203
-0.479844,0.540841,2.517,2.61879
-0.471674,0.540841,2.517,2.6173
-0.463505,0.540841,2.517,2.61584
-0.455335,0.540841,2.517,2.61441
-0.447166,0.540841,2.517,2.613
-0.438996,0.540841,2.517,2.61161
-0.430827,0.540841,2.517,2.61025
-0.422657,0.540841,2.517,2.60892
-0.414487,0.540841,2.517,2.6076
-0.409385,0.544923,2.536,2.62599
-0.401154,0.544923,2.536,2.62472
-0.392923,0.544923,2.536,2.62348
-0.384691,0.544923,2.536,2.62226
-0.37646,0.544923,2.536,2.62106
-0.368229,0.544923,2.536,2.61989
-0.359998,0.544923,2.536,2.61875
-0.351766,0.544923,2.536,2.61763
-0.343535,0.544923,2.536,2.61653
-0.335304,0.544923,2.536,2.61547
-0.327073,0.544923,2.536,2.61442
-0.318842,0.544923,2.536,2.61341
-0.312937,0.549006,2.555,2.63199
-0.302379,0.544923,2.536,2.61145
-0.294148,0.544923,2.536,2.61051
-0.285917,0.544923,2.536,2.60959
-0.277685,0.544923,2.536,2.60871
-0.269454,0.544923,2.536,2.60784
-0.259266,0.540841,2.517,2.58747
-0.251096,0.540841,2.517,2.58667
-0.242927,0.540841,2.517,2.58589
-0.234757,0.540841,2.517,2.58513
-0.226588,0.540841,2.517,2.5844
-0.218418,0.540841,2.517,2.5837
-0.208745,0.536973,2.499,2.56455
-0.200634,0.536973,2.499,2.5639
-0.192523,0.536973,2.499,2.56328
-0.184412,0.536973,2.499,2.56268
-0.1763,0.536973,2.499,2.56211
-0.168189,0.536973,2.499,2.56157
-0.160078,0.536973,2.499,2.56105
-0.151967,0.536973,2.499,2.56055
-0.143856,0.536973,2.499,2.56009
-0.135745,0.536973,2.499,2.55964
-0.127634,0.536973,2.499,2.55922
-0.119523,0.536973,2.499,2.55883
-0.111411,0.536973,2.499,2.55847
-0.1033,0.536973,2.499,2.55813
-0.0951891,0.536973,2.499,2.55781
-0.087078,0.536973,2.499,2.55752
-0.0789668,0.536973,2.499,2.55726
-0.0708557,0.536973,2.499,2.55702
-0.0631965,0.540841,2.517,2.57523
-0.055027,0.540841,2.517,2.57504
-0.0468574,0.540841,2.517,2.57488
-0.0386878,0.540841,2.517,2.57474
-0.0305183,0.540841,2.517,2.57463
-0.0223487,0.540841,2.517,2.57455
-0.0141792,0.540841,2.517,2.57449
-0.00605498,0.544923,2.536,2.59389
0.00217625,0.544923,2.536,2.59389
0.0104075,0.544923,2.536,2.59391
0.0186387,0.544923,2.536,2.59395
0.0268699,0.544923,2.536,2.59402
0.0351011,0.544923,2.536,2.59412
0.0433324,0.544923,2.536,2.59425
0.0515636,0.544923,2.536,2.5944
0.0597948,0.544923,2.536,2.59457
0.0680261,0.544923,2.536,2.59478
0.0762573,0.544923,2.536,2.59501
0.0844885,0.544923,2.536,2.59526
0.0920251,0.540841,2.517,2.5761
0.100195,0.540841,2.517,2.5764
0.108364,0.540841,2.517,2.57673
0.1157,0.536973,2.499,2.55866
0.123811,0.536973,2.499,2.55904
0.131923,0.536973,2.499,2.55944
0.140034,0.536973,2.499,2.55987
0.148145,0.536973,2.499,2.56033
0.156256,0.536973,2.499,2.56081
0.164367,0.536973,2.499,2.56132
0.171236,0.533105,2.481,2.5434
0.179289,0.533105,2.481,2.54396
0.187341,0.533105,2.481,2.54454
0.195394,0.533105,2.481,2.54514
0.203447,0.533105,2.481,2.54577
0.2115,0.533105,2.481,2.54643
0.217959,0.529237,2.463,2.52863
0.225954,0.529237,2.463,2.52933
0.233948,0.529237,2.463,2.53006
0.241942,0.529237,2.463,2.53081
0.249936,0.529237,2.463,2.53159
0.257931,0.529237,2.463,2.53239
0.263982,0.52537,2.445,2.5147
0.271917,0.52537,2.445,2.51555
0.279853,0.52537,2.445,2.51642
0.285788,0.521717,2.428,2.49981
0.293669,0.521717,2.428,2.50072
0.299438,0.518064,2.411,2.48414
0.307264,0.518064,2.411,2.4851
0.312868,0.514411,2.394,2.46855
0.320638,0.514411,2.394,2.46955
0.328408,0.514411,2.394,2.47057
0.333791,0.510758,2.377,2.45406
0.341506,0.510758,2.377,2.45512
0.349222,0.510758,2.377,2.45621
0.356937,0.510758,2.377,2.45732
0.364652,0.510758,2.377,2.45845
0.372367,0.510758,2.377,2.45961
0.380082,0.510758,2.377,2.46079
0.387797,0.510758,2.377,2.46199
0.395513,0.510758,2.377,2.46322
0.403228,0.510758,2.377,2.46447
0.410943,0.510758,2.377,2.46574
0.418658,0.510758,2.377,2.46704
0.426373,0.510758,2.377,2.46836
0.434088,0.510758,2.377,2.4697
0.441803,0.510758,2.377,2.47107
0.449519,0.510758,2.377,2.47246
0.457234,0.510758,2.377,2.47388
0.464949,0.510758,2.377,2.47531
0.472664,0.510758,2.377,2.47677
0.480379,0.510758,2.377,2.47826
0.488094,0.510758,2.377,2.47977
0.499355,0.514411,2.394,2.49904
0.507126,0.514411,2.394,2.50061
0.514896,0.514411,2.394,2.50219
0.522667,0.514411,2.394,2.5038
0.534203,0.518064,2.411,2.52323
0.542029,0.518064,2.411,2.5249
0.549854,0.518064,2.411,2.52659
0.55768,0.518064,2.411,2.5283
0.565506,0.518064,2.411,2.53004
0.573331,0.518064,2.411,2.5318
0.581156,0.518064,2.411,2.53359
0.584829,0.514411,2.394,2.51751
0.592599,0.514411,2.394,2.51933
0.60037,0.514411,2.394,2.52117
0.60814,0.514411,2.394,2.52303
0.61591,0.514411,2.394,2.52492
0.619252,0.510758,2.377,2.50888
0.626967,0.510758,2.377,2.51079
0.634682,0.510758,2.377,2.51273
0.638073,0.50732,2.361,2.49777
0.645737,0.50732,2.361,2.49973
0.6534,0.50732,2.361,2.50172
0.656583,0.503882,2.345,2.48677
0.664194,0.503882,2.345,2.48879
0.671806,0.503882,2.345,2.49083
0.679417,0.503882,2.345,2.4929
0.682341,0.500444,2.329,2.47796
0.6899,0.500444,2.329,2.48005
0.692668,0.497006,2.313,2.46511
0.700175,0.497006,2.313,2.46723
0.707683,0.497006,2.313,2.46937
0.710552,0.493783,2.298,2.45551
0.718011,0.493783,2.298,2.45767
0.72547,0.493783,2.298,2.45986
0.727825,0.490345,2.282,2.44493
0.725566,0.483899,2.252,2.41498
0.732876,0.483899,2.252,2.41718
0.735255,0.480676,2.237,2.40329
0.737869,0.477667,2.223,2.39047
0.745084,0.477667,2.223,2.39271
0.747562,0.474659,2.209,2.37988
0.749607,0.471436,2.194,2.36597
0.751899,0.468428,2.18,2.35312
0.758975,0.468428,2.18,2.35539
0.761482,0.465634,2.167,2.34362
0.75894,0.459833,2.14,2.31669
0.765886,0.459833,2.14,2.31897
0.772832,0.459833,2.14,2.32127
0.779778,0.459833,2.14,2.3236
0.786724,0.459833,2.14,2.32594
0.79367,0.459833,2.14,2.3283
0.800616,0.459833,2.14,2.33067
0.807562,0.459833,2.14,2.33307
0.814508,0.459833,2.14,2.33548
0.826444,0.462626,2.153,2.35211
0.838851,0.465634,2.167,2.36989
0.850959,0.468428,2.18,2.38662
0.858035,0.468428,2.18,2.38915
0.870667,0.471436,2.194,2.40706
0.88939,0.477667,2.223,2.4415
0.896606,0.477667,2.223,2.44414
0.909513,0.480676,2.237,2.4622
0.922921,0.483899,2.252,2.48142
0.93023,0.483899,2.252,2.48415
0.943785,0.487122,2.267,2.50346
0.951143,0.487122,2.267,2.50624
0.964843,0.490345,2.282,2.52565
0.97225,0.490345,2.282,2.52848
0.986525,0.493783,2.298,2.54909
1.00047,0.497006,2.313,2.56864
1.00798,0.497006,2.313,2.57158
1.01549,0.497006,2.313,2.57453
1.03007,0.500444,2.329,2.59533
1.03763,0.500444,2.329,2.59834
1.05237,0.503882,2.345,2.61924
1.06721,0.50732,2.361,2.6402
1.07488,0.50732,2.361,2.6433
1.08254,0.50732,2.361,2.64643
1.09759,0.510758,2.377,2.66753
1.11321,0.514411,2.394,2.68981
1.12098,0.514411,2.394,2.69304
1.12875,0.514411,2.394,2.69628
1.14459,0.518064,2.411,2.71871
1.15242,0.518064,2.411,2.72202
1.16024,0.518064,2.411,2.72534
1.17631,0.521717,2.428,2.74792
1.18419,0.521717,2.428,2.7513
1.19207,0.521717,2.428,2.7547
1.20835,0.52537,2.445,2.77744
1.22524,0.529237,2.463,2.80137
1.23323,0.529237,2.463,2.80488
1.24123,0.529237,2.463,2.8084
1.25835,0.533105,2.481,2.83249
1.2664,0.533105,2.481,2.83608
1.27446,0.533105,2.481,2.83968
1.29181,0.536973,2.499,2.86394
1.29993,0.536973,2.499,2.8676
1.30804,0.536973,2.499,2.87129
1.31615,0.536973,2.499,2.87499
1.32426,0.536973,2.499,2.87872
1.33237,0.536973,2.499,2.88246
1.34048,0.536973,2.499,2.88621
1.35831,0.540841,2.517,2.91081
1.36648,0.540841,2.517,2.91463
1.37465,0.540841,2.517,2.91847
1.38282,0.540841,2.517,2.92232
1.39098,0.540841,2.517,2.9262
1.40972,0.544923,2.536,2.95221
1.42857,0.549006,2.555,2.9783
1.43686,0.549006,2.555,2.98228
1.4559,0.553088,2.574,3.00849
1.46426,0.553088,2.574,3.01255
1.47261,0.553088,2.574,3.01662
1.4919,0.557171,2.593,3.043
1.50031,0.557171,2.593,3.04714
1.52037,0.561469,2.613,3.07482
1.52885,0.561469,2.613,3.07903
1.53733,0.561469,2.613,3.08325
1.55764,0.565766,2.633,3.11111
1.55429,0.561469,2.613,3.09174
1.56277,0.561469,2.613,3.09601
1.57125,0.561469,2.613,3.1003
1.56764,0.557171,2.593,3.08084
1.57606,0.557171,2.593,3.08513
1.58448,0.557171,2.593,3.08944
1.59289,0.557171,2.593,3.09377
1.58958,0.553088,2.574,3.07541
1.58614,0.549006,2.555,3.057
1.59443,0.549006,2.555,3.06131
1.5908,0.544923,2.536,3.04284
1.58705,0.540841,2.517,3.02432
1.59522,0.540841,2.517,3.02862
1.59193,0.536973,2.499,3.01124
1.58851,0.533105,2.481,2.99382
1.59657,0.533105,2.481,2.9981
1.59298,0.529237,2.463,2.98061
1.57822,0.521717,2.428,2.94247
1.5861,0.521717,2.428,2.94671
1.58282,0.518064,2.411,2.9303
1.57943,0.514411,2.394,2.91384
1.5872,0.514411,2.394,2.91806
1.58365,0.510758,2.377,2.90154
1.56994,0.503882,2.345,2.86664
1.57755,0.503882,2.345,2.87082
1.57434,0.500444,2.329,2.85539
1.57104,0.497006,2.313,2.83992
-1.72115,0.541155,2.481,3.06767
-1.7131,0.541155,2.481,3.06315
-1.69268,0.537229,2.463,3.03647
-1.68468,0.537229,2.463,3.03202
-1.67669,0.537229,2.463,3.02758
-1.66869,0.537229,2.463,3.02316
-1.6607,0.537229,2.463,3.01876
-1.6527,0.537229,2.463,3.01437
-1.65673,0.541155,2.481,3.03199
-1.64868,0.541155,2.481,3.0276
-1.64062,0.541155,2.481,3.02322
-1.63257,0.541155,2.481,3.01886
-1.62452,0.541155,2.481,3.01451
-1.62819,0.545082,2.499,3.03202
-1.62008,0.545082,2.499,3.02767
-1.61197,0.545082,2.499,3.02334
-1.60386,0.545082,2.499,3.01902
-1.59575,0.545082,2.499,3.01472
-1.58764,0.545082,2.499,3.01043
-1.5909,0.549008,2.517,3.02782
-1.58273,0.549008,2.517,3.02353
-1.57456,0.549008,2.517,3.01926
-1.5664,0.549008,2.517,3.01501
-1.56999,0.553152,2.536,3.0335
-1.56176,0.553152,2.536,3.02925
-1.56516,0.557296,2.555,3.04768
-1.56845,0.561441,2.574,3.06606
-1.56009,0.561441,2.574,3.06179
-1.55174,0.561441,2.574,3.05755
-1.54339,0.561441,2.574,3.05331
-1.5237,0.557296,2.555,3.02659
-1.51541,0.557296,2.555,3.02243
-1.50711,0.557296,2.555,3.01828
-1.49882,0.557296,2.555,3.01415
-1.47944,0.553152,2.536,2.98765
-1.46019,0.549008,2.517,2.96123
-1.45202,0.549008,2.517,2.95721
-1.4232,0.541155,2.481,2.91096
-1.41515,0.541155,2.481,2.90704
-1.4071,0.541155,2.481,2.90312
-1.38889,0.537229,2.463,2.8782
-1.3809,0.537229,2.463,2.87435
-1.3729,0.537229,2.463,2.87051
-1.37488,0.541155,2.481,2.88765
-1.36683,0.541155,2.481,2.88382
-1.36864,0.545082,2.499,2.90091
-1.37033,0.549008,2.517,2.91796
-1.36216,0.549008,2.517,2.91413
-1.36421,0.553152,2.536,2.93229
-1.36614,0.557296,2.555,2.95041
-1.35784,0.557296,2.555,2.94658
-1.36962,0.565585,2.593,2.98654
-1.3717,0.569947,2.613,3.00569
-1.37366,0.57431,2.633,3.02481
-1.36511,0.57431,2.633,3.02094
-1.34626,0.569947,2.613,2.99417
-1.33778,0.569947,2.613,2.99036
-1.3293,0.569947,2.613,2.98658
-1.32082,0.569947,2.613,2.98281
-1.31234,0.569947,2.613,2.97907
-1.29387,0.565585,2.593,2.95257
-1.27604,0.561441,2.574,2.92728
-1.25833,0.557296,2.555,2.90207
-1.25003,0.557296,2.555,2.89848
-1.23251,0.553152,2.536,2.87339
-1.2151,0.549008,2.517,2.84836
-1.20693,0.549008,2.517,2.84489
-1.19876,0.549008,2.517,2.84143
-1.1906,0.549008,2.517,2.838
-1.18243,0.549008,2.517,2.83458
-1.16586,0.545082,2.499,2.81093
-1.15775,0.545082,2.499,2.80758
-1.14964,0.545082,2.499,2.80424
-1.14153,0.545082,2.499,2.80093
-1.13341,0.545082,2.499,2.79763
-1.1253,0.545082,2.499,2.79436
-1.11719,0.545082,2.499,2.7911
-1.10908,0.545082,2.499,2.78786
-1.10097,0.545082,2.499,2.78465
-1.09286,0.545082,2.499,2.78145
-1.07693,0.541155,2.481,2.75826
-1.06888,0.541155,2.481,2.75513
-1.06083,0.541155,2.481,2.75201
-1.05278,0.541155,2.481,2.74892
-1.04472,0.541155,2.481,2.74584
-1.03667,0.541155,2.481,2.74279
-1.02862,0.541155,2.481,2.73976
-1.01316,0.537229,2.463,2.71689
-1.00517,0.537229,2.463,2.71392
-0.997172,0.537229,2.463,2.71097
-0.989178,0.537229,2.463,2.70804
-0.981184,0.537229,2.463,2.70513
-0.973189,0.537229,2.463,2.70224
-0.965195,0.537229,2.463,2.69937
-0.957201,0.537229,2.463,2.69652
-0.949206,0.537229,2.463,2.69369
-0.941212,0.537229,2.463,2.69089
-0.933218,0.537229,2.463,2.6881
-0.925224,0.537229,2.463,2.68533
-0.917229,0.537229,2.463,2.68259
-0.909235,0.537229,2.463,2.67987
-0.901241,0.537229,2.463,2.67717
-0.893246,0.537229,2.463,2.67449
-0.885252,0.537229,2.463,2.67183
-0.883669,0.541155,2.481,2.6887
-0.875616,0.541155,2.481,2.68606
-0.867564,0.541155,2.481,2.68345
-0.865747,0.545082,2.499,2.7003
-0.857636,0.545082,2.499,2.69771
-0.849525,0.545082,2.499,2.69515
-0.841413,0.545082,2.499,2.6926
-0.839304,0.549008,2.517,2.70945
-0.831135,0.549008,2.517,2.70693
-0.822965,0.549008,2.517,2.70444
-0.814796,0.549008,2.517,2.70196
-0.806626,0.549008,2.517,2.69951
-0.798457,0.549008,2.517,2.69708
-0.790287,0.549008,2.517,2.69467
-0.782118,0.549008,2.517,2.69229
-0.773948,0.549008,2.517,2.68992
-0.760302,0.545082,2.499,2.66837
-0.752191,0.545082,2.499,2.66607
-0.74408,0.545082,2.499,2.66379
-0.735969,0.545082,2.499,2.66153
-0.727858,0.545082,2.499,2.6593
-0.719746,0.545082,2.499,2.65709
-0.711635,0.545082,2.499,2.65491
-0.703524,0.545082,2.499,2.65275
-0.695413,0.545082,2.499,2.65061
-0.687302,0.545082,2.499,2.64849
-0.679191,0.545082,2.499,2.6464
-0.67108,0.545082,2.499,2.64433
-0.662968,0.545082,2.499,2.64228
-0.654857,0.545082,2.499,2.64026
-0.651405,0.549008,2.517,2.65726
-0.643235,0.549008,2.517,2.65527
-0.635065,0.549008,2.517,2.6533
-0.626896,0.549008,2.517,2.65136
-0.618726,0.549008,2.517,2.64944
-0.610557,0.549008,2.517,2.64754
-0.602387,0.549008,2.517,2.64567
-0.594218,0.549008,2.517,2.64382
-0.586048,0.549008,2.517,2.642
-0.577879,0.549008,2.517,2.6402
-0.569709,0.549008,2.517,2.63842
-0.561539,0.549008,2.517,2.63667
-0.55337,0.549008,2.517,2.63494
-0.5452,0.549008,2.517,2.63324
-0.537031,0.549008,2.517,2.63156
-0.528861,0.549008,2.517,2.6299
-0.520692,0.549008,2.517,2.62827
-0.512522,0.549008,2.517,2.62667
-0.504353,0.549008,2.517,2.62508
-0.496183,0.549008,2.517,2.62353
-0.488013,0.549008,2.517,2.62199
-0.479844,0.549008,2.517,2.62049
-0.471674,0.549008,2.517,2.619
-0.463505,0.549008,2.517,2.61754
-0.455335,0.549008,2.517,2.61611
-0.447166,0.549008,2.517,2.6147
-0.438996,0.549008,2.517,2.61332
-0.430827,0.549008,2.517,2.61196
-0.422657,0.549008,2.517,2.61062
-0.414487,0.549008,2.517,2.60931
-0.409385,0.553152,2.536,2.62771
-0.401154,0.553152,2.536,2.62644
-0.392923,0.553152,2.536,2.6252
-0.384691,0.553152,2.536,2.62398
-0.37646,0.553152,2.536,2.62278
-0.368229,0.553152,2.536,2.62162
-0.359998,0.553152,2.536,2.62047
-0.351766,0.553152,2.536,2.61935
-0.343535,0.553152,2.536,2.61826
-0.335304,0.553152,2.536,2.61719
-0.327073,0.553152,2.536,2.61615
-0.318842,0.553152,2.536,2.61514
-0.312937,0.557296,2.555,2.63373
-0.302379,0.553152,2.536,2.61318
-0.294148,0.553152,2.536,2.61224
-0.285917,0.553152,2.536,2.61133
-0.277685,0.553152,2.536,2.61044
-0.269454,0.553152,2.536,2.60957
-0.259266,0.549008,2.517,2.58919
-0.251096,0.549008,2.517,2.58839
-0.242927,0.549008,2.517,2.58761
-0.234757,0.549008,2.517,2.58685
-0.226588,0.549008,2.517,2.58612
-0.218418,0.549008,2.517,2.58542
-0.208745,0.545082,2.499,2.56626
-0.200634,0.545082,2.499,2.56561
-0.192523,0.545082,2.499,2.56499
-0.184412,0.545082,2.499,2.5644
-0.1763,0.545082,2.499,2.56382
-0.168189,0.545082,2.499,2.56328
-0.160078,0.545082,2.499,2.56276
-0.151967,0.545082,2.499,2.56227
-0.143856,0.545082,2.499,2.5618
-0.135745,0.545082,2.499,2.56136
-0.127634,0.545082,2.499,2.56094
-0.119523,0.545082,2.499,2.56055
-0.111411,0.545082,2.499,2.56018
-0.1033,0.545082,2.499,2.55984
