-0.852209,-0.376194,2.329,2.50839
-0.844649,-0.376194,2.329,2.50583
-0.842841,-0.378778,2.345,2.52049
-0.835229,-0.378778,2.345,2.51796
-0.827618,-0.378778,2.345,2.51544
-0.820007,-0.378778,2.345,2.51295
-0.812395,-0.378778,2.345,2.51048
-0.804784,-0.378778,2.345,2.50802
-0.797173,-0.378778,2.345,2.50559
-0.789562,-0.378778,2.345,2.50318
-0.787286,-0.381363,2.361,2.51785
-0.779622,-0.381363,2.361,2.51547
-0.771959,-0.381363,2.361,2.5131
-0.764296,-0.381363,2.361,2.51076
-0.756633,-0.381363,2.361,2.50844
-0.754045,-0.383947,2.377,2.52312
-0.74633,-0.383947,2.377,2.52082
-0.738615,-0.383947,2.377,2.51855
-0.736127,-0.386693,2.394,2.53429
-0.728357,-0.386693,2.394,2.53205
-0.720586,-0.386693,2.394,2.52982
-0.712816,-0.386693,2.394,2.52762
-0.705046,-0.386693,2.394,2.52544
-0.697275,-0.386693,2.394,2.52328
-0.689505,-0.386693,2.394,2.52115
-0.686576,-0.389439,2.411,2.53692
-0.67875,-0.389439,2.411,2.53481
-0.670925,-0.389439,2.411,2.53273
-0.663099,-0.389439,2.411,2.53067
-0.655274,-0.389439,2.411,2.52863
-0.647448,-0.389439,2.411,2.52661
-0.639623,-0.389439,2.411,2.52462
-0.631797,-0.389439,2.411,2.52265
-0.623972,-0.389439,2.411,2.5207
-0.616146,-0.389439,2.411,2.51877
-0.608321,-0.389439,2.411,2.51687
-0.600495,-0.389439,2.411,2.51499
-0.59267,-0.389439,2.411,2.51313
-0.584844,-0.389439,2.411,2.5113
-0.577019,-0.389439,2.411,2.50949
-0.573206,-0.392185,2.428,2.52538
-0.565326,-0.392185,2.428,2.52361
-0.553542,-0.389439,2.411,2.50419
-0.545717,-0.389439,2.411,2.50248
-0.537891,-0.389439,2.411,2.50078
-0.530066,-0.389439,2.411,2.49911
-0.52224,-0.389439,2.411,2.49746
-0.510787,-0.386693,2.394,2.47824
-0.503017,-0.386693,2.394,2.47665
-0.495247,-0.386693,2.394,2.47508
-0.487476,-0.386693,2.394,2.47354
-0.479706,-0.386693,2.394,2.47202
-0.471936,-0.386693,2.394,2.47052
-0.464165,-0.386693,2.394,2.46905
-0.456395,-0.386693,2.394,2.4676
-0.448625,-0.386693,2.394,2.46618
-0.440854,-0.386693,2.394,2.46478
-0.433084,-0.386693,2.394,2.4634
-0.425314,-0.386693,2.394,2.46204
-0.417543,-0.386693,2.394,2.46071
-0.409773,-0.386693,2.394,2.45941
-0.402003,-0.386693,2.394,2.45812
-0.394232,-0.386693,2.394,2.45687
-0.386462,-0.386693,2.394,2.45563
-0.378692,-0.386693,2.394,2.45442
-0.370921,-0.386693,2.394,2.45323
-0.36573,-0.389439,2.411,2.46948
-0.357904,-0.389439,2.411,2.46834
-0.350079,-0.389439,2.411,2.46721
-0.342253,-0.389439,2.411,2.46611
-0.334428,-0.389439,2.411,2.46504
-0.326602,-0.389439,2.411,2.46399
-0.318777,-0.389439,2.411,2.46297
-0.313144,-0.392185,2.428,2.47933
-0.305263,-0.392185,2.428,2.47834
-0.297382,-0.392185,2.428,2.47738
-0.289502,-0.392185,2.428,2.47645
-0.281621,-0.392185,2.428,2.47554
-0.27374,-0.392185,2.428,2.47466
-0.26586,-0.392185,2.428,2.4738
-0.257979,-0.392185,2.428,2.47296
-0.250098,-0.392185,2.428,2.47215
-0.242218,-0.392185,2.428,2.47137
-0.235978,-0.394931,2.445,2.48791
-0.228042,-0.394931,2.445,2.48717
-0.220106,-0.394931,2.445,2.48645
-0.21217,-0.394931,2.445,2.48576
-0.204234,-0.394931,2.445,2.4851
-0.196298,-0.394931,2.445,2.48446
-0.188363,-0.394931,2.445,2.48384
-0.179172,-0.392185,2.428,2.46599
-0.171292,-0.392185,2.428,2.46543
-0.163411,-0.392185,2.428,2.46489
-0.15553,-0.392185,2.428,2.46438
-0.147649,-0.392185,2.428,2.4639
-0.139769,-0.392185,2.428,2.46344
-0.131888,-0.392185,2.428,2.463
-0.124007,-0.392185,2.428,2.46259
-0.116127,-0.392185,2.428,2.46221
-0.108246,-0.392185,2.428,2.46185
-0.100365,-0.392185,2.428,2.46152
-0.0924847,-0.392185,2.428,2.46121
-0.084604,-0.392185,2.428,2.46093
-0.0767233,-0.392185,2.428,2.46067
-0.0688426,-0.392185,2.428,2.46043
-0.0609619,-0.392185,2.428,2.46023
-0.0530812,-0.392185,2.428,2.46004
-0.0452005,-0.392185,2.428,2.45989
-0.0373199,-0.392185,2.428,2.45975
-0.0294392,-0.392185,2.428,2.45965
-0.0215585,-0.392185,2.428,2.45956
-0.013582,-0.389439,2.411,2.44229
-0.00575653,-0.389439,2.411,2.44226
0.00206898,-0.389439,2.411,2.44225
0.00989449,-0.389439,2.411,2.44227
0.01772,-0.389439,2.411,2.44231
0.0255455,-0.389439,2.411,2.44238
0.033371,-0.389439,2.411,2.44248
0.0411965,-0.389439,2.411,2.4426
0.0493677,-0.392185,2.428,2.45997
0.0572484,-0.392185,2.428,2.46014
0.065129,-0.392185,2.428,2.46033
0.0730097,-0.392185,2.428,2.46055
0.0808904,-0.392185,2.428,2.4608
0.0887711,-0.392185,2.428,2.46107
0.0966518,-0.392185,2.428,2.46137
0.104532,-0.392185,2.428,2.46169
0.112413,-0.392185,2.428,2.46204
0.120294,-0.392185,2.428,2.46241
0.129072,-0.394931,2.445,2.48005
0.137008,-0.394931,2.445,2.48048
0.144944,-0.394931,2.445,2.48093
0.15288,-0.394931,2.445,2.4814
0.160815,-0.394931,2.445,2.48191
0.167578,-0.392185,2.428,2.46517
0.175459,-0.392185,2.428,2.46572
0.183339,-0.392185,2.428,2.46629
0.19122,-0.392185,2.428,2.46689
0.199101,-0.392185,2.428,2.46752
0.206981,-0.392185,2.428,2.46816
0.214862,-0.392185,2.428,2.46884
0.222743,-0.392185,2.428,2.46954
0.230623,-0.392185,2.428,2.47026
0.238504,-0.392185,2.428,2.47101
0.246385,-0.392185,2.428,2.47178
0.254265,-0.392185,2.428,2.47258
0.262146,-0.392185,2.428,2.4734
0.270027,-0.392185,2.428,2.47425
0.277908,-0.392185,2.428,2.47512
0.285788,-0.392185,2.428,2.47602
0.293669,-0.392185,2.428,2.47694
0.30155,-0.392185,2.428,2.47789
0.30943,-0.392185,2.428,2.47886
0.319533,-0.394931,2.445,2.49722
0.327469,-0.394931,2.445,2.49825
0.335404,-0.394931,2.445,2.4993
0.345868,-0.397838,2.463,2.51878
0.353862,-0.397838,2.463,2.51989
0.361856,-0.397838,2.463,2.52103
0.369851,-0.397838,2.463,2.52219
0.377845,-0.397838,2.463,2.52337
0.385839,-0.397838,2.463,2.52458
0.393834,-0.397838,2.463,2.52582
0.401828,-0.397838,2.463,2.52708
0.409822,-0.397838,2.463,2.52836
0.42087,-0.400746,2.481,2.54815
0.428923,-0.400746,2.481,2.5495
0.436975,-0.400746,2.481,2.55086
0.445028,-0.400746,2.481,2.55226
0.453081,-0.400746,2.481,2.55367
0.461134,-0.400746,2.481,2.55511
0.465782,-0.397838,2.463,2.53803
0.473776,-0.397838,2.463,2.53951
0.481771,-0.397838,2.463,2.54101
0.489765,-0.397838,2.463,2.54254
0.497759,-0.397838,2.463,2.54409
0.505754,-0.397838,2.463,2.54567
0.513748,-0.397838,2.463,2.54727
0.521742,-0.397838,2.463,2.54889
0.529737,-0.397838,2.463,2.55054
0.537731,-0.397838,2.463,2.55221
0.545725,-0.397838,2.463,2.55391
0.553719,-0.397838,2.463,2.55563
0.561714,-0.397838,2.463,2.55737
0.569708,-0.397838,2.463,2.55914
0.577702,-0.397838,2.463,2.56093
0.585697,-0.397838,2.463,2.56275
0.593691,-0.397838,2.463,2.56459
0.606082,-0.400746,2.481,2.58521
0.614135,-0.400746,2.481,2.58711
0.622188,-0.400746,2.481,2.58903
0.63024,-0.400746,2.481,2.59098
0.638293,-0.400746,2.481,2.59295
0.646346,-0.400746,2.481,2.59494
0.654399,-0.400746,2.481,2.59696
0.662451,-0.400746,2.481,2.599
0.670504,-0.400746,2.481,2.60106
0.678557,-0.400746,2.481,2.60315
0.686609,-0.400746,2.481,2.60526
0.694662,-0.400746,2.481,2.6074
0.697617,-0.397838,2.463,2.59062
0.705611,-0.397838,2.463,2.59278
0.713605,-0.397838,2.463,2.59497
0.721599,-0.397838,2.463,2.59718
0.729594,-0.397838,2.463,2.59941
0.737588,-0.397838,2.463,2.60167
0.745582,-0.397838,2.463,2.60395
0.753577,-0.397838,2.463,2.60625
0.756005,-0.394931,2.445,2.58951
0.763941,-0.394931,2.445,2.59183
0.771877,-0.394931,2.445,2.59418
0.779813,-0.394931,2.445,2.59656
0.787749,-0.394931,2.445,2.59895
0.795684,-0.394931,2.445,2.60137
0.80362,-0.394931,2.445,2.60381
0.811556,-0.394931,2.445,2.60627
0.819492,-0.394931,2.445,2.60875
0.821675,-0.392185,2.428,2.5931
0.829556,-0.392185,2.428,2.5956
0.837436,-0.392185,2.428,2.59813
0.845317,-0.392185,2.428,2.60068
0.847224,-0.389439,2.411,2.58503
0.855049,-0.389439,2.411,2.5876
0.862875,-0.389439,2.411,2.5902
0.8707,-0.389439,2.411,2.59282
0.878526,-0.389439,2.411,2.59546
0.880102,-0.386693,2.394,2.5798
0.887872,-0.386693,2.394,2.58246
0.895642,-0.386693,2.394,2.58514
0.903413,-0.386693,2.394,2.58784
0.911183,-0.386693,2.394,2.59056
0.918953,-0.386693,2.394,2.59331
0.926724,-0.386693,2.394,2.59607
0.927858,-0.383947,2.377,2.5804
0.935573,-0.383947,2.377,2.58318
0.936939,-0.381363,2.361,2.56858
0.944602,-0.381363,2.361,2.57139
nan,nan,nan,NaN
nan,nan,nan,NaN
nan,nan,nan,NaN
nan,nan,nan,NaN
nan,nan,nan,NaN
nan,nan,nan,NaN
nan,nan,nan,NaN
nan,nan,nan,NaN
nan,nan,nan,NaN
nan,nan,nan,NaN
nan,nan,nan,NaN
nan,nan,nan,NaN
nan,nan,nan,NaN
nan,nan,nan,NaN
1.35978,-0.489424,3.03,3.357
1.36961,-0.489424,3.03,3.36099
1.37945,-0.489424,3.03,3.36501
1.38928,-0.489424,3.03,3.36906
1.39912,-0.489424,3.03,3.37312
1.40895,-0.489424,3.03,3.37722
1.41879,-0.489424,3.03,3.38133
1.42862,-0.489424,3.03,3.38547
1.43846,-0.489424,3.03,3.38963
1.44829,-0.489424,3.03,3.39382
1.45812,-0.489424,3.03,3.39802
1.46796,-0.489424,3.03,3.40226
1.47779,-0.489424,3.03,3.40651
1.50089,-0.493785,3.057,3.44118
1.51081,-0.493785,3.057,3.44552
1.52073,-0.493785,3.057,3.44988
1.53065,-0.493785,3.057,3.45427
1.54057,-0.493785,3.057,3.45868
1.5505,-0.493785,3.057,3.46311
1.58849,-0.502669,3.112,3.52995
1.61349,-0.507353,3.141,3.56744
1.62369,-0.507353,3.141,3.57206
1.66405,-0.516722,3.199,3.64276
1.70636,-0.526575,3.26,3.71706
1.75065,-0.536912,3.324,3.795
1.76144,-0.536912,3.324,3.79999
1.78929,-0.542081,3.356,3.84163
1.83612,-0.552903,3.423,3.92352
1.84723,-0.552903,3.423,3.92873
1.87734,-0.558557,3.458,3.97419
1.90768,-0.56421,3.493,4.01978
1.91902,-0.56421,3.493,4.02517
1.93036,-0.56421,3.493,4.03059
1.96171,-0.570025,3.529,4.07763
1.97316,-0.570025,3.529,4.08315
1.98461,-0.570025,3.529,4.0887
1.97571,-0.56421,3.493,4.05251
1.98704,-0.56421,3.493,4.05804
1.99838,-0.56421,3.493,4.06361
2.03043,-0.570025,3.529,4.11113
2.04189,-0.570025,3.529,4.1168
2.03239,-0.56421,3.493,4.08044
2.04373,-0.56421,3.493,4.0861
2.05507,-0.56421,3.493,4.09178
2.0457,-0.558557,3.458,4.05643
2.05692,-0.558557,3.458,4.0621
2.04722,-0.552903,3.423,4.02663
2.05833,-0.552903,3.423,4.03229
2.04888,-0.547412,3.389,3.99786
2.02037,-0.536912,3.324,3.92672
2.03116,-0.536912,3.324,3.93229
2.02229,-0.531744,3.292,3.89996
1.99469,-0.521729,3.23,3.83196
2.00517,-0.521729,3.23,3.83742
1.97821,-0.512037,3.17,3.77153
1.91762,-0.493785,3.057,3.6423
1.92754,-0.493785,3.057,3.64753
1.88676,-0.480863,2.977,3.55719
1.86394,-0.472625,2.926,3.5013
1.87343,-0.472625,2.926,3.50637
1.8514,-0.46471,2.877,3.45265
1.82969,-0.456957,2.829,3.39997
1.83887,-0.456957,2.829,3.40492
1.80364,-0.445973,2.761,3.32793
1.79815,-0.44242,2.739,3.30624
1.80704,-0.44242,2.739,3.31108
1.80135,-0.438866,2.717,3.28931
1.79618,-0.435474,2.696,3.26868
1.80493,-0.435474,2.696,3.2735
1.81368,-0.435474,2.696,3.27833
1.82243,-0.435474,2.696,3.28318
1.83118,-0.435474,2.696,3.28805
-2.30597,-0.526127,3.324,4.07962
-2.29518,-0.526127,3.324,4.07353
-2.28439,-0.526127,3.324,4.06746
-2.2736,-0.526127,3.324,4.06141
-2.26281,-0.526127,3.324,4.05538
-2.2737,-0.531192,3.356,4.08835
-2.26281,-0.531192,3.356,4.0823
-2.23045,-0.526127,3.324,4.03741
-2.21966,-0.526127,3.324,4.03146
-2.20887,-0.526127,3.324,4.02553
-2.19808,-0.526127,3.324,4.01962
-2.18729,-0.526127,3.324,4.01373
-2.1765,-0.526127,3.324,4.00786
-2.16571,-0.526127,3.324,4.00201
-2.17567,-0.531192,3.356,4.03465
-2.16478,-0.531192,3.356,4.02879
-2.15388,-0.531192,3.356,4.02295
-2.16406,-0.536415,3.389,4.05663
-2.15306,-0.536415,3.389,4.05077
-2.14206,-0.536415,3.389,4.04493
-2.13106,-0.536415,3.389,4.03912
-2.12006,-0.536415,3.389,4.03333
-2.10906,-0.536415,3.389,4.02756
-2.07763,-0.531192,3.356,3.98265
-2.06674,-0.531192,3.356,3.97697
-2.05585,-0.531192,3.356,3.97132
-2.04496,-0.531192,3.356,3.9657
-2.03406,-0.531192,3.356,3.96009
-2.04306,-0.536415,3.389,3.99339
-2.03206,-0.536415,3.389,3.98777
nan,nan,nan,NaN
nan,nan,nan,NaN
nan,nan,nan,NaN
nan,nan,nan,NaN
nan,nan,nan,NaN
nan,nan,nan,NaN
nan,nan,nan,NaN
nan,nan,nan,NaN
nan,nan,nan,NaN
nan,nan,nan,NaN
nan,nan,nan,NaN
nan,nan,nan,NaN
nan,nan,nan,NaN
nan,nan,nan,NaN
nan,nan,nan,NaN
nan,nan,nan,NaN
nan,nan,nan,NaN
nan,nan,nan,NaN
nan,nan,nan,NaN
nan,nan,nan,NaN
nan,nan,nan,NaN
nan,nan,nan,NaN
nan,nan,nan,NaN
nan,nan,nan,NaN
nan,nan,nan,NaN
nan,nan,nan,NaN
nan,nan,nan,NaN
nan,nan,nan,NaN
nan,nan,nan,NaN
nan,nan,nan,NaN
nan,nan,nan,NaN
nan,nan,nan,NaN
-1.1091,-0.356449,2.252,2.53548
-1.10179,-0.356449,2.252,2.53229
-1.09448,-0.356449,2.252,2.52912
-1.08717,-0.356449,2.252,2.52597
-1.07986,-0.356449,2.252,2.52283
-1.07255,-0.356449,2.252,2.51971
-1.06524,-0.356449,2.252,2.51661
-1.06498,-0.358823,2.267,2.53026
-1.05762,-0.358823,2.267,2.52717
-1.05027,-0.358823,2.267,2.5241
-1.04981,-0.361198,2.282,2.53773
-1.0424,-0.361198,2.282,2.53468
-1.03499,-0.361198,2.282,2.53164
-1.02759,-0.361198,2.282,2.52862
-1.02018,-0.361198,2.282,2.52562
-1.01277,-0.361198,2.282,2.52264
-1.00537,-0.361198,2.282,2.51967
-0.99796,-0.361198,2.282,2.51673
-0.990554,-0.361198,2.282,2.5138
-0.983147,-0.361198,2.282,2.51089
-0.982581,-0.36373,2.298,2.52558
-0.975123,-0.36373,2.298,2.52269
-0.967664,-0.36373,2.298,2.51982
-0.960205,-0.36373,2.298,2.51696
-0.958965,-0.366104,2.313,2.53054
-0.951458,-0.366104,2.313,2.5277
-0.943951,-0.366104,2.313,2.52489
-0.936443,-0.366104,2.313,2.52209
-0.928936,-0.366104,2.313,2.51931
-0.921428,-0.366104,2.313,2.51655
-0.913921,-0.366104,2.313,2.51381
-0.912683,-0.368637,2.329,2.52846
-0.905124,-0.368637,2.329,2.52574
-0.897565,-0.368637,2.329,2.52305
-0.890005,-0.368637,2.329,2.52037
-0.882446,-0.368637,2.329,2.51771
-0.874887,-0.368637,2.329,2.51507
-0.867327,-0.368637,2.329,2.51245
-0.859768,-0.368637,2.329,2.50985
-0.852209,-0.368637,2.329,2.50727
-0.844649,-0.368637,2.329,2.50471
-0.842841,-0.371169,2.345,2.51936
-0.835229,-0.371169,2.345,2.51682
-0.827618,-0.371169,2.345,2.51431
-0.820007,-0.371169,2.345,2.51181
-0.812395,-0.371169,2.345,2.50934
-0.804784,-0.371169,2.345,2.50688
-0.797173,-0.371169,2.345,2.50445
-0.789562,-0.371169,2.345,2.50204
-0.787286,-0.373702,2.361,2.5167
-0.779622,-0.373702,2.361,2.51432
-0.771959,-0.373702,2.361,2.51195
-0.764296,-0.373702,2.361,2.50961
-0.76176,-0.376234,2.377,2.52427
-0.754045,-0.376234,2.377,2.52196
-0.74633,-0.376234,2.377,2.51966
-0.738615,-0.376234,2.377,2.51739
-0.736127,-0.378925,2.394,2.53312
-0.728357,-0.378925,2.394,2.53087
-0.720586,-0.378925,2.394,2.52865
-0.712816,-0.378925,2.394,2.52645
-0.705046,-0.378925,2.394,2.52426
-0.697275,-0.378925,2.394,2.5221
-0.689505,-0.378925,2.394,2.51997
-0.681735,-0.378925,2.394,2.51785
-0.673964,-0.378925,2.394,2.51576
-0.670925,-0.381616,2.411,2.53154
-0.663099,-0.381616,2.411,2.52948
-0.655274,-0.381616,2.411,2.52744
-0.647448,-0.381616,2.411,2.52542
-0.639623,-0.381616,2.411,2.52342
-0.631797,-0.381616,2.411,2.52145
-0.623972,-0.381616,2.411,2.5195
-0.616146,-0.381616,2.411,2.51758
-0.608321,-0.381616,2.411,2.51567
-0.600495,-0.381616,2.411,2.51379
-0.59267,-0.381616,2.411,2.51193
-0.584844,-0.381616,2.411,2.5101
-0.577019,-0.381616,2.411,2.50829
-0.573206,-0.384307,2.428,2.52417
-0.565326,-0.384307,2.428,2.52239
-0.553542,-0.381616,2.411,2.50299
-0.545717,-0.381616,2.411,2.50127
-0.537891,-0.381616,2.411,2.49958
-0.530066,-0.381616,2.411,2.4979
-0.52224,-0.381616,2.411,2.49625
-0.514415,-0.381616,2.411,2.49463
-0.506589,-0.381616,2.411,2.49303
-0.495247,-0.378925,2.394,2.47388
-0.487476,-0.378925,2.394,2.47234
-0.479706,-0.378925,2.394,2.47082
-0.471936,-0.378925,2.394,2.46932
-0.464165,-0.378925,2.394,2.46785
-0.456395,-0.378925,2.394,2.4664
-0.448625,-0.378925,2.394,2.46497
-0.440854,-0.378925,2.394,2.46357
-0.433084,-0.378925,2.394,2.46219
-0.425314,-0.378925,2.394,2.46084
-0.417543,-0.378925,2.394,2.4595
-0.409773,-0.378925,2.394,2.4582
-0.402003,-0.378925,2.394,2.45691
-0.394232,-0.378925,2.394,2.45565
-0.386462,-0.378925,2.394,2.45442
-0.378692,-0.378925,2.394,2.45321
-0.370921,-0.378925,2.394,2.45202
-0.36573,-0.381616,2.411,2.46826
-0.357904,-0.381616,2.411,2.46711
-0.350079,-0.381616,2.411,2.46599
-0.342253,-0.381616,2.411,2.46489
-0.334428,-0.381616,2.411,2.46382
-0.326602,-0.381616,2.411,2.46277
-0.318777,-0.381616,2.411,2.46174
-0.310951,-0.381616,2.411,2.46074
-0.303126,-0.381616,2.411,2.45976
-0.2953,-0.381616,2.411,2.45881
-0.289502,-0.384307,2.428,2.47521
-0.281621,-0.384307,2.428,2.47431
-0.27374,-0.384307,2.428,2.47342
-0.26586,-0.384307,2.428,2.47256
-0.257979,-0.384307,2.428,2.47173
-0.250098,-0.384307,2.428,2.47092
-0.242218,-0.384307,2.428,2.47013
-0.234337,-0.384307,2.428,2.46937
-0.228042,-0.386997,2.445,2.48592
-0.220106,-0.386997,2.445,2.4852
-0.21217,-0.386997,2.445,2.48451
-0.204234,-0.386997,2.445,2.48385
-0.196298,-0.386997,2.445,2.48321
-0.188363,-0.386997,2.445,2.48259
-0.180427,-0.386997,2.445,2.482
-0.172491,-0.386997,2.445,2.48144
-0.164555,-0.386997,2.445,2.4809
-0.156619,-0.386997,2.445,2.48039
-0.148683,-0.386997,2.445,2.4799
-0.140747,-0.386997,2.445,2.47944
-0.131888,-0.384307,2.428,2.46176
-0.124007,-0.384307,2.428,2.46135
-0.116127,-0.384307,2.428,2.46097
-0.108246,-0.384307,2.428,2.46061
-0.100365,-0.384307,2.428,2.46027
-0.0924847,-0.384307,2.428,2.45997
-0.084604,-0.384307,2.428,2.45968
-0.0767233,-0.384307,2.428,2.45942
-0.0688426,-0.384307,2.428,2.45919
-0.0609619,-0.384307,2.428,2.45898
-0.0530812,-0.384307,2.428,2.4588
-0.0452005,-0.384307,2.428,2.45864
-0.0373199,-0.384307,2.428,2.45851
-0.0294392,-0.384307,2.428,2.4584
-0.0215585,-0.384307,2.428,2.45832
-0.0136778,-0.384307,2.428,2.45826
-0.00575653,-0.381616,2.411,2.44102
0.00206898,-0.381616,2.411,2.44102
0.00989449,-0.381616,2.411,2.44103
0.01772,-0.381616,2.411,2.44108
0.0255455,-0.381616,2.411,2.44115
0.033371,-0.381616,2.411,2.44124
0.0411965,-0.381616,2.411,2.44136
0.0493677,-0.384307,2.428,2.45872
0.0572484,-0.384307,2.428,2.45889
0.065129,-0.384307,2.428,2.45909
0.0730097,-0.384307,2.428,2.45931
0.0808904,-0.384307,2.428,2.45956
0.0887711,-0.384307,2.428,2.45983
0.0966518,-0.384307,2.428,2.46013
0.104532,-0.384307,2.428,2.46045
0.112413,-0.384307,2.428,2.4608
0.120294,-0.384307,2.428,2.46117
0.129072,-0.386997,2.445,2.4788
0.137008,-0.386997,2.445,2.47923
0.144944,-0.386997,2.445,2.47968
0.15288,-0.386997,2.445,2.48015
0.160815,-0.386997,2.445,2.48066
0.167578,-0.384307,2.428,2.46393
0.175459,-0.384307,2.428,2.46448
0.183339,-0.384307,2.428,2.46505
0.19122,-0.384307,2.428,2.46565
0.199101,-0.384307,2.428,2.46628
0.206981,-0.384307,2.428,2.46692
0.214862,-0.384307,2.428,2.4676
0.222743,-0.384307,2.428,2.4683
0.230623,-0.384307,2.428,2.46902
0.238504,-0.384307,2.428,2.46977
0.246385,-0.384307,2.428,2.47054
0.254265,-0.384307,2.428,2.47134
0.262146,-0.384307,2.428,2.47216
0.270027,-0.384307,2.428,2.47301
0.277908,-0.384307,2.428,2.47389
0.285788,-0.384307,2.428,2.47478
0.295725,-0.386997,2.445,2.49304
0.303661,-0.386997,2.445,2.49399
0.311597,-0.386997,2.445,2.49497
0.319533,-0.386997,2.445,2.49598
0.327469,-0.386997,2.445,2.497
0.335404,-0.386997,2.445,2.49806
0.345868,-0.389846,2.463,2.51753
0.353862,-0.389846,2.463,2.51864
0.361856,-0.389846,2.463,2.51978
0.369851,-0.389846,2.463,2.52094
0.377845,-0.389846,2.463,2.52213
0.385839,-0.389846,2.463,2.52334
0.393834,-0.389846,2.463,2.52457
0.401828,-0.389846,2.463,2.52583
0.409822,-0.389846,2.463,2.52711
0.42087,-0.392696,2.481,2.5469
0.428923,-0.392696,2.481,2.54824
0.436975,-0.392696,2.481,2.54961
0.445028,-0.392696,2.481,2.551
0.453081,-0.392696,2.481,2.55242
0.457788,-0.389846,2.463,2.53533
0.465782,-0.389846,2.463,2.53679
0.473776,-0.389846,2.463,2.53827
0.481771,-0.389846,2.463,2.53977
0.486186,-0.386997,2.445,2.52273
0.494122,-0.386997,2.445,2.52427
0.502058,-0.386997,2.445,2.52584
0.509993,-0.386997,2.445,2.52743
0.517929,-0.386997,2.445,2.52904
0.525865,-0.386997,2.445,2.53068
0.533801,-0.386997,2.445,2.53234
0.545725,-0.389846,2.463,2.55268
0.553719,-0.389846,2.463,2.5544
0.561714,-0.389846,2.463,2.55614
0.569708,-0.389846,2.463,2.55791
0.577702,-0.389846,2.463,2.55971
0.585697,-0.389846,2.463,2.56152
0.593691,-0.389846,2.463,2.56336
0.601685,-0.389846,2.463,2.56522
0.614135,-0.392696,2.481,2.58587
0.617674,-0.389846,2.463,2.56902
0.625668,-0.389846,2.463,2.57096
0.633662,-0.389846,2.463,2.57291
0.641657,-0.389846,2.463,2.57489
0.649651,-0.389846,2.463,2.5769
0.662451,-0.392696,2.481,2.59777
0.670504,-0.392696,2.481,2.59984
0.678557,-0.392696,2.481,2.60192
0.686609,-0.392696,2.481,2.60404
0.694662,-0.392696,2.481,2.60617
0.697617,-0.389846,2.463,2.58941
0.705611,-0.389846,2.463,2.59157
0.713605,-0.389846,2.463,2.59376
0.721599,-0.389846,2.463,2.59597
0.729594,-0.389846,2.463,2.5982
0.737588,-0.389846,2.463,2.60046
0.745582,-0.389846,2.463,2.60274
0.748069,-0.386997,2.445,2.586
0.756005,-0.386997,2.445,2.58831
0.763941,-0.386997,2.445,2.59064
0.771877,-0.386997,2.445,2.59299
0.779813,-0.386997,2.445,2.59536
0.787749,-0.386997,2.445,2.59776
0.795684,-0.386997,2.445,2.60017
0.80362,-0.386997,2.445,2.60261
0.811556,-0.386997,2.445,2.60508
0.819492,-0.386997,2.445,2.60756
0.821675,-0.384307,2.428,2.59192
0.829556,-0.384307,2.428,2.59442
0.837436,-0.384307,2.428,2.59696
0.845317,-0.384307,2.428,2.59951
0.847224,-0.381616,2.411,2.58386
0.855049,-0.381616,2.411,2.58644
0.862875,-0.381616,2.411,2.58904
0.8707,-0.381616,2.411,2.59165
0.878526,-0.381616,2.411,2.59429
0.886351,-0.381616,2.411,2.59695
0.887872,-0.378925,2.394,2.58131
0.895642,-0.378925,2.394,2.58399
0.903413,-0.378925,2.394,2.58669
0.911183,-0.378925,2.394,2.58942
0.918953,-0.378925,2.394,2.59216
0.926724,-0.378925,2.394,2.59493
0.927858,-0.376234,2.377,2.57926
0.935573,-0.376234,2.377,2.58205
0.943288,-0.376234,2.377,2.58485
0.951003,-0.376234,2.377,2.58768
nan,nan,nan,NaN
nan,nan,nan,NaN
nan,nan,nan,NaN
nan,nan,nan,NaN
nan,nan,nan,NaN
nan,nan,nan,NaN
nan,nan,nan,NaN
nan,nan,nan,NaN
nan,nan,nan,NaN
nan,nan,nan,NaN
nan,nan,nan,NaN
nan,nan,nan,NaN
nan,nan,nan,NaN
nan,nan,nan,NaN
1.34766,-0.475318,3.003,3.32568
1.35741,-0.475318,3.003,3.32964
1.36716,-0.475318,3.003,3.33362
1.38928,-0.479592,3.03,3.36764
1.39912,-0.479592,3.03,3.37171
1.40895,-0.479592,3.03,3.3758
1.41879,-0.479592,3.03,3.37992
1.42862,-0.479592,3.03,3.38406
1.43846,-0.479592,3.03,3.38822
1.44829,-0.479592,3.03,3.39241
1.45812,-0.479592,3.03,3.39662
1.46796,-0.479592,3.03,3.40086
1.47779,-0.479592,3.03,3.40511
1.50089,-0.483865,3.057,3.43977
1.51081,-0.483865,3.057,3.44411
1.52073,-0.483865,3.057,3.44848
1.53065,-0.483865,3.057,3.45286
1.54057,-0.483865,3.057,3.45727
1.5505,-0.483865,3.057,3.46171
1.58849,-0.492571,3.112,3.52852
1.62839,-0.501751,3.17,3.59893
1.63868,-0.501751,3.17,3.6036
1.66405,-0.506341,3.199,3.6413
1.72311,-0.521062,3.292,3.75205
1.75065,-0.526127,3.324,3.79349
1.76144,-0.526127,3.324,3.79848
1.78929,-0.531192,3.356,3.84011
1.81788,-0.536415,3.389,3.88301
1.82888,-0.536415,3.389,3.88817
1.87734,-0.547336,3.458,3.97263
1.90768,-0.552876,3.493,4.01821
1.91902,-0.552876,3.493,4.0236
1.93036,-0.552876,3.493,4.02902
1.96171,-0.558574,3.529,4.07604
1.97316,-0.558574,3.529,4.08157
1.98461,-0.558574,3.529,4.08712
1.99607,-0.558574,3.529,4.09269
2.00752,-0.558574,3.529,4.09829
2.01898,-0.558574,3.529,4.10392
2.03043,-0.558574,3.529,4.10956
2.04189,-0.558574,3.529,4.11523
2.05334,-0.558574,3.529,4.12093
2.04373,-0.552876,3.493,4.08455
2.05507,-0.552876,3.493,4.09024
2.06641,-0.552876,3.493,4.09594
2.05692,-0.547336,3.458,4.06058
2.04722,-0.541796,3.423,4.02512
2.05833,-0.541796,3.423,4.03078
2.04888,-0.536415,3.389,3.99637
2.03982,-0.531192,3.356,3.96305
2.05072,-0.531192,3.356,3.96867
2.04195,-0.526127,3.324,3.93641
1.99469,-0.511248,3.23,3.83054
2.00517,-0.511248,3.23,3.83601
1.97821,-0.501751,3.17,3.77014
1.93456,-0.488139,3.084,3.67313
1.94457,-0.488139,3.084,3.67841
1.95458,-0.488139,3.084,3.68371
1.86394,-0.463131,2.926,3.50003
1.87343,-0.463131,2.926,3.5051
1.8514,-0.455375,2.877,3.4514
1.82969,-0.447777,2.829,3.39875
1.83887,-0.447777,2.829,3.4037
1.81801,-0.440496,2.783,3.35325
1.8126,-0.437014,2.761,3.33161
1.82156,-0.437014,2.761,3.33649
1.81593,-0.433532,2.739,3.31477
1.81017,-0.43005,2.717,3.29298
1.80493,-0.426726,2.696,3.27235
1.81368,-0.426726,2.696,3.27718
1.82243,-0.426726,2.696,3.28203
1.83118,-0.426726,2.696,3.2869
-2.30597,-0.515341,3.324,4.07824
-2.29518,-0.515341,3.324,4.07215
-2.28439,-0.515341,3.324,4.06608
-2.2736,-0.515341,3.324,4.06003
-2.26281,-0.515341,3.324,4.05399
-2.2737,-0.520302,3.356,4.08695
-2.26281,-0.520302,3.356,4.0809
-2.23045,-0.515341,3.324,4.03602
-2.21966,-0.515341,3.324,4.03007
-2.20887,-0.515341,3.324,4.02413
-2.19808,-0.515341,3.324,4.01822
-2.18729,-0.515341,3.324,4.01233
-2.1765,-0.515341,3.324,4.00646
-2.16571,-0.515341,3.324,4.00061
-2.17567,-0.520302,3.356,4.03324
-2.16478,-0.520302,3.356,4.02737
-2.15388,-0.520302,3.356,4.02152
-2.16406,-0.525418,3.389,4.05519
-2.15306,-0.525418,3.389,4.04933
-2.14206,-0.525418,3.389,4.04349
-2.13106,-0.525418,3.389,4.03767
-2.12006,-0.525418,3.389,4.03188
-2.10906,-0.525418,3.389,4.02611
-2.07763,-0.520302,3.356,3.98121
-2.06674,-0.520302,3.356,3.97553
-2.05585,-0.520302,3.356,3.96988
-2.04496,-0.520302,3.356,3.96425
-2.03406,-0.520302,3.356,3.95864
-2.02317,-0.520302,3.356,3.95306
-2.01228,-0.520302,3.356,3.94749
nan,nan,nan,NaN
nan,nan,nan,NaN
nan,nan,nan,NaN
nan,nan,nan,NaN
nan,nan,nan,NaN
nan,nan,nan,NaN
nan,nan,nan,NaN
nan,nan,nan,NaN
nan,nan,nan,NaN
nan,nan,nan,NaN
nan,nan,nan,NaN
nan,nan,nan,NaN
nan,nan,nan,NaN
nan,nan,nan,NaN
nan,nan,nan,NaN
nan,nan,nan,NaN
nan,nan,nan,NaN
nan,nan,nan,NaN
nan,nan,nan,NaN
nan,nan,nan,NaN
nan,nan,nan,NaN
nan,nan,nan,NaN
nan,nan,nan,NaN
nan,nan,nan,NaN
nan,nan,nan,NaN
nan,nan,nan,NaN
nan,nan,nan,NaN
nan,nan,nan,NaN
nan,nan,nan,NaN
nan,nan,nan,NaN
nan,nan,nan,NaN
nan,nan,nan,NaN
-1.1091,-0.349142,2.252,2.53446
-1.10179,-0.349142,2.252,2.53127
-1.09448,-0.349142,2.252,2.5281
-1.08717,-0.349142,2.252,2.52495
-1.07986,-0.349142,2.252,2.52181
-1.07255,-0.349142,2.252,2.51869
-1.06524,-0.349142,2.252,2.51558
-1.06498,-0.351467,2.267,2.52923
-1.05762,-0.351467,2.267,2.52614
-1.05721,-0.353793,2.282,2.53976
-1.04981,-0.353793,2.282,2.53669
-1.0424,-0.353793,2.282,2.53363
-1.03499,-0.353793,2.282,2.53059
-1.02759,-0.353793,2.282,2.52757
-1.02018,-0.353793,2.282,2.52457
-1.01277,-0.353793,2.282,2.52159
-1.00537,-0.353793,2.282,2.51862
-0.99796,-0.353793,2.282,2.51567
-0.990554,-0.353793,2.282,2.51275
-0.983147,-0.353793,2.282,2.50983
-0.982581,-0.356273,2.298,2.52452
-0.975123,-0.356273,2.298,2.52163
-0.967664,-0.356273,2.298,2.51875
-0.960205,-0.356273,2.298,2.5159
-0.958965,-0.358599,2.313,2.52946
-0.951458,-0.358599,2.313,2.52663
-0.943951,-0.358599,2.313,2.52381
-0.936443,-0.358599,2.313,2.52101
-0.928936,-0.358599,2.313,2.51823
-0.921428,-0.358599,2.313,2.51547
-0.920243,-0.36108,2.329,2.53011
-0.912683,-0.36108,2.329,2.52737
-0.905124,-0.36108,2.329,2.52465
-0.897565,-0.36108,2.329,2.52195
-0.890005,-0.36108,2.329,2.51927
-0.882446,-0.36108,2.329,2.51661
-0.874887,-0.36108,2.329,2.51397
-0.867327,-0.36108,2.329,2.51135
-0.859768,-0.36108,2.329,2.50875
-0.852209,-0.36108,2.329,2.50617
-0.850452,-0.36356,2.345,2.52081
-0.842841,-0.36356,2.345,2.51825
-0.835229,-0.36356,2.345,2.51571
-0.827618,-0.36356,2.345,2.5132
-0.820007,-0.36356,2.345,2.5107
-0.812395,-0.36356,2.345,2.50822
-0.804784,-0.36356,2.345,2.50577
-0.802612,-0.366041,2.361,2.52042
-0.794949,-0.366041,2.361,2.51799
-0.787286,-0.366041,2.361,2.51558
-0.784906,-0.368521,2.377,2.53022
-0.777191,-0.368521,2.377,2.52784
-0.769475,-0.368521,2.377,2.52548
-0.76176,-0.368521,2.377,2.52314
-0.754045,-0.368521,2.377,2.52082
-0.74633,-0.368521,2.377,2.51852
-0.738615,-0.368521,2.377,2.51625
-0.736127,-0.371157,2.394,2.53197
-0.728357,-0.371157,2.394,2.52972
-0.720586,-0.371157,2.394,2.5275
-0.712816,-0.371157,2.394,2.52529
-0.705046,-0.371157,2.394,2.52311
-0.697275,-0.371157,2.394,2.52095
-0.689505,-0.371157,2.394,2.51881
-0.681735,-0.371157,2.394,2.5167
-0.673964,-0.371157,2.394,2.5146
-0.666194,-0.371157,2.394,2.51253
-0.658424,-0.371157,2.394,2.51048
-0.650653,-0.371157,2.394,2.50845
-0.642883,-0.371157,2.394,2.50645
-0.635113,-0.371157,2.394,2.50447
-0.627342,-0.371157,2.394,2.50251
-0.623972,-0.373793,2.411,2.51833
-0.616146,-0.373793,2.411,2.5164
-0.608321,-0.373793,2.411,2.5145
-0.600495,-0.373793,2.411,2.51262
-0.59267,-0.373793,2.411,2.51076
-0.584844,-0.373793,2.411,2.50892
-0.577019,-0.373793,2.411,2.50711
-0.573206,-0.376428,2.428,2.52298
-0.565326,-0.376428,2.428,2.52121
-0.557445,-0.376428,2.428,2.51945
-0.545717,-0.373793,2.411,2.50009
-0.537891,-0.373793,2.411,2.49839
-0.530066,-0.373793,2.411,2.49672
-0.52224,-0.373793,2.411,2.49507
-0.514415,-0.373793,2.411,2.49344
-0.506589,-0.373793,2.411,2.49184
-0.498764,-0.373793,2.411,2.49026
-0.487476,-0.371157,2.394,2.47116
-0.479706,-0.371157,2.394,2.46964
-0.471936,-0.371157,2.394,2.46814
-0.464165,-0.371157,2.394,2.46667
-0.456395,-0.371157,2.394,2.46522
-0.448625,-0.371157,2.394,2.46379
-0.440854,-0.371157,2.394,2.46239
-0.433084,-0.371157,2.394,2.46101
-0.425314,-0.371157,2.394,2.45965
-0.417543,-0.371157,2.394,2.45832
-0.409773,-0.371157,2.394,2.45701
-0.402003,-0.371157,2.394,2.45573
-0.394232,-0.371157,2.394,2.45447
-0.386462,-0.371157,2.394,2.45323
-0.378692,-0.371157,2.394,2.45202
-0.370921,-0.371157,2.394,2.45083
-0.36573,-0.373793,2.411,2.46706
-0.357904,-0.373793,2.411,2.46592
-0.350079,-0.373793,2.411,2.46479
-0.342253,-0.373793,2.411,2.46369
-0.334428,-0.373793,2.411,2.46262
-0.326602,-0.373793,2.411,2.46157
-0.318777,-0.373793,2.411,2.46054
-0.310951,-0.373793,2.411,2.45954
-0.303126,-0.373793,2.411,2.45856
-0.2953,-0.373793,2.411,2.45761
-0.289502,-0.376428,2.428,2.474
-0.281621,-0.376428,2.428,2.47309
-0.27374,-0.376428,2.428,2.47221
-0.26586,-0.376428,2.428,2.47135
-0.257979,-0.376428,2.428,2.47051
-0.250098,-0.376428,2.428,2.4697
-0.242218,-0.376428,2.428,2.46892
-0.234337,-0.376428,2.428,2.46816
-0.228042,-0.379064,2.445,2.4847
-0.220106,-0.379064,2.445,2.48398
-0.21217,-0.379064,2.445,2.48329
-0.204234,-0.379064,2.445,2.48263
-0.196298,-0.379064,2.445,2.48198
-0.188363,-0.379064,2.445,2.48137
-0.180427,-0.379064,2.445,2.48078
-0.172491,-0.379064,2.445,2.48022
-0.164555,-0.379064,2.445,2.47968
-0.156619,-0.379064,2.445,2.47916
-0.148683,-0.379064,2.445,2.47867
-0.140747,-0.379064,2.445,2.47821
-0.131888,-0.376428,2.428,2.46054
-0.124007,-0.376428,2.428,2.46013
-0.116127,-0.376428,2.428,2.45975
-0.108246,-0.376428,2.428,2.45939
-0.100365,-0.376428,2.428,2.45906
-0.0924847,-0.376428,2.428,2.45875
-0.084604,-0.376428,2.428,2.45846
-0.0767233,-0.376428,2.428,2.4582
-0.0688426,-0.376428,2.428,2.45797
-0.0609619,-0.376428,2.428,2.45776
-0.0530812,-0.376428,2.428,2.45758
-0.0452005,-0.376428,2.428,2.45742
-0.0370586,-0.373793,2.411,2.44009
-0.029233,-0.373793,2.411,2.43998
-0.0214075,-0.373793,2.411,2.4399
-0.013582,-0.373793,2.411,2.43984
-0.00575653,-0.373793,2.411,2.43981
0.00206898,-0.373793,2.411,2.4398
0.00989449,-0.373793,2.411,2.43982
0.01772,-0.373793,2.411,2.43987
0.0255455,-0.373793,2.411,2.43994
0.033371,-0.373793,2.411,2.44003
0.0411965,-0.373793,2.411,2.44015
0.0493677,-0.376428,2.428,2.4575
0.0572484,-0.376428,2.428,2.45767
0.065129,-0.376428,2.428,2.45787
0.0730097,-0.376428,2.428,2.45809
0.0808904,-0.376428,2.428,2.45834
0.0887711,-0.376428,2.428,2.45861
0.0966518,-0.376428,2.428,2.45891
0.104532,-0.376428,2.428,2.45923
0.112413,-0.376428,2.428,2.45958
0.120294,-0.376428,2.428,2.45995
0.129072,-0.379064,2.445,2.47757
0.137008,-0.379064,2.445,2.478
0.144944,-0.379064,2.445,2.47845
0.15288,-0.379064,2.445,2.47893
0.160815,-0.379064,2.445,2.47943
0.167578,-0.376428,2.428,2.46272
0.175459,-0.376428,2.428,2.46326
0.183339,-0.376428,2.428,2.46384
0.19122,-0.376428,2.428,2.46444
0.199101,-0.376428,2.428,2.46506
0.206981,-0.376428,2.428,2.46571
0.214862,-0.376428,2.428,2.46638
0.222743,-0.376428,2.428,2.46708
0.230623,-0.376428,2.428,2.46781
0.238504,-0.376428,2.428,2.46856
0.246385,-0.376428,2.428,2.46933
0.254265,-0.376428,2.428,2.47013
0.262146,-0.376428,2.428,2.47095
0.270027,-0.376428,2.428,2.4718
0.277908,-0.376428,2.428,2.47267
0.285788,-0.376428,2.428,2.47357
0.295725,-0.379064,2.445,2.49182
0.303661,-0.379064,2.445,2.49277
0.311597,-0.379064,2.445,2.49375
0.319533,-0.379064,2.445,2.49476
0.327469,-0.379064,2.445,2.49579
0.335404,-0.379064,2.445,2.49684
0.345868,-0.381854,2.463,2.51631
0.353862,-0.381854,2.463,2.51742
0.361856,-0.381854,2.463,2.51856
0.369851,-0.381854,2.463,2.51972
0.377845,-0.381854,2.463,2.5209
0.385839,-0.381854,2.463,2.52211
0.393834,-0.381854,2.463,2.52335
0.401828,-0.381854,2.463,2.52461
0.409822,-0.381854,2.463,2.52589
0.42087,-0.384645,2.481,2.54567
0.428923,-0.384645,2.481,2.54702
0.436975,-0.384645,2.481,2.54838
0.445028,-0.384645,2.481,2.54978
0.453081,-0.384645,2.481,2.5512
0.457788,-0.381854,2.463,2.53412
0.465782,-0.381854,2.463,2.53557
0.473776,-0.381854,2.463,2.53705
0.481771,-0.381854,2.463,2.53856
0.486186,-0.379064,2.445,2.52153
0.494122,-0.379064,2.445,2.52307
0.502058,-0.379064,2.445,2.52463
0.509993,-0.379064,2.445,2.52622
0.517929,-0.379064,2.445,2.52784
0.525865,-0.379064,2.445,2.52948
0.533801,-0.379064,2.445,2.53114
0.545725,-0.381854,2.463,2.55147
0.553719,-0.381854,2.463,2.55319
0.561714,-0.381854,2.463,2.55494
0.569708,-0.381854,2.463,2.55671
0.577702,-0.381854,2.463,2.5585
0.585697,-0.381854,2.463,2.56032
0.593691,-0.381854,2.463,2.56216
0.601685,-0.381854,2.463,2.56402
0.614135,-0.384645,2.481,2.58466
0.617674,-0.381854,2.463,2.56782
0.625668,-0.381854,2.463,2.56976
0.633662,-0.381854,2.463,2.57171
0.641657,-0.381854,2.463,2.57369
0.649651,-0.381854,2.463,2.5757
0.657645,-0.381854,2.463,2.57773
0.665639,-0.381854,2.463,2.57978
0.673634,-0.381854,2.463,2.58185
0.681628,-0.381854,2.463,2.58395
0.689622,-0.381854,2.463,2.58607
0.697617,-0.381854,2.463,2.58821
0.705611,-0.381854,2.463,2.59038
0.713605,-0.381854,2.463,2.59257
0.716326,-0.379064,2.445,2.57582
0.724262,-0.379064,2.445,2.57804
0.732198,-0.379064,2.445,2.58028
0.740133,-0.379064,2.445,2.58254
0.748069,-0.379064,2.445,2.58483
0.756005,-0.379064,2.445,2.58713
0.763941,-0.379064,2.445,2.58946
0.771877,-0.379064,2.445,2.59182
0.779813,-0.379064,2.445,2.59419
0.787749,-0.379064,2.445,2.59659
0.795684,-0.379064,2.445,2.59901
0.80362,-0.379064,2.445,2.60145
0.811556,-0.379064,2.445,2.60391
0.819492,-0.379064,2.445,2.60639
0.821675,-0.376428,2.428,2.59076
0.829556,-0.376428,2.428,2.59327
0.837436,-0.376428,2.428,2.5958
0.845317,-0.376428,2.428,2.59835
0.853198,-0.376428,2.428,2.60093
0.861078,-0.376428,2.428,2.60352
0.868959,-0.376428,2.428,2.60614
0.8707,-0.373793,2.411,2.59051
0.878526,-0.373793,2.411,2.59315
0.886351,-0.373793,2.411,2.59582
0.894177,-0.373793,2.411,2.5985
0.902002,-0.373793,2.411,2.6012
0.903413,-0.371157,2.394,2.58557
0.911183,-0.371157,2.394,2.58829
0.918953,-0.371157,2.394,2.59104
0.926724,-0.371157,2.394,2.5938
0.927858,-0.368521,2.377,2.57815
0.935573,-0.368521,2.377,2.58094
0.943288,-0.368521,2.377,2.58374
0.951003,-0.368521,2.377,2.58657
nan,nan,nan,NaN
nan,nan,nan,NaN
nan,nan,nan,NaN
nan,nan,nan,NaN
nan,nan,nan,NaN
nan,nan,nan,NaN
nan,nan,nan,NaN
nan,nan,nan,NaN
nan,nan,nan,NaN
nan,nan,nan,NaN
nan,nan,nan,NaN
nan,nan,nan,NaN
nan,nan,nan,NaN
nan,nan,nan,NaN
1.34766,-0.465574,3.003,3.3243
1.35741,-0.465574,3.003,3.32826
1.36716,-0.465574,3.003,3.33225
1.38928,-0.46976,3.03,3.36626
1.39912,-0.46976,3.03,3.37033
1.40895,-0.46976,3.03,3.37442
1.41879,-0.46976,3.03,3.37854
1.42862,-0.46976,3.03,3.38268
1.43846,-0.46976,3.03,3.38685
1.44829,-0.46976,3.03,3.39104
1.45812,-0.46976,3.03,3.39525
1.48104,-0.473946,3.057,3.42977
1.49096,-0.473946,3.057,3.43407
1.50089,-0.473946,3.057,3.43839
1.52415,-0.478132,3.084,3.47314
1.53416,-0.478132,3.084,3.47754
1.54417,-0.478132,3.084,3.48197
1.56829,-0.482473,3.112,3.51808
1.57839,-0.482473,3.112,3.52259
1.58849,-0.482473,3.112,3.52713
1.64328,-0.495961,3.199,3.63042
1.65367,-0.495961,3.199,3.63513
1.66405,-0.495961,3.199,3.63987
1.73986,-0.515341,3.324,3.78704
1.75065,-0.515341,3.324,3.79201
1.76144,-0.515341,3.324,3.797
1.78929,-0.520302,3.356,3.83862
1.81788,-0.525418,3.389,3.88151
1.82888,-0.525418,3.389,3.88667
1.87734,-0.536116,3.458,3.9711
1.90768,-0.541542,3.493,4.01666
1.91902,-0.541542,3.493,4.02206
1.93036,-0.541542,3.493,4.02748
1.96171,-0.547123,3.529,4.07449
1.97316,-0.547123,3.529,4.08002
1.98461,-0.547123,3.529,4.08557
1.99607,-0.547123,3.529,4.09115
2.02857,-0.552859,3.566,4.1397
2.04015,-0.552859,3.566,4.14538
2.05172,-0.552859,3.566,4.15109
2.06329,-0.552859,3.566,4.15683
2.05334,-0.547123,3.529,4.11939
2.06479,-0.547123,3.529,4.12511
2.07625,-0.547123,3.529,4.13086
2.0877,-0.547123,3.529,4.13663
2.07774,-0.541542,3.493,4.10016
2.04722,-0.530689,3.423,4.02364
2.05833,-0.530689,3.423,4.0293
2.04888,-0.525418,3.389,3.99491
2.03982,-0.520302,3.356,3.96161
2.05072,-0.520302,3.356,3.96723
2.04195,-0.515341,3.324,3.93499
1.99469,-0.500767,3.23,3.82916
2.00517,-0.500767,3.23,3.83463
1.97821,-0.491465,3.17,3.76879
1.93456,-0.478132,3.084,3.67181
1.94457,-0.478132,3.084,3.67709
1.92035,-0.46976,3.03,3.61792
1.86394,-0.453636,2.926,3.49879
1.87343,-0.453636,2.926,3.50386
1.8514,-0.446039,2.877,3.45018
1.82969,-0.438598,2.829,3.39756
1.83887,-0.438598,2.829,3.40251
1.81801,-0.431466,2.783,3.35207
1.8126,-0.428055,2.761,3.33044
1.82156,-0.428055,2.761,3.33533
1.81593,-0.424644,2.739,3.31362
1.81017,-0.421234,2.717,3.29184
1.80493,-0.417978,2.696,3.27122
1.81368,-0.417978,2.696,3.27606
1.82243,-0.417978,2.696,3.28091
1.83118,-0.417978,2.696,3.28578
-2.30597,-0.504555,3.324,4.07689
-2.29518,-0.504555,3.324,4.0708
-2.28439,-0.504555,3.324,4.06472
-2.2736,-0.504555,3.324,4.05867
-2.2846,-0.509412,3.356,4.09165
-2.2737,-0.509412,3.356,4.08558
-2.26281,-0.509412,3.356,4.07953
-2.23045,-0.504555,3.324,4.03465
-2.21966,-0.504555,3.324,4.0287
-2.20887,-0.504555,3.324,4.02277
-2.19808,-0.504555,3.324,4.01685
-2.20835,-0.509412,3.356,4.04957
-2.19745,-0.509412,3.356,4.04364
-2.18656,-0.509412,3.356,4.03773
-2.17567,-0.509412,3.356,4.03184
-2.16478,-0.509412,3.356,4.02598
-2.15388,-0.509412,3.356,4.02013
-2.16406,-0.514421,3.389,4.05378
-2.15306,-0.514421,3.389,4.04792
-2.14206,-0.514421,3.389,4.04208
-2.13106,-0.514421,3.389,4.03626
-2.12006,-0.514421,3.389,4.03046
-2.08853,-0.509412,3.356,3.9855
-2.07763,-0.509412,3.356,3.9798
-2.06674,-0.509412,3.356,3.97412
-2.05585,-0.509412,3.356,3.96847
-2.02546,-0.504555,3.324,3.92505
-2.01467,-0.504555,3.324,3.91949
-2.00388,-0.504555,3.324,3.91396
-1.99309,-0.504555,3.324,3.90845
nan,nan,nan,NaN
nan,nan,nan,NaN
nan,nan,nan,NaN
nan,nan,nan,NaN
nan,nan,nan,NaN
nan,nan,nan,NaN
nan,nan,nan,NaN
nan,nan,nan,NaN
nan,nan,nan,NaN
nan,nan,nan,NaN
nan,nan,nan,NaN
nan,nan,nan,NaN
nan,nan,nan,NaN
nan,nan,nan,NaN
nan,nan,nan,NaN
nan,nan,nan,NaN
nan,nan,nan,NaN
nan,nan,nan,NaN
nan,nan,nan,NaN
nan,nan,nan,NaN
nan,nan,nan,NaN
nan,nan,nan,NaN
nan,nan,nan,NaN
nan,nan,nan,NaN
nan,nan,nan,NaN
nan,nan,nan,NaN
nan,nan,nan,NaN
nan,nan,nan,NaN
nan,nan,nan,NaN
nan,nan,nan,NaN
nan,nan,nan,NaN
nan,nan,nan,NaN
-1.11649,-0.344111,2.267,2.55034
-1.10913,-0.344111,2.267,2.54713
-1.10177,-0.344111,2.267,2.54393
-1.09441,-0.344111,2.267,2.54076
-1.08706,-0.344111,2.267,2.5376
-1.0797,-0.344111,2.267,2.53445
-1.07234,-0.344111,2.267,2.53133
-1.06498,-0.344111,2.267,2.52822
-1.05762,-0.344111,2.267,2.52513
-1.05721,-0.346388,2.282,2.53874
-1.04981,-0.346388,2.282,2.53567
-1.0424,-0.346388,2.282,2.53261
-1.03499,-0.346388,2.282,2.52957
-1.02759,-0.346388,2.282,2.52655
-1.02018,-0.346388,2.282,2.52354
-1.01277,-0.346388,2.282,2.52056
-1.00537,-0.346388,2.282,2.51759
-0.99796,-0.346388,2.282,2.51464
-0.990554,-0.346388,2.282,2.51171
-0.99004,-0.348817,2.298,2.52639
-0.982581,-0.348817,2.298,2.52348
-0.975123,-0.348817,2.298,2.52058
-0.967664,-0.348817,2.298,2.51771
-0.966473,-0.351094,2.313,2.53127
-0.958965,-0.351094,2.313,2.52841
-0.951458,-0.351094,2.313,2.52557
-0.943951,-0.351094,2.313,2.52275
-0.936443,-0.351094,2.313,2.51995
-0.928936,-0.351094,2.313,2.51717
-0.921428,-0.351094,2.313,2.51441
-0.920243,-0.353522,2.329,2.52904
-0.912683,-0.353522,2.329,2.5263
-0.905124,-0.353522,2.329,2.52358
-0.897565,-0.353522,2.329,2.52088
-0.89612,-0.355951,2.345,2.5355
-0.888508,-0.355951,2.345,2.53282
-0.880897,-0.355951,2.345,2.53016
-0.873286,-0.355951,2.345,2.52752
-0.865674,-0.355951,2.345,2.5249
-0.858063,-0.355951,2.345,2.5223
-0.850452,-0.355951,2.345,2.51972
-0.842841,-0.355951,2.345,2.51716
-0.835229,-0.355951,2.345,2.51462
-0.833265,-0.35838,2.361,2.52925
-0.825602,-0.35838,2.361,2.52673
-0.817938,-0.35838,2.361,2.52424
-0.810275,-0.35838,2.361,2.52177
-0.802612,-0.35838,2.361,2.51931
-0.794949,-0.35838,2.361,2.51688
-0.792621,-0.360808,2.377,2.53151
-0.784906,-0.360808,2.377,2.52911
-0.777191,-0.360808,2.377,2.52672
-0.769475,-0.360808,2.377,2.52436
-0.76176,-0.360808,2.377,2.52202
-0.754045,-0.360808,2.377,2.5197
-0.74633,-0.360808,2.377,2.5174
-0.743897,-0.363389,2.394,2.53311
-0.736127,-0.363389,2.394,2.53084
-0.728357,-0.363389,2.394,2.52859
-0.720586,-0.363389,2.394,2.52637
-0.712816,-0.363389,2.394,2.52416
-0.705046,-0.363389,2.394,2.52198
-0.697275,-0.363389,2.394,2.51982
-0.689505,-0.363389,2.394,2.51768
-0.681735,-0.363389,2.394,2.51556
-0.673964,-0.363389,2.394,2.51347
-0.666194,-0.363389,2.394,2.51139
-0.658424,-0.363389,2.394,2.50934
-0.650653,-0.363389,2.394,2.50732
-0.642883,-0.363389,2.394,2.50531
-0.635113,-0.363389,2.394,2.50333
-0.627342,-0.363389,2.394,2.50137
-0.623972,-0.365969,2.411,2.51718
-0.616146,-0.365969,2.411,2.51525
-0.608321,-0.365969,2.411,2.51335
-0.600495,-0.365969,2.411,2.51146
-0.59267,-0.365969,2.411,2.5096
-0.584844,-0.365969,2.411,2.50777
-0.577019,-0.365969,2.411,2.50595
-0.573206,-0.36855,2.428,2.52182
-0.565326,-0.36855,2.428,2.52004
-0.557445,-0.36855,2.428,2.51828
-0.545717,-0.365969,2.411,2.49893
-0.537891,-0.365969,2.411,2.49723
-0.530066,-0.365969,2.411,2.49556
-0.52224,-0.365969,2.411,2.49391
-0.514415,-0.365969,2.411,2.49228
-0.506589,-0.365969,2.411,2.49068
-0.498764,-0.365969,2.411,2.4891
-0.487476,-0.363389,2.394,2.47
-0.479706,-0.363389,2.394,2.46848
-0.471936,-0.363389,2.394,2.46698
-0.464165,-0.363389,2.394,2.46551
-0.456395,-0.363389,2.394,2.46406
-0.448625,-0.363389,2.394,2.46263
-0.440854,-0.363389,2.394,2.46123
-0.433084,-0.363389,2.394,2.45985
-0.425314,-0.363389,2.394,2.45849
-0.417543,-0.363389,2.394,2.45716
-0.409773,-0.363389,2.394,2.45585
-0.402003,-0.363389,2.394,2.45457
-0.394232,-0.363389,2.394,2.45331
-0.386462,-0.363389,2.394,2.45207
-0.378692,-0.363389,2.394,2.45086
-0.370921,-0.363389,2.394,2.44967
-0.36573,-0.365969,2.411,2.46589
-0.357904,-0.365969,2.411,2.46474
-0.350079,-0.365969,2.411,2.46362
-0.342253,-0.365969,2.411,2.46252
-0.334428,-0.365969,2.411,2.46144
-0.326602,-0.365969,2.411,2.46039
-0.318777,-0.365969,2.411,2.45936
-0.310951,-0.365969,2.411,2.45836
-0.303126,-0.365969,2.411,2.45738
-0.2953,-0.365969,2.411,2.45643
-0.287475,-0.365969,2.411,2.4555
-0.281621,-0.36855,2.428,2.47191
-0.27374,-0.36855,2.428,2.47102
-0.26586,-0.36855,2.428,2.47016
-0.257979,-0.36855,2.428,2.46933
-0.250098,-0.36855,2.428,2.46851
-0.242218,-0.36855,2.428,2.46773
-0.234337,-0.36855,2.428,2.46697
-0.228042,-0.37113,2.445,2.4835
-0.220106,-0.37113,2.445,2.48278
-0.21217,-0.37113,2.445,2.48209
-0.204234,-0.37113,2.445,2.48143
-0.196298,-0.37113,2.445,2.48079
-0.188363,-0.37113,2.445,2.48017
-0.180427,-0.37113,2.445,2.47958
-0.172491,-0.37113,2.445,2.47902
-0.164555,-0.37113,2.445,2.47848
-0.156619,-0.37113,2.445,2.47796
-0.148683,-0.37113,2.445,2.47747
-0.140747,-0.37113,2.445,2.47701
-0.131888,-0.36855,2.428,2.45935
-0.124007,-0.36855,2.428,2.45894
-0.116127,-0.36855,2.428,2.45856
-0.108246,-0.36855,2.428,2.4582
-0.100365,-0.36855,2.428,2.45786
-0.0924847,-0.36855,2.428,2.45755
-0.084604,-0.36855,2.428,2.45727
-0.0767233,-0.36855,2.428,2.45701
-0.0688426,-0.36855,2.428,2.45678
-0.0609619,-0.36855,2.428,2.45657
-0.0527096,-0.365969,2.411,2.43919
-0.0448841,-0.365969,2.411,2.43903
-0.0370586,-0.365969,2.411,2.4389
-0.029233,-0.365969,2.411,2.43879
-0.0214075,-0.365969,2.411,2.43871
-0.013582,-0.365969,2.411,2.43866
-0.00575653,-0.365969,2.411,2.43862
0.00206898,-0.365969,2.411,2.43862
0.00989449,-0.365969,2.411,2.43864
0.01772,-0.365969,2.411,2.43868
0.0255455,-0.365969,2.411,2.43875
0.033371,-0.365969,2.411,2.43885
0.0411965,-0.365969,2.411,2.43897
0.0493677,-0.36855,2.428,2.45631
0.0572484,-0.36855,2.428,2.45648
0.065129,-0.36855,2.428,2.45668
0.0730097,-0.36855,2.428,2.4569
0.0808904,-0.36855,2.428,2.45714
0.0887711,-0.36855,2.428,2.45742
0.0966518,-0.36855,2.428,2.45771
0.104532,-0.36855,2.428,2.45804
0.112413,-0.36855,2.428,2.45838
0.120294,-0.36855,2.428,2.45876
0.129072,-0.37113,2.445,2.47637
0.137008,-0.37113,2.445,2.4768
0.144944,-0.37113,2.445,2.47725
0.15288,-0.37113,2.445,2.47773
0.160815,-0.37113,2.445,2.47823
0.168751,-0.37113,2.445,2.47876
0.175459,-0.36855,2.428,2.46207
0.183339,-0.36855,2.428,2.46265
0.19122,-0.36855,2.428,2.46325
0.199101,-0.36855,2.428,2.46387
0.206981,-0.36855,2.428,2.46452
0.214862,-0.36855,2.428,2.46519
0.222743,-0.36855,2.428,2.46589
0.230623,-0.36855,2.428,2.46662
0.238504,-0.36855,2.428,2.46737
0.246385,-0.36855,2.428,2.46814
0.254265,-0.36855,2.428,2.46894
0.262146,-0.36855,2.428,2.46976
0.270027,-0.36855,2.428,2.47061
0.279853,-0.37113,2.445,2.48879
0.287789,-0.37113,2.445,2.4897
0.295725,-0.37113,2.445,2.49063
0.303661,-0.37113,2.445,2.49158
0.311597,-0.37113,2.445,2.49256
0.319533,-0.37113,2.445,2.49356
0.327469,-0.37113,2.445,2.49459
0.337874,-0.373862,2.463,2.51402
0.348396,-0.376595,2.481,2.53349
0.356448,-0.376595,2.481,2.53461
0.364501,-0.376595,2.481,2.53575
0.372554,-0.376595,2.481,2.53692
0.380606,-0.376595,2.481,2.53812
0.388659,-0.376595,2.481,2.53934
0.396712,-0.376595,2.481,2.54058
0.404765,-0.376595,2.481,2.54185
0.412817,-0.376595,2.481,2.54315
0.42087,-0.376595,2.481,2.54447
0.428923,-0.376595,2.481,2.54581
0.436975,-0.376595,2.481,2.54718
0.445028,-0.376595,2.481,2.54858
0.453081,-0.376595,2.481,2.54999
0.457788,-0.373862,2.463,2.53293
0.465782,-0.373862,2.463,2.53438
0.470314,-0.37113,2.445,2.51733
0.47825,-0.37113,2.445,2.51883
0.486186,-0.37113,2.445,2.52035
0.497759,-0.373862,2.463,2.54045
0.505754,-0.373862,2.463,2.54203
0.509993,-0.37113,2.445,2.52505
0.517929,-0.37113,2.445,2.52666
0.525865,-0.37113,2.445,2.5283
0.533801,-0.37113,2.445,2.52996
0.545725,-0.373862,2.463,2.55029
0.553719,-0.373862,2.463,2.55201
0.561714,-0.373862,2.463,2.55375
0.569708,-0.373862,2.463,2.55553
0.577702,-0.373862,2.463,2.55732
0.585697,-0.373862,2.463,2.55914
0.593691,-0.373862,2.463,2.56098
0.601685,-0.373862,2.463,2.56284
0.614135,-0.376595,2.481,2.58348
0.617674,-0.373862,2.463,2.56664
0.625668,-0.373862,2.463,2.56858
0.633662,-0.373862,2.463,2.57054
0.641657,-0.373862,2.463,2.57252
0.649651,-0.373862,2.463,2.57453
0.657645,-0.373862,2.463,2.57656
0.665639,-0.373862,2.463,2.57861
0.673634,-0.373862,2.463,2.58068
0.681628,-0.373862,2.463,2.58278
0.689622,-0.373862,2.463,2.5849
0.697617,-0.373862,2.463,2.58705
0.705611,-0.373862,2.463,2.58921
0.713605,-0.373862,2.463,2.5914
0.716326,-0.37113,2.445,2.57466
0.724262,-0.37113,2.445,2.57688
0.732198,-0.37113,2.445,2.57912
0.740133,-0.37113,2.445,2.58139
0.748069,-0.37113,2.445,2.58367
0.756005,-0.37113,2.445,2.58598
0.763941,-0.37113,2.445,2.58831
0.771877,-0.37113,2.445,2.59067
0.779813,-0.37113,2.445,2.59304
0.787749,-0.37113,2.445,2.59544
0.795684,-0.37113,2.445,2.59786
0.80362,-0.37113,2.445,2.6003
0.811556,-0.37113,2.445,2.60277
0.819492,-0.37113,2.445,2.60525
0.827428,-0.37113,2.445,2.60776
0.835364,-0.37113,2.445,2.61029
0.837436,-0.36855,2.428,2.59467
0.845317,-0.36855,2.428,2.59722
0.853198,-0.36855,2.428,2.5998
0.861078,-0.36855,2.428,2.6024
0.868959,-0.36855,2.428,2.60502
0.87684,-0.36855,2.428,2.60765
0.88472,-0.36855,2.428,2.61031
0.886351,-0.365969,2.411,2.5947
0.894177,-0.365969,2.411,2.59738
0.902002,-0.365969,2.411,2.60009
0.903413,-0.363389,2.394,2.58446
0.911183,-0.363389,2.394,2.58719
0.918953,-0.363389,2.394,2.58993
0.926724,-0.363389,2.394,2.5927
0.934494,-0.363389,2.394,2.59549
0.935573,-0.360808,2.377,2.57985
0.943288,-0.360808,2.377,2.58265
0.951003,-0.360808,2.377,2.58548
nan,nan,nan,NaN
nan,nan,nan,NaN
nan,nan,nan,NaN
nan,nan,nan,NaN
nan,nan,nan,NaN
nan,nan,nan,NaN
nan,nan,nan,NaN
nan,nan,nan,NaN
nan,nan,nan,NaN
nan,nan,nan,NaN
nan,nan,nan,NaN
nan,nan,nan,NaN
nan,nan,nan,NaN
nan,nan,nan,NaN
1.34766,-0.45583,3.003,3.32295
1.35741,-0.45583,3.003,3.32691
1.36716,-0.45583,3.003,3.3309
1.38928,-0.459928,3.03,3.3649
1.39912,-0.459928,3.03,3.36897
1.40895,-0.459928,3.03,3.37307
1.41879,-0.459928,3.03,3.37719
1.42862,-0.459928,3.03,3.38133
1.43846,-0.459928,3.03,3.3855
1.44829,-0.459928,3.03,3.38969
1.45812,-0.459928,3.03,3.3939
