-0.793866,-0.10856,2.428,2.55679
-0.785985,-0.10856,2.428,2.55436
-0.778104,-0.10856,2.428,2.55194
-0.775616,-0.109321,2.445,2.5674
-0.767681,-0.109321,2.445,2.56502
-0.759745,-0.109321,2.445,2.56265
-0.751809,-0.109321,2.445,2.56031
-0.743873,-0.109321,2.445,2.55799
-0.735937,-0.109321,2.445,2.5557
-0.728001,-0.109321,2.445,2.55342
-0.720065,-0.109321,2.445,2.55117
-0.712129,-0.109321,2.445,2.54894
-0.704194,-0.109321,2.445,2.54674
-0.696258,-0.109321,2.445,2.54455
-0.688322,-0.109321,2.445,2.54239
-0.680386,-0.109321,2.445,2.54026
-0.67245,-0.109321,2.445,2.53814
-0.664514,-0.109321,2.445,2.53605
-0.652013,-0.10856,2.428,2.51636
-0.644133,-0.10856,2.428,2.51433
-0.636252,-0.10856,2.428,2.51233
-0.628371,-0.10856,2.428,2.51034
-0.620491,-0.10856,2.428,2.50838
-0.61261,-0.10856,2.428,2.50644
-0.604729,-0.10856,2.428,2.50453
-0.59267,-0.1078,2.411,2.48512
-0.584844,-0.1078,2.411,2.48326
-0.577019,-0.1078,2.411,2.48143
-0.569193,-0.1078,2.411,2.47962
-0.561368,-0.1078,2.411,2.47784
-0.553542,-0.1078,2.411,2.47608
-0.545717,-0.1078,2.411,2.47434
-0.541684,-0.10856,2.428,2.49006
-0.533803,-0.10856,2.428,2.48836
-0.525922,-0.10856,2.428,2.48668
-0.518042,-0.10856,2.428,2.48502
-0.510161,-0.10856,2.428,2.48339
-0.505797,-0.109321,2.445,2.49916
-0.497861,-0.109321,2.445,2.49757
-0.489925,-0.109321,2.445,2.496
-0.485538,-0.110125,2.463,2.51282
-0.477544,-0.110125,2.463,2.51128
-0.469549,-0.110125,2.463,2.50978
-0.461555,-0.110125,2.463,2.50829
-0.453561,-0.110125,2.463,2.50683
-0.445566,-0.110125,2.463,2.5054
-0.437572,-0.110125,2.463,2.50399
-0.429578,-0.110125,2.463,2.50261
-0.421584,-0.110125,2.463,2.50125
-0.416612,-0.11093,2.481,2.51818
-0.408559,-0.11093,2.481,2.51686
-0.400506,-0.11093,2.481,2.51557
-0.392454,-0.11093,2.481,2.5143
-0.384401,-0.11093,2.481,2.51305
-0.376348,-0.11093,2.481,2.51183
-0.368296,-0.11093,2.481,2.51064
-0.362857,-0.111735,2.499,2.52768
-0.354745,-0.111735,2.499,2.52653
-0.346634,-0.111735,2.499,2.5254
-0.338523,-0.111735,2.499,2.5243
-0.330412,-0.111735,2.499,2.52322
-0.322301,-0.111735,2.499,2.52217
-0.311927,-0.11093,2.481,2.50299
-0.303874,-0.11093,2.481,2.502
-0.295821,-0.11093,2.481,2.50104
-0.287769,-0.11093,2.481,2.5001
-0.279716,-0.11093,2.481,2.49918
-0.271663,-0.11093,2.481,2.49829
-0.26361,-0.11093,2.481,2.49743
-0.255558,-0.11093,2.481,2.49659
-0.247505,-0.11093,2.481,2.49578
-0.239452,-0.11093,2.481,2.495
-0.2314,-0.11093,2.481,2.49424
-0.223347,-0.11093,2.481,2.4935
-0.215294,-0.11093,2.481,2.49279
-0.208745,-0.111735,2.499,2.51019
-0.200634,-0.111735,2.499,2.50953
-0.192523,-0.111735,2.499,2.50889
-0.184412,-0.111735,2.499,2.50829
-0.1763,-0.111735,2.499,2.5077
-0.168189,-0.111735,2.499,2.50714
-0.158925,-0.11093,2.481,2.48856
-0.150872,-0.11093,2.481,2.48806
-0.143856,-0.111735,2.499,2.50563
-0.134767,-0.11093,2.481,2.48713
-0.126714,-0.11093,2.481,2.48671
-0.119523,-0.111735,2.499,2.50435
-0.110609,-0.11093,2.481,2.48594
-0.102556,-0.11093,2.481,2.4856
-0.0945035,-0.11093,2.481,2.48528
-0.0864508,-0.11093,2.481,2.48498
-0.078398,-0.11093,2.481,2.48472
-0.0703453,-0.11093,2.481,2.48447
-0.0622926,-0.11093,2.481,2.48426
-0.0542399,-0.11093,2.481,2.48407
-0.0461872,-0.11093,2.481,2.48391
-0.0381345,-0.11093,2.481,2.48377
-0.0298635,-0.110125,2.463,2.46564
-0.0218693,-0.110125,2.463,2.46556
-0.0139764,-0.11093,2.481,2.48352
-0.00588068,-0.110125,2.463,2.46547
0.0021136,-0.110125,2.463,2.46546
0.0101079,-0.110125,2.463,2.46548
0.0181022,-0.110125,2.463,2.46553
0.0259057,-0.109321,2.445,2.44758
0.0338416,-0.109321,2.445,2.44768
0.0417775,-0.109321,2.445,2.4478
0.0497133,-0.109321,2.445,2.44795
0.0576492,-0.109321,2.445,2.44812
0.0655851,-0.109321,2.445,2.44832
0.0735209,-0.109321,2.445,2.44855
0.0814568,-0.109321,2.445,2.4488
0.0893926,-0.109321,2.445,2.44907
0.0973285,-0.109321,2.445,2.44938
0.105264,-0.109321,2.445,2.44971
0.1132,-0.109321,2.445,2.45006
0.121136,-0.109321,2.445,2.45044
0.129072,-0.109321,2.445,2.45084
0.138016,-0.110125,2.463,2.46932
0.146011,-0.110125,2.463,2.46978
0.154005,-0.110125,2.463,2.47027
0.161999,-0.110125,2.463,2.47078
0.171236,-0.11093,2.481,2.48938
0.179289,-0.11093,2.481,2.48994
0.187341,-0.11093,2.481,2.49054
0.195394,-0.11093,2.481,2.49115
0.203447,-0.11093,2.481,2.4918
0.213034,-0.111735,2.499,2.51055
0.221145,-0.111735,2.499,2.51125
0.229256,-0.111735,2.499,2.51198
0.237367,-0.111735,2.499,2.51273
0.245479,-0.111735,2.499,2.51351
0.25359,-0.111735,2.499,2.51432
0.261701,-0.111735,2.499,2.51515
0.269812,-0.111735,2.499,2.51601
0.277923,-0.111735,2.499,2.51689
0.286034,-0.111735,2.499,2.5178
0.294145,-0.111735,2.499,2.51873
0.302256,-0.111735,2.499,2.51969
0.310368,-0.111735,2.499,2.52068
0.318479,-0.111735,2.499,2.52169
0.32659,-0.111735,2.499,2.52273
0.334701,-0.111735,2.499,2.52379
0.342812,-0.111735,2.499,2.52488
0.350923,-0.111735,2.499,2.52599
0.359034,-0.111735,2.499,2.52713
0.364501,-0.11093,2.481,2.51009
0.372554,-0.11093,2.481,2.51127
0.380606,-0.11093,2.481,2.51247
0.388659,-0.11093,2.481,2.51371
0.396712,-0.11093,2.481,2.51496
0.404765,-0.11093,2.481,2.51625
0.409822,-0.110125,2.463,2.49929
0.417816,-0.110125,2.463,2.50061
0.425811,-0.110125,2.463,2.50196
0.433805,-0.110125,2.463,2.50333
0.441799,-0.110125,2.463,2.50473
0.446507,-0.109321,2.445,2.48784
0.454442,-0.109321,2.445,2.48928
0.462378,-0.109321,2.445,2.49074
0.470314,-0.109321,2.445,2.49222
0.47825,-0.109321,2.445,2.49373
0.486186,-0.109321,2.445,2.49527
0.490686,-0.10856,2.428,2.47946
0.498567,-0.10856,2.428,2.48104
0.506447,-0.10856,2.428,2.48263
0.514328,-0.10856,2.428,2.48425
0.522209,-0.10856,2.428,2.48589
0.530089,-0.10856,2.428,2.48756
0.53797,-0.10856,2.428,2.48925
0.545851,-0.10856,2.428,2.49097
0.553732,-0.10856,2.428,2.49271
0.561612,-0.10856,2.428,2.49447
0.57348,-0.109321,2.445,2.51373
0.581416,-0.109321,2.445,2.51556
0.589352,-0.109321,2.445,2.5174
0.597288,-0.109321,2.445,2.51927
0.605224,-0.109321,2.445,2.52116
0.617674,-0.110125,2.463,2.54166
0.625668,-0.110125,2.463,2.54361
0.633662,-0.110125,2.463,2.54559
0.641657,-0.110125,2.463,2.54759
0.649651,-0.110125,2.463,2.54962
0.662451,-0.11093,2.481,2.57031
0.670504,-0.11093,2.481,2.5724
0.678557,-0.11093,2.481,2.57451
0.686609,-0.11093,2.481,2.57665
0.694662,-0.11093,2.481,2.5788
0.702715,-0.11093,2.481,2.58098
0.715924,-0.111735,2.499,2.60193
0.724035,-0.111735,2.499,2.60417
0.73742,-0.11254,2.517,2.62521
0.74559,-0.11254,2.517,2.62752
0.753759,-0.11254,2.517,2.62985
0.761929,-0.11254,2.517,2.6322
0.770098,-0.11254,2.517,2.63458
0.778268,-0.11254,2.517,2.63698
0.786437,-0.11254,2.517,2.6394
0.794607,-0.11254,2.517,2.64185
0.802777,-0.11254,2.517,2.64432
0.810946,-0.11254,2.517,2.64681
0.819116,-0.11254,2.517,2.64932
0.827285,-0.11254,2.517,2.65186
0.835455,-0.11254,2.517,2.65442
0.843624,-0.11254,2.517,2.657
0.851794,-0.11254,2.517,2.65961
0.853814,-0.111735,2.499,2.6432
0.861925,-0.111735,2.499,2.64583
0.870036,-0.111735,2.499,2.64848
0.871822,-0.11093,2.481,2.63206
0.879874,-0.11093,2.481,2.63474
0.887927,-0.11093,2.481,2.63744
0.889479,-0.110125,2.463,2.62101
0.897474,-0.110125,2.463,2.62373
0.905468,-0.110125,2.463,2.62647
0.906787,-0.109321,2.445,2.61003
0.908362,-0.10856,2.428,2.59463
0.916243,-0.10856,2.428,2.5974
0.924124,-0.10856,2.428,2.60019
0.925479,-0.1078,2.411,2.58477
0.933304,-0.1078,2.411,2.58759
0.94113,-0.1078,2.411,2.59042
0.942264,-0.10704,2.394,2.57499
0.950035,-0.10704,2.394,2.57784
0.957805,-0.10704,2.394,2.58071
0.965575,-0.10704,2.394,2.58361
0.973346,-0.10704,2.394,2.58652
0.981116,-0.10704,2.394,2.58946
0.995908,-0.1078,2.411,2.61082
1.01081,-0.10856,2.428,2.63224
1.03338,-0.110125,2.463,2.67327
1.04137,-0.110125,2.463,2.67637
1.0647,-0.111735,2.499,2.71865
1.10501,-0.115088,2.574,2.80353
1.11337,-0.115088,2.574,2.80683
1.14743,-0.117726,2.633,2.87457
1.18364,-0.120543,2.696,2.94685
1.23087,-0.124433,2.783,3.04559
1.2399,-0.124433,2.783,3.04925
1.26958,-0.12649,2.829,3.1034
1.28961,-0.127563,2.853,3.13352
1.29887,-0.127563,2.853,3.13735
1.33013,-0.129709,2.901,3.19404
1.33955,-0.129709,2.901,3.19797
1.33781,-0.128636,2.877,3.17544
1.34714,-0.128636,2.877,3.17938
1.3678,-0.129709,2.901,3.20991
1.37721,-0.129709,2.901,3.21393
1.37516,-0.128636,2.877,3.19135
1.3845,-0.128636,2.877,3.19539
1.40546,-0.129709,2.901,3.22614
1.41488,-0.129709,2.901,3.23025
1.43657,-0.130827,2.926,3.26226
1.44607,-0.130827,2.926,3.26645
1.45556,-0.130827,2.926,3.27067
1.47758,-0.131945,2.951,3.30288
1.48716,-0.131945,2.951,3.30718
1.49673,-0.131945,2.951,3.3115
1.53285,-0.13427,3.003,3.37427
1.57034,-0.136684,3.057,3.43946
1.62369,-0.14044,3.141,3.53864
1.63388,-0.14044,3.141,3.54333
1.67443,-0.143033,3.199,3.61356
1.71694,-0.145761,3.26,3.68738
1.72753,-0.145761,3.26,3.69232
1.77223,-0.148622,3.324,3.76986
1.81788,-0.151529,3.389,3.84876
1.84723,-0.153049,3.423,3.89264
1.85834,-0.153049,3.423,3.89792
1.88857,-0.154614,3.458,3.94314
1.89979,-0.154614,3.458,3.94853
1.91102,-0.154614,3.458,3.95394
1.90278,-0.153049,3.423,3.9193
1.91389,-0.153049,3.423,3.92471
1.925,-0.153049,3.423,3.93014
1.93611,-0.153049,3.423,3.93559
1.94722,-0.153049,3.423,3.94107
1.93888,-0.151529,3.389,3.90737
1.94988,-0.151529,3.389,3.91284
1.92327,-0.148622,3.324,3.84318
1.93406,-0.148622,3.324,3.84859
1.94485,-0.148622,3.324,3.85403
1.95564,-0.148622,3.324,3.85948
1.96643,-0.148622,3.324,3.86496
1.97722,-0.148622,3.324,3.87046
1.96887,-0.147191,3.292,3.83867
1.97955,-0.147191,3.292,3.84416
1.97089,-0.145761,3.26,3.81225
1.96324,-0.144419,3.23,3.7826
1.97372,-0.144419,3.23,3.78805
1.98421,-0.144419,3.23,3.79352
1.95764,-0.141737,3.17,3.72845
1.96793,-0.141737,3.17,3.73386
1.94202,-0.139143,3.112,3.67088
1.91762,-0.136684,3.057,3.61126
1.92754,-0.136684,3.057,3.61654
1.88676,-0.133107,2.977,3.52706
1.86394,-0.130827,2.926,3.47172
1.84206,-0.128636,2.877,3.41861
1.8514,-0.128636,2.877,3.42365
1.81482,-0.125461,2.806,3.34409
1.79467,-0.123449,2.761,3.29533
1.80364,-0.123449,2.761,3.30022
1.76992,-0.120543,2.696,3.22732
1.76482,-0.119604,2.675,3.20695
1.7735,-0.119604,2.675,3.21173
1.7542,-0.117726,2.633,3.16603
1.74936,-0.116832,2.613,3.14669
1.75784,-0.116832,2.613,3.15142
1.73996,-0.115088,2.574,3.10905
1.73541,-0.114239,2.555,3.09075
-1.97922,-0.118305,2.853,3.47432
-1.96996,-0.118305,2.853,3.46906
-1.9607,-0.118305,2.853,3.46381
-1.93502,-0.11731,2.829,3.42948
-1.92584,-0.11731,2.829,3.42431
-1.91666,-0.11731,2.829,3.41915
-1.89197,-0.116356,2.806,3.38625
-1.88286,-0.116356,2.806,3.38117
-1.87375,-0.116356,2.806,3.37611
-1.86465,-0.116356,2.806,3.37107
-1.84033,-0.115403,2.783,3.33845
-1.8313,-0.115403,2.783,3.33347
-1.82226,-0.115403,2.783,3.32852
-1.81323,-0.115403,2.783,3.32358
nan,nan,nan,NaN
nan,nan,nan,NaN
nan,nan,nan,NaN
nan,nan,nan,NaN
nan,nan,nan,NaN
nan,nan,nan,NaN
-1.76446,-0.116356,2.806,3.3167
-1.75535,-0.116356,2.806,3.31186
-1.74625,-0.116356,2.806,3.30705
-1.73714,-0.116356,2.806,3.30225
-1.7422,-0.11731,2.829,3.32449
-1.73301,-0.11731,2.829,3.31969
-1.72383,-0.11731,2.829,3.31491
-1.71465,-0.11731,2.829,3.31014
-1.70547,-0.11731,2.829,3.30539
-1.69629,-0.11731,2.829,3.30066
-1.6871,-0.11731,2.829,3.29596
-1.69216,-0.118305,2.853,3.31919
-1.6829,-0.118305,2.853,3.31447
-1.67364,-0.118305,2.853,3.30978
-1.66438,-0.118305,2.853,3.30511
-1.65511,-0.118305,2.853,3.30046
-1.64585,-0.118305,2.853,3.29582
nan,nan,nan,NaN
nan,nan,nan,NaN
nan,nan,nan,NaN
nan,nan,nan,NaN
nan,nan,nan,NaN
nan,nan,nan,NaN
nan,nan,nan,NaN
nan,nan,nan,NaN
nan,nan,nan,NaN
nan,nan,nan,NaN
nan,nan,nan,NaN
nan,nan,nan,NaN
nan,nan,nan,NaN
nan,nan,nan,NaN
nan,nan,nan,NaN
nan,nan,nan,NaN
nan,nan,nan,NaN
nan,nan,nan,NaN
nan,nan,nan,NaN
nan,nan,nan,NaN
nan,nan,nan,NaN
nan,nan,nan,NaN
-1.33293,-0.110053,2.654,2.97196
-1.31383,-0.109183,2.633,2.94462
-1.30529,-0.109183,2.633,2.94081
-1.27704,-0.107524,2.593,2.89241
-1.26863,-0.107524,2.593,2.88871
-1.26021,-0.107524,2.593,2.88502
-1.24262,-0.106736,2.574,2.86024
-1.22516,-0.105948,2.555,2.83553
-1.21686,-0.105948,2.555,2.83196
-1.19958,-0.10516,2.536,2.80737
-1.18243,-0.104373,2.517,2.78286
-1.16586,-0.103626,2.499,2.75952
-1.15775,-0.103626,2.499,2.75611
-1.14136,-0.10288,2.481,2.73288
-1.12508,-0.102133,2.463,2.70972
-1.11709,-0.102133,2.463,2.70642
-1.10909,-0.102133,2.463,2.70313
-1.09305,-0.101387,2.445,2.68012
-1.08512,-0.101387,2.445,2.6769
-1.06969,-0.100682,2.428,2.6551
-1.06181,-0.100682,2.428,2.65194
-1.05393,-0.100682,2.428,2.64879
-1.04605,-0.100682,2.428,2.64566
-1.03817,-0.100682,2.428,2.64256
-1.03029,-0.100682,2.428,2.63947
-1.02241,-0.100682,2.428,2.63641
-1.01452,-0.100682,2.428,2.63336
-1.00664,-0.100682,2.428,2.63033
-0.998763,-0.100682,2.428,2.62733
-0.990883,-0.100682,2.428,2.62434
-0.983002,-0.100682,2.428,2.62138
-0.975121,-0.100682,2.428,2.61843
-0.960468,-0.099977,2.411,2.59719
-0.952643,-0.099977,2.411,2.59431
-0.944817,-0.099977,2.411,2.59145
-0.936992,-0.099977,2.411,2.5886
-0.929166,-0.099977,2.411,2.58578
-0.921341,-0.099977,2.411,2.58298
-0.913515,-0.099977,2.411,2.5802
-0.90569,-0.099977,2.411,2.57744
-0.897864,-0.099977,2.411,2.5747
-0.890039,-0.099977,2.411,2.57198
-0.882213,-0.099977,2.411,2.56928
-0.874388,-0.099977,2.411,2.56661
-0.866562,-0.099977,2.411,2.56395
-0.858737,-0.099977,2.411,2.56132
-0.850911,-0.099977,2.411,2.5587
-0.843086,-0.099977,2.411,2.55611
-0.83526,-0.099977,2.411,2.55354
-0.827435,-0.099977,2.411,2.55099
-0.819609,-0.099977,2.411,2.54847
-0.811784,-0.099977,2.411,2.54596
-0.803958,-0.099977,2.411,2.54348
-0.801746,-0.100682,2.428,2.55893
-0.793866,-0.100682,2.428,2.55647
-0.785985,-0.100682,2.428,2.55403
-0.778104,-0.100682,2.428,2.55162
-0.770224,-0.100682,2.428,2.54923
-0.767681,-0.101387,2.445,2.56469
-0.759745,-0.101387,2.445,2.56233
-0.751809,-0.101387,2.445,2.55998
-0.743873,-0.101387,2.445,2.55767
-0.735937,-0.101387,2.445,2.55537
-0.728001,-0.101387,2.445,2.55309
-0.720065,-0.101387,2.445,2.55084
-0.712129,-0.101387,2.445,2.54861
-0.704194,-0.101387,2.445,2.54641
-0.696258,-0.101387,2.445,2.54422
-0.688322,-0.101387,2.445,2.54206
-0.680386,-0.101387,2.445,2.53993
-0.67245,-0.101387,2.445,2.53781
-0.664514,-0.101387,2.445,2.53572
-0.656578,-0.101387,2.445,2.53365
-0.648643,-0.101387,2.445,2.53161
-0.640707,-0.101387,2.445,2.52959
-0.628371,-0.100682,2.428,2.51001
-0.620491,-0.100682,2.428,2.50805
-0.61261,-0.100682,2.428,2.50611
-0.604729,-0.100682,2.428,2.5042
-0.596848,-0.100682,2.428,2.50231
-0.584844,-0.099977,2.411,2.48293
-0.577019,-0.099977,2.411,2.4811
-0.569193,-0.099977,2.411,2.47929
-0.561368,-0.099977,2.411,2.47751
-0.557445,-0.100682,2.428,2.4932
-0.549564,-0.100682,2.428,2.49145
-0.541684,-0.100682,2.428,2.48973
-0.533803,-0.100682,2.428,2.48802
-0.525922,-0.100682,2.428,2.48635
-0.518042,-0.100682,2.428,2.48469
-0.513733,-0.101387,2.445,2.50045
-0.505797,-0.101387,2.445,2.49883
-0.497861,-0.101387,2.445,2.49723
-0.489925,-0.101387,2.445,2.49566
-0.485538,-0.102133,2.463,2.51248
-0.477544,-0.102133,2.463,2.51095
-0.469549,-0.102133,2.463,2.50944
-0.461555,-0.102133,2.463,2.50795
-0.453561,-0.102133,2.463,2.50649
-0.445566,-0.102133,2.463,2.50506
-0.437572,-0.102133,2.463,2.50365
-0.429578,-0.102133,2.463,2.50227
-0.421584,-0.102133,2.463,2.50091
-0.416612,-0.10288,2.481,2.51784
-0.408559,-0.10288,2.481,2.51652
-0.400506,-0.10288,2.481,2.51522
-0.392454,-0.10288,2.481,2.51395
-0.384401,-0.10288,2.481,2.51271
-0.376348,-0.10288,2.481,2.51149
-0.368296,-0.10288,2.481,2.5103
-0.362857,-0.103626,2.499,2.52733
-0.354745,-0.103626,2.499,2.52618
-0.346634,-0.103626,2.499,2.52505
-0.338523,-0.103626,2.499,2.52395
-0.330412,-0.103626,2.499,2.52288
-0.322301,-0.103626,2.499,2.52183
-0.311927,-0.10288,2.481,2.50265
-0.303874,-0.10288,2.481,2.50166
-0.295821,-0.10288,2.481,2.50069
-0.287769,-0.10288,2.481,2.49975
-0.279716,-0.10288,2.481,2.49884
-0.271663,-0.10288,2.481,2.49795
-0.26361,-0.10288,2.481,2.49709
-0.255558,-0.10288,2.481,2.49625
-0.247505,-0.10288,2.481,2.49544
-0.239452,-0.10288,2.481,2.49465
-0.2314,-0.10288,2.481,2.49389
-0.223347,-0.10288,2.481,2.49316
-0.215294,-0.10288,2.481,2.49245
-0.207241,-0.10288,2.481,2.49177
-0.199189,-0.10288,2.481,2.49111
-0.191136,-0.10288,2.481,2.49048
-0.183083,-0.10288,2.481,2.48987
-0.175031,-0.10288,2.481,2.48929
-0.166978,-0.10288,2.481,2.48874
-0.158925,-0.10288,2.481,2.48821
-0.150872,-0.10288,2.481,2.48771
-0.143856,-0.103626,2.499,2.50528
-0.134767,-0.10288,2.481,2.48679
-0.126714,-0.10288,2.481,2.48636
-0.118662,-0.10288,2.481,2.48597
-0.110609,-0.10288,2.481,2.48559
-0.102556,-0.10288,2.481,2.48525
-0.0945035,-0.10288,2.481,2.48493
-0.0864508,-0.10288,2.481,2.48464
-0.078398,-0.10288,2.481,2.48437
-0.0703453,-0.10288,2.481,2.48413
-0.0622926,-0.10288,2.481,2.48391
-0.0542399,-0.10288,2.481,2.48372
-0.0461872,-0.10288,2.481,2.48356
-0.0381345,-0.10288,2.481,2.48343
-0.0298635,-0.102133,2.463,2.4653
-0.0218693,-0.102133,2.463,2.46521
-0.0139764,-0.10288,2.481,2.48317
-0.00592366,-0.10288,2.481,2.48314
0.0021136,-0.102133,2.463,2.46512
0.0101079,-0.102133,2.463,2.46514
0.0181022,-0.102133,2.463,2.46518
0.0260965,-0.102133,2.463,2.46525
0.0340907,-0.102133,2.463,2.46535
0.042085,-0.102133,2.463,2.46548
0.0500793,-0.102133,2.463,2.46563
0.0576492,-0.101387,2.445,2.44778
0.0655851,-0.101387,2.445,2.44798
0.0735209,-0.101387,2.445,2.44821
0.0814568,-0.101387,2.445,2.44846
0.0893926,-0.101387,2.445,2.44873
0.0973285,-0.101387,2.445,2.44904
0.105264,-0.101387,2.445,2.44936
0.1132,-0.101387,2.445,2.44972
0.121136,-0.101387,2.445,2.4501
0.130022,-0.102133,2.463,2.46854
0.138016,-0.102133,2.463,2.46898
0.146011,-0.102133,2.463,2.46944
0.154005,-0.102133,2.463,2.46992
0.163183,-0.10288,2.481,2.48849
0.171236,-0.10288,2.481,2.48903
0.179289,-0.10288,2.481,2.4896
0.187341,-0.10288,2.481,2.49019
0.196812,-0.103626,2.499,2.50888
0.204923,-0.103626,2.499,2.50953
0.213034,-0.103626,2.499,2.5102
0.221145,-0.103626,2.499,2.51091
0.229256,-0.103626,2.499,2.51163
0.237367,-0.103626,2.499,2.51239
0.245479,-0.103626,2.499,2.51317
0.25359,-0.103626,2.499,2.51397
0.261701,-0.103626,2.499,2.5148
0.269812,-0.103626,2.499,2.51566
0.279925,-0.104373,2.517,2.53467
0.286034,-0.103626,2.499,2.51745
0.294145,-0.103626,2.499,2.51838
0.302256,-0.103626,2.499,2.51934
0.310368,-0.103626,2.499,2.52033
0.318479,-0.103626,2.499,2.52134
0.32659,-0.103626,2.499,2.52238
0.334701,-0.103626,2.499,2.52344
0.342812,-0.103626,2.499,2.52453
0.350923,-0.103626,2.499,2.52565
0.359034,-0.103626,2.499,2.52679
0.364501,-0.10288,2.481,2.50974
0.372554,-0.10288,2.481,2.51092
0.380606,-0.10288,2.481,2.51213
0.388659,-0.10288,2.481,2.51336
0.396712,-0.10288,2.481,2.51462
0.404765,-0.10288,2.481,2.51591
0.409822,-0.102133,2.463,2.49895
0.417816,-0.102133,2.463,2.50027
0.425811,-0.102133,2.463,2.50162
0.433805,-0.102133,2.463,2.503
0.441799,-0.102133,2.463,2.50439
0.446507,-0.101387,2.445,2.4875
0.454442,-0.101387,2.445,2.48894
0.462378,-0.101387,2.445,2.4904
0.470314,-0.101387,2.445,2.49189
0.47825,-0.101387,2.445,2.4934
0.486186,-0.101387,2.445,2.49493
0.490686,-0.100682,2.428,2.47913
0.498567,-0.100682,2.428,2.4807
0.506447,-0.100682,2.428,2.4823
0.514328,-0.100682,2.428,2.48392
0.522209,-0.100682,2.428,2.48556
0.530089,-0.100682,2.428,2.48723
0.53797,-0.100682,2.428,2.48892
0.545851,-0.100682,2.428,2.49064
0.553732,-0.100682,2.428,2.49238
0.561612,-0.100682,2.428,2.49414
0.57348,-0.101387,2.445,2.5134
0.581416,-0.101387,2.445,2.51522
0.589352,-0.101387,2.445,2.51707
0.597288,-0.101387,2.445,2.51894
0.605224,-0.101387,2.445,2.52083
0.617674,-0.102133,2.463,2.54132
0.625668,-0.102133,2.463,2.54328
0.633662,-0.102133,2.463,2.54526
0.641657,-0.102133,2.463,2.54726
0.649651,-0.102133,2.463,2.54928
0.662451,-0.10288,2.481,2.56998
0.670504,-0.10288,2.481,2.57207
0.678557,-0.10288,2.481,2.57418
0.686609,-0.10288,2.481,2.57631
0.694662,-0.10288,2.481,2.57847
0.702715,-0.10288,2.481,2.58065
0.715924,-0.103626,2.499,2.60159
0.724035,-0.103626,2.499,2.60384
0.73742,-0.104373,2.517,2.62488
0.74559,-0.104373,2.517,2.62718
0.753759,-0.104373,2.517,2.62951
0.761929,-0.104373,2.517,2.63187
0.770098,-0.104373,2.517,2.63424
0.778268,-0.104373,2.517,2.63664
0.786437,-0.104373,2.517,2.63907
0.794607,-0.104373,2.517,2.64151
0.802777,-0.104373,2.517,2.64398
0.810946,-0.104373,2.517,2.64647
0.819116,-0.104373,2.517,2.64899
0.827285,-0.104373,2.517,2.65153
0.835455,-0.104373,2.517,2.65409
0.843624,-0.104373,2.517,2.65667
0.851794,-0.104373,2.517,2.65927
0.853814,-0.103626,2.499,2.64287
0.861925,-0.103626,2.499,2.6455
0.870036,-0.103626,2.499,2.64815
0.871822,-0.10288,2.481,2.63173
0.879874,-0.10288,2.481,2.63441
0.887927,-0.10288,2.481,2.63711
0.889479,-0.102133,2.463,2.62068
0.897474,-0.102133,2.463,2.62341
0.905468,-0.102133,2.463,2.62615
0.906787,-0.101387,2.445,2.60971
0.914722,-0.101387,2.445,2.61247
0.922658,-0.101387,2.445,2.61526
0.924124,-0.100682,2.428,2.59987
0.925479,-0.099977,2.411,2.58446
0.933304,-0.099977,2.411,2.58727
0.94113,-0.099977,2.411,2.5901
0.942264,-0.0992721,2.394,2.57468
0.950035,-0.0992721,2.394,2.57753
0.957805,-0.0992721,2.394,2.5804
0.965575,-0.0992721,2.394,2.5833
0.973346,-0.0992721,2.394,2.58621
0.981116,-0.0992721,2.394,2.58915
0.988886,-0.0992721,2.394,2.5921
1.01081,-0.100682,2.428,2.63193
1.03338,-0.102133,2.463,2.67295
1.04137,-0.102133,2.463,2.67605
1.0647,-0.103626,2.499,2.71833
1.09685,-0.105948,2.555,2.78251
1.10515,-0.105948,2.555,2.78579
1.13872,-0.108353,2.613,2.8524
1.17442,-0.110924,2.675,2.92356
1.21141,-0.113578,2.739,2.99709
1.2203,-0.113578,2.739,3.00069
1.25925,-0.116356,2.806,3.07781
1.27876,-0.11731,2.829,3.1068
1.28794,-0.11731,2.829,3.11059
1.30813,-0.118305,2.853,3.14083
1.32847,-0.119301,2.877,3.17115
1.32665,-0.118305,2.853,3.14859
1.33591,-0.118305,2.853,3.1525
1.34517,-0.118305,2.853,3.15644
1.35443,-0.118305,2.853,3.16039
1.36369,-0.118305,2.853,3.16437
1.37295,-0.118305,2.853,3.16837
1.39384,-0.119301,2.877,3.19908
1.40317,-0.119301,2.877,3.20316
1.42429,-0.120296,2.901,3.23402
1.43371,-0.120296,2.901,3.23818
1.44313,-0.120296,2.901,3.24236
1.46506,-0.121333,2.926,3.27454
1.48716,-0.122369,2.951,3.30681
1.49673,-0.122369,2.951,3.31113
1.53285,-0.124525,3.003,3.37389
1.57034,-0.126765,3.057,3.43908
1.60869,-0.129045,3.112,3.50558
1.6188,-0.129045,3.112,3.51023
1.65925,-0.13145,3.17,3.58041
1.68482,-0.132653,3.199,3.61798
1.6952,-0.132653,3.199,3.62283
1.73811,-0.135182,3.26,3.69688
1.78302,-0.137836,3.324,3.77454
1.82888,-0.140532,3.389,3.85356
1.83988,-0.140532,3.389,3.85879
1.85088,-0.140532,3.389,3.86404
1.88056,-0.141942,3.423,3.90814
1.89167,-0.141942,3.423,3.9135
1.88388,-0.140532,3.389,3.87996
1.89488,-0.140532,3.389,3.88531
1.90588,-0.140532,3.389,3.89069
1.89822,-0.139163,3.356,3.85815
1.90911,-0.139163,3.356,3.86352
1.92,-0.139163,3.356,3.86892
1.9309,-0.139163,3.356,3.87433
1.92327,-0.137836,3.324,3.84278
1.93406,-0.137836,3.324,3.84819
1.94485,-0.137836,3.324,3.85362
1.95564,-0.137836,3.324,3.85908
1.96643,-0.137836,3.324,3.86456
1.97722,-0.137836,3.324,3.87006
1.96887,-0.136509,3.292,3.83827
1.97955,-0.136509,3.292,3.84376
1.97089,-0.135182,3.26,3.81186
1.96324,-0.133939,3.23,3.78221
1.97372,-0.133939,3.23,3.78767
1.98421,-0.133939,3.23,3.79314
1.95764,-0.13145,3.17,3.72807
1.96793,-0.13145,3.17,3.73349
1.94202,-0.129045,3.112,3.67051
1.91762,-0.126765,3.057,3.6109
1.92754,-0.126765,3.057,3.61618
1.88676,-0.123447,2.977,3.5267
1.86394,-0.121333,2.926,3.47138
1.84206,-0.119301,2.877,3.41827
1.8514,-0.119301,2.877,3.42331
1.81482,-0.116356,2.806,3.34376
1.79467,-0.11449,2.761,3.29501
1.80364,-0.11449,2.761,3.2999
1.76992,-0.111795,2.696,3.227
1.76482,-0.110924,2.675,3.20664
1.7735,-0.110924,2.675,3.21142
1.7542,-0.109183,2.633,3.16573
1.74936,-0.108353,2.613,3.14639
1.75784,-0.108353,2.613,3.15111
1.73996,-0.106736,2.574,3.10875
1.73541,-0.105948,2.555,3.09045
-1.97922,-0.109048,2.853,3.47402
-1.96996,-0.109048,2.853,3.46875
-1.9607,-0.109048,2.853,3.4635
-1.93502,-0.108131,2.829,3.42918
-1.92584,-0.108131,2.829,3.424
-1.91666,-0.108131,2.829,3.41885
-1.89197,-0.107251,2.806,3.38595
-1.88286,-0.107251,2.806,3.38087
-1.87375,-0.107251,2.806,3.37581
-1.86465,-0.107251,2.806,3.37076
-1.84033,-0.106372,2.783,3.33815
-1.8313,-0.106372,2.783,3.33317
-1.82226,-0.106372,2.783,3.32822
-1.81323,-0.106372,2.783,3.32328
-1.81911,-0.107251,2.806,3.34579
nan,nan,nan,NaN
nan,nan,nan,NaN
nan,nan,nan,NaN
nan,nan,nan,NaN
nan,nan,nan,NaN
-1.76446,-0.107251,2.806,3.31639
-1.75535,-0.107251,2.806,3.31156
-1.74625,-0.107251,2.806,3.30674
-1.73714,-0.107251,2.806,3.30194
-1.7422,-0.108131,2.829,3.32418
-1.73301,-0.108131,2.829,3.31938
-1.72383,-0.108131,2.829,3.31459
-1.71465,-0.108131,2.829,3.30983
-1.70547,-0.108131,2.829,3.30508
-1.69629,-0.108131,2.829,3.30035
-1.6871,-0.108131,2.829,3.29564
-1.69216,-0.109048,2.853,3.31887
-1.6829,-0.109048,2.853,3.31416
-1.67364,-0.109048,2.853,3.30946
-1.66438,-0.109048,2.853,3.30479
-1.65511,-0.109048,2.853,3.30014
-1.64585,-0.109048,2.853,3.2955
nan,nan,nan,NaN
nan,nan,nan,NaN
nan,nan,nan,NaN
nan,nan,nan,NaN
nan,nan,nan,NaN
nan,nan,nan,NaN
nan,nan,nan,NaN
nan,nan,nan,NaN
nan,nan,nan,NaN
nan,nan,nan,NaN
nan,nan,nan,NaN
nan,nan,nan,NaN
nan,nan,nan,NaN
nan,nan,nan,NaN
nan,nan,nan,NaN
nan,nan,nan,NaN
nan,nan,nan,NaN
nan,nan,nan,NaN
nan,nan,nan,NaN
nan,nan,nan,NaN
nan,nan,nan,NaN
nan,nan,nan,NaN
-1.33293,-0.101442,2.654,2.97165
-1.31383,-0.100639,2.633,2.94431
-1.30529,-0.100639,2.633,2.94051
-1.27704,-0.0991101,2.593,2.89211
-1.25933,-0.0983839,2.574,2.86724
-1.25098,-0.0983839,2.574,2.86358
-1.24262,-0.0983839,2.574,2.85994
-1.22516,-0.0976577,2.555,2.83524
-1.21686,-0.0976577,2.555,2.83166
-1.20857,-0.0976577,2.555,2.82811
-1.19135,-0.0969315,2.536,2.80357
-1.16586,-0.0955173,2.499,2.75923
-1.15775,-0.0955173,2.499,2.75581
-1.14964,-0.0955173,2.499,2.75241
-1.1333,-0.0948293,2.481,2.72924
-1.12525,-0.0948293,2.481,2.7259
-1.10909,-0.0941413,2.463,2.70284
-1.09305,-0.0934533,2.445,2.67984
-1.08512,-0.0934533,2.445,2.67661
-1.06969,-0.0928035,2.428,2.65481
-1.06181,-0.0928035,2.428,2.65165
-1.05393,-0.0928035,2.428,2.6485
-1.04605,-0.0928035,2.428,2.64538
-1.03817,-0.0928035,2.428,2.64227
-1.03029,-0.0928035,2.428,2.63918
-1.02241,-0.0928035,2.428,2.63612
-1.01452,-0.0928035,2.428,2.63307
-1.00664,-0.0928035,2.428,2.63004
-0.998763,-0.0928035,2.428,2.62704
-0.990883,-0.0928035,2.428,2.62405
-0.983002,-0.0928035,2.428,2.62109
-0.975121,-0.0928035,2.428,2.61814
-0.967241,-0.0928035,2.428,2.61522
-0.952643,-0.0921537,2.411,2.59402
-0.944817,-0.0921537,2.411,2.59116
-0.936992,-0.0921537,2.411,2.58831
-0.929166,-0.0921537,2.411,2.58549
-0.921341,-0.0921537,2.411,2.58269
-0.913515,-0.0921537,2.411,2.57991
-0.90569,-0.0921537,2.411,2.57715
-0.897864,-0.0921537,2.411,2.57441
-0.890039,-0.0921537,2.411,2.57169
-0.882213,-0.0921537,2.411,2.56899
-0.874388,-0.0921537,2.411,2.56631
-0.866562,-0.0921537,2.411,2.56366
-0.858737,-0.0921537,2.411,2.56102
-0.850911,-0.0921537,2.411,2.55841
-0.843086,-0.0921537,2.411,2.55582
-0.83526,-0.0921537,2.411,2.55325
-0.827435,-0.0921537,2.411,2.5507
-0.819609,-0.0921537,2.411,2.54817
-0.811784,-0.0921537,2.411,2.54566
-0.803958,-0.0921537,2.411,2.54318
-0.796133,-0.0921537,2.411,2.54072
-0.793866,-0.0928035,2.428,2.55617
-0.785985,-0.0928035,2.428,2.55374
-0.778104,-0.0928035,2.428,2.55132
-0.770224,-0.0928035,2.428,2.54893
-0.762343,-0.0928035,2.428,2.54656
-0.754462,-0.0928035,2.428,2.54421
-0.751809,-0.0934533,2.445,2.55968
-0.743873,-0.0934533,2.445,2.55736
-0.735937,-0.0934533,2.445,2.55507
-0.728001,-0.0934533,2.445,2.55279
-0.720065,-0.0934533,2.445,2.55054
-0.712129,-0.0934533,2.445,2.54831
-0.704194,-0.0934533,2.445,2.5461
-0.696258,-0.0934533,2.445,2.54392
-0.688322,-0.0934533,2.445,2.54176
-0.680386,-0.0934533,2.445,2.53962
-0.67245,-0.0934533,2.445,2.53751
-0.664514,-0.0934533,2.445,2.53542
-0.656578,-0.0934533,2.445,2.53335
-0.648643,-0.0934533,2.445,2.5313
-0.640707,-0.0934533,2.445,2.52928
-0.632771,-0.0934533,2.445,2.52728
-0.620491,-0.0928035,2.428,2.50775
-0.61261,-0.0928035,2.428,2.50581
-0.604729,-0.0928035,2.428,2.5039
-0.596848,-0.0928035,2.428,2.502
-0.588968,-0.0928035,2.428,2.50014
-0.581087,-0.0928035,2.428,2.49829
-0.573206,-0.0928035,2.428,2.49647
-0.565326,-0.0928035,2.428,2.49467
-0.557445,-0.0928035,2.428,2.4929
-0.549564,-0.0928035,2.428,2.49115
-0.541684,-0.0928035,2.428,2.48942
-0.533803,-0.0928035,2.428,2.48772
-0.525922,-0.0928035,2.428,2.48604
-0.518042,-0.0928035,2.428,2.48438
-0.513733,-0.0934533,2.445,2.50014
-0.505797,-0.0934533,2.445,2.49852
-0.497861,-0.0934533,2.445,2.49692
-0.493532,-0.0941413,2.463,2.51372
-0.485538,-0.0941413,2.463,2.51217
-0.477544,-0.0941413,2.463,2.51063
-0.469549,-0.0941413,2.463,2.50912
-0.461555,-0.0941413,2.463,2.50764
-0.453561,-0.0941413,2.463,2.50618
-0.445566,-0.0941413,2.463,2.50475
-0.437572,-0.0941413,2.463,2.50334
-0.429578,-0.0941413,2.463,2.50195
-0.421584,-0.0941413,2.463,2.50059
-0.416612,-0.0948293,2.481,2.51752
-0.408559,-0.0948293,2.481,2.5162
-0.400506,-0.0948293,2.481,2.51491
-0.392454,-0.0948293,2.481,2.51364
-0.384401,-0.0948293,2.481,2.51239
-0.376348,-0.0948293,2.481,2.51117
-0.368296,-0.0948293,2.481,2.50998
-0.362857,-0.0955173,2.499,2.52701
-0.354745,-0.0955173,2.499,2.52586
-0.346634,-0.0955173,2.499,2.52473
-0.338523,-0.0955173,2.499,2.52363
-0.330412,-0.0955173,2.499,2.52256
-0.322301,-0.0955173,2.499,2.52151
-0.31419,-0.0955173,2.499,2.52048
-0.306079,-0.0955173,2.499,2.51949
-0.295821,-0.0948293,2.481,2.50037
-0.287769,-0.0948293,2.481,2.49943
-0.279716,-0.0948293,2.481,2.49852
-0.271663,-0.0948293,2.481,2.49763
-0.26361,-0.0948293,2.481,2.49677
-0.255558,-0.0948293,2.481,2.49593
-0.247505,-0.0948293,2.481,2.49512
-0.239452,-0.0948293,2.481,2.49433
-0.2314,-0.0948293,2.481,2.49357
-0.223347,-0.0948293,2.481,2.49284
-0.215294,-0.0948293,2.481,2.49213
-0.207241,-0.0948293,2.481,2.49145
-0.199189,-0.0948293,2.481,2.49079
-0.191136,-0.0948293,2.481,2.49016
-0.183083,-0.0948293,2.481,2.48955
-0.175031,-0.0948293,2.481,2.48897
-0.166978,-0.0948293,2.481,2.48842
-0.158925,-0.0948293,2.481,2.48789
-0.150872,-0.0948293,2.481,2.48739
-0.143856,-0.0955173,2.499,2.50496
-0.135745,-0.0955173,2.499,2.50451
-0.126714,-0.0948293,2.481,2.48604
-0.118662,-0.0948293,2.481,2.48565
-0.110609,-0.0948293,2.481,2.48527
-0.102556,-0.0948293,2.481,2.48493
-0.0945035,-0.0948293,2.481,2.48461
-0.0864508,-0.0948293,2.481,2.48432
-0.078398,-0.0948293,2.481,2.48405
-0.0703453,-0.0948293,2.481,2.48381
-0.0622926,-0.0948293,2.481,2.48359
-0.0542399,-0.0948293,2.481,2.4834
-0.0461872,-0.0948293,2.481,2.48324
-0.0381345,-0.0948293,2.481,2.4831
-0.0298635,-0.0941413,2.463,2.46498
-0.0218693,-0.0941413,2.463,2.4649
-0.0139764,-0.0948293,2.481,2.48285
-0.00592366,-0.0948293,2.481,2.48282
0.0021136,-0.0941413,2.463,2.4648
0.0101079,-0.0941413,2.463,2.46482
0.0181022,-0.0941413,2.463,2.46486
0.0260965,-0.0941413,2.463,2.46494
0.0340907,-0.0941413,2.463,2.46503
0.042085,-0.0941413,2.463,2.46516
0.0500793,-0.0941413,2.463,2.46531
0.0576492,-0.0934533,2.445,2.44746
0.0655851,-0.0934533,2.445,2.44766
0.0735209,-0.0934533,2.445,2.44789
0.0814568,-0.0934533,2.445,2.44814
0.0893926,-0.0934533,2.445,2.44842
0.0973285,-0.0934533,2.445,2.44872
0.105264,-0.0934533,2.445,2.44905
0.1132,-0.0934533,2.445,2.4494
0.121136,-0.0934533,2.445,2.44978
0.129072,-0.0934533,2.445,2.45019
0.138016,-0.0941413,2.463,2.46866
0.146011,-0.0941413,2.463,2.46912
0.154005,-0.0941413,2.463,2.4696
0.161999,-0.0941413,2.463,2.47012
0.171236,-0.0948293,2.481,2.48871
0.179289,-0.0948293,2.481,2.48928
0.187341,-0.0948293,2.481,2.48987
0.196812,-0.0955173,2.499,2.50856
0.204923,-0.0955173,2.499,2.50921
0.213034,-0.0955173,2.499,2.50988
0.221145,-0.0955173,2.499,2.51058
0.229256,-0.0955173,2.499,2.51131
0.237367,-0.0955173,2.499,2.51206
0.245479,-0.0955173,2.499,2.51284
0.25359,-0.0955173,2.499,2.51365
0.261701,-0.0955173,2.499,2.51448
0.269812,-0.0955173,2.499,2.51534
0.279925,-0.0962052,2.517,2.53434
0.286034,-0.0955173,2.499,2.51713
0.294145,-0.0955173,2.499,2.51806
0.302256,-0.0955173,2.499,2.51902
0.310368,-0.0955173,2.499,2.52001
0.318479,-0.0955173,2.499,2.52102
0.32659,-0.0955173,2.499,2.52206
0.334701,-0.0955173,2.499,2.52312
0.342812,-0.0955173,2.499,2.52421
0.350923,-0.0955173,2.499,2.52533
0.359034,-0.0955173,2.499,2.52647
0.367146,-0.0955173,2.499,2.52763
0.372554,-0.0948293,2.481,2.51061
0.380606,-0.0948293,2.481,2.51182
0.388659,-0.0948293,2.481,2.51305
0.396712,-0.0948293,2.481,2.51431
0.404765,-0.0948293,2.481,2.51559
0.409822,-0.0941413,2.463,2.49864
0.417816,-0.0941413,2.463,2.49996
0.425811,-0.0941413,2.463,2.50131
0.433805,-0.0941413,2.463,2.50268
0.441799,-0.0941413,2.463,2.50408
0.449794,-0.0941413,2.463,2.5055
0.457788,-0.0941413,2.463,2.50695
0.462378,-0.0934533,2.445,2.49009
0.470314,-0.0934533,2.445,2.49158
0.47825,-0.0934533,2.445,2.49309
0.486186,-0.0934533,2.445,2.49462
0.494122,-0.0934533,2.445,2.49618
0.502058,-0.0934533,2.445,2.49776
0.506447,-0.0928035,2.428,2.48199
0.514328,-0.0928035,2.428,2.48361
0.522209,-0.0928035,2.428,2.48526
0.533801,-0.0934533,2.445,2.50434
0.541737,-0.0934533,2.445,2.50604
0.549673,-0.0934533,2.445,2.50777
0.557609,-0.0934533,2.445,2.50952
0.565544,-0.0934533,2.445,2.51129
0.577702,-0.0941413,2.463,2.53159
0.585697,-0.0941413,2.463,2.53343
0.593691,-0.0941413,2.463,2.53529
0.601685,-0.0941413,2.463,2.53717
0.609679,-0.0941413,2.463,2.53908
0.617674,-0.0941413,2.463,2.54101
0.625668,-0.0941413,2.463,2.54297
0.638293,-0.0948293,2.481,2.56355
0.646346,-0.0948293,2.481,2.56556
0.654399,-0.0948293,2.481,2.5676
0.662451,-0.0948293,2.481,2.56967
0.670504,-0.0948293,2.481,2.57176
0.678557,-0.0948293,2.481,2.57387
0.691591,-0.0955173,2.499,2.59469
0.699702,-0.0955173,2.499,2.59686
0.707813,-0.0955173,2.499,2.59906
0.715924,-0.0955173,2.499,2.60128
0.729251,-0.0962052,2.517,2.62228
0.73742,-0.0962052,2.517,2.62456
0.74559,-0.0962052,2.517,2.62687
0.753759,-0.0962052,2.517,2.6292
0.761929,-0.0962052,2.517,2.63155
0.770098,-0.0962052,2.517,2.63393
0.778268,-0.0962052,2.517,2.63633
0.792374,-0.0969315,2.536,2.65867
0.800605,-0.0969315,2.536,2.66114
0.808836,-0.0969315,2.536,2.66363
0.817068,-0.0969315,2.536,2.66614
0.825299,-0.0969315,2.536,2.66867
0.83353,-0.0969315,2.536,2.67123
0.841761,-0.0969315,2.536,2.67381
0.849993,-0.0969315,2.536,2.67641
0.851794,-0.0962052,2.517,2.65897
0.859963,-0.0962052,2.517,2.66159
0.868133,-0.0962052,2.517,2.66424
0.876303,-0.0962052,2.517,2.66692
0.878147,-0.0955173,2.499,2.65052
0.886258,-0.0955173,2.499,2.65322
0.894369,-0.0955173,2.499,2.65594
0.89598,-0.0948293,2.481,2.63953
0.904033,-0.0948293,2.481,2.64228
0.905468,-0.0941413,2.463,2.62585
0.906787,-0.0934533,2.445,2.60941
0.914722,-0.0934533,2.445,2.61218
0.922658,-0.0934533,2.445,2.61497
0.924124,-0.0928035,2.428,2.59958
0.925479,-0.0921537,2.411,2.58417
0.933304,-0.0921537,2.411,2.58698
0.94113,-0.0921537,2.411,2.58981
0.942264,-0.0915039,2.394,2.57439
0.950035,-0.0915039,2.394,2.57724
0.957805,-0.0915039,2.394,2.58012
0.965575,-0.0915039,2.394,2.58301
0.973346,-0.0915039,2.394,2.58593
0.981116,-0.0915039,2.394,2.58886
0.988886,-0.0915039,2.394,2.59181
1.01789,-0.0934533,2.445,2.65007
1.03338,-0.0941413,2.463,2.67266
1.04137,-0.0941413,2.463,2.67576
1.0647,-0.0955173,2.499,2.71804
1.09685,-0.0976577,2.555,2.7822
1.10515,-0.0976577,2.555,2.78548
1.13872,-0.0998746,2.613,2.85209
1.17442,-0.102244,2.675,2.92324
1.21141,-0.104691,2.739,2.99676
1.2203,-0.104691,2.739,3.00037
1.25925,-0.107251,2.806,3.07748
1.27876,-0.108131,2.829,3.10647
1.28794,-0.108131,2.829,3.11026
1.30813,-0.109048,2.853,3.14049
1.32847,-0.109965,2.877,3.17081
1.32665,-0.109048,2.853,3.14825
1.33591,-0.109048,2.853,3.15217
1.34517,-0.109048,2.853,3.1561
1.35443,-0.109048,2.853,3.16006
1.36369,-0.109048,2.853,3.16404
1.37295,-0.109048,2.853,3.16804
1.39384,-0.109965,2.877,3.19875
1.40317,-0.109965,2.877,3.20283
1.42429,-0.110883,2.901,3.23368
1.43371,-0.110883,2.901,3.23784
1.44313,-0.110883,2.901,3.24202
1.46506,-0.111838,2.926,3.2742
1.48716,-0.112794,2.951,3.30647
1.49673,-0.112794,2.951,3.31079
1.53285,-0.114781,3.003,3.37355
1.57034,-0.116845,3.057,3.43873
1.60869,-0.118947,3.112,3.50522
1.6188,-0.118947,3.112,3.50987
1.65925,-0.121164,3.17,3.58004
1.68482,-0.122273,3.199,3.61762
1.6952,-0.122273,3.199,3.62247
1.73811,-0.124604,3.26,3.6965
1.78302,-0.127051,3.324,3.77416
1.82888,-0.129535,3.389,3.85317
1.83988,-0.129535,3.389,3.8584
1.85088,-0.129535,3.389,3.86366
1.88056,-0.130835,3.423,3.90776
1.89167,-0.130835,3.423,3.91312
1.88388,-0.129535,3.389,3.87958
1.89488,-0.129535,3.389,3.88493
1.90588,-0.129535,3.389,3.89031
1.89822,-0.128274,3.356,3.85777
1.90911,-0.128274,3.356,3.86315
1.92,-0.128274,3.356,3.86854
1.9309,-0.128274,3.356,3.87396
1.92327,-0.127051,3.324,3.84241
1.93406,-0.127051,3.324,3.84782
1.94485,-0.127051,3.324,3.85325
1.95564,-0.127051,3.324,3.85871
1.96643,-0.127051,3.324,3.86419
1.95818,-0.125827,3.292,3.83244
1.94973,-0.124604,3.26,3.8006
1.96031,-0.124604,3.26,3.80604
1.95275,-0.123458,3.23,3.77643
1.9444,-0.122273,3.199,3.74556
1.95478,-0.122273,3.199,3.75096
1.94735,-0.121164,3.17,3.72233
1.92182,-0.118947,3.112,3.65952
1.93192,-0.118947,3.112,3.66483
1.9077,-0.116845,3.057,3.6053
1.90068,-0.115813,3.03,3.57867
1.91052,-0.115813,3.03,3.58391
1.88676,-0.113787,2.977,3.52638
1.86394,-0.111838,2.926,3.47106
1.84206,-0.109965,2.877,3.41795
1.8514,-0.109965,2.877,3.423
1.81482,-0.107251,2.806,3.34346
1.79467,-0.105531,2.761,3.29471
1.80364,-0.105531,2.761,3.2996
1.76992,-0.103047,2.696,3.22671
1.76482,-0.102244,2.675,3.20635
1.7735,-0.102244,2.675,3.21114
1.7542,-0.100639,2.633,3.16545
1.73597,-0.0991101,2.593,3.12203
1.74439,-0.0991101,2.593,3.12672
1.73996,-0.0983839,2.574,3.10847
1.7225,-0.0969315,2.536,3.0672
-1.97922,-0.0997904,2.853,3.47374
-1.95339,-0.0989509,2.829,3.4393
-1.94421,-0.0989509,2.829,3.43409
-1.91929,-0.0981465,2.806,3.40102
-1.91018,-0.0981465,2.806,3.39589
-1.90108,-0.0981465,2.806,3.39078
-1.89197,-0.0981465,2.806,3.38568
-1.86743,-0.097342,2.783,3.35289
-1.85839,-0.097342,2.783,3.34786
-1.84936,-0.097342,2.783,3.34286
-1.85554,-0.0981465,2.806,3.36546
-1.84643,-0.0981465,2.806,3.36044
-1.83732,-0.0981465,2.806,3.35545
-1.82822,-0.0981465,2.806,3.35047
-1.81911,-0.0981465,2.806,3.34551
-1.82484,-0.0989509,2.829,3.36795
-1.81565,-0.0989509,2.829,3.36298
nan,nan,nan,NaN
nan,nan,nan,NaN
nan,nan,nan,NaN
nan,nan,nan,NaN
-1.78476,-0.0997904,2.853,3.36674
-1.76056,-0.0989509,2.829,3.33356
-1.75138,-0.0989509,2.829,3.32872
-1.7422,-0.0989509,2.829,3.3239
-1.74772,-0.0997904,2.853,3.34725
-1.73846,-0.0997904,2.853,3.34242
-1.7292,-0.0997904,2.853,3.33762
-1.71994,-0.0997904,2.853,3.33283
-1.71068,-0.0997904,2.853,3.32806
-1.70142,-0.0997904,2.853,3.32331
-1.69216,-0.0997904,2.853,3.31858
-1.6829,-0.0997904,2.853,3.31387
-1.67364,-0.0997904,2.853,3.30917
-1.66438,-0.0997904,2.853,3.3045
-1.65511,-0.0997904,2.853,3.29984
-1.64585,-0.0997904,2.853,3.29521
nan,nan,nan,NaN
nan,nan,nan,NaN
nan,nan,nan,NaN
nan,nan,nan,NaN
nan,nan,nan,NaN
nan,nan,nan,NaN
nan,nan,nan,NaN
nan,nan,nan,NaN
nan,nan,nan,NaN
nan,nan,nan,NaN
nan,nan,nan,NaN
nan,nan,nan,NaN
nan,nan,nan,NaN
nan,nan,nan,NaN
nan,nan,nan,NaN
nan,nan,nan,NaN
nan,nan,nan,NaN
nan,nan,nan,NaN
nan,nan,nan,NaN
nan,nan,nan,NaN
nan,nan,nan,NaN
nan,nan,nan,NaN
nan,nan,nan,NaN
nan,nan,nan,NaN
nan,nan,nan,NaN
-1.26769,-0.0900317,2.574,2.87065
-1.25003,-0.0893671,2.555,2.8458
-1.24174,-0.0893671,2.555,2.84217
-1.23345,-0.0893671,2.555,2.83856
-1.22516,-0.0893671,2.555,2.83496
-1.21686,-0.0893671,2.555,2.83139
-1.19958,-0.0887026,2.536,2.80681
-1.18243,-0.088038,2.517,2.7823
-1.16586,-0.0874084,2.499,2.75896
-1.15775,-0.0874084,2.499,2.75554
-1.14136,-0.0867788,2.481,2.73232
-1.12508,-0.0861492,2.463,2.70917
-1.11709,-0.0861492,2.463,2.70586
-1.10909,-0.0861492,2.463,2.70257
-1.09305,-0.0855196,2.445,2.67957
-1.08512,-0.0855196,2.445,2.67634
-1.07718,-0.0855196,2.445,2.67314
-1.06181,-0.084925,2.428,2.65138
-1.05393,-0.084925,2.428,2.64824
-1.04605,-0.084925,2.428,2.64511
-1.03817,-0.084925,2.428,2.642
-1.03029,-0.084925,2.428,2.63892
-1.02241,-0.084925,2.428,2.63585
-1.01452,-0.084925,2.428,2.6328
-1.00664,-0.084925,2.428,2.62978
-0.998763,-0.084925,2.428,2.62677
-0.990883,-0.084925,2.428,2.62378
-0.983002,-0.084925,2.428,2.62082
-0.975121,-0.084925,2.428,2.61787
-0.967241,-0.084925,2.428,2.61495
-0.952643,-0.0843304,2.411,2.59375
-0.944817,-0.0843304,2.411,2.59089
-0.936992,-0.0843304,2.411,2.58805
-0.929166,-0.0843304,2.411,2.58522
-0.921341,-0.0843304,2.411,2.58242
-0.913515,-0.0843304,2.411,2.57964
-0.90569,-0.0843304,2.411,2.57688
-0.897864,-0.0843304,2.411,2.57414
-0.890039,-0.0843304,2.411,2.57142
-0.882213,-0.0843304,2.411,2.56872
-0.874388,-0.0843304,2.411,2.56605
-0.866562,-0.0843304,2.411,2.56339
-0.858737,-0.0843304,2.411,2.56075
-0.850911,-0.0843304,2.411,2.55814
-0.843086,-0.0843304,2.411,2.55555
-0.83526,-0.0843304,2.411,2.55298
-0.827435,-0.0843304,2.411,2.55043
-0.819609,-0.0843304,2.411,2.5479
-0.811784,-0.0843304,2.411,2.54539
-0.803958,-0.0843304,2.411,2.54291
-0.796133,-0.0843304,2.411,2.54044
-0.793866,-0.084925,2.428,2.5559
-0.785985,-0.084925,2.428,2.55346
-0.778104,-0.084925,2.428,2.55105
-0.770224,-0.084925,2.428,2.54865
-0.762343,-0.084925,2.428,2.54628
-0.754462,-0.084925,2.428,2.54394
-0.751809,-0.0855196,2.445,2.55941
-0.743873,-0.0855196,2.445,2.55709
-0.735937,-0.0855196,2.445,2.55479
-0.728001,-0.0855196,2.445,2.55251
-0.720065,-0.0855196,2.445,2.55026
-0.712129,-0.0855196,2.445,2.54803
-0.704194,-0.0855196,2.445,2.54583
-0.696258,-0.0855196,2.445,2.54364
-0.688322,-0.0855196,2.445,2.54148
-0.680386,-0.0855196,2.445,2.53934
-0.67245,-0.0855196,2.445,2.53723
-0.664514,-0.0855196,2.445,2.53514
-0.656578,-0.0855196,2.445,2.53307
-0.648643,-0.0855196,2.445,2.53102
-0.640707,-0.0855196,2.445,2.529
-0.632771,-0.0855196,2.445,2.527
-0.624835,-0.0855196,2.445,2.52503
-0.616899,-0.0855196,2.445,2.52307
-0.608963,-0.0855196,2.445,2.52115
-0.601027,-0.0855196,2.445,2.51924
-0.588968,-0.084925,2.428,2.49986
-0.581087,-0.084925,2.428,2.49801
-0.573206,-0.084925,2.428,2.49619
-0.565326,-0.084925,2.428,2.49439
-0.557445,-0.084925,2.428,2.49262
-0.549564,-0.084925,2.428,2.49087
-0.541684,-0.084925,2.428,2.48914
-0.533803,-0.084925,2.428,2.48744
-0.525922,-0.084925,2.428,2.48576
-0.518042,-0.084925,2.428,2.4841
-0.513733,-0.0855196,2.445,2.49985
-0.505797,-0.0855196,2.445,2.49823
-0.497861,-0.0855196,2.445,2.49664
-0.493532,-0.0861492,2.463,2.51344
-0.485538,-0.0861492,2.463,2.51188
-0.474054,-0.0855196,2.445,2.492
-0.466118,-0.0855196,2.445,2.4905
-0.461555,-0.0861492,2.463,2.50735
-0.453561,-0.0861492,2.463,2.50589
-0.445566,-0.0861492,2.463,2.50446
-0.437572,-0.0861492,2.463,2.50305
-0.429578,-0.0861492,2.463,2.50167
-0.421584,-0.0861492,2.463,2.5003
-0.413589,-0.0861492,2.463,2.49897
-0.408559,-0.0867788,2.481,2.51591
-0.400506,-0.0867788,2.481,2.51462
-0.392454,-0.0867788,2.481,2.51335
-0.384401,-0.0867788,2.481,2.5121
-0.376348,-0.0867788,2.481,2.51088
-0.368296,-0.0867788,2.481,2.50969
-0.360243,-0.0867788,2.481,2.50852
-0.35219,-0.0867788,2.481,2.50738
-0.346634,-0.0874084,2.499,2.52444
-0.338523,-0.0874084,2.499,2.52334
-0.330412,-0.0874084,2.499,2.52226
-0.322301,-0.0874084,2.499,2.52121
-0.31419,-0.0874084,2.499,2.52019
-0.306079,-0.0874084,2.499,2.51919
-0.295821,-0.0867788,2.481,2.50008
-0.287769,-0.0867788,2.481,2.49914
-0.279716,-0.0867788,2.481,2.49823
-0.271663,-0.0867788,2.481,2.49734
-0.26361,-0.0867788,2.481,2.49647
-0.255558,-0.0867788,2.481,2.49564
-0.247505,-0.0867788,2.481,2.49482
-0.239452,-0.0867788,2.481,2.49404
-0.2314,-0.0867788,2.481,2.49328
-0.223347,-0.0867788,2.481,2.49254
-0.215294,-0.0867788,2.481,2.49184
-0.207241,-0.0867788,2.481,2.49115
-0.199189,-0.0867788,2.481,2.4905
-0.191136,-0.0867788,2.481,2.48986
-0.183083,-0.0867788,2.481,2.48926
-0.175031,-0.0867788,2.481,2.48868
-0.166978,-0.0867788,2.481,2.48813
-0.158925,-0.0867788,2.481,2.4876
-0.150872,-0.0867788,2.481,2.4871
-0.14282,-0.0867788,2.481,2.48662
-0.134767,-0.0867788,2.481,2.48617
-0.126714,-0.0867788,2.481,2.48575
-0.118662,-0.0867788,2.481,2.48535
-0.110609,-0.0867788,2.481,2.48498
-0.102556,-0.0867788,2.481,2.48463
-0.0945035,-0.0867788,2.481,2.48432
-0.0864508,-0.0867788,2.481,2.48402
-0.078398,-0.0867788,2.481,2.48375
-0.0703453,-0.0867788,2.481,2.48351
-0.0622926,-0.0867788,2.481,2.4833
-0.0542399,-0.0867788,2.481,2.48311
-0.0461872,-0.0867788,2.481,2.48295
-0.0381345,-0.0867788,2.481,2.48281
-0.0300818,-0.0867788,2.481,2.4827
-0.0220291,-0.0867788,2.481,2.48261
-0.0139764,-0.0867788,2.481,2.48256
-0.00592366,-0.0867788,2.481,2.48252
0.00212905,-0.0867788,2.481,2.48252
0.0101818,-0.0867788,2.481,2.48254
0.0181022,-0.0861492,2.463,2.46457
0.0260965,-0.0861492,2.463,2.46464
0.0340907,-0.0861492,2.463,2.46474
0.042085,-0.0861492,2.463,2.46487
0.0500793,-0.0861492,2.463,2.46501
0.0576492,-0.0855196,2.445,2.44717
0.0655851,-0.0855196,2.445,2.44737
0.0735209,-0.0855196,2.445,2.4476
0.0814568,-0.0855196,2.445,2.44785
0.0893926,-0.0855196,2.445,2.44813
0.0973285,-0.0855196,2.445,2.44843
0.105264,-0.0855196,2.445,2.44876
0.1132,-0.0855196,2.445,2.44911
0.121136,-0.0855196,2.445,2.44949
0.129072,-0.0855196,2.445,2.4499
0.138016,-0.0861492,2.463,2.46837
0.146011,-0.0861492,2.463,2.46883
0.154005,-0.0861492,2.463,2.46931
0.161999,-0.0861492,2.463,2.46982
0.171236,-0.0867788,2.481,2.48842
0.179289,-0.0867788,2.481,2.48898
0.187341,-0.0867788,2.481,2.48958
0.196812,-0.0874084,2.499,2.50826
0.204923,-0.0874084,2.499,2.50891
0.213034,-0.0874084,2.499,2.50959
0.221145,-0.0874084,2.499,2.51029
0.229256,-0.0874084,2.499,2.51102
0.237367,-0.0874084,2.499,2.51177
0.247247,-0.088038,2.517,2.53065
0.255416,-0.088038,2.517,2.53146
0.263586,-0.088038,2.517,2.53229
0.271755,-0.088038,2.517,2.53316
0.279925,-0.088038,2.517,2.53405
0.286034,-0.0874084,2.499,2.51683
0.294145,-0.0874084,2.499,2.51777
0.304434,-0.088038,2.517,2.53687
0.312603,-0.088038,2.517,2.53787
0.320773,-0.088038,2.517,2.53888
0.328942,-0.088038,2.517,2.53993
0.337112,-0.088038,2.517,2.541
0.342812,-0.0874084,2.499,2.52392
0.350923,-0.0874084,2.499,2.52503
0.359034,-0.0874084,2.499,2.52617
0.367146,-0.0874084,2.499,2.52734
0.372554,-0.0867788,2.481,2.51032
0.380606,-0.0867788,2.481,2.51152
0.388659,-0.0867788,2.481,2.51276
0.396712,-0.0867788,2.481,2.51402
0.404765,-0.0867788,2.481,2.5153
0.409822,-0.0861492,2.463,2.49835
0.417816,-0.0861492,2.463,2.49967
0.425811,-0.0861492,2.463,2.50102
0.433805,-0.0861492,2.463,2.50239
0.441799,-0.0861492,2.463,2.50379
0.449794,-0.0861492,2.463,2.50522
0.457788,-0.0861492,2.463,2.50666
0.465782,-0.0861492,2.463,2.50814
0.470314,-0.0855196,2.445,2.49129
0.47825,-0.0855196,2.445,2.4928
0.486186,-0.0855196,2.445,2.49434
0.494122,-0.0855196,2.445,2.4959
0.502058,-0.0855196,2.445,2.49748
0.509993,-0.0855196,2.445,2.49909
0.517929,-0.0855196,2.445,2.50072
0.525865,-0.0855196,2.445,2.50237
0.533801,-0.0855196,2.445,2.50405
0.541737,-0.0855196,2.445,2.50576
0.553719,-0.0861492,2.463,2.52594
0.561714,-0.0861492,2.463,2.52771
0.569708,-0.0861492,2.463,2.5295
0.577702,-0.0861492,2.463,2.53131
0.589977,-0.0867788,2.481,2.55166
0.59803,-0.0867788,2.481,2.55353
0.606082,-0.0867788,2.481,2.55543
0.614135,-0.0867788,2.481,2.55735
0.622188,-0.0867788,2.481,2.5593
0.63024,-0.0867788,2.481,2.56127
0.642924,-0.0874084,2.499,2.58186
0.651035,-0.0874084,2.499,2.58389
0.659146,-0.0874084,2.499,2.58595
0.667257,-0.0874084,2.499,2.58803
0.675369,-0.0874084,2.499,2.59013
0.68348,-0.0874084,2.499,2.59226
0.691591,-0.0874084,2.499,2.59441
0.704742,-0.088038,2.517,2.61528
0.712911,-0.088038,2.517,2.6175
0.721081,-0.088038,2.517,2.61973
0.729251,-0.088038,2.517,2.62199
0.73742,-0.088038,2.517,2.62428
0.74559,-0.088038,2.517,2.62658
0.753759,-0.088038,2.517,2.62892
0.761929,-0.088038,2.517,2.63127
0.770098,-0.088038,2.517,2.63365
0.784143,-0.0887026,2.536,2.65595
0.792374,-0.0887026,2.536,2.65839
0.800605,-0.0887026,2.536,2.66085
0.808836,-0.0887026,2.536,2.66334
0.817068,-0.0887026,2.536,2.66585
0.825299,-0.0887026,2.536,2.66839
0.83353,-0.0887026,2.536,2.67094
0.841761,-0.0887026,2.536,2.67352
0.849993,-0.0887026,2.536,2.67613
0.858224,-0.0887026,2.536,2.67875
0.859963,-0.088038,2.517,2.66131
0.868133,-0.088038,2.517,2.66396
0.876303,-0.088038,2.517,2.66664
0.878147,-0.0874084,2.499,2.65024
0.886258,-0.0874084,2.499,2.65294
0.894369,-0.0874084,2.499,2.65566
0.89598,-0.0867788,2.481,2.63926
0.904033,-0.0867788,2.481,2.642
