-0.5452,-0.104373,2.517,2.57748
-0.541085,-0.10516,2.536,2.59521
-0.532853,-0.10516,2.536,2.59351
-0.524622,-0.10516,2.536,2.59183
-0.516391,-0.10516,2.536,2.59018
-0.50816,-0.10516,2.536,2.58855
-0.499929,-0.10516,2.536,2.58694
-0.491697,-0.10516,2.536,2.58537
-0.483466,-0.10516,2.536,2.58381
-0.475235,-0.10516,2.536,2.58229
-0.467004,-0.10516,2.536,2.58078
-0.455335,-0.104373,2.517,2.55998
-0.447166,-0.104373,2.517,2.55854
-0.438996,-0.104373,2.517,2.55713
-0.430827,-0.104373,2.517,2.55574
-0.422657,-0.104373,2.517,2.55437
-0.414487,-0.104373,2.517,2.55303
-0.406318,-0.104373,2.517,2.55172
-0.398148,-0.104373,2.517,2.55043
-0.389979,-0.104373,2.517,2.54917
-0.379079,-0.103626,2.499,2.52971
-0.370968,-0.103626,2.499,2.52851
-0.362857,-0.103626,2.499,2.52733
-0.354745,-0.103626,2.499,2.52618
-0.346634,-0.103626,2.499,2.52505
-0.338523,-0.103626,2.499,2.52395
-0.330412,-0.103626,2.499,2.52288
-0.322301,-0.103626,2.499,2.52183
-0.311927,-0.10288,2.481,2.50265
-0.303874,-0.10288,2.481,2.50166
-0.295821,-0.10288,2.481,2.50069
-0.287769,-0.10288,2.481,2.49975
-0.279716,-0.10288,2.481,2.49884
-0.271663,-0.10288,2.481,2.49795
-0.261698,-0.102133,2.463,2.47897
-0.253704,-0.102133,2.463,2.47814
-0.245709,-0.102133,2.463,2.47733
-0.237715,-0.102133,2.463,2.47655
-0.229721,-0.102133,2.463,2.4758
-0.223347,-0.10288,2.481,2.49316
-0.213732,-0.102133,2.463,2.47436
-0.205738,-0.102133,2.463,2.47369
-0.197744,-0.102133,2.463,2.47304
-0.189749,-0.102133,2.463,2.47241
-0.181755,-0.102133,2.463,2.47181
-0.173761,-0.102133,2.463,2.47123
-0.165766,-0.102133,2.463,2.47068
-0.157772,-0.102133,2.463,2.47016
-0.148683,-0.101387,2.445,2.45161
-0.140747,-0.101387,2.445,2.45115
-0.132812,-0.101387,2.445,2.4507
-0.124876,-0.101387,2.445,2.45029
-0.11694,-0.101387,2.445,2.44989
-0.109004,-0.101387,2.445,2.44953
-0.101068,-0.101387,2.445,2.44919
-0.0931322,-0.101387,2.445,2.44887
-0.0851963,-0.101387,2.445,2.44858
-0.0772605,-0.101387,2.445,2.44832
-0.0693246,-0.101387,2.445,2.44808
-0.0613887,-0.101387,2.445,2.44787
-0.0534529,-0.101387,2.445,2.44769
-0.045517,-0.101387,2.445,2.44752
-0.0375812,-0.101387,2.445,2.44739
-0.0296453,-0.101387,2.445,2.44728
-0.0217094,-0.101387,2.445,2.4472
-0.0137736,-0.101387,2.445,2.44714
-0.00583771,-0.101387,2.445,2.44711
0.00209816,-0.101387,2.445,2.4471
0.010034,-0.101387,2.445,2.44712
0.0179699,-0.101387,2.445,2.44717
0.0257256,-0.100682,2.428,2.43022
0.0336063,-0.100682,2.428,2.43032
0.041487,-0.100682,2.428,2.43044
0.0493677,-0.100682,2.428,2.43059
0.0572484,-0.100682,2.428,2.43076
0.065129,-0.100682,2.428,2.43096
0.0724985,-0.099977,2.411,2.41416
0.0803241,-0.099977,2.411,2.41441
0.0881496,-0.099977,2.411,2.41468
0.0959751,-0.099977,2.411,2.41498
0.103801,-0.099977,2.411,2.4153
0.111626,-0.099977,2.411,2.41565
0.119452,-0.099977,2.411,2.41603
0.127277,-0.099977,2.411,2.41643
0.135103,-0.099977,2.411,2.41685
0.142928,-0.099977,2.411,2.4173
0.150754,-0.099977,2.411,2.41778
0.158579,-0.099977,2.411,2.41828
0.166405,-0.099977,2.411,2.4188
0.17423,-0.099977,2.411,2.41935
0.183339,-0.100682,2.428,2.43699
0.19122,-0.100682,2.428,2.4376
0.199101,-0.100682,2.428,2.43823
0.206981,-0.100682,2.428,2.43889
0.214862,-0.100682,2.428,2.43957
0.222743,-0.100682,2.428,2.44027
0.230623,-0.100682,2.428,2.44101
0.238504,-0.100682,2.428,2.44176
0.246385,-0.100682,2.428,2.44255
0.254265,-0.100682,2.428,2.44335
0.262146,-0.100682,2.428,2.44419
0.270027,-0.100682,2.428,2.44504
0.277908,-0.100682,2.428,2.44593
0.283787,-0.099977,2.411,2.4297
0.291613,-0.099977,2.411,2.43063
0.299438,-0.099977,2.411,2.43158
0.305097,-0.0992721,2.394,2.4154
0.312868,-0.0992721,2.394,2.4164
0.320638,-0.0992721,2.394,2.41742
0.328408,-0.0992721,2.394,2.41846
0.336179,-0.0992721,2.394,2.41953
0.343949,-0.0992721,2.394,2.42062
0.351719,-0.0992721,2.394,2.42173
0.35949,-0.0992721,2.394,2.42288
0.36726,-0.0992721,2.394,2.42404
0.37503,-0.0992721,2.394,2.42523
0.382801,-0.0992721,2.394,2.42644
0.390571,-0.0992721,2.394,2.42768
0.398341,-0.0992721,2.394,2.42894
0.408995,-0.099977,2.411,2.44749
0.416821,-0.099977,2.411,2.44881
0.424646,-0.099977,2.411,2.45015
0.432472,-0.099977,2.411,2.45152
0.440297,-0.099977,2.411,2.45291
0.448123,-0.099977,2.411,2.45433
0.455948,-0.099977,2.411,2.45577
0.467044,-0.100682,2.428,2.47456
0.474925,-0.100682,2.428,2.47606
0.482805,-0.100682,2.428,2.47758
0.490686,-0.100682,2.428,2.47913
0.498567,-0.100682,2.428,2.4807
0.502901,-0.099977,2.411,2.46492
0.510727,-0.099977,2.411,2.46653
0.518552,-0.099977,2.411,2.46816
0.526378,-0.099977,2.411,2.46982
0.534203,-0.099977,2.411,2.4715
0.542029,-0.099977,2.411,2.4732
0.549854,-0.099977,2.411,2.47493
0.55768,-0.099977,2.411,2.47668
0.565506,-0.099977,2.411,2.47845
0.573331,-0.099977,2.411,2.48025
0.581156,-0.099977,2.411,2.48207
0.584829,-0.0992721,2.394,2.4664
0.592599,-0.0992721,2.394,2.46825
0.60037,-0.0992721,2.394,2.47013
0.60814,-0.0992721,2.394,2.47203
0.61591,-0.0992721,2.394,2.47395
0.62811,-0.099977,2.411,2.49348
0.635935,-0.099977,2.411,2.49546
0.643761,-0.099977,2.411,2.49747
0.651586,-0.099977,2.411,2.4995
0.659412,-0.099977,2.411,2.50155
0.667237,-0.099977,2.411,2.50362
0.675063,-0.099977,2.411,2.50572
0.682888,-0.099977,2.411,2.50784
0.695584,-0.100682,2.428,2.52768
0.703465,-0.100682,2.428,2.52986
0.716326,-0.101387,2.445,2.54979
0.724262,-0.101387,2.445,2.55203
0.732198,-0.101387,2.445,2.55429
0.740133,-0.101387,2.445,2.55658
0.748069,-0.101387,2.445,2.55889
0.761571,-0.102133,2.463,2.58008
0.775189,-0.10288,2.481,2.60132
0.783242,-0.10288,2.481,2.60373
0.791295,-0.10288,2.481,2.60616
0.799347,-0.10288,2.481,2.60862
0.8074,-0.10288,2.481,2.6111
0.815453,-0.10288,2.481,2.6136
0.82948,-0.103626,2.499,2.6351
0.837591,-0.103626,2.499,2.63767
0.839611,-0.10288,2.481,2.62124
0.847664,-0.10288,2.481,2.62383
0.855716,-0.10288,2.481,2.62644
0.863769,-0.10288,2.481,2.62908
0.871822,-0.10288,2.481,2.63173
0.879874,-0.10288,2.481,2.63441
0.881485,-0.102133,2.463,2.61798
0.889479,-0.102133,2.463,2.62068
0.897474,-0.102133,2.463,2.62341
0.905468,-0.102133,2.463,2.62615
0.906787,-0.101387,2.445,2.60971
0.908362,-0.100682,2.428,2.59431
0.916243,-0.100682,2.428,2.59708
0.924124,-0.100682,2.428,2.59987
0.932004,-0.100682,2.428,2.60268
0.939885,-0.100682,2.428,2.60551
0.94113,-0.099977,2.411,2.5901
0.948955,-0.099977,2.411,2.59296
0.956781,-0.099977,2.411,2.59583
0.964606,-0.099977,2.411,2.59873
0.972432,-0.099977,2.411,2.60164
0.980257,-0.099977,2.411,2.60458
0.988083,-0.099977,2.411,2.60753
0.995908,-0.099977,2.411,2.61051
1.01789,-0.101387,2.445,2.65036
1.04093,-0.10288,2.481,2.69249
1.04898,-0.10288,2.481,2.69561
1.08047,-0.10516,2.536,2.75858
1.11317,-0.107524,2.593,2.82389
1.12158,-0.107524,2.593,2.82722
1.16574,-0.110924,2.675,2.92008
1.20252,-0.113578,2.739,2.9935
1.25121,-0.11731,2.829,3.09557
1.26039,-0.11731,2.829,3.09929
1.30189,-0.120296,2.901,3.18201
1.34566,-0.123447,2.977,3.26934
1.35532,-0.123447,2.977,3.27333
1.3769,-0.124525,3.003,3.30596
1.39912,-0.125645,3.03,3.33979
1.40895,-0.125645,3.03,3.34392
1.41879,-0.125645,3.03,3.34808
1.42862,-0.125645,3.03,3.35226
1.43846,-0.125645,3.03,3.35646
1.44829,-0.125645,3.03,3.36069
1.45812,-0.125645,3.03,3.36494
1.46796,-0.125645,3.03,3.36921
1.47779,-0.125645,3.03,3.37351
1.50089,-0.126765,3.057,3.40793
1.51081,-0.126765,3.057,3.41231
1.52073,-0.126765,3.057,3.41671
1.54417,-0.127884,3.084,3.45136
1.55418,-0.127884,3.084,3.45585
1.57839,-0.129045,3.112,3.49178
1.58849,-0.129045,3.112,3.49636
1.62839,-0.13145,3.17,3.56621
1.65367,-0.132653,3.199,3.60358
1.66405,-0.132653,3.199,3.60836
1.69066,-0.133939,3.23,3.64817
1.71694,-0.135182,3.26,3.68697
1.72753,-0.135182,3.26,3.69191
1.75517,-0.136509,3.292,3.73316
1.78302,-0.137836,3.324,3.77454
1.79381,-0.137836,3.324,3.77965
1.8046,-0.137836,3.324,3.78478
1.83286,-0.139163,3.356,3.82642
1.84375,-0.139163,3.356,3.83165
1.85465,-0.139163,3.356,3.8369
1.84775,-0.137836,3.324,3.80554
1.85854,-0.137836,3.324,3.81079
1.86933,-0.137836,3.324,3.81607
1.86202,-0.136509,3.292,3.78457
1.8727,-0.136509,3.292,3.78984
1.88339,-0.136509,3.292,3.79513
1.87566,-0.135182,3.26,3.76351
1.88624,-0.135182,3.26,3.76879
1.87937,-0.133939,3.23,3.73937
1.88985,-0.133939,3.23,3.74465
1.90034,-0.133939,3.23,3.74995
1.91082,-0.133939,3.23,3.75527
1.9213,-0.133939,3.23,3.76062
1.8959,-0.13145,3.17,3.69603
1.90619,-0.13145,3.17,3.70132
1.89895,-0.130248,3.141,3.67272
1.8745,-0.127884,3.084,3.61125
1.88451,-0.127884,3.084,3.61646
1.87793,-0.126765,3.057,3.58998
1.85451,-0.124525,3.003,3.53167
1.86425,-0.124525,3.003,3.5368
1.84155,-0.122369,2.951,3.48061
1.83545,-0.121333,2.926,3.45616
1.84494,-0.121333,2.926,3.46122
1.8386,-0.120296,2.901,3.43667
1.81743,-0.118305,2.853,3.38477
1.81133,-0.11731,2.829,3.36124
1.82051,-0.11731,2.829,3.36619
1.79994,-0.115403,2.783,3.31635
1.80897,-0.115403,2.783,3.32126
1.81801,-0.115403,2.783,3.32619
1.8126,-0.11449,2.761,3.30481
1.80704,-0.113578,2.739,3.28336
1.81593,-0.113578,2.739,3.28826
1.81017,-0.112666,2.717,3.26672
1.79087,-0.110924,2.675,3.22105
1.79955,-0.110924,2.675,3.22588
1.79404,-0.110053,2.654,3.20537
1.7748,-0.108353,2.613,3.16061
-2.02986,-0.111838,2.926,3.56291
-2.0031,-0.110883,2.901,3.52711
-1.99369,-0.110883,2.901,3.52177
-1.96786,-0.109965,2.877,3.48736
-1.94218,-0.109048,2.853,3.45305
-1.93292,-0.109048,2.853,3.44785
-1.90748,-0.108131,2.829,3.41371
-1.89829,-0.108131,2.829,3.40859
-1.88911,-0.108131,2.829,3.40348
-1.87993,-0.108131,2.829,3.39839
-1.85554,-0.107251,2.806,3.36573
-1.84643,-0.107251,2.806,3.36072
-1.83732,-0.107251,2.806,3.35573
-1.81323,-0.106372,2.783,3.32328
-1.8042,-0.106372,2.783,3.31836
nan,nan,nan,NaN
-1.78613,-0.106372,2.783,3.30858
-1.7771,-0.106372,2.783,3.30371
-1.76807,-0.106372,2.783,3.29886
-1.75903,-0.106372,2.783,3.29403
-1.75,-0.106372,2.783,3.28921
-1.74097,-0.106372,2.783,3.28441
-1.73193,-0.106372,2.783,3.27963
-1.7229,-0.106372,2.783,3.27487
-1.71387,-0.106372,2.783,3.27013
-1.70483,-0.106372,2.783,3.2654
-1.6958,-0.106372,2.783,3.2607
-1.70071,-0.107251,2.806,3.28292
-1.70547,-0.108131,2.829,3.30508
-1.69629,-0.108131,2.829,3.30035
-1.70142,-0.109048,2.853,3.3236
-1.70639,-0.109965,2.877,3.34679
-1.69705,-0.109965,2.877,3.34204
-1.68771,-0.109965,2.877,3.3373
-1.69238,-0.110883,2.901,3.36039
-1.69746,-0.111838,2.926,3.38458
-1.68797,-0.111838,2.926,3.37983
-1.69281,-0.112794,2.951,3.40393
nan,nan,nan,NaN
nan,nan,nan,NaN
nan,nan,nan,NaN
nan,nan,nan,NaN
nan,nan,nan,NaN
nan,nan,nan,NaN
nan,nan,nan,NaN
nan,nan,nan,NaN
nan,nan,nan,NaN
nan,nan,nan,NaN
nan,nan,nan,NaN
nan,nan,nan,NaN
nan,nan,nan,NaN
nan,nan,nan,NaN
nan,nan,nan,NaN
nan,nan,nan,NaN
nan,nan,nan,NaN
nan,nan,nan,NaN
nan,nan,nan,NaN
nan,nan,nan,NaN
nan,nan,nan,NaN
nan,nan,nan,NaN
-1.28439,-0.0983839,2.574,2.87834
-1.27604,-0.0983839,2.574,2.87462
-1.24897,-0.0969315,2.536,2.82854
-1.24074,-0.0969315,2.536,2.82491
-1.23251,-0.0969315,2.536,2.82131
-1.22428,-0.0969315,2.536,2.81772
-1.20693,-0.0962052,2.517,2.79307
-1.19876,-0.0962052,2.517,2.78955
-1.1906,-0.0962052,2.517,2.78605
-1.17397,-0.0955173,2.499,2.76267
-1.15746,-0.0948293,2.481,2.73936
-1.14941,-0.0948293,2.481,2.73596
-1.13308,-0.0941413,2.463,2.71276
-1.12508,-0.0941413,2.463,2.70944
-1.11709,-0.0941413,2.463,2.70613
-1.10099,-0.0934533,2.445,2.68308
-1.08545,-0.0928035,2.428,2.6612
-1.07757,-0.0928035,2.428,2.658
-1.06969,-0.0928035,2.428,2.65481
-1.05437,-0.0921537,2.411,2.63308
-1.04655,-0.0921537,2.411,2.62996
-1.03872,-0.0921537,2.411,2.62685
-1.0309,-0.0921537,2.411,2.62377
-1.02307,-0.0921537,2.411,2.6207
-1.01525,-0.0921537,2.411,2.61766
-1.00742,-0.0921537,2.411,2.61463
-0.992548,-0.0915039,2.394,2.59321
-0.984778,-0.0915039,2.394,2.59025
-0.977007,-0.0915039,2.394,2.58731
-0.969237,-0.0915039,2.394,2.58438
-0.961466,-0.0915039,2.394,2.58148
-0.953696,-0.0915039,2.394,2.57859
-0.945926,-0.0915039,2.394,2.57573
-0.938156,-0.0915039,2.394,2.57289
-0.930385,-0.0915039,2.394,2.57006
-0.922615,-0.0915039,2.394,2.56726
-0.908348,-0.0908541,2.377,2.54627
-0.900633,-0.0908541,2.377,2.54353
-0.892918,-0.0908541,2.377,2.5408
-0.885203,-0.0908541,2.377,2.5381
-0.877488,-0.0908541,2.377,2.53542
-0.869772,-0.0908541,2.377,2.53276
-0.862057,-0.0908541,2.377,2.53012
-0.854342,-0.0908541,2.377,2.52751
-0.846627,-0.0908541,2.377,2.52491
-0.838912,-0.0908541,2.377,2.52233
-0.831197,-0.0908541,2.377,2.51978
-0.823481,-0.0908541,2.377,2.51724
-0.815766,-0.0908541,2.377,2.51473
-0.808051,-0.0908541,2.377,2.51224
-0.800336,-0.0908541,2.377,2.50977
-0.792621,-0.0908541,2.377,2.50732
-0.790519,-0.0915039,2.394,2.5228
-0.782749,-0.0915039,2.394,2.52038
-0.774979,-0.0915039,2.394,2.51798
-0.767208,-0.0915039,2.394,2.51559
-0.764831,-0.0921537,2.411,2.53108
-0.757005,-0.0921537,2.411,2.52873
-0.74918,-0.0921537,2.411,2.5264
-0.741354,-0.0921537,2.411,2.52409
-0.738701,-0.0928035,2.428,2.53958
-0.73082,-0.0928035,2.428,2.5373
-0.722939,-0.0928035,2.428,2.53504
-0.720065,-0.0934533,2.445,2.55054
-0.712129,-0.0934533,2.445,2.54831
-0.704194,-0.0934533,2.445,2.5461
-0.696258,-0.0934533,2.445,2.54392
-0.693389,-0.0941413,2.463,2.56047
-0.685395,-0.0941413,2.463,2.55832
-0.677401,-0.0941413,2.463,2.55619
-0.674299,-0.0948293,2.481,2.57275
-0.666246,-0.0948293,2.481,2.57065
-0.658193,-0.0948293,2.481,2.56857
-0.654857,-0.0955173,2.499,2.58514
-0.646746,-0.0955173,2.499,2.5831
-0.638635,-0.0955173,2.499,2.58108
-0.630524,-0.0955173,2.499,2.57909
-0.626896,-0.0962052,2.517,2.59568
-0.618726,-0.0962052,2.517,2.59372
-0.610557,-0.0962052,2.517,2.59178
-0.602387,-0.0962052,2.517,2.58987
-0.594218,-0.0962052,2.517,2.58798
-0.586048,-0.0962052,2.517,2.58612
-0.577879,-0.0962052,2.517,2.58428
-0.569709,-0.0962052,2.517,2.58246
-0.561539,-0.0962052,2.517,2.58067
-0.557547,-0.0969315,2.536,2.59837
-0.549316,-0.0969315,2.536,2.59662
-0.541085,-0.0969315,2.536,2.59489
-0.532853,-0.0969315,2.536,2.59319
-0.524622,-0.0969315,2.536,2.59151
-0.516391,-0.0969315,2.536,2.58986
-0.50816,-0.0969315,2.536,2.58823
-0.499929,-0.0969315,2.536,2.58662
-0.491697,-0.0969315,2.536,2.58505
-0.483466,-0.0969315,2.536,2.58349
-0.475235,-0.0969315,2.536,2.58196
-0.467004,-0.0969315,2.536,2.58046
-0.455335,-0.0962052,2.517,2.55966
-0.447166,-0.0962052,2.517,2.55822
-0.438996,-0.0962052,2.517,2.55681
-0.430827,-0.0962052,2.517,2.55542
-0.422657,-0.0962052,2.517,2.55405
-0.414487,-0.0962052,2.517,2.55271
-0.406318,-0.0962052,2.517,2.5514
-0.398148,-0.0962052,2.517,2.55011
-0.389979,-0.0962052,2.517,2.54885
-0.381809,-0.0962052,2.517,2.54761
-0.370968,-0.0955173,2.499,2.52819
-0.362857,-0.0955173,2.499,2.52701
-0.354745,-0.0955173,2.499,2.52586
-0.346634,-0.0955173,2.499,2.52473
-0.338523,-0.0955173,2.499,2.52363
-0.330412,-0.0955173,2.499,2.52256
-0.322301,-0.0955173,2.499,2.52151
-0.31419,-0.0955173,2.499,2.52048
-0.306079,-0.0955173,2.499,2.51949
-0.295821,-0.0948293,2.481,2.50037
-0.287769,-0.0948293,2.481,2.49943
-0.279716,-0.0948293,2.481,2.49852
-0.271663,-0.0948293,2.481,2.49763
-0.26361,-0.0948293,2.481,2.49677
-0.255558,-0.0948293,2.481,2.49593
-0.247505,-0.0948293,2.481,2.49512
-0.237715,-0.0941413,2.463,2.47624
-0.229721,-0.0941413,2.463,2.47548
-0.223347,-0.0948293,2.481,2.49284
-0.213732,-0.0941413,2.463,2.47405
-0.205738,-0.0941413,2.463,2.47337
-0.197744,-0.0941413,2.463,2.47272
-0.189749,-0.0941413,2.463,2.47209
-0.181755,-0.0941413,2.463,2.47149
-0.173761,-0.0941413,2.463,2.47092
-0.165766,-0.0941413,2.463,2.47037
-0.157772,-0.0941413,2.463,2.46984
-0.148683,-0.0934533,2.445,2.4513
-0.140747,-0.0934533,2.445,2.45083
-0.132812,-0.0934533,2.445,2.45039
-0.124876,-0.0934533,2.445,2.44997
-0.11694,-0.0934533,2.445,2.44958
-0.109004,-0.0934533,2.445,2.44921
-0.100365,-0.0928035,2.428,2.43185
-0.0924847,-0.0928035,2.428,2.43153
-0.084604,-0.0928035,2.428,2.43125
-0.0772605,-0.0934533,2.445,2.448
-0.0693246,-0.0934533,2.445,2.44777
-0.0613887,-0.0934533,2.445,2.44756
-0.0534529,-0.0934533,2.445,2.44737
-0.045517,-0.0934533,2.445,2.44721
-0.0375812,-0.0934533,2.445,2.44707
-0.0296453,-0.0934533,2.445,2.44697
-0.0217094,-0.0934533,2.445,2.44688
-0.0137736,-0.0934533,2.445,2.44682
-0.00583771,-0.0934533,2.445,2.44679
0.00209816,-0.0934533,2.445,2.44679
0.010034,-0.0934533,2.445,2.44681
0.0179699,-0.0934533,2.445,2.44685
0.0257256,-0.0928035,2.428,2.42991
0.0336063,-0.0928035,2.428,2.43001
0.041487,-0.0928035,2.428,2.43013
0.0493677,-0.0928035,2.428,2.43027
0.0572484,-0.0928035,2.428,2.43045
0.065129,-0.0928035,2.428,2.43065
0.0724985,-0.0921537,2.411,2.41385
0.0803241,-0.0921537,2.411,2.4141
0.0881496,-0.0921537,2.411,2.41437
0.0959751,-0.0921537,2.411,2.41467
0.103801,-0.0921537,2.411,2.41499
0.111626,-0.0921537,2.411,2.41534
0.119452,-0.0921537,2.411,2.41572
0.127277,-0.0921537,2.411,2.41612
0.135103,-0.0921537,2.411,2.41654
0.142928,-0.0921537,2.411,2.41699
0.150754,-0.0921537,2.411,2.41747
0.158579,-0.0921537,2.411,2.41797
0.166405,-0.0921537,2.411,2.41849
0.17423,-0.0921537,2.411,2.41904
0.183339,-0.0928035,2.428,2.43668
0.19122,-0.0928035,2.428,2.43729
0.199101,-0.0928035,2.428,2.43792
0.206981,-0.0928035,2.428,2.43857
0.214862,-0.0928035,2.428,2.43925
0.222743,-0.0928035,2.428,2.43996
0.230623,-0.0928035,2.428,2.44069
0.238504,-0.0928035,2.428,2.44145
0.246385,-0.0928035,2.428,2.44223
0.254265,-0.0928035,2.428,2.44304
0.262146,-0.0928035,2.428,2.44387
0.270027,-0.0928035,2.428,2.44473
0.275962,-0.0921537,2.411,2.42849
0.283787,-0.0921537,2.411,2.42939
0.291613,-0.0921537,2.411,2.43032
0.299438,-0.0921537,2.411,2.43127
0.305097,-0.0915039,2.394,2.4151
0.312868,-0.0915039,2.394,2.41609
0.320638,-0.0915039,2.394,2.41711
0.328408,-0.0915039,2.394,2.41815
0.336179,-0.0915039,2.394,2.41922
0.343949,-0.0915039,2.394,2.42031
0.351719,-0.0915039,2.394,2.42143
0.35949,-0.0915039,2.394,2.42257
0.36726,-0.0915039,2.394,2.42373
0.37503,-0.0915039,2.394,2.42492
0.382801,-0.0915039,2.394,2.42614
0.390571,-0.0915039,2.394,2.42738
0.398341,-0.0915039,2.394,2.42864
0.406112,-0.0915039,2.394,2.42992
0.416821,-0.0921537,2.411,2.4485
0.424646,-0.0921537,2.411,2.44984
0.432472,-0.0921537,2.411,2.45121
0.443402,-0.0928035,2.428,2.4699
0.451283,-0.0928035,2.428,2.47133
0.459163,-0.0928035,2.428,2.47278
0.467044,-0.0928035,2.428,2.47425
0.474925,-0.0928035,2.428,2.47575
0.482805,-0.0928035,2.428,2.47728
0.490686,-0.0928035,2.428,2.47882
0.498567,-0.0928035,2.428,2.4804
0.502901,-0.0921537,2.411,2.46461
0.510727,-0.0921537,2.411,2.46622
0.518552,-0.0921537,2.411,2.46786
0.526378,-0.0921537,2.411,2.46951
0.534203,-0.0921537,2.411,2.47119
0.542029,-0.0921537,2.411,2.47289
0.549854,-0.0921537,2.411,2.47462
0.55768,-0.0921537,2.411,2.47637
0.565506,-0.0921537,2.411,2.47815
0.573331,-0.0921537,2.411,2.47994
0.581156,-0.0921537,2.411,2.48176
0.588982,-0.0921537,2.411,2.48361
0.596808,-0.0921537,2.411,2.48548
0.604633,-0.0921537,2.411,2.48737
0.612459,-0.0921537,2.411,2.48928
0.620284,-0.0921537,2.411,2.49122
0.62811,-0.0921537,2.411,2.49318
0.635935,-0.0921537,2.411,2.49516
0.643761,-0.0921537,2.411,2.49717
0.651586,-0.0921537,2.411,2.4992
0.659412,-0.0921537,2.411,2.50125
0.667237,-0.0921537,2.411,2.50332
0.675063,-0.0921537,2.411,2.50542
0.682888,-0.0921537,2.411,2.50754
0.695584,-0.0928035,2.428,2.52738
0.703465,-0.0928035,2.428,2.52956
0.716326,-0.0934533,2.445,2.54949
0.724262,-0.0934533,2.445,2.55173
0.732198,-0.0934533,2.445,2.55399
0.740133,-0.0934533,2.445,2.55628
0.748069,-0.0934533,2.445,2.55859
0.761571,-0.0941413,2.463,2.57977
0.775189,-0.0948293,2.481,2.60101
0.783242,-0.0948293,2.481,2.60343
0.791295,-0.0948293,2.481,2.60586
0.799347,-0.0948293,2.481,2.60832
0.8074,-0.0948293,2.481,2.61079
0.815453,-0.0948293,2.481,2.6133
0.823505,-0.0948293,2.481,2.61582
0.837591,-0.0955173,2.499,2.63736
0.845702,-0.0955173,2.499,2.63995
0.847664,-0.0948293,2.481,2.62353
0.855716,-0.0948293,2.481,2.62614
0.863769,-0.0948293,2.481,2.62877
0.871822,-0.0948293,2.481,2.63143
0.879874,-0.0948293,2.481,2.63411
0.887927,-0.0948293,2.481,2.63681
0.889479,-0.0941413,2.463,2.62038
0.897474,-0.0941413,2.463,2.62311
0.905468,-0.0941413,2.463,2.62585
0.913462,-0.0941413,2.463,2.62862
0.914722,-0.0934533,2.445,2.61218
0.922658,-0.0934533,2.445,2.61497
0.924124,-0.0928035,2.428,2.59958
0.932004,-0.0928035,2.428,2.60239
0.939885,-0.0928035,2.428,2.60522
0.94113,-0.0921537,2.411,2.58981
0.948955,-0.0921537,2.411,2.59267
0.963527,-0.0928035,2.428,2.61384
0.964606,-0.0921537,2.411,2.59844
0.972432,-0.0921537,2.411,2.60135
0.980257,-0.0921537,2.411,2.60429
0.988083,-0.0921537,2.411,2.60724
1.00293,-0.0928035,2.428,2.62862
1.01789,-0.0934533,2.445,2.65007
1.04093,-0.0948293,2.481,2.69219
1.04898,-0.0948293,2.481,2.69531
1.08047,-0.0969315,2.536,2.75828
1.11317,-0.0991101,2.593,2.82358
1.12158,-0.0991101,2.593,2.82691
1.16574,-0.102244,2.675,2.91976
1.20252,-0.104691,2.739,2.99318
1.25121,-0.108131,2.829,3.09523
1.26039,-0.108131,2.829,3.09896
1.30189,-0.110883,2.901,3.18167
1.34566,-0.113787,2.977,3.26899
1.35532,-0.113787,2.977,3.27298
1.3769,-0.114781,3.003,3.30561
1.39912,-0.115813,3.03,3.33944
1.40895,-0.115813,3.03,3.34357
1.41879,-0.115813,3.03,3.34773
1.42862,-0.115813,3.03,3.35191
1.43846,-0.115813,3.03,3.35611
1.44829,-0.115813,3.03,3.36034
1.45812,-0.115813,3.03,3.36459
1.46796,-0.115813,3.03,3.36886
1.47779,-0.115813,3.03,3.37316
1.50089,-0.116845,3.057,3.40757
1.51081,-0.116845,3.057,3.41196
1.52073,-0.116845,3.057,3.41636
1.54417,-0.117877,3.084,3.451
1.55418,-0.117877,3.084,3.45549
1.57839,-0.118947,3.112,3.49142
1.58849,-0.118947,3.112,3.496
1.62839,-0.121164,3.17,3.56584
1.65367,-0.122273,3.199,3.60322
1.66405,-0.122273,3.199,3.60799
1.69066,-0.123458,3.23,3.6478
1.71694,-0.124604,3.26,3.6866
1.72753,-0.124604,3.26,3.69154
1.75517,-0.125827,3.292,3.73279
1.78302,-0.127051,3.324,3.77416
1.79381,-0.127051,3.324,3.77927
1.8046,-0.127051,3.324,3.7844
1.83286,-0.128274,3.356,3.82604
1.84375,-0.128274,3.356,3.83127
1.85465,-0.128274,3.356,3.83652
1.84775,-0.127051,3.324,3.80517
1.85854,-0.127051,3.324,3.81042
1.86933,-0.127051,3.324,3.81569
1.86202,-0.125827,3.292,3.7842
1.8727,-0.125827,3.292,3.78947
1.88339,-0.125827,3.292,3.79477
1.87566,-0.124604,3.26,3.76314
1.88624,-0.124604,3.26,3.76843
1.87937,-0.123458,3.23,3.73901
1.88985,-0.123458,3.23,3.74429
1.8821,-0.122273,3.199,3.7136
1.89248,-0.122273,3.199,3.71888
1.88561,-0.121164,3.17,3.69041
1.87856,-0.120056,3.141,3.66187
1.88875,-0.120056,3.141,3.66711
1.88142,-0.118947,3.112,3.63846
1.85809,-0.116845,3.057,3.5793
1.86801,-0.116845,3.057,3.58446
1.86134,-0.115813,3.03,3.55794
1.83845,-0.113787,2.977,3.50077
1.84811,-0.113787,2.977,3.50585
1.84155,-0.112794,2.951,3.48029
1.83545,-0.111838,2.926,3.45584
1.84494,-0.111838,2.926,3.4609
1.82338,-0.109965,2.877,3.40792
1.81743,-0.109048,2.853,3.38446
1.81133,-0.108131,2.829,3.36093
1.82051,-0.108131,2.829,3.36589
1.79994,-0.106372,2.783,3.31605
1.79467,-0.105531,2.761,3.29471
1.80364,-0.105531,2.761,3.2996
1.8126,-0.105531,2.761,3.30451
1.79253,-0.10385,2.717,3.25669
1.80135,-0.10385,2.717,3.26155
1.81017,-0.10385,2.717,3.26643
1.79087,-0.102244,2.675,3.22076
1.79955,-0.102244,2.675,3.22559
1.77984,-0.100639,2.633,3.17972
1.76122,-0.0991101,2.593,3.13614
-2.01252,-0.101469,2.901,3.53218
-1.98653,-0.10063,2.877,3.49765
-1.97719,-0.10063,2.877,3.49236
-1.95144,-0.0997904,2.853,3.45799
-1.92584,-0.0989509,2.829,3.42373
-1.91666,-0.0989509,2.829,3.41857
-1.90748,-0.0989509,2.829,3.41343
-1.88286,-0.0981465,2.806,3.3806
-1.87375,-0.0981465,2.806,3.37553
-1.86465,-0.0981465,2.806,3.37049
-1.85554,-0.0981465,2.806,3.36546
-1.84643,-0.0981465,2.806,3.36044
-1.83732,-0.0981465,2.806,3.35545
-1.81323,-0.097342,2.783,3.32301
-1.8042,-0.097342,2.783,3.31809
-1.81,-0.0981465,2.806,3.34056
-1.78613,-0.097342,2.783,3.3083
-1.7771,-0.097342,2.783,3.30343
-1.78268,-0.0981465,2.806,3.32584
-1.75903,-0.097342,2.783,3.29375
-1.75,-0.097342,2.783,3.28893
nan,nan,nan,NaN
-1.73193,-0.097342,2.783,3.27935
-1.7229,-0.097342,2.783,3.27459
-1.71387,-0.097342,2.783,3.26985
-1.70483,-0.097342,2.783,3.26512
-1.6958,-0.097342,2.783,3.26042
-1.70071,-0.0981465,2.806,3.28263
-1.70547,-0.0989509,2.829,3.30479
-1.69629,-0.0989509,2.829,3.30006
-1.70142,-0.0997904,2.853,3.32331
-1.70639,-0.10063,2.877,3.34649
-1.71121,-0.101469,2.901,3.36962
-1.70179,-0.101469,2.901,3.36485
-1.69238,-0.101469,2.901,3.36009
-1.69746,-0.102344,2.926,3.38428
-1.68797,-0.102344,2.926,3.37952
nan,nan,nan,NaN
nan,nan,nan,NaN
nan,nan,nan,NaN
nan,nan,nan,NaN
nan,nan,nan,NaN
nan,nan,nan,NaN
nan,nan,nan,NaN
nan,nan,nan,NaN
nan,nan,nan,NaN
nan,nan,nan,NaN
nan,nan,nan,NaN
nan,nan,nan,NaN
nan,nan,nan,NaN
nan,nan,nan,NaN
nan,nan,nan,NaN
nan,nan,nan,NaN
nan,nan,nan,NaN
nan,nan,nan,NaN
nan,nan,nan,NaN
nan,nan,nan,NaN
nan,nan,nan,NaN
nan,nan,nan,NaN
nan,nan,nan,NaN
nan,nan,nan,NaN
nan,nan,nan,NaN
-1.25833,-0.0893671,2.555,2.84946
-1.24074,-0.0887026,2.536,2.82464
-1.23251,-0.0887026,2.536,2.82104
-1.22428,-0.0887026,2.536,2.81745
-1.20693,-0.088038,2.517,2.7928
-1.19876,-0.088038,2.517,2.78928
-1.1906,-0.088038,2.517,2.78578
-1.17397,-0.0874084,2.499,2.7624
-1.15746,-0.0867788,2.481,2.73909
-1.14941,-0.0867788,2.481,2.7357
-1.14136,-0.0867788,2.481,2.73232
-1.12508,-0.0861492,2.463,2.70917
-1.11709,-0.0861492,2.463,2.70586
-1.10099,-0.0855196,2.445,2.68282
-1.08545,-0.084925,2.428,2.66094
-1.07757,-0.084925,2.428,2.65773
-1.06969,-0.084925,2.428,2.65455
-1.05437,-0.0843304,2.411,2.63282
-1.04655,-0.0843304,2.411,2.6297
-1.03872,-0.0843304,2.411,2.62659
-1.0309,-0.0843304,2.411,2.62351
-1.02307,-0.0843304,2.411,2.62044
-1.01525,-0.0843304,2.411,2.6174
-1.00742,-0.0843304,2.411,2.61437
-0.992548,-0.0837358,2.394,2.59295
-0.984778,-0.0837358,2.394,2.58999
-0.977007,-0.0837358,2.394,2.58704
-0.969237,-0.0837358,2.394,2.58412
-0.961466,-0.0837358,2.394,2.58121
-0.953696,-0.0837358,2.394,2.57833
-0.945926,-0.0837358,2.394,2.57547
-0.938156,-0.0837358,2.394,2.57262
-0.930385,-0.0837358,2.394,2.5698
-0.922615,-0.0837358,2.394,2.567
-0.908348,-0.0831412,2.377,2.546
-0.900633,-0.0831412,2.377,2.54326
-0.892918,-0.0831412,2.377,2.54054
-0.885203,-0.0831412,2.377,2.53784
-0.877488,-0.0831412,2.377,2.53516
-0.869772,-0.0831412,2.377,2.5325
-0.862057,-0.0831412,2.377,2.52986
-0.854342,-0.0831412,2.377,2.52724
-0.846627,-0.0831412,2.377,2.52464
-0.838912,-0.0831412,2.377,2.52207
-0.831197,-0.0831412,2.377,2.51951
-0.823481,-0.0831412,2.377,2.51698
-0.815766,-0.0831412,2.377,2.51446
-0.808051,-0.0831412,2.377,2.51197
-0.80606,-0.0837358,2.394,2.52745
-0.79829,-0.0837358,2.394,2.52498
-0.790519,-0.0837358,2.394,2.52253
-0.782749,-0.0837358,2.394,2.52011
-0.774979,-0.0837358,2.394,2.51771
-0.772656,-0.0843304,2.411,2.53319
-0.764831,-0.0843304,2.411,2.53081
-0.757005,-0.0843304,2.411,2.52846
-0.74918,-0.0843304,2.411,2.52612
-0.741354,-0.0843304,2.411,2.52381
-0.738701,-0.084925,2.428,2.53931
-0.73082,-0.084925,2.428,2.53702
-0.722939,-0.084925,2.428,2.53477
-0.720065,-0.0855196,2.445,2.55026
-0.712129,-0.0855196,2.445,2.54803
-0.704194,-0.0855196,2.445,2.54583
-0.696258,-0.0855196,2.445,2.54364
-0.693389,-0.0861492,2.463,2.56019
-0.685395,-0.0861492,2.463,2.55804
-0.677401,-0.0861492,2.463,2.55591
-0.674299,-0.0867788,2.481,2.57246
-0.666246,-0.0867788,2.481,2.57036
-0.658193,-0.0867788,2.481,2.56829
-0.654857,-0.0874084,2.499,2.58486
-0.646746,-0.0874084,2.499,2.58281
-0.638635,-0.0874084,2.499,2.58079
-0.630524,-0.0874084,2.499,2.5788
-0.626896,-0.088038,2.517,2.59539
-0.618726,-0.088038,2.517,2.59343
-0.610557,-0.088038,2.517,2.59149
-0.602387,-0.088038,2.517,2.58958
-0.594218,-0.088038,2.517,2.58769
-0.586048,-0.088038,2.517,2.58583
-0.577879,-0.088038,2.517,2.58399
-0.569709,-0.088038,2.517,2.58217
-0.561539,-0.088038,2.517,2.58038
-0.557547,-0.0887026,2.536,2.59808
-0.549316,-0.0887026,2.536,2.59633
-0.541085,-0.0887026,2.536,2.5946
-0.532853,-0.0887026,2.536,2.59289
-0.524622,-0.0887026,2.536,2.59121
-0.516391,-0.0887026,2.536,2.58956
-0.50816,-0.0887026,2.536,2.58793
-0.499929,-0.0887026,2.536,2.58633
-0.491697,-0.0887026,2.536,2.58475
-0.483466,-0.0887026,2.536,2.5832
-0.475235,-0.0887026,2.536,2.58167
-0.467004,-0.0887026,2.536,2.58017
-0.455335,-0.088038,2.517,2.55937
-0.447166,-0.088038,2.517,2.55793
-0.438996,-0.088038,2.517,2.55651
-0.430827,-0.088038,2.517,2.55512
-0.422657,-0.088038,2.517,2.55376
-0.414487,-0.088038,2.517,2.55242
-0.406318,-0.088038,2.517,2.5511
-0.398148,-0.088038,2.517,2.54982
-0.389979,-0.088038,2.517,2.54855
-0.381809,-0.088038,2.517,2.54732
-0.370968,-0.0874084,2.499,2.5279
-0.362857,-0.0874084,2.499,2.52672
-0.354745,-0.0874084,2.499,2.52557
-0.346634,-0.0874084,2.499,2.52444
-0.338523,-0.0874084,2.499,2.52334
-0.330412,-0.0874084,2.499,2.52226
-0.322301,-0.0874084,2.499,2.52121
-0.31419,-0.0874084,2.499,2.52019
-0.306079,-0.0874084,2.499,2.51919
-0.295821,-0.0867788,2.481,2.50008
-0.287769,-0.0867788,2.481,2.49914
-0.279716,-0.0867788,2.481,2.49823
-0.271663,-0.0867788,2.481,2.49734
-0.26361,-0.0867788,2.481,2.49647
-0.255558,-0.0867788,2.481,2.49564
-0.247505,-0.0867788,2.481,2.49482
-0.237715,-0.0861492,2.463,2.47594
-0.229721,-0.0861492,2.463,2.47519
-0.223347,-0.0867788,2.481,2.49254
-0.213732,-0.0861492,2.463,2.47376
-0.205738,-0.0861492,2.463,2.47308
-0.197744,-0.0861492,2.463,2.47243
-0.189749,-0.0861492,2.463,2.4718
-0.181755,-0.0861492,2.463,2.4712
-0.173761,-0.0861492,2.463,2.47062
-0.165766,-0.0861492,2.463,2.47007
-0.157772,-0.0861492,2.463,2.46955
-0.148683,-0.0855196,2.445,2.45101
-0.140747,-0.0855196,2.445,2.45054
-0.132812,-0.0855196,2.445,2.4501
-0.124876,-0.0855196,2.445,2.44968
-0.11694,-0.0855196,2.445,2.44929
-0.109004,-0.0855196,2.445,2.44892
-0.100365,-0.084925,2.428,2.43156
-0.0924847,-0.084925,2.428,2.43124
-0.084604,-0.084925,2.428,2.43096
-0.0767233,-0.084925,2.428,2.4307
-0.0693246,-0.0855196,2.445,2.44748
-0.0613887,-0.0855196,2.445,2.44727
-0.0534529,-0.0855196,2.445,2.44708
-0.045517,-0.0855196,2.445,2.44692
-0.0375812,-0.0855196,2.445,2.44678
-0.0296453,-0.0855196,2.445,2.44668
-0.0217094,-0.0855196,2.445,2.44659
-0.0137736,-0.0855196,2.445,2.44653
-0.00583771,-0.0855196,2.445,2.4465
0.00209816,-0.0855196,2.445,2.4465
0.010034,-0.0855196,2.445,2.44652
0.0179699,-0.0855196,2.445,2.44656
0.0259057,-0.0855196,2.445,2.44663
0.0336063,-0.084925,2.428,2.42972
0.041487,-0.084925,2.428,2.42984
0.0493677,-0.084925,2.428,2.42999
0.0572484,-0.084925,2.428,2.43016
0.065129,-0.084925,2.428,2.43036
0.0730097,-0.084925,2.428,2.43058
0.0803241,-0.0843304,2.411,2.41381
0.0881496,-0.0843304,2.411,2.41408
0.0959751,-0.0843304,2.411,2.41438
0.103801,-0.0843304,2.411,2.41471
0.111626,-0.0843304,2.411,2.41506
0.119452,-0.0843304,2.411,2.41543
0.127277,-0.0843304,2.411,2.41583
0.135103,-0.0843304,2.411,2.41625
0.142928,-0.0843304,2.411,2.4167
0.150754,-0.0843304,2.411,2.41718
0.158579,-0.0843304,2.411,2.41768
0.166405,-0.0843304,2.411,2.41821
0.17423,-0.0843304,2.411,2.41876
0.183339,-0.084925,2.428,2.43639
0.19122,-0.084925,2.428,2.437
0.199101,-0.084925,2.428,2.43763
0.206981,-0.084925,2.428,2.43829
0.214862,-0.084925,2.428,2.43897
0.222743,-0.084925,2.428,2.43967
0.230623,-0.084925,2.428,2.44041
0.238504,-0.084925,2.428,2.44116
0.246385,-0.084925,2.428,2.44195
0.254265,-0.084925,2.428,2.44275
0.262146,-0.084925,2.428,2.44359
0.270027,-0.084925,2.428,2.44445
0.275962,-0.0843304,2.411,2.42821
0.283787,-0.0843304,2.411,2.42911
0.291613,-0.0843304,2.411,2.43004
0.299438,-0.0843304,2.411,2.43099
0.307264,-0.0843304,2.411,2.43196
0.315089,-0.0843304,2.411,2.43296
0.322915,-0.0843304,2.411,2.43399
0.328408,-0.0837358,2.394,2.41787
0.336179,-0.0837358,2.394,2.41894
0.343949,-0.0837358,2.394,2.42003
0.351719,-0.0837358,2.394,2.42115
0.35949,-0.0837358,2.394,2.42229
0.36726,-0.0837358,2.394,2.42345
0.37503,-0.0837358,2.394,2.42464
0.382801,-0.0837358,2.394,2.42586
0.390571,-0.0837358,2.394,2.4271
0.398341,-0.0837358,2.394,2.42836
0.406112,-0.0837358,2.394,2.42965
0.416821,-0.0843304,2.411,2.44822
0.424646,-0.0843304,2.411,2.44956
0.432472,-0.0843304,2.411,2.45093
0.443402,-0.084925,2.428,2.46962
0.451283,-0.084925,2.428,2.47104
0.459163,-0.084925,2.428,2.47249
0.467044,-0.084925,2.428,2.47397
0.474925,-0.084925,2.428,2.47547
0.482805,-0.084925,2.428,2.47699
0.490686,-0.084925,2.428,2.47854
0.498567,-0.084925,2.428,2.48011
0.506447,-0.084925,2.428,2.48171
0.514328,-0.084925,2.428,2.48333
0.522209,-0.084925,2.428,2.48497
0.530089,-0.084925,2.428,2.48664
0.53797,-0.084925,2.428,2.48833
0.545851,-0.084925,2.428,2.49005
0.553732,-0.084925,2.428,2.49179
0.561612,-0.084925,2.428,2.49355
0.569493,-0.084925,2.428,2.49534
0.577374,-0.084925,2.428,2.49715
0.581156,-0.0843304,2.411,2.48149
0.588982,-0.0843304,2.411,2.48333
0.596808,-0.0843304,2.411,2.4852
0.604633,-0.0843304,2.411,2.48709
0.612459,-0.0843304,2.411,2.489
0.620284,-0.0843304,2.411,2.49094
0.62811,-0.0843304,2.411,2.4929
0.635935,-0.0843304,2.411,2.49488
0.643761,-0.0843304,2.411,2.49689
0.651586,-0.0843304,2.411,2.49892
0.659412,-0.0843304,2.411,2.50097
0.667237,-0.0843304,2.411,2.50305
0.679823,-0.084925,2.428,2.52281
0.687703,-0.084925,2.428,2.52494
0.695584,-0.084925,2.428,2.5271
0.703465,-0.084925,2.428,2.52928
0.716326,-0.0855196,2.445,2.54921
0.724262,-0.0855196,2.445,2.55145
0.732198,-0.0855196,2.445,2.55371
0.740133,-0.0855196,2.445,2.556
0.748069,-0.0855196,2.445,2.55831
0.761571,-0.0861492,2.463,2.57949
0.775189,-0.0867788,2.481,2.60073
0.783242,-0.0867788,2.481,2.60314
0.791295,-0.0867788,2.481,2.60558
0.799347,-0.0867788,2.481,2.60804
0.8074,-0.0867788,2.481,2.61051
0.815453,-0.0867788,2.481,2.61302
0.823505,-0.0867788,2.481,2.61554
0.837591,-0.0874084,2.499,2.63708
0.845702,-0.0874084,2.499,2.63967
0.853814,-0.0874084,2.499,2.64228
0.861925,-0.0874084,2.499,2.64491
0.870036,-0.0874084,2.499,2.64757
0.871822,-0.0867788,2.481,2.63115
0.879874,-0.0867788,2.481,2.63383
0.887927,-0.0867788,2.481,2.63653
0.889479,-0.0861492,2.463,2.62011
0.897474,-0.0861492,2.463,2.62283
0.905468,-0.0861492,2.463,2.62558
0.913462,-0.0861492,2.463,2.62835
0.914722,-0.0855196,2.445,2.61191
0.922658,-0.0855196,2.445,2.6147
0.930594,-0.0855196,2.445,2.61751
0.932004,-0.084925,2.428,2.60212
0.939885,-0.084925,2.428,2.60495
0.94113,-0.0843304,2.411,2.58955
0.948955,-0.0843304,2.411,2.5924
0.963527,-0.084925,2.428,2.61358
0.964606,-0.0843304,2.411,2.59817
0.972432,-0.0843304,2.411,2.60109
0.980257,-0.0843304,2.411,2.60402
0.988083,-0.0843304,2.411,2.60698
1.00293,-0.084925,2.428,2.62836
1.01789,-0.0855196,2.445,2.6498
1.04093,-0.0867788,2.481,2.69192
1.04898,-0.0867788,2.481,2.69504
1.08047,-0.0887026,2.536,2.758
1.11317,-0.0906963,2.593,2.8233
1.12158,-0.0906963,2.593,2.82663
1.15658,-0.0928299,2.654,2.89655
1.20252,-0.095803,2.739,2.99288
1.24104,-0.0981465,2.806,3.06976
1.25015,-0.0981465,2.806,3.07346
1.29112,-0.10063,2.877,3.15503
1.3226,-0.102344,2.926,3.21267
1.3321,-0.102344,2.926,3.21659
1.36498,-0.104128,2.977,3.27667
1.37464,-0.104128,2.977,3.2807
1.38431,-0.104128,2.977,3.28476
1.39397,-0.104128,2.977,3.28885
1.40363,-0.104128,2.977,3.29296
1.41329,-0.104128,2.977,3.29709
1.42296,-0.104128,2.977,3.30124
1.43262,-0.104128,2.977,3.30542
1.45488,-0.105037,3.003,3.33852
1.46463,-0.105037,3.003,3.34278
1.48763,-0.105981,3.03,3.37715
1.49746,-0.105981,3.03,3.3815
1.5073,-0.105981,3.03,3.38586
1.53065,-0.106926,3.057,3.42046
1.54057,-0.106926,3.057,3.42492
1.56419,-0.10787,3.084,3.45968
1.5742,-0.10787,3.084,3.46422
1.59859,-0.10885,3.112,3.50027
1.63868,-0.110878,3.17,3.57022
1.64897,-0.110878,3.17,3.57495
1.65925,-0.110878,3.17,3.57971
1.68482,-0.111893,3.199,3.61728
1.6952,-0.111893,3.199,3.62213
1.72211,-0.112977,3.23,3.66215
1.74869,-0.114026,3.26,3.70115
1.75927,-0.114026,3.26,3.70616
1.76985,-0.114026,3.26,3.7112
1.78043,-0.114026,3.26,3.71625
1.80859,-0.115145,3.292,3.75786
1.80159,-0.114026,3.26,3.72644
1.81217,-0.114026,3.26,3.73157
1.82276,-0.114026,3.26,3.73672
1.83334,-0.114026,3.26,3.74189
1.84392,-0.114026,3.26,3.74708
1.8545,-0.114026,3.26,3.7523
1.84792,-0.112977,3.23,3.72296
1.84056,-0.111893,3.199,3.6924
1.85095,-0.111893,3.199,3.69758
1.84446,-0.110878,3.17,3.66923
1.85475,-0.110878,3.17,3.67441
1.84797,-0.109864,3.141,3.64595
1.85817,-0.109864,3.141,3.65113
1.86836,-0.109864,3.141,3.65633
1.84447,-0.10787,3.084,3.5951
1.85448,-0.10787,3.084,3.60025
1.84816,-0.106926,3.057,3.57385
1.84168,-0.105981,3.03,3.54738
1.85151,-0.105981,3.03,3.5525
1.84476,-0.105037,3.003,3.52593
1.82239,-0.103218,2.951,3.4699
1.83197,-0.103218,2.951,3.47494
1.82595,-0.102344,2.926,3.45051
1.81976,-0.101469,2.901,3.42602
1.82918,-0.101469,2.901,3.43103
1.82338,-0.10063,2.877,3.40764
1.81743,-0.0997904,2.853,3.38417
1.81133,-0.0989509,2.829,3.36065
1.82051,-0.0989509,2.829,3.3656
1.81482,-0.0981465,2.806,3.34318
1.79467,-0.0965725,2.761,3.29443
1.80364,-0.0965725,2.761,3.29933
1.79815,-0.095803,2.739,3.2779
1.79253,-0.0950335,2.717,3.25642
1.80135,-0.0950335,2.717,3.26128
1.79618,-0.0942989,2.696,3.24092
1.77681,-0.0928299,2.654,3.19521
1.78542,-0.0928299,2.654,3.20001
1.77984,-0.0920954,2.633,3.17947
1.76122,-0.0906963,2.593,3.13588
-1.99587,-0.0912945,2.877,3.50271
-1.96996,-0.0905329,2.853,3.46822
-1.9607,-0.0905329,2.853,3.46297
-1.93502,-0.0897713,2.829,3.42865
-1.91018,-0.0890414,2.806,3.39564
-1.90108,-0.0890414,2.806,3.39052
-1.89197,-0.0890414,2.806,3.38543
-1.88286,-0.0890414,2.806,3.38034
-1.87375,-0.0890414,2.806,3.37528
-1.84936,-0.0883116,2.783,3.34261
-1.84033,-0.0883116,2.783,3.33762
-1.84643,-0.0890414,2.806,3.36019
-1.83732,-0.0890414,2.806,3.35519
-1.82822,-0.0890414,2.806,3.35021
-1.8042,-0.0883116,2.783,3.31783
-1.79516,-0.0883116,2.783,3.31293
-1.78613,-0.0883116,2.783,3.30804
-1.7771,-0.0883116,2.783,3.30318
-1.76807,-0.0883116,2.783,3.29832
-1.75903,-0.0883116,2.783,3.29349
-1.75,-0.0883116,2.783,3.28868
-1.75535,-0.0890414,2.806,3.31102
-1.73193,-0.0883116,2.783,3.2791
-1.7229,-0.0883116,2.783,3.27434
-1.71387,-0.0883116,2.783,3.26959
-1.70483,-0.0883116,2.783,3.26487
-1.6958,-0.0883116,2.783,3.26016
-1.70071,-0.0890414,2.806,3.28237
-1.70547,-0.0897713,2.829,3.30453
-1.69629,-0.0897713,2.829,3.2998
-1.71573,-0.0912945,2.877,3.351
-1.70639,-0.0912945,2.877,3.34623
-1.71121,-0.092056,2.901,3.36935
-1.70179,-0.092056,2.901,3.36458
-1.69238,-0.092056,2.901,3.35982
-1.69746,-0.0928493,2.926,3.384
-1.68797,-0.0928493,2.926,3.37925
nan,nan,nan,NaN
nan,nan,nan,NaN
nan,nan,nan,NaN
nan,nan,nan,NaN
nan,nan,nan,NaN
nan,nan,nan,NaN
nan,nan,nan,NaN
nan,nan,nan,NaN
nan,nan,nan,NaN
nan,nan,nan,NaN
nan,nan,nan,NaN
nan,nan,nan,NaN
nan,nan,nan,NaN
nan,nan,nan,NaN
nan,nan,nan,NaN
nan,nan,nan,NaN
nan,nan,nan,NaN
nan,nan,nan,NaN
nan,nan,nan,NaN
nan,nan,nan,NaN
nan,nan,nan,NaN
nan,nan,nan,NaN
nan,nan,nan,NaN
nan,nan,nan,NaN
nan,nan,nan,NaN
-1.26769,-0.0816795,2.574,2.8704
-1.25003,-0.0810766,2.555,2.84556
-1.24174,-0.0810766,2.555,2.84192
-1.22428,-0.0804737,2.536,2.8172
-1.21605,-0.0804737,2.536,2.81363
-1.20781,-0.0804737,2.536,2.81009
-1.1906,-0.0798707,2.517,2.78553
-1.17397,-0.0792996,2.499,2.76215
-1.16586,-0.0792996,2.499,2.75872
-1.15775,-0.0792996,2.499,2.7553
-1.14136,-0.0787284,2.481,2.73208
-1.12508,-0.0781572,2.463,2.70893
-1.11709,-0.0781572,2.463,2.70562
-1.10099,-0.077586,2.445,2.68258
-1.09305,-0.077586,2.445,2.67933
-1.08512,-0.077586,2.445,2.6761
-1.06969,-0.0770466,2.428,2.65431
-1.05437,-0.0765071,2.411,2.63258
-1.04655,-0.0765071,2.411,2.62946
-1.03872,-0.0765071,2.411,2.62635
-1.0309,-0.0765071,2.411,2.62327
-1.02307,-0.0765071,2.411,2.6202
-1.01525,-0.0765071,2.411,2.61716
-1.00032,-0.0759676,2.394,2.5957
-0.992548,-0.0759676,2.394,2.59271
-0.984778,-0.0759676,2.394,2.58975
-0.977007,-0.0759676,2.394,2.5868
-0.969237,-0.0759676,2.394,2.58388
-0.961466,-0.0759676,2.394,2.58097
-0.953696,-0.0759676,2.394,2.57809
-0.945926,-0.0759676,2.394,2.57522
-0.938156,-0.0759676,2.394,2.57238
-0.930385,-0.0759676,2.394,2.56956
-0.922615,-0.0759676,2.394,2.56675
-0.908348,-0.0754282,2.377,2.54576
-0.900633,-0.0754282,2.377,2.54302
-0.892918,-0.0754282,2.377,2.5403
-0.885203,-0.0754282,2.377,2.5376
-0.877488,-0.0754282,2.377,2.53492
-0.869772,-0.0754282,2.377,2.53226
-0.862057,-0.0754282,2.377,2.52962
-0.854342,-0.0754282,2.377,2.527
-0.846627,-0.0754282,2.377,2.5244
-0.838912,-0.0754282,2.377,2.52182
-0.831197,-0.0754282,2.377,2.51927
-0.823481,-0.0754282,2.377,2.51673
-0.815766,-0.0754282,2.377,2.51422
-0.808051,-0.0754282,2.377,2.51173
-0.800336,-0.0754282,2.377,2.50925
-0.792621,-0.0754282,2.377,2.5068
-0.790519,-0.0759676,2.394,2.52229
-0.782749,-0.0759676,2.394,2.51986
-0.774979,-0.0759676,2.394,2.51746
-0.772656,-0.0765071,2.411,2.53294
-0.764831,-0.0765071,2.411,2.53056
-0.757005,-0.0765071,2.411,2.52821
-0.74918,-0.0765071,2.411,2.52588
-0.741354,-0.0765071,2.411,2.52357
-0.738701,-0.0770466,2.428,2.53905
-0.73082,-0.0770466,2.428,2.53677
-0.722939,-0.0770466,2.428,2.53451
-0.720065,-0.077586,2.445,2.55001
-0.712129,-0.077586,2.445,2.54778
-0.704194,-0.077586,2.445,2.54557
-0.696258,-0.077586,2.445,2.54339
-0.693389,-0.0781572,2.463,2.55993
-0.685395,-0.0781572,2.463,2.55778
-0.677401,-0.0781572,2.463,2.55565
-0.674299,-0.0787284,2.481,2.57221
-0.666246,-0.0787284,2.481,2.57011
-0.658193,-0.0787284,2.481,2.56803
-0.654857,-0.0792996,2.499,2.58459
-0.646746,-0.0792996,2.499,2.58255
-0.638635,-0.0792996,2.499,2.58053
-0.630524,-0.0792996,2.499,2.57854
-0.626896,-0.0798707,2.517,2.59512
-0.618726,-0.0798707,2.517,2.59316
-0.610557,-0.0798707,2.517,2.59123
-0.602387,-0.0798707,2.517,2.58931
-0.594218,-0.0798707,2.517,2.58742
-0.586048,-0.0798707,2.517,2.58556
-0.577879,-0.0798707,2.517,2.58372
-0.569709,-0.0798707,2.517,2.58191
-0.561539,-0.0798707,2.517,2.58012
-0.55337,-0.0798707,2.517,2.57835
-0.549316,-0.0804737,2.536,2.59606
-0.541085,-0.0804737,2.536,2.59433
-0.532853,-0.0804737,2.536,2.59262
-0.524622,-0.0804737,2.536,2.59095
-0.516391,-0.0804737,2.536,2.58929
-0.50816,-0.0804737,2.536,2.58766
-0.499929,-0.0804737,2.536,2.58606
-0.491697,-0.0804737,2.536,2.58448
-0.483466,-0.0804737,2.536,2.58293
-0.475235,-0.0804737,2.536,2.5814
-0.467004,-0.0804737,2.536,2.5799
-0.455335,-0.0798707,2.517,2.5591
-0.447166,-0.0798707,2.517,2.55766
-0.438996,-0.0798707,2.517,2.55624
-0.430827,-0.0798707,2.517,2.55485
-0.422657,-0.0798707,2.517,2.55349
-0.414487,-0.0798707,2.517,2.55215
-0.406318,-0.0798707,2.517,2.55084
-0.398148,-0.0798707,2.517,2.54955
-0.389979,-0.0798707,2.517,2.54828
-0.381809,-0.0798707,2.517,2.54705
-0.37364,-0.0798707,2.517,2.54584
-0.36547,-0.0798707,2.517,2.54465
-0.357301,-0.0798707,2.517,2.54349
-0.349131,-0.0798707,2.517,2.54235
-0.338523,-0.0792996,2.499,2.52307
-0.330412,-0.0792996,2.499,2.522
-0.322301,-0.0792996,2.499,2.52095
-0.31419,-0.0792996,2.499,2.51992
-0.306079,-0.0792996,2.499,2.51892
-0.297967,-0.0792996,2.499,2.51795
-0.287769,-0.0787284,2.481,2.49887
-0.279716,-0.0787284,2.481,2.49796
-0.271663,-0.0787284,2.481,2.49707
-0.26361,-0.0787284,2.481,2.49621
-0.255558,-0.0787284,2.481,2.49537
-0.247505,-0.0787284,2.481,2.49456
-0.237715,-0.0781572,2.463,2.47568
-0.229721,-0.0781572,2.463,2.47492
-0.221726,-0.0781572,2.463,2.47419
-0.213732,-0.0781572,2.463,2.47349
-0.205738,-0.0781572,2.463,2.47281
-0.197744,-0.0781572,2.463,2.47216
-0.189749,-0.0781572,2.463,2.47153
-0.181755,-0.0781572,2.463,2.47093
-0.173761,-0.0781572,2.463,2.47036
-0.164555,-0.077586,2.445,2.45176
-0.156619,-0.077586,2.445,2.45124
-0.148683,-0.077586,2.445,2.45075
-0.140747,-0.077586,2.445,2.45028
-0.132812,-0.077586,2.445,2.44983
-0.124876,-0.077586,2.445,2.44942
-0.11694,-0.077586,2.445,2.44902
-0.109004,-0.077586,2.445,2.44866
-0.101068,-0.077586,2.445,2.44832
-0.0931322,-0.077586,2.445,2.448
-0.084604,-0.0770466,2.428,2.4307
-0.0767233,-0.0770466,2.428,2.43043
-0.0688426,-0.0770466,2.428,2.4302
-0.0613887,-0.077586,2.445,2.447
-0.0534529,-0.077586,2.445,2.44681
-0.0452005,-0.0770466,2.428,2.42964
-0.0373199,-0.0770466,2.428,2.42951
-0.0294392,-0.0770466,2.428,2.4294
-0.0215585,-0.0770466,2.428,2.42932
-0.0136778,-0.0770466,2.428,2.42926
-0.00579712,-0.0770466,2.428,2.42923
0.00208357,-0.0770466,2.428,2.42922
0.00996425,-0.0770466,2.428,2.42924
0.0178449,-0.0770466,2.428,2.42929
0.0259057,-0.077586,2.445,2.44637
0.0336063,-0.0770466,2.428,2.42945
0.041487,-0.0770466,2.428,2.42958
0.0493677,-0.0770466,2.428,2.42972
0.0572484,-0.0770466,2.428,2.4299
0.065129,-0.0770466,2.428,2.4301
0.0730097,-0.0770466,2.428,2.43032
0.0808904,-0.0770466,2.428,2.43057
0.0887711,-0.0770466,2.428,2.43084
0.0959751,-0.0765071,2.411,2.41412
0.103801,-0.0765071,2.411,2.41445
0.111626,-0.0765071,2.411,2.41479
0.119452,-0.0765071,2.411,2.41517
0.127277,-0.0765071,2.411,2.41557
0.135103,-0.0765071,2.411,2.41599
0.142928,-0.0765071,2.411,2.41644
0.150754,-0.0765071,2.411,2.41692
0.159697,-0.0770466,2.428,2.43447
0.167578,-0.0770466,2.428,2.435
0.175459,-0.0770466,2.428,2.43555
0.183339,-0.0770466,2.428,2.43613
0.19122,-0.0770466,2.428,2.43674
0.199101,-0.0770466,2.428,2.43737
0.206981,-0.0770466,2.428,2.43802
0.214862,-0.0770466,2.428,2.43871
0.222743,-0.0770466,2.428,2.43941
0.230623,-0.0770466,2.428,2.44015
0.238504,-0.0770466,2.428,2.4409
0.246385,-0.0770466,2.428,2.44169
0.254265,-0.0770466,2.428,2.44249
0.262146,-0.0770466,2.428,2.44333
0.270027,-0.0770466,2.428,2.44418
0.277908,-0.0770466,2.428,2.44507
0.283787,-0.0765071,2.411,2.42885
0.291613,-0.0765071,2.411,2.42978
0.299438,-0.0765071,2.411,2.43073
0.307264,-0.0765071,2.411,2.4317
0.315089,-0.0765071,2.411,2.43271
0.322915,-0.0765071,2.411,2.43373
0.33074,-0.0765071,2.411,2.43478
0.336179,-0.0759676,2.394,2.41868
0.343949,-0.0759676,2.394,2.41977
0.351719,-0.0759676,2.394,2.42089
0.35949,-0.0759676,2.394,2.42203
0.36726,-0.0759676,2.394,2.4232
0.37503,-0.0759676,2.394,2.42439
0.382801,-0.0759676,2.394,2.4256
0.390571,-0.0759676,2.394,2.42684
0.398341,-0.0759676,2.394,2.4281
0.408995,-0.0765071,2.411,2.44664
0.416821,-0.0765071,2.411,2.44796
0.424646,-0.0765071,2.411,2.44931
0.432472,-0.0765071,2.411,2.45067
0.443402,-0.0770466,2.428,2.46936
0.451283,-0.0770466,2.428,2.47078
0.459163,-0.0770466,2.428,2.47224
0.467044,-0.0770466,2.428,2.47371
0.474925,-0.0770466,2.428,2.47521
0.482805,-0.0770466,2.428,2.47674
0.490686,-0.0770466,2.428,2.47828
0.498567,-0.0770466,2.428,2.47986
0.506447,-0.0770466,2.428,2.48145
0.514328,-0.0770466,2.428,2.48307
0.522209,-0.0770466,2.428,2.48472
0.530089,-0.0770466,2.428,2.48639
0.53797,-0.0770466,2.428,2.48808
0.545851,-0.0770466,2.428,2.48979
0.553732,-0.0770466,2.428,2.49153
0.561612,-0.0770466,2.428,2.4933
0.569493,-0.0770466,2.428,2.49508
0.577374,-0.0770466,2.428,2.49689
0.581156,-0.0765071,2.411,2.48123
0.588982,-0.0765071,2.411,2.48308
0.596808,-0.0765071,2.411,2.48495
0.604633,-0.0765071,2.411,2.48684
0.612459,-0.0765071,2.411,2.48875
0.620284,-0.0765071,2.411,2.49069
0.62811,-0.0765071,2.411,2.49265
0.635935,-0.0765071,2.411,2.49463
0.643761,-0.0765071,2.411,2.49664
0.651586,-0.0765071,2.411,2.49867
0.659412,-0.0765071,2.411,2.50072
0.667237,-0.0765071,2.411,2.50279
0.679823,-0.0770466,2.428,2.52255
0.687703,-0.0770466,2.428,2.52469
0.695584,-0.0770466,2.428,2.52685
0.703465,-0.0770466,2.428,2.52903
0.716326,-0.077586,2.445,2.54895
0.724262,-0.077586,2.445,2.5512
0.732198,-0.077586,2.445,2.55346
0.740133,-0.077586,2.445,2.55575
0.748069,-0.077586,2.445,2.55806
0.761571,-0.0781572,2.463,2.57924
0.775189,-0.0787284,2.481,2.60048
0.783242,-0.0787284,2.481,2.60289
0.791295,-0.0787284,2.481,2.60532
0.799347,-0.0787284,2.481,2.60778
0.8074,-0.0787284,2.481,2.61026
0.815453,-0.0787284,2.481,2.61276
0.823505,-0.0787284,2.481,2.61529
0.837591,-0.0792996,2.499,2.63683
0.845702,-0.0792996,2.499,2.63941
0.853814,-0.0792996,2.499,2.64202
0.861925,-0.0792996,2.499,2.64466
0.870036,-0.0792996,2.499,2.64731
0.871822,-0.0787284,2.481,2.6309
0.879874,-0.0787284,2.481,2.63358
0.887927,-0.0787284,2.481,2.63628
0.889479,-0.0781572,2.463,2.61986
0.897474,-0.0781572,2.463,2.62258
0.905468,-0.0781572,2.463,2.62533
0.913462,-0.0781572,2.463,2.6281
0.914722,-0.077586,2.445,2.61166
0.922658,-0.077586,2.445,2.61445
0.930594,-0.077586,2.445,2.61726
0.932004,-0.0770466,2.428,2.60188
0.939885,-0.0770466,2.428,2.60471
0.947766,-0.0770466,2.428,2.60756
0.955646,-0.0770466,2.428,2.61044
0.963527,-0.0770466,2.428,2.61333
0.971408,-0.0770466,2.428,2.61625
0.979289,-0.0770466,2.428,2.61918
0.987169,-0.0770466,2.428,2.62214
0.99505,-0.0770466,2.428,2.62512
1.00293,-0.0770466,2.428,2.62812
1.01789,-0.077586,2.445,2.64956
1.04093,-0.0787284,2.481,2.69167
1.04898,-0.0787284,2.481,2.6948
