-0.930587,0.694272,1.841,2.17653
-0.924612,0.694272,1.841,2.17398
-0.913646,0.690501,1.831,2.15965
-0.907703,0.690501,1.831,2.15715
-0.90176,0.690501,1.831,2.15465
-0.890925,0.68673,1.821,2.14042
-0.880154,0.682959,1.811,2.12622
-0.874276,0.682959,1.811,2.1238
-0.868398,0.682959,1.811,2.12138
-0.86252,0.682959,1.811,2.11898
-0.856642,0.682959,1.811,2.1166
-0.846536,0.679565,1.802,2.10372
-0.840687,0.679565,1.802,2.10137
-0.834838,0.679565,1.802,2.09904
-0.82899,0.679565,1.802,2.09672
-0.823141,0.679565,1.802,2.09441
-0.817292,0.679565,1.802,2.09212
-0.811443,0.679565,1.802,2.08984
-0.805594,0.679565,1.802,2.08758
-0.799745,0.679565,1.802,2.08533
-0.793896,0.679565,1.802,2.08309
-0.788048,0.679565,1.802,2.08087
-0.777858,0.675793,1.792,2.06713
-0.772042,0.675793,1.792,2.06495
-0.766225,0.675793,1.792,2.06278
-0.760409,0.675793,1.792,2.06063
-0.754593,0.675793,1.792,2.05849
-0.748776,0.675793,1.792,2.05636
-0.74296,0.675793,1.792,2.05425
-0.741257,0.679565,1.802,2.06361
-0.735408,0.679565,1.802,2.06151
-0.725511,0.675793,1.792,2.04801
-0.719694,0.675793,1.792,2.04595
-0.713878,0.675793,1.792,2.04391
-0.708061,0.675793,1.792,2.04189
-0.702245,0.675793,1.792,2.03988
-0.696429,0.675793,1.792,2.03788
-0.690612,0.675793,1.792,2.0359
-0.684796,0.675793,1.792,2.03394
-0.675569,0.672399,1.783,2.02178
-0.669782,0.672399,1.783,2.01986
-0.663995,0.672399,1.783,2.01794
-0.654885,0.669005,1.774,2.00587
-0.649128,0.669005,1.774,2.004
-0.64337,0.669005,1.774,2.00214
-0.634377,0.665611,1.765,1.99015
-0.628648,0.665611,1.765,1.98833
-0.619743,0.662217,1.756,1.9764
-0.614043,0.662217,1.756,1.97462
-0.605226,0.658823,1.747,1.96274
-0.599556,0.658823,1.747,1.961
-0.593885,0.658823,1.747,1.95927
-0.585185,0.655429,1.738,1.94748
-0.579544,0.655429,1.738,1.94579
-0.570931,0.652035,1.729,1.93405
-0.565319,0.652035,1.729,1.9324
-0.559707,0.652035,1.729,1.93077
-0.551211,0.648641,1.72,1.91911
-0.54309,0.645624,1.712,1.90859
-0.537533,0.645624,1.712,1.90702
-0.531977,0.645624,1.712,1.90546
-0.52642,0.645624,1.712,1.90392
-0.520863,0.645624,1.712,1.90239
-0.515306,0.645624,1.712,1.90087
-0.50707,0.64223,1.703,1.88939
-0.501543,0.64223,1.703,1.88791
-0.500966,0.648641,1.72,1.90528
-0.495384,0.648641,1.72,1.90382
-0.489801,0.648641,1.72,1.90238
-0.484218,0.648641,1.72,1.90095
-0.478636,0.648641,1.72,1.89953
-0.473053,0.648641,1.72,1.89813
-0.46747,0.648641,1.72,1.89675
-0.461888,0.648641,1.72,1.89538
-0.456305,0.648641,1.72,1.89403
-0.448626,0.645624,1.712,1.88389
-0.443069,0.645624,1.712,1.88257
-0.437512,0.645624,1.712,1.88127
-0.431956,0.645624,1.712,1.87999
-0.426399,0.645624,1.712,1.87872
-0.420842,0.645624,1.712,1.87747
-0.415285,0.645624,1.712,1.87623
-0.409729,0.645624,1.712,1.87501
-0.404172,0.645624,1.712,1.8738
-0.398615,0.645624,1.712,1.87261
-0.393058,0.645624,1.712,1.87144
-0.387502,0.645624,1.712,1.87028
-0.381945,0.645624,1.712,1.86913
-0.376388,0.645624,1.712,1.86801
-0.370832,0.645624,1.712,1.86689
-0.365275,0.645624,1.712,1.8658
-0.359718,0.645624,1.712,1.86472
-0.355816,0.648641,1.72,1.87236
-0.350234,0.648641,1.72,1.87131
-0.344651,0.648641,1.72,1.87027
-0.339068,0.648641,1.72,1.86925
-0.333486,0.648641,1.72,1.86825
-0.327903,0.648641,1.72,1.86726
-0.32232,0.648641,1.72,1.86629
-0.316738,0.648641,1.72,1.86533
-0.311155,0.648641,1.72,1.86439
-0.304151,0.645624,1.712,1.8548
-0.298594,0.645624,1.712,1.8539
-0.293037,0.645624,1.712,1.85301
-0.287481,0.645624,1.712,1.85214
-0.281924,0.645624,1.712,1.85128
-0.274914,0.64223,1.703,1.84072
-0.268121,0.639213,1.695,1.83126
-0.26262,0.639213,1.695,1.83046
-0.257118,0.639213,1.695,1.82968
-0.250281,0.635819,1.686,1.8192
-0.244808,0.635819,1.686,1.81846
-0.239336,0.635819,1.686,1.81773
-0.232754,0.632802,1.678,1.8084
-0.227308,0.632802,1.678,1.8077
-0.221861,0.632802,1.678,1.80703
-0.215383,0.629785,1.67,1.79775
-0.209963,0.629785,1.67,1.79711
-0.204542,0.629785,1.67,1.79649
-0.198168,0.626768,1.662,1.78728
-0.192774,0.626768,1.662,1.78669
-0.187379,0.626768,1.662,1.78611
-0.181985,0.626768,1.662,1.78555
-0.17659,0.626768,1.662,1.78501
-0.171196,0.626768,1.662,1.78449
-0.165801,0.626768,1.662,1.78398
-0.160407,0.626768,1.662,1.78348
-0.155013,0.626768,1.662,1.78301
-0.150338,0.629785,1.67,1.79113
-0.144918,0.629785,1.67,1.79068
-0.139497,0.629785,1.67,1.79025
-0.134077,0.629785,1.67,1.78983
-0.12804,0.626768,1.662,1.78086
-0.122646,0.626768,1.662,1.78048
-0.117251,0.626768,1.662,1.78012
-0.111857,0.626768,1.662,1.77977
-0.106463,0.626768,1.662,1.77944
-0.101068,0.626768,1.662,1.77913
-0.0956737,0.626768,1.662,1.77883
-0.0902792,0.626768,1.662,1.77855
-0.0844762,0.623751,1.654,1.76972
-0.0791077,0.623751,1.654,1.76947
-0.0737393,0.623751,1.654,1.76924
-0.0680401,0.620734,1.646,1.76047
-0.0626976,0.620734,1.646,1.76027
-0.0573551,0.620734,1.646,1.76009
-0.0517598,0.617717,1.638,1.75137
-0.0462164,0.6147,1.63,1.74267
-0.0409258,0.6147,1.63,1.74254
-0.0356353,0.6147,1.63,1.74242
-0.0303447,0.6147,1.63,1.74232
-0.0250541,0.6147,1.63,1.74224
-0.0196665,0.611684,1.622,1.73362
-0.0144019,0.611684,1.622,1.73357
-0.00913731,0.611684,1.622,1.73353
-0.0038727,0.611684,1.622,1.73351
0.00139191,0.611684,1.622,1.73351
0.00665651,0.611684,1.622,1.73352
0.0119211,0.611684,1.622,1.73355
0.0171857,0.611684,1.622,1.73359
0.0225611,0.6147,1.63,1.7422
0.0278516,0.6147,1.63,1.74228
0.0331422,0.6147,1.63,1.74237
0.0384328,0.6147,1.63,1.74248
0.0437234,0.6147,1.63,1.7426
0.0490139,0.6147,1.63,1.74274
0.054571,0.617717,1.638,1.75146
0.0598876,0.617717,1.638,1.75163
0.0648857,0.6147,1.63,1.74326
0.0701763,0.6147,1.63,1.74347
0.0758372,0.617717,1.638,1.75225
0.0811538,0.617717,1.638,1.75249
0.0864703,0.617717,1.638,1.75274
0.0917868,0.617717,1.638,1.75301
0.0971034,0.617717,1.638,1.7533
0.10242,0.617717,1.638,1.7536
0.10721,0.6147,1.63,1.74535
0.112501,0.6147,1.63,1.74568
0.117791,0.6147,1.63,1.74603
0.122478,0.611684,1.622,1.73783
0.127743,0.611684,1.622,1.73821
0.133007,0.611684,1.622,1.7386
0.137675,0.609044,1.615,1.73151
0.142917,0.609044,1.615,1.73193
0.148159,0.609044,1.615,1.73237
0.153401,0.609044,1.615,1.73283
0.158643,0.609044,1.615,1.7333
0.163884,0.609044,1.615,1.73379
0.169126,0.609044,1.615,1.73429
0.174368,0.609044,1.615,1.73481
0.17961,0.609044,1.615,1.73534
0.184852,0.609044,1.615,1.73589
0.190094,0.609044,1.615,1.73646
0.195336,0.609044,1.615,1.73704
0.200578,0.609044,1.615,1.73764
0.20582,0.609044,1.615,1.73825
0.211061,0.609044,1.615,1.73888
0.216303,0.609044,1.615,1.73952
0.221545,0.609044,1.615,1.74018
0.22777,0.611684,1.622,1.74841
0.233035,0.611684,1.622,1.7491
0.238299,0.611684,1.622,1.74981
0.243564,0.611684,1.622,1.75053
0.248829,0.611684,1.622,1.75127
0.254093,0.611684,1.622,1.75203
0.259358,0.611684,1.622,1.7528
0.264622,0.611684,1.622,1.75359
0.269887,0.611684,1.622,1.75439
0.275152,0.611684,1.622,1.75521
0.279206,0.609044,1.615,1.74846
0.284448,0.609044,1.615,1.74931
0.28969,0.609044,1.615,1.75017
0.294932,0.609044,1.615,1.75104
0.300174,0.609044,1.615,1.75193
0.302579,0.603387,1.6,1.73656
0.307772,0.603387,1.6,1.73747
0.312965,0.603387,1.6,1.7384
0.316568,0.60037,1.592,1.73064
0.321735,0.60037,1.592,1.7316
0.326902,0.60037,1.592,1.73256
0.330609,0.59773,1.585,1.72592
0.335754,0.59773,1.585,1.72692
0.340898,0.59773,1.585,1.72792
0.346043,0.59773,1.585,1.72895
0.351187,0.59773,1.585,1.72998
0.356332,0.59773,1.585,1.73103
0.364897,0.603387,1.6,1.74849
0.37009,0.603387,1.6,1.74958
0.376925,0.606027,1.607,1.75835
0.382141,0.606027,1.607,1.75947
0.387357,0.606027,1.607,1.76061
0.392573,0.606027,1.607,1.76177
0.397789,0.606027,1.607,1.76294
0.403005,0.606027,1.607,1.76412
0.410253,0.609044,1.615,1.77411
0.415495,0.609044,1.615,1.77533
0.422561,0.611684,1.622,1.78426
0.427825,0.611684,1.622,1.78552
0.435226,0.6147,1.63,1.7956
0.440517,0.6147,1.63,1.79689
0.445807,0.6147,1.63,1.79819
0.451098,0.6147,1.63,1.79951
0.456388,0.6147,1.63,1.80085
0.461679,0.6147,1.63,1.80219
0.466969,0.6147,1.63,1.80356
0.474578,0.617717,1.638,1.81379
0.477551,0.6147,1.63,1.80633
0.482841,0.6147,1.63,1.80773
0.488132,0.6147,1.63,1.80915
0.495844,0.617717,1.638,1.81947
0.501161,0.617717,1.638,1.82093
0.506477,0.617717,1.638,1.8224
0.511794,0.617717,1.638,1.82388
0.51711,0.617717,1.638,1.82538
0.522427,0.617717,1.638,1.8269
0.527743,0.617717,1.638,1.82842
0.53306,0.617717,1.638,1.82996
0.541006,0.620734,1.646,1.84047
0.546348,0.620734,1.646,1.84204
0.551691,0.620734,1.646,1.84363
0.557033,0.620734,1.646,1.84524
0.565109,0.623751,1.654,1.85584
0.570478,0.623751,1.654,1.85748
0.575846,0.623751,1.654,1.85913
0.581214,0.623751,1.654,1.8608
0.586583,0.623751,1.654,1.86249
0.591951,0.623751,1.654,1.86419
0.59732,0.623751,1.654,1.8659
0.602688,0.623751,1.654,1.86762
0.608057,0.623751,1.654,1.86936
0.613425,0.623751,1.654,1.87112
0.618794,0.623751,1.654,1.87288
0.621143,0.620734,1.646,1.8656
0.626486,0.620734,1.646,1.86738
0.631828,0.620734,1.646,1.86918
0.637171,0.620734,1.646,1.87099
0.642513,0.620734,1.646,1.87282
0.644707,0.617717,1.638,1.86555
0.650024,0.617717,1.638,1.86739
0.65534,0.617717,1.638,1.86925
0.660657,0.617717,1.638,1.87112
0.665973,0.617717,1.638,1.873
0.668011,0.6147,1.63,1.86574
0.673302,0.6147,1.63,1.86764
0.681923,0.617717,1.638,1.87873
0.687239,0.617717,1.638,1.88067
0.692556,0.617717,1.638,1.88262
0.697873,0.617717,1.638,1.88458
0.706623,0.620734,1.646,1.89577
0.711966,0.620734,1.646,1.89777
0.717309,0.620734,1.646,1.89978
0.726163,0.623751,1.654,1.91105
0.731532,0.623751,1.654,1.91309
0.7369,0.623751,1.654,1.91515
0.742269,0.623751,1.654,1.91722
0.747637,0.623751,1.654,1.91931
0.756648,0.626768,1.662,1.9307
0.762042,0.626768,1.662,1.93282
0.771131,0.629785,1.67,1.94427
0.776551,0.629785,1.67,1.94642
0.781971,0.629785,1.67,1.94859
0.787392,0.629785,1.67,1.95077
0.792812,0.629785,1.67,1.95297
0.802057,0.632802,1.678,1.96454
0.807503,0.632802,1.678,1.96677
0.812949,0.632802,1.678,1.96901
0.822297,0.635819,1.686,1.98067
0.832188,0.639213,1.695,1.99353
0.83769,0.639213,1.695,1.99583
0.847171,0.64223,1.703,2.00758
0.861211,0.648641,1.72,2.02998
0.866793,0.648641,1.72,2.03235
0.872376,0.648641,1.72,2.03474
0.882553,0.652035,1.729,2.0478
0.892788,0.655429,1.738,2.0609
0.898429,0.655429,1.738,2.06335
0.90407,0.655429,1.738,2.06581
0.909711,0.655429,1.738,2.06829
0.915352,0.655429,1.738,2.07077
0.916224,0.652035,1.729,2.06254
0.921836,0.652035,1.729,2.06504
0.92262,0.648641,1.72,2.05678
0.923886,0.645624,1.712,2.04972
0.920213,0.639213,1.695,2.03185
0.925715,0.639213,1.695,2.03435
0.926272,0.635819,1.686,2.02604
0.927323,0.632802,1.678,2.01892
0.932769,0.632802,1.678,2.02143
0.92927,0.626768,1.662,2.00465
0.930165,0.623751,1.654,1.9975
0.935534,0.623751,1.654,2
0.936351,0.620734,1.646,1.99283
0.941694,0.620734,1.646,1.99535
0.947036,0.620734,1.646,1.99788
0.94775,0.617717,1.638,1.99069
0.948412,0.6147,1.63,1.98349
0.953702,0.6147,1.63,1.98603
0.958993,0.6147,1.63,1.98857
0.959551,0.611684,1.622,1.98136
0.964815,0.611684,1.622,1.98391
0.97008,0.611684,1.622,1.98648
0.975345,0.611684,1.622,1.98905
0.985446,0.6147,1.63,2.00146
0.990736,0.6147,1.63,2.00407
0.996027,0.6147,1.63,2.0067
1.00132,0.6147,1.63,2.00933
1.01155,0.617717,1.638,2.02184
1.01687,0.617717,1.638,2.02451
1.02717,0.620734,1.646,2.03708
1.03252,0.620734,1.646,2.03978
1.03786,0.620734,1.646,2.04249
1.04827,0.623751,1.654,2.05515
1.05364,0.623751,1.654,2.0579
1.05901,0.623751,1.654,2.06065
1.06438,0.623751,1.654,2.06341
1.06975,0.623751,1.654,2.06619
1.07511,0.623751,1.654,2.06897
1.08048,0.623751,1.654,2.07177
1.08585,0.623751,1.654,2.07457
1.09122,0.623751,1.654,2.07739
1.09659,0.623751,1.654,2.08021
1.10196,0.623751,1.654,2.08305
1.11268,0.626768,1.662,2.09598
1.11808,0.626768,1.662,2.09885
1.12347,0.626768,1.662,2.10173
1.12886,0.626768,1.662,2.10462
-1.17588,0.644713,1.695,2.16133
-1.1759,0.647756,1.703,2.16853
-1.18205,0.654222,1.72,2.18716
-1.17647,0.654222,1.72,2.18415
-1.17089,0.654222,1.72,2.18114
-1.1836,0.664492,1.747,2.21234
-1.19007,0.671338,1.765,2.23208
-1.18434,0.671338,1.765,2.22903
-1.19063,0.678185,1.783,2.24869
-1.20345,0.688835,1.811,2.2809
-1.19757,0.688835,1.811,2.2778
-1.20485,0.696442,1.831,2.29984
-1.21855,0.707853,1.861,2.33436
-1.21251,0.707853,1.861,2.33121
-1.20647,0.707853,1.861,2.32808
-1.20043,0.707853,1.861,2.32495
-1.20081,0.711657,1.871,2.33432
-1.18835,0.707853,1.861,2.31874
-1.18231,0.707853,1.861,2.31565
-1.17627,0.707853,1.861,2.31257
-1.16331,0.703669,1.85,2.29585
-1.15731,0.703669,1.85,2.29282
-1.1513,0.703669,1.85,2.28979
-1.13973,0.700246,1.841,2.27565
-1.13375,0.700246,1.841,2.27267
-1.12778,0.700246,1.841,2.26969
-1.1218,0.700246,1.841,2.26673
-1.11583,0.700246,1.841,2.26378
-1.10382,0.696442,1.831,2.24856
-1.09788,0.696442,1.831,2.24565
-1.09194,0.696442,1.831,2.24275
-1.08599,0.696442,1.831,2.23986
-1.08005,0.696442,1.831,2.23698
-1.07411,0.696442,1.831,2.23412
-1.06233,0.692639,1.821,2.21908
-1.05642,0.692639,1.821,2.21626
-1.05051,0.692639,1.821,2.21345
-1.0446,0.692639,1.821,2.21065
-1.02785,0.685412,1.802,2.18483
-1.022,0.685412,1.802,2.18208
-1.01615,0.685412,1.802,2.17935
-1.0103,0.685412,1.802,2.17663
-1.00445,0.685412,1.802,2.17392
-0.998606,0.685412,1.802,2.17122
-0.992757,0.685412,1.802,2.16854
-0.986908,0.685412,1.802,2.16587
-0.981059,0.685412,1.802,2.16321
-0.975211,0.685412,1.802,2.16056
-0.974203,0.688835,1.811,2.16871
-0.968325,0.688835,1.811,2.16607
-0.962447,0.688835,1.811,2.16345
-0.961851,0.692639,1.821,2.17277
-0.955941,0.692639,1.821,2.17016
-0.95003,0.692639,1.821,2.16757
-0.954489,0.700246,1.841,2.18876
-0.948513,0.700246,1.841,2.18616
-0.942538,0.700246,1.841,2.18358
-0.936562,0.700246,1.841,2.181
-0.925532,0.696442,1.831,2.16661
-0.919589,0.696442,1.831,2.16408
-0.913646,0.696442,1.831,2.16156
-0.902746,0.692639,1.821,2.14726
-0.896836,0.692639,1.821,2.14479
-0.886032,0.688835,1.811,2.13056
-0.87578,0.685412,1.802,2.11754
-0.869931,0.685412,1.802,2.11513
-0.859288,0.681608,1.792,2.10101
-0.849185,0.678185,1.783,2.08809
-0.843397,0.678185,1.783,2.08575
-0.83761,0.678185,1.783,2.08341
-0.831823,0.678185,1.783,2.08109
-0.826036,0.678185,1.783,2.07879
-0.820249,0.678185,1.783,2.0765
-0.814462,0.678185,1.783,2.07422
-0.808674,0.678185,1.783,2.07195
-0.811443,0.685412,1.802,2.09175
-0.805594,0.685412,1.802,2.08949
-0.799745,0.685412,1.802,2.08724
-0.793896,0.685412,1.802,2.08501
-0.788048,0.685412,1.802,2.08279
-0.777858,0.681608,1.792,2.06904
-0.772042,0.681608,1.792,2.06686
-0.766225,0.681608,1.792,2.06469
-0.760409,0.681608,1.792,2.06254
-0.754593,0.681608,1.792,2.0604
-0.748776,0.681608,1.792,2.05828
-0.74296,0.681608,1.792,2.05617
-0.741257,0.685412,1.802,2.06554
-0.735408,0.685412,1.802,2.06345
-0.725511,0.681608,1.792,2.04993
-0.719694,0.681608,1.792,2.04788
-0.713878,0.681608,1.792,2.04584
-0.708061,0.681608,1.792,2.04382
-0.702245,0.681608,1.792,2.04181
-0.696429,0.681608,1.792,2.03982
-0.690612,0.681608,1.792,2.03784
-0.684796,0.681608,1.792,2.03588
-0.675569,0.678185,1.783,2.02371
-0.669782,0.678185,1.783,2.02179
-0.663995,0.678185,1.783,2.01988
-0.654885,0.674762,1.774,2.0078
-0.649128,0.674762,1.774,2.00593
-0.64337,0.674762,1.774,2.00407
-0.634377,0.671338,1.765,1.99207
-0.628648,0.671338,1.765,1.99026
-0.619743,0.667915,1.756,1.97831
-0.614043,0.667915,1.756,1.97654
-0.605226,0.664492,1.747,1.96465
-0.599556,0.664492,1.747,1.96291
-0.593885,0.664492,1.747,1.96119
-0.585185,0.661069,1.738,1.94938
-0.579544,0.661069,1.738,1.9477
-0.570931,0.657645,1.729,1.93595
-0.565319,0.657645,1.729,1.9343
-0.559707,0.657645,1.729,1.93267
-0.551211,0.654222,1.72,1.921
-0.54309,0.651179,1.712,1.91048
-0.537533,0.651179,1.712,1.90891
-0.531977,0.651179,1.712,1.90735
-0.52642,0.651179,1.712,1.90581
-0.520863,0.651179,1.712,1.90428
-0.515306,0.651179,1.712,1.90277
-0.50707,0.647756,1.703,1.89127
-0.501543,0.647756,1.703,1.8898
-0.496015,0.647756,1.703,1.88834
-0.490487,0.647756,1.703,1.8869
-0.48496,0.647756,1.703,1.88547
-0.479432,0.647756,1.703,1.88405
-0.473905,0.647756,1.703,1.88265
-0.468377,0.647756,1.703,1.88127
-0.460676,0.644713,1.695,1.87107
-0.455174,0.644713,1.695,1.86972
-0.449672,0.644713,1.695,1.86839
-0.444171,0.644713,1.695,1.86707
-0.438669,0.644713,1.695,1.86577
-0.433168,0.644713,1.695,1.86449
-0.425395,0.64129,1.686,1.85332
-0.419923,0.64129,1.686,1.85208
-0.414451,0.64129,1.686,1.85084
-0.408978,0.64129,1.686,1.84962
-0.403506,0.64129,1.686,1.84842
-0.398034,0.64129,1.686,1.84724
-0.392561,0.64129,1.686,1.84606
-0.387089,0.64129,1.686,1.84491
-0.383654,0.644713,1.695,1.85361
-0.378152,0.644713,1.695,1.85248
-0.372651,0.644713,1.695,1.85136
-0.367149,0.644713,1.695,1.85026
-0.361648,0.644713,1.695,1.84918
-0.356146,0.644713,1.695,1.84811
-0.350645,0.644713,1.695,1.84706
-0.345143,0.644713,1.695,1.84602
-0.339641,0.644713,1.695,1.845
-0.33414,0.644713,1.695,1.844
-0.328638,0.644713,1.695,1.84301
-0.323137,0.644713,1.695,1.84204
-0.317635,0.644713,1.695,1.84108
-0.312134,0.644713,1.695,1.84014
-0.306632,0.644713,1.695,1.83921
-0.299532,0.64129,1.686,1.82854
-0.294059,0.64129,1.686,1.82765
-0.288587,0.64129,1.686,1.82678
-0.283115,0.64129,1.686,1.82593
-0.277642,0.64129,1.686,1.82508
-0.270879,0.638247,1.678,1.8156
-0.264167,0.635204,1.67,1.80615
-0.258746,0.635204,1.67,1.80536
-0.252112,0.632161,1.662,1.79595
-0.246718,0.632161,1.662,1.7952
-0.240162,0.629118,1.654,1.78583
-0.234793,0.629118,1.654,1.78511
-0.229425,0.629118,1.654,1.78442
-0.222973,0.626075,1.646,1.77511
-0.21763,0.626075,1.646,1.77444
-0.212288,0.626075,1.646,1.7738
-0.206945,0.626075,1.646,1.77316
-0.201603,0.626075,1.646,1.77255
-0.19626,0.626075,1.646,1.77195
-0.190918,0.626075,1.646,1.77137
-0.185575,0.626075,1.646,1.7708
-0.179357,0.623033,1.638,1.76164
-0.17404,0.623033,1.638,1.76111
-0.168724,0.623033,1.638,1.76059
-0.163407,0.623033,1.638,1.76009
-0.158091,0.623033,1.638,1.7596
-0.152774,0.623033,1.638,1.75913
-0.148178,0.626075,1.646,1.76727
-0.142835,0.626075,1.646,1.76683
-0.137493,0.626075,1.646,1.76641
-0.13215,0.626075,1.646,1.766
-0.126808,0.626075,1.646,1.76561
-0.121465,0.626075,1.646,1.76523
-0.116123,0.626075,1.646,1.76487
-0.11078,0.626075,1.646,1.76453
-0.104925,0.623033,1.638,1.75563
-0.0996087,0.623033,1.638,1.75532
-0.0942921,0.623033,1.638,1.75502
-0.0889756,0.623033,1.638,1.75475
-0.083659,0.623033,1.638,1.75448
-0.0783425,0.623033,1.638,1.75424
-0.0726693,0.61999,1.63,1.74544
-0.067048,0.616947,1.622,1.73666
-0.0617834,0.616947,1.622,1.73647
-0.0565188,0.616947,1.622,1.73629
-0.051033,0.614284,1.615,1.72863
-0.0457911,0.614284,1.615,1.72849
-0.0405492,0.614284,1.615,1.72836
-0.0353073,0.614284,1.615,1.72824
-0.0299165,0.611241,1.607,1.71958
-0.0247006,0.611241,1.607,1.7195
-0.0194847,0.611241,1.607,1.71943
-0.0142687,0.611241,1.607,1.71938
-0.00905281,0.611241,1.607,1.71934
-0.00383689,0.611241,1.607,1.71933
0.00137903,0.611241,1.607,1.71932
0.00659496,0.611241,1.607,1.71933
0.0118109,0.611241,1.607,1.71936
0.0170268,0.611241,1.607,1.71941
0.0223535,0.614284,1.615,1.72802
0.0275953,0.614284,1.615,1.7281
0.0328372,0.614284,1.615,1.72819
0.0380791,0.614284,1.615,1.7283
0.043321,0.614284,1.615,1.72842
0.0485629,0.614284,1.615,1.72856
0.0538048,0.614284,1.615,1.72872
0.0590467,0.614284,1.615,1.72889
0.0642886,0.614284,1.615,1.72908
0.0695305,0.614284,1.615,1.72928
0.0747723,0.614284,1.615,1.7295
0.0800142,0.614284,1.615,1.72973
0.0852561,0.614284,1.615,1.72998
0.090498,0.614284,1.615,1.73025
0.0957399,0.614284,1.615,1.73053
0.100982,0.614284,1.615,1.73083
0.106224,0.614284,1.615,1.73114
0.112501,0.61999,1.63,1.74755
0.117791,0.61999,1.63,1.7479
0.122478,0.616947,1.622,1.73969
0.127743,0.616947,1.622,1.74006
0.133007,0.616947,1.622,1.74046
0.137675,0.614284,1.615,1.73336
0.142917,0.614284,1.615,1.73378
0.148159,0.614284,1.615,1.73422
0.153401,0.614284,1.615,1.73468
0.158643,0.614284,1.615,1.73515
0.163884,0.614284,1.615,1.73563
0.169126,0.614284,1.615,1.73614
0.174368,0.614284,1.615,1.73666
0.17961,0.614284,1.615,1.73719
0.184852,0.614284,1.615,1.73774
0.190094,0.614284,1.615,1.73831
0.195336,0.614284,1.615,1.73889
0.200578,0.614284,1.615,1.73948
0.20582,0.614284,1.615,1.7401
0.211061,0.614284,1.615,1.74072
0.216303,0.614284,1.615,1.74137
0.221545,0.614284,1.615,1.74203
0.22777,0.616947,1.622,1.75025
0.233035,0.616947,1.622,1.75095
0.238299,0.616947,1.622,1.75165
0.243564,0.616947,1.622,1.75238
0.248829,0.616947,1.622,1.75312
0.254093,0.616947,1.622,1.75387
0.259358,0.616947,1.622,1.75464
0.264622,0.616947,1.622,1.75543
0.269887,0.616947,1.622,1.75623
0.275152,0.616947,1.622,1.75705
0.279206,0.614284,1.615,1.75029
0.284448,0.614284,1.615,1.75114
0.28969,0.614284,1.615,1.752
0.294932,0.614284,1.615,1.75287
0.300174,0.614284,1.615,1.75376
0.302579,0.608579,1.6,1.73837
0.307772,0.608579,1.6,1.73928
0.312965,0.608579,1.6,1.74021
0.316568,0.605536,1.592,1.73244
0.321735,0.605536,1.592,1.73339
0.326902,0.605536,1.592,1.73436
0.330609,0.602873,1.585,1.72771
0.335754,0.602873,1.585,1.7287
0.340898,0.602873,1.585,1.72971
0.346043,0.602873,1.585,1.73073
0.351187,0.602873,1.585,1.73177
0.356332,0.602873,1.585,1.73282
0.361476,0.602873,1.585,1.73388
0.366621,0.602873,1.585,1.73496
0.371765,0.602873,1.585,1.73606
0.378574,0.605536,1.592,1.74484
0.383742,0.605536,1.592,1.74597
0.388909,0.605536,1.592,1.74711
0.394076,0.605536,1.592,1.74827
0.399243,0.605536,1.592,1.74944
0.404411,0.605536,1.592,1.75062
0.411636,0.608579,1.6,1.76063
0.418653,0.611241,1.607,1.76956
0.423869,0.611241,1.607,1.7708
0.429085,0.611241,1.607,1.77206
0.434301,0.611241,1.607,1.77333
0.439517,0.611241,1.607,1.77461
0.444732,0.611241,1.607,1.77591
0.452188,0.614284,1.615,1.78607
0.45743,0.614284,1.615,1.7874
0.46038,0.611241,1.607,1.77989
0.465596,0.611241,1.607,1.78125
0.470812,0.611241,1.607,1.78262
0.476028,0.611241,1.607,1.784
0.481244,0.611241,1.607,1.7854
0.48646,0.611241,1.607,1.78682
0.491676,0.611241,1.607,1.78824
0.499365,0.614284,1.615,1.79859
0.504607,0.614284,1.615,1.80006
0.509849,0.614284,1.615,1.80153
0.515091,0.614284,1.615,1.80302
0.520333,0.614284,1.615,1.80453
0.525575,0.614284,1.615,1.80605
0.533117,0.616947,1.622,1.81541
0.538382,0.616947,1.622,1.81697
0.543647,0.616947,1.622,1.81853
0.548911,0.616947,1.622,1.82011
0.554176,0.616947,1.622,1.82171
0.5622,0.61999,1.63,1.83231
0.56749,0.61999,1.63,1.83394
0.572781,0.61999,1.63,1.83558
0.578071,0.61999,1.63,1.83724
0.583362,0.61999,1.63,1.83891
0.588653,0.61999,1.63,1.8406
0.593943,0.61999,1.63,1.8423
0.599234,0.61999,1.63,1.84401
0.604524,0.61999,1.63,1.84573
0.609815,0.61999,1.63,1.84747
0.612087,0.616947,1.622,1.84015
0.617351,0.616947,1.622,1.84191
0.622616,0.616947,1.622,1.84368
0.62788,0.616947,1.622,1.84547
0.633145,0.616947,1.622,1.84726
0.635654,0.614284,1.615,1.84109
0.640896,0.614284,1.615,1.84291
0.646138,0.614284,1.615,1.84474
0.654203,0.616947,1.622,1.85459
0.659468,0.616947,1.622,1.85645
0.661864,0.614284,1.615,1.85031
0.667106,0.614284,1.615,1.85219
0.672348,0.614284,1.615,1.85408
0.67759,0.614284,1.615,1.85599
0.685791,0.616947,1.622,1.86596
0.691056,0.616947,1.622,1.8679
0.69632,0.616947,1.622,1.86986
0.701585,0.616947,1.622,1.87183
0.710336,0.61999,1.63,1.88305
0.715626,0.61999,1.63,1.88505
0.720917,0.61999,1.63,1.88706
0.729772,0.623033,1.638,1.89836
0.735088,0.623033,1.638,1.90041
0.740405,0.623033,1.638,1.90248
0.745721,0.623033,1.638,1.90455
0.754706,0.626075,1.646,1.91595
0.760049,0.626075,1.646,1.91806
0.765391,0.626075,1.646,1.92018
0.770734,0.626075,1.646,1.92232
0.779848,0.629118,1.654,1.93382
0.785216,0.629118,1.654,1.93599
0.790585,0.629118,1.654,1.93818
0.799803,0.632161,1.662,1.94976
0.805198,0.632161,1.662,1.95198
0.810592,0.632161,1.662,1.95421
0.823842,0.638247,1.678,1.97529
0.829288,0.638247,1.678,1.97756
0.838714,0.64129,1.686,1.98929
0.848693,0.644713,1.695,2.00224
0.858226,0.647756,1.703,2.01404
0.863754,0.647756,1.703,2.0164
0.873875,0.651179,1.712,2.02944
0.883541,0.654222,1.72,2.04134
0.889124,0.654222,1.72,2.04376
0.899388,0.657645,1.729,2.0569
0.905,0.657645,1.729,2.05936
0.910612,0.657645,1.729,2.06183
0.911455,0.654222,1.72,2.05357
0.917038,0.654222,1.72,2.05606
0.913501,0.647756,1.703,2.03821
0.914712,0.644713,1.695,2.0311
0.915327,0.64129,1.686,2.02279
0.920799,0.64129,1.686,2.02527
0.917482,0.635204,1.67,2.00852
0.918481,0.632161,1.662,2.00137
0.923875,0.632161,1.662,2.00385
0.920324,0.626075,1.646,1.98703
0.921167,0.623033,1.638,1.97984
0.926484,0.623033,1.638,1.98232
0.927249,0.61999,1.63,1.97511
0.923958,0.614284,1.615,1.95941
0.9292,0.614284,1.615,1.96188
0.934442,0.614284,1.615,1.96437
0.935029,0.611241,1.607,1.95713
0.940245,0.611241,1.607,1.95962
0.945461,0.611241,1.607,1.96213
0.959551,0.616947,1.622,1.98299
0.964815,0.616947,1.622,1.98554
0.97008,0.616947,1.622,1.98811
0.975345,0.616947,1.622,1.99068
0.985446,0.61999,1.63,2.0031
0.990736,0.61999,1.63,2.0057
0.996027,0.61999,1.63,2.00832
1.00132,0.61999,1.63,2.01095
1.01155,0.623033,1.638,2.02347
1.01687,0.623033,1.638,2.02614
1.02717,0.626075,1.646,2.03872
1.03252,0.626075,1.646,2.04142
1.03786,0.626075,1.646,2.04412
1.04827,0.629118,1.654,2.05679
1.05364,0.629118,1.654,2.05953
1.05901,0.629118,1.654,2.06228
1.06438,0.629118,1.654,2.06504
1.06975,0.629118,1.654,2.06782
1.07511,0.629118,1.654,2.0706
1.08048,0.629118,1.654,2.07339
1.08585,0.629118,1.654,2.07619
1.09122,0.629118,1.654,2.07901
1.09659,0.629118,1.654,2.08183
1.10196,0.629118,1.654,2.08466
1.11268,0.632161,1.662,2.0976
1.11808,0.632161,1.662,2.10047
1.12347,0.632161,1.662,2.10334
1.12886,0.632161,1.662,2.10623
-1.15298,0.637554,1.662,2.12087
-1.15311,0.640623,1.67,2.12814
-1.15869,0.646761,1.686,2.14557
-1.15322,0.646761,1.686,2.14262
-1.15387,0.650213,1.695,2.1511
-1.15989,0.656734,1.712,2.1697
-1.16579,0.663256,1.729,2.18825
-1.16018,0.663256,1.729,2.18526
-1.16659,0.670161,1.747,2.20501
-1.17886,0.680518,1.774,2.23604
-1.1731,0.680518,1.774,2.23301
-1.17919,0.687423,1.792,2.25262
-1.18581,0.694712,1.811,2.27343
-1.17994,0.694712,1.811,2.27037
-1.18054,0.698548,1.821,2.27984
-1.18108,0.702384,1.831,2.28929
-1.17514,0.702384,1.831,2.28623
-1.16919,0.702384,1.831,2.28318
-1.16325,0.702384,1.831,2.28014
-1.16363,0.70622,1.841,2.28955
-1.15137,0.702384,1.831,2.2741
-1.13917,0.698548,1.821,2.2587
-1.13326,0.698548,1.821,2.25572
-1.12735,0.698548,1.821,2.25276
-1.12144,0.698548,1.821,2.24981
-1.11552,0.698548,1.821,2.24687
-1.1218,0.70622,1.841,2.26858
-1.11583,0.70622,1.841,2.26563
-1.10382,0.702384,1.831,2.25041
-1.09788,0.702384,1.831,2.2475
-1.09194,0.702384,1.831,2.2446
-1.08599,0.702384,1.831,2.24171
-1.08005,0.702384,1.831,2.23884
-1.07411,0.702384,1.831,2.23598
-1.06233,0.698548,1.821,2.22094
-1.05642,0.698548,1.821,2.21811
-1.05051,0.698548,1.821,2.21531
-1.0446,0.698548,1.821,2.21251
-1.02785,0.691259,1.802,2.18667
-1.022,0.691259,1.802,2.18393
-1.01615,0.691259,1.802,2.18119
-1.0103,0.691259,1.802,2.17848
-1.00445,0.691259,1.802,2.17577
-0.998606,0.691259,1.802,2.17308
-0.992757,0.691259,1.802,2.17039
-0.986908,0.691259,1.802,2.16772
-0.981059,0.691259,1.802,2.16507
-0.975211,0.691259,1.802,2.16242
-0.974203,0.694712,1.811,2.17058
-0.968325,0.694712,1.811,2.16795
-0.962447,0.694712,1.811,2.16533
-0.961851,0.698548,1.821,2.17466
-0.96119,0.702384,1.831,2.18398
-0.955247,0.702384,1.831,2.18138
-0.954489,0.70622,1.841,2.19068
-0.948513,0.70622,1.841,2.18808
-0.942538,0.70622,1.841,2.1855
-0.936562,0.70622,1.841,2.18293
-0.925532,0.702384,1.831,2.16853
-0.919589,0.702384,1.831,2.166
-0.913646,0.702384,1.831,2.16348
-0.902746,0.698548,1.821,2.14918
-0.896836,0.698548,1.821,2.1467
-0.886032,0.694712,1.811,2.13246
-0.87578,0.691259,1.802,2.11944
-0.869931,0.691259,1.802,2.11703
-0.859288,0.687423,1.792,2.1029
-0.849185,0.68397,1.783,2.08998
-0.843397,0.68397,1.783,2.08764
-0.83761,0.68397,1.783,2.0853
-0.831823,0.68397,1.783,2.08299
-0.826036,0.68397,1.783,2.08068
-0.820249,0.68397,1.783,2.07839
-0.814462,0.68397,1.783,2.07611
-0.808674,0.68397,1.783,2.07385
-0.802887,0.68397,1.783,2.0716
-0.7971,0.68397,1.783,2.06937
-0.791313,0.68397,1.783,2.06714
-0.785526,0.68397,1.783,2.06493
-0.779739,0.68397,1.783,2.06274
-0.773951,0.68397,1.783,2.06056
-0.764287,0.680518,1.774,2.048
-0.758529,0.680518,1.774,2.04586
-0.752771,0.680518,1.774,2.04373
-0.747013,0.680518,1.774,2.04162
-0.745016,0.68397,1.783,2.04987
-0.739228,0.68397,1.783,2.04777
-0.729739,0.680518,1.774,2.03536
-0.723981,0.680518,1.774,2.0333
-0.718223,0.680518,1.774,2.03126
-0.712465,0.680518,1.774,2.02923
-0.706707,0.680518,1.774,2.02722
-0.697393,0.677066,1.765,2.01494
-0.691664,0.677066,1.765,2.01297
-0.685936,0.677066,1.765,2.01101
-0.680207,0.677066,1.765,2.00906
-0.674478,0.677066,1.765,2.00713
-0.665339,0.673613,1.756,1.99499
-0.65964,0.673613,1.756,1.99309
-0.65394,0.673613,1.756,1.99121
-0.644918,0.670161,1.747,1.97915
-0.639248,0.670161,1.747,1.97731
-0.630314,0.666708,1.738,1.96531
-0.621438,0.663256,1.729,1.95334
-0.615826,0.663256,1.729,1.95156
-0.607038,0.659803,1.72,1.93965
-0.598657,0.656734,1.712,1.92889
-0.593101,0.656734,1.712,1.92718
-0.587544,0.656734,1.712,1.92547
-0.581987,0.656734,1.712,1.92379
-0.5734,0.653282,1.703,1.91201
-0.567873,0.653282,1.703,1.91036
-0.562345,0.653282,1.703,1.90872
-0.554202,0.650213,1.695,1.89814
-0.5487,0.650213,1.695,1.89654
-0.543199,0.650213,1.695,1.89496
-0.534842,0.646761,1.686,1.88334
-0.52937,0.646761,1.686,1.88179
-0.523898,0.646761,1.686,1.88026
-0.518425,0.646761,1.686,1.87874
-0.512953,0.646761,1.686,1.87724
-0.507481,0.646761,1.686,1.87575
-0.502008,0.646761,1.686,1.87428
-0.496536,0.646761,1.686,1.87282
-0.491064,0.646761,1.686,1.87137
-0.483287,0.643692,1.678,1.86107
-0.477841,0.643692,1.678,1.85967
-0.474647,0.646761,1.686,1.86713
-0.469174,0.646761,1.686,1.86575
-0.461502,0.643692,1.678,1.85553
-0.456055,0.643692,1.678,1.85419
-0.450609,0.643692,1.678,1.85286
-0.445163,0.643692,1.678,1.85154
-0.439716,0.643692,1.678,1.85024
-0.43427,0.643692,1.678,1.84895
-0.428823,0.643692,1.678,1.84768
-0.423377,0.643692,1.678,1.84642
-0.417931,0.643692,1.678,1.84518
-0.410518,0.640623,1.67,1.83516
-0.405097,0.640623,1.67,1.83396
-0.399677,0.640623,1.67,1.83277
-0.394257,0.640623,1.67,1.83159
-0.388836,0.640623,1.67,1.83043
-0.383416,0.640623,1.67,1.82929
-0.377995,0.640623,1.67,1.82816
-0.372575,0.640623,1.67,1.82705
-0.367154,0.640623,1.67,1.82595
-0.361734,0.640623,1.67,1.82487
-0.356314,0.640623,1.67,1.8238
-0.350893,0.640623,1.67,1.82275
-0.345473,0.640623,1.67,1.82172
-0.340052,0.640623,1.67,1.8207
-0.336235,0.643692,1.678,1.82841
-0.330789,0.643692,1.678,1.82741
-0.325342,0.643692,1.678,1.82644
-0.319896,0.643692,1.678,1.82547
-0.31295,0.640623,1.67,1.81583
-0.30753,0.640623,1.67,1.8149
-0.30211,0.640623,1.67,1.81399
-0.295268,0.637554,1.662,1.80441
-0.289874,0.637554,1.662,1.80354
-0.284479,0.637554,1.662,1.80268
-0.277741,0.634485,1.654,1.79316
-0.272373,0.634485,1.654,1.79234
-0.267004,0.634485,1.654,1.79153
-0.26037,0.631416,1.646,1.78208
-0.255028,0.631416,1.646,1.7813
-0.248472,0.628348,1.638,1.77189
-0.243155,0.628348,1.638,1.77115
-0.236677,0.625279,1.63,1.76179
-0.231387,0.625279,1.63,1.76108
-0.226096,0.625279,1.63,1.7604
-0.220805,0.625279,1.63,1.75972
-0.215515,0.625279,1.63,1.75907
-0.210224,0.625279,1.63,1.75843
-0.203928,0.62221,1.622,1.74918
-0.198663,0.62221,1.622,1.74857
-0.193399,0.62221,1.622,1.74798
-0.188134,0.62221,1.622,1.7474
-0.182869,0.62221,1.622,1.74685
-0.177605,0.62221,1.622,1.7463
-0.171596,0.619525,1.615,1.73824
-0.166355,0.619525,1.615,1.73773
-0.161113,0.619525,1.615,1.73724
-0.155871,0.619525,1.615,1.73676
-0.151282,0.62221,1.622,1.74382
-0.148178,0.631416,1.646,1.76917
-0.142835,0.631416,1.646,1.76873
-0.137493,0.631416,1.646,1.76831
-0.13215,0.631416,1.646,1.7679
-0.126808,0.631416,1.646,1.76751
-0.121465,0.631416,1.646,1.76713
-0.116123,0.631416,1.646,1.76677
-0.11078,0.631416,1.646,1.76643
-0.104925,0.628348,1.638,1.75752
-0.0996087,0.628348,1.638,1.75721
-0.0942921,0.628348,1.638,1.75692
-0.0889756,0.628348,1.638,1.75664
-0.083659,0.628348,1.638,1.75638
-0.0783425,0.628348,1.638,1.75613
-0.0726693,0.625279,1.63,1.74733
-0.067048,0.62221,1.622,1.73854
-0.0617834,0.62221,1.622,1.73835
-0.0565188,0.62221,1.622,1.73817
-0.051033,0.619525,1.615,1.7305
-0.0457911,0.619525,1.615,1.73036
-0.0405492,0.619525,1.615,1.73023
-0.0353073,0.619525,1.615,1.73011
-0.0299165,0.616456,1.607,1.72144
-0.0247006,0.616456,1.607,1.72136
-0.0194847,0.616456,1.607,1.72129
-0.0142687,0.616456,1.607,1.72124
-0.00905281,0.616456,1.607,1.72121
-0.00383689,0.616456,1.607,1.72119
0.00137903,0.616456,1.607,1.72118
0.00659496,0.616456,1.607,1.72119
0.0118109,0.616456,1.607,1.72122
0.0170268,0.616456,1.607,1.72127
0.0223535,0.619525,1.615,1.72989
0.0275953,0.619525,1.615,1.72997
0.0328372,0.619525,1.615,1.73006
0.0380791,0.619525,1.615,1.73017
0.043321,0.619525,1.615,1.73029
0.0485629,0.619525,1.615,1.73043
0.0538048,0.619525,1.615,1.73059
0.0590467,0.619525,1.615,1.73076
0.0642886,0.619525,1.615,1.73094
0.0695305,0.619525,1.615,1.73115
0.0747723,0.619525,1.615,1.73137
0.0800142,0.619525,1.615,1.7316
0.0852561,0.619525,1.615,1.73185
0.090498,0.619525,1.615,1.73212
0.0957399,0.619525,1.615,1.7324
0.100982,0.619525,1.615,1.7327
0.105697,0.616456,1.607,1.72442
0.110913,0.616456,1.607,1.72475
0.116129,0.616456,1.607,1.7251
0.121345,0.616456,1.607,1.72545
0.126561,0.616456,1.607,1.72583
0.131203,0.61377,1.6,1.7187
0.136396,0.61377,1.6,1.7191
0.14159,0.61377,1.6,1.71952
0.146783,0.61377,1.6,1.71996
0.151216,0.610702,1.592,1.71181
0.156383,0.610702,1.592,1.71227
0.16155,0.610702,1.592,1.71275
0.166718,0.610702,1.592,1.71325
0.171885,0.610702,1.592,1.71376
0.177942,0.61377,1.6,1.7229
0.183135,0.61377,1.6,1.72344
0.188328,0.61377,1.6,1.724
0.193522,0.61377,1.6,1.72458
0.198715,0.61377,1.6,1.72517
0.203908,0.61377,1.6,1.72577
0.209101,0.61377,1.6,1.72639
0.214294,0.61377,1.6,1.72703
0.219488,0.61377,1.6,1.72768
0.224681,0.61377,1.6,1.72835
0.23088,0.616456,1.607,1.7366
0.236096,0.616456,1.607,1.7373
0.241311,0.616456,1.607,1.73802
0.246527,0.616456,1.607,1.73875
0.251743,0.616456,1.607,1.73949
0.256959,0.616456,1.607,1.74026
0.262175,0.616456,1.607,1.74104
0.267391,0.616456,1.607,1.74183
0.272607,0.616456,1.607,1.74264
0.277823,0.616456,1.607,1.74346
0.283039,0.616456,1.607,1.7443
0.286999,0.61377,1.6,1.73755
0.290731,0.610702,1.592,1.72972
0.295899,0.610702,1.592,1.7306
0.301066,0.610702,1.592,1.73149
0.304887,0.608016,1.585,1.72478
0.310031,0.608016,1.585,1.7257
0.313784,0.605331,1.578,1.719
0.318906,0.605331,1.578,1.71994
0.324027,0.605331,1.578,1.7209
0.32748,0.602262,1.57,1.71314
0.332576,0.602262,1.57,1.71413
0.337672,0.602262,1.57,1.71512
0.342768,0.602262,1.57,1.71613
0.347864,0.602262,1.57,1.71716
0.35296,0.602262,1.57,1.7182
0.358055,0.602262,1.57,1.71925
0.363151,0.602262,1.57,1.72032
0.368247,0.602262,1.57,1.7214
0.375245,0.605331,1.578,1.73128
0.380367,0.605331,1.578,1.73239
0.385489,0.605331,1.578,1.73353
0.390611,0.605331,1.578,1.73467
0.395732,0.605331,1.578,1.73583
0.402632,0.608016,1.585,1.74471
0.407777,0.608016,1.585,1.74591
0.412921,0.608016,1.585,1.74712
0.418066,0.608016,1.585,1.74834
0.42508,0.610702,1.592,1.7573
0.430247,0.610702,1.592,1.75856
0.435414,0.610702,1.592,1.75983
0.440581,0.610702,1.592,1.76112
0.445749,0.610702,1.592,1.76242
0.450916,0.610702,1.592,1.76373
0.456083,0.610702,1.592,1.76506
0.46125,0.610702,1.592,1.7664
0.466417,0.610702,1.592,1.76776
0.471585,0.610702,1.592,1.76913
0.476752,0.610702,1.592,1.77051
0.481919,0.610702,1.592,1.77191
0.487086,0.610702,1.592,1.77332
0.492254,0.610702,1.592,1.77475
0.497421,0.610702,1.592,1.77619
0.502588,0.610702,1.592,1.77764
0.507755,0.610702,1.592,1.77911
0.5155,0.61377,1.6,1.78954
0.520693,0.61377,1.6,1.79104
0.525886,0.61377,1.6,1.79256
0.533403,0.616456,1.607,1.80194
0.538619,0.616456,1.607,1.80349
0.543835,0.616456,1.607,1.80506
0.551784,0.619525,1.615,1.81563
0.557026,0.619525,1.615,1.81723
0.562268,0.619525,1.615,1.81884
0.564699,0.616456,1.607,1.81145
0.569915,0.616456,1.607,1.81308
0.575131,0.616456,1.607,1.81473
0.580346,0.616456,1.607,1.81639
0.585562,0.616456,1.607,1.81806
0.590778,0.616456,1.607,1.81975
0.593398,0.61377,1.6,1.81351
0.598591,0.61377,1.6,1.81522
0.603785,0.61377,1.6,1.81694
0.608978,0.61377,1.6,1.81867
0.614171,0.61377,1.6,1.82042
0.619364,0.61377,1.6,1.82218
0.624557,0.61377,1.6,1.82395
0.629751,0.61377,1.6,1.82573
0.634944,0.61377,1.6,1.82753
0.640137,0.61377,1.6,1.82934
0.64533,0.61377,1.6,1.83117
0.650523,0.61377,1.6,1.833
0.655717,0.61377,1.6,1.83485
0.66091,0.61377,1.6,1.83671
0.666103,0.61377,1.6,1.83859
0.671296,0.61377,1.6,1.84048
0.679449,0.616456,1.607,1.85044
0.684665,0.616456,1.607,1.85236
0.69632,0.62221,1.622,1.8716
0.701585,0.62221,1.622,1.87357
0.710336,0.625279,1.63,1.88479
0.715626,0.625279,1.63,1.88679
0.720917,0.625279,1.63,1.88881
0.729772,0.628348,1.638,1.90011
0.735088,0.628348,1.638,1.90216
0.740405,0.628348,1.638,1.90422
0.745721,0.628348,1.638,1.9063
0.754706,0.631416,1.646,1.9177
0.760049,0.631416,1.646,1.91981
0.765391,0.631416,1.646,1.92193
0.770734,0.631416,1.646,1.92407
0.779848,0.634485,1.654,1.93558
0.785216,0.634485,1.654,1.93774
0.790585,0.634485,1.654,1.93993
0.799803,0.637554,1.662,1.95151
0.805198,0.637554,1.662,1.95373
0.810592,0.637554,1.662,1.95596
0.823842,0.643692,1.678,1.97705
0.829288,0.643692,1.678,1.97933
0.838714,0.646761,1.686,1.99106
0.848693,0.650213,1.695,2.00402
0.858226,0.653282,1.703,2.01582
0.863754,0.653282,1.703,2.01818
0.873875,0.656734,1.712,2.03123
0.883541,0.659803,1.72,2.04313
0.889124,0.659803,1.72,2.04555
0.899388,0.663256,1.729,2.0587
0.905,0.663256,1.729,2.06116
0.910612,0.663256,1.729,2.06363
0.911455,0.659803,1.72,2.05536
0.917038,0.659803,1.72,2.05784
0.913501,0.653282,1.703,2.03997
0.914712,0.650213,1.695,2.03286
0.915327,0.646761,1.686,2.02453
0.920799,0.646761,1.686,2.02701
0.917482,0.640623,1.67,2.01024
0.918481,0.637554,1.662,2.00308
0.923875,0.637554,1.662,2.00556
0.920324,0.631416,1.646,1.98872
0.921167,0.628348,1.638,1.98152
0.926484,0.628348,1.638,1.984
0.927249,0.625279,1.63,1.97678
0.923958,0.619525,1.615,1.96105
0.9292,0.619525,1.615,1.96353
0.934442,0.619525,1.615,1.96602
0.935029,0.616456,1.607,1.95876
0.940245,0.616456,1.607,1.96126
0.941343,0.61377,1.6,1.95521
0.946536,0.61377,1.6,1.95771
0.951729,0.61377,1.6,1.96023
0.952138,0.610702,1.592,1.95294
0.957305,0.610702,1.592,1.95547
0.967309,0.61377,1.6,1.96784
0.972502,0.61377,1.6,1.9704
0.977695,0.61377,1.6,1.97297
0.982888,0.61377,1.6,1.97555
0.992404,0.616456,1.607,1.98679
0.99762,0.616456,1.607,1.9894
1.00284,0.616456,1.607,1.99202
1.01307,0.619525,1.615,2.00458
1.01831,0.619525,1.615,2.00724
1.02799,0.62221,1.622,2.01861
1.03835,0.625279,1.63,2.03127
1.04364,0.625279,1.63,2.03398
1.04893,0.625279,1.63,2.0367
1.05422,0.625279,1.63,2.03943
1.06471,0.628348,1.638,2.05219
1.07003,0.628348,1.638,2.05495
1.07535,0.628348,1.638,2.05773
1.08066,0.628348,1.638,2.06051
1.08598,0.628348,1.638,2.0633
1.09663,0.631416,1.646,2.0762
1.10197,0.631416,1.646,2.07902
1.10731,0.631416,1.646,2.08186
1.11265,0.631416,1.646,2.08471
1.118,0.631416,1.646,2.08756
-1.15298,0.642947,1.662,2.1225
-1.15311,0.646042,1.67,2.12977
-1.15869,0.652231,1.686,2.14722
-1.15322,0.652231,1.686,2.14427
-1.15387,0.655713,1.695,2.15277
-1.15989,0.66229,1.712,2.17138
-1.16579,0.668866,1.729,2.18995
-1.16018,0.668866,1.729,2.18697
-1.16659,0.675829,1.747,2.20674
-1.17886,0.686274,1.774,2.2378
-1.1731,0.686274,1.774,2.23477
-1.17919,0.693238,1.792,2.2544
-1.18581,0.700588,1.811,2.27524
-1.17994,0.700588,1.811,2.27218
-1.18054,0.704456,1.821,2.28166
-1.18108,0.708325,1.831,2.29112
-1.17514,0.708325,1.831,2.28806
-1.16919,0.708325,1.831,2.28502
-1.16325,0.708325,1.831,2.28198
-1.16363,0.712193,1.841,2.2914
-1.15137,0.708325,1.831,2.27595
-1.13917,0.704456,1.821,2.26053
-1.13326,0.704456,1.821,2.25756
-1.12735,0.704456,1.821,2.2546
-1.12144,0.704456,1.821,2.25165
-1.11552,0.704456,1.821,2.24871
-1.10961,0.704456,1.821,2.24578
-1.09764,0.700588,1.811,2.23055
-1.09176,0.700588,1.811,2.22767
-1.08589,0.700588,1.811,2.22479
-1.08001,0.700588,1.811,2.22193
-1.07413,0.700588,1.811,2.21908
-1.06825,0.700588,1.811,2.21624
-1.06237,0.700588,1.811,2.21341
-1.05125,0.697106,1.802,2.19961
-1.0454,0.697106,1.802,2.19682
-1.03955,0.697106,1.802,2.19404
-1.02796,0.693238,1.792,2.17912
-1.02215,0.693238,1.792,2.17638
-1.01633,0.693238,1.792,2.17365
-1.01051,0.693238,1.792,2.17094
-1.0047,0.693238,1.792,2.16824
-1.00445,0.697106,1.802,2.17763
-0.993064,0.693238,1.792,2.16287
-0.987248,0.693238,1.792,2.16021
-0.986908,0.697106,1.802,2.1696
-0.981059,0.697106,1.802,2.16694
-0.975211,0.697106,1.802,2.1643
-0.974203,0.700588,1.811,2.17247
-0.968325,0.700588,1.811,2.16984
-0.962447,0.700588,1.811,2.16722
-0.961851,0.704456,1.821,2.17657
-0.96119,0.708325,1.831,2.1859
-0.955247,0.708325,1.831,2.1833
-0.954489,0.712193,1.841,2.19261
-0.948513,0.712193,1.841,2.19002
-0.942538,0.712193,1.841,2.18744
-0.936562,0.712193,1.841,2.18487
-0.925532,0.708325,1.831,2.17046
-0.919589,0.708325,1.831,2.16793
-0.908657,0.704456,1.821,2.15359
-0.897789,0.700588,1.811,2.13929
-0.89191,0.700588,1.811,2.13683
-0.881629,0.697106,1.802,2.12378
-0.87092,0.693238,1.792,2.10958
-0.865104,0.693238,1.792,2.10719
-0.854972,0.689756,1.783,2.09424
-0.844898,0.686274,1.774,2.08132
-0.83914,0.686274,1.774,2.07899
-0.833382,0.686274,1.774,2.07667
-0.823426,0.682793,1.765,2.06385
-0.817697,0.682793,1.765,2.06157
-0.811968,0.682793,1.765,2.0593
-0.806239,0.682793,1.765,2.05705
-0.800511,0.682793,1.765,2.05481
-0.794782,0.682793,1.765,2.05259
-0.789053,0.682793,1.765,2.05037
-0.783324,0.682793,1.765,2.04818
-0.777596,0.682793,1.765,2.04599
-0.771867,0.682793,1.765,2.04382
-0.762231,0.679311,1.756,2.03126
-0.756532,0.679311,1.756,2.02912
-0.750832,0.679311,1.756,2.027
-0.745133,0.679311,1.756,2.0249
-0.739433,0.679311,1.756,2.02281
-0.733734,0.679311,1.756,2.02073
-0.728034,0.679311,1.756,2.01867
-0.718633,0.675829,1.747,2.00629
-0.712962,0.675829,1.747,2.00426
-0.707292,0.675829,1.747,2.00225
-0.701622,0.675829,1.747,2.00026
-0.695951,0.675829,1.747,1.99827
-0.686725,0.672348,1.738,1.98602
-0.681084,0.672348,1.738,1.98408
-0.675443,0.672348,1.738,1.98215
-0.669801,0.672348,1.738,1.98023
-0.66416,0.672348,1.738,1.97833
-0.651699,0.665384,1.72,1.95598
-0.646116,0.665384,1.72,1.95412
-0.640534,0.665384,1.72,1.95229
-0.631998,0.66229,1.712,1.94139
-0.626441,0.66229,1.712,1.93959
-0.61762,0.658808,1.703,1.92761
-0.609217,0.655713,1.695,1.9168
-0.603716,0.655713,1.695,1.91506
-0.598214,0.655713,1.695,1.91333
-0.589566,0.652231,1.686,1.90147
-0.581322,0.649137,1.678,1.89077
-0.575875,0.649137,1.678,1.8891
-0.570429,0.649137,1.678,1.88745
-0.562289,0.646042,1.67,1.87682
-0.556869,0.646042,1.67,1.8752
-0.551448,0.646042,1.67,1.8736
-0.546028,0.646042,1.67,1.87201
-0.540607,0.646042,1.67,1.87043
-0.532623,0.642947,1.662,1.85992
-0.527229,0.642947,1.662,1.85839
-0.521834,0.642947,1.662,1.85686
-0.51644,0.642947,1.662,1.85535
-0.511045,0.642947,1.662,1.85386
-0.505651,0.642947,1.662,1.85238
-0.500257,0.642947,1.662,1.85091
-0.494862,0.642947,1.662,1.84946
-0.489468,0.642947,1.662,1.84803
-0.484073,0.642947,1.662,1.84661
-0.478679,0.642947,1.662,1.8452
-0.473284,0.642947,1.662,1.84381
-0.46789,0.642947,1.662,1.84243
-0.462496,0.642947,1.662,1.84107
-0.457101,0.642947,1.662,1.83972
-0.451707,0.642947,1.662,1.83839
-0.446312,0.642947,1.662,1.83707
-0.440918,0.642947,1.662,1.83577
-0.433427,0.639852,1.654,1.82565
-0.428059,0.639852,1.654,1.82438
-0.42269,0.639852,1.654,1.82313
-0.417322,0.639852,1.654,1.82189
-0.417931,0.649137,1.678,1.84709
-0.410518,0.646042,1.67,1.83706
-0.405097,0.646042,1.67,1.83586
-0.399677,0.646042,1.67,1.83467
-0.394257,0.646042,1.67,1.8335
-0.388836,0.646042,1.67,1.83234
-0.383416,0.646042,1.67,1.8312
-0.377995,0.646042,1.67,1.83007
-0.372575,0.646042,1.67,1.82896
-0.367154,0.646042,1.67,1.82786
-0.361734,0.646042,1.67,1.82678
-0.356314,0.646042,1.67,1.82571
-0.350893,0.646042,1.67,1.82466
-0.345473,0.646042,1.67,1.82363
-0.340052,0.646042,1.67,1.82261
-0.336235,0.649137,1.678,1.83033
-0.330789,0.649137,1.678,1.82934
-0.325342,0.649137,1.678,1.82836
-0.319896,0.649137,1.678,1.8274
-0.31295,0.646042,1.67,1.81775
-0.30753,0.646042,1.67,1.81682
-0.30211,0.646042,1.67,1.81591
-0.295268,0.642947,1.662,1.80632
-0.289874,0.642947,1.662,1.80545
-0.284479,0.642947,1.662,1.80459
-0.277741,0.639852,1.654,1.79507
-0.272373,0.639852,1.654,1.79424
-0.267004,0.639852,1.654,1.79344
-0.26037,0.636757,1.646,1.78398
-0.255028,0.636757,1.646,1.7832
-0.248472,0.633663,1.638,1.77378
-0.243155,0.633663,1.638,1.77305
-0.236677,0.630568,1.63,1.76367
-0.231387,0.630568,1.63,1.76297
-0.226096,0.630568,1.63,1.76228
-0.220805,0.630568,1.63,1.76161
-0.215515,0.630568,1.63,1.76096
-0.210224,0.630568,1.63,1.76032
-0.203928,0.627473,1.622,1.75105
-0.198663,0.627473,1.622,1.75045
-0.193399,0.627473,1.622,1.74986
-0.188134,0.627473,1.622,1.74929
-0.182869,0.627473,1.622,1.74873
-0.177605,0.627473,1.622,1.74818
-0.171596,0.624765,1.615,1.74012
-0.166355,0.624765,1.615,1.73961
-0.161113,0.624765,1.615,1.73911
-0.155871,0.624765,1.615,1.73864
-0.151282,0.627473,1.622,1.74571
-0.146017,0.627473,1.622,1.74526
-0.140753,0.627473,1.622,1.74483
-0.135488,0.627473,1.622,1.74441
-0.130223,0.627473,1.622,1.74401
-0.124959,0.627473,1.622,1.74362
-0.119694,0.627473,1.622,1.74325
-0.114429,0.627473,1.622,1.7429
-0.109165,0.627473,1.622,1.74256
-0.1039,0.627473,1.622,1.74224
-0.09821,0.624765,1.615,1.73442
-0.0929681,0.624765,1.615,1.73413
-0.0877262,0.624765,1.615,1.73385
-0.0824843,0.624765,1.615,1.7336
-0.0772424,0.624765,1.615,1.73336
-0.0720005,0.624765,1.615,1.73313
-0.066428,0.62167,1.607,1.72434
-0.061212,0.62167,1.607,1.72414
-0.0559961,0.62167,1.607,1.72397
-0.050559,0.618962,1.6,1.7163
-0.0453658,0.618962,1.6,1.71615
-0.0401726,0.618962,1.6,1.71602
-0.0349794,0.618962,1.6,1.71591
-0.0296373,0.615867,1.592,1.70723
-0.02447,0.615867,1.592,1.70715
-0.0193028,0.615867,1.592,1.70708
-0.0141355,0.615867,1.592,1.70703
-0.00896831,0.615867,1.592,1.707
-0.00380108,0.615867,1.592,1.70698
0.00136616,0.615867,1.592,1.70697
0.0065334,0.615867,1.592,1.70699
0.0117006,0.615867,1.592,1.70701
0.0169526,0.618962,1.6,1.71563
0.0221458,0.618962,1.6,1.71569
0.027339,0.618962,1.6,1.71577
0.0325322,0.618962,1.6,1.71586
0.0377254,0.618962,1.6,1.71597
0.0429186,0.618962,1.6,1.71609
0.0481119,0.618962,1.6,1.71623
0.0533051,0.618962,1.6,1.71638
0.0584983,0.618962,1.6,1.71655
0.0636915,0.618962,1.6,1.71673
0.0688847,0.618962,1.6,1.71693
0.0740779,0.618962,1.6,1.71715
0.0792711,0.618962,1.6,1.71738
0.0844643,0.618962,1.6,1.71763
0.0896575,0.618962,1.6,1.71789
0.0948507,0.618962,1.6,1.71817
0.0995437,0.615867,1.592,1.70987
0.104711,0.615867,1.592,1.71018
0.109878,0.615867,1.592,1.71051
0.11454,0.613159,1.585,1.70332
0.119684,0.613159,1.585,1.70368
0.124829,0.613159,1.585,1.70405
0.129973,0.613159,1.585,1.70443
0.134521,0.610452,1.578,1.6973
0.139643,0.610452,1.578,1.69771
0.144764,0.610452,1.578,1.69814
0.149886,0.610452,1.578,1.69859
0.155008,0.610452,1.578,1.69905
0.16013,0.610452,1.578,1.69952
0.165252,0.610452,1.578,1.70001
0.170373,0.610452,1.578,1.70052
0.175495,0.610452,1.578,1.70104
0.180617,0.610452,1.578,1.70158
0.185739,0.610452,1.578,1.70213
0.190861,0.610452,1.578,1.70269
0.195982,0.610452,1.578,1.70327
0.201104,0.610452,1.578,1.70387
0.207141,0.613159,1.585,1.71204
0.212285,0.613159,1.585,1.71267
0.21743,0.613159,1.585,1.71332
0.222574,0.613159,1.585,1.71398
0.227719,0.613159,1.585,1.71466
0.232863,0.613159,1.585,1.71535
0.238008,0.613159,1.585,1.71605
0.244226,0.615867,1.592,1.72436
0.249394,0.615867,1.592,1.7251
0.254561,0.615867,1.592,1.72585
0.259728,0.615867,1.592,1.72662
0.264895,0.615867,1.592,1.7274
0.270062,0.615867,1.592,1.7282
0.27523,0.615867,1.592,1.72902
0.280397,0.615867,1.592,1.72985
0.284309,0.613159,1.585,1.72308
0.288175,0.610452,1.578,1.71633
0.293297,0.610452,1.578,1.71719
0.298418,0.610452,1.578,1.71808
0.302001,0.607357,1.57,1.71026
0.307097,0.607357,1.57,1.71117
0.312193,0.607357,1.57,1.71209
0.315874,0.604649,1.563,1.70539
0.320947,0.604649,1.563,1.70633
0.32602,0.604649,1.563,1.7073
0.331093,0.604649,1.563,1.70827
0.336167,0.604649,1.563,1.70926
0.339711,0.601941,1.556,1.70261
0.344762,0.601941,1.556,1.70362
0.351386,0.604649,1.563,1.71232
0.356459,0.604649,1.563,1.71337
0.361532,0.604649,1.563,1.71443
0.366605,0.604649,1.563,1.71551
0.371678,0.604649,1.563,1.7166
0.376751,0.604649,1.563,1.71771
