-0.813146,0.688255,2.075,2.33249
-0.806412,0.688255,2.075,2.33015
-0.799677,0.688255,2.075,2.32783
-0.792942,0.688255,2.075,2.32553
-0.790753,0.692235,2.087,2.33667
-0.78398,0.692235,2.087,2.33439
-0.777206,0.692235,2.087,2.33213
-0.766002,0.688255,2.075,2.31648
-0.759267,0.688255,2.075,2.31426
-0.752532,0.688255,2.075,2.31206
-0.745797,0.688255,2.075,2.30988
-0.734432,0.683943,2.062,2.29325
-0.727739,0.683943,2.062,2.29112
-0.71685,0.679963,2.05,2.27568
-0.710196,0.679963,2.05,2.27359
-0.703543,0.679963,2.05,2.27152
-0.696889,0.679963,2.05,2.26947
-0.690235,0.679963,2.05,2.26744
-0.67958,0.675983,2.038,2.25216
-0.672965,0.675983,2.038,2.25017
-0.662427,0.672002,2.026,2.23497
-0.655851,0.672002,2.026,2.23303
-0.649275,0.672002,2.026,2.2311
-0.642699,0.672002,2.026,2.2292
-0.632355,0.668022,2.014,2.21412
-0.625818,0.668022,2.014,2.21226
-0.619281,0.668022,2.014,2.21042
-0.609093,0.664042,2.002,2.19544
-0.602596,0.664042,2.002,2.19364
-0.592525,0.660061,1.99,2.17873
-0.586065,0.660061,1.99,2.17698
-0.579606,0.660061,1.99,2.17525
-0.573147,0.660061,1.99,2.17354
-0.563556,0.656413,1.979,2.15984
-0.557133,0.656413,1.979,2.15817
-0.550709,0.656413,1.979,2.15652
-0.540986,0.652433,1.967,2.14183
-0.534601,0.652433,1.967,2.14022
-0.528217,0.652433,1.967,2.13864
-0.518914,0.648784,1.956,2.12512
-0.512565,0.648784,1.956,2.12358
-0.506217,0.648784,1.956,2.12205
-0.497057,0.645135,1.945,2.10862
-0.490744,0.645135,1.945,2.10714
-0.484431,0.645135,1.945,2.10568
-0.478118,0.645135,1.945,2.10424
-0.471805,0.645135,1.945,2.10281
-0.465492,0.645135,1.945,2.10141
-0.459179,0.645135,1.945,2.10002
-0.452866,0.645135,1.945,2.09865
-0.444028,0.641487,1.934,2.08543
-0.43775,0.641487,1.934,2.0841
-0.431473,0.641487,1.934,2.08279
-0.425196,0.641487,1.934,2.0815
-0.418918,0.641487,1.934,2.08023
-0.410294,0.637838,1.923,2.06715
-0.404053,0.637838,1.923,2.06592
-0.397811,0.637838,1.923,2.06471
-0.391569,0.637838,1.923,2.06351
-0.383124,0.63419,1.912,2.05054
-0.376918,0.63419,1.912,2.04939
-0.370712,0.63419,1.912,2.04826
-0.364506,0.63419,1.912,2.04715
-0.3583,0.63419,1.912,2.04605
-0.352094,0.63419,1.912,2.04497
-0.345888,0.63419,1.912,2.04391
-0.341637,0.637838,1.923,2.05462
-0.335395,0.637838,1.923,2.0536
-0.329154,0.637838,1.923,2.05259
-0.322912,0.637838,1.923,2.05159
-0.31667,0.637838,1.923,2.05062
-0.310429,0.637838,1.923,2.04967
-0.304187,0.637838,1.923,2.04873
-0.29965,0.641487,1.934,2.05953
-0.293373,0.641487,1.934,2.05862
-0.287095,0.641487,1.934,2.05774
-0.280818,0.641487,1.934,2.05687
-0.274541,0.641487,1.934,2.05602
-0.268264,0.641487,1.934,2.0552
-0.266457,0.652433,1.967,2.08944
-0.261659,0.656413,1.979,2.10138
-0.255235,0.656413,1.979,2.10059
-0.247303,0.652433,1.967,2.08708
-0.240919,0.652433,1.967,2.08634
-0.234535,0.652433,1.967,2.08561
-0.22815,0.652433,1.967,2.0849
-0.220526,0.648784,1.956,2.07256
-0.214177,0.648784,1.956,2.07189
-0.206659,0.645135,1.945,2.0596
-0.200346,0.645135,1.945,2.05897
-0.194034,0.645135,1.945,2.05837
-0.185597,0.637838,1.923,2.03451
-0.179356,0.637838,1.923,2.03395
-0.172124,0.63419,1.912,2.02177
-0.165918,0.63419,1.912,2.02125
-0.158877,0.630873,1.902,2.01019
-0.152703,0.630873,1.902,2.00971
-0.14653,0.630873,1.902,2.00925
-0.140356,0.630873,1.902,2.00881
-0.133407,0.627224,1.891,1.99677
-0.127269,0.627224,1.891,1.99637
-0.120491,0.623907,1.881,1.98543
-0.114386,0.623907,1.881,1.98507
-0.10828,0.623907,1.881,1.98473
-0.102175,0.623907,1.881,1.9844
-0.09607,0.623907,1.881,1.9841
-0.0899647,0.623907,1.881,1.98381
-0.0838595,0.623907,1.881,1.98355
-0.0777542,0.623907,1.881,1.9833
-0.071268,0.62059,1.871,1.97252
-0.0651952,0.62059,1.871,1.97231
-0.0591224,0.62059,1.871,1.97212
-0.0530496,0.62059,1.871,1.97195
-0.0469768,0.62059,1.871,1.9718
-0.040904,0.62059,1.871,1.97166
-0.0348312,0.62059,1.871,1.97154
-0.0287584,0.62059,1.871,1.97145
-0.0226856,0.62059,1.871,1.97137
-0.0166128,0.62059,1.871,1.97131
-0.01054,0.62059,1.871,1.97126
-0.00446722,0.62059,1.871,1.97124
0.00160558,0.62059,1.871,1.97124
0.00767838,0.62059,1.871,1.97125
0.0137512,0.62059,1.871,1.97128
0.019824,0.62059,1.871,1.97134
0.0258968,0.62059,1.871,1.97141
0.0319696,0.62059,1.871,1.9715
0.0380424,0.62059,1.871,1.9716
0.0441152,0.62059,1.871,1.97173
0.050188,0.62059,1.871,1.97188
0.0562608,0.62059,1.871,1.97204
0.0623336,0.62059,1.871,1.97222
0.0684064,0.62059,1.871,1.97242
0.0744792,0.62059,1.871,1.97264
0.080552,0.62059,1.871,1.97288
0.0866248,0.62059,1.871,1.97314
0.0926976,0.62059,1.871,1.97341
0.0987704,0.62059,1.871,1.97371
0.104843,0.62059,1.871,1.97402
0.110916,0.62059,1.871,1.97435
0.116989,0.62059,1.871,1.97471
0.123062,0.62059,1.871,1.97507
0.129134,0.62059,1.871,1.97546
0.135207,0.62059,1.871,1.97587
0.14128,0.62059,1.871,1.97629
0.147353,0.62059,1.871,1.97674
0.153426,0.62059,1.871,1.9772
0.159498,0.62059,1.871,1.97768
0.164686,0.617274,1.861,1.9676
0.170727,0.617274,1.861,1.96812
0.176767,0.617274,1.861,1.96865
0.18379,0.62059,1.871,1.97979
0.189862,0.62059,1.871,1.98036
0.195935,0.62059,1.871,1.98095
0.202008,0.62059,1.871,1.98156
0.208081,0.62059,1.871,1.98219
0.214154,0.62059,1.871,1.98284
0.220226,0.62059,1.871,1.9835
0.226299,0.62059,1.871,1.98418
0.232372,0.62059,1.871,1.98489
0.238445,0.62059,1.871,1.98561
0.245825,0.623907,1.881,1.99696
0.25193,0.623907,1.881,1.99772
0.258035,0.623907,1.881,1.9985
0.265545,0.627224,1.891,2.00993
0.273263,0.630873,1.902,2.02244
0.280905,0.63419,1.912,2.03392
0.287111,0.63419,1.912,2.03479
0.293317,0.63419,1.912,2.03568
0.299523,0.63419,1.912,2.03658
0.305729,0.63419,1.912,2.0375
0.311935,0.63419,1.912,2.03844
0.319971,0.637838,1.923,2.05113
0.326212,0.637838,1.923,2.05212
0.332454,0.637838,1.923,2.05312
0.338696,0.637838,1.923,2.05414
0.344937,0.637838,1.923,2.05518
0.351179,0.637838,1.923,2.05623
0.355376,0.63419,1.912,2.04554
0.361582,0.63419,1.912,2.04663
0.365864,0.630873,1.902,2.03702
0.369886,0.627224,1.891,2.02635
0.376023,0.627224,1.891,2.02748
0.38014,0.623907,1.881,2.0179
0.386245,0.623907,1.881,2.01906
0.392351,0.623907,1.881,2.02024
0.398456,0.623907,1.881,2.02143
0.404561,0.623907,1.881,2.02264
0.410666,0.623907,1.881,2.02387
0.414556,0.62059,1.871,2.01436
0.420629,0.62059,1.871,2.01561
0.426702,0.62059,1.871,2.01689
0.432774,0.62059,1.871,2.01818
0.438847,0.62059,1.871,2.0195
0.442542,0.617274,1.861,2.01002
0.448582,0.617274,1.861,2.01136
0.454623,0.617274,1.861,2.01272
0.460663,0.617274,1.861,2.01409
0.466704,0.617274,1.861,2.01548
0.46995,0.613625,1.85,2.00497
0.475954,0.613625,1.85,2.00638
0.481959,0.613625,1.85,2.00781
0.487963,0.613625,1.85,2.00926
0.493968,0.613625,1.85,2.01073
0.499973,0.613625,1.85,2.01221
0.505977,0.613625,1.85,2.01372
0.511982,0.613625,1.85,2.01523
0.517987,0.613625,1.85,2.01677
0.523991,0.613625,1.85,2.01832
0.529996,0.613625,1.85,2.01988
0.536001,0.613625,1.85,2.02147
0.542005,0.613625,1.85,2.02307
0.54801,0.613625,1.85,2.02469
0.554015,0.613625,1.85,2.02632
0.563349,0.617274,1.861,2.04003
0.569389,0.617274,1.861,2.0417
0.578522,0.62059,1.871,2.05438
0.584595,0.62059,1.871,2.05609
0.593824,0.623907,1.881,2.06883
0.59993,0.623907,1.881,2.07059
0.606035,0.623907,1.881,2.07237
0.615394,0.627224,1.891,2.08519
0.621532,0.627224,1.891,2.08701
0.62767,0.627224,1.891,2.08884
0.637494,0.630873,1.902,2.10286
0.643668,0.630873,1.902,2.10474
0.646083,0.627224,1.891,2.09445
0.652221,0.627224,1.891,2.09635
0.658358,0.627224,1.891,2.09827
0.664496,0.627224,1.891,2.1002
0.670634,0.627224,1.891,2.10215
0.676772,0.627224,1.891,2.10412
0.682909,0.627224,1.891,2.1061
0.689047,0.627224,1.891,2.1081
0.695185,0.627224,1.891,2.11011
0.697614,0.623907,1.881,2.10097
0.703719,0.623907,1.881,2.10301
0.709824,0.623907,1.881,2.10506
0.715929,0.623907,1.881,2.10713
0.722035,0.623907,1.881,2.10921
0.72814,0.623907,1.881,2.1113
0.730342,0.62059,1.871,2.10218
0.736415,0.62059,1.871,2.1043
0.746456,0.623907,1.881,2.11769
0.752561,0.623907,1.881,2.11985
0.754633,0.62059,1.871,2.11074
0.760706,0.62059,1.871,2.11292
0.766779,0.62059,1.871,2.11512
0.768721,0.617274,1.861,2.10601
0.774761,0.617274,1.861,2.10822
0.780801,0.617274,1.861,2.11045
0.786842,0.617274,1.861,2.11269
0.792882,0.617274,1.861,2.11495
0.798922,0.617274,1.861,2.11722
0.804963,0.617274,1.861,2.11951
0.811003,0.617274,1.861,2.12181
0.817043,0.617274,1.861,2.12413
0.823084,0.617274,1.861,2.12646
0.829124,0.617274,1.861,2.1288
0.839652,0.62059,1.871,2.14261
0.845725,0.62059,1.871,2.145
0.851798,0.62059,1.871,2.1474
0.857871,0.62059,1.871,2.14982
0.863943,0.62059,1.871,2.15225
0.870016,0.62059,1.871,2.15469
0.876089,0.62059,1.871,2.15715
0.882162,0.62059,1.871,2.15963
0.888235,0.62059,1.871,2.16211
0.889528,0.617274,1.861,2.15305
0.895568,0.617274,1.861,2.15555
0.901608,0.617274,1.861,2.15807
0.907649,0.617274,1.861,2.1606
0.913689,0.617274,1.861,2.16314
0.924671,0.62059,1.871,2.17734
0.92577,0.617274,1.861,2.16827
0.93181,0.617274,1.861,2.17086
0.94289,0.62059,1.871,2.18513
0.948963,0.62059,1.871,2.18776
0.955035,0.62059,1.871,2.1904
0.961108,0.62059,1.871,2.19306
0.967181,0.62059,1.871,2.19573
0.973254,0.62059,1.871,2.19841
0.979327,0.62059,1.871,2.2011
0.985399,0.62059,1.871,2.20381
0.991472,0.62059,1.871,2.20653
1.00288,0.623907,1.881,2.22108
1.00898,0.623907,1.881,2.22384
1.01509,0.623907,1.881,2.22662
1.02662,0.627224,1.891,2.24126
1.03877,0.630873,1.902,2.25713
1.04494,0.630873,1.902,2.25998
1.05111,0.630873,1.902,2.26284
1.06285,0.63419,1.912,2.27763
1.06905,0.63419,1.912,2.28053
1.08144,0.637838,1.923,2.29658
1.09391,0.641487,1.934,2.31268
1.10644,0.645135,1.945,2.32883
1.11275,0.645135,1.945,2.33183
1.1254,0.648784,1.956,2.34806
1.13811,0.652433,1.967,2.36433
1.14449,0.652433,1.967,2.36741
1.15088,0.652433,1.967,2.3705
1.15726,0.652433,1.967,2.37361
1.16365,0.652433,1.967,2.37673
1.17003,0.652433,1.967,2.37986
1.17642,0.652433,1.967,2.38301
1.1828,0.652433,1.967,2.38616
1.18919,0.652433,1.967,2.38933
1.19557,0.652433,1.967,2.39252
1.20195,0.652433,1.967,2.39572
1.20158,0.648784,1.956,2.38551
1.20793,0.648784,1.956,2.38871
1.21428,0.648784,1.956,2.39193
1.22063,0.648784,1.956,2.39516
1.22698,0.648784,1.956,2.3984
1.23332,0.648784,1.956,2.40165
1.23967,0.648784,1.956,2.40492
1.23901,0.645135,1.945,2.39466
1.24533,0.645135,1.945,2.39793
1.25164,0.645135,1.945,2.40121
1.25795,0.645135,1.945,2.40451
1.26427,0.645135,1.945,2.40782
1.26339,0.641487,1.934,2.3975
1.26245,0.637838,1.923,2.38716
1.26869,0.637838,1.923,2.39047
1.27493,0.637838,1.923,2.39379
1.28117,0.637838,1.923,2.39712
1.28742,0.637838,1.923,2.40046
1.29366,0.637838,1.923,2.40381
1.2999,0.637838,1.923,2.40718
1.30614,0.637838,1.923,2.41055
-1.6608,0.801832,2.394,3.02199
-1.65303,0.801832,2.394,3.01773
-1.65694,0.807526,2.411,3.03487
-1.64911,0.807526,2.411,3.03061
-1.64129,0.807526,2.411,3.02636
-1.63346,0.807526,2.411,3.02212
-1.6371,0.81322,2.428,3.03918
-1.62922,0.81322,2.428,3.03494
-1.62134,0.81322,2.428,3.03072
-1.60216,0.807526,2.411,3.00532
-1.59433,0.807526,2.411,3.00115
-1.58651,0.807526,2.411,2.997
-1.57868,0.807526,2.411,2.99287
-1.55978,0.801832,2.394,2.96767
-1.55201,0.801832,2.394,2.9636
-1.53328,0.796138,2.377,2.93852
-1.51529,0.790779,2.361,2.91475
-1.50763,0.790779,2.361,2.91077
-1.47964,0.780061,2.329,2.86741
-1.46196,0.774702,2.313,2.84385
-1.45446,0.774702,2.313,2.84
-1.42756,0.764319,2.282,2.79815
-1.42015,0.764319,2.282,2.79437
-1.41274,0.764319,2.282,2.79062
-1.3961,0.759295,2.267,2.76856
-1.37955,0.754271,2.252,2.74656
-1.37224,0.754271,2.252,2.7429
-1.35584,0.749247,2.237,2.721
-1.34858,0.749247,2.237,2.71739
-1.33292,0.744558,2.223,2.69681
-1.32571,0.744558,2.223,2.69325
-1.31849,0.744558,2.223,2.68971
-1.30302,0.739869,2.209,2.66926
-1.29585,0.739869,2.209,2.66577
-1.27993,0.734845,2.194,2.64421
-1.27281,0.734845,2.194,2.64077
-1.26569,0.734845,2.194,2.63735
-1.25857,0.734845,2.194,2.63394
-1.25144,0.734845,2.194,2.63054
-1.24432,0.734845,2.194,2.62716
-1.2372,0.734845,2.194,2.6238
-1.23008,0.734845,2.194,2.62045
-1.22296,0.734845,2.194,2.61711
-1.21584,0.734845,2.194,2.61379
-1.20872,0.734845,2.194,2.61049
-1.2016,0.734845,2.194,2.6072
-1.19448,0.734845,2.194,2.60392
-1.18735,0.734845,2.194,2.60066
-1.1727,0.730156,2.18,2.58084
-1.16563,0.730156,2.18,2.57764
-1.15164,0.725802,2.167,2.55909
-1.14461,0.725802,2.167,2.55594
-1.13023,0.721113,2.153,2.5363
-1.12324,0.721113,2.153,2.53319
-1.10951,0.716759,2.14,2.51483
-1.09535,0.71207,2.126,2.49534
-1.08845,0.71207,2.126,2.49232
-1.07494,0.707716,2.113,2.47409
-1.06808,0.707716,2.113,2.47112
-1.06122,0.707716,2.113,2.46816
-1.04787,0.703361,2.1,2.45005
-1.03461,0.699007,2.087,2.432
-1.02784,0.699007,2.087,2.42912
-1.01519,0.694988,2.075,2.41231
-1.00846,0.694988,2.075,2.40949
-0.995449,0.690634,2.062,2.3916
-0.988756,0.690634,2.062,2.38882
-0.976348,0.686615,2.05,2.37217
-0.969694,0.686615,2.05,2.36944
-0.96304,0.686615,2.05,2.36672
-0.950788,0.682596,2.038,2.35019
-0.938614,0.678576,2.026,2.3337
-0.932038,0.678576,2.026,2.33106
-0.925462,0.678576,2.026,2.32844
-0.913444,0.674557,2.014,2.31206
-0.906907,0.674557,2.014,2.30948
-0.90037,0.674557,2.014,2.30692
-0.893833,0.674557,2.014,2.30438
-0.887296,0.674557,2.014,2.30185
-0.880759,0.674557,2.014,2.29934
-0.874222,0.674557,2.014,2.29684
-0.867685,0.674557,2.014,2.29436
-0.861148,0.674557,2.014,2.2919
-0.854611,0.674557,2.014,2.28945
-0.848074,0.674557,2.014,2.28702
-0.841537,0.674557,2.014,2.2846
-0.835001,0.674557,2.014,2.2822
-0.8334,0.678576,2.026,2.2934
-0.826824,0.678576,2.026,2.29102
-0.820248,0.678576,2.026,2.28866
-0.813672,0.678576,2.026,2.28631
-0.811877,0.682596,2.038,2.2975
-0.805262,0.682596,2.038,2.29517
-0.798647,0.682596,2.038,2.29286
-0.796696,0.686615,2.05,2.30405
-0.790042,0.686615,2.05,2.30176
-0.783388,0.686615,2.05,2.29949
-0.776734,0.686615,2.05,2.29723
-0.770081,0.686615,2.05,2.29499
-0.758958,0.682596,2.038,2.27934
-0.752343,0.682596,2.038,2.27715
-0.745728,0.682596,2.038,2.27497
-0.739113,0.682596,2.038,2.27281
-0.728186,0.678576,2.026,2.2573
-0.72161,0.678576,2.026,2.25519
-0.715034,0.678576,2.026,2.25309
-0.704262,0.674557,2.014,2.23768
-0.697725,0.674557,2.014,2.23563
-0.691188,0.674557,2.014,2.2336
-0.684651,0.674557,2.014,2.23158
-0.674073,0.670538,2.002,2.2163
-0.667575,0.670538,2.002,2.21434
-0.657115,0.666519,1.99,2.19912
-0.650656,0.666519,1.99,2.1972
-0.644197,0.666519,1.99,2.1953
-0.637738,0.666519,1.99,2.19341
-0.627789,0.662834,1.979,2.17943
-0.621366,0.662834,1.979,2.17759
-0.614943,0.662834,1.979,2.17576
-0.604829,0.658815,1.967,2.16077
-0.595098,0.655131,1.956,2.14692
-0.58875,0.655131,1.956,2.14517
-0.582401,0.655131,1.956,2.14344
-0.586065,0.666519,1.99,2.17895
-0.579606,0.666519,1.99,2.17722
-0.573147,0.666519,1.99,2.17551
-0.563556,0.662834,1.979,2.1618
-0.557133,0.662834,1.979,2.16014
-0.550709,0.662834,1.979,2.15849
-0.540986,0.658815,1.967,2.14378
-0.534601,0.658815,1.967,2.14218
-0.528217,0.658815,1.967,2.14059
-0.518914,0.655131,1.956,2.12706
-0.512565,0.655131,1.956,2.12552
-0.506217,0.655131,1.956,2.124
-0.497057,0.651447,1.945,2.11056
-0.490744,0.651447,1.945,2.10908
-0.484431,0.651447,1.945,2.10762
-0.478118,0.651447,1.945,2.10618
-0.471805,0.651447,1.945,2.10476
-0.465492,0.651447,1.945,2.10335
-0.459179,0.651447,1.945,2.10196
-0.452866,0.651447,1.945,2.10059
-0.444028,0.647762,1.934,2.08737
-0.43775,0.647762,1.934,2.08604
-0.431473,0.647762,1.934,2.08474
-0.425196,0.647762,1.934,2.08345
-0.418918,0.647762,1.934,2.08217
-0.410294,0.644078,1.923,2.06908
-0.404053,0.644078,1.923,2.06786
-0.397811,0.644078,1.923,2.06664
-0.391569,0.644078,1.923,2.06545
-0.383124,0.640394,1.912,2.05247
-0.376918,0.640394,1.912,2.05132
-0.370712,0.640394,1.912,2.05019
-0.364506,0.640394,1.912,2.04908
-0.3583,0.640394,1.912,2.04798
-0.352094,0.640394,1.912,2.0469
-0.345888,0.640394,1.912,2.04585
-0.341637,0.644078,1.923,2.05657
-0.335395,0.644078,1.923,2.05554
-0.329154,0.644078,1.923,2.05453
-0.322912,0.644078,1.923,2.05354
-0.31667,0.644078,1.923,2.05257
-0.310429,0.644078,1.923,2.05162
-0.304187,0.644078,1.923,2.05068
-0.29965,0.647762,1.934,2.06149
-0.293373,0.647762,1.934,2.06059
-0.287095,0.647762,1.934,2.0597
-0.280818,0.647762,1.934,2.05884
-0.274541,0.647762,1.934,2.05799
-0.268264,0.647762,1.934,2.05716
-0.261986,0.647762,1.934,2.05635
-0.257163,0.651447,1.945,2.06725
-0.25085,0.651447,1.945,2.06648
-0.244537,0.651447,1.945,2.06572
-0.236877,0.647762,1.934,2.05331
-0.2306,0.647762,1.934,2.05259
-0.223047,0.644078,1.923,2.04022
-0.216805,0.644078,1.923,2.03955
-0.210564,0.644078,1.923,2.0389
-0.203153,0.640394,1.912,2.0266
-0.195917,0.637044,1.902,2.01539
-0.189744,0.637044,1.902,2.0148
-0.18357,0.637044,1.902,2.01423
-0.176371,0.63336,1.891,2.00203
-0.170233,0.63336,1.891,2.0015
-0.164096,0.63336,1.891,2.00099
-0.157123,0.630011,1.881,1.98992
-0.150214,0.626662,1.871,1.97887
-0.144142,0.626662,1.871,1.97841
-0.138069,0.626662,1.871,1.97798
-0.131996,0.626662,1.871,1.97757
-0.125923,0.626662,1.871,1.97717
-0.11921,0.623312,1.861,1.96623
-0.11317,0.623312,1.861,1.96587
-0.107129,0.623312,1.861,1.96553
-0.101089,0.623312,1.861,1.96521
-0.0944867,0.619628,1.85,1.9533
-0.0884821,0.619628,1.85,1.95302
-0.0824774,0.619628,1.85,1.95275
-0.0764728,0.619628,1.85,1.95251
-0.0704681,0.619628,1.85,1.95228
-0.0644635,0.619628,1.85,1.95207
-0.0581744,0.616614,1.841,1.94239
-0.052199,0.616614,1.841,1.94222
-0.0462236,0.616614,1.841,1.94207
-0.0402482,0.616614,1.841,1.94194
-0.0342727,0.616614,1.841,1.94182
-0.0282973,0.616614,1.841,1.94172
-0.0223219,0.616614,1.841,1.94165
-0.0163464,0.616614,1.841,1.94159
-0.0104217,0.619628,1.85,1.95104
-0.00441708,0.619628,1.85,1.95101
0.00158756,0.619628,1.85,1.95101
0.0075922,0.619628,1.85,1.95102
0.0135968,0.619628,1.85,1.95106
0.0196015,0.619628,1.85,1.95111
0.0256061,0.619628,1.85,1.95118
0.0316108,0.619628,1.85,1.95127
0.0376154,0.619628,1.85,1.95137
0.04362,0.619628,1.85,1.9515
0.0499198,0.623312,1.861,1.96325
0.0559601,0.623312,1.861,1.96341
0.0620004,0.623312,1.861,1.96359
0.0680408,0.623312,1.861,1.96379
0.0740811,0.623312,1.861,1.96401
0.0801215,0.623312,1.861,1.96425
0.0861618,0.623312,1.861,1.9645
0.0922022,0.623312,1.861,1.96477
0.0982425,0.623312,1.861,1.96507
0.104283,0.623312,1.861,1.96538
0.110323,0.623312,1.861,1.96571
0.115676,0.619628,1.85,1.95444
0.12168,0.619628,1.85,1.9548
0.127685,0.619628,1.85,1.95518
0.13369,0.619628,1.85,1.95558
0.139694,0.619628,1.85,1.956
0.145699,0.619628,1.85,1.95644
0.151704,0.619628,1.85,1.9569
0.156941,0.616614,1.841,1.94785
0.162916,0.616614,1.841,1.94834
0.168892,0.616614,1.841,1.94885
0.174867,0.616614,1.841,1.94938
0.180843,0.616614,1.841,1.94992
0.186818,0.616614,1.841,1.95049
0.192794,0.616614,1.841,1.95107
0.199741,0.619628,1.85,1.96121
0.205745,0.619628,1.85,1.96183
0.21175,0.619628,1.85,1.96247
0.217755,0.619628,1.85,1.96312
0.223759,0.619628,1.85,1.9638
0.23113,0.623312,1.861,1.97617
0.23717,0.623312,1.861,1.97689
0.244518,0.626662,1.871,1.98825
0.25059,0.626662,1.871,1.98901
0.256663,0.626662,1.871,1.98978
0.26414,0.630011,1.881,2.00121
0.271682,0.63336,1.891,2.01267
0.27782,0.63336,1.891,2.01351
0.283958,0.63336,1.891,2.01436
0.291783,0.637044,1.902,2.02696
0.299523,0.640394,1.912,2.03852
0.305729,0.640394,1.912,2.03944
0.311935,0.640394,1.912,2.04038
0.318141,0.640394,1.912,2.04134
0.324346,0.640394,1.912,2.04231
0.330552,0.640394,1.912,2.04331
0.336758,0.640394,1.912,2.04432
0.342964,0.640394,1.912,2.04535
0.347344,0.637044,1.902,2.0357
0.351473,0.63336,1.891,2.02498
0.35761,0.63336,1.891,2.02606
0.361824,0.630011,1.881,2.01643
0.36793,0.630011,1.881,2.01753
0.374035,0.630011,1.881,2.01866
0.376098,0.623312,1.861,1.99832
0.382139,0.623312,1.861,1.99947
0.388179,0.623312,1.861,2.00063
0.394219,0.623312,1.861,2.00181
0.397894,0.619628,1.85,1.99117
0.403898,0.619628,1.85,1.99238
0.409903,0.619628,1.85,1.9936
0.415908,0.619628,1.85,1.99485
0.421912,0.619628,1.85,1.99611
0.427917,0.619628,1.85,1.99739
0.438847,0.626662,1.871,2.02137
0.442542,0.623312,1.861,2.01189
0.448582,0.623312,1.861,2.01322
0.454623,0.623312,1.861,2.01458
0.460663,0.623312,1.861,2.01595
0.466704,0.623312,1.861,2.01734
0.46995,0.619628,1.85,2.00681
0.475954,0.619628,1.85,2.00823
0.481959,0.619628,1.85,2.00966
0.487963,0.619628,1.85,2.01111
0.493968,0.619628,1.85,2.01257
0.499973,0.619628,1.85,2.01405
0.505977,0.619628,1.85,2.01555
0.511982,0.619628,1.85,2.01707
0.517987,0.619628,1.85,2.0186
0.523991,0.619628,1.85,2.02015
0.529996,0.619628,1.85,2.02172
0.536001,0.619628,1.85,2.0233
0.542005,0.619628,1.85,2.0249
0.54801,0.619628,1.85,2.02651
0.554015,0.619628,1.85,2.02814
0.563349,0.623312,1.861,2.04186
0.569389,0.623312,1.861,2.04354
0.578522,0.626662,1.871,2.05622
0.584595,0.626662,1.871,2.05793
0.593824,0.630011,1.881,2.07068
0.59993,0.630011,1.881,2.07244
0.606035,0.630011,1.881,2.07421
0.615394,0.63336,1.891,2.08704
0.621532,0.63336,1.891,2.08886
0.62767,0.63336,1.891,2.09069
0.637494,0.637044,1.902,2.10472
0.643668,0.637044,1.902,2.10659
0.646083,0.63336,1.891,2.09629
0.652221,0.63336,1.891,2.09819
0.658358,0.63336,1.891,2.10011
0.664496,0.63336,1.891,2.10204
0.670634,0.63336,1.891,2.10399
0.676772,0.63336,1.891,2.10595
0.682909,0.63336,1.891,2.10794
0.689047,0.63336,1.891,2.10993
0.695185,0.63336,1.891,2.11194
0.697614,0.630011,1.881,2.10279
0.703719,0.630011,1.881,2.10483
0.709824,0.630011,1.881,2.10688
0.715929,0.630011,1.881,2.10894
0.722035,0.630011,1.881,2.11102
0.72814,0.630011,1.881,2.11312
0.730342,0.626662,1.871,2.10398
0.732479,0.623312,1.861,2.09484
0.738519,0.623312,1.861,2.09696
0.74856,0.626662,1.871,2.11038
0.7506,0.623312,1.861,2.10125
0.752168,0.619628,1.85,2.09098
0.758172,0.619628,1.85,2.09315
0.764177,0.619628,1.85,2.09533
0.770182,0.619628,1.85,2.09753
0.776186,0.619628,1.85,2.09974
0.782191,0.619628,1.85,2.10197
0.788195,0.619628,1.85,2.10421
0.7942,0.619628,1.85,2.10646
0.800205,0.619628,1.85,2.10874
0.806209,0.619628,1.85,2.11102
0.817043,0.623312,1.861,2.12589
0.823084,0.623312,1.861,2.12822
0.824223,0.619628,1.85,2.11797
0.830228,0.619628,1.85,2.12031
0.841205,0.623312,1.861,2.13529
0.847245,0.623312,1.861,2.13768
0.853285,0.623312,1.861,2.14008
0.859326,0.623312,1.861,2.14249
0.860251,0.619628,1.85,2.13225
0.866256,0.619628,1.85,2.13468
0.877447,0.623312,1.861,2.14983
0.883487,0.623312,1.861,2.1523
0.88427,0.619628,1.85,2.14205
0.890274,0.619628,1.85,2.14453
0.896279,0.619628,1.85,2.14703
0.902284,0.619628,1.85,2.14955
0.908288,0.619628,1.85,2.15208
0.914293,0.619628,1.85,2.15462
0.920298,0.619628,1.85,2.15717
0.926302,0.619628,1.85,2.15974
0.932307,0.619628,1.85,2.16232
0.938312,0.619628,1.85,2.16492
0.944316,0.619628,1.85,2.16753
0.950321,0.619628,1.85,2.17015
0.956325,0.619628,1.85,2.17279
0.968052,0.623312,1.861,2.18837
0.974092,0.623312,1.861,2.19105
0.980133,0.623312,1.861,2.19374
0.986173,0.623312,1.861,2.19645
0.992213,0.623312,1.861,2.19916
0.998254,0.623312,1.861,2.2019
1.00429,0.623312,1.861,2.20464
1.01576,0.626662,1.871,2.21926
1.0273,0.630011,1.881,2.23392
1.0334,0.630011,1.881,2.23674
1.04503,0.63336,1.891,2.25147
1.05117,0.63336,1.891,2.25433
1.05731,0.63336,1.891,2.2572
1.06963,0.637044,1.902,2.27322
1.08146,0.640394,1.912,2.2881
1.10018,0.647762,1.934,2.3174
1.10646,0.647762,1.934,2.32039
1.11907,0.651447,1.945,2.3366
1.13175,0.655131,1.956,2.35287
1.13809,0.655131,1.956,2.35593
1.14444,0.655131,1.956,2.359
1.15079,0.655131,1.956,2.36209
1.15714,0.655131,1.956,2.36519
1.16349,0.655131,1.956,2.3683
1.16984,0.655131,1.956,2.37142
1.17619,0.655131,1.956,2.37456
1.18253,0.655131,1.956,2.37771
1.18888,0.655131,1.956,2.38088
1.19523,0.655131,1.956,2.38405
1.20158,0.655131,1.956,2.38724
1.20793,0.655131,1.956,2.39044
1.21428,0.655131,1.956,2.39366
1.21376,0.651447,1.945,2.38341
1.22008,0.651447,1.945,2.38663
1.22639,0.651447,1.945,2.38986
1.2327,0.651447,1.945,2.39311
1.23901,0.651447,1.945,2.39636
1.24533,0.651447,1.945,2.39964
1.24456,0.647762,1.934,2.38933
1.25084,0.647762,1.934,2.3926
1.25712,0.647762,1.934,2.39589
1.25621,0.644078,1.923,2.38554
1.25523,0.640394,1.912,2.37517
1.26143,0.640394,1.912,2.37846
1.26764,0.640394,1.912,2.38176
1.27385,0.640394,1.912,2.38506
1.27336,0.637044,1.902,2.37589
1.27953,0.637044,1.902,2.37921
1.2857,0.637044,1.902,2.38253
1.29188,0.637044,1.902,2.38587
-1.6268,0.793029,2.345,2.96216
-1.61919,0.793029,2.345,2.95799
-1.62258,0.79844,2.361,2.97398
-1.62586,0.803851,2.377,2.98994
-1.61814,0.803851,2.377,2.98575
-1.61043,0.803851,2.377,2.98157
-1.61417,0.8096,2.394,2.99871
-1.6064,0.8096,2.394,2.99453
-1.59863,0.8096,2.394,2.99037
-1.59086,0.8096,2.394,2.98622
-1.58309,0.8096,2.394,2.98209
-1.56414,0.803851,2.377,2.95683
-1.55642,0.803851,2.377,2.95275
-1.54871,0.803851,2.377,2.94869
-1.53062,0.79844,2.361,2.92483
-1.50231,0.787619,2.329,2.88124
-1.46459,0.771724,2.282,2.81924
-1.45718,0.771724,2.282,2.8154
-1.43072,0.761579,2.252,2.77461
-1.41393,0.756506,2.237,2.75239
-1.40667,0.756506,2.237,2.74867
-1.39065,0.751772,2.223,2.72778
-1.36538,0.741964,2.194,2.68857
-1.35826,0.741964,2.194,2.68496
-1.35114,0.741964,2.194,2.68137
-1.33544,0.73723,2.18,2.6607
-1.32837,0.73723,2.18,2.65715
-1.31341,0.732834,2.167,2.6378
-1.30638,0.732834,2.167,2.6343
-1.29935,0.732834,2.167,2.63082
-1.29231,0.732834,2.167,2.62736
-1.28528,0.732834,2.167,2.6239
-1.26999,0.728099,2.153,2.60354
-1.263,0.728099,2.153,2.60014
-1.25601,0.728099,2.153,2.59675
-1.24148,0.723703,2.14,2.57772
-1.23454,0.723703,2.14,2.57438
-1.22759,0.723703,2.14,2.57105
-1.22064,0.723703,2.14,2.56775
-1.2137,0.723703,2.14,2.56445
-1.20675,0.723703,2.14,2.56117
-1.19981,0.723703,2.14,2.55791
-1.19286,0.723703,2.14,2.55465
-1.18591,0.723703,2.14,2.55142
-1.17126,0.718968,2.126,2.53153
-1.16435,0.718968,2.126,2.52834
-1.15745,0.718968,2.126,2.52517
-1.15055,0.718968,2.126,2.52202
-1.14365,0.718968,2.126,2.51888
-1.13675,0.718968,2.126,2.51575
-1.12985,0.718968,2.126,2.51264
-1.11609,0.714572,2.113,2.4942
-1.1024,0.710176,2.1,2.47581
-1.09559,0.710176,2.1,2.47278
-1.08877,0.710176,2.1,2.46977
-1.07526,0.705779,2.087,2.4515
-1.06848,0.705779,2.087,2.44854
-1.0556,0.701721,2.075,2.43153
-1.04887,0.701721,2.075,2.42861
-1.04213,0.701721,2.075,2.42571
-1.02891,0.697325,2.062,2.40765
-1.01627,0.693267,2.05,2.3908
-1.00962,0.693267,2.05,2.38798
-1.00296,0.693267,2.05,2.38517
-0.990477,0.689209,2.038,2.36844
-0.978069,0.68515,2.026,2.35175
-0.971494,0.68515,2.026,2.34902
-0.964918,0.68515,2.026,2.34631
-0.952666,0.681092,2.014,2.32973
-0.946129,0.681092,2.014,2.32707
-0.933993,0.677034,2.002,2.31057
-0.927495,0.677034,2.002,2.30795
-0.932038,0.68515,2.026,2.33298
-0.925462,0.68515,2.026,2.33036
-0.913444,0.681092,2.014,2.31397
-0.906907,0.681092,2.014,2.3114
-0.90037,0.681092,2.014,2.30884
-0.893833,0.681092,2.014,2.3063
-0.887296,0.681092,2.014,2.30377
-0.880759,0.681092,2.014,2.30127
-0.874222,0.681092,2.014,2.29877
-0.867685,0.681092,2.014,2.29629
-0.861148,0.681092,2.014,2.29383
-0.854611,0.681092,2.014,2.29138
-0.848074,0.681092,2.014,2.28895
-0.841537,0.681092,2.014,2.28654
-0.835001,0.681092,2.014,2.28414
-0.8334,0.68515,2.026,2.29536
-0.826824,0.68515,2.026,2.29298
-0.820248,0.68515,2.026,2.29061
-0.813672,0.68515,2.026,2.28827
-0.811877,0.689209,2.038,2.29948
-0.805262,0.689209,2.038,2.29715
-0.798647,0.689209,2.038,2.29484
-0.796696,0.693267,2.05,2.30605
-0.790042,0.693267,2.05,2.30375
-0.783388,0.693267,2.05,2.30148
-0.776734,0.693267,2.05,2.29923
-0.770081,0.693267,2.05,2.29699
-0.758958,0.689209,2.038,2.28133
-0.752343,0.689209,2.038,2.27914
-0.745728,0.689209,2.038,2.27696
-0.739113,0.689209,2.038,2.27481
-0.728186,0.68515,2.026,2.25928
-0.72161,0.68515,2.026,2.25717
-0.715034,0.68515,2.026,2.25508
-0.704262,0.681092,2.014,2.23966
-0.697725,0.681092,2.014,2.23761
-0.691188,0.681092,2.014,2.23558
-0.684651,0.681092,2.014,2.23357
-0.674073,0.677034,2.002,2.21828
-0.667575,0.677034,2.002,2.21631
-0.657115,0.672976,1.99,2.20109
-0.650656,0.672976,1.99,2.19917
-0.644197,0.672976,1.99,2.19727
-0.637738,0.672976,1.99,2.19538
-0.627789,0.669256,1.979,2.18139
-0.621366,0.669256,1.979,2.17955
-0.614943,0.669256,1.979,2.17773
-0.604829,0.665198,1.967,2.16273
-0.595098,0.661478,1.956,2.14887
-0.58875,0.661478,1.956,2.14712
-0.582401,0.661478,1.956,2.14539
-0.572813,0.657758,1.945,2.13162
-0.5665,0.657758,1.945,2.12993
-0.560187,0.657758,1.945,2.12826
-0.553874,0.657758,1.945,2.1266
-0.544464,0.654038,1.934,2.11295
-0.538187,0.654038,1.934,2.11134
-0.528884,0.650318,1.923,2.09775
-0.522643,0.650318,1.923,2.09619
-0.516401,0.650318,1.923,2.09464
-0.507241,0.646598,1.912,2.08114
-0.501035,0.646598,1.912,2.07963
-0.494829,0.646598,1.912,2.07815
-0.488624,0.646598,1.912,2.07668
-0.479895,0.643216,1.902,2.06437
-0.473721,0.643216,1.902,2.06295
-0.470006,0.646598,1.912,2.07238
-0.4638,0.646598,1.912,2.07098
-0.455201,0.643216,1.902,2.05877
-0.449027,0.643216,1.902,2.05742
-0.442854,0.643216,1.902,2.05608
-0.436681,0.643216,1.902,2.05476
-0.430507,0.643216,1.902,2.05345
-0.424334,0.643216,1.902,2.05217
-0.41816,0.643216,1.902,2.0509
-0.411987,0.643216,1.902,2.04965
-0.405814,0.643216,1.902,2.04842
-0.397329,0.639496,1.891,2.03536
-0.391191,0.639496,1.891,2.03417
-0.385053,0.639496,1.891,2.033
-0.378916,0.639496,1.891,2.03185
-0.372778,0.639496,1.891,2.03071
-0.36664,0.639496,1.891,2.0296
-0.360503,0.639496,1.891,2.0285
-0.354365,0.639496,1.891,2.02741
-0.348227,0.639496,1.891,2.02635
-0.342089,0.639496,1.891,2.02531
-0.335952,0.639496,1.891,2.02428
-0.329814,0.639496,1.891,2.02327
-0.323676,0.639496,1.891,2.02228
-0.317538,0.639496,1.891,2.0213
-0.313212,0.643216,1.902,2.0321
-0.307039,0.643216,1.902,2.03116
-0.300865,0.643216,1.902,2.03023
-0.294692,0.643216,1.902,2.02933
-0.288519,0.643216,1.902,2.02844
-0.282345,0.643216,1.902,2.02757
-0.276172,0.643216,1.902,2.02672
-0.271418,0.646598,1.912,2.03654
-0.265212,0.646598,1.912,2.03572
-0.259006,0.646598,1.912,2.03492
-0.2528,0.646598,1.912,2.03414
-0.246594,0.646598,1.912,2.03338
-0.239131,0.643216,1.902,2.02201
-0.232958,0.643216,1.902,2.02129
-0.226784,0.643216,1.902,2.02058
-0.219335,0.639496,1.891,2.00822
-0.213197,0.639496,1.891,2.00756
-0.20706,0.639496,1.891,2.00692
-0.199859,0.636114,1.881,1.99568
-0.192724,0.632733,1.871,1.98447
-0.186651,0.632733,1.871,1.98389
-0.180578,0.632733,1.871,1.98333
-0.174506,0.632733,1.871,1.98279
-0.167533,0.629351,1.861,1.97167
-0.161492,0.629351,1.861,1.97116
-0.155452,0.629351,1.861,1.97068
-0.148528,0.625631,1.85,1.95856
-0.142524,0.625631,1.85,1.95812
-0.136519,0.625631,1.85,1.95769
-0.130515,0.625631,1.85,1.95728
-0.12451,0.625631,1.85,1.95689
-0.118505,0.625631,1.85,1.95652
-0.111953,0.622587,1.841,1.94665
-0.105978,0.622587,1.841,1.94631
-0.100002,0.622587,1.841,1.946
-0.094027,0.622587,1.841,1.9457
-0.0880516,0.622587,1.841,1.94542
-0.0820762,0.622587,1.841,1.94516
-0.0756874,0.619205,1.831,1.93435
-0.0697444,0.619205,1.831,1.93413
-0.0638014,0.619205,1.831,1.93392
-0.0578585,0.619205,1.831,1.93373
-0.0519155,0.619205,1.831,1.93356
-0.0459725,0.619205,1.831,1.93341
-0.0398109,0.615824,1.821,1.92272
-0.0339004,0.615824,1.821,1.92261
-0.0279899,0.615824,1.821,1.92251
-0.0220794,0.615824,1.821,1.92244
-0.0161689,0.615824,1.821,1.92238
-0.0102584,0.615824,1.821,1.92234
-0.00434784,0.615824,1.821,1.92232
0.00156268,0.615824,1.821,1.92231
0.00747319,0.615824,1.821,1.92233
0.0133837,0.615824,1.821,1.92236
0.0192942,0.615824,1.821,1.92241
0.0252047,0.615824,1.821,1.92248
0.0311152,0.615824,1.821,1.92256
0.0370258,0.615824,1.821,1.92267
0.0431721,0.619205,1.831,1.93335
0.049115,0.619205,1.831,1.93349
0.055058,0.619205,1.831,1.93365
0.061001,0.619205,1.831,1.93383
0.0669439,0.619205,1.831,1.93403
0.0728869,0.619205,1.831,1.93424
0.0788299,0.619205,1.831,1.93447
0.0847729,0.619205,1.831,1.93473
0.0907158,0.619205,1.831,1.935
0.0966588,0.619205,1.831,1.93528
0.102602,0.619205,1.831,1.93559
0.108545,0.619205,1.831,1.93591
0.114488,0.619205,1.831,1.93626
0.120431,0.619205,1.831,1.93662
0.127685,0.625631,1.85,1.95709
0.13369,0.625631,1.85,1.9575
0.139694,0.625631,1.85,1.95791
0.145699,0.625631,1.85,1.95835
0.151704,0.625631,1.85,1.95881
0.156941,0.622587,1.841,1.94975
0.162916,0.622587,1.841,1.95024
0.168892,0.622587,1.841,1.95075
0.174867,0.622587,1.841,1.95128
0.180843,0.622587,1.841,1.95182
0.186818,0.622587,1.841,1.95238
0.192794,0.622587,1.841,1.95296
0.199741,0.625631,1.85,1.96311
0.205745,0.625631,1.85,1.96373
0.21175,0.625631,1.85,1.96437
0.217755,0.625631,1.85,1.96503
0.223759,0.625631,1.85,1.9657
0.23113,0.629351,1.861,1.97809
0.23717,0.629351,1.861,1.9788
0.244518,0.632733,1.871,1.99017
0.25059,0.632733,1.871,1.99093
0.256663,0.632733,1.871,1.9917
0.26414,0.636114,1.881,2.00314
0.271682,0.639496,1.891,2.01461
0.27782,0.639496,1.891,2.01545
0.283958,0.639496,1.891,2.0163
0.291783,0.643216,1.902,2.02891
0.299523,0.646598,1.912,2.04048
0.305729,0.646598,1.912,2.0414
0.311935,0.646598,1.912,2.04234
0.318141,0.646598,1.912,2.04329
0.324346,0.646598,1.912,2.04427
0.330552,0.646598,1.912,2.04526
0.336758,0.646598,1.912,2.04627
0.342964,0.646598,1.912,2.04731
0.347344,0.643216,1.902,2.03764
0.351473,0.639496,1.891,2.02691
0.35761,0.639496,1.891,2.02798
0.361824,0.636114,1.881,2.01835
0.36793,0.636114,1.881,2.01945
0.374035,0.636114,1.881,2.02057
0.376098,0.629351,1.861,2.00021
0.382139,0.629351,1.861,2.00136
0.388179,0.629351,1.861,2.00252
0.394219,0.629351,1.861,2.0037
0.397894,0.625631,1.85,1.99305
0.403898,0.625631,1.85,1.99425
0.409903,0.625631,1.85,1.99548
0.415908,0.625631,1.85,1.99672
0.421912,0.625631,1.85,1.99798
0.425835,0.622587,1.841,1.98953
0.431811,0.622587,1.841,1.99082
0.437786,0.622587,1.841,1.99212
0.445931,0.625631,1.85,2.00319
0.451936,0.625631,1.85,2.00453
0.45794,0.625631,1.85,2.0059
0.463945,0.625631,1.85,2.00728
0.467663,0.622587,1.841,1.9989
0.473639,0.622587,1.841,2.00031
0.481959,0.625631,1.85,2.01152
0.487963,0.625631,1.85,2.01296
0.493968,0.625631,1.85,2.01443
0.499973,0.625631,1.85,2.01591
0.505977,0.625631,1.85,2.01741
0.511982,0.625631,1.85,2.01892
0.517987,0.625631,1.85,2.02045
0.523991,0.625631,1.85,2.022
0.527418,0.622587,1.841,2.01372
0.533393,0.622587,1.841,2.01529
0.542005,0.625631,1.85,2.02674
0.54801,0.625631,1.85,2.02836
0.554015,0.625631,1.85,2.02999
0.563349,0.629351,1.861,2.04371
0.569389,0.629351,1.861,2.04539
0.57543,0.629351,1.861,2.04708
0.58147,0.629351,1.861,2.04878
0.58751,0.629351,1.861,2.05051
0.593551,0.629351,1.861,2.05224
0.602813,0.632733,1.871,2.06504
0.608886,0.632733,1.871,2.06682
0.614959,0.632733,1.871,2.06861
0.624351,0.636114,1.881,2.08149
0.630456,0.636114,1.881,2.08333
0.636561,0.636114,1.881,2.08519
0.642666,0.636114,1.881,2.08706
0.648772,0.636114,1.881,2.08895
0.654877,0.636114,1.881,2.09085
0.660982,0.636114,1.881,2.09277
0.663541,0.632733,1.871,2.08357
0.669614,0.632733,1.871,2.08552
0.675687,0.632733,1.871,2.08747
0.681759,0.632733,1.871,2.08945
0.687832,0.632733,1.871,2.09144
0.690196,0.629351,1.861,2.08225
0.696237,0.629351,1.861,2.08426
0.702277,0.629351,1.861,2.08629
0.708317,0.629351,1.861,2.08833
0.710135,0.625631,1.85,2.07803
0.71614,0.625631,1.85,2.08009
0.722144,0.625631,1.85,2.08216
0.728149,0.625631,1.85,2.08425
0.734154,0.625631,1.85,2.08636
0.740158,0.625631,1.85,2.08848
0.742533,0.622587,1.841,2.08045
0.744443,0.619205,1.831,2.07127
0.750386,0.619205,1.831,2.07342
0.756329,0.619205,1.831,2.07557
0.762272,0.619205,1.831,2.07775
0.768215,0.619205,1.831,2.07994
0.774158,0.619205,1.831,2.08214
0.780101,0.619205,1.831,2.08435
0.790336,0.622587,1.841,2.09798
0.791986,0.619205,1.831,2.08883
0.797929,0.619205,1.831,2.09109
0.808263,0.622587,1.841,2.1048
0.814238,0.622587,1.841,2.1071
0.820214,0.622587,1.841,2.10942
0.826189,0.622587,1.841,2.11175
0.832164,0.622587,1.841,2.11409
0.83814,0.622587,1.841,2.11645
0.844115,0.622587,1.841,2.11883
0.850091,0.622587,1.841,2.12121
0.856066,0.622587,1.841,2.12362
0.862042,0.622587,1.841,2.12603
0.868017,0.622587,1.841,2.12846
0.873993,0.622587,1.841,2.13091
0.879968,0.622587,1.841,2.13336
0.885943,0.622587,1.841,2.13584
0.891919,0.622587,1.841,2.13832
0.897894,0.622587,1.841,2.14082
0.90387,0.622587,1.841,2.14333
0.909845,0.622587,1.841,2.14586
0.91582,0.622587,1.841,2.1484
0.921796,0.622587,1.841,2.15095
0.927771,0.622587,1.841,2.15352
0.933747,0.622587,1.841,2.1561
0.939722,0.622587,1.841,2.1587
0.945698,0.622587,1.841,2.16131
0.951673,0.622587,1.841,2.16393
0.957649,0.622587,1.841,2.16656
0.963624,0.622587,1.841,2.16921
0.969599,0.622587,1.841,2.17187
0.975575,0.622587,1.841,2.17454
0.986349,0.625631,1.85,2.18788
0.998254,0.629351,1.861,2.20361
1.00429,0.629351,1.861,2.20636
1.01033,0.629351,1.861,2.20911
1.02184,0.632733,1.871,2.22377
1.02791,0.632733,1.871,2.22656
1.03398,0.632733,1.871,2.22937
1.04561,0.636114,1.881,2.24413
1.05172,0.636114,1.881,2.24698
1.06345,0.639496,1.891,2.2618
1.08146,0.646598,1.912,2.28985
1.09393,0.650318,1.923,2.30597
1.10017,0.650318,1.923,2.30894
1.11907,0.657758,1.945,2.33837
1.12538,0.657758,1.945,2.3414
1.13169,0.657758,1.945,2.34444
1.13801,0.657758,1.945,2.34749
1.14432,0.657758,1.945,2.35056
1.15063,0.657758,1.945,2.35364
1.15695,0.657758,1.945,2.35673
1.16984,0.661478,1.956,2.37319
1.17619,0.661478,1.956,2.37632
1.18253,0.661478,1.956,2.37947
1.18888,0.661478,1.956,2.38263
1.19523,0.661478,1.956,2.38581
1.20158,0.661478,1.956,2.38899
1.20793,0.661478,1.956,2.39219
1.21428,0.661478,1.956,2.3954
1.21376,0.657758,1.945,2.38514
1.22008,0.657758,1.945,2.38836
1.22639,0.657758,1.945,2.39159
1.2327,0.657758,1.945,2.39483
1.23901,0.657758,1.945,2.39809
1.24533,0.657758,1.945,2.40136
1.24456,0.654038,1.934,2.39104
1.25084,0.654038,1.934,2.39431
1.25712,0.654038,1.934,2.3976
1.25621,0.650318,1.923,2.38724
1.25523,0.646598,1.912,2.37685
1.26143,0.646598,1.912,2.38014
1.26764,0.646598,1.912,2.38343
1.27385,0.646598,1.912,2.38674
1.27336,0.643216,1.902,2.37756
1.27953,0.643216,1.902,2.38087
1.2857,0.643216,1.902,2.38419
1.29188,0.643216,1.902,2.38753
-1.5942,0.784592,2.298,2.9048
-1.58674,0.784592,2.298,2.90071
-1.57928,0.784592,2.298,2.89664
-1.58208,0.789713,2.313,2.91146
-1.57457,0.789713,2.313,2.90739
-1.56707,0.789713,2.313,2.90333
-1.57035,0.795176,2.329,2.91934
-1.56279,0.795176,2.329,2.91528
-1.55523,0.795176,2.329,2.91123
-1.54767,0.795176,2.329,2.9072
-1.54011,0.795176,2.329,2.90319
-1.52202,0.789713,2.313,2.87927
-1.50469,0.784592,2.298,2.85666
-1.49723,0.784592,2.298,2.85274
-1.46968,0.774007,2.267,2.8104
-1.45264,0.768886,2.252,2.78799
-1.41774,0.754205,2.209,2.73102
-1.41057,0.754205,2.209,2.72731
-1.39387,0.749084,2.194,2.70511
-1.36968,0.739865,2.167,2.6682
-1.36265,0.739865,2.167,2.6646
-1.34686,0.735085,2.153,2.64382
-1.33987,0.735085,2.153,2.64027
-1.35826,0.749084,2.194,2.68694
-1.35114,0.749084,2.194,2.68335
-1.33544,0.744304,2.18,2.66267
-1.32837,0.744304,2.18,2.65913
-1.31341,0.739865,2.167,2.63976
-1.30638,0.739865,2.167,2.63627
-1.29935,0.739865,2.167,2.63279
-1.29231,0.739865,2.167,2.62933
-1.28528,0.739865,2.167,2.62588
-1.26999,0.735085,2.153,2.6055
-1.263,0.735085,2.153,2.6021
-1.25601,0.735085,2.153,2.59872
-1.24148,0.730647,2.14,2.57967
-1.23454,0.730647,2.14,2.57634
-1.22759,0.730647,2.14,2.57302
-1.22064,0.730647,2.14,2.56971
-1.2137,0.730647,2.14,2.56642
-1.20675,0.730647,2.14,2.56314
-1.19981,0.730647,2.14,2.55988
-1.19286,0.730647,2.14,2.55663
-1.18591,0.730647,2.14,2.5534
-1.17126,0.725867,2.126,2.5335
-1.16435,0.725867,2.126,2.53031
-1.15745,0.725867,2.126,2.52714
-1.15055,0.725867,2.126,2.52399
-1.14365,0.725867,2.126,2.52085
-1.13675,0.725867,2.126,2.51773
-1.12985,0.725867,2.126,2.51462
-1.11609,0.721428,2.113,2.49617
-1.1024,0.71699,2.1,2.47777
-1.09559,0.71699,2.1,2.47475
-1.08877,0.71699,2.1,2.47174
-1.07526,0.712551,2.087,2.45346
-1.06848,0.712551,2.087,2.4505
-1.0556,0.708454,2.075,2.43348
-1.04887,0.708454,2.075,2.43057
-1.04213,0.708454,2.075,2.42767
-1.02891,0.704016,2.062,2.40959
-1.01627,0.699919,2.05,2.39274
-1.00962,0.699919,2.05,2.38992
-1.00296,0.699919,2.05,2.38712
-0.990477,0.695821,2.038,2.37037
-0.978069,0.691724,2.026,2.35367
-0.971494,0.691724,2.026,2.35095
-0.964918,0.691724,2.026,2.34824
-0.952666,0.687627,2.014,2.33165
-0.946129,0.687627,2.014,2.32899
-0.933993,0.68353,2.002,2.31248
-0.927495,0.68353,2.002,2.30986
-0.920997,0.68353,2.002,2.30726
-0.909018,0.679433,1.99,2.29086
-0.902559,0.679433,1.99,2.28831
-0.8961,0.679433,1.99,2.28577
-0.884723,0.675677,1.979,2.27062
-0.8783,0.675677,1.979,2.26813
-0.871876,0.675677,1.979,2.26565
-0.865453,0.675677,1.979,2.26318
-0.85903,0.675677,1.979,2.26073
-0.852606,0.675677,1.979,2.2583
-0.846183,0.675677,1.979,2.25588
-0.83976,0.675677,1.979,2.25348
-0.837968,0.679433,1.99,2.26361
-0.831509,0.679433,1.99,2.26122
-0.82505,0.679433,1.99,2.25886
-0.818591,0.679433,1.99,2.25651
-0.812132,0.679433,1.99,2.25417
-0.810531,0.68353,2.002,2.26543
-0.804033,0.68353,2.002,2.26311
-0.797535,0.68353,2.002,2.26081
-0.791037,0.68353,2.002,2.25853
-0.784539,0.68353,2.002,2.25626
-0.782705,0.687627,2.014,2.26752
-0.776168,0.687627,2.014,2.26527
-0.769631,0.687627,2.014,2.26304
-0.758547,0.68353,2.002,2.24736
-0.752049,0.68353,2.002,2.24517
-0.745551,0.68353,2.002,2.243
-0.739053,0.68353,2.002,2.24085
-0.728164,0.679433,1.99,2.2253
-0.721705,0.679433,1.99,2.22319
-0.715246,0.679433,1.99,2.2211
-0.708787,0.679433,1.99,2.21903
-0.702328,0.679433,1.99,2.21698
-0.692023,0.675677,1.979,2.2027
-0.685599,0.675677,1.979,2.20069
-0.679176,0.675677,1.979,2.1987
-0.668673,0.67158,1.967,2.1834
-0.662289,0.67158,1.967,2.18145
-0.655905,0.67158,1.967,2.17952
-0.645888,0.667825,1.956,2.16543
-0.639539,0.667825,1.956,2.16355
-0.62963,0.664069,1.945,2.14952
-0.623317,0.664069,1.945,2.14768
-0.617004,0.664069,1.945,2.14586
-0.607237,0.660313,1.934,2.13193
-0.60096,0.660313,1.934,2.13015
-0.594682,0.660313,1.934,2.12838
-0.585058,0.656558,1.923,2.11454
-0.578817,0.656558,1.923,2.11282
-0.572575,0.656558,1.923,2.11112
-0.563094,0.652802,1.912,2.09737
-0.556888,0.652802,1.912,2.09571
-0.547802,0.649388,1.902,2.08312
-0.538496,0.645632,1.891,2.06947
-0.532359,0.645632,1.891,2.06788
-0.526221,0.645632,1.891,2.06631
-0.520083,0.645632,1.891,2.06475
-0.511228,0.642218,1.881,2.05231
-0.505122,0.642218,1.881,2.05079
-0.499017,0.642218,1.881,2.0493
-0.490291,0.638804,1.871,2.03693
-0.484219,0.638804,1.871,2.03548
-0.478146,0.638804,1.871,2.03404
-0.472073,0.638804,1.871,2.03262
-0.466,0.638804,1.871,2.03122
-0.459927,0.638804,1.871,2.02984
-0.453855,0.638804,1.871,2.02847
-0.447782,0.638804,1.871,2.02712
-0.441709,0.638804,1.871,2.02579
-0.435636,0.638804,1.871,2.02447
-0.429563,0.638804,1.871,2.02317
-0.423491,0.638804,1.871,2.02189
-0.417418,0.638804,1.871,2.02063
-0.411345,0.638804,1.871,2.01939
-0.405272,0.638804,1.871,2.01816
-0.399199,0.638804,1.871,2.01695
-0.393127,0.638804,1.871,2.01575
-0.387054,0.638804,1.871,2.01458
-0.380981,0.638804,1.871,2.01342
-0.374908,0.638804,1.871,2.01228
-0.368835,0.638804,1.871,2.01116
-0.362763,0.638804,1.871,2.01005
-0.35669,0.638804,1.871,2.00896
-0.350617,0.638804,1.871,2.0079
-0.344544,0.638804,1.871,2.00684
-0.338471,0.638804,1.871,2.00581
-0.332399,0.638804,1.871,2.00479
-0.326326,0.638804,1.871,2.0038
-0.320253,0.638804,1.871,2.00282
-0.31418,0.638804,1.871,2.00185
-0.308107,0.638804,1.871,2.00091
-0.302034,0.638804,1.871,1.99998
-0.295962,0.638804,1.871,1.99908
-0.289889,0.638804,1.871,1.99819
-0.283816,0.638804,1.871,1.99731
-0.277743,0.638804,1.871,1.99646
-0.27167,0.638804,1.871,1.99562
-0.265598,0.638804,1.871,1.99481
-0.259525,0.638804,1.871,1.99401
-0.253452,0.638804,1.871,1.99323
-0.247379,0.638804,1.871,1.99246
-0.241306,0.638804,1.871,1.99172
-0.233976,0.63539,1.861,1.98035
-0.227936,0.63539,1.861,1.97965
-0.221896,0.63539,1.861,1.97896
-0.215855,0.63539,1.861,1.97829
-0.208575,0.631634,1.85,1.96595
-0.20257,0.631634,1.85,1.96532
-0.196566,0.631634,1.85,1.96471
-0.189634,0.628561,1.841,1.95457
-0.183658,0.628561,1.841,1.954
-0.177683,0.628561,1.841,1.95344
-0.174506,0.638804,1.871,1.98473
-0.167533,0.63539,1.861,1.9736
-0.161492,0.63539,1.861,1.9731
-0.155452,0.63539,1.861,1.97261
-0.148528,0.631634,1.85,1.96049
-0.142524,0.631634,1.85,1.96004
-0.136519,0.631634,1.85,1.95962
-0.130515,0.631634,1.85,1.95921
-0.12451,0.631634,1.85,1.95882
-0.118505,0.631634,1.85,1.95844
-0.111953,0.628561,1.841,1.94856
-0.105978,0.628561,1.841,1.94823
-0.100002,0.628561,1.841,1.94791
-0.094027,0.628561,1.841,1.94762
-0.0880516,0.628561,1.841,1.94734
-0.0820762,0.628561,1.841,1.94708
-0.0756874,0.625147,1.831,1.93626
-0.0697444,0.625147,1.831,1.93604
-0.0638014,0.625147,1.831,1.93583
-0.0578585,0.625147,1.831,1.93564
-0.0519155,0.625147,1.831,1.93548
-0.0459725,0.625147,1.831,1.93533
-0.0398109,0.621733,1.821,1.92462
-0.0339004,0.621733,1.821,1.92451
-0.0279899,0.621733,1.821,1.92442
-0.0220794,0.621733,1.821,1.92434
-0.0161689,0.621733,1.821,1.92428
-0.0102584,0.621733,1.821,1.92424
-0.00434784,0.621733,1.821,1.92422
0.00156268,0.621733,1.821,1.92421
0.00747319,0.621733,1.821,1.92423
0.0133837,0.621733,1.821,1.92426
0.0192942,0.621733,1.821,1.92431
0.0252047,0.621733,1.821,1.92438
0.0311152,0.621733,1.821,1.92446
0.0370258,0.621733,1.821,1.92457
0.0431721,0.625147,1.831,1.93526
0.049115,0.625147,1.831,1.9354
0.055058,0.625147,1.831,1.93556
0.061001,0.625147,1.831,1.93574
0.0669439,0.625147,1.831,1.93594
0.0728869,0.625147,1.831,1.93615
0.0788299,0.625147,1.831,1.93638
0.0847729,0.625147,1.831,1.93664
0.0907158,0.625147,1.831,1.9369
0.0966588,0.625147,1.831,1.93719
0.102602,0.625147,1.831,1.9375
0.108545,0.625147,1.831,1.93782
0.114488,0.625147,1.831,1.93816
0.119773,0.621733,1.821,1.92794
0.125683,0.621733,1.821,1.92831
0.131594,0.621733,1.821,1.92871
0.137505,0.621733,1.821,1.92912
0.143415,0.621733,1.821,1.92955
0.149326,0.621733,1.821,1.93
0.155236,0.621733,1.821,1.93046
0.160262,0.618318,1.811,1.92034
0.16614,0.618318,1.811,1.92084
0.172018,0.618318,1.811,1.92136
0.177896,0.618318,1.811,1.9219
0.183774,0.618318,1.811,1.92245
0.189652,0.618318,1.811,1.92302
0.19553,0.618318,1.811,1.92361
0.201408,0.618318,1.811,1.92422
0.207286,0.618318,1.811,1.92484
0.213164,0.618318,1.811,1.92548
0.220252,0.621733,1.821,1.93678
0.226162,0.621733,1.821,1.93746
0.232073,0.621733,1.821,1.93816
0.23929,0.625147,1.831,1.94952
0.246572,0.628561,1.841,1.96091
0.252548,0.628561,1.841,1.96167
0.259787,0.631634,1.85,1.97204
0.267372,0.63539,1.861,1.98457
0.273412,0.63539,1.861,1.9854
0.279453,0.63539,1.861,1.98624
0.288561,0.642218,1.881,2.00845
0.294667,0.642218,1.881,2.00934
0.300772,0.642218,1.881,2.01024
0.306877,0.642218,1.881,2.01116
0.314646,0.645632,1.891,2.0228
0.320784,0.645632,1.891,2.02376
0.326922,0.645632,1.891,2.02475
0.333059,0.645632,1.891,2.02575
0.337403,0.642218,1.881,2.01605
0.343509,0.642218,1.881,2.01708
0.347755,0.638804,1.871,2.0074
0.353828,0.638804,1.871,2.00846
0.355861,0.631634,1.85,1.98698
0.361866,0.631634,1.85,1.98807
0.367871,0.631634,1.85,1.98917
0.372056,0.628561,1.841,1.98061
0.378032,0.628561,1.841,1.98174
0.384007,0.628561,1.841,1.98288
0.387864,0.625147,1.831,1.97327
0.391657,0.621733,1.821,1.96367
0.397567,0.621733,1.821,1.96485
0.403478,0.621733,1.821,1.96606
0.409388,0.621733,1.821,1.96728
0.415299,0.621733,1.821,1.96852
0.421209,0.621733,1.821,1.96977
0.42712,0.621733,1.821,1.97105
0.43303,0.621733,1.821,1.97234
0.438941,0.621733,1.821,1.97364
0.444851,0.621733,1.821,1.97496
0.450762,0.621733,1.821,1.9763
0.456672,0.621733,1.821,1.97766
0.462583,0.621733,1.821,1.97903
0.468493,0.621733,1.821,1.98042
0.474404,0.621733,1.821,1.98183
0.480314,0.621733,1.821,1.98325
0.486225,0.621733,1.821,1.98469
0.492135,0.621733,1.821,1.98615
0.498046,0.621733,1.821,1.98762
0.506724,0.625147,1.831,2.00003
0.512667,0.625147,1.831,2.00155
0.521442,0.628561,1.841,2.01402
0.524553,0.625147,1.831,2.00463
0.530496,0.625147,1.831,2.00619
0.536439,0.625147,1.831,2.00777
0.542382,0.625147,1.831,2.00937
0.551319,0.628561,1.841,2.02196
0.557295,0.628561,1.841,2.0236
0.56327,0.628561,1.841,2.02525
0.569246,0.628561,1.841,2.02692
0.575221,0.628561,1.841,2.02861
0.581196,0.628561,1.841,2.03031
0.587172,0.628561,1.841,2.03203
0.596047,0.631634,1.85,2.04371
0.602052,0.631634,1.85,2.04547
0.608056,0.631634,1.85,2.04724
0.614061,0.631634,1.85,2.04903
0.620066,0.631634,1.85,2.05084
0.62607,0.631634,1.85,2.05266
0.632075,0.631634,1.85,2.0545
0.638079,0.631634,1.85,2.05636
0.644084,0.631634,1.85,2.05823
0.650089,0.631634,1.85,2.06012
0.656093,0.631634,1.85,2.06202
0.662098,0.631634,1.85,2.06394
0.668103,0.631634,1.85,2.06587
0.670828,0.628561,1.841,2.05776
