1.97447,-0.193612,3.356,3.89856
1.98536,-0.193612,3.356,3.90408
1.95818,-0.189919,3.292,3.83508
1.96887,-0.189919,3.292,3.84054
1.97955,-0.189919,3.292,3.84603
1.97089,-0.188073,3.26,3.8141
1.9444,-0.184554,3.199,3.74811
1.95478,-0.184554,3.199,3.75351
1.96516,-0.184554,3.199,3.75893
1.93973,-0.181208,3.141,3.69611
1.94992,-0.181208,3.141,3.70147
1.9077,-0.176362,3.057,3.60772
1.88375,-0.173247,3.003,3.54916
1.89349,-0.173247,3.003,3.55434
1.87028,-0.170247,2.951,3.49791
1.84801,-0.167362,2.901,3.44368
1.85743,-0.167362,2.901,3.44875
1.82051,-0.163208,2.829,3.36811
1.78571,-0.159285,2.761,3.292
1.75242,-0.155536,2.696,3.21925
1.76117,-0.155536,2.696,3.22403
1.75614,-0.154324,2.675,3.20366
1.73711,-0.151901,2.633,3.15806
1.74566,-0.151901,2.633,3.16276
1.74088,-0.150747,2.613,3.14343
1.72325,-0.148497,2.574,3.10115
1.7316,-0.148497,2.574,3.1058
1.72711,-0.147401,2.555,3.0875
1.7225,-0.146305,2.536,3.06916
-2.04721,-0.160671,2.951,3.59517
-2.0031,-0.157949,2.901,3.5289
-1.99369,-0.157949,2.901,3.52357
-1.95144,-0.155336,2.853,3.46004
-1.92584,-0.154029,2.829,3.42576
-1.91666,-0.154029,2.829,3.42061
-1.89197,-0.152777,2.806,3.3877
-1.88286,-0.152777,2.806,3.38262
-1.87375,-0.152777,2.806,3.37756
-1.86465,-0.152777,2.806,3.37252
-1.84033,-0.151524,2.783,3.33989
-1.8313,-0.151524,2.783,3.33492
-1.82226,-0.151524,2.783,3.32997
-1.81323,-0.151524,2.783,3.32503
-1.81911,-0.152777,2.806,3.34756
-1.82484,-0.154029,2.829,3.37001
-1.81565,-0.154029,2.829,3.36505
-1.80647,-0.154029,2.829,3.36011
-1.82778,-0.156642,2.877,3.41211
-1.81845,-0.156642,2.877,3.40711
-1.79402,-0.155336,2.853,3.37376
-1.78476,-0.155336,2.853,3.36884
-1.7755,-0.155336,2.853,3.36395
-1.78109,-0.156642,2.877,3.38732
-1.78654,-0.157949,2.901,3.41064
-1.79244,-0.15931,2.926,3.43507
-1.78294,-0.15931,2.926,3.43012
-1.77344,-0.15931,2.926,3.42519
-1.76394,-0.15931,2.926,3.42029
-1.75445,-0.15931,2.926,3.4154
-1.74495,-0.15931,2.926,3.41053
-1.73545,-0.15931,2.926,3.40568
-1.72596,-0.15931,2.926,3.40085
-1.71646,-0.15931,2.926,3.39604
-1.72155,-0.160671,2.951,3.42022
nan,nan,nan,NaN
nan,nan,nan,NaN
nan,nan,nan,NaN
nan,nan,nan,NaN
nan,nan,nan,NaN
nan,nan,nan,NaN
nan,nan,nan,NaN
nan,nan,nan,NaN
nan,nan,nan,NaN
nan,nan,nan,NaN
nan,nan,nan,NaN
nan,nan,nan,NaN
nan,nan,nan,NaN
nan,nan,nan,NaN
nan,nan,nan,NaN
nan,nan,nan,NaN
nan,nan,nan,NaN
nan,nan,nan,NaN
nan,nan,nan,NaN
nan,nan,nan,NaN
nan,nan,nan,NaN
nan,nan,nan,NaN
nan,nan,nan,NaN
nan,nan,nan,NaN
nan,nan,nan,NaN
nan,nan,nan,NaN
nan,nan,nan,NaN
nan,nan,nan,NaN
-1.25003,-0.13911,2.555,2.8478
-1.24174,-0.13911,2.555,2.84417
-1.23345,-0.13911,2.555,2.84056
-1.21605,-0.138076,2.536,2.81587
-1.20781,-0.138076,2.536,2.81233
-1.18208,-0.136061,2.499,2.76782
-1.16551,-0.135081,2.481,2.74445
-1.15746,-0.135081,2.481,2.74104
-1.14107,-0.134101,2.463,2.71779
-1.13308,-0.134101,2.463,2.71445
-1.11686,-0.133121,2.445,2.6913
-1.10892,-0.133121,2.445,2.68802
-1.10099,-0.133121,2.445,2.68476
-1.08545,-0.132196,2.428,2.66287
-1.07757,-0.132196,2.428,2.65967
-1.06969,-0.132196,2.428,2.65648
-1.06181,-0.132196,2.428,2.65332
-1.05393,-0.132196,2.428,2.65017
-1.04605,-0.132196,2.428,2.64705
-1.03817,-0.132196,2.428,2.64395
-1.03029,-0.132196,2.428,2.64086
-1.02241,-0.132196,2.428,2.6378
-1.01452,-0.132196,2.428,2.63475
-1.00664,-0.132196,2.428,2.63173
-0.998763,-0.132196,2.428,2.62872
-0.990883,-0.132196,2.428,2.62574
-0.983002,-0.132196,2.428,2.62278
-0.975121,-0.132196,2.428,2.61983
-0.967241,-0.132196,2.428,2.61691
-0.95936,-0.132196,2.428,2.61401
-0.951479,-0.132196,2.428,2.61112
-0.936992,-0.13127,2.411,2.59
-0.929166,-0.13127,2.411,2.58718
-0.921341,-0.13127,2.411,2.58438
-0.913515,-0.13127,2.411,2.5816
-0.90569,-0.13127,2.411,2.57884
-0.897864,-0.13127,2.411,2.5761
-0.890039,-0.13127,2.411,2.57339
-0.882213,-0.13127,2.411,2.57069
-0.874388,-0.13127,2.411,2.56802
-0.866562,-0.13127,2.411,2.56536
-0.858737,-0.13127,2.411,2.56273
-0.850911,-0.13127,2.411,2.56012
-0.843086,-0.13127,2.411,2.55753
-0.83526,-0.13127,2.411,2.55496
-0.827435,-0.13127,2.411,2.55241
-0.825388,-0.132196,2.428,2.56786
-0.817508,-0.132196,2.428,2.56534
-0.809627,-0.132196,2.428,2.56284
-0.801746,-0.132196,2.428,2.56036
-0.799424,-0.133121,2.445,2.57582
-0.791488,-0.133121,2.445,2.57336
-0.783552,-0.133121,2.445,2.57093
-0.775616,-0.133121,2.445,2.56853
-0.767681,-0.133121,2.445,2.56614
-0.759745,-0.133121,2.445,2.56378
-0.751809,-0.133121,2.445,2.56144
-0.743873,-0.133121,2.445,2.55912
-0.735937,-0.133121,2.445,2.55682
-0.728001,-0.133121,2.445,2.55455
-0.720065,-0.133121,2.445,2.5523
-0.712129,-0.133121,2.445,2.55007
-0.709378,-0.134101,2.463,2.56663
-0.701384,-0.134101,2.463,2.56443
-0.693389,-0.134101,2.463,2.56225
-0.685395,-0.134101,2.463,2.5601
-0.677401,-0.134101,2.463,2.55797
-0.669406,-0.134101,2.463,2.55587
-0.661412,-0.134101,2.463,2.55379
-0.653418,-0.134101,2.463,2.55173
-0.645424,-0.134101,2.463,2.54969
-0.637429,-0.134101,2.463,2.54768
-0.629435,-0.134101,2.463,2.54569
-0.621441,-0.134101,2.463,2.54373
-0.608963,-0.133121,2.445,2.52321
-0.601027,-0.133121,2.445,2.52131
-0.593092,-0.133121,2.445,2.51943
-0.585156,-0.133121,2.445,2.51757
-0.57722,-0.133121,2.445,2.51574
-0.569284,-0.133121,2.445,2.51393
-0.561348,-0.133121,2.445,2.51214
-0.553412,-0.133121,2.445,2.51038
-0.545476,-0.133121,2.445,2.50864
-0.541498,-0.134101,2.463,2.52539
-0.533504,-0.134101,2.463,2.52368
-0.525509,-0.134101,2.463,2.52201
-0.517515,-0.134101,2.463,2.52035
-0.509521,-0.134101,2.463,2.51872
-0.501526,-0.134101,2.463,2.51712
-0.493532,-0.134101,2.463,2.51554
-0.485538,-0.134101,2.463,2.51398
-0.477544,-0.134101,2.463,2.51245
-0.472981,-0.135081,2.481,2.52929
-0.464928,-0.135081,2.481,2.5278
-0.456875,-0.135081,2.481,2.52633
-0.448823,-0.135081,2.481,2.52489
-0.44077,-0.135081,2.481,2.52347
-0.435857,-0.136061,2.499,2.54037
-0.427746,-0.136061,2.499,2.53899
-0.419634,-0.136061,2.499,2.53764
-0.411523,-0.136061,2.499,2.53631
-0.403412,-0.136061,2.499,2.53501
-0.395301,-0.136061,2.499,2.53373
-0.38719,-0.136061,2.499,2.53248
-0.379079,-0.136061,2.499,2.53125
-0.370968,-0.136061,2.499,2.53005
-0.36547,-0.137042,2.517,2.54708
-0.354745,-0.136061,2.499,2.52772
-0.346634,-0.136061,2.499,2.52659
-0.338523,-0.136061,2.499,2.52549
-0.330412,-0.136061,2.499,2.52442
-0.322301,-0.136061,2.499,2.52337
-0.31419,-0.136061,2.499,2.52235
-0.306079,-0.136061,2.499,2.52135
-0.297967,-0.136061,2.499,2.52038
-0.289856,-0.136061,2.499,2.51943
-0.281745,-0.136061,2.499,2.51851
-0.273634,-0.136061,2.499,2.51762
-0.265523,-0.136061,2.499,2.51675
-0.257412,-0.136061,2.499,2.5159
-0.249301,-0.136061,2.499,2.51509
-0.24119,-0.136061,2.499,2.5143
-0.233078,-0.136061,2.499,2.51353
-0.224967,-0.136061,2.499,2.51279
-0.216856,-0.136061,2.499,2.51208
-0.208745,-0.136061,2.499,2.51139
-0.200634,-0.136061,2.499,2.51073
-0.192523,-0.136061,2.499,2.5101
-0.184412,-0.136061,2.499,2.50949
-0.1763,-0.136061,2.499,2.5089
-0.168189,-0.136061,2.499,2.50835
-0.160078,-0.136061,2.499,2.50782
-0.153062,-0.137042,2.517,2.52537
-0.144892,-0.137042,2.517,2.52489
-0.135745,-0.136061,2.499,2.50638
-0.127634,-0.136061,2.499,2.50595
-0.119523,-0.136061,2.499,2.50555
-0.111411,-0.136061,2.499,2.50518
-0.1033,-0.136061,2.499,2.50483
-0.0951891,-0.136061,2.499,2.50451
-0.087078,-0.136061,2.499,2.50422
-0.078398,-0.135081,2.481,2.48591
-0.0703453,-0.135081,2.481,2.48567
-0.0622926,-0.135081,2.481,2.48546
-0.0542399,-0.135081,2.481,2.48527
-0.0461872,-0.135081,2.481,2.4851
-0.0381345,-0.135081,2.481,2.48497
-0.0298635,-0.134101,2.463,2.46683
-0.0217094,-0.133121,2.445,2.44872
-0.0137736,-0.133121,2.445,2.44866
-0.00583771,-0.133121,2.445,2.44863
0.00209816,-0.133121,2.445,2.44862
0.010034,-0.133121,2.445,2.44864
0.0179699,-0.133121,2.445,2.44869
0.0259057,-0.133121,2.445,2.44876
0.0338416,-0.133121,2.445,2.44886
0.0417775,-0.133121,2.445,2.44898
0.0493677,-0.132196,2.428,2.4321
0.0572484,-0.132196,2.428,2.43227
0.065129,-0.132196,2.428,2.43247
0.0730097,-0.132196,2.428,2.43269
0.0808904,-0.132196,2.428,2.43294
0.0887711,-0.132196,2.428,2.43322
0.0966518,-0.132196,2.428,2.43352
0.104532,-0.132196,2.428,2.43384
0.112413,-0.132196,2.428,2.43419
0.120294,-0.132196,2.428,2.43457
0.128175,-0.132196,2.428,2.43497
0.137008,-0.133121,2.445,2.45245
0.144944,-0.133121,2.445,2.45291
0.15288,-0.133121,2.445,2.45339
0.159697,-0.132196,2.428,2.43683
0.167578,-0.132196,2.428,2.43736
0.175459,-0.132196,2.428,2.43792
0.184623,-0.133121,2.445,2.45557
0.192559,-0.133121,2.445,2.45618
0.200495,-0.133121,2.445,2.45682
0.208431,-0.133121,2.445,2.45748
0.216366,-0.133121,2.445,2.45816
0.224302,-0.133121,2.445,2.45887
0.233948,-0.134101,2.463,2.47772
0.241942,-0.134101,2.463,2.47849
0.251763,-0.135081,2.481,2.4974
0.259816,-0.135081,2.481,2.49822
0.267868,-0.135081,2.481,2.49907
0.275921,-0.135081,2.481,2.49995
0.283974,-0.135081,2.481,2.50085
0.292027,-0.135081,2.481,2.50178
0.302256,-0.136061,2.499,2.52089
0.310368,-0.136061,2.499,2.52187
0.318479,-0.136061,2.499,2.52288
0.32659,-0.136061,2.499,2.52392
0.337112,-0.137042,2.517,2.54317
0.345281,-0.137042,2.517,2.54427
0.353451,-0.137042,2.517,2.54539
0.36162,-0.137042,2.517,2.54653
0.36979,-0.137042,2.517,2.54771
0.37796,-0.137042,2.517,2.54891
0.386129,-0.137042,2.517,2.55013
0.394299,-0.137042,2.517,2.55138
0.402468,-0.137042,2.517,2.55266
0.410638,-0.137042,2.517,2.55396
0.418807,-0.137042,2.517,2.55528
0.426977,-0.137042,2.517,2.55663
0.432035,-0.136061,2.499,2.53972
0.440146,-0.136061,2.499,2.54111
0.448257,-0.136061,2.499,2.54253
0.456368,-0.136061,2.499,2.54397
0.464479,-0.136061,2.499,2.54544
0.469186,-0.135081,2.481,2.52859
0.477239,-0.135081,2.481,2.53009
0.485292,-0.135081,2.481,2.53162
0.489765,-0.134101,2.463,2.5148
0.497759,-0.134101,2.463,2.51637
0.505754,-0.134101,2.463,2.51796
0.513748,-0.134101,2.463,2.51958
0.521742,-0.134101,2.463,2.52122
0.529737,-0.134101,2.463,2.52289
0.537731,-0.134101,2.463,2.52458
0.545725,-0.134101,2.463,2.5263
0.553719,-0.134101,2.463,2.52803
0.561714,-0.134101,2.463,2.5298
0.569708,-0.134101,2.463,2.53158
0.577702,-0.134101,2.463,2.5334
0.585697,-0.134101,2.463,2.53523
0.593691,-0.134101,2.463,2.53709
0.601685,-0.134101,2.463,2.53897
0.609679,-0.134101,2.463,2.54088
0.617674,-0.134101,2.463,2.54281
0.625668,-0.134101,2.463,2.54476
0.633662,-0.134101,2.463,2.54674
0.641657,-0.134101,2.463,2.54874
0.649651,-0.134101,2.463,2.55076
0.652839,-0.133121,2.445,2.53416
0.660775,-0.133121,2.445,2.53621
0.668711,-0.133121,2.445,2.53829
0.676647,-0.133121,2.445,2.54039
0.684582,-0.133121,2.445,2.54252
0.687703,-0.132196,2.428,2.52697
0.695584,-0.132196,2.428,2.52913
0.703465,-0.132196,2.428,2.53131
0.706365,-0.13127,2.411,2.51577
0.71419,-0.13127,2.411,2.51798
0.722016,-0.13127,2.411,2.52021
0.729841,-0.13127,2.411,2.52246
0.737667,-0.13127,2.411,2.52474
0.745492,-0.13127,2.411,2.52704
0.753318,-0.13127,2.411,2.52936
0.761143,-0.13127,2.411,2.5317
0.768969,-0.13127,2.411,2.53406
0.776794,-0.13127,2.411,2.53645
0.78462,-0.13127,2.411,2.53885
0.792445,-0.13127,2.411,2.54128
0.800271,-0.13127,2.411,2.54373
0.808096,-0.13127,2.411,2.54621
0.815922,-0.13127,2.411,2.5487
0.823747,-0.13127,2.411,2.55122
0.831573,-0.13127,2.411,2.55376
0.839398,-0.13127,2.411,2.55631
0.84125,-0.130345,2.394,2.54085
0.84902,-0.130345,2.394,2.54344
0.856791,-0.130345,2.394,2.54604
0.864561,-0.130345,2.394,2.54866
0.872331,-0.130345,2.394,2.55131
0.880102,-0.130345,2.394,2.55398
0.881567,-0.129419,2.377,2.53851
0.889282,-0.129419,2.377,2.5412
0.89096,-0.128548,2.361,2.52679
0.898623,-0.128548,2.361,2.5295
0.906286,-0.128548,2.361,2.53223
0.913949,-0.128548,2.361,2.53499
0.915367,-0.127677,2.345,2.52056
0.916681,-0.126806,2.329,2.50612
0.92424,-0.126806,2.329,2.50889
0.931799,-0.126806,2.329,2.51169
0.939359,-0.126806,2.329,2.5145
nan,nan,nan,NaN
0.954477,-0.126806,2.329,2.52019
0.962037,-0.126806,2.329,2.52306
0.969596,-0.126806,2.329,2.52595
0.977155,-0.126806,2.329,2.52886
0.998245,-0.128548,2.361,2.56658
nan,nan,nan,NaN
nan,nan,nan,NaN
nan,nan,nan,NaN
nan,nan,nan,NaN
nan,nan,nan,NaN
nan,nan,nan,NaN
nan,nan,nan,NaN
nan,nan,nan,NaN
nan,nan,nan,NaN
nan,nan,nan,NaN
nan,nan,nan,NaN
nan,nan,nan,NaN
nan,nan,nan,NaN
nan,nan,nan,NaN
nan,nan,nan,NaN
nan,nan,nan,NaN
nan,nan,nan,NaN
nan,nan,nan,NaN
nan,nan,nan,NaN
nan,nan,nan,NaN
nan,nan,nan,NaN
nan,nan,nan,NaN
nan,nan,nan,NaN
nan,nan,nan,NaN
nan,nan,nan,NaN
nan,nan,nan,NaN
nan,nan,nan,NaN
nan,nan,nan,NaN
nan,nan,nan,NaN
nan,nan,nan,NaN
nan,nan,nan,NaN
nan,nan,nan,NaN
1.83245,-0.188276,3.458,3.91805
1.84367,-0.188276,3.458,3.92331
1.87367,-0.190181,3.493,3.96836
1.90444,-0.192141,3.529,4.01468
1.91589,-0.192141,3.529,4.02012
1.94755,-0.194156,3.566,4.0678
1.95913,-0.194156,3.566,4.07336
1.9707,-0.194156,3.566,4.07894
1.96171,-0.192141,3.529,4.04216
1.97316,-0.192141,3.529,4.04773
1.98461,-0.192141,3.529,4.05333
1.97571,-0.190181,3.493,4.01754
1.98704,-0.190181,3.493,4.02313
1.97836,-0.188276,3.458,3.98837
1.94988,-0.184519,3.389,3.91426
1.94179,-0.182722,3.356,3.88158
1.95268,-0.182722,3.356,3.88704
1.94485,-0.18098,3.324,3.85541
1.93681,-0.179237,3.292,3.82369
1.9475,-0.179237,3.292,3.82912
1.95818,-0.179237,3.292,3.83456
1.94973,-0.177495,3.26,3.8027
1.96031,-0.177495,3.26,3.80814
1.97089,-0.177495,3.26,3.8136
1.9444,-0.174174,3.199,3.74761
1.95478,-0.174174,3.199,3.75301
1.92953,-0.171016,3.141,3.69029
1.90453,-0.167913,3.084,3.62856
1.91454,-0.167913,3.084,3.63383
1.89085,-0.164973,3.03,3.57539
1.86744,-0.162087,2.977,3.51797
1.8771,-0.162087,2.977,3.52311
1.87028,-0.160671,2.951,3.49745
1.81743,-0.155336,2.853,3.38627
1.82669,-0.155336,2.853,3.39125
1.79091,-0.151524,2.783,3.31291
1.75725,-0.147931,2.717,3.23912
1.73877,-0.145644,2.675,3.19377
1.74746,-0.145644,2.675,3.19851
1.74235,-0.144501,2.654,3.17811
1.72392,-0.142268,2.613,3.13367
1.7324,-0.142268,2.613,3.13835
1.72755,-0.141179,2.593,3.11898
1.72325,-0.140145,2.574,3.10076
1.7316,-0.140145,2.574,3.10541
1.71427,-0.138076,2.536,3.06416
1.7096,-0.137042,2.517,3.04578
-2.04721,-0.151096,2.951,3.59476
-2.0031,-0.148536,2.901,3.5285
-1.99369,-0.148536,2.901,3.52316
-1.96786,-0.147307,2.877,3.48874
-1.94218,-0.146078,2.853,3.45442
-1.93292,-0.146078,2.853,3.44922
-1.90748,-0.144849,2.829,3.41507
-1.89829,-0.144849,2.829,3.40995
-1.88911,-0.144849,2.829,3.40484
-1.86465,-0.143672,2.806,3.37212
-1.84033,-0.142494,2.783,3.33949
-1.8313,-0.142494,2.783,3.33452
-1.82226,-0.142494,2.783,3.32957
-1.81323,-0.142494,2.783,3.32464
-1.81911,-0.143672,2.806,3.34715
-1.82484,-0.144849,2.829,3.36961
-1.81565,-0.144849,2.829,3.36464
-1.80647,-0.144849,2.829,3.3597
-1.82778,-0.147307,2.877,3.41169
-1.81845,-0.147307,2.877,3.4067
-1.79402,-0.146078,2.853,3.37334
-1.78476,-0.146078,2.853,3.36843
-1.7755,-0.146078,2.853,3.36353
-1.78109,-0.147307,2.877,3.3869
-1.78654,-0.148536,2.901,3.41022
-1.79244,-0.149816,2.926,3.43464
-1.78294,-0.149816,2.926,3.42969
-1.77344,-0.149816,2.926,3.42476
-1.76394,-0.149816,2.926,3.41986
-1.75445,-0.149816,2.926,3.41497
-1.74495,-0.149816,2.926,3.4101
-1.73545,-0.149816,2.926,3.40525
-1.72596,-0.149816,2.926,3.40042
-1.71646,-0.149816,2.926,3.39561
-1.72155,-0.151096,2.951,3.41979
nan,nan,nan,NaN
nan,nan,nan,NaN
nan,nan,nan,NaN
nan,nan,nan,NaN
nan,nan,nan,NaN
nan,nan,nan,NaN
nan,nan,nan,NaN
nan,nan,nan,NaN
nan,nan,nan,NaN
nan,nan,nan,NaN
nan,nan,nan,NaN
nan,nan,nan,NaN
nan,nan,nan,NaN
nan,nan,nan,NaN
nan,nan,nan,NaN
nan,nan,nan,NaN
nan,nan,nan,NaN
nan,nan,nan,NaN
nan,nan,nan,NaN
nan,nan,nan,NaN
nan,nan,nan,NaN
nan,nan,nan,NaN
nan,nan,nan,NaN
nan,nan,nan,NaN
nan,nan,nan,NaN
nan,nan,nan,NaN
nan,nan,nan,NaN
-1.28689,-0.13379,2.613,2.91578
-1.25003,-0.13082,2.555,2.84741
-1.24174,-0.13082,2.555,2.84378
-1.23345,-0.13082,2.555,2.84016
-1.21605,-0.129847,2.536,2.81548
-1.20781,-0.129847,2.536,2.81193
-1.18208,-0.127953,2.499,2.76743
-1.16551,-0.127031,2.481,2.74407
-1.15746,-0.127031,2.481,2.74066
-1.14107,-0.126109,2.463,2.71741
-1.13308,-0.126109,2.463,2.71406
-1.11686,-0.125188,2.445,2.69092
-1.10892,-0.125188,2.445,2.68764
-1.10099,-0.125188,2.445,2.68438
-1.08545,-0.124317,2.428,2.66249
-1.07757,-0.124317,2.428,2.65929
-1.06969,-0.124317,2.428,2.6561
-1.06181,-0.124317,2.428,2.65294
-1.05393,-0.124317,2.428,2.64979
-1.04605,-0.124317,2.428,2.64667
-1.03817,-0.124317,2.428,2.64356
-1.03029,-0.124317,2.428,2.64048
-1.02241,-0.124317,2.428,2.63741
-1.01452,-0.124317,2.428,2.63437
-1.00664,-0.124317,2.428,2.63134
-0.998763,-0.124317,2.428,2.62834
-0.990883,-0.124317,2.428,2.62536
-0.983002,-0.124317,2.428,2.62239
-0.975121,-0.124317,2.428,2.61945
-0.967241,-0.124317,2.428,2.61652
-0.95936,-0.124317,2.428,2.61362
-0.951479,-0.124317,2.428,2.61074
-0.936992,-0.123447,2.411,2.58962
-0.929166,-0.123447,2.411,2.5868
-0.921341,-0.123447,2.411,2.58399
-0.913515,-0.123447,2.411,2.58121
-0.90569,-0.123447,2.411,2.57846
-0.897864,-0.123447,2.411,2.57572
-0.890039,-0.123447,2.411,2.573
-0.882213,-0.123447,2.411,2.5703
-0.874388,-0.123447,2.411,2.56763
-0.866562,-0.123447,2.411,2.56497
-0.858737,-0.123447,2.411,2.56234
-0.850911,-0.123447,2.411,2.55973
-0.843086,-0.123447,2.411,2.55714
-0.83526,-0.123447,2.411,2.55457
-0.827435,-0.123447,2.411,2.55202
-0.825388,-0.124317,2.428,2.56747
-0.817508,-0.124317,2.428,2.56495
-0.809627,-0.124317,2.428,2.56245
-0.801746,-0.124317,2.428,2.55997
-0.799424,-0.125188,2.445,2.57542
-0.791488,-0.125188,2.445,2.57297
-0.783552,-0.125188,2.445,2.57054
-0.775616,-0.125188,2.445,2.56813
-0.773332,-0.126109,2.463,2.58463
-0.765338,-0.126109,2.463,2.58225
-0.751809,-0.125188,2.445,2.56104
-0.743873,-0.125188,2.445,2.55872
-0.735937,-0.125188,2.445,2.55642
-0.733361,-0.126109,2.463,2.57295
-0.725366,-0.126109,2.463,2.57069
-0.717372,-0.126109,2.463,2.56844
-0.709378,-0.126109,2.463,2.56622
-0.701384,-0.126109,2.463,2.56402
-0.693389,-0.126109,2.463,2.56185
-0.685395,-0.126109,2.463,2.5597
-0.677401,-0.126109,2.463,2.55757
-0.669406,-0.126109,2.463,2.55546
-0.661412,-0.126109,2.463,2.55338
-0.653418,-0.126109,2.463,2.55132
-0.645424,-0.126109,2.463,2.54928
-0.637429,-0.126109,2.463,2.54727
-0.629435,-0.126109,2.463,2.54528
-0.621441,-0.126109,2.463,2.54332
-0.613446,-0.126109,2.463,2.54138
-0.601027,-0.125188,2.445,2.5209
-0.593092,-0.125188,2.445,2.51902
-0.585156,-0.125188,2.445,2.51716
-0.57722,-0.125188,2.445,2.51533
-0.569284,-0.125188,2.445,2.51352
-0.561348,-0.125188,2.445,2.51173
-0.553412,-0.125188,2.445,2.50997
-0.545476,-0.125188,2.445,2.50823
-0.53754,-0.125188,2.445,2.50652
-0.529605,-0.125188,2.445,2.50483
-0.525509,-0.126109,2.463,2.52159
-0.517515,-0.126109,2.463,2.51994
-0.509521,-0.126109,2.463,2.51831
-0.501526,-0.126109,2.463,2.5167
-0.493532,-0.126109,2.463,2.51512
-0.485538,-0.126109,2.463,2.51357
-0.477544,-0.126109,2.463,2.51204
-0.469549,-0.126109,2.463,2.51053
-0.461555,-0.126109,2.463,2.50904
-0.453561,-0.126109,2.463,2.50759
-0.448823,-0.127031,2.481,2.52447
-0.44077,-0.127031,2.481,2.52305
-0.432717,-0.127031,2.481,2.52165
-0.424665,-0.127031,2.481,2.52029
-0.416612,-0.127031,2.481,2.51894
-0.411523,-0.127953,2.499,2.53589
-0.403412,-0.127953,2.499,2.53458
-0.395301,-0.127953,2.499,2.53331
-0.38719,-0.127953,2.499,2.53205
-0.379079,-0.127953,2.499,2.53082
-0.370968,-0.127953,2.499,2.52962
-0.362857,-0.127953,2.499,2.52845
-0.354745,-0.127953,2.499,2.52729
-0.346634,-0.127953,2.499,2.52617
-0.338523,-0.127953,2.499,2.52507
-0.330412,-0.127953,2.499,2.52399
-0.322301,-0.127953,2.499,2.52294
-0.31419,-0.127953,2.499,2.52192
-0.306079,-0.127953,2.499,2.52092
-0.295821,-0.127031,2.481,2.5018
-0.287769,-0.127031,2.481,2.50086
-0.279716,-0.127031,2.481,2.49995
-0.271663,-0.127031,2.481,2.49906
-0.26361,-0.127031,2.481,2.4982
-0.255558,-0.127031,2.481,2.49736
-0.247505,-0.127031,2.481,2.49655
-0.239452,-0.127031,2.481,2.49576
-0.2314,-0.127031,2.481,2.495
-0.224967,-0.127953,2.499,2.51237
-0.216856,-0.127953,2.499,2.51165
-0.208745,-0.127953,2.499,2.51097
-0.200634,-0.127953,2.499,2.5103
-0.192523,-0.127953,2.499,2.50967
-0.184412,-0.127953,2.499,2.50906
-0.1763,-0.127953,2.499,2.50848
-0.168189,-0.127953,2.499,2.50792
-0.160078,-0.127953,2.499,2.50739
-0.153062,-0.128874,2.517,2.52494
-0.144892,-0.128874,2.517,2.52446
-0.135745,-0.127953,2.499,2.50595
-0.127634,-0.127953,2.499,2.50553
-0.119523,-0.127953,2.499,2.50513
-0.111411,-0.127953,2.499,2.50475
-0.1033,-0.127953,2.499,2.50441
-0.0951891,-0.127953,2.499,2.50408
-0.087078,-0.127953,2.499,2.50379
-0.078398,-0.127031,2.481,2.48549
-0.0703453,-0.127031,2.481,2.48525
-0.0622926,-0.127031,2.481,2.48503
-0.0542399,-0.127031,2.481,2.48484
-0.0461872,-0.127031,2.481,2.48468
-0.0381345,-0.127031,2.481,2.48454
-0.0298635,-0.126109,2.463,2.46641
-0.0217094,-0.125188,2.445,2.4483
-0.0137736,-0.125188,2.445,2.44824
-0.00583771,-0.125188,2.445,2.44821
0.00209816,-0.125188,2.445,2.4482
0.010034,-0.125188,2.445,2.44822
0.0179699,-0.125188,2.445,2.44827
0.0259057,-0.125188,2.445,2.44834
0.0338416,-0.125188,2.445,2.44844
0.0417775,-0.125188,2.445,2.44856
0.0493677,-0.124317,2.428,2.43168
0.0572484,-0.124317,2.428,2.43185
0.065129,-0.124317,2.428,2.43205
0.0730097,-0.124317,2.428,2.43228
0.0808904,-0.124317,2.428,2.43253
0.0887711,-0.124317,2.428,2.4328
0.0966518,-0.124317,2.428,2.4331
0.104532,-0.124317,2.428,2.43343
0.112413,-0.124317,2.428,2.43378
0.120294,-0.124317,2.428,2.43415
0.128175,-0.124317,2.428,2.43456
0.137008,-0.125188,2.445,2.45203
0.144944,-0.125188,2.445,2.45249
0.15288,-0.125188,2.445,2.45297
0.159697,-0.124317,2.428,2.43642
0.167578,-0.124317,2.428,2.43695
0.175459,-0.124317,2.428,2.4375
0.184623,-0.125188,2.445,2.45515
0.192559,-0.125188,2.445,2.45576
0.200495,-0.125188,2.445,2.4564
0.208431,-0.125188,2.445,2.45706
0.216366,-0.125188,2.445,2.45775
0.224302,-0.125188,2.445,2.45846
0.233948,-0.126109,2.463,2.4773
0.241942,-0.126109,2.463,2.47807
0.251763,-0.127031,2.481,2.49697
0.259816,-0.127031,2.481,2.4978
0.267868,-0.127031,2.481,2.49865
0.275921,-0.127031,2.481,2.49953
0.283974,-0.127031,2.481,2.50043
0.292027,-0.127031,2.481,2.50136
0.302256,-0.127953,2.499,2.52046
0.310368,-0.127953,2.499,2.52145
0.318479,-0.127953,2.499,2.52246
0.32659,-0.127953,2.499,2.5235
0.337112,-0.128874,2.517,2.54274
0.345281,-0.128874,2.517,2.54384
0.353451,-0.128874,2.517,2.54496
0.36162,-0.128874,2.517,2.54611
0.36979,-0.128874,2.517,2.54728
0.37796,-0.128874,2.517,2.54848
0.386129,-0.128874,2.517,2.5497
0.394299,-0.128874,2.517,2.55095
0.402468,-0.128874,2.517,2.55223
0.410638,-0.128874,2.517,2.55353
0.418807,-0.128874,2.517,2.55486
0.426977,-0.128874,2.517,2.55621
0.432035,-0.127953,2.499,2.5393
0.440146,-0.127953,2.499,2.54069
0.448257,-0.127953,2.499,2.54211
0.456368,-0.127953,2.499,2.54355
0.464479,-0.127953,2.499,2.54502
0.469186,-0.127031,2.481,2.52817
0.477239,-0.127031,2.481,2.52968
0.485292,-0.127031,2.481,2.53121
0.489765,-0.126109,2.463,2.51439
0.497759,-0.126109,2.463,2.51596
0.505754,-0.126109,2.463,2.51755
0.513748,-0.126109,2.463,2.51917
0.521742,-0.126109,2.463,2.52081
0.529737,-0.126109,2.463,2.52248
0.537731,-0.126109,2.463,2.52417
0.545725,-0.126109,2.463,2.52588
0.553719,-0.126109,2.463,2.52762
0.561714,-0.126109,2.463,2.52939
0.569708,-0.126109,2.463,2.53117
0.577702,-0.126109,2.463,2.53298
0.585697,-0.126109,2.463,2.53482
0.593691,-0.126109,2.463,2.53668
0.601685,-0.126109,2.463,2.53856
0.609679,-0.126109,2.463,2.54047
0.617674,-0.126109,2.463,2.5424
0.625668,-0.126109,2.463,2.54435
0.633662,-0.126109,2.463,2.54633
0.641657,-0.126109,2.463,2.54833
0.649651,-0.126109,2.463,2.55036
0.652839,-0.125188,2.445,2.53375
0.660775,-0.125188,2.445,2.53581
0.668711,-0.125188,2.445,2.53789
0.676647,-0.125188,2.445,2.53999
0.684582,-0.125188,2.445,2.54212
0.687703,-0.124317,2.428,2.52657
0.695584,-0.124317,2.428,2.52873
0.703465,-0.124317,2.428,2.53091
0.711345,-0.124317,2.428,2.53311
0.71419,-0.123447,2.411,2.51758
0.722016,-0.123447,2.411,2.51981
0.729841,-0.123447,2.411,2.52207
0.737667,-0.123447,2.411,2.52434
0.745492,-0.123447,2.411,2.52664
0.753318,-0.123447,2.411,2.52896
0.761143,-0.123447,2.411,2.5313
0.768969,-0.123447,2.411,2.53367
0.776794,-0.123447,2.411,2.53605
0.78462,-0.123447,2.411,2.53846
0.792445,-0.123447,2.411,2.54089
0.800271,-0.123447,2.411,2.54334
0.808096,-0.123447,2.411,2.54582
0.815922,-0.123447,2.411,2.54831
0.823747,-0.123447,2.411,2.55083
0.831573,-0.123447,2.411,2.55336
0.839398,-0.123447,2.411,2.55592
0.847224,-0.123447,2.411,2.55851
0.855049,-0.123447,2.411,2.56111
0.856791,-0.122576,2.394,2.54565
0.864561,-0.122576,2.394,2.54828
0.872331,-0.122576,2.394,2.55093
0.880102,-0.122576,2.394,2.55359
0.881567,-0.121706,2.377,2.53813
0.889282,-0.121706,2.377,2.54082
0.89096,-0.120887,2.361,2.52641
0.898623,-0.120887,2.361,2.52912
0.900144,-0.120068,2.345,2.5147
0.907756,-0.120068,2.345,2.51743
0.915367,-0.120068,2.345,2.52019
0.916681,-0.119248,2.329,2.50575
0.92424,-0.119248,2.329,2.50852
0.925398,-0.118429,2.313,2.49406
0.932905,-0.118429,2.313,2.49686
0.946918,-0.119248,2.329,2.51697
0.954477,-0.119248,2.329,2.51982
0.962037,-0.119248,2.329,2.52269
0.969596,-0.119248,2.329,2.52558
0.977155,-0.119248,2.329,2.5285
0.998245,-0.120887,2.361,2.56621
1.01997,-0.122576,2.394,2.60511
1.04963,-0.125188,2.445,2.66372
1.05757,-0.125188,2.445,2.66686
1.08904,-0.127953,2.499,2.72899
1.1472,-0.13379,2.613,2.85687
1.15568,-0.13379,2.613,2.86029
nan,nan,nan,NaN
nan,nan,nan,NaN
nan,nan,nan,NaN
1.39174,-0.156523,3.057,3.36254
1.40166,-0.156523,3.057,3.36666
1.45037,-0.160824,3.141,3.46343
1.47405,-0.162309,3.17,3.49972
1.48434,-0.162309,3.17,3.50407
1.49463,-0.162309,3.17,3.50844
1.51869,-0.163794,3.199,3.54497
1.52907,-0.163794,3.199,3.54943
1.53945,-0.163794,3.199,3.55392
1.54984,-0.163794,3.199,3.55843
1.56022,-0.163794,3.199,3.56296
1.5706,-0.163794,3.199,3.56752
1.58099,-0.163794,3.199,3.57211
1.59137,-0.163794,3.199,3.57671
1.60175,-0.163794,3.199,3.58135
1.61213,-0.163794,3.199,3.586
1.62252,-0.163794,3.199,3.59068
1.6329,-0.163794,3.199,3.59539
1.67462,-0.166917,3.26,3.66876
1.70174,-0.168555,3.292,3.70966
1.71243,-0.168555,3.292,3.71458
1.73986,-0.170194,3.324,3.75567
1.7675,-0.171832,3.356,3.79689
1.7784,-0.171832,3.356,3.80197
1.80688,-0.173522,3.389,3.84451
1.83612,-0.175263,3.423,3.88831
1.90444,-0.18069,3.529,4.01415
1.91589,-0.18069,3.529,4.01959
1.94755,-0.182585,3.566,4.06727
1.95913,-0.182585,3.566,4.07282
1.9707,-0.182585,3.566,4.0784
1.96171,-0.18069,3.529,4.04163
1.97316,-0.18069,3.529,4.0472
1.98461,-0.18069,3.529,4.0528
1.97571,-0.178847,3.493,4.01702
1.98704,-0.178847,3.493,4.02261
1.97836,-0.177055,3.458,3.98786
1.94988,-0.173522,3.389,3.91375
1.94179,-0.171832,3.356,3.88108
1.95268,-0.171832,3.356,3.88654
1.94485,-0.170194,3.324,3.85492
1.93681,-0.168555,3.292,3.82321
1.9475,-0.168555,3.292,3.82863
1.95818,-0.168555,3.292,3.83408
1.94973,-0.166917,3.26,3.80222
1.96031,-0.166917,3.26,3.80766
1.97089,-0.166917,3.26,3.81312
1.9444,-0.163794,3.199,3.74715
1.95478,-0.163794,3.199,3.75254
1.92953,-0.160824,3.141,3.68983
1.90453,-0.157906,3.084,3.62811
1.91454,-0.157906,3.084,3.63338
1.89085,-0.155141,3.03,3.57495
1.86744,-0.152427,2.977,3.51754
1.8771,-0.152427,2.977,3.52268
1.88676,-0.152427,2.977,3.52784
1.81743,-0.146078,2.853,3.38585
1.82669,-0.146078,2.853,3.39083
1.79091,-0.142494,2.783,3.31251
1.75725,-0.139115,2.717,3.23873
1.73877,-0.136964,2.675,3.19339
1.74746,-0.136964,2.675,3.19812
1.74235,-0.135889,2.654,3.17773
1.72392,-0.13379,2.613,3.1333
1.7324,-0.13379,2.613,3.13797
1.72755,-0.132766,2.593,3.11861
1.72325,-0.131793,2.574,3.10039
1.7316,-0.131793,2.574,3.10504
1.71427,-0.129847,2.536,3.0638
1.7096,-0.128874,2.517,3.04543
-2.04721,-0.14152,2.951,3.59437
-2.0031,-0.139122,2.901,3.52811
-1.99369,-0.139122,2.901,3.52277
-1.96786,-0.137971,2.877,3.48835
-1.94218,-0.13682,2.853,3.45404
-1.93292,-0.13682,2.853,3.44884
-1.90748,-0.135669,2.829,3.41469
-1.89829,-0.135669,2.829,3.40957
-1.88911,-0.135669,2.829,3.40447
-1.86465,-0.134567,2.806,3.37174
-1.84033,-0.133464,2.783,3.33912
-1.8313,-0.133464,2.783,3.33415
-1.82226,-0.133464,2.783,3.3292
-1.81323,-0.133464,2.783,3.32426
-1.81911,-0.134567,2.806,3.34677
-1.82484,-0.135669,2.829,3.36923
-1.81565,-0.135669,2.829,3.36426
-1.80647,-0.135669,2.829,3.35931
-1.82778,-0.137971,2.877,3.4113
-1.80328,-0.13682,2.853,3.37789
-1.79402,-0.13682,2.853,3.37296
-1.78476,-0.13682,2.853,3.36804
-1.7755,-0.13682,2.853,3.36314
-1.78109,-0.137971,2.877,3.38651
-1.77176,-0.137971,2.877,3.38161
-1.77712,-0.139122,2.901,3.4049
-1.7677,-0.139122,2.901,3.39999
-1.75829,-0.139122,2.901,3.3951
-1.76394,-0.140321,2.926,3.41945
-1.75445,-0.140321,2.926,3.41456
-1.74495,-0.140321,2.926,3.40969
-1.73545,-0.140321,2.926,3.40484
-1.72596,-0.140321,2.926,3.40001
-1.71646,-0.140321,2.926,3.3952
-1.72155,-0.14152,2.951,3.41938
nan,nan,nan,NaN
nan,nan,nan,NaN
nan,nan,nan,NaN
nan,nan,nan,NaN
nan,nan,nan,NaN
nan,nan,nan,NaN
nan,nan,nan,NaN
nan,nan,nan,NaN
nan,nan,nan,NaN
nan,nan,nan,NaN
nan,nan,nan,NaN
nan,nan,nan,NaN
nan,nan,nan,NaN
nan,nan,nan,NaN
nan,nan,nan,NaN
nan,nan,nan,NaN
nan,nan,nan,NaN
nan,nan,nan,NaN
nan,nan,nan,NaN
nan,nan,nan,NaN
nan,nan,nan,NaN
nan,nan,nan,NaN
nan,nan,nan,NaN
nan,nan,nan,NaN
nan,nan,nan,NaN
nan,nan,nan,NaN
nan,nan,nan,NaN
-1.28689,-0.125311,2.613,2.9154
-1.25933,-0.123441,2.574,2.86821
-1.25098,-0.123441,2.574,2.86455
-1.23345,-0.122529,2.555,2.83979
-1.21605,-0.121618,2.536,2.81511
-1.20781,-0.121618,2.536,2.81157
-1.18208,-0.119844,2.499,2.76707
-1.17397,-0.119844,2.499,2.76362
-1.15746,-0.118981,2.481,2.7403
-1.14941,-0.118981,2.481,2.73691
-1.13308,-0.118117,2.463,2.7137
-1.11686,-0.117254,2.445,2.69057
-1.10892,-0.117254,2.445,2.68728
-1.10099,-0.117254,2.445,2.68402
-1.08545,-0.116439,2.428,2.66213
-1.07757,-0.116439,2.428,2.65893
-1.06969,-0.116439,2.428,2.65574
-1.06181,-0.116439,2.428,2.65258
-1.05393,-0.116439,2.428,2.64944
-1.04605,-0.116439,2.428,2.64631
-1.03817,-0.116439,2.428,2.64321
-1.03029,-0.116439,2.428,2.64012
-1.02241,-0.116439,2.428,2.63705
-1.01452,-0.116439,2.428,2.63401
-1.00664,-0.116439,2.428,2.63098
-0.998763,-0.116439,2.428,2.62798
-0.990883,-0.116439,2.428,2.62499
-0.983002,-0.116439,2.428,2.62203
-0.975121,-0.116439,2.428,2.61908
-0.967241,-0.116439,2.428,2.61616
-0.95936,-0.116439,2.428,2.61326
-0.944817,-0.115624,2.411,2.5921
-0.936992,-0.115624,2.411,2.58926
-0.929166,-0.115624,2.411,2.58643
-0.921341,-0.115624,2.411,2.58363
-0.913515,-0.115624,2.411,2.58085
-0.90569,-0.115624,2.411,2.57809
-0.897864,-0.115624,2.411,2.57535
-0.890039,-0.115624,2.411,2.57264
-0.882213,-0.115624,2.411,2.56994
-0.874388,-0.115624,2.411,2.56726
-0.866562,-0.115624,2.411,2.56461
-0.858737,-0.115624,2.411,2.56198
-0.850911,-0.115624,2.411,2.55936
-0.843086,-0.115624,2.411,2.55677
-0.83526,-0.115624,2.411,2.5542
-0.827435,-0.115624,2.411,2.55165
-0.825388,-0.116439,2.428,2.5671
-0.817508,-0.116439,2.428,2.56458
-0.809627,-0.116439,2.428,2.56208
-0.801746,-0.116439,2.428,2.5596
-0.799424,-0.117254,2.445,2.57504
-0.791488,-0.117254,2.445,2.57259
-0.783552,-0.117254,2.445,2.57016
-0.775616,-0.117254,2.445,2.56775
-0.773332,-0.118117,2.463,2.58425
-0.765338,-0.118117,2.463,2.58187
-0.751809,-0.117254,2.445,2.56066
-0.743873,-0.117254,2.445,2.55834
-0.735937,-0.117254,2.445,2.55605
-0.733361,-0.118117,2.463,2.57257
-0.725366,-0.118117,2.463,2.57031
-0.717372,-0.118117,2.463,2.56806
-0.709378,-0.118117,2.463,2.56584
-0.701384,-0.118117,2.463,2.56364
-0.693389,-0.118117,2.463,2.56147
-0.685395,-0.118117,2.463,2.55931
-0.677401,-0.118117,2.463,2.55718
-0.669406,-0.118117,2.463,2.55508
-0.661412,-0.118117,2.463,2.553
-0.653418,-0.118117,2.463,2.55094
-0.645424,-0.118117,2.463,2.5489
-0.637429,-0.118117,2.463,2.54689
-0.629435,-0.118117,2.463,2.5449
-0.621441,-0.118117,2.463,2.54293
-0.613446,-0.118117,2.463,2.54099
-0.601027,-0.117254,2.445,2.52052
-0.593092,-0.117254,2.445,2.51864
-0.585156,-0.117254,2.445,2.51678
-0.57722,-0.117254,2.445,2.51495
-0.569284,-0.117254,2.445,2.51314
-0.561348,-0.117254,2.445,2.51135
-0.553412,-0.117254,2.445,2.50959
-0.545476,-0.117254,2.445,2.50785
-0.53754,-0.117254,2.445,2.50614
-0.529605,-0.117254,2.445,2.50445
-0.525509,-0.118117,2.463,2.52121
-0.517515,-0.118117,2.463,2.51955
-0.509521,-0.118117,2.463,2.51792
-0.501526,-0.118117,2.463,2.51632
-0.493532,-0.118117,2.463,2.51474
-0.485538,-0.118117,2.463,2.51318
-0.477544,-0.118117,2.463,2.51165
-0.469549,-0.118117,2.463,2.51014
-0.461555,-0.118117,2.463,2.50866
-0.453561,-0.118117,2.463,2.5072
-0.448823,-0.118981,2.481,2.52408
-0.44077,-0.118981,2.481,2.52266
-0.432717,-0.118981,2.481,2.52126
-0.424665,-0.118981,2.481,2.51989
-0.416612,-0.118981,2.481,2.51855
-0.411523,-0.119844,2.499,2.53549
-0.403412,-0.119844,2.499,2.53419
-0.395301,-0.119844,2.499,2.53291
-0.38719,-0.119844,2.499,2.53166
-0.379079,-0.119844,2.499,2.53043
-0.370968,-0.119844,2.499,2.52923
-0.362857,-0.119844,2.499,2.52805
-0.354745,-0.119844,2.499,2.5269
-0.346634,-0.119844,2.499,2.52577
-0.338523,-0.119844,2.499,2.52467
-0.330412,-0.119844,2.499,2.5236
-0.322301,-0.119844,2.499,2.52255
-0.31419,-0.119844,2.499,2.52152
-0.306079,-0.119844,2.499,2.52053
-0.295821,-0.118981,2.481,2.50141
-0.287769,-0.118981,2.481,2.50047
-0.279716,-0.118981,2.481,2.49955
-0.271663,-0.118981,2.481,2.49866
-0.26361,-0.118981,2.481,2.4978
-0.255558,-0.118981,2.481,2.49696
-0.247505,-0.118981,2.481,2.49615
-0.239452,-0.118981,2.481,2.49537
-0.2314,-0.118981,2.481,2.49461
-0.223347,-0.118981,2.481,2.49387
-0.215294,-0.118981,2.481,2.49316
-0.208745,-0.119844,2.499,2.51057
-0.200634,-0.119844,2.499,2.5099
-0.192523,-0.119844,2.499,2.50927
-0.184412,-0.119844,2.499,2.50866
-0.1763,-0.119844,2.499,2.50808
-0.168189,-0.119844,2.499,2.50752
-0.160078,-0.119844,2.499,2.50699
-0.151967,-0.119844,2.499,2.50648
-0.143856,-0.119844,2.499,2.506
-0.135745,-0.119844,2.499,2.50555
-0.127634,-0.119844,2.499,2.50513
-0.119523,-0.119844,2.499,2.50473
-0.111411,-0.119844,2.499,2.50435
-0.1033,-0.119844,2.499,2.504
-0.0951891,-0.119844,2.499,2.50368
-0.087078,-0.119844,2.499,2.50339
-0.078398,-0.118981,2.481,2.48509
-0.0703453,-0.118981,2.481,2.48485
-0.0622926,-0.118981,2.481,2.48463
-0.0542399,-0.118981,2.481,2.48444
-0.0458521,-0.118117,2.463,2.46626
-0.0378578,-0.118117,2.463,2.46612
-0.0298635,-0.118117,2.463,2.46601
-0.0217094,-0.117254,2.445,2.44791
-0.0137736,-0.117254,2.445,2.44785
-0.00583771,-0.117254,2.445,2.44782
0.00209816,-0.117254,2.445,2.44781
0.010034,-0.117254,2.445,2.44783
0.0179699,-0.117254,2.445,2.44788
0.0257256,-0.116439,2.428,2.43093
0.0336063,-0.116439,2.428,2.43102
0.041487,-0.116439,2.428,2.43114
0.0493677,-0.116439,2.428,2.43129
0.0572484,-0.116439,2.428,2.43146
0.065129,-0.116439,2.428,2.43166
0.0730097,-0.116439,2.428,2.43189
0.0808904,-0.116439,2.428,2.43214
0.0887711,-0.116439,2.428,2.43241
0.0966518,-0.116439,2.428,2.43271
0.104532,-0.116439,2.428,2.43304
0.112413,-0.116439,2.428,2.43339
0.120294,-0.116439,2.428,2.43377
0.128175,-0.116439,2.428,2.43417
0.137008,-0.117254,2.445,2.45164
0.144944,-0.117254,2.445,2.4521
0.15288,-0.117254,2.445,2.45258
0.159697,-0.116439,2.428,2.43603
0.167578,-0.116439,2.428,2.43656
0.175459,-0.116439,2.428,2.43711
0.184623,-0.117254,2.445,2.45476
0.192559,-0.117254,2.445,2.45537
0.200495,-0.117254,2.445,2.45601
0.208431,-0.117254,2.445,2.45667
0.216366,-0.117254,2.445,2.45735
0.224302,-0.117254,2.445,2.45807
0.233948,-0.118117,2.463,2.4769
0.241942,-0.118117,2.463,2.47767
0.251763,-0.118981,2.481,2.49658
0.259816,-0.118981,2.481,2.4974
0.267868,-0.118981,2.481,2.49825
0.275921,-0.118981,2.481,2.49913
0.283974,-0.118981,2.481,2.50003
0.292027,-0.118981,2.481,2.50096
0.302256,-0.119844,2.499,2.52006
0.310368,-0.119844,2.499,2.52105
0.318479,-0.119844,2.499,2.52206
0.32659,-0.119844,2.499,2.5231
0.337112,-0.120707,2.517,2.54234
0.345281,-0.120707,2.517,2.54344
0.353451,-0.120707,2.517,2.54456
0.36162,-0.120707,2.517,2.54571
0.36979,-0.120707,2.517,2.54688
0.37796,-0.120707,2.517,2.54808
0.386129,-0.120707,2.517,2.5493
0.394299,-0.120707,2.517,2.55056
0.402468,-0.120707,2.517,2.55183
0.410638,-0.120707,2.517,2.55313
0.415812,-0.119844,2.499,2.53619
0.423923,-0.119844,2.499,2.53753
0.432035,-0.119844,2.499,2.5389
0.440146,-0.119844,2.499,2.54029
0.448257,-0.119844,2.499,2.54171
0.456368,-0.119844,2.499,2.54315
0.464479,-0.119844,2.499,2.54462
0.469186,-0.118981,2.481,2.52778
0.477239,-0.118981,2.481,2.52928
0.485292,-0.118981,2.481,2.53082
0.493344,-0.118981,2.481,2.53237
0.497759,-0.118117,2.463,2.51557
0.505754,-0.118117,2.463,2.51716
0.513748,-0.118117,2.463,2.51878
0.521742,-0.118117,2.463,2.52042
0.529737,-0.118117,2.463,2.52209
0.537731,-0.118117,2.463,2.52378
0.545725,-0.118117,2.463,2.5255
0.553719,-0.118117,2.463,2.52724
0.561714,-0.118117,2.463,2.529
0.569708,-0.118117,2.463,2.53079
0.577702,-0.118117,2.463,2.5326
0.585697,-0.118117,2.463,2.53444
0.593691,-0.118117,2.463,2.53629
0.601685,-0.118117,2.463,2.53818
0.609679,-0.118117,2.463,2.54008
0.617674,-0.118117,2.463,2.54202
0.625668,-0.118117,2.463,2.54397
0.633662,-0.118117,2.463,2.54595
0.641657,-0.118117,2.463,2.54795
0.649651,-0.118117,2.463,2.54997
0.652839,-0.117254,2.445,2.53337
0.660775,-0.117254,2.445,2.53543
0.668711,-0.117254,2.445,2.53751
0.676647,-0.117254,2.445,2.53961
0.684582,-0.117254,2.445,2.54174
0.692518,-0.117254,2.445,2.54389
0.700454,-0.117254,2.445,2.54606
0.703465,-0.116439,2.428,2.53053
0.711345,-0.116439,2.428,2.53274
0.719226,-0.116439,2.428,2.53496
0.727107,-0.116439,2.428,2.53721
0.734987,-0.116439,2.428,2.53948
0.742868,-0.116439,2.428,2.54177
0.750749,-0.116439,2.428,2.54408
0.758629,-0.116439,2.428,2.54642
0.761143,-0.115624,2.411,2.53093
0.768969,-0.115624,2.411,2.5333
0.776794,-0.115624,2.411,2.53569
0.78462,-0.115624,2.411,2.53809
0.792445,-0.115624,2.411,2.54052
0.805913,-0.116439,2.428,2.56091
0.813794,-0.116439,2.428,2.5634
0.821675,-0.116439,2.428,2.56591
0.823747,-0.115624,2.411,2.55046
0.831573,-0.115624,2.411,2.553
0.839398,-0.115624,2.411,2.55556
0.847224,-0.115624,2.411,2.55814
0.855049,-0.115624,2.411,2.56074
0.856791,-0.114808,2.394,2.54529
0.864561,-0.114808,2.394,2.54792
0.872331,-0.114808,2.394,2.55056
0.880102,-0.114808,2.394,2.55323
0.881567,-0.113993,2.377,2.53777
0.889282,-0.113993,2.377,2.54046
0.89096,-0.113226,2.361,2.52605
0.898623,-0.113226,2.361,2.52877
0.900144,-0.112458,2.345,2.51435
0.907756,-0.112458,2.345,2.51708
0.915367,-0.112458,2.345,2.51983
0.916681,-0.111691,2.329,2.5054
0.92424,-0.111691,2.329,2.50817
0.925398,-0.110924,2.313,2.49372
0.932905,-0.110924,2.313,2.49651
0.946918,-0.111691,2.329,2.51662
0.954477,-0.111691,2.329,2.51947
0.962037,-0.111691,2.329,2.52235
0.976257,-0.112458,2.345,2.54259
0.997294,-0.113993,2.377,2.58026
1.00501,-0.113993,2.377,2.58325
1.01997,-0.114808,2.394,2.60476
1.04963,-0.117254,2.445,2.66336
1.05757,-0.117254,2.445,2.6665
1.08904,-0.119844,2.499,2.72862
1.1472,-0.125311,2.613,2.85649
1.15568,-0.125311,2.613,2.85991
nan,nan,nan,NaN
nan,nan,nan,NaN
nan,nan,nan,NaN
1.39174,-0.146604,3.057,3.3621
1.40166,-0.146604,3.057,3.36621
1.45037,-0.150632,3.141,3.46297
1.47405,-0.152023,3.17,3.49926
1.48434,-0.152023,3.17,3.50361
1.49463,-0.152023,3.17,3.50798
1.51869,-0.153413,3.199,3.54451
1.52907,-0.153413,3.199,3.54897
1.53945,-0.153413,3.199,3.55346
1.54984,-0.153413,3.199,3.55797
1.56022,-0.153413,3.199,3.5625
1.5706,-0.153413,3.199,3.56706
1.58099,-0.153413,3.199,3.57165
1.59137,-0.153413,3.199,3.57625
1.60175,-0.153413,3.199,3.58089
1.61213,-0.153413,3.199,3.58554
1.62252,-0.153413,3.199,3.59022
1.6329,-0.153413,3.199,3.59493
1.67462,-0.156339,3.26,3.6683
1.70174,-0.157873,3.292,3.70919
1.71243,-0.157873,3.292,3.71411
1.73986,-0.159408,3.324,3.7552
1.7675,-0.160943,3.356,3.79641
1.7784,-0.160943,3.356,3.80149
1.80688,-0.162525,3.389,3.84403
1.83612,-0.164156,3.423,3.88783
1.86612,-0.165834,3.458,3.9329
1.87734,-0.165834,3.458,3.93823
1.90768,-0.167513,3.493,3.98351
1.9388,-0.169239,3.529,4.03007
1.93036,-0.167513,3.493,3.99442
1.94169,-0.167513,3.493,3.99991
1.95303,-0.167513,3.493,4.00543
1.96437,-0.167513,3.493,4.01097
1.95591,-0.165834,3.458,3.97629
1.96713,-0.165834,3.458,3.98182
1.95833,-0.164156,3.423,3.94702
1.94988,-0.162525,3.389,3.91328
1.92327,-0.159408,3.324,3.84361
1.93406,-0.159408,3.324,3.84902
1.92613,-0.157873,3.292,3.81735
1.91799,-0.156339,3.26,3.78559
1.92857,-0.156339,3.26,3.79096
1.93915,-0.156339,3.26,3.79636
1.91325,-0.153413,3.199,3.73064
1.92363,-0.153413,3.199,3.73597
1.93401,-0.153413,3.199,3.74133
1.90914,-0.150632,3.141,3.67878
1.91934,-0.150632,3.141,3.68408
1.89452,-0.147898,3.084,3.62245
1.88785,-0.146604,3.057,3.59593
1.89778,-0.146604,3.057,3.60115
1.874,-0.144014,3.003,3.54269
1.85113,-0.14152,2.951,3.48642
1.86071,-0.14152,2.951,3.49151
1.8386,-0.139122,2.901,3.43738
1.80215,-0.135669,2.829,3.35699
1.81133,-0.135669,2.829,3.36193
1.77675,-0.132408,2.761,3.28595
1.75725,-0.130298,2.717,3.23837
1.73877,-0.128284,2.675,3.19303
1.74746,-0.128284,2.675,3.19776
1.72856,-0.12627,2.633,3.15223
1.71072,-0.124352,2.593,3.10897
1.71914,-0.124352,2.593,3.11361
1.72755,-0.124352,2.593,3.11826
1.71053,-0.122529,2.555,3.07717
1.71882,-0.122529,2.555,3.08178
1.71427,-0.121618,2.536,3.06346
1.7096,-0.120707,2.517,3.04509
-2.04721,-0.131945,2.951,3.594
-2.02036,-0.130827,2.926,3.55815
-2.01087,-0.130827,2.926,3.55277
-1.96786,-0.128636,2.877,3.488
-1.94218,-0.127563,2.853,3.45369
-1.93292,-0.127563,2.853,3.44849
-1.90748,-0.12649,2.829,3.41434
-1.89829,-0.12649,2.829,3.40922
-1.88911,-0.12649,2.829,3.40411
-1.87993,-0.12649,2.829,3.39903
-1.85554,-0.125461,2.806,3.36636
-1.84643,-0.125461,2.806,3.36135
-1.83732,-0.125461,2.806,3.35636
-1.82822,-0.125461,2.806,3.35138
-1.83402,-0.12649,2.829,3.37385
-1.82484,-0.12649,2.829,3.36887
-1.81565,-0.12649,2.829,3.3639
nan,nan,nan,NaN
nan,nan,nan,NaN
-1.80328,-0.127563,2.853,3.37753
-1.79402,-0.127563,2.853,3.37259
-1.78476,-0.127563,2.853,3.36768
-1.7755,-0.127563,2.853,3.36278
-1.76624,-0.127563,2.853,3.3579
-1.77176,-0.128636,2.877,3.38124
-1.77712,-0.129709,2.901,3.40452
-1.7677,-0.129709,2.901,3.39962
-1.75829,-0.129709,2.901,3.39473
-1.74887,-0.129709,2.901,3.38986
-1.73946,-0.129709,2.901,3.38502
-1.73004,-0.129709,2.901,3.38019
-1.73545,-0.130827,2.926,3.40447
-1.72596,-0.130827,2.926,3.39963
-1.71646,-0.130827,2.926,3.39482
-1.72155,-0.131945,2.951,3.419
nan,nan,nan,NaN
nan,nan,nan,NaN
nan,nan,nan,NaN
nan,nan,nan,NaN
nan,nan,nan,NaN
nan,nan,nan,NaN
nan,nan,nan,NaN
nan,nan,nan,NaN
nan,nan,nan,NaN
nan,nan,nan,NaN
nan,nan,nan,NaN
nan,nan,nan,NaN
nan,nan,nan,NaN
nan,nan,nan,NaN
nan,nan,nan,NaN
nan,nan,nan,NaN
nan,nan,nan,NaN
nan,nan,nan,NaN
nan,nan,nan,NaN
nan,nan,nan,NaN
nan,nan,nan,NaN
nan,nan,nan,NaN
nan,nan,nan,NaN
nan,nan,nan,NaN
nan,nan,nan,NaN
-1.34527,-0.120543,2.696,3.01541
-1.33652,-0.120543,2.696,3.01152
-1.28689,-0.116832,2.613,2.91505
-1.26863,-0.115938,2.593,2.88903
-1.26021,-0.115938,2.593,2.88535
-1.24262,-0.115088,2.574,2.86056
-1.21605,-0.113389,2.536,2.81477
-1.20781,-0.113389,2.536,2.81122
-1.19958,-0.113389,2.536,2.8077
-1.17397,-0.111735,2.499,2.76328
-1.15746,-0.11093,2.481,2.73996
-1.14941,-0.11093,2.481,2.73657
-1.13308,-0.110125,2.463,2.71337
-1.11686,-0.109321,2.445,2.69023
-1.10892,-0.109321,2.445,2.68695
-1.10099,-0.109321,2.445,2.68368
-1.08545,-0.10856,2.428,2.6618
-1.07757,-0.10856,2.428,2.6586
-1.06969,-0.10856,2.428,2.65541
-1.06181,-0.10856,2.428,2.65225
-1.05393,-0.10856,2.428,2.6491
-1.04605,-0.10856,2.428,2.64598
-1.03817,-0.10856,2.428,2.64287
-1.03029,-0.10856,2.428,2.63978
-1.02241,-0.10856,2.428,2.63672
-1.01452,-0.10856,2.428,2.63367
-1.00664,-0.10856,2.428,2.63065
-0.998763,-0.10856,2.428,2.62764
-0.990883,-0.10856,2.428,2.62466
-0.983002,-0.10856,2.428,2.62169
-0.975121,-0.10856,2.428,2.61875
-0.967241,-0.10856,2.428,2.61582
-0.95936,-0.10856,2.428,2.61292
-0.944817,-0.1078,2.411,2.59176
-0.936992,-0.1078,2.411,2.58892
-0.929166,-0.1078,2.411,2.5861
-0.921341,-0.1078,2.411,2.58329
-0.913515,-0.1078,2.411,2.58051
-0.90569,-0.1078,2.411,2.57775
-0.897864,-0.1078,2.411,2.57502
-0.890039,-0.1078,2.411,2.5723
-0.882213,-0.1078,2.411,2.5696
-0.874388,-0.1078,2.411,2.56692
-0.866562,-0.1078,2.411,2.56427
-0.858737,-0.1078,2.411,2.56163
-0.850911,-0.1078,2.411,2.55902
-0.843086,-0.1078,2.411,2.55643
-0.83526,-0.1078,2.411,2.55386
-0.827435,-0.1078,2.411,2.55131
-0.825388,-0.10856,2.428,2.56676
-0.817508,-0.10856,2.428,2.56423
-0.809627,-0.10856,2.428,2.56173
-0.801746,-0.10856,2.428,2.55925
-0.799424,-0.109321,2.445,2.5747
-0.791488,-0.109321,2.445,2.57224
-0.783552,-0.109321,2.445,2.56981
-0.775616,-0.109321,2.445,2.5674
-0.773332,-0.110125,2.463,2.5839
-0.765338,-0.110125,2.463,2.58152
-0.757344,-0.110125,2.463,2.57916
-0.749349,-0.110125,2.463,2.57682
-0.741355,-0.110125,2.463,2.57451
-0.733361,-0.110125,2.463,2.57222
-0.725366,-0.110125,2.463,2.56995
-0.717372,-0.110125,2.463,2.56771
-0.709378,-0.110125,2.463,2.56549
-0.701384,-0.110125,2.463,2.56329
-0.693389,-0.110125,2.463,2.56111
-0.685395,-0.110125,2.463,2.55896
-0.677401,-0.110125,2.463,2.55683
-0.669406,-0.110125,2.463,2.55472
-0.661412,-0.110125,2.463,2.55264
-0.653418,-0.110125,2.463,2.55058
-0.645424,-0.110125,2.463,2.54854
-0.637429,-0.110125,2.463,2.54653
-0.629435,-0.110125,2.463,2.54454
-0.621441,-0.110125,2.463,2.54257
-0.613446,-0.110125,2.463,2.54063
-0.601027,-0.109321,2.445,2.52016
-0.593092,-0.109321,2.445,2.51828
-0.585156,-0.109321,2.445,2.51642
-0.57722,-0.109321,2.445,2.51459
-0.569284,-0.109321,2.445,2.51278
-0.561348,-0.109321,2.445,2.51099
-0.553412,-0.109321,2.445,2.50923
-0.545476,-0.109321,2.445,2.50749
-0.53754,-0.109321,2.445,2.50578
-0.529605,-0.109321,2.445,2.50409
-0.521669,-0.109321,2.445,2.50242
-0.513733,-0.109321,2.445,2.50078
-0.505797,-0.109321,2.445,2.49916
-0.497861,-0.109321,2.445,2.49757
-0.489925,-0.109321,2.445,2.496
-0.481989,-0.109321,2.445,2.49445
-0.474054,-0.109321,2.445,2.49293
-0.469549,-0.110125,2.463,2.50978
-0.461555,-0.110125,2.463,2.50829
-0.453561,-0.110125,2.463,2.50683
-0.445566,-0.110125,2.463,2.5054
-0.437572,-0.110125,2.463,2.50399
-0.429578,-0.110125,2.463,2.50261
-0.421584,-0.110125,2.463,2.50125
-0.416612,-0.11093,2.481,2.51818
-0.408559,-0.11093,2.481,2.51686
-0.400506,-0.11093,2.481,2.51557
-0.392454,-0.11093,2.481,2.5143
-0.38719,-0.111735,2.499,2.53128
-0.379079,-0.111735,2.499,2.53006
-0.370968,-0.111735,2.499,2.52885
-0.362857,-0.111735,2.499,2.52768
-0.354745,-0.111735,2.499,2.52653
-0.346634,-0.111735,2.499,2.5254
-0.338523,-0.111735,2.499,2.5243
-0.330412,-0.111735,2.499,2.52322
-0.319979,-0.11093,2.481,2.50401
-0.311927,-0.11093,2.481,2.50299
-0.303874,-0.11093,2.481,2.502
-0.295821,-0.11093,2.481,2.50104
-0.287769,-0.11093,2.481,2.5001
-0.279716,-0.11093,2.481,2.49918
-0.271663,-0.11093,2.481,2.49829
-0.26361,-0.11093,2.481,2.49743
-0.255558,-0.11093,2.481,2.49659
-0.247505,-0.11093,2.481,2.49578
-0.239452,-0.11093,2.481,2.495
-0.2314,-0.11093,2.481,2.49424
-0.223347,-0.11093,2.481,2.4935
-0.215294,-0.11093,2.481,2.49279
-0.207241,-0.11093,2.481,2.49211
-0.199189,-0.11093,2.481,2.49145
-0.191136,-0.11093,2.481,2.49082
-0.183083,-0.11093,2.481,2.49022
-0.175031,-0.11093,2.481,2.48964
-0.166978,-0.11093,2.481,2.48909
-0.158925,-0.11093,2.481,2.48856
-0.151967,-0.111735,2.499,2.50611
-0.143856,-0.111735,2.499,2.50563
-0.135745,-0.111735,2.499,2.50518
-0.127634,-0.111735,2.499,2.50475
-0.119523,-0.111735,2.499,2.50435
-0.111411,-0.111735,2.499,2.50398
-0.1033,-0.111735,2.499,2.50363
-0.0951891,-0.111735,2.499,2.50331
-0.087078,-0.111735,2.499,2.50301
-0.078398,-0.11093,2.481,2.48472
-0.0703453,-0.11093,2.481,2.48447
-0.0622926,-0.11093,2.481,2.48426
-0.0542399,-0.11093,2.481,2.48407
-0.0458521,-0.110125,2.463,2.46589
-0.0378578,-0.110125,2.463,2.46575
-0.0298635,-0.110125,2.463,2.46564
-0.0217094,-0.109321,2.445,2.44754
-0.0137736,-0.109321,2.445,2.44748
-0.00583771,-0.109321,2.445,2.44745
0.00209816,-0.109321,2.445,2.44744
0.010034,-0.109321,2.445,2.44746
0.0179699,-0.109321,2.445,2.44751
0.0257256,-0.10856,2.428,2.43056
0.0336063,-0.10856,2.428,2.43066
0.041487,-0.10856,2.428,2.43078
0.0493677,-0.10856,2.428,2.43093
0.0572484,-0.10856,2.428,2.4311
0.065129,-0.10856,2.428,2.4313
0.0730097,-0.10856,2.428,2.43152
0.0808904,-0.10856,2.428,2.43177
0.0887711,-0.10856,2.428,2.43205
0.0966518,-0.10856,2.428,2.43235
0.104532,-0.10856,2.428,2.43267
0.112413,-0.10856,2.428,2.43302
0.120294,-0.10856,2.428,2.4334
0.128175,-0.10856,2.428,2.4338
0.137008,-0.109321,2.445,2.45127
0.144944,-0.109321,2.445,2.45173
