2.12983,-0.248194,3.681,4.25999
2.14178,-0.248194,3.681,4.26598
2.13091,-0.245564,3.642,4.22673
2.14273,-0.245564,3.642,4.2327
2.15455,-0.245564,3.642,4.2387
2.12117,-0.24044,3.566,4.15614
2.11061,-0.237945,3.529,4.11888
2.12207,-0.237945,3.529,4.12476
2.0906,-0.233158,3.458,4.04756
2.05988,-0.228506,3.389,3.97249
2.07088,-0.228506,3.389,3.9782
2.04195,-0.224123,3.324,3.90753
2.01322,-0.219808,3.26,3.83783
2.0238,-0.219808,3.26,3.84339
1.99631,-0.215695,3.199,3.77695
1.95212,-0.209829,3.112,3.67959
1.96222,-0.209829,3.112,3.68495
1.92035,-0.2043,3.03,3.5931
1.89642,-0.200726,2.977,3.53543
1.87343,-0.197288,2.926,3.47996
1.88293,-0.197288,2.926,3.48509
1.84521,-0.192366,2.853,3.40315
1.82392,-0.189197,2.806,3.35203
1.83303,-0.189197,2.806,3.357
1.8126,-0.186162,2.761,3.30806
1.79253,-0.183196,2.717,3.26019
1.80135,-0.183196,2.717,3.26504
1.78218,-0.180364,2.675,3.21937
1.76275,-0.177532,2.633,3.17356
1.77129,-0.177532,2.633,3.17832
1.76632,-0.176183,2.613,3.15891
1.74831,-0.173554,2.574,3.11644
-2.04721,-0.189398,2.951,3.59657
-2.02036,-0.187793,2.926,3.5607
-2.01087,-0.187793,2.926,3.55532
-1.95144,-0.183108,2.853,3.46139
-1.92584,-0.181568,2.829,3.42711
-1.91666,-0.181568,2.829,3.42196
-1.86163,-0.177203,2.761,3.33469
-1.85267,-0.177203,2.761,3.3297
-1.8437,-0.177203,2.761,3.32472
-1.82012,-0.175791,2.739,3.29331
-1.79668,-0.174379,2.717,3.26199
-1.78787,-0.174379,2.717,3.25714
-1.77905,-0.174379,2.717,3.25231
-1.77023,-0.174379,2.717,3.24749
-1.77567,-0.175791,2.739,3.26895
-1.78097,-0.177203,2.761,3.29035
-1.77201,-0.177203,2.761,3.28551
-1.79179,-0.180092,2.806,3.33415
-1.81254,-0.183108,2.853,3.38503
-1.80328,-0.183108,2.853,3.38008
-1.85564,-0.189398,2.951,3.49109
-1.84606,-0.189398,2.951,3.486
-1.85267,-0.191066,2.977,3.51161
-1.843,-0.191066,2.977,3.50652
-1.86598,-0.194468,3.03,3.56379
-1.87268,-0.196201,3.057,3.59036
-1.86276,-0.196201,3.057,3.5852
-1.85284,-0.196201,3.057,3.58005
-1.84292,-0.196201,3.057,3.57493
-1.833,-0.196201,3.057,3.56982
-1.82307,-0.196201,3.057,3.56474
-1.79714,-0.194468,3.03,3.52823
-1.7873,-0.194468,3.03,3.52323
-1.77747,-0.194468,3.03,3.51825
nan,nan,nan,NaN
nan,nan,nan,NaN
nan,nan,nan,NaN
nan,nan,nan,NaN
nan,nan,nan,NaN
nan,nan,nan,NaN
nan,nan,nan,NaN
nan,nan,nan,NaN
nan,nan,nan,NaN
nan,nan,nan,NaN
nan,nan,nan,NaN
nan,nan,nan,NaN
nan,nan,nan,NaN
nan,nan,nan,NaN
nan,nan,nan,NaN
nan,nan,nan,NaN
nan,nan,nan,NaN
nan,nan,nan,NaN
nan,nan,nan,NaN
nan,nan,nan,NaN
nan,nan,nan,NaN
nan,nan,nan,NaN
nan,nan,nan,NaN
nan,nan,nan,NaN
nan,nan,nan,NaN
nan,nan,nan,NaN
nan,nan,nan,NaN
nan,nan,nan,NaN
nan,nan,nan,NaN
nan,nan,nan,NaN
nan,nan,nan,NaN
-1.18035,-0.156922,2.445,2.71953
-1.17241,-0.156922,2.445,2.7161
-1.16447,-0.156922,2.445,2.71268
-1.15654,-0.156922,2.445,2.70929
-1.14062,-0.155831,2.428,2.68709
-1.13274,-0.155831,2.428,2.68376
-1.12485,-0.155831,2.428,2.68044
-1.11697,-0.155831,2.428,2.67714
-1.10133,-0.15474,2.411,2.65514
-1.0935,-0.15474,2.411,2.65191
-1.08568,-0.15474,2.411,2.64869
-1.07785,-0.15474,2.411,2.64549
-1.07003,-0.15474,2.411,2.64231
-1.05471,-0.153649,2.394,2.62055
-1.04694,-0.153649,2.394,2.61743
-1.03917,-0.153649,2.394,2.61433
-1.0314,-0.153649,2.394,2.61125
-1.02363,-0.153649,2.394,2.60819
-1.01586,-0.153649,2.394,2.60515
-1.00809,-0.153649,2.394,2.60213
-1.00032,-0.153649,2.394,2.59913
-0.992548,-0.153649,2.394,2.59615
-0.984778,-0.153649,2.394,2.59319
-0.977007,-0.153649,2.394,2.59025
-0.969237,-0.153649,2.394,2.58733
-0.961466,-0.153649,2.394,2.58443
-0.953696,-0.153649,2.394,2.58155
-0.945926,-0.153649,2.394,2.57869
-0.938156,-0.153649,2.394,2.57585
-0.930385,-0.153649,2.394,2.57303
-0.922615,-0.153649,2.394,2.57023
-0.914845,-0.153649,2.394,2.56745
-0.907074,-0.153649,2.394,2.56469
-0.899304,-0.153649,2.394,2.56195
-0.891534,-0.153649,2.394,2.55923
-0.883763,-0.153649,2.394,2.55654
-0.875993,-0.153649,2.394,2.55386
-0.868223,-0.153649,2.394,2.55121
-0.860452,-0.153649,2.394,2.54857
-0.852682,-0.153649,2.394,2.54596
-0.844912,-0.153649,2.394,2.54337
-0.837141,-0.153649,2.394,2.5408
-0.829371,-0.153649,2.394,2.53825
-0.821601,-0.153649,2.394,2.53572
-0.81383,-0.153649,2.394,2.53321
-0.80606,-0.153649,2.394,2.53073
-0.79829,-0.153649,2.394,2.52826
-0.790519,-0.153649,2.394,2.52582
-0.782749,-0.153649,2.394,2.5234
-0.774979,-0.153649,2.394,2.521
-0.767208,-0.153649,2.394,2.51862
-0.759438,-0.153649,2.394,2.51627
-0.751668,-0.153649,2.394,2.51393
-0.743897,-0.153649,2.394,2.51162
-0.736127,-0.153649,2.394,2.50933
-0.728357,-0.153649,2.394,2.50706
-0.720586,-0.153649,2.394,2.50481
-0.712816,-0.153649,2.394,2.50259
-0.710052,-0.15474,2.411,2.51814
-0.702227,-0.15474,2.411,2.51595
-0.694401,-0.15474,2.411,2.51377
-0.686576,-0.15474,2.411,2.51162
-0.67875,-0.15474,2.411,2.5095
-0.670925,-0.15474,2.411,2.50739
-0.663099,-0.15474,2.411,2.50531
-0.655274,-0.15474,2.411,2.50325
-0.647448,-0.15474,2.411,2.50121
-0.644133,-0.155831,2.428,2.51682
-0.636252,-0.155831,2.428,2.51481
-0.628371,-0.155831,2.428,2.51283
-0.620491,-0.155831,2.428,2.51087
-0.616899,-0.156922,2.445,2.5265
-0.608963,-0.156922,2.445,2.52458
-0.601027,-0.156922,2.445,2.52267
-0.593092,-0.156922,2.445,2.5208
-0.585156,-0.156922,2.445,2.51894
-0.57722,-0.156922,2.445,2.51711
-0.569284,-0.156922,2.445,2.5153
-0.561348,-0.156922,2.445,2.51352
-0.553412,-0.156922,2.445,2.51176
-0.545476,-0.156922,2.445,2.51002
-0.53754,-0.156922,2.445,2.50831
-0.529605,-0.156922,2.445,2.50662
-0.521669,-0.156922,2.445,2.50495
-0.513733,-0.156922,2.445,2.50331
-0.505797,-0.156922,2.445,2.5017
-0.501526,-0.158078,2.463,2.51851
-0.493532,-0.158078,2.463,2.51693
-0.485538,-0.158078,2.463,2.51537
-0.477544,-0.158078,2.463,2.51384
-0.469549,-0.158078,2.463,2.51234
-0.461555,-0.158078,2.463,2.51085
-0.453561,-0.158078,2.463,2.5094
-0.445566,-0.158078,2.463,2.50796
-0.44077,-0.159233,2.481,2.52488
-0.432717,-0.159233,2.481,2.52348
-0.424665,-0.159233,2.481,2.52211
-0.419634,-0.160388,2.499,2.53906
-0.411523,-0.160388,2.499,2.53773
-0.403412,-0.160388,2.499,2.53643
-0.398148,-0.161543,2.517,2.55341
-0.389979,-0.161543,2.517,2.55215
-0.381809,-0.161543,2.517,2.55091
-0.37646,-0.162763,2.536,2.56895
-0.368229,-0.162763,2.536,2.56776
-0.359998,-0.162763,2.536,2.56659
-0.351766,-0.162763,2.536,2.56545
-0.343535,-0.162763,2.536,2.56433
-0.335304,-0.162763,2.536,2.56324
-0.327073,-0.162763,2.536,2.56218
-0.318842,-0.162763,2.536,2.56114
-0.31061,-0.162763,2.536,2.56013
-0.302379,-0.162763,2.536,2.55914
-0.294148,-0.162763,2.536,2.55819
-0.285917,-0.162763,2.536,2.55725
-0.277685,-0.162763,2.536,2.55634
-0.267435,-0.161543,2.517,2.53632
-0.259266,-0.161543,2.517,2.53547
-0.251096,-0.161543,2.517,2.53465
-0.24119,-0.160388,2.499,2.51573
-0.233078,-0.160388,2.499,2.51497
-0.224967,-0.160388,2.499,2.51423
-0.215294,-0.159233,2.481,2.49541
-0.207241,-0.159233,2.481,2.49473
-0.199189,-0.159233,2.481,2.49407
-0.191136,-0.159233,2.481,2.49344
-0.183083,-0.159233,2.481,2.49284
-0.175031,-0.159233,2.481,2.49226
-0.166978,-0.159233,2.481,2.49171
-0.158925,-0.159233,2.481,2.49118
-0.150872,-0.159233,2.481,2.49068
-0.143856,-0.160388,2.499,2.50827
-0.135745,-0.160388,2.499,2.50782
-0.127634,-0.160388,2.499,2.50739
-0.119523,-0.160388,2.499,2.50699
-0.111411,-0.160388,2.499,2.50662
-0.1033,-0.160388,2.499,2.50627
-0.0951891,-0.160388,2.499,2.50595
-0.087078,-0.160388,2.499,2.50566
-0.0789668,-0.160388,2.499,2.50539
-0.0713661,-0.161543,2.517,2.52319
-0.0631965,-0.161543,2.517,2.52297
-0.0546334,-0.160388,2.499,2.50474
-0.0465223,-0.160388,2.499,2.50457
-0.0384112,-0.160388,2.499,2.50444
-0.0303,-0.160388,2.499,2.50432
-0.0221889,-0.160388,2.499,2.50424
-0.0140778,-0.160388,2.499,2.50418
-0.00596664,-0.160388,2.499,2.50415
0.00214449,-0.160388,2.499,2.50414
0.0102556,-0.160388,2.499,2.50416
0.0182345,-0.159233,2.481,2.48617
0.0262872,-0.159233,2.481,2.48624
0.0343399,-0.159233,2.481,2.48634
0.042085,-0.158078,2.463,2.46843
0.0500793,-0.158078,2.463,2.46858
0.0580736,-0.158078,2.463,2.46875
0.0660679,-0.158078,2.463,2.46895
0.0740622,-0.158078,2.463,2.46918
0.0820565,-0.158078,2.463,2.46943
0.0900507,-0.158078,2.463,2.46971
0.0973285,-0.156922,2.445,2.45196
0.105264,-0.156922,2.445,2.45229
0.1132,-0.156922,2.445,2.45264
0.121136,-0.156922,2.445,2.45302
0.130022,-0.158078,2.463,2.47149
0.138016,-0.158078,2.463,2.47192
0.146011,-0.158078,2.463,2.47238
0.154005,-0.158078,2.463,2.47287
0.161999,-0.158078,2.463,2.47338
0.169994,-0.158078,2.463,2.47392
0.177988,-0.158078,2.463,2.47448
0.185982,-0.158078,2.463,2.47506
0.193976,-0.158078,2.463,2.47568
0.201971,-0.158078,2.463,2.47632
0.209965,-0.158078,2.463,2.47698
0.217959,-0.158078,2.463,2.47767
0.225954,-0.158078,2.463,2.47839
0.235658,-0.159233,2.481,2.49725
0.24371,-0.159233,2.481,2.49802
0.251763,-0.159233,2.481,2.49882
0.259816,-0.159233,2.481,2.49964
0.267868,-0.159233,2.481,2.50049
0.275921,-0.159233,2.481,2.50137
0.283974,-0.159233,2.481,2.50227
0.289908,-0.158078,2.463,2.48504
0.297902,-0.158078,2.463,2.48598
0.305896,-0.158078,2.463,2.48695
0.313891,-0.158078,2.463,2.48795
0.321885,-0.158078,2.463,2.48897
0.33229,-0.159233,2.481,2.50821
0.340343,-0.159233,2.481,2.50929
0.348396,-0.159233,2.481,2.5104
0.356448,-0.159233,2.481,2.51153
0.364501,-0.159233,2.481,2.51268
0.372554,-0.159233,2.481,2.51386
0.380606,-0.159233,2.481,2.51507
0.388659,-0.159233,2.481,2.5163
0.396712,-0.159233,2.481,2.51756
0.404765,-0.159233,2.481,2.51884
0.412817,-0.159233,2.481,2.52015
0.42087,-0.159233,2.481,2.52148
0.428923,-0.159233,2.481,2.52283
0.436975,-0.159233,2.481,2.52422
0.441799,-0.158078,2.463,2.5073
0.449794,-0.158078,2.463,2.50872
0.457788,-0.158078,2.463,2.51016
0.465782,-0.158078,2.463,2.51164
0.473776,-0.158078,2.463,2.51313
0.481771,-0.158078,2.463,2.51465
0.489765,-0.158078,2.463,2.51619
0.497759,-0.158078,2.463,2.51776
0.505754,-0.158078,2.463,2.51935
0.509993,-0.156922,2.445,2.50255
0.517929,-0.156922,2.445,2.50418
0.525865,-0.156922,2.445,2.50583
0.533801,-0.156922,2.445,2.50751
0.541737,-0.156922,2.445,2.50921
0.549673,-0.156922,2.445,2.51093
0.557609,-0.156922,2.445,2.51268
0.565544,-0.156922,2.445,2.51446
0.57348,-0.156922,2.445,2.51625
0.581416,-0.156922,2.445,2.51807
0.589352,-0.156922,2.445,2.51992
0.597288,-0.156922,2.445,2.52179
0.605224,-0.156922,2.445,2.52368
0.61316,-0.156922,2.445,2.52559
0.621095,-0.156922,2.445,2.52753
0.629031,-0.156922,2.445,2.52949
0.636967,-0.156922,2.445,2.53148
0.644903,-0.156922,2.445,2.53349
0.652839,-0.156922,2.445,2.53552
0.660775,-0.156922,2.445,2.53757
0.668711,-0.156922,2.445,2.53965
0.676647,-0.156922,2.445,2.54175
0.684582,-0.156922,2.445,2.54388
0.692518,-0.156922,2.445,2.54602
0.705611,-0.158078,2.463,2.56695
0.713605,-0.158078,2.463,2.56916
0.721599,-0.158078,2.463,2.57139
0.729594,-0.158078,2.463,2.57365
0.742978,-0.159233,2.481,2.59475
0.751031,-0.159233,2.481,2.59707
0.759084,-0.159233,2.481,2.59941
0.767137,-0.159233,2.481,2.60177
0.775189,-0.159233,2.481,2.60416
0.783242,-0.159233,2.481,2.60657
0.791295,-0.159233,2.481,2.609
0.799347,-0.159233,2.481,2.61145
0.8074,-0.159233,2.481,2.61393
0.809537,-0.158078,2.463,2.59744
0.817531,-0.158078,2.463,2.59995
0.825525,-0.158078,2.463,2.60247
0.833519,-0.158078,2.463,2.60502
0.841514,-0.158078,2.463,2.60759
0.849508,-0.158078,2.463,2.61018
0.851236,-0.156922,2.445,2.59369
0.859171,-0.156922,2.445,2.59631
0.867107,-0.156922,2.445,2.59895
0.875043,-0.156922,2.445,2.60161
0.87684,-0.155831,2.428,2.58618
0.88472,-0.155831,2.428,2.58886
0.892601,-0.155831,2.428,2.59156
0.900482,-0.155831,2.428,2.59429
0.902002,-0.15474,2.411,2.57885
0.909828,-0.15474,2.411,2.5816
0.917653,-0.15474,2.411,2.58437
0.925479,-0.15474,2.411,2.58716
0.933304,-0.15474,2.411,2.58997
0.94113,-0.15474,2.411,2.5928
0.942264,-0.153649,2.394,2.57734
0.950035,-0.153649,2.394,2.5802
0.957805,-0.153649,2.394,2.58307
0.965575,-0.153649,2.394,2.58596
0.973346,-0.153649,2.394,2.58887
0.981116,-0.153649,2.394,2.5918
0.988886,-0.153649,2.394,2.59475
0.996657,-0.153649,2.394,2.59772
1.00443,-0.153649,2.394,2.60071
1.0122,-0.153649,2.394,2.60373
nan,nan,nan,NaN
nan,nan,nan,NaN
nan,nan,nan,NaN
nan,nan,nan,NaN
nan,nan,nan,NaN
nan,nan,nan,NaN
nan,nan,nan,NaN
nan,nan,nan,NaN
nan,nan,nan,NaN
nan,nan,nan,NaN
nan,nan,nan,NaN
1.62953,-0.226494,3.529,3.89365
1.64099,-0.226494,3.529,3.89846
1.65244,-0.226494,3.529,3.90329
1.6639,-0.226494,3.529,3.90816
1.69292,-0.228869,3.566,3.95407
1.6868,-0.226494,3.529,3.91797
1.69826,-0.226494,3.529,3.92291
1.70971,-0.226494,3.529,3.92788
1.72117,-0.226494,3.529,3.93288
1.73262,-0.226494,3.529,3.93791
1.74408,-0.226494,3.529,3.94296
1.75553,-0.226494,3.529,3.94804
1.74896,-0.224184,3.493,3.91282
1.7603,-0.224184,3.493,3.9179
nan,nan,nan,NaN
nan,nan,nan,NaN
nan,nan,nan,NaN
nan,nan,nan,NaN
nan,nan,nan,NaN
nan,nan,nan,NaN
1.91813,-0.233747,3.642,4.12287
1.92995,-0.233747,3.642,4.12838
1.94177,-0.233747,3.642,4.13392
1.97451,-0.23625,3.681,4.18381
2.00805,-0.238817,3.721,4.23499
2.02013,-0.238817,3.721,4.24073
2.0546,-0.241448,3.762,4.29329
2.06681,-0.241448,3.762,4.29914
2.07902,-0.241448,3.762,4.30503
2.09123,-0.241448,3.762,4.31094
2.10344,-0.241448,3.762,4.31687
2.09259,-0.238817,3.721,4.27572
2.10467,-0.238817,3.721,4.28165
2.11675,-0.238817,3.721,4.2876
2.12882,-0.238817,3.721,4.29357
2.11789,-0.23625,3.681,4.25335
2.12983,-0.23625,3.681,4.25932
2.14178,-0.23625,3.681,4.2653
2.13091,-0.233747,3.642,4.22606
2.12037,-0.231308,3.604,4.18788
2.13207,-0.231308,3.604,4.19381
2.12117,-0.228869,3.566,4.15549
2.11061,-0.226494,3.529,4.11823
2.12207,-0.226494,3.529,4.12411
2.0906,-0.221937,3.458,4.04693
2.05988,-0.217509,3.389,3.97187
2.07088,-0.217509,3.389,3.97758
2.04195,-0.213337,3.324,3.90692
2.01322,-0.20923,3.26,3.83724
2.0238,-0.20923,3.26,3.8428
1.99631,-0.205315,3.199,3.77638
1.95212,-0.199731,3.112,3.67902
1.96222,-0.199731,3.112,3.68439
1.92035,-0.194468,3.03,3.59256
1.87986,-0.189398,2.951,3.50402
1.85743,-0.186189,2.901,3.44971
1.86684,-0.186189,2.901,3.45479
1.82969,-0.181568,2.829,3.37402
1.80897,-0.178615,2.783,3.32406
1.81801,-0.178615,2.783,3.32899
1.79815,-0.175791,2.739,3.28122
1.77867,-0.173032,2.696,3.23451
1.78743,-0.173032,2.696,3.23933
1.76819,-0.170336,2.654,3.19362
1.76275,-0.168988,2.633,3.17309
1.77129,-0.168988,2.633,3.17785
1.7528,-0.166421,2.593,3.13427
1.74831,-0.165202,2.574,3.11599
-2.04721,-0.179822,2.951,3.59608
-2.02036,-0.178299,2.926,3.56022
-2.01087,-0.178299,2.926,3.55484
-1.95144,-0.173851,2.853,3.46092
-1.92584,-0.172388,2.829,3.42663
-1.91666,-0.172388,2.829,3.42148
-1.86163,-0.168244,2.761,3.33423
-1.85267,-0.168244,2.761,3.32923
-1.8437,-0.168244,2.761,3.32425
-1.82012,-0.166904,2.739,3.29284
-1.79668,-0.165563,2.717,3.26153
-1.78787,-0.165563,2.717,3.25668
-1.77905,-0.165563,2.717,3.25185
-1.77023,-0.165563,2.717,3.24703
-1.77567,-0.166904,2.739,3.26848
-1.78097,-0.168244,2.761,3.28988
-1.77201,-0.168244,2.761,3.28503
-1.79179,-0.170987,2.806,3.33367
-1.81254,-0.173851,2.853,3.38454
-1.80328,-0.173851,2.853,3.37959
-1.85564,-0.179822,2.951,3.49058
-1.84606,-0.179822,2.951,3.4855
-1.85267,-0.181407,2.977,3.5111
-1.843,-0.181407,2.977,3.50601
-1.86598,-0.184636,3.03,3.56327
-1.87268,-0.186281,3.057,3.58983
-1.86276,-0.186281,3.057,3.58467
-1.85284,-0.186281,3.057,3.57952
-1.84292,-0.186281,3.057,3.57439
-1.833,-0.186281,3.057,3.56929
-1.82307,-0.186281,3.057,3.5642
-1.79714,-0.184636,3.03,3.5277
-1.7873,-0.184636,3.03,3.5227
-1.77747,-0.184636,3.03,3.51772
nan,nan,nan,NaN
nan,nan,nan,NaN
nan,nan,nan,NaN
nan,nan,nan,NaN
nan,nan,nan,NaN
nan,nan,nan,NaN
nan,nan,nan,NaN
nan,nan,nan,NaN
nan,nan,nan,NaN
nan,nan,nan,NaN
nan,nan,nan,NaN
nan,nan,nan,NaN
nan,nan,nan,NaN
nan,nan,nan,NaN
nan,nan,nan,NaN
nan,nan,nan,NaN
nan,nan,nan,NaN
nan,nan,nan,NaN
nan,nan,nan,NaN
nan,nan,nan,NaN
nan,nan,nan,NaN
nan,nan,nan,NaN
nan,nan,nan,NaN
nan,nan,nan,NaN
nan,nan,nan,NaN
nan,nan,nan,NaN
nan,nan,nan,NaN
nan,nan,nan,NaN
nan,nan,nan,NaN
-1.21383,-0.151182,2.481,2.76615
-1.20578,-0.151182,2.481,2.76263
-1.18035,-0.148989,2.445,2.71909
-1.17241,-0.148989,2.445,2.71565
-1.16447,-0.148989,2.445,2.71224
-1.15654,-0.148989,2.445,2.70884
-1.14062,-0.147953,2.428,2.68665
-1.13274,-0.147953,2.428,2.68331
-1.12485,-0.147953,2.428,2.67999
-1.11697,-0.147953,2.428,2.6767
-1.10133,-0.146917,2.411,2.6547
-1.0935,-0.146917,2.411,2.65146
-1.08568,-0.146917,2.411,2.64824
-1.07785,-0.146917,2.411,2.64505
-1.07003,-0.146917,2.411,2.64187
-1.05471,-0.145881,2.394,2.6201
-1.04694,-0.145881,2.394,2.61698
-1.03917,-0.145881,2.394,2.61388
-1.0314,-0.145881,2.394,2.61081
-1.02363,-0.145881,2.394,2.60775
-1.01586,-0.145881,2.394,2.6047
-1.00809,-0.145881,2.394,2.60168
-1.00032,-0.145881,2.394,2.59868
-0.992548,-0.145881,2.394,2.5957
-0.984778,-0.145881,2.394,2.59274
-0.977007,-0.145881,2.394,2.5898
-0.969237,-0.145881,2.394,2.58688
-0.961466,-0.145881,2.394,2.58398
-0.953696,-0.145881,2.394,2.5811
-0.945926,-0.145881,2.394,2.57823
-0.938156,-0.145881,2.394,2.57539
-0.930385,-0.145881,2.394,2.57257
-0.922615,-0.145881,2.394,2.56977
-0.914845,-0.145881,2.394,2.56699
-0.907074,-0.145881,2.394,2.56423
-0.899304,-0.145881,2.394,2.5615
-0.891534,-0.145881,2.394,2.55878
-0.883763,-0.145881,2.394,2.55608
-0.875993,-0.145881,2.394,2.55341
-0.868223,-0.145881,2.394,2.55075
-0.860452,-0.145881,2.394,2.54812
-0.852682,-0.145881,2.394,2.5455
-0.844912,-0.145881,2.394,2.54291
-0.837141,-0.145881,2.394,2.54034
-0.829371,-0.145881,2.394,2.53779
-0.821601,-0.145881,2.394,2.53526
-0.81383,-0.145881,2.394,2.53275
-0.80606,-0.145881,2.394,2.53027
-0.79829,-0.145881,2.394,2.5278
-0.790519,-0.145881,2.394,2.52536
-0.782749,-0.145881,2.394,2.52294
-0.774979,-0.145881,2.394,2.52054
-0.767208,-0.145881,2.394,2.51816
-0.759438,-0.145881,2.394,2.5158
-0.751668,-0.145881,2.394,2.51347
-0.743897,-0.145881,2.394,2.51116
-0.736127,-0.145881,2.394,2.50886
-0.728357,-0.145881,2.394,2.5066
-0.720586,-0.145881,2.394,2.50435
-0.717878,-0.146917,2.411,2.51989
-0.710052,-0.146917,2.411,2.51767
-0.702227,-0.146917,2.411,2.51548
-0.694401,-0.146917,2.411,2.5133
-0.686576,-0.146917,2.411,2.51115
-0.67875,-0.146917,2.411,2.50903
-0.670925,-0.146917,2.411,2.50692
-0.663099,-0.146917,2.411,2.50484
-0.659894,-0.147953,2.428,2.52042
-0.652013,-0.147953,2.428,2.51837
-0.644133,-0.147953,2.428,2.51634
-0.636252,-0.147953,2.428,2.51434
-0.628371,-0.147953,2.428,2.51235
-0.624835,-0.148989,2.445,2.52797
-0.616899,-0.148989,2.445,2.52602
-0.608963,-0.148989,2.445,2.5241
-0.601027,-0.148989,2.445,2.52219
-0.593092,-0.148989,2.445,2.52031
-0.585156,-0.148989,2.445,2.51846
-0.57722,-0.148989,2.445,2.51663
-0.573475,-0.150085,2.463,2.53333
-0.565481,-0.150085,2.463,2.53153
-0.553412,-0.148989,2.445,2.51127
-0.545476,-0.148989,2.445,2.50954
-0.53754,-0.148989,2.445,2.50782
-0.529605,-0.148989,2.445,2.50613
-0.521669,-0.148989,2.445,2.50447
-0.513733,-0.148989,2.445,2.50283
-0.509521,-0.150085,2.463,2.51962
-0.501526,-0.150085,2.463,2.51802
-0.493532,-0.150085,2.463,2.51644
-0.485538,-0.150085,2.463,2.51488
-0.477544,-0.150085,2.463,2.51335
-0.469549,-0.150085,2.463,2.51185
-0.461555,-0.150085,2.463,2.51036
-0.453561,-0.150085,2.463,2.50891
-0.445566,-0.150085,2.463,2.50747
-0.44077,-0.151182,2.481,2.52438
-0.432717,-0.151182,2.481,2.52299
-0.424665,-0.151182,2.481,2.52162
-0.419634,-0.152279,2.499,2.53856
-0.411523,-0.152279,2.499,2.53723
-0.403412,-0.152279,2.499,2.53593
-0.398148,-0.153376,2.517,2.55291
-0.389979,-0.153376,2.517,2.55165
-0.381809,-0.153376,2.517,2.55041
-0.37646,-0.154534,2.536,2.56844
-0.368229,-0.154534,2.536,2.56725
-0.359998,-0.154534,2.536,2.56608
-0.351766,-0.154534,2.536,2.56494
-0.343535,-0.154534,2.536,2.56382
-0.335304,-0.154534,2.536,2.56273
-0.327073,-0.154534,2.536,2.56167
-0.318842,-0.154534,2.536,2.56063
-0.31061,-0.154534,2.536,2.55962
-0.302379,-0.154534,2.536,2.55863
-0.294148,-0.154534,2.536,2.55767
-0.285917,-0.154534,2.536,2.55674
-0.277685,-0.154534,2.536,2.55583
-0.267435,-0.153376,2.517,2.53581
-0.259266,-0.153376,2.517,2.53496
-0.251096,-0.153376,2.517,2.53414
-0.24119,-0.152279,2.499,2.51523
-0.233078,-0.152279,2.499,2.51446
-0.224967,-0.152279,2.499,2.51372
-0.216856,-0.152279,2.499,2.51301
-0.208745,-0.152279,2.499,2.51232
-0.200634,-0.152279,2.499,2.51166
-0.192523,-0.152279,2.499,2.51103
-0.184412,-0.152279,2.499,2.51042
-0.1763,-0.152279,2.499,2.50984
-0.168189,-0.152279,2.499,2.50928
-0.160078,-0.152279,2.499,2.50875
-0.151967,-0.152279,2.499,2.50824
-0.143856,-0.152279,2.499,2.50776
-0.135745,-0.152279,2.499,2.50731
-0.127634,-0.152279,2.499,2.50689
-0.119523,-0.152279,2.499,2.50649
-0.111411,-0.152279,2.499,2.50611
-0.1033,-0.152279,2.499,2.50577
-0.0951891,-0.152279,2.499,2.50544
-0.087078,-0.152279,2.499,2.50515
-0.0789668,-0.152279,2.499,2.50488
-0.0713661,-0.153376,2.517,2.52268
-0.0631965,-0.153376,2.517,2.52246
-0.0546334,-0.152279,2.499,2.50423
-0.0465223,-0.152279,2.499,2.50407
-0.0384112,-0.152279,2.499,2.50393
-0.0303,-0.152279,2.499,2.50382
-0.0221889,-0.152279,2.499,2.50373
-0.0140778,-0.152279,2.499,2.50367
-0.00596664,-0.152279,2.499,2.50364
0.00214449,-0.152279,2.499,2.50364
0.0102556,-0.152279,2.499,2.50366
0.0182345,-0.151182,2.481,2.48567
0.0262872,-0.151182,2.481,2.48574
0.0343399,-0.151182,2.481,2.48584
0.042085,-0.150085,2.463,2.46793
0.0500793,-0.150085,2.463,2.46808
0.0580736,-0.150085,2.463,2.46825
0.0660679,-0.150085,2.463,2.46845
0.0740622,-0.150085,2.463,2.46868
0.0820565,-0.150085,2.463,2.46893
0.0900507,-0.150085,2.463,2.46921
0.0973285,-0.148989,2.445,2.45147
0.105264,-0.148989,2.445,2.4518
0.1132,-0.148989,2.445,2.45215
0.121136,-0.148989,2.445,2.45253
0.129072,-0.148989,2.445,2.45293
0.137008,-0.148989,2.445,2.45336
0.144944,-0.148989,2.445,2.45382
0.15288,-0.148989,2.445,2.4543
0.161999,-0.150085,2.463,2.47288
0.169994,-0.150085,2.463,2.47342
0.177988,-0.150085,2.463,2.47398
0.185982,-0.150085,2.463,2.47457
0.193976,-0.150085,2.463,2.47518
0.201971,-0.150085,2.463,2.47582
0.209965,-0.150085,2.463,2.47649
0.217959,-0.150085,2.463,2.47718
0.225954,-0.150085,2.463,2.47789
0.233948,-0.150085,2.463,2.47863
0.241942,-0.150085,2.463,2.4794
0.249936,-0.150085,2.463,2.48019
0.257931,-0.150085,2.463,2.48101
0.265925,-0.150085,2.463,2.48186
0.273919,-0.150085,2.463,2.48273
0.281914,-0.150085,2.463,2.48362
0.289908,-0.150085,2.463,2.48454
0.297902,-0.150085,2.463,2.48549
0.305896,-0.150085,2.463,2.48646
0.313891,-0.150085,2.463,2.48745
0.321885,-0.150085,2.463,2.48847
0.329879,-0.150085,2.463,2.48952
0.337874,-0.150085,2.463,2.49059
0.345868,-0.150085,2.463,2.49169
0.353862,-0.150085,2.463,2.49281
0.361856,-0.150085,2.463,2.49396
0.369851,-0.150085,2.463,2.49513
0.380606,-0.151182,2.481,2.51457
0.388659,-0.151182,2.481,2.5158
0.396712,-0.151182,2.481,2.51706
0.404765,-0.151182,2.481,2.51834
0.412817,-0.151182,2.481,2.51965
0.42087,-0.151182,2.481,2.52098
0.425811,-0.150085,2.463,2.50404
0.433805,-0.150085,2.463,2.50541
0.441799,-0.150085,2.463,2.50681
0.449794,-0.150085,2.463,2.50823
0.457788,-0.150085,2.463,2.50967
0.465782,-0.150085,2.463,2.51114
0.473776,-0.150085,2.463,2.51264
0.481771,-0.150085,2.463,2.51416
0.489765,-0.150085,2.463,2.5157
0.494122,-0.148989,2.445,2.49888
0.502058,-0.148989,2.445,2.50046
0.509993,-0.148989,2.445,2.50206
0.517929,-0.148989,2.445,2.50369
0.525865,-0.148989,2.445,2.50535
0.533801,-0.148989,2.445,2.50702
0.541737,-0.148989,2.445,2.50873
0.549673,-0.148989,2.445,2.51045
0.557609,-0.148989,2.445,2.5122
0.565544,-0.148989,2.445,2.51397
0.57348,-0.148989,2.445,2.51577
0.581416,-0.148989,2.445,2.51759
0.589352,-0.148989,2.445,2.51944
0.597288,-0.148989,2.445,2.5213
0.605224,-0.148989,2.445,2.5232
0.61316,-0.148989,2.445,2.52511
0.621095,-0.148989,2.445,2.52705
0.629031,-0.148989,2.445,2.52901
0.636967,-0.148989,2.445,2.531
0.644903,-0.148989,2.445,2.53301
0.652839,-0.148989,2.445,2.53504
0.660775,-0.148989,2.445,2.53709
0.668711,-0.148989,2.445,2.53917
0.676647,-0.148989,2.445,2.54127
0.684582,-0.148989,2.445,2.5434
0.692518,-0.148989,2.445,2.54555
0.700454,-0.148989,2.445,2.54772
0.713605,-0.150085,2.463,2.56868
0.721599,-0.150085,2.463,2.57091
0.729594,-0.150085,2.463,2.57317
0.737588,-0.150085,2.463,2.57545
0.745582,-0.150085,2.463,2.57775
0.753577,-0.150085,2.463,2.58007
0.761571,-0.150085,2.463,2.58242
0.769565,-0.150085,2.463,2.58479
0.777559,-0.150085,2.463,2.58718
0.785554,-0.150085,2.463,2.58959
0.799347,-0.151182,2.481,2.61097
0.801542,-0.150085,2.463,2.59449
0.809537,-0.150085,2.463,2.59697
0.817531,-0.150085,2.463,2.59947
0.825525,-0.150085,2.463,2.602
0.833519,-0.150085,2.463,2.60454
0.841514,-0.150085,2.463,2.60711
0.849508,-0.150085,2.463,2.6097
0.851236,-0.148989,2.445,2.59323
0.859171,-0.148989,2.445,2.59584
0.867107,-0.148989,2.445,2.59848
0.875043,-0.148989,2.445,2.60114
0.87684,-0.147953,2.428,2.58572
0.88472,-0.147953,2.428,2.5884
0.892601,-0.147953,2.428,2.5911
0.894177,-0.146917,2.411,2.57567
0.902002,-0.146917,2.411,2.57839
0.909828,-0.146917,2.411,2.58114
0.917653,-0.146917,2.411,2.58391
0.925479,-0.146917,2.411,2.5867
0.933304,-0.146917,2.411,2.58951
0.934494,-0.145881,2.394,2.57406
0.942264,-0.145881,2.394,2.57689
0.950035,-0.145881,2.394,2.57974
0.957805,-0.145881,2.394,2.58262
0.958719,-0.144845,2.377,2.56715
0.966434,-0.144845,2.377,2.57004
0.974149,-0.144845,2.377,2.57295
0.988886,-0.145881,2.394,2.5943
0.996657,-0.145881,2.394,2.59728
nan,nan,nan,NaN
nan,nan,nan,NaN
nan,nan,nan,NaN
nan,nan,nan,NaN
nan,nan,nan,NaN
nan,nan,nan,NaN
nan,nan,nan,NaN
nan,nan,nan,NaN
nan,nan,nan,NaN
nan,nan,nan,NaN
nan,nan,nan,NaN
nan,nan,nan,NaN
nan,nan,nan,NaN
nan,nan,nan,NaN
nan,nan,nan,NaN
nan,nan,nan,NaN
nan,nan,nan,NaN
nan,nan,nan,NaN
nan,nan,nan,NaN
nan,nan,nan,NaN
nan,nan,nan,NaN
nan,nan,nan,NaN
nan,nan,nan,NaN
nan,nan,nan,NaN
nan,nan,nan,NaN
nan,nan,nan,NaN
nan,nan,nan,NaN
nan,nan,nan,NaN
nan,nan,nan,NaN
nan,nan,nan,NaN
nan,nan,nan,NaN
nan,nan,nan,NaN
nan,nan,nan,NaN
1.91813,-0.221929,3.642,4.12221
1.92995,-0.221929,3.642,4.12773
1.94177,-0.221929,3.642,4.13327
1.97451,-0.224306,3.681,4.18315
2.00805,-0.226743,3.721,4.23433
2.02013,-0.226743,3.721,4.24007
2.0546,-0.229241,3.762,4.29262
2.06681,-0.229241,3.762,4.29847
2.07902,-0.229241,3.762,4.30436
2.09123,-0.229241,3.762,4.31027
2.10344,-0.229241,3.762,4.31621
2.09259,-0.226743,3.721,4.27507
2.10467,-0.226743,3.721,4.28099
2.11675,-0.226743,3.721,4.28694
2.12882,-0.226743,3.721,4.29292
2.11789,-0.224306,3.681,4.25271
2.12983,-0.224306,3.681,4.25867
2.14178,-0.224306,3.681,4.26466
2.13091,-0.221929,3.642,4.22542
2.12037,-0.219614,3.604,4.18725
2.13207,-0.219614,3.604,4.19318
2.12117,-0.217298,3.566,4.15487
2.11061,-0.215043,3.529,4.11762
2.12207,-0.215043,3.529,4.1235
2.11176,-0.21285,3.493,4.08728
2.08055,-0.208584,3.423,4.01112
2.09166,-0.208584,3.423,4.0169
2.04195,-0.202551,3.324,3.90635
2.01322,-0.198652,3.26,3.83668
2.0238,-0.198652,3.26,3.84224
1.99631,-0.194934,3.199,3.77583
1.95212,-0.189633,3.112,3.67849
1.96222,-0.189633,3.112,3.68386
1.92035,-0.184636,3.03,3.59204
1.87986,-0.179822,2.951,3.50352
1.85743,-0.176775,2.901,3.44922
1.86684,-0.176775,2.901,3.45429
1.82969,-0.172388,2.829,3.37353
1.80897,-0.169585,2.783,3.32359
1.81801,-0.169585,2.783,3.32851
1.79815,-0.166904,2.739,3.28075
1.77867,-0.164284,2.696,3.23405
1.78743,-0.164284,2.696,3.23887
1.76819,-0.161724,2.654,3.19318
1.76275,-0.160445,2.633,3.17265
1.77129,-0.160445,2.633,3.17741
1.7528,-0.158007,2.593,3.13384
1.74831,-0.156849,2.574,3.11555
-2.04721,-0.170247,2.951,3.59561
-2.0031,-0.167362,2.901,3.52934
-1.99369,-0.167362,2.901,3.524
-1.95144,-0.164593,2.853,3.46046
-1.91018,-0.161882,2.806,3.39833
-1.90108,-0.161882,2.806,3.39322
-1.86163,-0.159285,2.761,3.33379
-1.8379,-0.158016,2.739,3.30227
-1.82901,-0.158016,2.739,3.29733
-1.79155,-0.155536,2.696,3.24072
-1.7828,-0.155536,2.696,3.23589
-1.77405,-0.155536,2.696,3.23108
-1.7653,-0.155536,2.696,3.22628
-1.75655,-0.155536,2.696,3.2215
-1.7478,-0.155536,2.696,3.21674
-1.75259,-0.156747,2.717,3.23701
-1.74377,-0.156747,2.717,3.23224
-1.76305,-0.159285,2.761,3.27976
-1.78268,-0.161882,2.806,3.32833
-1.77357,-0.161882,2.806,3.32346
-1.8242,-0.167362,2.901,3.43096
-1.81478,-0.167362,2.901,3.42597
-1.80537,-0.167362,2.901,3.42099
-1.82691,-0.170247,2.951,3.47491
-1.83334,-0.171747,2.977,3.50045
-1.8396,-0.173247,3.003,3.52593
-1.82986,-0.173247,3.003,3.52085
-1.83648,-0.174804,3.03,3.54741
-1.82664,-0.174804,3.03,3.54233
-1.81681,-0.174804,3.03,3.53726
-1.80697,-0.174804,3.03,3.53222
-1.79714,-0.174804,3.03,3.5272
-1.7873,-0.174804,3.03,3.5222
-1.77747,-0.174804,3.03,3.51722
nan,nan,nan,NaN
nan,nan,nan,NaN
nan,nan,nan,NaN
nan,nan,nan,NaN
nan,nan,nan,NaN
nan,nan,nan,NaN
nan,nan,nan,NaN
nan,nan,nan,NaN
nan,nan,nan,NaN
nan,nan,nan,NaN
nan,nan,nan,NaN
nan,nan,nan,NaN
nan,nan,nan,NaN
nan,nan,nan,NaN
nan,nan,nan,NaN
nan,nan,nan,NaN
nan,nan,nan,NaN
nan,nan,nan,NaN
nan,nan,nan,NaN
nan,nan,nan,NaN
nan,nan,nan,NaN
nan,nan,nan,NaN
nan,nan,nan,NaN
nan,nan,nan,NaN
nan,nan,nan,NaN
nan,nan,nan,NaN
nan,nan,nan,NaN
nan,nan,nan,NaN
nan,nan,nan,NaN
-1.21383,-0.143132,2.481,2.76572
-1.20578,-0.143132,2.481,2.7622
-1.19772,-0.143132,2.481,2.75869
-1.18104,-0.142093,2.463,2.73522
-1.17305,-0.142093,2.463,2.73178
-1.16505,-0.142093,2.463,2.72835
-1.1486,-0.141055,2.445,2.70503
-1.14067,-0.141055,2.445,2.70167
-1.13273,-0.141055,2.445,2.69833
-1.11697,-0.140074,2.428,2.67627
-1.10909,-0.140074,2.428,2.67299
-1.10121,-0.140074,2.428,2.66973
-1.08568,-0.139094,2.411,2.64782
-1.07785,-0.139094,2.411,2.64462
-1.07003,-0.139094,2.411,2.64144
-1.05471,-0.138113,2.394,2.61968
-1.04694,-0.138113,2.394,2.61656
-1.03917,-0.138113,2.394,2.61346
-1.0314,-0.138113,2.394,2.61038
-1.02363,-0.138113,2.394,2.60732
-1.01586,-0.138113,2.394,2.60428
-1.00809,-0.138113,2.394,2.60126
-1.00032,-0.138113,2.394,2.59826
-0.992548,-0.138113,2.394,2.59528
-0.984778,-0.138113,2.394,2.59232
-0.977007,-0.138113,2.394,2.58937
-0.969237,-0.138113,2.394,2.58645
-0.961466,-0.138113,2.394,2.58355
-0.953696,-0.138113,2.394,2.58067
-0.945926,-0.138113,2.394,2.57781
-0.938156,-0.138113,2.394,2.57497
-0.930385,-0.138113,2.394,2.57214
-0.922615,-0.138113,2.394,2.56934
-0.914845,-0.138113,2.394,2.56656
-0.907074,-0.138113,2.394,2.5638
-0.899304,-0.138113,2.394,2.56107
-0.891534,-0.138113,2.394,2.55835
-0.883763,-0.138113,2.394,2.55565
-0.875993,-0.138113,2.394,2.55297
-0.868223,-0.138113,2.394,2.55032
-0.860452,-0.138113,2.394,2.54768
-0.852682,-0.138113,2.394,2.54507
-0.844912,-0.138113,2.394,2.54248
-0.837141,-0.138113,2.394,2.5399
-0.829371,-0.138113,2.394,2.53735
-0.821601,-0.138113,2.394,2.53483
-0.81383,-0.138113,2.394,2.53232
-0.80606,-0.138113,2.394,2.52983
-0.79829,-0.138113,2.394,2.52737
-0.790519,-0.138113,2.394,2.52492
-0.782749,-0.138113,2.394,2.5225
-0.774979,-0.138113,2.394,2.5201
-0.767208,-0.138113,2.394,2.51772
-0.759438,-0.138113,2.394,2.51536
-0.751668,-0.138113,2.394,2.51303
-0.743897,-0.138113,2.394,2.51072
-0.741354,-0.139094,2.411,2.52624
-0.733529,-0.139094,2.411,2.52395
-0.725703,-0.139094,2.411,2.52169
-0.717878,-0.139094,2.411,2.51945
-0.710052,-0.139094,2.411,2.51723
-0.702227,-0.139094,2.411,2.51503
-0.694401,-0.139094,2.411,2.51286
-0.686576,-0.139094,2.411,2.51071
-0.67875,-0.139094,2.411,2.50858
-0.670925,-0.139094,2.411,2.50647
-0.663099,-0.139094,2.411,2.50439
-0.659894,-0.140074,2.428,2.51997
-0.652013,-0.140074,2.428,2.51792
-0.644133,-0.140074,2.428,2.51589
-0.636252,-0.140074,2.428,2.51389
-0.628371,-0.140074,2.428,2.5119
-0.624835,-0.141055,2.445,2.52752
-0.616899,-0.141055,2.445,2.52557
-0.608963,-0.141055,2.445,2.52364
-0.601027,-0.141055,2.445,2.52174
-0.593092,-0.141055,2.445,2.51986
-0.589464,-0.142093,2.463,2.53654
-0.581469,-0.142093,2.463,2.53469
-0.573475,-0.142093,2.463,2.53287
-0.565481,-0.142093,2.463,2.53107
-0.553412,-0.141055,2.445,2.51081
-0.545476,-0.141055,2.445,2.50908
-0.53754,-0.141055,2.445,2.50736
-0.529605,-0.141055,2.445,2.50567
-0.521669,-0.141055,2.445,2.50401
-0.513733,-0.141055,2.445,2.50237
-0.509521,-0.142093,2.463,2.51916
-0.501526,-0.142093,2.463,2.51756
-0.493532,-0.142093,2.463,2.51598
-0.485538,-0.142093,2.463,2.51442
-0.477544,-0.142093,2.463,2.51289
-0.469549,-0.142093,2.463,2.51138
-0.461555,-0.142093,2.463,2.5099
-0.453561,-0.142093,2.463,2.50844
-0.445566,-0.142093,2.463,2.50701
-0.44077,-0.143132,2.481,2.52391
-0.432717,-0.143132,2.481,2.52252
-0.424665,-0.143132,2.481,2.52115
-0.419634,-0.14417,2.499,2.53809
-0.414487,-0.145209,2.517,2.55503
-0.406318,-0.145209,2.517,2.55372
-0.398148,-0.145209,2.517,2.55243
-0.392923,-0.146305,2.536,2.57043
-0.384691,-0.146305,2.536,2.56918
-0.37646,-0.146305,2.536,2.56796
-0.368229,-0.146305,2.536,2.56677
-0.359998,-0.146305,2.536,2.5656
-0.351766,-0.146305,2.536,2.56446
-0.343535,-0.146305,2.536,2.56334
-0.335304,-0.146305,2.536,2.56225
-0.327073,-0.146305,2.536,2.56119
-0.318842,-0.146305,2.536,2.56015
-0.31061,-0.146305,2.536,2.55914
-0.302379,-0.146305,2.536,2.55815
-0.294148,-0.146305,2.536,2.55719
-0.285917,-0.146305,2.536,2.55626
-0.275605,-0.145209,2.517,2.5362
-0.267435,-0.145209,2.517,2.53533
-0.259266,-0.145209,2.517,2.53448
-0.251096,-0.145209,2.517,2.53366
-0.24119,-0.14417,2.499,2.51475
-0.233078,-0.14417,2.499,2.51398
-0.224967,-0.14417,2.499,2.51324
-0.216856,-0.14417,2.499,2.51253
-0.208745,-0.14417,2.499,2.51184
-0.200634,-0.14417,2.499,2.51118
-0.192523,-0.14417,2.499,2.51055
-0.183083,-0.143132,2.481,2.49186
-0.175031,-0.143132,2.481,2.49128
-0.166978,-0.143132,2.481,2.49073
-0.158925,-0.143132,2.481,2.4902
-0.150872,-0.143132,2.481,2.4897
-0.143856,-0.14417,2.499,2.50729
-0.135745,-0.14417,2.499,2.50683
-0.127634,-0.14417,2.499,2.50641
-0.119523,-0.14417,2.499,2.50601
-0.111411,-0.14417,2.499,2.50563
-0.1033,-0.14417,2.499,2.50529
-0.0951891,-0.14417,2.499,2.50496
-0.087078,-0.14417,2.499,2.50467
-0.0789668,-0.14417,2.499,2.5044
-0.0713661,-0.145209,2.517,2.5222
-0.0631965,-0.145209,2.517,2.52198
-0.0546334,-0.14417,2.499,2.50375
-0.0465223,-0.14417,2.499,2.50359
-0.0384112,-0.14417,2.499,2.50345
-0.0303,-0.14417,2.499,2.50334
-0.0221889,-0.14417,2.499,2.50325
-0.0140778,-0.14417,2.499,2.50319
-0.00596664,-0.14417,2.499,2.50316
0.00212905,-0.143132,2.481,2.48513
0.0101818,-0.143132,2.481,2.48515
0.0182345,-0.143132,2.481,2.48519
0.0262872,-0.143132,2.481,2.48526
0.0340907,-0.142093,2.463,2.46733
0.042085,-0.142093,2.463,2.46745
0.0500793,-0.142093,2.463,2.4676
0.0580736,-0.142093,2.463,2.46778
0.0660679,-0.142093,2.463,2.46798
0.0740622,-0.142093,2.463,2.46821
0.0820565,-0.142093,2.463,2.46846
0.0900507,-0.142093,2.463,2.46874
0.0973285,-0.141055,2.445,2.451
0.105264,-0.141055,2.445,2.45133
0.1132,-0.141055,2.445,2.45168
0.121136,-0.141055,2.445,2.45206
0.129072,-0.141055,2.445,2.45246
0.137008,-0.141055,2.445,2.45289
0.144944,-0.141055,2.445,2.45335
0.15288,-0.141055,2.445,2.45383
0.160815,-0.141055,2.445,2.45434
0.168751,-0.141055,2.445,2.45487
0.176687,-0.141055,2.445,2.45543
0.184623,-0.141055,2.445,2.45601
0.193976,-0.142093,2.463,2.47471
0.201971,-0.142093,2.463,2.47535
0.209965,-0.142093,2.463,2.47601
0.217959,-0.142093,2.463,2.4767
0.225954,-0.142093,2.463,2.47742
0.233948,-0.142093,2.463,2.47816
0.241942,-0.142093,2.463,2.47893
0.249936,-0.142093,2.463,2.47972
0.257931,-0.142093,2.463,2.48054
0.265925,-0.142093,2.463,2.48139
0.273919,-0.142093,2.463,2.48226
0.281914,-0.142093,2.463,2.48315
0.289908,-0.142093,2.463,2.48407
0.297902,-0.142093,2.463,2.48502
0.305896,-0.142093,2.463,2.48599
0.313891,-0.142093,2.463,2.48698
0.321885,-0.142093,2.463,2.48801
0.329879,-0.142093,2.463,2.48905
0.337874,-0.142093,2.463,2.49012
0.345868,-0.142093,2.463,2.49122
0.353862,-0.142093,2.463,2.49234
0.361856,-0.142093,2.463,2.49349
0.369851,-0.142093,2.463,2.49466
0.377845,-0.142093,2.463,2.49586
0.385839,-0.142093,2.463,2.49708
0.396712,-0.143132,2.481,2.51659
0.404765,-0.143132,2.481,2.51787
0.409822,-0.142093,2.463,2.5009
0.417816,-0.142093,2.463,2.50223
0.425811,-0.142093,2.463,2.50357
0.433805,-0.142093,2.463,2.50494
0.441799,-0.142093,2.463,2.50634
0.449794,-0.142093,2.463,2.50776
0.457788,-0.142093,2.463,2.50921
0.465782,-0.142093,2.463,2.51068
0.473776,-0.142093,2.463,2.51218
0.481771,-0.142093,2.463,2.5137
0.489765,-0.142093,2.463,2.51524
0.494122,-0.141055,2.445,2.49842
0.502058,-0.141055,2.445,2.5
0.509993,-0.141055,2.445,2.5016
0.517929,-0.141055,2.445,2.50323
0.525865,-0.141055,2.445,2.50489
0.533801,-0.141055,2.445,2.50656
0.541737,-0.141055,2.445,2.50827
0.549673,-0.141055,2.445,2.50999
0.557609,-0.141055,2.445,2.51174
0.565544,-0.141055,2.445,2.51352
0.57348,-0.141055,2.445,2.51531
0.581416,-0.141055,2.445,2.51713
0.589352,-0.141055,2.445,2.51898
0.597288,-0.141055,2.445,2.52085
0.605224,-0.141055,2.445,2.52274
0.61316,-0.141055,2.445,2.52466
0.621095,-0.141055,2.445,2.52659
0.629031,-0.141055,2.445,2.52856
0.636967,-0.141055,2.445,2.53054
0.644903,-0.141055,2.445,2.53255
0.652839,-0.141055,2.445,2.53458
0.660775,-0.141055,2.445,2.53664
0.668711,-0.141055,2.445,2.53872
0.676647,-0.141055,2.445,2.54082
0.684582,-0.141055,2.445,2.54295
0.692518,-0.141055,2.445,2.54509
0.700454,-0.141055,2.445,2.54726
0.70839,-0.141055,2.445,2.54946
0.721599,-0.142093,2.463,2.57046
0.729594,-0.142093,2.463,2.57272
0.737588,-0.142093,2.463,2.57499
0.745582,-0.142093,2.463,2.5773
0.753577,-0.142093,2.463,2.57962
0.761571,-0.142093,2.463,2.58197
0.769565,-0.142093,2.463,2.58434
0.777559,-0.142093,2.463,2.58673
0.785554,-0.142093,2.463,2.58914
0.799347,-0.143132,2.481,2.61052
0.801542,-0.142093,2.463,2.59404
0.809537,-0.142093,2.463,2.59652
0.817531,-0.142093,2.463,2.59902
0.825525,-0.142093,2.463,2.60155
0.833519,-0.142093,2.463,2.6041
0.841514,-0.142093,2.463,2.60667
0.849508,-0.142093,2.463,2.60926
0.851236,-0.141055,2.445,2.59278
0.859171,-0.141055,2.445,2.5954
0.867107,-0.141055,2.445,2.59804
0.875043,-0.141055,2.445,2.6007
0.87684,-0.140074,2.428,2.58528
0.88472,-0.140074,2.428,2.58796
0.892601,-0.140074,2.428,2.59066
0.894177,-0.139094,2.411,2.57523
0.902002,-0.139094,2.411,2.57796
0.909828,-0.139094,2.411,2.58071
0.917653,-0.139094,2.411,2.58348
0.925479,-0.139094,2.411,2.58627
0.933304,-0.139094,2.411,2.58908
0.934494,-0.138113,2.394,2.57363
0.942264,-0.138113,2.394,2.57647
0.950035,-0.138113,2.394,2.57932
0.957805,-0.138113,2.394,2.58219
0.958719,-0.137132,2.377,2.56672
0.966434,-0.137132,2.377,2.56962
0.974149,-0.137132,2.377,2.57253
0.988886,-0.138113,2.394,2.59388
nan,nan,nan,NaN
nan,nan,nan,NaN
nan,nan,nan,NaN
nan,nan,nan,NaN
nan,nan,nan,NaN
nan,nan,nan,NaN
nan,nan,nan,NaN
nan,nan,nan,NaN
nan,nan,nan,NaN
nan,nan,nan,NaN
nan,nan,nan,NaN
nan,nan,nan,NaN
nan,nan,nan,NaN
nan,nan,nan,NaN
nan,nan,nan,NaN
nan,nan,nan,NaN
nan,nan,nan,NaN
nan,nan,nan,NaN
nan,nan,nan,NaN
nan,nan,nan,NaN
nan,nan,nan,NaN
nan,nan,nan,NaN
nan,nan,nan,NaN
nan,nan,nan,NaN
nan,nan,nan,NaN
nan,nan,nan,NaN
nan,nan,nan,NaN
nan,nan,nan,NaN
nan,nan,nan,NaN
nan,nan,nan,NaN
nan,nan,nan,NaN
nan,nan,nan,NaN
nan,nan,nan,NaN
nan,nan,nan,NaN
1.91813,-0.210111,3.642,4.12159
1.92995,-0.210111,3.642,4.12711
1.92151,-0.207919,3.604,4.08953
1.93321,-0.207919,3.604,4.09504
1.96542,-0.210111,3.642,4.14381
1.97724,-0.210111,3.642,4.14943
2.01036,-0.212361,3.681,4.19957
2.04428,-0.214669,3.721,4.251
2.05636,-0.214669,3.721,4.25682
2.06844,-0.214669,3.721,4.26267
2.08051,-0.214669,3.721,4.26854
2.09259,-0.214669,3.721,4.27444
2.08204,-0.212361,3.681,4.23435
2.09399,-0.212361,3.681,4.24024
2.10594,-0.212361,3.681,4.24616
2.11789,-0.212361,3.681,4.25209
2.10727,-0.210111,3.642,4.21294
2.11909,-0.210111,3.642,4.21887
2.13091,-0.210111,3.642,4.22482
2.12037,-0.207919,3.604,4.18665
2.13207,-0.207919,3.604,4.19259
2.12117,-0.205727,3.566,4.15428
2.11061,-0.203592,3.529,4.11703
2.12207,-0.203592,3.529,4.12292
2.11176,-0.201515,3.493,4.08671
2.08055,-0.197477,3.423,4.01056
2.09166,-0.197477,3.423,4.01634
2.04195,-0.191766,3.324,3.90581
2.01322,-0.188073,3.26,3.83615
2.0238,-0.188073,3.26,3.84171
1.97821,-0.182881,3.17,3.74108
1.93456,-0.17792,3.084,3.64489
1.94457,-0.17792,3.084,3.65021
1.92035,-0.174804,3.03,3.59155
1.86394,-0.168804,2.926,3.47336
1.85743,-0.167362,2.901,3.44875
1.83595,-0.164593,2.853,3.39668
1.81482,-0.161882,2.806,3.34565
1.79467,-0.159285,2.761,3.29687
1.80364,-0.159285,2.761,3.30176
1.78371,-0.156747,2.717,3.25396
1.76482,-0.154324,2.675,3.20843
1.7735,-0.154324,2.675,3.21322
1.76819,-0.153112,2.654,3.19275
1.74936,-0.150747,2.613,3.14813
1.75784,-0.150747,2.613,3.15286
1.73996,-0.148497,2.574,3.11046
1.73541,-0.147401,2.555,3.09215
-2.04721,-0.160671,2.951,3.59517
-2.0031,-0.157949,2.901,3.5289
-1.99369,-0.157949,2.901,3.52357
-1.95144,-0.155336,2.853,3.46004
-1.91018,-0.152777,2.806,3.39791
-1.90108,-0.152777,2.806,3.3928
-1.86163,-0.150326,2.761,3.33337
-1.8379,-0.149129,2.739,3.30186
-1.82901,-0.149129,2.739,3.29692
-1.79155,-0.146787,2.696,3.24031
-1.7828,-0.146787,2.696,3.23548
-1.77405,-0.146787,2.696,3.23067
-1.75155,-0.145644,2.675,3.20074
-1.74286,-0.145644,2.675,3.196
-1.73418,-0.145644,2.675,3.19127
-1.73905,-0.146787,2.696,3.21158
-1.73029,-0.146787,2.696,3.20685
-1.73495,-0.147931,2.717,3.22708
-1.76807,-0.151524,2.783,3.30062
-1.75903,-0.151524,2.783,3.29579
-1.77893,-0.154029,2.829,3.34538
-1.79977,-0.156642,2.877,3.39718
-1.79043,-0.156642,2.877,3.39224
-1.81143,-0.15931,2.926,3.44502
-1.83334,-0.162087,2.977,3.49999
-1.8396,-0.163502,3.003,3.52546
-1.82986,-0.163502,3.003,3.52039
-1.82011,-0.163502,3.003,3.51533
-1.82664,-0.164973,3.03,3.54185
-1.81681,-0.164973,3.03,3.53679
-1.80697,-0.164973,3.03,3.53175
-1.79714,-0.164973,3.03,3.52673
-1.7873,-0.164973,3.03,3.52173
-1.76163,-0.163502,3.003,3.48541
-1.75188,-0.163502,3.003,3.48049
nan,nan,nan,NaN
nan,nan,nan,NaN
nan,nan,nan,NaN
nan,nan,nan,NaN
nan,nan,nan,NaN
nan,nan,nan,NaN
nan,nan,nan,NaN
nan,nan,nan,NaN
nan,nan,nan,NaN
nan,nan,nan,NaN
nan,nan,nan,NaN
nan,nan,nan,NaN
nan,nan,nan,NaN
nan,nan,nan,NaN
nan,nan,nan,NaN
nan,nan,nan,NaN
nan,nan,nan,NaN
nan,nan,nan,NaN
nan,nan,nan,NaN
nan,nan,nan,NaN
nan,nan,nan,NaN
nan,nan,nan,NaN
nan,nan,nan,NaN
nan,nan,nan,NaN
nan,nan,nan,NaN
nan,nan,nan,NaN
nan,nan,nan,NaN
nan,nan,nan,NaN
-1.22264,-0.136061,2.499,2.78538
-1.21453,-0.136061,2.499,2.78183
-1.20641,-0.136061,2.499,2.7783
-1.18967,-0.135081,2.481,2.7548
-1.18162,-0.135081,2.481,2.75133
-1.17357,-0.135081,2.481,2.74788
-1.15706,-0.134101,2.463,2.72454
-1.14906,-0.134101,2.463,2.72116
-1.13273,-0.133121,2.445,2.69793
-1.12479,-0.133121,2.445,2.69461
-1.10909,-0.132196,2.428,2.67259
-1.10121,-0.132196,2.428,2.66933
-1.08568,-0.13127,2.411,2.64742
-1.07785,-0.13127,2.411,2.64422
-1.07003,-0.13127,2.411,2.64104
-1.05471,-0.130345,2.394,2.61928
-1.04694,-0.130345,2.394,2.61616
-1.03917,-0.130345,2.394,2.61306
-1.0314,-0.130345,2.394,2.60998
-1.02363,-0.130345,2.394,2.60692
-1.01586,-0.130345,2.394,2.60388
-1.00809,-0.130345,2.394,2.60086
-1.00032,-0.130345,2.394,2.59786
-0.992548,-0.130345,2.394,2.59488
-0.984778,-0.130345,2.394,2.59191
-0.977007,-0.130345,2.394,2.58897
-0.969237,-0.130345,2.394,2.58605
-0.961466,-0.130345,2.394,2.58315
-0.953696,-0.130345,2.394,2.58026
-0.945926,-0.130345,2.394,2.5774
-0.938156,-0.130345,2.394,2.57456
-0.930385,-0.130345,2.394,2.57174
-0.922615,-0.130345,2.394,2.56894
-0.914845,-0.130345,2.394,2.56616
-0.907074,-0.130345,2.394,2.5634
-0.899304,-0.130345,2.394,2.56066
-0.891534,-0.130345,2.394,2.55794
-0.883763,-0.130345,2.394,2.55524
-0.875993,-0.130345,2.394,2.55257
-0.868223,-0.130345,2.394,2.54991
-0.860452,-0.130345,2.394,2.54727
-0.852682,-0.130345,2.394,2.54466
-0.844912,-0.130345,2.394,2.54207
-0.837141,-0.130345,2.394,2.53949
-0.829371,-0.130345,2.394,2.53694
-0.821601,-0.130345,2.394,2.53441
-0.81383,-0.130345,2.394,2.53191
-0.80606,-0.130345,2.394,2.52942
-0.79829,-0.130345,2.394,2.52695
-0.790519,-0.130345,2.394,2.52451
-0.782749,-0.130345,2.394,2.52209
-0.774979,-0.130345,2.394,2.51969
-0.767208,-0.130345,2.394,2.51731
-0.759438,-0.130345,2.394,2.51495
-0.751668,-0.130345,2.394,2.51261
-0.743897,-0.130345,2.394,2.5103
-0.741354,-0.13127,2.411,2.52582
-0.733529,-0.13127,2.411,2.52353
-0.725703,-0.13127,2.411,2.52127
-0.717878,-0.13127,2.411,2.51903
-0.710052,-0.13127,2.411,2.51681
-0.702227,-0.13127,2.411,2.51461
-0.694401,-0.13127,2.411,2.51244
-0.686576,-0.13127,2.411,2.51029
-0.67875,-0.13127,2.411,2.50816
-0.670925,-0.13127,2.411,2.50605
-0.663099,-0.13127,2.411,2.50397
-0.659894,-0.132196,2.428,2.51955
-0.652013,-0.132196,2.428,2.5175
-0.644133,-0.132196,2.428,2.51547
-0.636252,-0.132196,2.428,2.51346
-0.628371,-0.132196,2.428,2.51148
-0.624835,-0.133121,2.445,2.52709
-0.616899,-0.133121,2.445,2.52514
-0.608963,-0.133121,2.445,2.52321
-0.601027,-0.133121,2.445,2.52131
-0.593092,-0.133121,2.445,2.51943
-0.589464,-0.134101,2.463,2.5361
-0.581469,-0.134101,2.463,2.53426
-0.573475,-0.134101,2.463,2.53243
-0.565481,-0.134101,2.463,2.53064
-0.553412,-0.133121,2.445,2.51038
-0.545476,-0.133121,2.445,2.50864
-0.53754,-0.133121,2.445,2.50693
-0.529605,-0.133121,2.445,2.50524
-0.521669,-0.133121,2.445,2.50357
-0.513733,-0.133121,2.445,2.50193
-0.509521,-0.134101,2.463,2.51872
-0.501526,-0.134101,2.463,2.51712
-0.493532,-0.134101,2.463,2.51554
-0.485538,-0.134101,2.463,2.51398
-0.477544,-0.134101,2.463,2.51245
-0.469549,-0.134101,2.463,2.51094
-0.461555,-0.134101,2.463,2.50946
-0.453561,-0.134101,2.463,2.508
-0.445566,-0.134101,2.463,2.50657
-0.44077,-0.135081,2.481,2.52347
-0.432717,-0.135081,2.481,2.52207
-0.424665,-0.135081,2.481,2.5207
-0.419634,-0.136061,2.499,2.53764
-0.414487,-0.137042,2.517,2.55458
-0.406318,-0.137042,2.517,2.55327
-0.398148,-0.137042,2.517,2.55198
-0.392923,-0.138076,2.536,2.56997
-0.384691,-0.138076,2.536,2.56873
-0.37646,-0.138076,2.536,2.56751
-0.368229,-0.138076,2.536,2.56631
-0.359998,-0.138076,2.536,2.56514
-0.354402,-0.13911,2.555,2.58321
-0.346109,-0.13911,2.555,2.58209
-0.337816,-0.13911,2.555,2.58099
-0.329523,-0.13911,2.555,2.57992
-0.318842,-0.138076,2.536,2.55969
-0.31061,-0.138076,2.536,2.55868
-0.302379,-0.138076,2.536,2.55769
-0.294148,-0.138076,2.536,2.55673
-0.285917,-0.138076,2.536,2.5558
-0.275605,-0.137042,2.517,2.53575
-0.267435,-0.137042,2.517,2.53488
-0.259266,-0.137042,2.517,2.53403
-0.251096,-0.137042,2.517,2.5332
-0.24119,-0.136061,2.499,2.5143
-0.233078,-0.136061,2.499,2.51353
-0.224967,-0.136061,2.499,2.51279
-0.216856,-0.136061,2.499,2.51208
-0.208745,-0.136061,2.499,2.51139
-0.200634,-0.136061,2.499,2.51073
-0.192523,-0.136061,2.499,2.5101
-0.183083,-0.135081,2.481,2.49141
-0.175031,-0.135081,2.481,2.49083
-0.166978,-0.135081,2.481,2.49028
-0.158925,-0.135081,2.481,2.48975
-0.150872,-0.135081,2.481,2.48925
-0.143856,-0.136061,2.499,2.50683
-0.135745,-0.136061,2.499,2.50638
-0.127634,-0.136061,2.499,2.50595
-0.119523,-0.136061,2.499,2.50555
-0.111411,-0.136061,2.499,2.50518
-0.1033,-0.136061,2.499,2.50483
-0.0951891,-0.136061,2.499,2.50451
-0.087078,-0.136061,2.499,2.50422
-0.0789668,-0.136061,2.499,2.50395
-0.0708557,-0.136061,2.499,2.5037
-0.0627446,-0.136061,2.499,2.50349
-0.0546334,-0.136061,2.499,2.5033
-0.0465223,-0.136061,2.499,2.50313
-0.0384112,-0.136061,2.499,2.503
-0.0303,-0.136061,2.499,2.50288
-0.0221889,-0.136061,2.499,2.5028
-0.0140778,-0.136061,2.499,2.50274
-0.00596664,-0.136061,2.499,2.50271
0.00212905,-0.135081,2.481,2.48468
0.0101818,-0.135081,2.481,2.4847
0.0182345,-0.135081,2.481,2.48474
0.0262872,-0.135081,2.481,2.48481
0.0340907,-0.134101,2.463,2.46688
0.042085,-0.134101,2.463,2.46701
0.0500793,-0.134101,2.463,2.46716
0.0576492,-0.133121,2.445,2.4493
0.0655851,-0.133121,2.445,2.4495
0.0735209,-0.133121,2.445,2.44972
0.0814568,-0.133121,2.445,2.44998
0.0893926,-0.133121,2.445,2.45025
0.0973285,-0.133121,2.445,2.45056
0.104532,-0.132196,2.428,2.43384
0.112413,-0.132196,2.428,2.43419
0.120294,-0.132196,2.428,2.43457
0.128175,-0.132196,2.428,2.43497
0.137008,-0.133121,2.445,2.45245
0.144944,-0.133121,2.445,2.45291
0.15288,-0.133121,2.445,2.45339
0.160815,-0.133121,2.445,2.4539
0.168751,-0.133121,2.445,2.45443
0.176687,-0.133121,2.445,2.45499
0.184623,-0.133121,2.445,2.45557
0.192559,-0.133121,2.445,2.45618
0.200495,-0.133121,2.445,2.45682
0.209965,-0.134101,2.463,2.47557
0.217959,-0.134101,2.463,2.47626
0.225954,-0.134101,2.463,2.47698
0.233948,-0.134101,2.463,2.47772
0.241942,-0.134101,2.463,2.47849
0.249936,-0.134101,2.463,2.47928
0.257931,-0.134101,2.463,2.4801
0.265925,-0.134101,2.463,2.48094
0.273919,-0.134101,2.463,2.48181
0.281914,-0.134101,2.463,2.48271
0.289908,-0.134101,2.463,2.48363
0.297902,-0.134101,2.463,2.48457
