2.06681,-0.241448,3.762,4.29914
2.07902,-0.241448,3.762,4.30503
2.09123,-0.241448,3.762,4.31094
2.10344,-0.241448,3.762,4.31687
2.11565,-0.241448,3.762,4.32284
2.10467,-0.238817,3.721,4.28165
2.09399,-0.23625,3.681,4.24151
2.10594,-0.23625,3.681,4.24742
2.09545,-0.233747,3.642,4.20829
2.06329,-0.228869,3.566,4.12625
2.07487,-0.228869,3.566,4.13205
2.06479,-0.226494,3.529,4.09494
2.01389,-0.219691,3.423,3.97755
2.025,-0.219691,3.423,3.98319
1.99625,-0.215391,3.356,3.91077
1.96887,-0.211283,3.292,3.84166
1.97955,-0.211283,3.292,3.84715
1.95275,-0.207304,3.23,3.7801
1.92677,-0.203453,3.17,3.7152
1.93706,-0.203453,3.17,3.72055
1.91172,-0.199731,3.112,3.65775
1.90453,-0.197934,3.084,3.63008
1.91454,-0.197934,3.084,3.63534
1.89085,-0.194468,3.03,3.57687
1.88375,-0.192735,3.003,3.55016
1.89349,-0.192735,3.003,3.55534
1.88676,-0.191066,2.977,3.52972
1.86394,-0.187793,2.926,3.47433
1.87343,-0.187793,2.926,3.47944
1.83595,-0.183108,2.853,3.39763
1.82969,-0.181568,2.829,3.37402
1.82392,-0.180092,2.806,3.35153
1.83303,-0.180092,2.806,3.3565
1.8126,-0.177203,2.761,3.30757
1.79253,-0.174379,2.717,3.2597
1.80135,-0.174379,2.717,3.26456
1.79618,-0.173032,2.696,3.24416
1.79087,-0.171684,2.675,3.22371
1.79955,-0.171684,2.675,3.22854
1.77984,-0.168988,2.633,3.18262
1.7748,-0.167705,2.613,3.1632
-2.01252,-0.176775,2.901,3.53515
-1.98653,-0.175313,2.877,3.5006
-1.97719,-0.175313,2.877,3.4953
-1.96786,-0.175313,2.877,3.49003
-1.94218,-0.173851,2.853,3.4557
-1.93292,-0.173851,2.853,3.45051
-1.90748,-0.172388,2.829,3.41635
-1.88286,-0.170987,2.806,3.3835
-1.87375,-0.170987,2.806,3.37844
-1.86465,-0.170987,2.806,3.37339
-1.85554,-0.170987,2.806,3.36837
-1.86157,-0.172388,2.829,3.39093
-1.85238,-0.172388,2.829,3.38589
-1.8432,-0.172388,2.829,3.38088
-1.83402,-0.172388,2.829,3.37588
-1.84032,-0.173851,2.853,3.3995
-1.83106,-0.173851,2.853,3.3945
-1.83712,-0.175313,2.877,3.41802
-1.82778,-0.175313,2.877,3.41301
-1.81845,-0.175313,2.877,3.40802
-1.8242,-0.176775,2.901,3.43144
-1.81478,-0.176775,2.901,3.42644
-1.80537,-0.176775,2.901,3.42146
-1.79595,-0.176775,2.901,3.4165
-1.78654,-0.176775,2.901,3.41156
-1.77712,-0.176775,2.901,3.40664
-1.7677,-0.176775,2.901,3.40174
-1.75829,-0.176775,2.901,3.39686
-1.74887,-0.176775,2.901,3.39199
-1.73946,-0.176775,2.901,3.38715
-1.71573,-0.175313,2.877,3.35434
-1.70639,-0.175313,2.877,3.34957
-1.69705,-0.175313,2.877,3.34482
-1.68771,-0.175313,2.877,3.3401
nan,nan,nan,NaN
nan,nan,nan,NaN
nan,nan,nan,NaN
nan,nan,nan,NaN
nan,nan,nan,NaN
nan,nan,nan,NaN
nan,nan,nan,NaN
nan,nan,nan,NaN
nan,nan,nan,NaN
nan,nan,nan,NaN
nan,nan,nan,NaN
nan,nan,nan,NaN
nan,nan,nan,NaN
nan,nan,nan,NaN
nan,nan,nan,NaN
nan,nan,nan,NaN
nan,nan,nan,NaN
nan,nan,nan,NaN
nan,nan,nan,NaN
nan,nan,nan,NaN
nan,nan,nan,NaN
nan,nan,nan,NaN
nan,nan,nan,NaN
nan,nan,nan,NaN
nan,nan,nan,NaN
nan,nan,nan,NaN
nan,nan,nan,NaN
nan,nan,nan,NaN
nan,nan,nan,NaN
-1.20502,-0.150085,2.463,2.74608
-1.19703,-0.150085,2.463,2.74259
-1.18035,-0.148989,2.445,2.71909
-1.17241,-0.148989,2.445,2.71565
-1.16447,-0.148989,2.445,2.71224
-1.1485,-0.147953,2.428,2.69
-1.14062,-0.147953,2.428,2.68665
-1.13274,-0.147953,2.428,2.68331
-1.11698,-0.146917,2.411,2.66123
-1.10915,-0.146917,2.411,2.65796
-1.09356,-0.145881,2.394,2.63598
-1.08579,-0.145881,2.394,2.63277
-1.07802,-0.145881,2.394,2.62957
-1.07025,-0.145881,2.394,2.6264
-1.06248,-0.145881,2.394,2.62324
-1.04722,-0.144845,2.377,2.6015
-1.03951,-0.144845,2.377,2.5984
-1.03179,-0.144845,2.377,2.59532
-1.02408,-0.144845,2.377,2.59227
-1.01636,-0.144845,2.377,2.58923
-1.00865,-0.144845,2.377,2.58621
-1.00093,-0.144845,2.377,2.58321
-0.993215,-0.144845,2.377,2.58023
-0.9855,-0.144845,2.377,2.57727
-0.977785,-0.144845,2.377,2.57433
-0.970069,-0.144845,2.377,2.57141
-0.962354,-0.144845,2.377,2.56851
-0.954639,-0.144845,2.377,2.56563
-0.946924,-0.144845,2.377,2.56277
-0.939209,-0.144845,2.377,2.55993
-0.931494,-0.144845,2.377,2.55711
-0.923778,-0.144845,2.377,2.55431
-0.909897,-0.14387,2.361,2.53435
-0.902234,-0.14387,2.361,2.53161
-0.894571,-0.14387,2.361,2.52889
-0.886907,-0.14387,2.361,2.52619
-0.879244,-0.14387,2.361,2.52351
-0.871581,-0.14387,2.361,2.52085
-0.863918,-0.14387,2.361,2.51821
-0.856255,-0.14387,2.361,2.51559
-0.848591,-0.14387,2.361,2.51299
-0.840928,-0.14387,2.361,2.51041
-0.838912,-0.144845,2.377,2.52485
-0.831197,-0.144845,2.377,2.5223
-0.823481,-0.144845,2.377,2.51977
-0.815766,-0.144845,2.377,2.51726
-0.808051,-0.144845,2.377,2.51477
-0.80606,-0.145881,2.394,2.53027
-0.79829,-0.145881,2.394,2.5278
-0.790519,-0.145881,2.394,2.52536
-0.782749,-0.145881,2.394,2.52294
-0.774979,-0.145881,2.394,2.52054
-0.772656,-0.146917,2.411,2.53604
-0.764831,-0.146917,2.411,2.53367
-0.757005,-0.146917,2.411,2.53132
-0.74918,-0.146917,2.411,2.52899
-0.746581,-0.147953,2.428,2.5445
-0.738701,-0.147953,2.428,2.54219
-0.73082,-0.147953,2.428,2.53992
-0.722939,-0.147953,2.428,2.53766
-0.720065,-0.148989,2.445,2.55318
-0.712129,-0.148989,2.445,2.55095
-0.704194,-0.148989,2.445,2.54875
-0.696258,-0.148989,2.445,2.54657
-0.688322,-0.148989,2.445,2.54441
-0.680386,-0.148989,2.445,2.54227
-0.67245,-0.148989,2.445,2.54016
-0.664514,-0.148989,2.445,2.53807
-0.656578,-0.148989,2.445,2.536
-0.648643,-0.148989,2.445,2.53396
-0.645424,-0.150085,2.463,2.55058
-0.637429,-0.150085,2.463,2.54857
-0.629435,-0.150085,2.463,2.54658
-0.621441,-0.150085,2.463,2.54462
-0.613446,-0.150085,2.463,2.54268
-0.605452,-0.150085,2.463,2.54076
-0.597458,-0.150085,2.463,2.53887
-0.589464,-0.150085,2.463,2.537
-0.581469,-0.150085,2.463,2.53515
-0.577666,-0.151182,2.481,2.55185
-0.569613,-0.151182,2.481,2.55003
-0.561561,-0.151182,2.481,2.54825
-0.553508,-0.151182,2.481,2.54649
-0.545455,-0.151182,2.481,2.54475
-0.537403,-0.151182,2.481,2.54303
-0.52935,-0.151182,2.481,2.54134
-0.521297,-0.151182,2.481,2.53968
-0.513244,-0.151182,2.481,2.53804
-0.505192,-0.151182,2.481,2.53642
-0.497139,-0.151182,2.481,2.53483
-0.489086,-0.151182,2.481,2.53326
-0.481034,-0.151182,2.481,2.53172
-0.472981,-0.151182,2.481,2.5302
-0.464928,-0.151182,2.481,2.52871
-0.456875,-0.151182,2.481,2.52724
-0.448823,-0.151182,2.481,2.5258
-0.44077,-0.151182,2.481,2.52438
-0.432717,-0.151182,2.481,2.52299
-0.424665,-0.151182,2.481,2.52162
-0.419634,-0.152279,2.499,2.53856
-0.411523,-0.152279,2.499,2.53723
-0.403412,-0.152279,2.499,2.53593
-0.395301,-0.152279,2.499,2.53465
-0.38719,-0.152279,2.499,2.5334
-0.379079,-0.152279,2.499,2.53217
-0.370968,-0.152279,2.499,2.53097
-0.362857,-0.152279,2.499,2.52979
-0.354745,-0.152279,2.499,2.52864
-0.346634,-0.152279,2.499,2.52752
-0.338523,-0.152279,2.499,2.52642
-0.330412,-0.152279,2.499,2.52534
-0.322301,-0.152279,2.499,2.5243
-0.31419,-0.152279,2.499,2.52327
-0.308283,-0.153376,2.517,2.54044
-0.297967,-0.152279,2.499,2.5213
-0.289856,-0.152279,2.499,2.52036
-0.281745,-0.152279,2.499,2.51944
-0.273634,-0.152279,2.499,2.51854
-0.265523,-0.152279,2.499,2.51768
-0.257412,-0.152279,2.499,2.51683
-0.247505,-0.151182,2.481,2.49789
-0.239452,-0.151182,2.481,2.49711
-0.2314,-0.151182,2.481,2.49635
-0.223347,-0.151182,2.481,2.49562
-0.215294,-0.151182,2.481,2.49491
-0.207241,-0.151182,2.481,2.49423
-0.199189,-0.151182,2.481,2.49357
-0.191136,-0.151182,2.481,2.49294
-0.183083,-0.151182,2.481,2.49234
-0.175031,-0.151182,2.481,2.49176
-0.166978,-0.151182,2.481,2.4912
-0.158925,-0.151182,2.481,2.49068
-0.150872,-0.151182,2.481,2.49018
-0.14282,-0.151182,2.481,2.4897
-0.134767,-0.151182,2.481,2.48925
-0.126714,-0.151182,2.481,2.48883
-0.118662,-0.151182,2.481,2.48843
-0.110609,-0.151182,2.481,2.48806
-0.102556,-0.151182,2.481,2.48772
-0.0951891,-0.152279,2.499,2.50544
-0.0864508,-0.151182,2.481,2.48711
-0.078398,-0.151182,2.481,2.48684
-0.0703453,-0.151182,2.481,2.4866
-0.0622926,-0.151182,2.481,2.48638
-0.0538464,-0.150085,2.463,2.46816
-0.045517,-0.148989,2.445,2.44996
-0.0375812,-0.148989,2.445,2.44982
-0.0296453,-0.148989,2.445,2.44971
-0.0215585,-0.147953,2.428,2.4326
-0.0136778,-0.147953,2.428,2.43254
-0.00579712,-0.147953,2.428,2.43251
0.00208357,-0.147953,2.428,2.4325
0.00996425,-0.147953,2.428,2.43252
0.0178449,-0.147953,2.428,2.43257
0.0257256,-0.147953,2.428,2.43264
0.0336063,-0.147953,2.428,2.43274
0.041487,-0.147953,2.428,2.43286
0.0493677,-0.147953,2.428,2.433
0.0572484,-0.147953,2.428,2.43318
0.0655851,-0.148989,2.445,2.45041
0.0735209,-0.148989,2.445,2.45064
0.0814568,-0.148989,2.445,2.45089
0.0900507,-0.150085,2.463,2.46921
0.098045,-0.150085,2.463,2.46952
0.106039,-0.150085,2.463,2.46985
0.114034,-0.150085,2.463,2.4702
0.122028,-0.150085,2.463,2.47058
0.130972,-0.151182,2.481,2.48905
0.139025,-0.151182,2.481,2.48949
0.148145,-0.152279,2.499,2.50801
0.156256,-0.152279,2.499,2.50851
0.164367,-0.152279,2.499,2.50903
0.172478,-0.152279,2.499,2.50957
0.180589,-0.152279,2.499,2.51014
0.188701,-0.152279,2.499,2.51074
0.196812,-0.152279,2.499,2.51136
0.204923,-0.152279,2.499,2.51201
0.213034,-0.152279,2.499,2.51268
0.221145,-0.152279,2.499,2.51338
0.229256,-0.152279,2.499,2.51411
0.237367,-0.152279,2.499,2.51486
0.247247,-0.153376,2.517,2.53376
0.255416,-0.153376,2.517,2.53457
0.263586,-0.153376,2.517,2.53541
0.271755,-0.153376,2.517,2.53627
0.279925,-0.153376,2.517,2.53716
0.288094,-0.153376,2.517,2.53807
0.296264,-0.153376,2.517,2.53901
0.304434,-0.153376,2.517,2.53998
0.312603,-0.153376,2.517,2.54097
0.320773,-0.153376,2.517,2.54199
0.328942,-0.153376,2.517,2.54303
0.337112,-0.153376,2.517,2.5441
0.345281,-0.153376,2.517,2.5452
0.353451,-0.153376,2.517,2.54632
0.36162,-0.153376,2.517,2.54747
0.36979,-0.153376,2.517,2.54864
0.37796,-0.153376,2.517,2.54984
0.386129,-0.153376,2.517,2.55106
0.394299,-0.153376,2.517,2.55231
0.402468,-0.153376,2.517,2.55358
0.410638,-0.153376,2.517,2.55489
0.418807,-0.153376,2.517,2.55621
0.426977,-0.153376,2.517,2.55756
0.435146,-0.153376,2.517,2.55894
0.443316,-0.153376,2.517,2.56034
0.451486,-0.153376,2.517,2.56177
0.459655,-0.153376,2.517,2.56322
0.467825,-0.153376,2.517,2.5647
0.475994,-0.153376,2.517,2.5662
0.484164,-0.153376,2.517,2.56773
0.492333,-0.153376,2.517,2.56928
0.500503,-0.153376,2.517,2.57086
0.508672,-0.153376,2.517,2.57246
0.516842,-0.153376,2.517,2.57409
0.525012,-0.153376,2.517,2.57574
0.533181,-0.153376,2.517,2.57742
0.541351,-0.153376,2.517,2.57912
0.54952,-0.153376,2.517,2.58085
0.55769,-0.153376,2.517,2.5826
0.565859,-0.153376,2.517,2.58438
0.574029,-0.153376,2.517,2.58618
0.582199,-0.153376,2.517,2.588
0.590368,-0.153376,2.517,2.58985
0.598538,-0.153376,2.517,2.59173
0.606707,-0.153376,2.517,2.59363
0.614877,-0.153376,2.517,2.59555
0.623046,-0.153376,2.517,2.5975
0.631216,-0.153376,2.517,2.59947
0.639385,-0.153376,2.517,2.60147
0.642924,-0.152279,2.499,2.58487
0.651035,-0.152279,2.499,2.5869
0.659146,-0.152279,2.499,2.58895
0.667257,-0.152279,2.499,2.59103
0.675369,-0.152279,2.499,2.59313
0.68348,-0.152279,2.499,2.59525
0.691591,-0.152279,2.499,2.5974
0.699702,-0.152279,2.499,2.59957
0.707813,-0.152279,2.499,2.60177
0.721081,-0.153376,2.517,2.62274
0.724035,-0.152279,2.499,2.60623
0.732147,-0.152279,2.499,2.60849
0.740258,-0.152279,2.499,2.61078
0.753759,-0.153376,2.517,2.63191
0.761929,-0.153376,2.517,2.63426
0.770098,-0.153376,2.517,2.63664
0.778268,-0.153376,2.517,2.63904
0.786437,-0.153376,2.517,2.64146
0.794607,-0.153376,2.517,2.6439
0.802777,-0.153376,2.517,2.64637
0.810946,-0.153376,2.517,2.64886
0.819116,-0.153376,2.517,2.65137
0.827285,-0.153376,2.517,2.65391
0.835455,-0.153376,2.517,2.65646
0.843624,-0.153376,2.517,2.65904
0.851794,-0.153376,2.517,2.66165
0.859963,-0.153376,2.517,2.66427
0.868133,-0.153376,2.517,2.66692
0.876303,-0.153376,2.517,2.66959
0.884472,-0.153376,2.517,2.67228
0.892642,-0.153376,2.517,2.675
0.900811,-0.153376,2.517,2.67774
0.90248,-0.152279,2.499,2.66133
0.910591,-0.152279,2.499,2.66409
0.918703,-0.152279,2.499,2.66687
0.926814,-0.152279,2.499,2.66968
0.934925,-0.152279,2.499,2.6725
0.943036,-0.152279,2.499,2.67535
0.944296,-0.151182,2.481,2.65893
0.952349,-0.151182,2.481,2.6618
0.960401,-0.151182,2.481,2.66469
0.961428,-0.150085,2.463,2.64825
0.969422,-0.150085,2.463,2.65116
0.977417,-0.150085,2.463,2.6541
0.985411,-0.150085,2.463,2.65705
0.993405,-0.150085,2.463,2.66003
1.0014,-0.150085,2.463,2.66302
1.00939,-0.150085,2.463,2.66604
1.02482,-0.151182,2.481,2.68858
1.03288,-0.151182,2.481,2.69166
nan,nan,nan,NaN
nan,nan,nan,NaN
nan,nan,nan,NaN
nan,nan,nan,NaN
nan,nan,nan,NaN
nan,nan,nan,NaN
nan,nan,nan,NaN
nan,nan,nan,NaN
nan,nan,nan,NaN
nan,nan,nan,NaN
nan,nan,nan,NaN
nan,nan,nan,NaN
nan,nan,nan,NaN
nan,nan,nan,NaN
nan,nan,nan,NaN
nan,nan,nan,NaN
nan,nan,nan,NaN
nan,nan,nan,NaN
nan,nan,nan,NaN
nan,nan,nan,NaN
nan,nan,nan,NaN
nan,nan,nan,NaN
nan,nan,nan,NaN
nan,nan,nan,NaN
nan,nan,nan,NaN
nan,nan,nan,NaN
nan,nan,nan,NaN
nan,nan,nan,NaN
nan,nan,nan,NaN
nan,nan,nan,NaN
nan,nan,nan,NaN
nan,nan,nan,NaN
nan,nan,nan,NaN
nan,nan,nan,NaN
nan,nan,nan,NaN
1.96257,-0.224306,3.681,4.17753
1.97451,-0.224306,3.681,4.18315
2.00805,-0.226743,3.721,4.23433
2.02013,-0.226743,3.721,4.24007
2.0546,-0.229241,3.762,4.29262
2.06681,-0.229241,3.762,4.29847
2.07902,-0.229241,3.762,4.30436
2.09123,-0.229241,3.762,4.31027
2.10344,-0.229241,3.762,4.31621
2.11565,-0.229241,3.762,4.32217
2.10467,-0.226743,3.721,4.28099
2.09399,-0.224306,3.681,4.24086
2.10594,-0.224306,3.681,4.24677
2.09545,-0.221929,3.642,4.20765
2.06329,-0.217298,3.566,4.12562
2.07487,-0.217298,3.566,4.13142
2.06479,-0.215043,3.529,4.09432
2.01389,-0.208584,3.423,3.97695
2.025,-0.208584,3.423,3.98259
1.99625,-0.204501,3.356,3.91019
1.96887,-0.200601,3.292,3.84109
1.97955,-0.200601,3.292,3.84657
1.95275,-0.196823,3.23,3.77954
1.92677,-0.193167,3.17,3.71465
1.93706,-0.193167,3.17,3.72
1.91172,-0.189633,3.112,3.65721
1.90453,-0.187927,3.084,3.62954
1.91454,-0.187927,3.084,3.63481
1.89085,-0.184636,3.03,3.57635
1.88375,-0.182991,3.003,3.54965
1.89349,-0.182991,3.003,3.55483
1.88676,-0.181407,2.977,3.52921
1.86394,-0.178299,2.926,3.47383
1.87343,-0.178299,2.926,3.47894
1.83595,-0.173851,2.853,3.39714
1.82969,-0.172388,2.829,3.37353
1.82392,-0.170987,2.806,3.35106
1.83303,-0.170987,2.806,3.35602
1.8126,-0.168244,2.761,3.3071
1.79253,-0.165563,2.717,3.25924
1.80135,-0.165563,2.717,3.2641
1.79618,-0.164284,2.696,3.24371
1.79087,-0.163004,2.675,3.22326
1.79955,-0.163004,2.675,3.22809
1.77984,-0.160445,2.633,3.18218
1.7748,-0.159226,2.613,3.16276
-2.01252,-0.167362,2.901,3.53469
-1.98653,-0.165978,2.877,3.50014
-1.97719,-0.165978,2.877,3.49485
-1.96786,-0.165978,2.877,3.48957
-1.94218,-0.164593,2.853,3.45525
-1.93292,-0.164593,2.853,3.45005
-1.90748,-0.163208,2.829,3.4159
-1.88286,-0.161882,2.806,3.38305
-1.87375,-0.161882,2.806,3.37799
-1.86465,-0.161882,2.806,3.37294
-1.85554,-0.161882,2.806,3.36792
-1.86157,-0.163208,2.829,3.39047
-1.85238,-0.163208,2.829,3.38544
-1.8432,-0.163208,2.829,3.38042
-1.83402,-0.163208,2.829,3.37543
-1.84032,-0.164593,2.853,3.39904
-1.83106,-0.164593,2.853,3.39403
-1.8218,-0.164593,2.853,3.38905
-1.81254,-0.164593,2.853,3.38408
-1.80328,-0.164593,2.853,3.37913
-1.80911,-0.165978,2.877,3.40258
-1.79977,-0.165978,2.877,3.39762
-1.79043,-0.165978,2.877,3.39269
-1.78109,-0.165978,2.877,3.38777
-1.77176,-0.165978,2.877,3.38287
-1.77712,-0.167362,2.901,3.40617
-1.7677,-0.167362,2.901,3.40126
-1.75829,-0.167362,2.901,3.39638
-1.74887,-0.167362,2.901,3.39151
-1.73946,-0.167362,2.901,3.38667
-1.71573,-0.165978,2.877,3.35386
-1.70639,-0.165978,2.877,3.3491
-1.69705,-0.165978,2.877,3.34435
-1.68771,-0.165978,2.877,3.33962
-1.69238,-0.167362,2.901,3.36273
nan,nan,nan,NaN
nan,nan,nan,NaN
nan,nan,nan,NaN
nan,nan,nan,NaN
nan,nan,nan,NaN
nan,nan,nan,NaN
nan,nan,nan,NaN
nan,nan,nan,NaN
nan,nan,nan,NaN
nan,nan,nan,NaN
nan,nan,nan,NaN
nan,nan,nan,NaN
nan,nan,nan,NaN
nan,nan,nan,NaN
nan,nan,nan,NaN
nan,nan,nan,NaN
nan,nan,nan,NaN
nan,nan,nan,NaN
nan,nan,nan,NaN
nan,nan,nan,NaN
nan,nan,nan,NaN
nan,nan,nan,NaN
nan,nan,nan,NaN
nan,nan,nan,NaN
nan,nan,nan,NaN
nan,nan,nan,NaN
nan,nan,nan,NaN
nan,nan,nan,NaN
-1.20502,-0.142093,2.463,2.74566
-1.19703,-0.142093,2.463,2.74216
-1.18035,-0.141055,2.445,2.71866
-1.17241,-0.141055,2.445,2.71523
-1.16447,-0.141055,2.445,2.71181
-1.1485,-0.140074,2.428,2.68958
-1.14062,-0.140074,2.428,2.68623
-1.13274,-0.140074,2.428,2.68289
-1.11698,-0.139094,2.411,2.66081
-1.10915,-0.139094,2.411,2.65753
-1.09356,-0.138113,2.394,2.63556
-1.08579,-0.138113,2.394,2.63235
-1.07802,-0.138113,2.394,2.62915
-1.06265,-0.137132,2.377,2.60733
-1.05494,-0.137132,2.377,2.60419
-1.04722,-0.137132,2.377,2.60108
-1.03951,-0.137132,2.377,2.59798
-1.03179,-0.137132,2.377,2.5949
-1.01718,-0.136209,2.361,2.5744
-1.00952,-0.136209,2.361,2.57138
-1.00865,-0.137132,2.377,2.58579
-1.00093,-0.137132,2.377,2.58279
-0.993215,-0.137132,2.377,2.57981
-0.9855,-0.137132,2.377,2.57685
-0.977785,-0.137132,2.377,2.57391
-0.970069,-0.137132,2.377,2.57099
-0.962354,-0.137132,2.377,2.56808
-0.954639,-0.137132,2.377,2.5652
-0.946924,-0.137132,2.377,2.56234
-0.939209,-0.137132,2.377,2.5595
-0.931494,-0.137132,2.377,2.55668
-0.923778,-0.137132,2.377,2.55388
-0.909897,-0.136209,2.361,2.53393
-0.902234,-0.136209,2.361,2.53119
-0.894571,-0.136209,2.361,2.52846
-0.886907,-0.136209,2.361,2.52576
-0.879244,-0.136209,2.361,2.52308
-0.871581,-0.136209,2.361,2.52042
-0.863918,-0.136209,2.361,2.51778
-0.856255,-0.136209,2.361,2.51516
-0.848591,-0.136209,2.361,2.51256
-0.840928,-0.136209,2.361,2.50999
-0.838912,-0.137132,2.377,2.52442
-0.831197,-0.137132,2.377,2.52187
-0.823481,-0.137132,2.377,2.51934
-0.815766,-0.137132,2.377,2.51683
-0.81383,-0.138113,2.394,2.53232
-0.80606,-0.138113,2.394,2.52983
-0.79829,-0.138113,2.394,2.52737
-0.790519,-0.138113,2.394,2.52492
-0.788307,-0.139094,2.411,2.54041
-0.780482,-0.139094,2.411,2.538
-0.772656,-0.139094,2.411,2.5356
-0.764831,-0.139094,2.411,2.53323
-0.762343,-0.140074,2.428,2.54872
-0.754462,-0.140074,2.428,2.54637
-0.746581,-0.140074,2.428,2.54405
-0.738701,-0.140074,2.428,2.54175
-0.73082,-0.140074,2.428,2.53947
-0.722939,-0.140074,2.428,2.53721
-0.720065,-0.141055,2.445,2.55273
-0.712129,-0.141055,2.445,2.5505
-0.704194,-0.141055,2.445,2.5483
-0.696258,-0.141055,2.445,2.54611
-0.688322,-0.141055,2.445,2.54396
-0.680386,-0.141055,2.445,2.54182
-0.67245,-0.141055,2.445,2.53971
-0.664514,-0.141055,2.445,2.53762
-0.656578,-0.141055,2.445,2.53555
-0.648643,-0.141055,2.445,2.53351
-0.645424,-0.142093,2.463,2.55012
-0.637429,-0.142093,2.463,2.54811
-0.629435,-0.142093,2.463,2.54612
-0.621441,-0.142093,2.463,2.54416
-0.613446,-0.142093,2.463,2.54222
-0.605452,-0.142093,2.463,2.5403
-0.597458,-0.142093,2.463,2.53841
-0.589464,-0.142093,2.463,2.53654
-0.581469,-0.142093,2.463,2.53469
-0.577666,-0.143132,2.481,2.55138
-0.569613,-0.143132,2.481,2.54957
-0.561561,-0.143132,2.481,2.54778
-0.553508,-0.143132,2.481,2.54602
-0.545455,-0.143132,2.481,2.54428
-0.537403,-0.143132,2.481,2.54257
-0.52935,-0.143132,2.481,2.54088
-0.521297,-0.143132,2.481,2.53921
-0.513244,-0.143132,2.481,2.53757
-0.505192,-0.143132,2.481,2.53595
-0.497139,-0.143132,2.481,2.53436
-0.489086,-0.143132,2.481,2.5328
-0.481034,-0.143132,2.481,2.53125
-0.472981,-0.143132,2.481,2.52974
-0.464928,-0.143132,2.481,2.52824
-0.456875,-0.143132,2.481,2.52677
-0.448823,-0.143132,2.481,2.52533
-0.44077,-0.143132,2.481,2.52391
-0.432717,-0.143132,2.481,2.52252
-0.424665,-0.143132,2.481,2.52115
-0.419634,-0.14417,2.499,2.53809
-0.411523,-0.14417,2.499,2.53676
-0.403412,-0.14417,2.499,2.53545
-0.395301,-0.14417,2.499,2.53418
-0.38719,-0.14417,2.499,2.53292
-0.379079,-0.14417,2.499,2.5317
-0.370968,-0.14417,2.499,2.53049
-0.362857,-0.14417,2.499,2.52932
-0.354745,-0.14417,2.499,2.52817
-0.346634,-0.14417,2.499,2.52704
-0.338523,-0.14417,2.499,2.52594
-0.330412,-0.14417,2.499,2.52487
-0.322301,-0.14417,2.499,2.52382
-0.31419,-0.14417,2.499,2.5228
-0.306079,-0.14417,2.499,2.5218
-0.297967,-0.14417,2.499,2.52083
-0.289856,-0.14417,2.499,2.51988
-0.281745,-0.14417,2.499,2.51896
-0.273634,-0.14417,2.499,2.51807
-0.265523,-0.14417,2.499,2.5172
-0.257412,-0.14417,2.499,2.51636
-0.247505,-0.143132,2.481,2.49742
-0.239452,-0.143132,2.481,2.49663
-0.2314,-0.143132,2.481,2.49588
-0.223347,-0.143132,2.481,2.49514
-0.215294,-0.143132,2.481,2.49443
-0.207241,-0.143132,2.481,2.49375
-0.199189,-0.143132,2.481,2.4931
-0.191136,-0.143132,2.481,2.49247
-0.183083,-0.143132,2.481,2.49186
-0.175031,-0.143132,2.481,2.49128
-0.166978,-0.143132,2.481,2.49073
-0.158925,-0.143132,2.481,2.4902
-0.149778,-0.142093,2.463,2.47164
-0.141784,-0.142093,2.463,2.47117
-0.133789,-0.142093,2.463,2.47072
-0.126714,-0.143132,2.481,2.48835
-0.118662,-0.143132,2.481,2.48796
-0.110609,-0.143132,2.481,2.48759
-0.102556,-0.143132,2.481,2.48724
-0.0945035,-0.143132,2.481,2.48692
-0.0858236,-0.142093,2.463,2.46859
-0.0778293,-0.142093,2.463,2.46832
-0.069835,-0.142093,2.463,2.46808
-0.0618407,-0.142093,2.463,2.46787
-0.0538464,-0.142093,2.463,2.46768
-0.045517,-0.141055,2.445,2.44949
-0.0375812,-0.141055,2.445,2.44935
-0.0296453,-0.141055,2.445,2.44924
-0.0215585,-0.140074,2.428,2.43213
-0.0136778,-0.140074,2.428,2.43208
-0.00579712,-0.140074,2.428,2.43204
0.00206898,-0.139094,2.411,2.41501
0.00989449,-0.139094,2.411,2.41503
0.01772,-0.139094,2.411,2.41507
0.0255455,-0.139094,2.411,2.41514
0.033371,-0.139094,2.411,2.41524
0.0411965,-0.139094,2.411,2.41536
0.049022,-0.139094,2.411,2.41551
0.0572484,-0.140074,2.428,2.43271
0.0655851,-0.141055,2.445,2.44994
0.0735209,-0.141055,2.445,2.45017
0.0814568,-0.141055,2.445,2.45042
0.0900507,-0.142093,2.463,2.46874
0.098045,-0.142093,2.463,2.46904
0.106039,-0.142093,2.463,2.46937
0.114034,-0.142093,2.463,2.46973
0.122028,-0.142093,2.463,2.47011
0.130022,-0.142093,2.463,2.47052
0.139025,-0.143132,2.481,2.48901
0.147078,-0.143132,2.481,2.48947
0.155131,-0.143132,2.481,2.48996
0.164367,-0.14417,2.499,2.50855
0.172478,-0.14417,2.499,2.50909
0.180589,-0.14417,2.499,2.50966
0.188701,-0.14417,2.499,2.51026
0.196812,-0.14417,2.499,2.51088
0.204923,-0.14417,2.499,2.51153
0.213034,-0.14417,2.499,2.5122
0.221145,-0.14417,2.499,2.5129
0.229256,-0.14417,2.499,2.51363
0.237367,-0.14417,2.499,2.51438
0.245479,-0.14417,2.499,2.51516
0.25359,-0.14417,2.499,2.51597
0.261701,-0.14417,2.499,2.5168
0.269812,-0.14417,2.499,2.51765
0.277923,-0.14417,2.499,2.51854
0.286034,-0.14417,2.499,2.51944
0.294145,-0.14417,2.499,2.52038
0.302256,-0.14417,2.499,2.52134
0.310368,-0.14417,2.499,2.52232
0.320773,-0.145209,2.517,2.54151
0.328942,-0.145209,2.517,2.54255
0.337112,-0.145209,2.517,2.54362
0.345281,-0.145209,2.517,2.54472
0.353451,-0.145209,2.517,2.54584
0.36162,-0.145209,2.517,2.54699
0.36979,-0.145209,2.517,2.54816
0.37796,-0.145209,2.517,2.54936
0.386129,-0.145209,2.517,2.55058
0.394299,-0.145209,2.517,2.55183
0.402468,-0.145209,2.517,2.55311
0.410638,-0.145209,2.517,2.55441
0.418807,-0.145209,2.517,2.55573
0.423923,-0.14417,2.499,2.5388
0.432035,-0.14417,2.499,2.54017
0.443316,-0.145209,2.517,2.55986
0.448257,-0.14417,2.499,2.54297
0.456368,-0.14417,2.499,2.54442
0.464479,-0.14417,2.499,2.54588
0.47259,-0.14417,2.499,2.54738
0.484164,-0.145209,2.517,2.56725
0.492333,-0.145209,2.517,2.56881
0.500503,-0.145209,2.517,2.57038
0.508672,-0.145209,2.517,2.57199
0.516842,-0.145209,2.517,2.57362
0.525012,-0.145209,2.517,2.57527
0.533181,-0.145209,2.517,2.57695
0.541351,-0.145209,2.517,2.57865
0.54952,-0.145209,2.517,2.58038
0.55769,-0.145209,2.517,2.58213
0.565859,-0.145209,2.517,2.58391
0.574029,-0.145209,2.517,2.58571
0.582199,-0.145209,2.517,2.58753
0.590368,-0.145209,2.517,2.58938
0.598538,-0.145209,2.517,2.59126
0.606707,-0.145209,2.517,2.59316
0.614877,-0.145209,2.517,2.59508
0.623046,-0.145209,2.517,2.59703
0.631216,-0.145209,2.517,2.599
0.639385,-0.145209,2.517,2.601
0.647555,-0.145209,2.517,2.60302
0.655725,-0.145209,2.517,2.60506
0.659146,-0.14417,2.499,2.58849
0.667257,-0.14417,2.499,2.59056
0.675369,-0.14417,2.499,2.59266
0.68348,-0.14417,2.499,2.59479
0.691591,-0.14417,2.499,2.59694
0.704742,-0.145209,2.517,2.61783
0.712911,-0.145209,2.517,2.62004
0.721081,-0.145209,2.517,2.62228
0.724035,-0.14417,2.499,2.60577
0.732147,-0.14417,2.499,2.60803
0.740258,-0.14417,2.499,2.61032
0.753759,-0.145209,2.517,2.63145
0.761929,-0.145209,2.517,2.6338
0.770098,-0.145209,2.517,2.63618
0.778268,-0.145209,2.517,2.63857
0.786437,-0.145209,2.517,2.641
0.794607,-0.145209,2.517,2.64344
0.802777,-0.145209,2.517,2.64591
0.810946,-0.145209,2.517,2.6484
0.819116,-0.145209,2.517,2.65091
0.827285,-0.145209,2.517,2.65345
0.835455,-0.145209,2.517,2.656
0.843624,-0.145209,2.517,2.65859
0.851794,-0.145209,2.517,2.66119
0.859963,-0.145209,2.517,2.66382
0.874686,-0.146305,2.536,2.68659
0.876303,-0.145209,2.517,2.66914
0.884472,-0.145209,2.517,2.67183
0.892642,-0.145209,2.517,2.67454
0.900811,-0.145209,2.517,2.67728
0.908981,-0.145209,2.517,2.68004
0.91715,-0.145209,2.517,2.68282
0.92532,-0.145209,2.517,2.68563
0.933489,-0.145209,2.517,2.68845
0.934925,-0.14417,2.499,2.67205
0.943036,-0.14417,2.499,2.6749
0.951147,-0.14417,2.499,2.67777
0.952349,-0.143132,2.481,2.66136
0.960401,-0.143132,2.481,2.66425
0.968454,-0.143132,2.481,2.66716
0.969422,-0.142093,2.463,2.65072
0.977417,-0.142093,2.463,2.65366
0.985411,-0.142093,2.463,2.65661
1.00067,-0.143132,2.481,2.67903
1.00872,-0.143132,2.481,2.68204
1.01677,-0.143132,2.481,2.68508
1.02482,-0.143132,2.481,2.68814
1.03288,-0.143132,2.481,2.69122
nan,nan,nan,NaN
nan,nan,nan,NaN
nan,nan,nan,NaN
nan,nan,nan,NaN
nan,nan,nan,NaN
nan,nan,nan,NaN
nan,nan,nan,NaN
nan,nan,nan,NaN
nan,nan,nan,NaN
nan,nan,nan,NaN
nan,nan,nan,NaN
nan,nan,nan,NaN
nan,nan,nan,NaN
nan,nan,nan,NaN
nan,nan,nan,NaN
nan,nan,nan,NaN
nan,nan,nan,NaN
nan,nan,nan,NaN
nan,nan,nan,NaN
nan,nan,nan,NaN
nan,nan,nan,NaN
nan,nan,nan,NaN
nan,nan,nan,NaN
nan,nan,nan,NaN
nan,nan,nan,NaN
nan,nan,nan,NaN
nan,nan,nan,NaN
nan,nan,nan,NaN
nan,nan,nan,NaN
nan,nan,nan,NaN
nan,nan,nan,NaN
nan,nan,nan,NaN
nan,nan,nan,NaN
nan,nan,nan,NaN
1.87007,-0.203592,3.529,3.99906
1.88153,-0.203592,3.529,4.00443
1.93321,-0.207919,3.604,4.09504
1.96542,-0.210111,3.642,4.14381
1.97724,-0.210111,3.642,4.14943
2.01036,-0.212361,3.681,4.19957
2.04428,-0.214669,3.721,4.251
2.05636,-0.214669,3.721,4.25682
2.06844,-0.214669,3.721,4.26267
2.08051,-0.214669,3.721,4.26854
2.0701,-0.212361,3.681,4.22849
2.08204,-0.212361,3.681,4.23435
2.07181,-0.210111,3.642,4.19532
2.08363,-0.210111,3.642,4.20117
2.07358,-0.207919,3.604,4.16315
2.06329,-0.205727,3.566,4.12503
2.07487,-0.205727,3.566,4.13083
2.04373,-0.201515,3.493,4.05197
1.99388,-0.195516,3.389,3.93689
2.00488,-0.195516,3.389,3.94247
1.99625,-0.193612,3.356,3.90963
1.94973,-0.188073,3.26,3.80321
1.96031,-0.188073,3.26,3.80865
1.93401,-0.184554,3.199,3.74274
1.90914,-0.181208,3.141,3.68016
1.91934,-0.181208,3.141,3.68545
1.89452,-0.17792,3.084,3.6238
1.88785,-0.176362,3.057,3.59727
1.89778,-0.176362,3.057,3.60249
1.89085,-0.174804,3.03,3.57586
1.88375,-0.173247,3.003,3.54916
1.89349,-0.173247,3.003,3.55434
1.87028,-0.170247,2.951,3.49791
1.84801,-0.167362,2.901,3.44368
1.85743,-0.167362,2.901,3.44875
1.83595,-0.164593,2.853,3.39668
1.81482,-0.161882,2.806,3.34565
1.80897,-0.160555,2.783,3.32314
1.81801,-0.160555,2.783,3.32806
1.79815,-0.158016,2.739,3.28031
1.79253,-0.156747,2.717,3.25881
1.80135,-0.156747,2.717,3.26367
1.78218,-0.154324,2.675,3.21802
1.77681,-0.153112,2.654,3.19753
1.78542,-0.153112,2.654,3.20233
1.76632,-0.150747,2.613,3.15759
1.76122,-0.149593,2.593,3.13814
-2.01252,-0.157949,2.901,3.53426
-2.0031,-0.157949,2.901,3.5289
-1.99369,-0.157949,2.901,3.52357
-1.96786,-0.156642,2.877,3.48914
-1.94218,-0.155336,2.853,3.45482
-1.93292,-0.155336,2.853,3.44963
-1.92366,-0.155336,2.853,3.44445
-1.89829,-0.154029,2.829,3.41035
-1.88911,-0.154029,2.829,3.40525
-1.87993,-0.154029,2.829,3.40016
-1.87075,-0.154029,2.829,3.39509
-1.86157,-0.154029,2.829,3.39004
-1.85238,-0.154029,2.829,3.38501
-1.8432,-0.154029,2.829,3.37999
-1.83402,-0.154029,2.829,3.37499
-1.82484,-0.154029,2.829,3.37001
-1.81565,-0.154029,2.829,3.36505
-1.80647,-0.154029,2.829,3.36011
-1.81254,-0.155336,2.853,3.38364
-1.80328,-0.155336,2.853,3.37869
-1.79402,-0.155336,2.853,3.37376
-1.78476,-0.155336,2.853,3.36884
-1.7755,-0.155336,2.853,3.36395
-1.78109,-0.156642,2.877,3.38732
-1.77176,-0.156642,2.877,3.38242
-1.77712,-0.157949,2.901,3.40572
-1.7677,-0.157949,2.901,3.40081
-1.75829,-0.157949,2.901,3.39593
-1.74887,-0.157949,2.901,3.39106
-1.73946,-0.157949,2.901,3.38622
-1.71573,-0.156642,2.877,3.35341
-1.70639,-0.156642,2.877,3.34865
-1.69705,-0.156642,2.877,3.3439
-1.70179,-0.157949,2.901,3.36702
-1.67838,-0.156642,2.877,3.33446
-1.66904,-0.156642,2.877,3.32977
-1.6597,-0.156642,2.877,3.3251
nan,nan,nan,NaN
nan,nan,nan,NaN
nan,nan,nan,NaN
nan,nan,nan,NaN
nan,nan,nan,NaN
nan,nan,nan,NaN
nan,nan,nan,NaN
nan,nan,nan,NaN
nan,nan,nan,NaN
nan,nan,nan,NaN
nan,nan,nan,NaN
nan,nan,nan,NaN
nan,nan,nan,NaN
nan,nan,nan,NaN
nan,nan,nan,NaN
nan,nan,nan,NaN
nan,nan,nan,NaN
nan,nan,nan,NaN
nan,nan,nan,NaN
nan,nan,nan,NaN
nan,nan,nan,NaN
nan,nan,nan,NaN
nan,nan,nan,NaN
nan,nan,nan,NaN
nan,nan,nan,NaN
nan,nan,nan,NaN
-1.20502,-0.134101,2.463,2.74526
-1.19703,-0.134101,2.463,2.74176
-1.18904,-0.134101,2.463,2.73828
-1.18104,-0.134101,2.463,2.73481
-1.17305,-0.134101,2.463,2.73137
-1.15654,-0.133121,2.445,2.70801
-1.14062,-0.132196,2.428,2.68583
-1.13274,-0.132196,2.428,2.68249
-1.11698,-0.13127,2.411,2.66041
-1.10915,-0.13127,2.411,2.65714
-1.09356,-0.130345,2.394,2.63517
-1.08579,-0.130345,2.394,2.63195
-1.07802,-0.130345,2.394,2.62876
-1.06265,-0.129419,2.377,2.60693
-1.05494,-0.129419,2.377,2.6038
-1.04722,-0.129419,2.377,2.60068
-1.03951,-0.129419,2.377,2.59759
-1.03179,-0.129419,2.377,2.59451
-1.01718,-0.128548,2.361,2.57401
-1.00952,-0.128548,2.361,2.57099
-1.00865,-0.129419,2.377,2.58539
-1.00093,-0.129419,2.377,2.58239
-0.993215,-0.129419,2.377,2.57941
-0.9855,-0.129419,2.377,2.57645
-0.977785,-0.129419,2.377,2.57351
-0.970069,-0.129419,2.377,2.57059
-0.962354,-0.129419,2.377,2.56768
-0.954639,-0.129419,2.377,2.5648
-0.946924,-0.129419,2.377,2.56194
-0.939209,-0.129419,2.377,2.5591
-0.931494,-0.129419,2.377,2.55628
-0.923778,-0.129419,2.377,2.55348
-0.916063,-0.129419,2.377,2.5507
-0.902234,-0.128548,2.361,2.53078
-0.894571,-0.128548,2.361,2.52806
-0.886907,-0.128548,2.361,2.52536
-0.879244,-0.128548,2.361,2.52268
-0.871581,-0.128548,2.361,2.52002
-0.863918,-0.128548,2.361,2.51738
-0.862057,-0.129419,2.377,2.5318
-0.854342,-0.129419,2.377,2.52919
-0.846627,-0.129419,2.377,2.52659
-0.838912,-0.129419,2.377,2.52401
-0.831197,-0.129419,2.377,2.52146
-0.823481,-0.129419,2.377,2.51893
-0.815766,-0.129419,2.377,2.51642
-0.81383,-0.130345,2.394,2.53191
-0.80606,-0.130345,2.394,2.52942
-0.79829,-0.130345,2.394,2.52695
-0.790519,-0.130345,2.394,2.52451
-0.788307,-0.13127,2.411,2.54
-0.780482,-0.13127,2.411,2.53758
-0.772656,-0.13127,2.411,2.53518
-0.764831,-0.13127,2.411,2.53281
-0.762343,-0.132196,2.428,2.5483
-0.754462,-0.132196,2.428,2.54595
-0.746581,-0.132196,2.428,2.54363
-0.738701,-0.132196,2.428,2.54133
-0.73082,-0.132196,2.428,2.53905
-0.722939,-0.132196,2.428,2.53679
-0.715059,-0.132196,2.428,2.53456
-0.707178,-0.132196,2.428,2.53234
-0.704194,-0.133121,2.445,2.54787
-0.696258,-0.133121,2.445,2.54569
-0.688322,-0.133121,2.445,2.54353
-0.680386,-0.133121,2.445,2.54139
-0.67245,-0.133121,2.445,2.53928
-0.664514,-0.133121,2.445,2.53719
-0.656578,-0.133121,2.445,2.53512
-0.648643,-0.133121,2.445,2.53308
-0.645424,-0.134101,2.463,2.54969
-0.637429,-0.134101,2.463,2.54768
-0.629435,-0.134101,2.463,2.54569
-0.621441,-0.134101,2.463,2.54373
-0.613446,-0.134101,2.463,2.54178
-0.605452,-0.134101,2.463,2.53987
-0.597458,-0.134101,2.463,2.53797
-0.589464,-0.134101,2.463,2.5361
-0.581469,-0.134101,2.463,2.53426
-0.573475,-0.134101,2.463,2.53243
-0.565481,-0.134101,2.463,2.53064
-0.557486,-0.134101,2.463,2.52886
-0.553508,-0.135081,2.481,2.54558
-0.545455,-0.135081,2.481,2.54384
-0.537403,-0.135081,2.481,2.54213
-0.52935,-0.135081,2.481,2.54044
-0.521297,-0.135081,2.481,2.53877
-0.513244,-0.135081,2.481,2.53713
-0.505192,-0.135081,2.481,2.53551
-0.497139,-0.135081,2.481,2.53392
-0.489086,-0.135081,2.481,2.53235
-0.481034,-0.135081,2.481,2.53081
-0.472981,-0.135081,2.481,2.52929
-0.464928,-0.135081,2.481,2.5278
-0.456875,-0.135081,2.481,2.52633
-0.448823,-0.135081,2.481,2.52489
-0.44077,-0.135081,2.481,2.52347
-0.432717,-0.135081,2.481,2.52207
-0.424665,-0.135081,2.481,2.5207
-0.419634,-0.136061,2.499,2.53764
-0.411523,-0.136061,2.499,2.53631
-0.403412,-0.136061,2.499,2.53501
-0.395301,-0.136061,2.499,2.53373
-0.38719,-0.136061,2.499,2.53248
-0.379079,-0.136061,2.499,2.53125
-0.370968,-0.136061,2.499,2.53005
-0.362857,-0.136061,2.499,2.52887
-0.354745,-0.136061,2.499,2.52772
-0.346634,-0.136061,2.499,2.52659
-0.338523,-0.136061,2.499,2.52549
-0.330412,-0.136061,2.499,2.52442
-0.322301,-0.136061,2.499,2.52337
-0.31419,-0.136061,2.499,2.52235
-0.306079,-0.136061,2.499,2.52135
-0.297967,-0.136061,2.499,2.52038
-0.289856,-0.136061,2.499,2.51943
-0.281745,-0.136061,2.499,2.51851
-0.273634,-0.136061,2.499,2.51762
-0.265523,-0.136061,2.499,2.51675
-0.257412,-0.136061,2.499,2.5159
-0.247505,-0.135081,2.481,2.49697
-0.239452,-0.135081,2.481,2.49619
-0.2314,-0.135081,2.481,2.49543
-0.223347,-0.135081,2.481,2.49469
-0.215294,-0.135081,2.481,2.49398
-0.207241,-0.135081,2.481,2.4933
-0.199189,-0.135081,2.481,2.49265
-0.189749,-0.134101,2.463,2.47394
-0.181755,-0.134101,2.463,2.47334
-0.173761,-0.134101,2.463,2.47276
-0.165766,-0.134101,2.463,2.47221
-0.158925,-0.135081,2.481,2.48975
-0.149778,-0.134101,2.463,2.47119
-0.141784,-0.134101,2.463,2.47072
-0.133789,-0.134101,2.463,2.47027
-0.125795,-0.134101,2.463,2.46985
-0.118662,-0.135081,2.481,2.48751
-0.110609,-0.135081,2.481,2.48714
-0.101812,-0.134101,2.463,2.46875
-0.0938178,-0.134101,2.463,2.46843
-0.0858236,-0.134101,2.463,2.46814
-0.0778293,-0.134101,2.463,2.46788
-0.069835,-0.134101,2.463,2.46764
-0.0618407,-0.134101,2.463,2.46742
-0.0534529,-0.133121,2.445,2.4492
-0.045517,-0.133121,2.445,2.44904
-0.0375812,-0.133121,2.445,2.44891
-0.0296453,-0.133121,2.445,2.4488
-0.0215585,-0.132196,2.428,2.43169
-0.0136778,-0.132196,2.428,2.43163
-0.00579712,-0.132196,2.428,2.4316
0.00206898,-0.13127,2.411,2.41457
0.00989449,-0.13127,2.411,2.41459
0.01772,-0.13127,2.411,2.41464
0.0255455,-0.13127,2.411,2.41471
0.033371,-0.13127,2.411,2.4148
0.0411965,-0.13127,2.411,2.41492
0.049022,-0.13127,2.411,2.41507
0.0572484,-0.132196,2.428,2.43227
0.0655851,-0.133121,2.445,2.4495
0.0735209,-0.133121,2.445,2.44972
0.0814568,-0.133121,2.445,2.44998
0.0893926,-0.133121,2.445,2.45025
0.0973285,-0.133121,2.445,2.45056
0.106039,-0.134101,2.463,2.46893
0.114034,-0.134101,2.463,2.46928
0.122028,-0.134101,2.463,2.46966
0.130022,-0.134101,2.463,2.47007
0.139025,-0.135081,2.481,2.48856
0.147078,-0.135081,2.481,2.48902
0.155131,-0.135081,2.481,2.48951
0.163183,-0.135081,2.481,2.49003
0.172478,-0.136061,2.499,2.50864
0.180589,-0.136061,2.499,2.50921
0.187341,-0.135081,2.481,2.49173
0.195394,-0.135081,2.481,2.49235
0.203447,-0.135081,2.481,2.49299
0.2115,-0.135081,2.481,2.49366
0.221145,-0.136061,2.499,2.51245
0.229256,-0.136061,2.499,2.51318
0.237367,-0.136061,2.499,2.51393
0.245479,-0.136061,2.499,2.51471
0.25359,-0.136061,2.499,2.51552
0.261701,-0.136061,2.499,2.51635
0.269812,-0.136061,2.499,2.5172
0.277923,-0.136061,2.499,2.51809
0.286034,-0.136061,2.499,2.51899
0.294145,-0.136061,2.499,2.51993
0.302256,-0.136061,2.499,2.52089
0.310368,-0.136061,2.499,2.52187
0.320773,-0.137042,2.517,2.54106
0.328942,-0.137042,2.517,2.5421
0.337112,-0.137042,2.517,2.54317
0.345281,-0.137042,2.517,2.54427
0.353451,-0.137042,2.517,2.54539
0.36162,-0.137042,2.517,2.54653
0.36979,-0.137042,2.517,2.54771
0.37796,-0.137042,2.517,2.54891
0.386129,-0.137042,2.517,2.55013
0.394299,-0.137042,2.517,2.55138
0.402468,-0.137042,2.517,2.55266
0.410638,-0.137042,2.517,2.55396
0.418807,-0.137042,2.517,2.55528
0.423923,-0.136061,2.499,2.53835
0.432035,-0.136061,2.499,2.53972
0.443316,-0.137042,2.517,2.55941
0.448257,-0.136061,2.499,2.54253
0.456368,-0.136061,2.499,2.54397
0.464479,-0.136061,2.499,2.54544
0.47259,-0.136061,2.499,2.54693
0.484164,-0.137042,2.517,2.5668
0.492333,-0.137042,2.517,2.56836
0.500503,-0.137042,2.517,2.56994
0.508672,-0.137042,2.517,2.57154
0.516842,-0.137042,2.517,2.57317
0.525012,-0.137042,2.517,2.57482
0.533181,-0.137042,2.517,2.5765
0.541351,-0.137042,2.517,2.5782
0.54952,-0.137042,2.517,2.57993
0.55769,-0.137042,2.517,2.58168
0.565859,-0.137042,2.517,2.58346
0.574029,-0.137042,2.517,2.58526
0.582199,-0.137042,2.517,2.58709
0.590368,-0.137042,2.517,2.58894
0.598538,-0.137042,2.517,2.59081
0.606707,-0.137042,2.517,2.59271
0.614877,-0.137042,2.517,2.59464
0.623046,-0.137042,2.517,2.59659
0.631216,-0.137042,2.517,2.59856
0.639385,-0.137042,2.517,2.60055
0.647555,-0.137042,2.517,2.60258
0.655725,-0.137042,2.517,2.60462
0.663894,-0.137042,2.517,2.60669
0.672064,-0.137042,2.517,2.60878
0.680233,-0.137042,2.517,2.6109
0.688403,-0.137042,2.517,2.61304
0.696572,-0.137042,2.517,2.6152
0.704742,-0.137042,2.517,2.61739
0.712911,-0.137042,2.517,2.6196
0.721081,-0.137042,2.517,2.62184
0.724035,-0.136061,2.499,2.60533
0.732147,-0.136061,2.499,2.6076
0.740258,-0.136061,2.499,2.60988
0.753759,-0.137042,2.517,2.63101
0.761929,-0.137042,2.517,2.63336
0.770098,-0.137042,2.517,2.63574
0.778268,-0.137042,2.517,2.63814
0.786437,-0.137042,2.517,2.64056
0.794607,-0.137042,2.517,2.643
0.802777,-0.137042,2.517,2.64547
0.810946,-0.137042,2.517,2.64796
0.819116,-0.137042,2.517,2.65048
0.827285,-0.137042,2.517,2.65301
0.835455,-0.137042,2.517,2.65557
0.843624,-0.137042,2.517,2.65815
0.851794,-0.137042,2.517,2.66076
0.859963,-0.137042,2.517,2.66338
0.874686,-0.138076,2.536,2.68616
0.876303,-0.137042,2.517,2.6687
0.884472,-0.137042,2.517,2.6714
0.892642,-0.137042,2.517,2.67411
0.900811,-0.137042,2.517,2.67685
0.908981,-0.137042,2.517,2.67961
0.91715,-0.137042,2.517,2.68239
0.92532,-0.137042,2.517,2.6852
0.933489,-0.137042,2.517,2.68802
0.934925,-0.136061,2.499,2.67163
0.943036,-0.136061,2.499,2.67448
0.951147,-0.136061,2.499,2.67735
0.952349,-0.135081,2.481,2.66094
0.960401,-0.135081,2.481,2.66383
0.968454,-0.135081,2.481,2.66674
0.969422,-0.134101,2.463,2.65031
0.977417,-0.134101,2.463,2.65324
0.985411,-0.134101,2.463,2.6562
0.993405,-0.134101,2.463,2.65917
1.0014,-0.134101,2.463,2.66217
1.00939,-0.134101,2.463,2.66519
1.02482,-0.135081,2.481,2.68773
1.03288,-0.135081,2.481,2.69081
1.05603,-0.137042,2.517,2.733
1.0642,-0.137042,2.517,2.73616
nan,nan,nan,NaN
nan,nan,nan,NaN
nan,nan,nan,NaN
nan,nan,nan,NaN
nan,nan,nan,NaN
nan,nan,nan,NaN
nan,nan,nan,NaN
nan,nan,nan,NaN
nan,nan,nan,NaN
nan,nan,nan,NaN
nan,nan,nan,NaN
nan,nan,nan,NaN
nan,nan,nan,NaN
nan,nan,nan,NaN
nan,nan,nan,NaN
nan,nan,nan,NaN
nan,nan,nan,NaN
nan,nan,nan,NaN
nan,nan,nan,NaN
nan,nan,nan,NaN
nan,nan,nan,NaN
nan,nan,nan,NaN
nan,nan,nan,NaN
nan,nan,nan,NaN
nan,nan,nan,NaN
nan,nan,nan,NaN
nan,nan,nan,NaN
nan,nan,nan,NaN
nan,nan,nan,NaN
nan,nan,nan,NaN
nan,nan,nan,NaN
nan,nan,nan,NaN
1.83245,-0.188276,3.458,3.91805
1.84367,-0.188276,3.458,3.92331
1.89298,-0.192141,3.529,4.00926
1.9244,-0.194156,3.566,4.05677
1.93598,-0.194156,3.566,4.06227
1.9683,-0.196225,3.604,4.11115
2.00088,-0.198294,3.642,4.16017
2.0127,-0.198294,3.642,4.16587
2.02452,-0.198294,3.642,4.17159
2.03634,-0.198294,3.642,4.17734
2.04816,-0.198294,3.642,4.18312
2.05998,-0.198294,3.642,4.18892
2.05019,-0.196225,3.604,4.15097
2.06189,-0.196225,3.604,4.15676
2.05172,-0.194156,3.566,4.11869
2.02106,-0.190181,3.493,4.04004
2.03239,-0.190181,3.493,4.04572
2.02325,-0.188276,3.458,4.01083
1.97447,-0.182722,3.356,3.89803
1.98536,-0.182722,3.356,3.90356
1.99625,-0.182722,3.356,3.90911
1.94973,-0.177495,3.26,3.8027
1.96031,-0.177495,3.26,3.80814
1.93401,-0.174174,3.199,3.74224
1.89152,-0.169437,3.112,3.64569
1.90162,-0.169437,3.112,3.65095
1.89452,-0.167913,3.084,3.62332
1.87118,-0.164973,3.03,3.56503
1.88101,-0.164973,3.03,3.5702
1.89085,-0.164973,3.03,3.57539
1.90068,-0.164973,3.03,3.5806
nan,nan,nan,NaN
1.85444,-0.15931,2.926,3.46782
1.83272,-0.156642,2.877,3.41475
1.84206,-0.156642,2.877,3.41977
1.82051,-0.154029,2.829,3.36767
1.81482,-0.152777,2.806,3.34523
1.79467,-0.150326,2.761,3.29645
1.80364,-0.150326,2.761,3.30134
1.79815,-0.149129,2.739,3.2799
1.77867,-0.146787,2.696,3.23321
1.78743,-0.146787,2.696,3.23803
1.78218,-0.145644,2.675,3.21761
1.76275,-0.143357,2.633,3.17183
1.77129,-0.143357,2.633,3.17659
1.7528,-0.141179,2.593,3.13303
1.74831,-0.140145,2.574,3.11476
-2.01252,-0.148536,2.901,3.53385
-2.0031,-0.148536,2.901,3.5285
-1.99369,-0.148536,2.901,3.52316
-1.98427,-0.148536,2.901,3.51784
-1.95852,-0.147307,2.877,3.48348
-1.94918,-0.147307,2.877,3.47824
-1.92366,-0.146078,2.853,3.44404
-1.89829,-0.144849,2.829,3.40995
-1.88911,-0.144849,2.829,3.40484
-1.87993,-0.144849,2.829,3.39976
-1.88662,-0.146078,2.853,3.42349
-1.87736,-0.146078,2.853,3.41839
-1.85238,-0.144849,2.829,3.3846
-1.8432,-0.144849,2.829,3.37959
-1.83402,-0.144849,2.829,3.37459
-1.82484,-0.144849,2.829,3.36961
-1.81565,-0.144849,2.829,3.36464
-1.80647,-0.144849,2.829,3.3597
-1.81254,-0.146078,2.853,3.38323
-1.80328,-0.146078,2.853,3.37828
-1.79402,-0.146078,2.853,3.37334
-1.78476,-0.146078,2.853,3.36843
-1.7755,-0.146078,2.853,3.36353
-1.78109,-0.147307,2.877,3.3869
-1.77176,-0.147307,2.877,3.382
-1.77712,-0.148536,2.901,3.40529
-1.7677,-0.148536,2.901,3.40039
-1.75829,-0.148536,2.901,3.3955
-1.74887,-0.148536,2.901,3.39064
-1.73946,-0.148536,2.901,3.38579
-1.73004,-0.148536,2.901,3.38096
-1.72062,-0.148536,2.901,3.37615
-1.71121,-0.148536,2.901,3.37136
-1.70179,-0.148536,2.901,3.3666
-1.67838,-0.147307,2.877,3.33403
-1.66904,-0.147307,2.877,3.32934
-1.6597,-0.147307,2.877,3.32467
nan,nan,nan,NaN
nan,nan,nan,NaN
nan,nan,nan,NaN
nan,nan,nan,NaN
nan,nan,nan,NaN
nan,nan,nan,NaN
nan,nan,nan,NaN
nan,nan,nan,NaN
nan,nan,nan,NaN
nan,nan,nan,NaN
nan,nan,nan,NaN
nan,nan,nan,NaN
nan,nan,nan,NaN
nan,nan,nan,NaN
nan,nan,nan,NaN
nan,nan,nan,NaN
nan,nan,nan,NaN
nan,nan,nan,NaN
nan,nan,nan,NaN
nan,nan,nan,NaN
nan,nan,nan,NaN
nan,nan,nan,NaN
nan,nan,nan,NaN
nan,nan,nan,NaN
nan,nan,nan,NaN
-1.23075,-0.127953,2.499,2.78857
-1.20502,-0.126109,2.463,2.74488
-1.19703,-0.126109,2.463,2.74138
-1.18904,-0.126109,2.463,2.7379
-1.18104,-0.126109,2.463,2.73443
-1.17305,-0.126109,2.463,2.73099
-1.15654,-0.125188,2.445,2.70763
-1.14062,-0.124317,2.428,2.68545
-1.13274,-0.124317,2.428,2.68211
-1.11698,-0.123447,2.411,2.66004
-1.10915,-0.123447,2.411,2.65676
-1.09356,-0.122576,2.394,2.63479
-1.08579,-0.122576,2.394,2.63158
-1.07802,-0.122576,2.394,2.62838
-1.06265,-0.121706,2.377,2.60656
-1.05494,-0.121706,2.377,2.60343
-1.04722,-0.121706,2.377,2.60031
-1.03251,-0.120887,2.361,2.57973
-1.02485,-0.120887,2.361,2.57667
-1.01718,-0.120887,2.361,2.57363
-1.00952,-0.120887,2.361,2.57062
-1.00865,-0.121706,2.377,2.58502
-1.00093,-0.121706,2.377,2.58202
-0.993215,-0.121706,2.377,2.57903
-0.9855,-0.121706,2.377,2.57607
-0.977785,-0.121706,2.377,2.57313
-0.970069,-0.121706,2.377,2.57021
-0.962354,-0.121706,2.377,2.56731
-0.954639,-0.121706,2.377,2.56443
-0.946924,-0.121706,2.377,2.56156
-0.939209,-0.121706,2.377,2.55872
-0.931494,-0.121706,2.377,2.5559
-0.923778,-0.121706,2.377,2.5531
-0.916063,-0.121706,2.377,2.55032
-0.902234,-0.120887,2.361,2.53041
-0.894571,-0.120887,2.361,2.52768
-0.886907,-0.120887,2.361,2.52498
-0.879244,-0.120887,2.361,2.5223
-0.871581,-0.120887,2.361,2.51964
-0.863918,-0.120887,2.361,2.517
-0.862057,-0.121706,2.377,2.53142
-0.854342,-0.121706,2.377,2.5288
-0.846627,-0.121706,2.377,2.52621
-0.838912,-0.121706,2.377,2.52363
-0.831197,-0.121706,2.377,2.52108
-0.823481,-0.121706,2.377,2.51854
-0.815766,-0.121706,2.377,2.51603
-0.81383,-0.122576,2.394,2.53152
-0.80606,-0.122576,2.394,2.52903
-0.79829,-0.122576,2.394,2.52656
-0.796133,-0.123447,2.411,2.54204
-0.788307,-0.123447,2.411,2.5396
-0.780482,-0.123447,2.411,2.53719
-0.772656,-0.123447,2.411,2.53479
-0.764831,-0.123447,2.411,2.53242
-0.762343,-0.124317,2.428,2.5479
-0.754462,-0.124317,2.428,2.54556
-0.746581,-0.124317,2.428,2.54323
-0.738701,-0.124317,2.428,2.54093
-0.73082,-0.124317,2.428,2.53865
-0.722939,-0.124317,2.428,2.53639
-0.715059,-0.124317,2.428,2.53416
-0.707178,-0.124317,2.428,2.53194
-0.699297,-0.124317,2.428,2.52975
-0.696258,-0.125188,2.445,2.54528
-0.688322,-0.125188,2.445,2.54313
-0.680386,-0.125188,2.445,2.54099
-0.67245,-0.125188,2.445,2.53888
-0.664514,-0.125188,2.445,2.53678
-0.656578,-0.125188,2.445,2.53472
-0.648643,-0.125188,2.445,2.53267
-0.640707,-0.125188,2.445,2.53065
-0.632771,-0.125188,2.445,2.52866
-0.624835,-0.125188,2.445,2.52668
-0.616899,-0.125188,2.445,2.52473
-0.608963,-0.125188,2.445,2.5228
-0.601027,-0.125188,2.445,2.5209
-0.597458,-0.126109,2.463,2.53756
-0.589464,-0.126109,2.463,2.53569
-0.581469,-0.126109,2.463,2.53385
-0.573475,-0.126109,2.463,2.53202
-0.565481,-0.126109,2.463,2.53023
-0.557486,-0.126109,2.463,2.52845
-0.549492,-0.126109,2.463,2.5267
-0.541498,-0.126109,2.463,2.52497
-0.533504,-0.126109,2.463,2.52327
-0.525509,-0.126109,2.463,2.52159
-0.517515,-0.126109,2.463,2.51994
-0.509521,-0.126109,2.463,2.51831
-0.501526,-0.126109,2.463,2.5167
-0.493532,-0.126109,2.463,2.51512
-0.489086,-0.127031,2.481,2.53194
-0.481034,-0.127031,2.481,2.53039
-0.472981,-0.127031,2.481,2.52888
-0.464928,-0.127031,2.481,2.52738
-0.456875,-0.127031,2.481,2.52591
-0.448823,-0.127031,2.481,2.52447
-0.44077,-0.127031,2.481,2.52305
-0.432717,-0.127031,2.481,2.52165
-0.424665,-0.127031,2.481,2.52029
-0.416612,-0.127031,2.481,2.51894
-0.408559,-0.127031,2.481,2.51762
-0.400506,-0.127031,2.481,2.51633
-0.392454,-0.127031,2.481,2.51506
-0.384401,-0.127031,2.481,2.51381
-0.376348,-0.127031,2.481,2.5126
-0.368296,-0.127031,2.481,2.5114
-0.360243,-0.127031,2.481,2.51023
-0.35219,-0.127031,2.481,2.50909
-0.344137,-0.127031,2.481,2.50797
-0.336085,-0.127031,2.481,2.50688
-0.328032,-0.127031,2.481,2.50581
-0.319979,-0.127031,2.481,2.50477
-0.311927,-0.127031,2.481,2.50376
-0.306079,-0.127953,2.499,2.52092
-0.297967,-0.127953,2.499,2.51995
-0.289856,-0.127953,2.499,2.51901
-0.281745,-0.127953,2.499,2.51809
-0.273634,-0.127953,2.499,2.51719
-0.26361,-0.127031,2.481,2.4982
-0.255558,-0.127031,2.481,2.49736
-0.247505,-0.127031,2.481,2.49655
-0.239452,-0.127031,2.481,2.49576
-0.2314,-0.127031,2.481,2.495
-0.223347,-0.127031,2.481,2.49427
-0.215294,-0.127031,2.481,2.49356
-0.207241,-0.127031,2.481,2.49288
-0.199189,-0.127031,2.481,2.49222
-0.189749,-0.126109,2.463,2.47352
-0.181755,-0.126109,2.463,2.47291
-0.173761,-0.126109,2.463,2.47234
-0.165766,-0.126109,2.463,2.47179
-0.158925,-0.127031,2.481,2.48933
-0.149778,-0.126109,2.463,2.47077
-0.141784,-0.126109,2.463,2.4703
-0.133789,-0.126109,2.463,2.46985
-0.125795,-0.126109,2.463,2.46943
-0.118662,-0.127031,2.481,2.48708
-0.110609,-0.127031,2.481,2.48671
-0.101812,-0.126109,2.463,2.46833
-0.0938178,-0.126109,2.463,2.46801
-0.0858236,-0.126109,2.463,2.46772
-0.0778293,-0.126109,2.463,2.46745
-0.069835,-0.126109,2.463,2.46722
-0.0618407,-0.126109,2.463,2.467
-0.0534529,-0.125188,2.445,2.44879
-0.045517,-0.125188,2.445,2.44863
-0.0375812,-0.125188,2.445,2.44849
-0.0296453,-0.125188,2.445,2.44838
-0.0215585,-0.124317,2.428,2.43128
-0.0136778,-0.124317,2.428,2.43122
-0.00579712,-0.124317,2.428,2.43119
0.00208357,-0.124317,2.428,2.43118
0.00996425,-0.124317,2.428,2.4312
0.0178449,-0.124317,2.428,2.43125
0.0257256,-0.124317,2.428,2.43132
0.0336063,-0.124317,2.428,2.43141
0.041487,-0.124317,2.428,2.43153
0.0493677,-0.124317,2.428,2.43168
0.0572484,-0.124317,2.428,2.43185
0.0655851,-0.125188,2.445,2.44908
0.0735209,-0.125188,2.445,2.44931
0.0814568,-0.125188,2.445,2.44956
0.0893926,-0.125188,2.445,2.44983
0.0973285,-0.125188,2.445,2.45014
0.106039,-0.126109,2.463,2.4685
0.114034,-0.126109,2.463,2.46886
0.122028,-0.126109,2.463,2.46924
0.130022,-0.126109,2.463,2.46965
0.139025,-0.127031,2.481,2.48814
0.147078,-0.127031,2.481,2.4886
0.155131,-0.127031,2.481,2.48909
0.163183,-0.127031,2.481,2.4896
0.172478,-0.127953,2.499,2.50821
0.180589,-0.127953,2.499,2.50878
0.187341,-0.127031,2.481,2.4913
0.195394,-0.127031,2.481,2.49192
0.203447,-0.127031,2.481,2.49257
0.2115,-0.127031,2.481,2.49324
0.221145,-0.127953,2.499,2.51203
0.229256,-0.127953,2.499,2.51275
0.237367,-0.127953,2.499,2.51351
0.245479,-0.127953,2.499,2.51429
0.25359,-0.127953,2.499,2.51509
0.261701,-0.127953,2.499,2.51592
0.269812,-0.127953,2.499,2.51678
0.277923,-0.127953,2.499,2.51766
