0.198229,-0.382059,2.517,2.55354
0.206399,-0.382059,2.517,2.55418
0.214568,-0.382059,2.517,2.55486
0.222738,-0.382059,2.517,2.55556
0.230908,-0.382059,2.517,2.55628
0.239077,-0.382059,2.517,2.55703
0.249113,-0.384943,2.536,2.57712
0.257344,-0.384943,2.536,2.57793
0.265575,-0.384943,2.536,2.57876
0.273807,-0.384943,2.536,2.57962
0.282038,-0.384943,2.536,2.58051
0.290269,-0.384943,2.536,2.58142
0.2985,-0.384943,2.536,2.58236
0.306732,-0.384943,2.536,2.58332
0.314963,-0.384943,2.536,2.58431
0.323194,-0.384943,2.536,2.58533
0.331425,-0.384943,2.536,2.58637
0.339657,-0.384943,2.536,2.58744
0.347888,-0.384943,2.536,2.58853
0.356119,-0.384943,2.536,2.58965
0.36435,-0.384943,2.536,2.5908
0.372581,-0.384943,2.536,2.59197
0.380813,-0.384943,2.536,2.59316
0.391959,-0.387827,2.555,2.61382
0.400252,-0.387827,2.555,2.61508
0.408544,-0.387827,2.555,2.61636
0.416837,-0.387827,2.555,2.61767
0.42513,-0.387827,2.555,2.619
0.433423,-0.387827,2.555,2.62036
0.445001,-0.390711,2.574,2.64124
0.453355,-0.390711,2.574,2.64266
0.46171,-0.390711,2.574,2.64411
0.470064,-0.390711,2.574,2.64558
0.478419,-0.390711,2.574,2.64708
0.48318,-0.387827,2.555,2.62905
0.491473,-0.387827,2.555,2.63059
0.499766,-0.387827,2.555,2.63215
0.504281,-0.384943,2.536,2.61415
0.512512,-0.384943,2.536,2.61575
0.520743,-0.384943,2.536,2.61737
0.528975,-0.384943,2.536,2.61902
0.537206,-0.384943,2.536,2.6207
0.545437,-0.384943,2.536,2.6224
0.54952,-0.382059,2.517,2.60446
0.55769,-0.382059,2.517,2.6062
0.565859,-0.382059,2.517,2.60796
0.574029,-0.382059,2.517,2.60975
0.582199,-0.382059,2.517,2.61155
0.594824,-0.384943,2.536,2.63311
0.603056,-0.384943,2.536,2.63499
0.611287,-0.384943,2.536,2.63688
0.619518,-0.384943,2.536,2.6388
0.627749,-0.384943,2.536,2.64075
0.635981,-0.384943,2.536,2.64272
0.644212,-0.384943,2.536,2.64471
0.652443,-0.384943,2.536,2.64673
0.660674,-0.384943,2.536,2.64877
0.668906,-0.384943,2.536,2.65083
0.677137,-0.384943,2.536,2.65292
0.685368,-0.384943,2.536,2.65503
0.693599,-0.384943,2.536,2.65717
0.70183,-0.384943,2.536,2.65933
0.710062,-0.384943,2.536,2.66152
0.718293,-0.384943,2.536,2.66372
0.721081,-0.382059,2.517,2.64598
0.729251,-0.382059,2.517,2.64822
0.73742,-0.382059,2.517,2.65048
0.74559,-0.382059,2.517,2.65277
0.753759,-0.382059,2.517,2.65507
0.75648,-0.379327,2.499,2.6384
0.764591,-0.379327,2.499,2.64074
0.772702,-0.379327,2.499,2.6431
0.780813,-0.379327,2.499,2.64548
0.788924,-0.379327,2.499,2.64788
0.797036,-0.379327,2.499,2.65031
0.805147,-0.379327,2.499,2.65276
0.813258,-0.379327,2.499,2.65524
0.821369,-0.379327,2.499,2.65773
0.82948,-0.379327,2.499,2.66025
0.837591,-0.379327,2.499,2.66279
0.839611,-0.376595,2.481,2.64615
0.847664,-0.376595,2.481,2.64872
0.855716,-0.376595,2.481,2.65131
0.863769,-0.376595,2.481,2.65392
0.865497,-0.373862,2.463,2.63728
0.873491,-0.373862,2.463,2.63991
0.881485,-0.373862,2.463,2.64257
0.882979,-0.37113,2.445,2.62591
0.890915,-0.37113,2.445,2.62859
0.898851,-0.37113,2.445,2.63129
0.906787,-0.37113,2.445,2.63401
0.914722,-0.37113,2.445,2.63676
0.916243,-0.36855,2.428,2.62117
0.924124,-0.36855,2.428,2.62393
0.932004,-0.36855,2.428,2.62672
0.939885,-0.36855,2.428,2.62952
0.947766,-0.36855,2.428,2.63235
0.955646,-0.36855,2.428,2.6352
0.963527,-0.36855,2.428,2.63807
0.971408,-0.36855,2.428,2.64096
0.979289,-0.36855,2.428,2.64386
0.987169,-0.36855,2.428,2.64679
0.99505,-0.36855,2.428,2.64974
1.00293,-0.36855,2.428,2.65271
1.02538,-0.373862,2.463,2.69398
1.03338,-0.373862,2.463,2.69704
nan,nan,nan,NaN
nan,nan,nan,NaN
nan,nan,nan,NaN
1.22366,-0.429418,2.829,3.11207
1.23285,-0.429418,2.829,3.11569
1.34213,-0.464027,3.057,3.37074
1.35205,-0.464027,3.057,3.3747
1.36197,-0.464027,3.057,3.37869
1.38401,-0.468125,3.084,3.41258
1.39402,-0.468125,3.084,3.41665
1.40403,-0.468125,3.084,3.42075
1.42688,-0.472375,3.112,3.45596
1.43698,-0.472375,3.112,3.46014
1.44708,-0.472375,3.112,3.46435
1.45718,-0.472375,3.112,3.46858
1.46728,-0.472375,3.112,3.47284
1.47738,-0.472375,3.112,3.47712
1.48749,-0.472375,3.112,3.48142
1.49759,-0.472375,3.112,3.48575
1.50769,-0.472375,3.112,3.4901
1.51779,-0.472375,3.112,3.49448
1.54213,-0.476777,3.141,3.53148
1.55232,-0.476777,3.141,3.53594
1.56252,-0.476777,3.141,3.54043
1.57271,-0.476777,3.141,3.54494
1.59752,-0.481179,3.17,3.58225
1.60781,-0.481179,3.17,3.58685
1.6181,-0.481179,3.17,3.59147
1.65921,-0.490286,3.23,3.66419
1.6852,-0.49484,3.26,3.70302
1.69578,-0.49484,3.26,3.70785
1.72311,-0.499698,3.292,3.74914
1.75065,-0.504555,3.324,3.79056
1.76144,-0.504555,3.324,3.79555
1.77223,-0.504555,3.324,3.80057
1.80018,-0.509412,3.356,3.84225
1.81108,-0.509412,3.356,3.84737
1.85834,-0.519582,3.423,3.92942
1.88857,-0.524895,3.458,3.97492
1.88056,-0.519582,3.423,3.93998
1.89167,-0.519582,3.423,3.94529
1.90278,-0.519582,3.423,3.95063
1.93346,-0.524895,3.458,3.99644
1.94469,-0.524895,3.458,4.00189
1.95591,-0.524895,3.458,4.00735
1.98704,-0.530208,3.493,4.05346
1.99838,-0.530208,3.493,4.05903
2.00972,-0.530208,3.493,4.06462
2.02106,-0.530208,3.493,4.07024
2.03239,-0.530208,3.493,4.07588
2.02325,-0.524895,3.458,4.04065
2.03448,-0.524895,3.458,4.04628
2.0457,-0.524895,3.458,4.05193
2.03611,-0.519582,3.423,4.01654
2.00714,-0.509412,3.356,3.94346
2.01804,-0.509412,3.356,3.94901
2.00958,-0.504555,3.324,3.91688
2.00092,-0.499698,3.292,3.88467
2.01161,-0.499698,3.292,3.89018
1.98421,-0.490286,3.23,3.82235
1.93973,-0.476777,3.141,3.72233
1.94992,-0.476777,3.141,3.72765
1.92455,-0.468125,3.084,3.66525
1.93456,-0.468125,3.084,3.67052
nan,nan,nan,NaN
1.85444,-0.444142,2.926,3.49252
1.83272,-0.436704,2.877,3.439
1.84206,-0.436704,2.877,3.44398
1.82051,-0.429418,2.829,3.39144
1.81482,-0.425927,2.806,3.36877
1.82392,-0.425927,2.806,3.37368
1.83303,-0.425927,2.806,3.37862
1.82704,-0.422436,2.783,3.35583
1.83607,-0.422436,2.783,3.36076
1.81593,-0.415757,2.739,3.31249
1.82482,-0.415757,2.739,3.31737
1.83371,-0.415757,2.739,3.32227
1.8426,-0.415757,2.739,3.32719
1.83662,-0.412417,2.717,3.30535
1.83118,-0.40923,2.696,3.28468
-2.30597,-0.493769,3.324,4.07557
-2.29518,-0.493769,3.324,4.06948
-2.28439,-0.493769,3.324,4.0634
-2.2736,-0.493769,3.324,4.05734
-2.26281,-0.493769,3.324,4.05131
-2.25202,-0.493769,3.324,4.04529
-2.21966,-0.489016,3.292,4.00041
-2.20897,-0.489016,3.292,3.99449
-2.19829,-0.489016,3.292,3.98859
-2.1876,-0.489016,3.292,3.98271
-2.17692,-0.489016,3.292,3.97685
-2.16623,-0.489016,3.292,3.97102
-2.15555,-0.489016,3.292,3.9652
-2.14486,-0.489016,3.292,3.9594
-2.13418,-0.489016,3.292,3.95362
-2.12349,-0.489016,3.292,3.94786
-2.11281,-0.489016,3.292,3.94213
-2.10212,-0.489016,3.292,3.93641
-2.11177,-0.493769,3.324,3.96892
-2.10098,-0.493769,3.324,3.96319
-2.09019,-0.493769,3.324,3.95748
-2.0794,-0.493769,3.324,3.9518
-2.06861,-0.493769,3.324,3.94613
-2.03801,-0.489016,3.292,3.90255
-2.02733,-0.489016,3.292,3.89698
-2.01664,-0.489016,3.292,3.89143
-2.00596,-0.489016,3.292,3.88591
-1.99527,-0.489016,3.292,3.8804
-1.98459,-0.489016,3.292,3.87492
-1.9739,-0.489016,3.292,3.86946
-1.9823,-0.493769,3.324,3.90158
nan,nan,nan,NaN
nan,nan,nan,NaN
nan,nan,nan,NaN
nan,nan,nan,NaN
nan,nan,nan,NaN
nan,nan,nan,NaN
nan,nan,nan,NaN
nan,nan,nan,NaN
nan,nan,nan,NaN
nan,nan,nan,NaN
nan,nan,nan,NaN
nan,nan,nan,NaN
nan,nan,nan,NaN
nan,nan,nan,NaN
nan,nan,nan,NaN
nan,nan,nan,NaN
nan,nan,nan,NaN
nan,nan,nan,NaN
nan,nan,nan,NaN
nan,nan,nan,NaN
nan,nan,nan,NaN
nan,nan,nan,NaN
nan,nan,nan,NaN
nan,nan,nan,NaN
nan,nan,nan,NaN
nan,nan,nan,NaN
nan,nan,nan,NaN
nan,nan,nan,NaN
nan,nan,nan,NaN
nan,nan,nan,NaN
nan,nan,nan,NaN
-1.18741,-0.358146,2.411,2.7113
-1.17958,-0.358146,2.411,2.70788
-1.17176,-0.358146,2.411,2.70448
-1.17214,-0.360671,2.428,2.72014
-1.16426,-0.360671,2.428,2.71676
-1.15638,-0.360671,2.428,2.71339
-1.1485,-0.360671,2.428,2.71004
-1.13263,-0.358146,2.411,2.68776
-1.1248,-0.358146,2.411,2.68447
-1.11698,-0.358146,2.411,2.6812
-1.10915,-0.358146,2.411,2.67795
-1.10909,-0.360671,2.428,2.69358
-1.10121,-0.360671,2.428,2.69034
-1.09333,-0.360671,2.428,2.68713
-1.08545,-0.360671,2.428,2.68393
-1.07757,-0.360671,2.428,2.68075
-1.0622,-0.358146,2.411,2.65885
-1.05437,-0.358146,2.411,2.65573
-1.04655,-0.358146,2.411,2.65263
-1.03872,-0.358146,2.411,2.64955
-1.0309,-0.358146,2.411,2.6465
-1.02307,-0.358146,2.411,2.64346
-1.01525,-0.358146,2.411,2.64044
-1.00742,-0.358146,2.411,2.63744
-0.999596,-0.358146,2.411,2.63446
-0.99177,-0.358146,2.411,2.6315
-0.983945,-0.358146,2.411,2.62856
-0.976119,-0.358146,2.411,2.62564
-0.975121,-0.360671,2.428,2.64124
-0.967241,-0.360671,2.428,2.63834
-0.95936,-0.360671,2.428,2.63546
-0.951479,-0.360671,2.428,2.6326
-0.943599,-0.360671,2.428,2.62976
-0.935718,-0.360671,2.428,2.62694
-0.927837,-0.360671,2.428,2.62415
-0.919957,-0.360671,2.428,2.62137
-0.912076,-0.360671,2.428,2.61862
-0.910526,-0.363196,2.445,2.6342
-0.90259,-0.363196,2.445,2.63146
-0.894654,-0.363196,2.445,2.62875
-0.886718,-0.363196,2.445,2.62606
-0.878783,-0.363196,2.445,2.62339
-0.870847,-0.363196,2.445,2.62075
-0.862911,-0.363196,2.445,2.61812
-0.861269,-0.36587,2.463,2.63477
-0.847039,-0.363196,2.445,2.61293
-0.839103,-0.363196,2.445,2.61037
-0.831167,-0.363196,2.445,2.60783
-0.823232,-0.363196,2.445,2.60531
-0.821298,-0.36587,2.463,2.62198
-0.80736,-0.363196,2.445,2.60034
-0.799424,-0.363196,2.445,2.59789
-0.791488,-0.363196,2.445,2.59546
-0.783552,-0.363196,2.445,2.59305
-0.775616,-0.363196,2.445,2.59066
-0.767681,-0.363196,2.445,2.58829
-0.759745,-0.363196,2.445,2.58595
-0.751809,-0.363196,2.445,2.58363
-0.743873,-0.363196,2.445,2.58133
-0.735937,-0.363196,2.445,2.57906
-0.728001,-0.363196,2.445,2.5768
-0.720065,-0.363196,2.445,2.57457
-0.712129,-0.363196,2.445,2.57237
-0.709378,-0.36587,2.463,2.5891
-0.701384,-0.36587,2.463,2.58692
-0.693389,-0.36587,2.463,2.58477
-0.690404,-0.368544,2.481,2.60151
-0.682351,-0.368544,2.481,2.59938
-0.674299,-0.368544,2.481,2.59728
-0.67108,-0.371218,2.499,2.61403
-0.662968,-0.371218,2.499,2.61196
-0.654857,-0.371218,2.499,2.60991
-0.646746,-0.371218,2.499,2.60789
-0.638635,-0.371218,2.499,2.60589
-0.630524,-0.371218,2.499,2.60391
-0.622413,-0.371218,2.499,2.60196
-0.614302,-0.371218,2.499,2.60003
-0.610557,-0.373892,2.517,2.61684
-0.602387,-0.373892,2.517,2.61495
-0.594218,-0.373892,2.517,2.61308
-0.586048,-0.373892,2.517,2.61123
-0.577879,-0.373892,2.517,2.60941
-0.569709,-0.373892,2.517,2.60761
-0.561539,-0.373892,2.517,2.60584
-0.55337,-0.373892,2.517,2.60409
-0.5452,-0.373892,2.517,2.60237
-0.537031,-0.373892,2.517,2.60067
-0.528861,-0.373892,2.517,2.599
-0.520692,-0.373892,2.517,2.59735
-0.512522,-0.373892,2.517,2.59572
-0.504353,-0.373892,2.517,2.59412
-0.496183,-0.373892,2.517,2.59254
-0.488013,-0.373892,2.517,2.59099
-0.479844,-0.373892,2.517,2.58947
-0.471674,-0.373892,2.517,2.58796
-0.463505,-0.373892,2.517,2.58649
-0.455335,-0.373892,2.517,2.58504
-0.447166,-0.373892,2.517,2.58361
-0.438996,-0.373892,2.517,2.58221
-0.430827,-0.373892,2.517,2.58083
-0.422657,-0.373892,2.517,2.57948
-0.414487,-0.373892,2.517,2.57816
-0.403412,-0.371218,2.499,2.55843
-0.395301,-0.371218,2.499,2.55716
-0.384401,-0.368544,2.481,2.53751
-0.376348,-0.368544,2.481,2.5363
-0.368296,-0.368544,2.481,2.53512
-0.360243,-0.368544,2.481,2.53396
-0.35219,-0.368544,2.481,2.53283
-0.344137,-0.368544,2.481,2.53172
-0.336085,-0.368544,2.481,2.53064
-0.328032,-0.368544,2.481,2.52958
-0.319979,-0.368544,2.481,2.52855
-0.311927,-0.368544,2.481,2.52755
-0.303874,-0.368544,2.481,2.52656
-0.293675,-0.36587,2.463,2.50728
-0.285681,-0.36587,2.463,2.50636
-0.277686,-0.36587,2.463,2.50546
-0.269692,-0.36587,2.463,2.50459
-0.261698,-0.36587,2.463,2.50374
-0.253704,-0.36587,2.463,2.50292
-0.243914,-0.363196,2.445,2.48383
-0.235978,-0.363196,2.445,2.48307
-0.228042,-0.363196,2.445,2.48233
-0.220106,-0.363196,2.445,2.48161
-0.21217,-0.363196,2.445,2.48092
-0.205738,-0.36587,2.463,2.49851
-0.197744,-0.36587,2.463,2.49787
-0.188363,-0.363196,2.445,2.479
-0.180427,-0.363196,2.445,2.4784
-0.172491,-0.363196,2.445,2.47784
-0.164555,-0.363196,2.445,2.4773
-0.156619,-0.363196,2.445,2.47679
-0.148683,-0.363196,2.445,2.4763
-0.140747,-0.363196,2.445,2.47583
-0.131888,-0.360671,2.428,2.45818
-0.124007,-0.360671,2.428,2.45777
-0.116127,-0.360671,2.428,2.45739
-0.108246,-0.360671,2.428,2.45703
-0.101068,-0.363196,2.445,2.47389
-0.0931322,-0.363196,2.445,2.47358
-0.0851963,-0.363196,2.445,2.4733
-0.0772605,-0.363196,2.445,2.47304
-0.0693246,-0.363196,2.445,2.4728
-0.0613887,-0.363196,2.445,2.47259
-0.0534529,-0.363196,2.445,2.47241
-0.0458521,-0.36587,2.463,2.49045
-0.0378578,-0.36587,2.463,2.49031
-0.0300818,-0.368544,2.481,2.5084
-0.0220291,-0.368544,2.481,2.50832
-0.0140778,-0.371218,2.499,2.52646
-0.00596664,-0.371218,2.499,2.52643
0.00215994,-0.373892,2.517,2.54462
0.0103295,-0.373892,2.517,2.54464
0.0184991,-0.373892,2.517,2.54469
0.0266686,-0.373892,2.517,2.54476
0.0348382,-0.373892,2.517,2.54486
0.0430077,-0.373892,2.517,2.54498
0.0511773,-0.373892,2.517,2.54513
0.0593468,-0.373892,2.517,2.54531
0.0670336,-0.371218,2.499,2.52731
0.0751447,-0.371218,2.499,2.52754
0.0832558,-0.371218,2.499,2.52779
0.0920251,-0.373892,2.517,2.54628
0.100195,-0.373892,2.517,2.54659
0.108364,-0.373892,2.517,2.54693
0.116534,-0.373892,2.517,2.54729
0.124703,-0.373892,2.517,2.54767
0.132873,-0.373892,2.517,2.54809
0.141042,-0.373892,2.517,2.54852
0.149212,-0.373892,2.517,2.54899
0.157382,-0.373892,2.517,2.54948
0.165551,-0.373892,2.517,2.55
0.173721,-0.373892,2.517,2.55054
0.18189,-0.373892,2.517,2.55111
0.19006,-0.373892,2.517,2.55171
0.199726,-0.376714,2.536,2.57159
0.207957,-0.376714,2.536,2.57225
0.216188,-0.376714,2.536,2.57293
0.224419,-0.376714,2.536,2.57363
0.232651,-0.376714,2.536,2.57436
0.240882,-0.376714,2.536,2.57512
0.249113,-0.376714,2.536,2.5759
0.257344,-0.376714,2.536,2.57671
0.265575,-0.376714,2.536,2.57755
0.275858,-0.379537,2.555,2.59772
0.284151,-0.379537,2.555,2.59862
0.292444,-0.379537,2.555,2.59954
0.300737,-0.379537,2.555,2.60048
0.30903,-0.379537,2.555,2.60146
0.317323,-0.379537,2.555,2.60245
0.325615,-0.379537,2.555,2.60348
0.333908,-0.379537,2.555,2.60453
0.342201,-0.379537,2.555,2.6056
0.350494,-0.379537,2.555,2.60671
0.358787,-0.379537,2.555,2.60783
0.36708,-0.379537,2.555,2.60899
0.375373,-0.379537,2.555,2.61017
0.383666,-0.379537,2.555,2.61137
0.391959,-0.379537,2.555,2.6126
0.400252,-0.379537,2.555,2.61386
0.408544,-0.379537,2.555,2.61514
0.419937,-0.382359,2.574,2.63591
0.428292,-0.382359,2.574,2.63725
0.436646,-0.382359,2.574,2.63862
0.445001,-0.382359,2.574,2.64002
0.453355,-0.382359,2.574,2.64144
0.465118,-0.385181,2.593,2.6624
0.473534,-0.385181,2.593,2.66388
0.481951,-0.385181,2.593,2.66539
0.486774,-0.382359,2.574,2.64738
0.491473,-0.379537,2.555,2.62938
0.499766,-0.379537,2.555,2.63094
0.504281,-0.376714,2.536,2.61295
0.512512,-0.376714,2.536,2.61455
0.520743,-0.376714,2.536,2.61618
0.528975,-0.376714,2.536,2.61783
0.537206,-0.376714,2.536,2.6195
0.545437,-0.376714,2.536,2.6212
0.54952,-0.373892,2.517,2.60328
0.55769,-0.373892,2.517,2.60502
0.565859,-0.373892,2.517,2.60678
0.574029,-0.373892,2.517,2.60856
0.582199,-0.373892,2.517,2.61037
0.594824,-0.376714,2.536,2.63192
0.603056,-0.376714,2.536,2.6338
0.611287,-0.376714,2.536,2.63569
0.619518,-0.376714,2.536,2.63761
0.627749,-0.376714,2.536,2.63956
0.635981,-0.376714,2.536,2.64153
0.644212,-0.376714,2.536,2.64352
0.652443,-0.376714,2.536,2.64554
0.660674,-0.376714,2.536,2.64758
0.668906,-0.376714,2.536,2.64965
0.677137,-0.376714,2.536,2.65174
0.685368,-0.376714,2.536,2.65385
0.693599,-0.376714,2.536,2.65599
0.70183,-0.376714,2.536,2.65815
0.710062,-0.376714,2.536,2.66034
0.712911,-0.373892,2.517,2.6426
0.721081,-0.373892,2.517,2.64481
0.729251,-0.373892,2.517,2.64705
0.73742,-0.373892,2.517,2.64932
0.74559,-0.373892,2.517,2.6516
0.753759,-0.373892,2.517,2.65391
0.75648,-0.371218,2.499,2.63725
0.764591,-0.371218,2.499,2.63958
0.772702,-0.371218,2.499,2.64194
0.780813,-0.371218,2.499,2.64433
0.788924,-0.371218,2.499,2.64673
0.797036,-0.371218,2.499,2.64916
0.805147,-0.371218,2.499,2.65162
0.813258,-0.371218,2.499,2.65409
0.815453,-0.368544,2.481,2.63745
0.823505,-0.368544,2.481,2.63995
0.831558,-0.368544,2.481,2.64248
0.839611,-0.368544,2.481,2.64502
0.847664,-0.368544,2.481,2.64759
0.855716,-0.368544,2.481,2.65018
0.857502,-0.36587,2.463,2.63354
0.865497,-0.36587,2.463,2.63616
0.873491,-0.36587,2.463,2.63879
0.875043,-0.363196,2.445,2.62214
0.882979,-0.363196,2.445,2.6248
0.890915,-0.363196,2.445,2.62748
0.892601,-0.360671,2.428,2.6119
0.900482,-0.360671,2.428,2.6146
0.908362,-0.360671,2.428,2.61733
0.916243,-0.360671,2.428,2.62007
0.924124,-0.360671,2.428,2.62284
0.932004,-0.360671,2.428,2.62562
0.939885,-0.360671,2.428,2.62843
0.947766,-0.360671,2.428,2.63126
0.955646,-0.360671,2.428,2.63411
0.963527,-0.360671,2.428,2.63698
0.971408,-0.360671,2.428,2.63987
0.979289,-0.360671,2.428,2.64278
0.987169,-0.360671,2.428,2.64571
0.988083,-0.358146,2.411,2.63011
0.995908,-0.358146,2.411,2.63306
1.01081,-0.360671,2.428,2.65462
1.01869,-0.360671,2.428,2.65763
nan,nan,nan,NaN
nan,nan,nan,NaN
nan,nan,nan,NaN
1.20377,-0.413405,2.783,3.06024
1.2128,-0.413405,2.783,3.0638
1.34213,-0.454107,3.057,3.36939
1.35205,-0.454107,3.057,3.37335
1.36197,-0.454107,3.057,3.37734
1.38401,-0.458118,3.084,3.41122
1.39402,-0.458118,3.084,3.41529
1.40403,-0.458118,3.084,3.41939
1.42688,-0.462277,3.112,3.4546
1.43698,-0.462277,3.112,3.45878
1.44708,-0.462277,3.112,3.46299
1.45718,-0.462277,3.112,3.46722
1.46728,-0.462277,3.112,3.47148
1.47738,-0.462277,3.112,3.47576
1.48749,-0.462277,3.112,3.48007
1.51154,-0.466585,3.141,3.51687
1.52174,-0.466585,3.141,3.52126
1.53193,-0.466585,3.141,3.52568
1.54213,-0.466585,3.141,3.53012
1.55232,-0.466585,3.141,3.53458
1.56252,-0.466585,3.141,3.53907
1.58723,-0.470893,3.17,3.5763
1.59752,-0.470893,3.17,3.58088
1.60781,-0.470893,3.17,3.58548
1.6329,-0.475201,3.199,3.62295
1.65921,-0.479806,3.23,3.6628
1.70174,-0.489016,3.292,3.73796
1.71243,-0.489016,3.292,3.74283
1.72311,-0.489016,3.292,3.74774
1.75065,-0.493769,3.324,3.78914
1.76144,-0.493769,3.324,3.79413
1.77223,-0.493769,3.324,3.79915
1.80018,-0.498522,3.356,3.84082
1.81108,-0.498522,3.356,3.84594
1.85834,-0.508475,3.423,3.92797
1.88857,-0.513674,3.458,3.97345
1.89979,-0.513674,3.458,3.9788
1.91102,-0.513674,3.458,3.98417
1.92224,-0.513674,3.458,3.98956
1.93346,-0.513674,3.458,3.99498
1.94469,-0.513674,3.458,4.00043
1.97571,-0.518873,3.493,4.04644
1.98704,-0.518873,3.493,4.05199
1.99838,-0.518873,3.493,4.05756
2.03043,-0.524221,3.529,4.10503
2.04189,-0.524221,3.529,4.11071
2.05334,-0.524221,3.529,4.11641
2.04373,-0.518873,3.493,4.08009
2.03448,-0.513674,3.458,4.04484
2.0457,-0.513674,3.458,4.0505
2.03611,-0.508475,3.423,4.01512
2.02688,-0.503425,3.389,3.98083
2.03788,-0.503425,3.389,3.98644
2.00958,-0.493769,3.324,3.91551
2.00092,-0.489016,3.292,3.88331
2.01161,-0.489016,3.292,3.88883
1.98421,-0.479806,3.23,3.82102
1.93973,-0.466585,3.141,3.72104
1.94992,-0.466585,3.141,3.72636
1.92455,-0.458118,3.084,3.66399
1.88375,-0.446086,3.003,3.57288
1.89349,-0.446086,3.003,3.57803
1.87028,-0.438361,2.951,3.52115
1.86394,-0.434647,2.926,3.49638
1.87343,-0.434647,2.926,3.50145
1.8514,-0.427369,2.877,3.44782
1.84521,-0.423804,2.853,3.42404
1.85447,-0.423804,2.853,3.42904
1.84806,-0.420238,2.829,3.40517
1.84214,-0.416822,2.806,3.38243
1.83607,-0.413405,2.783,3.35964
1.84511,-0.413405,2.783,3.36458
1.83948,-0.410137,2.761,3.34291
1.84844,-0.410137,2.761,3.34785
1.8574,-0.410137,2.761,3.3528
1.85149,-0.406869,2.739,3.33102
1.84544,-0.403601,2.717,3.30918
-2.30597,-0.482983,3.324,4.07428
-2.29518,-0.482983,3.324,4.06818
-2.28439,-0.482983,3.324,4.0621
-2.2736,-0.482983,3.324,4.05605
-2.26281,-0.482983,3.324,4.05001
-2.25202,-0.482983,3.324,4.04399
-2.24123,-0.482983,3.324,4.03799
-2.23045,-0.482983,3.324,4.03201
-2.21966,-0.482983,3.324,4.02606
-2.20887,-0.482983,3.324,4.02012
-2.17692,-0.478334,3.292,3.97556
-2.16623,-0.478334,3.292,3.96971
-2.15555,-0.478334,3.292,3.96389
-2.14486,-0.478334,3.292,3.95809
-2.13418,-0.478334,3.292,3.95231
-2.12349,-0.478334,3.292,3.94655
-2.11281,-0.478334,3.292,3.94082
-2.10212,-0.478334,3.292,3.9351
-2.11177,-0.482983,3.324,3.9676
-2.10098,-0.482983,3.324,3.96186
-2.09019,-0.482983,3.324,3.95615
-2.0794,-0.482983,3.324,3.95046
-2.06861,-0.482983,3.324,3.94479
-2.03801,-0.478334,3.292,3.90123
-2.02733,-0.478334,3.292,3.89565
-2.01664,-0.478334,3.292,3.8901
-2.00596,-0.478334,3.292,3.88458
-1.99527,-0.478334,3.292,3.87907
-1.98459,-0.478334,3.292,3.87358
-1.9739,-0.478334,3.292,3.86812
-1.9823,-0.482983,3.324,3.90023
nan,nan,nan,NaN
nan,nan,nan,NaN
nan,nan,nan,NaN
nan,nan,nan,NaN
nan,nan,nan,NaN
nan,nan,nan,NaN
nan,nan,nan,NaN
nan,nan,nan,NaN
nan,nan,nan,NaN
nan,nan,nan,NaN
nan,nan,nan,NaN
nan,nan,nan,NaN
nan,nan,nan,NaN
nan,nan,nan,NaN
nan,nan,nan,NaN
nan,nan,nan,NaN
nan,nan,nan,NaN
nan,nan,nan,NaN
nan,nan,nan,NaN
nan,nan,nan,NaN
nan,nan,nan,NaN
nan,nan,nan,NaN
nan,nan,nan,NaN
nan,nan,nan,NaN
nan,nan,nan,NaN
nan,nan,nan,NaN
nan,nan,nan,NaN
nan,nan,nan,NaN
nan,nan,nan,NaN
nan,nan,nan,NaN
nan,nan,nan,NaN
-1.18741,-0.350323,2.411,2.71027
-1.17958,-0.350323,2.411,2.70685
-1.17176,-0.350323,2.411,2.70345
-1.17214,-0.352793,2.428,2.71911
-1.16426,-0.352793,2.428,2.71572
-1.15638,-0.352793,2.428,2.71235
-1.1485,-0.352793,2.428,2.709
-1.13263,-0.350323,2.411,2.68673
-1.1248,-0.350323,2.411,2.68344
-1.11698,-0.350323,2.411,2.68017
-1.10915,-0.350323,2.411,2.67691
-1.10133,-0.350323,2.411,2.67368
-1.0935,-0.350323,2.411,2.67047
-1.08568,-0.350323,2.411,2.66727
-1.07785,-0.350323,2.411,2.6641
-1.07003,-0.350323,2.411,2.66094
-1.0622,-0.350323,2.411,2.6578
-1.05437,-0.350323,2.411,2.65469
-1.04655,-0.350323,2.411,2.65159
-1.03872,-0.350323,2.411,2.64851
-1.0309,-0.350323,2.411,2.64545
-1.02307,-0.350323,2.411,2.64241
-1.01525,-0.350323,2.411,2.63939
-1.00742,-0.350323,2.411,2.63639
-0.999596,-0.350323,2.411,2.63341
-0.99177,-0.350323,2.411,2.63045
-0.983945,-0.350323,2.411,2.62751
-0.976119,-0.350323,2.411,2.62459
-0.975121,-0.352793,2.428,2.64017
-0.967241,-0.352793,2.428,2.63727
-0.95936,-0.352793,2.428,2.63439
-0.951479,-0.352793,2.428,2.63153
-0.943599,-0.352793,2.428,2.62869
-0.94227,-0.355263,2.445,2.64426
-0.934334,-0.355263,2.445,2.64144
-0.926398,-0.355263,2.445,2.63865
-0.918462,-0.355263,2.445,2.63587
-0.910526,-0.355263,2.445,2.63312
-0.909235,-0.357878,2.463,2.64975
-0.901241,-0.357878,2.463,2.64701
-0.893246,-0.357878,2.463,2.6443
-0.885252,-0.357878,2.463,2.64161
-0.877258,-0.357878,2.463,2.63894
-0.869264,-0.357878,2.463,2.6363
-0.861269,-0.357878,2.463,2.63367
-0.853275,-0.357878,2.463,2.63107
-0.845281,-0.357878,2.463,2.62849
-0.837286,-0.357878,2.463,2.62593
-0.829292,-0.357878,2.463,2.62339
-0.821298,-0.357878,2.463,2.62087
-0.813304,-0.357878,2.463,2.61838
-0.805309,-0.357878,2.463,2.61591
-0.797315,-0.357878,2.463,2.61346
-0.783552,-0.355263,2.445,2.59195
-0.775616,-0.355263,2.445,2.58956
-0.767681,-0.355263,2.445,2.58719
-0.759745,-0.355263,2.445,2.58485
-0.751809,-0.355263,2.445,2.58253
-0.743873,-0.355263,2.445,2.58023
-0.735937,-0.355263,2.445,2.57795
-0.733361,-0.357878,2.463,2.59466
-0.725366,-0.357878,2.463,2.59241
-0.717372,-0.357878,2.463,2.59019
-0.709378,-0.357878,2.463,2.58798
-0.706509,-0.360494,2.481,2.6047
-0.698457,-0.360494,2.481,2.60253
-0.690404,-0.360494,2.481,2.60038
-0.687302,-0.363109,2.499,2.6171
-0.679191,-0.363109,2.499,2.61499
-0.67108,-0.363109,2.499,2.61289
-0.667744,-0.365725,2.517,2.62962
-0.659574,-0.365725,2.517,2.62756
-0.646746,-0.363109,2.499,2.60675
-0.638635,-0.363109,2.499,2.60475
-0.635065,-0.365725,2.517,2.62152
-0.626896,-0.365725,2.517,2.61955
-0.618726,-0.365725,2.517,2.61761
-0.610557,-0.365725,2.517,2.61569
-0.602387,-0.365725,2.517,2.61379
-0.594218,-0.365725,2.517,2.61192
-0.590472,-0.368485,2.536,2.62978
-0.582241,-0.368485,2.536,2.62794
-0.57401,-0.368485,2.536,2.62613
-0.565778,-0.368485,2.536,2.62434
-0.557547,-0.368485,2.536,2.62258
-0.549316,-0.368485,2.536,2.62084
-0.541085,-0.368485,2.536,2.61913
-0.532853,-0.368485,2.536,2.61744
-0.524622,-0.368485,2.536,2.61578
-0.516391,-0.368485,2.536,2.61414
-0.50816,-0.368485,2.536,2.61253
-0.499929,-0.368485,2.536,2.61094
-0.491697,-0.368485,2.536,2.60938
-0.483466,-0.368485,2.536,2.60784
-0.475235,-0.368485,2.536,2.60632
-0.463505,-0.365725,2.517,2.58532
-0.455335,-0.365725,2.517,2.58387
-0.447166,-0.365725,2.517,2.58244
-0.438996,-0.365725,2.517,2.58104
-0.430827,-0.365725,2.517,2.57966
-0.422657,-0.365725,2.517,2.57831
-0.414487,-0.365725,2.517,2.57698
-0.406318,-0.365725,2.517,2.57568
-0.395301,-0.363109,2.499,2.556
-0.38719,-0.363109,2.499,2.55475
-0.379079,-0.363109,2.499,2.55354
-0.370968,-0.363109,2.499,2.55235
-0.362857,-0.363109,2.499,2.55118
-0.354745,-0.363109,2.499,2.55004
-0.346634,-0.363109,2.499,2.54892
-0.338523,-0.363109,2.499,2.54783
-0.328032,-0.360494,2.481,2.52842
-0.319979,-0.360494,2.481,2.52739
-0.311927,-0.360494,2.481,2.52638
-0.303874,-0.360494,2.481,2.5254
-0.293675,-0.357878,2.463,2.50613
-0.285681,-0.357878,2.463,2.50521
-0.277686,-0.357878,2.463,2.50431
-0.269692,-0.357878,2.463,2.50343
-0.261698,-0.357878,2.463,2.50258
-0.253704,-0.357878,2.463,2.50176
-0.243914,-0.355263,2.445,2.48269
-0.235978,-0.355263,2.445,2.48192
-0.228042,-0.355263,2.445,2.48118
-0.220106,-0.355263,2.445,2.48046
-0.213732,-0.357878,2.463,2.49802
-0.205738,-0.357878,2.463,2.49735
-0.197744,-0.357878,2.463,2.49671
-0.188363,-0.355263,2.445,2.47785
-0.180427,-0.355263,2.445,2.47725
-0.172491,-0.355263,2.445,2.47669
-0.164555,-0.355263,2.445,2.47615
-0.156619,-0.355263,2.445,2.47563
-0.148683,-0.355263,2.445,2.47515
-0.140747,-0.355263,2.445,2.47468
-0.132812,-0.355263,2.445,2.47424
-0.124876,-0.355263,2.445,2.47383
-0.11694,-0.355263,2.445,2.47344
-0.109004,-0.355263,2.445,2.47308
-0.101068,-0.355263,2.445,2.47274
-0.0931322,-0.355263,2.445,2.47243
-0.0851963,-0.355263,2.445,2.47214
-0.0772605,-0.355263,2.445,2.47188
-0.069835,-0.357878,2.463,2.48984
-0.0618407,-0.357878,2.463,2.48963
-0.0538464,-0.357878,2.463,2.48945
-0.0461872,-0.360494,2.481,2.50748
-0.0381345,-0.360494,2.481,2.50734
-0.0300818,-0.360494,2.481,2.50723
-0.0221889,-0.363109,2.499,2.52534
-0.0140778,-0.363109,2.499,2.52528
-0.00596664,-0.363109,2.499,2.52525
0.00215994,-0.365725,2.517,2.54343
0.0103295,-0.365725,2.517,2.54345
0.0184991,-0.365725,2.517,2.5435
0.0266686,-0.365725,2.517,2.54357
0.0348382,-0.365725,2.517,2.54367
0.0430077,-0.365725,2.517,2.5438
0.0511773,-0.365725,2.517,2.54395
0.0593468,-0.365725,2.517,2.54412
0.0670336,-0.363109,2.499,2.52613
0.0751447,-0.363109,2.499,2.52636
0.0832558,-0.363109,2.499,2.52661
0.0920251,-0.365725,2.517,2.5451
0.100195,-0.365725,2.517,2.5454
0.108364,-0.365725,2.517,2.54574
0.116534,-0.365725,2.517,2.5461
0.124703,-0.365725,2.517,2.54649
0.132873,-0.365725,2.517,2.5469
0.141042,-0.365725,2.517,2.54734
0.149212,-0.365725,2.517,2.5478
0.157382,-0.365725,2.517,2.5483
0.165551,-0.365725,2.517,2.54881
0.173721,-0.365725,2.517,2.54936
0.18189,-0.365725,2.517,2.54993
0.19006,-0.365725,2.517,2.55052
0.199726,-0.368485,2.536,2.5704
0.207957,-0.368485,2.536,2.57105
0.216188,-0.368485,2.536,2.57173
0.224419,-0.368485,2.536,2.57244
0.232651,-0.368485,2.536,2.57317
0.240882,-0.368485,2.536,2.57393
0.249113,-0.368485,2.536,2.57471
0.257344,-0.368485,2.536,2.57552
0.265575,-0.368485,2.536,2.57636
0.275858,-0.371246,2.555,2.59653
0.284151,-0.371246,2.555,2.59742
0.292444,-0.371246,2.555,2.59834
0.300737,-0.371246,2.555,2.59929
0.30903,-0.371246,2.555,2.60026
0.317323,-0.371246,2.555,2.60126
0.325615,-0.371246,2.555,2.60228
0.333908,-0.371246,2.555,2.60333
0.342201,-0.371246,2.555,2.60441
0.350494,-0.371246,2.555,2.60551
0.358787,-0.371246,2.555,2.60664
0.36708,-0.371246,2.555,2.6078
0.375373,-0.371246,2.555,2.60898
0.383666,-0.371246,2.555,2.61018
0.391959,-0.371246,2.555,2.61141
0.400252,-0.371246,2.555,2.61267
0.408544,-0.371246,2.555,2.61395
0.416837,-0.371246,2.555,2.61526
0.42513,-0.371246,2.555,2.6166
0.433423,-0.371246,2.555,2.61796
0.445001,-0.374007,2.574,2.63882
0.453355,-0.374007,2.574,2.64024
0.46171,-0.374007,2.574,2.64169
0.470064,-0.374007,2.574,2.64316
0.478419,-0.374007,2.574,2.64466
0.486774,-0.374007,2.574,2.64619
0.491473,-0.371246,2.555,2.62819
0.499766,-0.371246,2.555,2.62976
0.508059,-0.371246,2.555,2.63134
0.512512,-0.368485,2.536,2.61338
0.520743,-0.368485,2.536,2.61501
0.528975,-0.368485,2.536,2.61666
0.537206,-0.368485,2.536,2.61833
0.545437,-0.368485,2.536,2.62003
0.553668,-0.368485,2.536,2.62176
0.5619,-0.368485,2.536,2.62351
0.565859,-0.365725,2.517,2.60562
0.574029,-0.365725,2.517,2.6074
0.582199,-0.365725,2.517,2.60921
0.590368,-0.365725,2.517,2.61105
0.603056,-0.368485,2.536,2.63263
0.611287,-0.368485,2.536,2.63453
0.619518,-0.368485,2.536,2.63645
0.627749,-0.368485,2.536,2.6384
0.635981,-0.368485,2.536,2.64037
0.644212,-0.368485,2.536,2.64236
0.652443,-0.368485,2.536,2.64438
0.660674,-0.368485,2.536,2.64643
0.668906,-0.368485,2.536,2.64849
0.677137,-0.368485,2.536,2.65058
0.685368,-0.368485,2.536,2.6527
0.693599,-0.368485,2.536,2.65484
0.70183,-0.368485,2.536,2.657
0.710062,-0.368485,2.536,2.65918
0.712911,-0.365725,2.517,2.64146
0.721081,-0.365725,2.517,2.64367
0.729251,-0.365725,2.517,2.64591
0.73742,-0.365725,2.517,2.64818
0.74559,-0.365725,2.517,2.65046
0.753759,-0.365725,2.517,2.65277
0.761929,-0.365725,2.517,2.6551
0.770098,-0.365725,2.517,2.65746
0.772702,-0.363109,2.499,2.64082
0.780813,-0.363109,2.499,2.6432
0.788924,-0.363109,2.499,2.64561
0.797036,-0.363109,2.499,2.64804
0.805147,-0.363109,2.499,2.65049
0.8074,-0.360494,2.481,2.63386
0.815453,-0.360494,2.481,2.63634
0.823505,-0.360494,2.481,2.63884
0.831558,-0.360494,2.481,2.64136
0.839611,-0.360494,2.481,2.64391
0.847664,-0.360494,2.481,2.64648
0.849508,-0.357878,2.463,2.62985
0.857502,-0.357878,2.463,2.63244
0.859171,-0.355263,2.445,2.6158
0.867107,-0.355263,2.445,2.61842
0.875043,-0.355263,2.445,2.62106
0.882979,-0.355263,2.445,2.62372
0.890915,-0.355263,2.445,2.6264
0.892601,-0.352793,2.428,2.61082
0.900482,-0.352793,2.428,2.61353
0.908362,-0.352793,2.428,2.61625
0.909828,-0.350323,2.411,2.60066
0.917653,-0.350323,2.411,2.60341
0.925479,-0.350323,2.411,2.60618
0.933304,-0.350323,2.411,2.60897
0.94113,-0.350323,2.411,2.61178
0.948955,-0.350323,2.411,2.61461
nan,nan,nan,NaN
nan,nan,nan,NaN
nan,nan,nan,NaN
nan,nan,nan,NaN
0.981116,-0.347852,2.394,2.61052
0.988886,-0.347852,2.394,2.61345
1.01081,-0.352793,2.428,2.65356
1.01869,-0.352793,2.428,2.65657
nan,nan,nan,NaN
nan,nan,nan,NaN
nan,nan,nan,NaN
1.20377,-0.404375,2.783,3.05903
1.2128,-0.404375,2.783,3.0626
1.35398,-0.448111,3.084,3.39781
1.36399,-0.448111,3.084,3.40181
1.374,-0.448111,3.084,3.40584
1.38401,-0.448111,3.084,3.40989
1.40668,-0.452179,3.112,3.44496
1.41678,-0.452179,3.112,3.4491
1.44018,-0.456393,3.141,3.48544
1.45037,-0.456393,3.141,3.48966
1.46057,-0.456393,3.141,3.49391
1.47076,-0.456393,3.141,3.49819
1.48096,-0.456393,3.141,3.50249
1.49115,-0.456393,3.141,3.50681
1.50135,-0.456393,3.141,3.51116
1.5255,-0.460607,3.17,3.54799
1.53579,-0.460607,3.17,3.55242
1.54608,-0.460607,3.17,3.55688
1.5706,-0.46482,3.199,3.59395
1.58099,-0.46482,3.199,3.5985
1.59137,-0.46482,3.199,3.60307
1.60175,-0.46482,3.199,3.60767
1.61213,-0.46482,3.199,3.61229
1.62252,-0.46482,3.199,3.61694
1.64872,-0.469325,3.23,3.6567
1.67462,-0.473684,3.26,3.69545
1.71828,-0.482983,3.324,3.7729
1.72907,-0.482983,3.324,3.77782
1.73986,-0.482983,3.324,3.78277
1.75065,-0.482983,3.324,3.78775
1.76144,-0.482983,3.324,3.79275
1.77223,-0.482983,3.324,3.79777
1.80018,-0.487633,3.356,3.83942
1.81108,-0.487633,3.356,3.84454
1.85834,-0.497368,3.423,3.92654
1.88857,-0.502454,3.458,3.97202
1.89979,-0.502454,3.458,3.97736
1.91102,-0.502454,3.458,3.98274
1.92224,-0.502454,3.458,3.98814
1.93346,-0.502454,3.458,3.99356
1.94469,-0.502454,3.458,3.999
1.97571,-0.507539,3.493,4.045
2.00752,-0.51277,3.529,4.0923
2.01898,-0.51277,3.529,4.09793
2.05172,-0.518146,3.566,4.14661
2.06329,-0.518146,3.566,4.15235
2.05334,-0.51277,3.529,4.11497
2.06479,-0.51277,3.529,4.1207
2.05507,-0.507539,3.493,4.08435
2.06641,-0.507539,3.493,4.09007
2.03611,-0.497368,3.423,4.01373
2.02688,-0.492428,3.389,3.97945
2.03788,-0.492428,3.389,3.98507
2.02893,-0.487633,3.356,3.95185
2.00092,-0.478334,3.292,3.88198
2.01161,-0.478334,3.292,3.8875
1.98421,-0.469325,3.23,3.81972
1.95764,-0.460607,3.17,3.75412
1.96793,-0.460607,3.17,3.75949
1.92455,-0.448111,3.084,3.66275
1.88375,-0.436341,3.003,3.57168
1.89349,-0.436341,3.003,3.57683
1.88676,-0.432563,2.977,3.55099
1.86394,-0.425153,2.926,3.49521
1.87343,-0.425153,2.926,3.50028
1.8514,-0.418033,2.877,3.44667
1.84521,-0.414546,2.853,3.4229
1.85447,-0.414546,2.853,3.42791
1.86373,-0.414546,2.853,3.43292
1.84214,-0.407717,2.806,3.38132
1.83607,-0.404375,2.783,3.35854
1.84511,-0.404375,2.783,3.36348
1.83948,-0.401178,2.761,3.34182
1.84844,-0.401178,2.761,3.34676
1.8574,-0.401178,2.761,3.35172
1.85149,-0.397982,2.739,3.32995
1.84544,-0.394785,2.717,3.30811
-2.30597,-0.472197,3.324,4.07301
-2.29518,-0.472197,3.324,4.06691
-2.28439,-0.472197,3.324,4.06084
-2.2736,-0.472197,3.324,4.05478
-2.26281,-0.472197,3.324,4.04874
-2.25202,-0.472197,3.324,4.04272
-2.24123,-0.472197,3.324,4.03672
-2.23045,-0.472197,3.324,4.03074
-2.21966,-0.472197,3.324,4.02478
-2.20887,-0.472197,3.324,4.01884
-2.19808,-0.472197,3.324,4.01292
-2.18729,-0.472197,3.324,4.00702
-2.1765,-0.472197,3.324,4.00114
-2.16571,-0.472197,3.324,3.99528
-2.15492,-0.472197,3.324,3.98944
-2.14413,-0.472197,3.324,3.98362
-2.13335,-0.472197,3.324,3.97783
-2.12256,-0.472197,3.324,3.97205
-2.11177,-0.472197,3.324,3.9663
-2.10098,-0.472197,3.324,3.96056
-2.11031,-0.476743,3.356,3.99292
-2.09942,-0.476743,3.356,3.98718
-2.08853,-0.476743,3.356,3.98145
-2.05782,-0.472197,3.324,3.93784
-2.04703,-0.472197,3.324,3.93221
-2.03625,-0.472197,3.324,3.92661
-2.02546,-0.472197,3.324,3.92102
-2.01467,-0.472197,3.324,3.91546
-2.00388,-0.472197,3.324,3.90992
-1.99309,-0.472197,3.324,3.9044
-1.9823,-0.472197,3.324,3.89891
nan,nan,nan,NaN
nan,nan,nan,NaN
nan,nan,nan,NaN
nan,nan,nan,NaN
nan,nan,nan,NaN
nan,nan,nan,NaN
nan,nan,nan,NaN
nan,nan,nan,NaN
nan,nan,nan,NaN
nan,nan,nan,NaN
nan,nan,nan,NaN
nan,nan,nan,NaN
nan,nan,nan,NaN
nan,nan,nan,NaN
nan,nan,nan,NaN
nan,nan,nan,NaN
nan,nan,nan,NaN
nan,nan,nan,NaN
nan,nan,nan,NaN
nan,nan,nan,NaN
nan,nan,nan,NaN
nan,nan,nan,NaN
nan,nan,nan,NaN
nan,nan,nan,NaN
nan,nan,nan,NaN
nan,nan,nan,NaN
nan,nan,nan,NaN
nan,nan,nan,NaN
nan,nan,nan,NaN
nan,nan,nan,NaN
nan,nan,nan,NaN
-1.18741,-0.342499,2.411,2.70927
-1.17958,-0.342499,2.411,2.70585
-1.17176,-0.342499,2.411,2.70245
-1.17214,-0.344914,2.428,2.7181
-1.16426,-0.344914,2.428,2.71471
-1.15638,-0.344914,2.428,2.71134
-1.1485,-0.344914,2.428,2.70799
-1.13263,-0.342499,2.411,2.68572
-1.1248,-0.342499,2.411,2.68243
-1.11698,-0.342499,2.411,2.67915
-1.10915,-0.342499,2.411,2.6759
-1.10133,-0.342499,2.411,2.67267
-1.0935,-0.342499,2.411,2.66945
-1.08568,-0.342499,2.411,2.66626
-1.07785,-0.342499,2.411,2.66308
-1.07003,-0.342499,2.411,2.65992
-1.0622,-0.342499,2.411,2.65678
-1.05437,-0.342499,2.411,2.65366
-1.04655,-0.342499,2.411,2.65056
-1.03872,-0.342499,2.411,2.64748
-1.0309,-0.342499,2.411,2.64442
-1.02307,-0.342499,2.411,2.64138
-1.01525,-0.342499,2.411,2.63836
-1.00742,-0.342499,2.411,2.63536
-0.999596,-0.342499,2.411,2.63238
-0.99177,-0.342499,2.411,2.62942
-0.983945,-0.342499,2.411,2.62648
-0.976119,-0.342499,2.411,2.62355
-0.975121,-0.344914,2.428,2.63913
-0.967241,-0.344914,2.428,2.63623
-0.95936,-0.344914,2.428,2.63335
-0.951479,-0.344914,2.428,2.63049
-0.943599,-0.344914,2.428,2.62765
-0.94227,-0.347329,2.445,2.64321
-0.934334,-0.347329,2.445,2.64039
-0.926398,-0.347329,2.445,2.63759
-0.918462,-0.347329,2.445,2.63481
-0.917229,-0.349886,2.463,2.65143
-0.909235,-0.349886,2.463,2.64868
-0.901241,-0.349886,2.463,2.64594
-0.893246,-0.349886,2.463,2.64323
-0.885252,-0.349886,2.463,2.64054
-0.877258,-0.349886,2.463,2.63787
-0.875616,-0.352443,2.481,2.65448
-0.867564,-0.352443,2.481,2.65184
-0.853275,-0.349886,2.463,2.62999
-0.845281,-0.349886,2.463,2.62741
-0.843405,-0.352443,2.481,2.64403
-0.835353,-0.352443,2.481,2.64148
-0.821298,-0.349886,2.463,2.61979
-0.813304,-0.349886,2.463,2.6173
-0.805309,-0.349886,2.463,2.61483
-0.797315,-0.349886,2.463,2.61237
-0.789321,-0.349886,2.463,2.60995
-0.781326,-0.349886,2.463,2.60754
-0.773332,-0.349886,2.463,2.60515
-0.765338,-0.349886,2.463,2.60279
-0.757344,-0.349886,2.463,2.60045
-0.749349,-0.349886,2.463,2.59814
-0.741355,-0.349886,2.463,2.59584
-0.733361,-0.349886,2.463,2.59357
-0.725366,-0.349886,2.463,2.59132
-0.717372,-0.349886,2.463,2.58909
-0.714562,-0.352443,2.481,2.6058
-0.706509,-0.352443,2.481,2.6036
-0.698457,-0.352443,2.481,2.60143
-0.695413,-0.355,2.499,2.61813
-0.687302,-0.355,2.499,2.61599
-0.679191,-0.355,2.499,2.61387
-0.67108,-0.355,2.499,2.61178
-0.667744,-0.357557,2.517,2.6285
-0.659574,-0.357557,2.517,2.62644
-0.651405,-0.357557,2.517,2.6244
-0.643235,-0.357557,2.517,2.62238
-0.635065,-0.357557,2.517,2.62039
-0.626896,-0.357557,2.517,2.61842
-0.618726,-0.357557,2.517,2.61648
-0.615166,-0.360256,2.536,2.63429
-0.606935,-0.360256,2.536,2.63238
-0.598703,-0.360256,2.536,2.6305
-0.590472,-0.360256,2.536,2.62864
-0.582241,-0.360256,2.536,2.6268
-0.57401,-0.360256,2.536,2.62499
-0.570017,-0.362956,2.555,2.64285
-0.561724,-0.362956,2.555,2.64108
-0.553431,-0.362956,2.555,2.63933
-0.545139,-0.362956,2.555,2.6376
-0.536846,-0.362956,2.555,2.6359
-0.524622,-0.360256,2.536,2.61463
-0.516391,-0.360256,2.536,2.61299
-0.50816,-0.360256,2.536,2.61138
-0.499929,-0.360256,2.536,2.60979
-0.491697,-0.360256,2.536,2.60823
-0.483466,-0.360256,2.536,2.60669
-0.475235,-0.360256,2.536,2.60517
-0.463505,-0.357557,2.517,2.58418
-0.455335,-0.357557,2.517,2.58272
-0.447166,-0.357557,2.517,2.5813
-0.438996,-0.357557,2.517,2.57989
-0.430827,-0.357557,2.517,2.57852
-0.422657,-0.357557,2.517,2.57716
-0.414487,-0.357557,2.517,2.57584
-0.406318,-0.357557,2.517,2.57454
-0.395301,-0.355,2.499,2.55486
-0.38719,-0.355,2.499,2.55361
-0.379079,-0.355,2.499,2.5524
-0.370968,-0.355,2.499,2.5512
-0.362857,-0.355,2.499,2.55004
-0.354745,-0.355,2.499,2.5489
-0.346634,-0.355,2.499,2.54778
-0.338523,-0.355,2.499,2.54669
-0.328032,-0.352443,2.481,2.52729
-0.319979,-0.352443,2.481,2.52626
-0.311927,-0.352443,2.481,2.52525
-0.303874,-0.352443,2.481,2.52427
-0.293675,-0.349886,2.463,2.505
-0.285681,-0.349886,2.463,2.50408
-0.277686,-0.349886,2.463,2.50318
-0.269692,-0.349886,2.463,2.5023
-0.261698,-0.349886,2.463,2.50145
-0.253704,-0.349886,2.463,2.50063
-0.243914,-0.347329,2.445,2.48156
-0.235978,-0.347329,2.445,2.4808
-0.228042,-0.347329,2.445,2.48005
-0.220106,-0.347329,2.445,2.47934
-0.213732,-0.349886,2.463,2.49689
-0.205738,-0.349886,2.463,2.49622
-0.196298,-0.347329,2.445,2.47734
-0.188363,-0.347329,2.445,2.47672
-0.180427,-0.347329,2.445,2.47613
-0.172491,-0.347329,2.445,2.47556
-0.164555,-0.347329,2.445,2.47502
-0.156619,-0.347329,2.445,2.47451
-0.148683,-0.347329,2.445,2.47402
-0.140747,-0.347329,2.445,2.47355
-0.132812,-0.347329,2.445,2.47312
-0.124876,-0.347329,2.445,2.4727
-0.11694,-0.347329,2.445,2.47231
-0.109004,-0.347329,2.445,2.47195
-0.101068,-0.347329,2.445,2.47161
-0.0931322,-0.347329,2.445,2.4713
-0.0851963,-0.347329,2.445,2.47102
-0.0772605,-0.347329,2.445,2.47076
-0.069835,-0.349886,2.463,2.48871
-0.0618407,-0.349886,2.463,2.4885
-0.0538464,-0.349886,2.463,2.48831
-0.0461872,-0.352443,2.481,2.50633
-0.0381345,-0.352443,2.481,2.5062
-0.0300818,-0.352443,2.481,2.50609
-0.0221889,-0.355,2.499,2.52419
-0.0141792,-0.357557,2.517,2.54231
-0.00600962,-0.357557,2.517,2.54228
0.00215994,-0.357557,2.517,2.54227
0.0104075,-0.360256,2.536,2.56148
0.0184991,-0.357557,2.517,2.54234
0.0266686,-0.357557,2.517,2.54241
0.0348382,-0.357557,2.517,2.54251
0.0430077,-0.357557,2.517,2.54263
0.0515636,-0.360256,2.536,2.56198
0.0597948,-0.360256,2.536,2.56216
0.0680261,-0.360256,2.536,2.56236
0.0762573,-0.360256,2.536,2.5626
0.0844885,-0.360256,2.536,2.56285
0.0927197,-0.360256,2.536,2.56314
0.100951,-0.360256,2.536,2.56345
0.109182,-0.360256,2.536,2.56379
0.117413,-0.360256,2.536,2.56415
0.124703,-0.357557,2.517,2.54533
0.132873,-0.357557,2.517,2.54574
0.141042,-0.357557,2.517,2.54618
0.149212,-0.357557,2.517,2.54665
0.157382,-0.357557,2.517,2.54714
0.166801,-0.360256,2.536,2.56689
0.175032,-0.360256,2.536,2.56743
0.183263,-0.360256,2.536,2.56801
0.191494,-0.360256,2.536,2.56861
0.199726,-0.360256,2.536,2.56924
0.207957,-0.360256,2.536,2.56989
0.216188,-0.360256,2.536,2.57057
0.224419,-0.360256,2.536,2.57127
0.232651,-0.360256,2.536,2.572
0.242687,-0.362956,2.555,2.59204
0.250979,-0.362956,2.555,2.59283
0.259272,-0.362956,2.555,2.59364
0.267565,-0.362956,2.555,2.59449
0.275858,-0.362956,2.555,2.59535
0.284151,-0.362956,2.555,2.59625
0.292444,-0.362956,2.555,2.59717
0.300737,-0.362956,2.555,2.59812
0.30903,-0.362956,2.555,2.59909
0.317323,-0.362956,2.555,2.60009
0.325615,-0.362956,2.555,2.60111
0.333908,-0.362956,2.555,2.60216
0.342201,-0.362956,2.555,2.60324
0.350494,-0.362956,2.555,2.60434
0.356119,-0.360256,2.536,2.5861
0.36435,-0.360256,2.536,2.58724
0.372581,-0.360256,2.536,2.58842
0.380813,-0.360256,2.536,2.58961
0.389044,-0.360256,2.536,2.59084
0.397275,-0.360256,2.536,2.59209
0.405506,-0.360256,2.536,2.59336
0.413738,-0.360256,2.536,2.59466
0.421969,-0.360256,2.536,2.59598
0.433423,-0.362956,2.555,2.6168
0.441716,-0.362956,2.555,2.61818
0.450009,-0.362956,2.555,2.61959
0.458302,-0.362956,2.555,2.62103
0.466595,-0.362956,2.555,2.62249
0.474888,-0.362956,2.555,2.62398
0.48318,-0.362956,2.555,2.6255
0.491473,-0.362956,2.555,2.62703
0.499766,-0.362956,2.555,2.6286
0.508059,-0.362956,2.555,2.63019
0.512512,-0.360256,2.536,2.61223
0.520743,-0.360256,2.536,2.61386
0.528975,-0.360256,2.536,2.61551
0.537206,-0.360256,2.536,2.61719
0.545437,-0.360256,2.536,2.61889
0.54952,-0.357557,2.517,2.60098
0.55769,-0.357557,2.517,2.60272
0.565859,-0.357557,2.517,2.60448
0.574029,-0.357557,2.517,2.60627
0.582199,-0.357557,2.517,2.60808
0.590368,-0.357557,2.517,2.60992
0.603056,-0.360256,2.536,2.63149
0.611287,-0.360256,2.536,2.63339
0.619518,-0.360256,2.536,2.63531
0.627749,-0.360256,2.536,2.63726
0.635981,-0.360256,2.536,2.63923
0.644212,-0.360256,2.536,2.64123
0.652443,-0.360256,2.536,2.64325
0.660674,-0.360256,2.536,2.64529
0.668906,-0.360256,2.536,2.64736
0.677137,-0.360256,2.536,2.64945
0.685368,-0.360256,2.536,2.65157
0.693599,-0.360256,2.536,2.65371
0.70183,-0.360256,2.536,2.65587
0.710062,-0.360256,2.536,2.65806
0.712911,-0.357557,2.517,2.64034
0.721081,-0.357557,2.517,2.64255
0.729251,-0.357557,2.517,2.6448
0.73742,-0.357557,2.517,2.64706
0.74559,-0.357557,2.517,2.64935
0.753759,-0.357557,2.517,2.65166
0.761929,-0.357557,2.517,2.65399
0.770098,-0.357557,2.517,2.65635
0.772702,-0.355,2.499,2.63971
0.780813,-0.355,2.499,2.6421
0.788924,-0.355,2.499,2.64451
0.797036,-0.355,2.499,2.64694
0.805147,-0.355,2.499,2.64939
0.8074,-0.352443,2.481,2.63277
0.815453,-0.352443,2.481,2.63525
0.823505,-0.352443,2.481,2.63775
0.831558,-0.352443,2.481,2.64028
0.839611,-0.352443,2.481,2.64283
0.847664,-0.352443,2.481,2.64539
0.849508,-0.349886,2.463,2.62877
0.857502,-0.349886,2.463,2.63137
0.859171,-0.347329,2.445,2.61473
0.867107,-0.347329,2.445,2.61735
0.875043,-0.347329,2.445,2.61999
0.882979,-0.347329,2.445,2.62265
0.890915,-0.347329,2.445,2.62534
0.892601,-0.344914,2.428,2.60977
0.900482,-0.344914,2.428,2.61247
0.908362,-0.344914,2.428,2.6152
0.909828,-0.342499,2.411,2.59962
0.917653,-0.342499,2.411,2.60237
0.925479,-0.342499,2.411,2.60514
0.933304,-0.342499,2.411,2.60793
0.94113,-0.342499,2.411,2.61074
0.948955,-0.342499,2.411,2.61357
nan,nan,nan,NaN
nan,nan,nan,NaN
nan,nan,nan,NaN
nan,nan,nan,NaN
0.981116,-0.340084,2.394,2.6095
0.988886,-0.340084,2.394,2.61243
nan,nan,nan,NaN
nan,nan,nan,NaN
nan,nan,nan,NaN
nan,nan,nan,NaN
nan,nan,nan,NaN
nan,nan,nan,NaN
nan,nan,nan,NaN
1.36628,-0.442081,3.112,3.42734
1.37638,-0.442081,3.112,3.43138
1.38648,-0.442081,3.112,3.43545
1.40959,-0.446201,3.141,3.47159
1.41979,-0.446201,3.141,3.47574
1.42998,-0.446201,3.141,3.47992
1.44018,-0.446201,3.141,3.48412
1.45037,-0.446201,3.141,3.48835
1.46057,-0.446201,3.141,3.4926
1.47076,-0.446201,3.141,3.49687
1.48096,-0.446201,3.141,3.50117
1.49115,-0.446201,3.141,3.5055
1.50135,-0.446201,3.141,3.50985
1.5255,-0.450321,3.17,3.54666
1.53579,-0.450321,3.17,3.5511
1.54608,-0.450321,3.17,3.55556
1.5706,-0.45444,3.199,3.59262
1.58099,-0.45444,3.199,3.59717
1.59137,-0.45444,3.199,3.60175
1.60175,-0.45444,3.199,3.60635
1.61213,-0.45444,3.199,3.61097
1.62252,-0.45444,3.199,3.61562
1.64872,-0.458844,3.23,3.65537
1.67462,-0.463106,3.26,3.69411
1.70174,-0.467652,3.292,3.73522
1.71243,-0.467652,3.292,3.7401
1.73986,-0.472197,3.324,3.78141
1.75065,-0.472197,3.324,3.78639
1.76144,-0.472197,3.324,3.79139
1.77223,-0.472197,3.324,3.79641
1.80018,-0.476743,3.356,3.83806
1.81108,-0.476743,3.356,3.84318
1.85834,-0.486261,3.423,3.92515
1.88857,-0.491233,3.458,3.97061
1.89979,-0.491233,3.458,3.97596
1.91102,-0.491233,3.458,3.98134
1.92224,-0.491233,3.458,3.98674
1.93346,-0.491233,3.458,3.99216
1.94469,-0.491233,3.458,3.99761
1.97571,-0.496205,3.493,4.0436
2.00752,-0.501319,3.529,4.09088
2.01898,-0.501319,3.529,4.09652
2.05172,-0.506575,3.566,4.14518
2.06329,-0.506575,3.566,4.15092
2.05334,-0.501319,3.529,4.11356
2.06479,-0.501319,3.529,4.11929
2.05507,-0.496205,3.493,4.08296
2.06641,-0.496205,3.493,4.08868
2.03611,-0.486261,3.423,4.01237
2.02688,-0.481431,3.389,3.97811
2.03788,-0.481431,3.389,3.98372
2.02893,-0.476743,3.356,3.95052
2.00092,-0.467652,3.292,3.88068
2.01161,-0.467652,3.292,3.8862
1.98421,-0.458844,3.23,3.81844
1.95764,-0.450321,3.17,3.75287
1.96793,-0.450321,3.17,3.75825
1.92455,-0.438104,3.084,3.66154
1.88375,-0.426597,3.003,3.5705
1.89349,-0.426597,3.003,3.57566
1.88676,-0.422904,2.977,3.54982
1.86394,-0.415659,2.926,3.49407
1.87343,-0.415659,2.926,3.49914
1.8514,-0.408698,2.877,3.44555
1.84521,-0.405288,2.853,3.4218
1.85447,-0.405288,2.853,3.4268
1.86373,-0.405288,2.853,3.43182
1.85724,-0.401879,2.829,3.40794
1.85125,-0.398612,2.806,3.38521
1.86035,-0.398612,2.806,3.3902
1.85414,-0.395345,2.783,3.36738
1.86317,-0.395345,2.783,3.37236
1.8722,-0.395345,2.783,3.37736
1.86637,-0.392219,2.761,3.35563
1.86038,-0.389094,2.739,3.33385
-2.32817,-0.465853,3.356,4.11098
-2.31727,-0.465853,3.356,4.10482
-2.30638,-0.465853,3.356,4.09868
-2.29549,-0.465853,3.356,4.09256
-2.2846,-0.465853,3.356,4.08646
-2.2737,-0.465853,3.356,4.08038
-2.26281,-0.465853,3.356,4.07432
-2.25192,-0.465853,3.356,4.06828
-2.24102,-0.465853,3.356,4.06226
-2.23013,-0.465853,3.356,4.05626
-2.21924,-0.465853,3.356,4.05028
-2.20835,-0.465853,3.356,4.04432
-2.19745,-0.465853,3.356,4.03839
-2.18656,-0.465853,3.356,4.03247
-2.17567,-0.465853,3.356,4.02657
-2.16478,-0.465853,3.356,4.0207
-2.15388,-0.465853,3.356,4.01484
-2.14299,-0.465853,3.356,4.00901
-2.1321,-0.465853,3.356,4.0032
-2.1212,-0.465853,3.356,3.99741
-2.13106,-0.470434,3.389,4.03089
-2.12006,-0.470434,3.389,4.02508
-2.08853,-0.465853,3.356,3.98016
-2.07763,-0.465853,3.356,3.97446
-2.06674,-0.465853,3.356,3.96878
-2.05585,-0.465853,3.356,3.96311
-2.02546,-0.461412,3.324,3.91974
-2.01467,-0.461412,3.324,3.91417
-2.00388,-0.461412,3.324,3.90863
-1.99309,-0.461412,3.324,3.90311
-1.9823,-0.461412,3.324,3.89761
nan,nan,nan,NaN
nan,nan,nan,NaN
nan,nan,nan,NaN
nan,nan,nan,NaN
nan,nan,nan,NaN
nan,nan,nan,NaN
nan,nan,nan,NaN
nan,nan,nan,NaN
nan,nan,nan,NaN
nan,nan,nan,NaN
nan,nan,nan,NaN
nan,nan,nan,NaN
nan,nan,nan,NaN
nan,nan,nan,NaN
nan,nan,nan,NaN
nan,nan,nan,NaN
nan,nan,nan,NaN
nan,nan,nan,NaN
nan,nan,nan,NaN
nan,nan,nan,NaN
nan,nan,nan,NaN
nan,nan,nan,NaN
nan,nan,nan,NaN
nan,nan,nan,NaN
nan,nan,nan,NaN
nan,nan,nan,NaN
nan,nan,nan,NaN
nan,nan,nan,NaN
nan,nan,nan,NaN
nan,nan,nan,NaN
nan,nan,nan,NaN
-1.19578,-0.337036,2.428,2.72739
-1.1879,-0.337036,2.428,2.72395
-1.18002,-0.337036,2.428,2.72052
-1.17214,-0.337036,2.428,2.71711
-1.16426,-0.337036,2.428,2.71372
-1.15638,-0.337036,2.428,2.71035
-1.1485,-0.337036,2.428,2.707
-1.13263,-0.334676,2.411,2.68473
-1.1248,-0.334676,2.411,2.68144
-1.11698,-0.334676,2.411,2.67817
-1.10915,-0.334676,2.411,2.67491
-1.10133,-0.334676,2.411,2.67168
-1.0935,-0.334676,2.411,2.66846
-1.08568,-0.334676,2.411,2.66526
-1.07785,-0.334676,2.411,2.66208
-1.07003,-0.334676,2.411,2.65893
-1.0622,-0.334676,2.411,2.65579
-1.05437,-0.334676,2.411,2.65267
-1.04655,-0.334676,2.411,2.64956
