0.724035,-0.233368,2.499,2.61222
0.732147,-0.233368,2.499,2.61448
0.740258,-0.233368,2.499,2.61676
0.748369,-0.233368,2.499,2.61907
0.75648,-0.233368,2.499,2.6214
0.764591,-0.233368,2.499,2.62375
0.772702,-0.233368,2.499,2.62612
0.780813,-0.233368,2.499,2.62852
0.788924,-0.233368,2.499,2.63094
0.797036,-0.233368,2.499,2.63339
0.805147,-0.233368,2.499,2.63585
0.8074,-0.231687,2.481,2.61934
0.815453,-0.231687,2.481,2.62183
0.823505,-0.231687,2.481,2.62435
0.831558,-0.231687,2.481,2.62689
0.839611,-0.231687,2.481,2.62945
0.841514,-0.230006,2.463,2.61293
0.849508,-0.230006,2.463,2.61552
0.857502,-0.230006,2.463,2.61813
0.859171,-0.228325,2.445,2.6016
0.867107,-0.228325,2.445,2.60423
0.875043,-0.228325,2.445,2.60689
0.87684,-0.226737,2.428,2.59142
0.88472,-0.226737,2.428,2.59409
0.892601,-0.226737,2.428,2.59679
0.894177,-0.22515,2.411,2.58131
0.902002,-0.22515,2.411,2.58403
0.903413,-0.223562,2.394,2.56853
0.911183,-0.223562,2.394,2.57128
0.912428,-0.221975,2.377,2.55576
0.920143,-0.221975,2.377,2.55853
0.927858,-0.221975,2.377,2.56131
0.929276,-0.220481,2.361,2.54686
0.936939,-0.220481,2.361,2.54966
0.944602,-0.220481,2.361,2.55249
0.958719,-0.221975,2.377,2.57265
nan,nan,nan,NaN
nan,nan,nan,NaN
nan,nan,nan,NaN
nan,nan,nan,NaN
nan,nan,nan,NaN
nan,nan,nan,NaN
nan,nan,nan,NaN
nan,nan,nan,NaN
nan,nan,nan,NaN
nan,nan,nan,NaN
nan,nan,nan,NaN
nan,nan,nan,NaN
nan,nan,nan,NaN
nan,nan,nan,NaN
nan,nan,nan,NaN
nan,nan,nan,NaN
nan,nan,nan,NaN
1.73712,-0.351312,3.762,4.15856
1.74933,-0.351312,3.762,4.16368
1.76154,-0.351312,3.762,4.16882
1.77375,-0.351312,3.762,4.174
1.78596,-0.351312,3.762,4.1792
1.77858,-0.347483,3.721,4.13883
1.79065,-0.347483,3.721,4.14404
1.80273,-0.347483,3.721,4.14927
1.81481,-0.347483,3.721,4.15453
1.82689,-0.347483,3.721,4.15982
1.83896,-0.347483,3.721,4.16514
1.85104,-0.347483,3.721,4.17048
1.86312,-0.347483,3.721,4.17586
1.8752,-0.347483,3.721,4.18126
nan,nan,nan,NaN
nan,nan,nan,NaN
nan,nan,nan,NaN
nan,nan,nan,NaN
nan,nan,nan,NaN
nan,nan,nan,NaN
nan,nan,nan,NaN
nan,nan,nan,NaN
2.00575,-0.351312,3.762,4.27775
2.01796,-0.351312,3.762,4.28348
2.03017,-0.351312,3.762,4.28925
2.04238,-0.351312,3.762,4.29504
2.0546,-0.351312,3.762,4.30086
2.06681,-0.351312,3.762,4.30671
2.07902,-0.351312,3.762,4.31258
2.09123,-0.351312,3.762,4.31848
2.12692,-0.355234,3.804,4.37269
2.11565,-0.351312,3.762,4.33036
2.10467,-0.347483,3.721,4.28908
2.11675,-0.347483,3.721,4.29502
2.10594,-0.343748,3.681,4.25475
2.11789,-0.343748,3.681,4.26068
2.10727,-0.340106,3.642,4.22142
2.11909,-0.340106,3.642,4.22734
2.13091,-0.340106,3.642,4.23327
2.09802,-0.333009,3.566,4.15077
2.10959,-0.333009,3.566,4.15664
2.09916,-0.329554,3.529,4.11933
2.08908,-0.326192,3.493,4.0831
2.10042,-0.326192,3.493,4.08891
2.06944,-0.319655,3.423,4.01269
2.03982,-0.313398,3.356,3.93978
2.05072,-0.313398,3.356,3.94543
2.06161,-0.313398,3.356,3.9511
1.99469,-0.301632,3.23,3.80824
2.00517,-0.301632,3.23,3.81374
1.97821,-0.296029,3.17,3.74832
1.9885,-0.296029,3.17,3.75376
nan,nan,nan,NaN
1.92035,-0.282955,3.03,3.59843
1.91299,-0.280433,3.003,3.57158
1.92273,-0.280433,3.003,3.57681
1.89902,-0.275577,2.951,3.52003
1.87626,-0.270908,2.901,3.46548
1.87007,-0.268667,2.877,3.44187
1.87941,-0.268667,2.877,3.44696
1.85724,-0.264185,2.829,3.39446
1.83607,-0.259889,2.783,3.34422
1.84511,-0.259889,2.783,3.34919
1.82482,-0.25578,2.739,3.30114
1.80493,-0.251764,2.696,3.25416
1.81368,-0.251764,2.696,3.25902
1.80823,-0.249803,2.675,3.23848
1.78839,-0.245881,2.633,3.19241
-2.13947,-0.27799,3.084,3.76373
-2.11082,-0.275557,3.057,3.72515
-2.1009,-0.275557,3.057,3.71954
-2.07251,-0.273123,3.03,3.68114
-2.06267,-0.273123,3.03,3.67561
-2.05284,-0.273123,3.03,3.6701
-2.0248,-0.270689,3.003,3.63195
-2.01505,-0.270689,3.003,3.62653
-2.02333,-0.273123,3.03,3.65368
-2.0135,-0.273123,3.03,3.64824
-2.02152,-0.275557,3.057,3.67528
-2.0116,-0.275557,3.057,3.66984
-2.01935,-0.27799,3.084,3.69677
-2.00934,-0.27799,3.084,3.69131
-2.01749,-0.280514,3.112,3.71934
-2.02609,-0.283128,3.141,3.74848
-2.0159,-0.283128,3.141,3.74298
-2.02422,-0.285742,3.17,3.772
-2.03235,-0.288357,3.199,3.80095
-2.02197,-0.288357,3.199,3.79541
-2.03108,-0.291151,3.23,3.82661
-2.0206,-0.291151,3.23,3.82106
-2.01011,-0.291151,3.23,3.81552
-1.99963,-0.291151,3.23,3.81001
-1.98915,-0.291151,3.23,3.80452
-1.97866,-0.291151,3.23,3.79905
-1.96818,-0.291151,3.23,3.7936
-1.97588,-0.293855,3.26,3.82335
-1.9653,-0.293855,3.26,3.8179
-1.95472,-0.293855,3.26,3.81246
-1.94413,-0.293855,3.26,3.80705
nan,nan,nan,NaN
nan,nan,nan,NaN
nan,nan,nan,NaN
nan,nan,nan,NaN
nan,nan,nan,NaN
nan,nan,nan,NaN
nan,nan,nan,NaN
nan,nan,nan,NaN
nan,nan,nan,NaN
nan,nan,nan,NaN
nan,nan,nan,NaN
nan,nan,nan,NaN
nan,nan,nan,NaN
nan,nan,nan,NaN
nan,nan,nan,NaN
nan,nan,nan,NaN
nan,nan,nan,NaN
nan,nan,nan,NaN
nan,nan,nan,NaN
nan,nan,nan,NaN
nan,nan,nan,NaN
nan,nan,nan,NaN
nan,nan,nan,NaN
nan,nan,nan,NaN
nan,nan,nan,NaN
nan,nan,nan,NaN
nan,nan,nan,NaN
nan,nan,nan,NaN
nan,nan,nan,NaN
nan,nan,nan,NaN
nan,nan,nan,NaN
nan,nan,nan,NaN
-1.21383,-0.223636,2.481,2.77106
-1.20578,-0.223636,2.481,2.76754
-1.19772,-0.223636,2.481,2.76404
-1.18967,-0.223636,2.481,2.76056
-1.18162,-0.223636,2.481,2.7571
-1.17357,-0.223636,2.481,2.75366
-1.16551,-0.223636,2.481,2.75024
-1.15746,-0.223636,2.481,2.74683
-1.14107,-0.222014,2.463,2.72355
-1.13308,-0.222014,2.463,2.72021
-1.12508,-0.222014,2.463,2.71689
-1.11709,-0.222014,2.463,2.71358
-1.10909,-0.222014,2.463,2.7103
-1.1011,-0.222014,2.463,2.70704
-1.0931,-0.222014,2.463,2.7038
-1.08511,-0.222014,2.463,2.70058
-1.07712,-0.222014,2.463,2.69738
-1.06912,-0.222014,2.463,2.69419
-1.06113,-0.222014,2.463,2.69103
-1.05313,-0.222014,2.463,2.68789
-1.04514,-0.222014,2.463,2.68477
-1.03714,-0.222014,2.463,2.68166
-1.02915,-0.222014,2.463,2.67858
-1.02116,-0.222014,2.463,2.67552
-1.01316,-0.222014,2.463,2.67248
-0.997821,-0.220391,2.445,2.64995
-0.989885,-0.220391,2.445,2.64697
-0.981949,-0.220391,2.445,2.64402
-0.967241,-0.218859,2.428,2.62272
-0.95936,-0.218859,2.428,2.61982
-0.951479,-0.218859,2.428,2.61694
-0.943599,-0.218859,2.428,2.61409
-0.929166,-0.217327,2.411,2.59297
-0.921341,-0.217327,2.411,2.59018
-0.913515,-0.217327,2.411,2.5874
-0.90569,-0.217327,2.411,2.58465
-0.897864,-0.217327,2.411,2.58192
-0.890039,-0.217327,2.411,2.57921
-0.882213,-0.217327,2.411,2.57652
-0.868223,-0.215794,2.394,2.5557
-0.860452,-0.215794,2.394,2.55307
-0.852682,-0.215794,2.394,2.55046
-0.850911,-0.217327,2.411,2.56597
-0.843086,-0.217327,2.411,2.56339
-0.83526,-0.217327,2.411,2.56082
-0.827435,-0.217327,2.411,2.55828
-0.819609,-0.217327,2.411,2.55576
-0.811784,-0.217327,2.411,2.55326
-0.803958,-0.217327,2.411,2.55078
-0.796133,-0.217327,2.411,2.54833
-0.788307,-0.217327,2.411,2.54589
-0.780482,-0.217327,2.411,2.54348
-0.772656,-0.217327,2.411,2.54109
-0.764831,-0.217327,2.411,2.53872
-0.757005,-0.217327,2.411,2.53638
-0.754462,-0.218859,2.428,2.55192
-0.746581,-0.218859,2.428,2.5496
-0.738701,-0.218859,2.428,2.54731
-0.73082,-0.218859,2.428,2.54503
-0.722939,-0.218859,2.428,2.54278
-0.715059,-0.218859,2.428,2.54055
-0.707178,-0.218859,2.428,2.53834
-0.699297,-0.218859,2.428,2.53616
-0.691417,-0.218859,2.428,2.534
-0.683536,-0.218859,2.428,2.53186
-0.675655,-0.218859,2.428,2.52974
-0.667775,-0.218859,2.428,2.52765
-0.659894,-0.218859,2.428,2.52558
-0.652013,-0.218859,2.428,2.52353
-0.644133,-0.218859,2.428,2.52151
-0.636252,-0.218859,2.428,2.5195
-0.628371,-0.218859,2.428,2.51753
-0.620491,-0.218859,2.428,2.51557
-0.616899,-0.220391,2.445,2.53124
-0.608963,-0.220391,2.445,2.52931
-0.601027,-0.220391,2.445,2.52742
-0.593092,-0.220391,2.445,2.52554
-0.585156,-0.220391,2.445,2.52369
-0.57722,-0.220391,2.445,2.52186
-0.569284,-0.220391,2.445,2.52006
-0.565481,-0.222014,2.463,2.53681
-0.557486,-0.222014,2.463,2.53504
-0.549492,-0.222014,2.463,2.5333
-0.541498,-0.222014,2.463,2.53158
-0.533504,-0.222014,2.463,2.52988
-0.525509,-0.222014,2.463,2.5282
-0.521297,-0.223636,2.481,2.54502
-0.513244,-0.223636,2.481,2.54338
-0.505192,-0.223636,2.481,2.54177
-0.497139,-0.223636,2.481,2.54018
-0.489086,-0.223636,2.481,2.53862
-0.481034,-0.223636,2.481,2.53708
-0.472981,-0.223636,2.481,2.53556
-0.464928,-0.223636,2.481,2.53407
-0.456875,-0.223636,2.481,2.53261
-0.448823,-0.223636,2.481,2.53117
-0.44077,-0.223636,2.481,2.52975
-0.432717,-0.223636,2.481,2.52836
-0.427746,-0.225259,2.499,2.54533
-0.419634,-0.225259,2.499,2.54398
-0.414487,-0.226881,2.517,2.56097
-0.406318,-0.226881,2.517,2.55966
-0.398148,-0.226881,2.517,2.55838
-0.389979,-0.226881,2.517,2.55712
-0.381809,-0.226881,2.517,2.55588
-0.370968,-0.225259,2.499,2.53641
-0.362857,-0.225259,2.499,2.53523
-0.354745,-0.225259,2.499,2.53409
-0.346634,-0.225259,2.499,2.53296
-0.338523,-0.225259,2.499,2.53187
-0.330412,-0.225259,2.499,2.53079
-0.322301,-0.225259,2.499,2.52975
-0.31419,-0.225259,2.499,2.52873
-0.306079,-0.225259,2.499,2.52773
-0.295821,-0.223636,2.481,2.50856
-0.287769,-0.223636,2.481,2.50763
-0.279716,-0.223636,2.481,2.50671
-0.271663,-0.223636,2.481,2.50583
-0.26361,-0.223636,2.481,2.50497
-0.255558,-0.223636,2.481,2.50413
-0.247505,-0.223636,2.481,2.50332
-0.239452,-0.223636,2.481,2.50254
-0.2314,-0.223636,2.481,2.50178
-0.223347,-0.223636,2.481,2.50105
-0.215294,-0.223636,2.481,2.50035
-0.207241,-0.223636,2.481,2.49966
-0.199189,-0.223636,2.481,2.49901
-0.191136,-0.223636,2.481,2.49838
-0.184412,-0.225259,2.499,2.5159
-0.1763,-0.225259,2.499,2.51532
-0.168189,-0.225259,2.499,2.51476
-0.160078,-0.225259,2.499,2.51423
-0.151967,-0.225259,2.499,2.51373
-0.143856,-0.225259,2.499,2.51325
-0.135745,-0.225259,2.499,2.5128
-0.128553,-0.226881,2.517,2.53047
-0.120383,-0.226881,2.517,2.53007
-0.112214,-0.226881,2.517,2.5297
-0.104044,-0.226881,2.517,2.52935
-0.0958747,-0.226881,2.517,2.52902
-0.0877052,-0.226881,2.517,2.52873
-0.0795356,-0.226881,2.517,2.52846
-0.0713661,-0.226881,2.517,2.52821
-0.0631965,-0.226881,2.517,2.528
-0.055027,-0.226881,2.517,2.5278
-0.0468574,-0.226881,2.517,2.52764
-0.0386878,-0.226881,2.517,2.5275
-0.0305183,-0.226881,2.517,2.52739
-0.0221889,-0.225259,2.499,2.50923
-0.0140778,-0.225259,2.499,2.50917
-0.00596664,-0.225259,2.499,2.50914
0.00214449,-0.225259,2.499,2.50913
0.0102556,-0.225259,2.499,2.50915
0.0183668,-0.225259,2.499,2.5092
0.0264779,-0.225259,2.499,2.50927
0.034589,-0.225259,2.499,2.50937
0.0427002,-0.225259,2.499,2.5095
0.0504453,-0.223636,2.481,2.49157
0.058498,-0.223636,2.481,2.49175
0.0665507,-0.223636,2.481,2.49195
0.0746034,-0.223636,2.481,2.49218
0.0826561,-0.223636,2.481,2.49243
0.0907089,-0.223636,2.481,2.49271
0.0987616,-0.223636,2.481,2.49302
0.107589,-0.225259,2.499,2.51144
0.1157,-0.225259,2.499,2.5118
0.123811,-0.225259,2.499,2.51218
0.131923,-0.225259,2.499,2.5126
0.140034,-0.225259,2.499,2.51304
0.148145,-0.225259,2.499,2.5135
0.156256,-0.225259,2.499,2.51399
0.165551,-0.226881,2.517,2.53262
0.173721,-0.226881,2.517,2.53317
0.18189,-0.226881,2.517,2.53374
0.19006,-0.226881,2.517,2.53434
0.198229,-0.226881,2.517,2.53497
0.206399,-0.226881,2.517,2.53562
0.214568,-0.226881,2.517,2.5363
0.222738,-0.226881,2.517,2.537
0.230908,-0.226881,2.517,2.53773
0.239077,-0.226881,2.517,2.53849
0.247247,-0.226881,2.517,2.53927
0.255416,-0.226881,2.517,2.54008
0.263586,-0.226881,2.517,2.54091
0.271755,-0.226881,2.517,2.54177
0.279925,-0.226881,2.517,2.54266
0.288094,-0.226881,2.517,2.54357
0.294145,-0.225259,2.499,2.52631
0.302256,-0.225259,2.499,2.52727
0.310368,-0.225259,2.499,2.52825
0.318479,-0.225259,2.499,2.52926
0.328942,-0.226881,2.517,2.54852
0.334701,-0.225259,2.499,2.53136
0.342812,-0.225259,2.499,2.53244
0.353451,-0.226881,2.517,2.5518
0.36435,-0.228594,2.536,2.57222
0.372581,-0.228594,2.536,2.5734
0.380813,-0.228594,2.536,2.5746
0.389044,-0.228594,2.536,2.57583
0.397275,-0.228594,2.536,2.57709
0.405506,-0.228594,2.536,2.57837
0.413738,-0.228594,2.536,2.57968
0.421969,-0.228594,2.536,2.58101
0.4302,-0.228594,2.536,2.58237
0.438431,-0.228594,2.536,2.58375
0.446662,-0.228594,2.536,2.58516
0.454894,-0.228594,2.536,2.5866
0.463125,-0.228594,2.536,2.58806
0.471356,-0.228594,2.536,2.58954
0.479587,-0.228594,2.536,2.59105
0.487819,-0.228594,2.536,2.59259
0.49605,-0.228594,2.536,2.59415
0.504281,-0.228594,2.536,2.59574
0.508672,-0.226881,2.517,2.57789
0.516842,-0.226881,2.517,2.57951
0.525012,-0.226881,2.517,2.58116
0.529368,-0.225259,2.499,2.56437
0.537479,-0.225259,2.499,2.56605
0.54559,-0.225259,2.499,2.56776
0.553702,-0.225259,2.499,2.5695
0.561813,-0.225259,2.499,2.57126
0.569924,-0.225259,2.499,2.57304
0.578035,-0.225259,2.499,2.57485
0.586146,-0.225259,2.499,2.57669
0.594257,-0.225259,2.499,2.57854
0.602368,-0.225259,2.499,2.58042
0.610479,-0.225259,2.499,2.58233
0.618591,-0.225259,2.499,2.58426
0.626702,-0.225259,2.499,2.58621
0.63024,-0.223636,2.481,2.56955
0.638293,-0.223636,2.481,2.57154
0.646346,-0.223636,2.481,2.57355
0.654399,-0.223636,2.481,2.57558
0.662451,-0.223636,2.481,2.57764
0.670504,-0.223636,2.481,2.57972
0.678557,-0.223636,2.481,2.58182
0.691591,-0.225259,2.499,2.6027
0.699702,-0.225259,2.499,2.60487
0.707813,-0.225259,2.499,2.60706
0.715924,-0.225259,2.499,2.60927
0.724035,-0.225259,2.499,2.61151
0.732147,-0.225259,2.499,2.61377
0.740258,-0.225259,2.499,2.61605
0.748369,-0.225259,2.499,2.61836
0.75648,-0.225259,2.499,2.62069
0.764591,-0.225259,2.499,2.62304
0.772702,-0.225259,2.499,2.62542
0.780813,-0.225259,2.499,2.62782
0.788924,-0.225259,2.499,2.63024
0.797036,-0.225259,2.499,2.63268
0.805147,-0.225259,2.499,2.63515
0.813258,-0.225259,2.499,2.63764
0.815453,-0.223636,2.481,2.62113
0.823505,-0.223636,2.481,2.62365
0.831558,-0.223636,2.481,2.62619
0.839611,-0.223636,2.481,2.62875
0.847664,-0.223636,2.481,2.63133
0.855716,-0.223636,2.481,2.63394
0.857502,-0.222014,2.463,2.61744
0.865497,-0.222014,2.463,2.62007
0.873491,-0.222014,2.463,2.62272
0.875043,-0.220391,2.445,2.6062
0.87684,-0.218859,2.428,2.59074
0.88472,-0.218859,2.428,2.59342
0.892601,-0.218859,2.428,2.59612
0.894177,-0.217327,2.411,2.58064
0.902002,-0.217327,2.411,2.58336
0.903413,-0.215794,2.394,2.56787
0.911183,-0.215794,2.394,2.57061
0.912428,-0.214262,2.377,2.5551
0.920143,-0.214262,2.377,2.55787
0.927858,-0.214262,2.377,2.56066
0.929276,-0.21282,2.361,2.54621
0.936939,-0.21282,2.361,2.54901
0.944602,-0.21282,2.361,2.55184
0.958719,-0.214262,2.377,2.572
nan,nan,nan,NaN
nan,nan,nan,NaN
nan,nan,nan,NaN
nan,nan,nan,NaN
nan,nan,nan,NaN
nan,nan,nan,NaN
nan,nan,nan,NaN
nan,nan,nan,NaN
nan,nan,nan,NaN
nan,nan,nan,NaN
nan,nan,nan,NaN
nan,nan,nan,NaN
nan,nan,nan,NaN
nan,nan,nan,NaN
nan,nan,nan,NaN
nan,nan,nan,NaN
nan,nan,nan,NaN
1.73712,-0.339105,3.762,4.15755
1.74933,-0.339105,3.762,4.16267
1.76154,-0.339105,3.762,4.16781
1.77375,-0.339105,3.762,4.17299
1.78596,-0.339105,3.762,4.17819
1.77858,-0.335409,3.721,4.13784
1.79065,-0.335409,3.721,4.14304
1.80273,-0.335409,3.721,4.14827
1.81481,-0.335409,3.721,4.15354
1.82689,-0.335409,3.721,4.15883
1.83896,-0.335409,3.721,4.16415
1.85104,-0.335409,3.721,4.1695
1.86312,-0.335409,3.721,4.17487
1.8752,-0.335409,3.721,4.18028
nan,nan,nan,NaN
nan,nan,nan,NaN
nan,nan,nan,NaN
nan,nan,nan,NaN
nan,nan,nan,NaN
nan,nan,nan,NaN
nan,nan,nan,NaN
nan,nan,nan,NaN
2.00575,-0.339105,3.762,4.27676
2.01796,-0.339105,3.762,4.2825
2.03017,-0.339105,3.762,4.28827
2.04238,-0.339105,3.762,4.29406
2.0546,-0.339105,3.762,4.29988
2.06681,-0.339105,3.762,4.30573
2.07902,-0.339105,3.762,4.31161
2.09123,-0.339105,3.762,4.31751
2.12692,-0.342891,3.804,4.3717
2.11565,-0.339105,3.762,4.32939
2.10467,-0.335409,3.721,4.28812
2.11675,-0.335409,3.721,4.29406
2.10594,-0.331804,3.681,4.2538
2.11789,-0.331804,3.681,4.25973
2.10727,-0.328288,3.642,4.22049
2.11909,-0.328288,3.642,4.2264
2.13091,-0.328288,3.642,4.23234
2.09802,-0.321438,3.566,4.14986
2.10959,-0.321438,3.566,4.15573
2.09916,-0.318103,3.529,4.11843
2.08908,-0.314858,3.493,4.08221
2.10042,-0.314858,3.493,4.08802
2.06944,-0.308548,3.423,4.01182
2.02037,-0.299624,3.324,3.90137
2.03116,-0.299624,3.324,3.90696
2.04195,-0.299624,3.324,3.91258
1.97555,-0.288357,3.199,3.77088
1.98593,-0.288357,3.199,3.77633
1.96012,-0.283128,3.141,3.71323
1.91762,-0.275557,3.057,3.61918
1.92754,-0.275557,3.057,3.62444
1.92035,-0.273123,3.03,3.59767
1.89642,-0.268346,2.977,3.53991
1.90609,-0.268346,2.977,3.5451
1.88293,-0.263748,2.926,3.48948
1.87626,-0.261495,2.901,3.46476
1.85447,-0.257168,2.853,3.41245
1.86373,-0.257168,2.853,3.41749
1.84214,-0.252932,2.806,3.36617
1.83607,-0.250858,2.783,3.34353
1.84511,-0.250858,2.783,3.3485
1.82482,-0.246892,2.739,3.30046
1.80493,-0.243016,2.696,3.2535
1.81368,-0.243016,2.696,3.25836
1.80823,-0.241123,2.675,3.23782
1.78839,-0.237338,2.633,3.19176
-2.10201,-0.263291,3.03,3.69712
-2.09218,-0.263291,3.03,3.69153
-2.06379,-0.260945,3.003,3.65312
-2.03625,-0.258686,2.977,3.61604
-2.00889,-0.256426,2.951,3.57908
-1.99931,-0.256426,2.951,3.57371
-1.98974,-0.256426,2.951,3.56836
-1.98016,-0.256426,2.951,3.56303
-1.97058,-0.256426,2.951,3.55772
-1.961,-0.256426,2.951,3.55242
-1.96862,-0.258686,2.977,3.57839
-1.97606,-0.260945,3.003,3.60429
-1.96632,-0.260945,3.003,3.59896
-1.95657,-0.260945,3.003,3.59364
-1.98183,-0.265637,3.057,3.65287
-1.98932,-0.267983,3.084,3.67971
-1.97931,-0.267983,3.084,3.67431
-1.98718,-0.270416,3.112,3.70224
-1.99551,-0.272936,3.141,3.73128
-1.98531,-0.272936,3.141,3.72583
-1.99335,-0.275456,3.17,3.75476
-1.98306,-0.275456,3.17,3.74931
-1.99082,-0.277976,3.199,3.77813
-1.98044,-0.277976,3.199,3.77267
-1.97006,-0.277976,3.199,3.76723
-1.95967,-0.277976,3.199,3.76181
-1.94929,-0.277976,3.199,3.75641
-1.93891,-0.277976,3.199,3.75103
-1.92852,-0.277976,3.199,3.74567
-1.91814,-0.277976,3.199,3.74034
-1.94413,-0.283277,3.26,3.80625
nan,nan,nan,NaN
nan,nan,nan,NaN
nan,nan,nan,NaN
nan,nan,nan,NaN
nan,nan,nan,NaN
nan,nan,nan,NaN
nan,nan,nan,NaN
nan,nan,nan,NaN
nan,nan,nan,NaN
nan,nan,nan,NaN
nan,nan,nan,NaN
nan,nan,nan,NaN
nan,nan,nan,NaN
nan,nan,nan,NaN
nan,nan,nan,NaN
nan,nan,nan,NaN
nan,nan,nan,NaN
nan,nan,nan,NaN
nan,nan,nan,NaN
nan,nan,nan,NaN
nan,nan,nan,NaN
nan,nan,nan,NaN
nan,nan,nan,NaN
nan,nan,nan,NaN
nan,nan,nan,NaN
nan,nan,nan,NaN
nan,nan,nan,NaN
nan,nan,nan,NaN
nan,nan,nan,NaN
nan,nan,nan,NaN
nan,nan,nan,NaN
nan,nan,nan,NaN
-1.21383,-0.215586,2.481,2.77042
-1.20578,-0.215586,2.481,2.7669
-1.19772,-0.215586,2.481,2.7634
-1.18967,-0.215586,2.481,2.75992
-1.18162,-0.215586,2.481,2.75646
-1.17357,-0.215586,2.481,2.75302
-1.16551,-0.215586,2.481,2.74959
-1.15746,-0.215586,2.481,2.74619
-1.14107,-0.214022,2.463,2.72291
-1.13308,-0.214022,2.463,2.71956
-1.12508,-0.214022,2.463,2.71624
-1.11709,-0.214022,2.463,2.71294
-1.10909,-0.214022,2.463,2.70966
-1.1011,-0.214022,2.463,2.7064
-1.0931,-0.214022,2.463,2.70316
-1.08511,-0.214022,2.463,2.69993
-1.07712,-0.214022,2.463,2.69673
-1.06912,-0.214022,2.463,2.69355
-1.06113,-0.214022,2.463,2.69038
-1.05313,-0.214022,2.463,2.68724
-1.04514,-0.214022,2.463,2.68412
-1.03714,-0.214022,2.463,2.68102
-1.02915,-0.214022,2.463,2.67793
-1.02116,-0.214022,2.463,2.67487
-1.01316,-0.214022,2.463,2.67183
-0.997821,-0.212458,2.445,2.6493
-0.989885,-0.212458,2.445,2.64633
-0.981949,-0.212458,2.445,2.64337
-0.967241,-0.21098,2.428,2.62207
-0.95936,-0.21098,2.428,2.61917
-0.951479,-0.21098,2.428,2.6163
-0.943599,-0.21098,2.428,2.61344
-0.929166,-0.209503,2.411,2.59233
-0.921341,-0.209503,2.411,2.58953
-0.913515,-0.209503,2.411,2.58676
-0.90569,-0.209503,2.411,2.58401
-0.897864,-0.209503,2.411,2.58127
-0.890039,-0.209503,2.411,2.57856
-0.882213,-0.209503,2.411,2.57587
-0.868223,-0.208026,2.394,2.55506
-0.860452,-0.208026,2.394,2.55243
-0.852682,-0.208026,2.394,2.54982
-0.850911,-0.209503,2.411,2.56532
-0.843086,-0.209503,2.411,2.56273
-0.83526,-0.209503,2.411,2.56017
-0.827435,-0.209503,2.411,2.55763
-0.819609,-0.209503,2.411,2.55511
-0.811784,-0.209503,2.411,2.55261
-0.803958,-0.209503,2.411,2.55013
-0.796133,-0.209503,2.411,2.54767
-0.788307,-0.209503,2.411,2.54524
-0.780482,-0.209503,2.411,2.54283
-0.772656,-0.209503,2.411,2.54044
-0.764831,-0.209503,2.411,2.53807
-0.757005,-0.209503,2.411,2.53572
-0.754462,-0.21098,2.428,2.55126
-0.746581,-0.21098,2.428,2.54894
-0.738701,-0.21098,2.428,2.54664
-0.73082,-0.21098,2.428,2.54437
-0.722939,-0.21098,2.428,2.54211
-0.715059,-0.21098,2.428,2.53988
-0.707178,-0.21098,2.428,2.53768
-0.699297,-0.21098,2.428,2.53549
-0.691417,-0.21098,2.428,2.53333
-0.683536,-0.21098,2.428,2.53119
-0.675655,-0.21098,2.428,2.52907
-0.667775,-0.21098,2.428,2.52698
-0.659894,-0.21098,2.428,2.52491
-0.652013,-0.21098,2.428,2.52286
-0.644133,-0.21098,2.428,2.52083
-0.636252,-0.21098,2.428,2.51883
-0.628371,-0.21098,2.428,2.51685
-0.620491,-0.21098,2.428,2.5149
-0.61261,-0.21098,2.428,2.51296
-0.604729,-0.21098,2.428,2.51105
-0.601027,-0.212458,2.445,2.52674
-0.593092,-0.212458,2.445,2.52486
-0.585156,-0.212458,2.445,2.52301
-0.57722,-0.212458,2.445,2.52118
-0.569284,-0.212458,2.445,2.51937
-0.561348,-0.212458,2.445,2.51759
-0.553412,-0.212458,2.445,2.51584
-0.545476,-0.212458,2.445,2.5141
-0.541498,-0.214022,2.463,2.53089
-0.533504,-0.214022,2.463,2.52919
-0.525509,-0.214022,2.463,2.52752
-0.517515,-0.214022,2.463,2.52587
-0.509521,-0.214022,2.463,2.52424
-0.501526,-0.214022,2.463,2.52264
-0.493532,-0.214022,2.463,2.52106
-0.485538,-0.214022,2.463,2.51951
-0.477544,-0.214022,2.463,2.51798
-0.472981,-0.215586,2.481,2.53487
-0.464928,-0.215586,2.481,2.53338
-0.456875,-0.215586,2.481,2.53191
-0.448823,-0.215586,2.481,2.53047
-0.44077,-0.215586,2.481,2.52905
-0.432717,-0.215586,2.481,2.52766
-0.427746,-0.21715,2.499,2.54463
-0.419634,-0.21715,2.499,2.54328
-0.411523,-0.21715,2.499,2.54195
-0.403412,-0.21715,2.499,2.54065
-0.395301,-0.21715,2.499,2.53937
-0.38719,-0.21715,2.499,2.53812
-0.379079,-0.21715,2.499,2.5369
-0.370968,-0.21715,2.499,2.5357
-0.362857,-0.21715,2.499,2.53453
-0.354745,-0.21715,2.499,2.53338
-0.346634,-0.21715,2.499,2.53225
-0.338523,-0.21715,2.499,2.53116
-0.330412,-0.21715,2.499,2.53008
-0.322301,-0.21715,2.499,2.52904
-0.311927,-0.215586,2.481,2.50981
-0.303874,-0.215586,2.481,2.50882
-0.295821,-0.215586,2.481,2.50786
-0.287769,-0.215586,2.481,2.50692
-0.279716,-0.215586,2.481,2.50601
-0.271663,-0.215586,2.481,2.50512
-0.26361,-0.215586,2.481,2.50426
-0.255558,-0.215586,2.481,2.50343
-0.247505,-0.215586,2.481,2.50262
-0.24119,-0.21715,2.499,2.51999
-0.233078,-0.21715,2.499,2.51922
-0.224967,-0.21715,2.499,2.51848
-0.216856,-0.21715,2.499,2.51777
-0.208745,-0.21715,2.499,2.51709
-0.200634,-0.21715,2.499,2.51643
-0.192523,-0.21715,2.499,2.51579
-0.184412,-0.21715,2.499,2.51519
-0.1763,-0.21715,2.499,2.5146
-0.168189,-0.21715,2.499,2.51405
-0.160078,-0.21715,2.499,2.51352
-0.151967,-0.21715,2.499,2.51302
-0.143856,-0.21715,2.499,2.51254
-0.135745,-0.21715,2.499,2.51209
-0.127634,-0.21715,2.499,2.51166
-0.120383,-0.218714,2.517,2.52935
-0.112214,-0.218714,2.517,2.52898
-0.104044,-0.218714,2.517,2.52863
-0.0958747,-0.218714,2.517,2.5283
-0.0877052,-0.218714,2.517,2.52801
-0.0795356,-0.218714,2.517,2.52774
-0.0713661,-0.218714,2.517,2.52749
-0.0627446,-0.21715,2.499,2.5092
-0.0546334,-0.21715,2.499,2.50901
-0.0465223,-0.21715,2.499,2.50885
-0.0384112,-0.21715,2.499,2.50871
-0.0303,-0.21715,2.499,2.5086
-0.0220291,-0.215586,2.481,2.49045
-0.0139764,-0.215586,2.481,2.49039
-0.00592366,-0.215586,2.481,2.49036
0.00212905,-0.215586,2.481,2.49035
0.0101818,-0.215586,2.481,2.49037
0.0182345,-0.215586,2.481,2.49042
0.0262872,-0.215586,2.481,2.49049
0.0343399,-0.215586,2.481,2.49059
0.0423926,-0.215586,2.481,2.49071
0.0504453,-0.215586,2.481,2.49086
0.058498,-0.215586,2.481,2.49104
0.0665507,-0.215586,2.481,2.49124
0.0746034,-0.215586,2.481,2.49147
0.0826561,-0.215586,2.481,2.49172
0.0907089,-0.215586,2.481,2.492
0.0987616,-0.215586,2.481,2.49231
0.106814,-0.215586,2.481,2.49264
0.1157,-0.21715,2.499,2.51108
0.123811,-0.21715,2.499,2.51147
0.131923,-0.21715,2.499,2.51188
0.140034,-0.21715,2.499,2.51232
0.148145,-0.21715,2.499,2.51279
0.156256,-0.21715,2.499,2.51328
0.165551,-0.218714,2.517,2.5319
0.173721,-0.218714,2.517,2.53245
0.18189,-0.218714,2.517,2.53302
0.19006,-0.218714,2.517,2.53362
0.198229,-0.218714,2.517,2.53425
0.206399,-0.218714,2.517,2.5349
0.214568,-0.218714,2.517,2.53558
0.222738,-0.218714,2.517,2.53628
0.230908,-0.218714,2.517,2.53701
0.239077,-0.218714,2.517,2.53777
0.247247,-0.218714,2.517,2.53855
0.255416,-0.218714,2.517,2.53936
0.263586,-0.218714,2.517,2.5402
0.271755,-0.218714,2.517,2.54106
0.279925,-0.218714,2.517,2.54194
0.288094,-0.218714,2.517,2.54286
0.296264,-0.218714,2.517,2.5438
0.304434,-0.218714,2.517,2.54476
0.312603,-0.218714,2.517,2.54575
0.320773,-0.218714,2.517,2.54677
0.328942,-0.218714,2.517,2.54781
0.337112,-0.218714,2.517,2.54888
0.345281,-0.218714,2.517,2.54997
0.353451,-0.218714,2.517,2.55109
0.36435,-0.220365,2.536,2.5715
0.372581,-0.220365,2.536,2.57268
0.380813,-0.220365,2.536,2.57388
0.389044,-0.220365,2.536,2.57511
0.397275,-0.220365,2.536,2.57637
0.405506,-0.220365,2.536,2.57765
0.413738,-0.220365,2.536,2.57896
0.421969,-0.220365,2.536,2.58029
0.4302,-0.220365,2.536,2.58165
0.438431,-0.220365,2.536,2.58304
0.446662,-0.220365,2.536,2.58445
0.454894,-0.220365,2.536,2.58588
0.463125,-0.220365,2.536,2.58734
0.471356,-0.220365,2.536,2.58883
0.479587,-0.220365,2.536,2.59034
0.487819,-0.220365,2.536,2.59188
0.49605,-0.220365,2.536,2.59344
0.504281,-0.220365,2.536,2.59503
0.508672,-0.218714,2.517,2.57718
0.516842,-0.218714,2.517,2.57881
0.525012,-0.218714,2.517,2.58046
0.529368,-0.21715,2.499,2.56367
0.537479,-0.21715,2.499,2.56535
0.54559,-0.21715,2.499,2.56707
0.553702,-0.21715,2.499,2.5688
0.561813,-0.21715,2.499,2.57056
0.569924,-0.21715,2.499,2.57235
0.578035,-0.21715,2.499,2.57416
0.586146,-0.21715,2.499,2.57599
0.594257,-0.21715,2.499,2.57785
0.602368,-0.21715,2.499,2.57973
0.610479,-0.21715,2.499,2.58164
0.618591,-0.21715,2.499,2.58357
0.626702,-0.21715,2.499,2.58552
0.634813,-0.21715,2.499,2.5875
0.638293,-0.215586,2.481,2.57085
0.646346,-0.215586,2.481,2.57286
0.654399,-0.215586,2.481,2.57489
0.662451,-0.215586,2.481,2.57695
0.670504,-0.215586,2.481,2.57903
0.678557,-0.215586,2.481,2.58114
0.691591,-0.21715,2.499,2.60201
0.699702,-0.21715,2.499,2.60418
0.707813,-0.21715,2.499,2.60637
0.715924,-0.21715,2.499,2.60858
0.724035,-0.21715,2.499,2.61082
0.732147,-0.21715,2.499,2.61308
0.740258,-0.21715,2.499,2.61537
0.748369,-0.21715,2.499,2.61767
0.75648,-0.21715,2.499,2.62
0.764591,-0.21715,2.499,2.62236
0.772702,-0.21715,2.499,2.62473
0.780813,-0.21715,2.499,2.62713
0.788924,-0.21715,2.499,2.62955
0.797036,-0.21715,2.499,2.632
0.805147,-0.21715,2.499,2.63447
0.813258,-0.21715,2.499,2.63696
0.815453,-0.215586,2.481,2.62046
0.823505,-0.215586,2.481,2.62298
0.831558,-0.215586,2.481,2.62551
0.839611,-0.215586,2.481,2.62808
0.847664,-0.215586,2.481,2.63066
0.855716,-0.215586,2.481,2.63327
0.857502,-0.214022,2.463,2.61677
0.865497,-0.214022,2.463,2.6194
0.873491,-0.214022,2.463,2.62205
0.875043,-0.212458,2.445,2.60555
0.87684,-0.21098,2.428,2.59009
0.88472,-0.21098,2.428,2.59276
0.892601,-0.21098,2.428,2.59546
0.894177,-0.209503,2.411,2.57999
0.902002,-0.209503,2.411,2.58272
0.903413,-0.208026,2.394,2.56723
0.911183,-0.208026,2.394,2.56997
0.912428,-0.206549,2.377,2.55447
0.920143,-0.206549,2.377,2.55724
0.927858,-0.206549,2.377,2.56002
0.929276,-0.205158,2.361,2.54558
0.936939,-0.205158,2.361,2.54838
0.944602,-0.205158,2.361,2.55121
0.958719,-0.206549,2.377,2.57137
nan,nan,nan,NaN
nan,nan,nan,NaN
nan,nan,nan,NaN
nan,nan,nan,NaN
nan,nan,nan,NaN
nan,nan,nan,NaN
nan,nan,nan,NaN
nan,nan,nan,NaN
nan,nan,nan,NaN
nan,nan,nan,NaN
nan,nan,nan,NaN
nan,nan,nan,NaN
nan,nan,nan,NaN
nan,nan,nan,NaN
nan,nan,nan,NaN
nan,nan,nan,NaN
nan,nan,nan,NaN
1.73712,-0.326898,3.762,4.15657
1.74933,-0.326898,3.762,4.16169
1.74234,-0.323335,3.721,4.12143
1.75442,-0.323335,3.721,4.12655
1.7665,-0.323335,3.721,4.1317
1.75946,-0.31986,3.681,4.0924
1.77141,-0.31986,3.681,4.09755
1.78335,-0.31986,3.681,4.10273
1.7953,-0.31986,3.681,4.10794
1.80725,-0.31986,3.681,4.11318
1.8192,-0.31986,3.681,4.11844
1.83114,-0.31986,3.681,4.12373
1.82356,-0.316471,3.642,4.0853
1.83538,-0.316471,3.642,4.09059
nan,nan,nan,NaN
nan,nan,nan,NaN
nan,nan,nan,NaN
nan,nan,nan,NaN
nan,nan,nan,NaN
nan,nan,nan,NaN
nan,nan,nan,NaN
nan,nan,nan,NaN
2.02815,-0.330548,3.804,4.32355
2.04049,-0.330548,3.804,4.32935
2.05284,-0.330548,3.804,4.33519
2.06519,-0.330548,3.804,4.34105
2.07753,-0.330548,3.804,4.34693
2.08988,-0.330548,3.804,4.35285
2.10223,-0.330548,3.804,4.35879
2.11457,-0.330548,3.804,4.36476
2.12692,-0.330548,3.804,4.37075
2.11565,-0.326898,3.762,4.32845
2.10467,-0.323335,3.721,4.28719
2.11675,-0.323335,3.721,4.29313
2.12882,-0.323335,3.721,4.2991
2.11789,-0.31986,3.681,4.25882
2.12983,-0.31986,3.681,4.26477
2.14178,-0.31986,3.681,4.27075
2.13091,-0.316471,3.642,4.23144
2.09802,-0.309867,3.566,4.14898
2.10959,-0.309867,3.566,4.15485
2.09916,-0.306652,3.529,4.11757
2.06815,-0.300482,3.458,4.04046
2.07937,-0.300482,3.458,4.04621
2.04888,-0.294486,3.389,3.97114
2.02037,-0.288838,3.324,3.90055
2.03116,-0.288838,3.324,3.90615
2.04195,-0.288838,3.324,3.91177
1.97555,-0.277976,3.199,3.7701
1.98593,-0.277976,3.199,3.77555
1.94202,-0.270416,3.112,3.67819
1.91762,-0.265637,3.057,3.61844
1.92754,-0.265637,3.057,3.6237
1.90324,-0.260945,3.003,3.56489
1.89642,-0.258686,2.977,3.53919
1.90609,-0.258686,2.977,3.54438
1.88293,-0.254254,2.926,3.48877
1.86074,-0.249996,2.877,3.4354
1.85447,-0.247911,2.853,3.41177
1.86373,-0.247911,2.853,3.41681
1.84214,-0.243827,2.806,3.3655
1.83607,-0.241828,2.783,3.34286
1.84511,-0.241828,2.783,3.34783
1.82482,-0.238005,2.739,3.29981
1.80493,-0.234268,2.696,3.25285
1.81368,-0.234268,2.696,3.25772
1.80823,-0.232443,2.675,3.23718
1.78839,-0.228794,2.633,3.19114
-2.10201,-0.253459,3.03,3.69643
-2.09218,-0.253459,3.03,3.69085
-2.06379,-0.251201,3.003,3.65244
-2.03625,-0.249026,2.977,3.61537
-2.00889,-0.246851,2.951,3.57841
-1.99931,-0.246851,2.951,3.57304
-1.98974,-0.246851,2.951,3.56769
-1.98016,-0.246851,2.951,3.56235
-1.97058,-0.246851,2.951,3.55704
-1.961,-0.246851,2.951,3.55174
-1.96862,-0.249026,2.977,3.57771
-1.97606,-0.251201,3.003,3.6036
-1.96632,-0.251201,3.003,3.59826
-1.95657,-0.251201,3.003,3.59295
-1.98183,-0.255718,3.057,3.65216
-1.98932,-0.257976,3.084,3.679
-1.97931,-0.257976,3.084,3.67359
-1.98718,-0.260318,3.112,3.70151
-1.99551,-0.262744,3.141,3.73054
-1.98531,-0.262744,3.141,3.7251
-1.99335,-0.26517,3.17,3.75402
-1.98306,-0.26517,3.17,3.74857
-1.99082,-0.267596,3.199,3.77738
-1.98044,-0.267596,3.199,3.77192
-1.97006,-0.267596,3.199,3.76647
-1.95967,-0.267596,3.199,3.76105
-1.94929,-0.267596,3.199,3.75565
-1.93891,-0.267596,3.199,3.75028
-1.92852,-0.267596,3.199,3.74492
-1.91814,-0.267596,3.199,3.73958
nan,nan,nan,NaN
nan,nan,nan,NaN
nan,nan,nan,NaN
nan,nan,nan,NaN
nan,nan,nan,NaN
nan,nan,nan,NaN
nan,nan,nan,NaN
nan,nan,nan,NaN
nan,nan,nan,NaN
nan,nan,nan,NaN
nan,nan,nan,NaN
nan,nan,nan,NaN
nan,nan,nan,NaN
nan,nan,nan,NaN
nan,nan,nan,NaN
nan,nan,nan,NaN
nan,nan,nan,NaN
nan,nan,nan,NaN
nan,nan,nan,NaN
nan,nan,nan,NaN
nan,nan,nan,NaN
nan,nan,nan,NaN
nan,nan,nan,NaN
nan,nan,nan,NaN
nan,nan,nan,NaN
nan,nan,nan,NaN
nan,nan,nan,NaN
nan,nan,nan,NaN
nan,nan,nan,NaN
nan,nan,nan,NaN
nan,nan,nan,NaN
nan,nan,nan,NaN
nan,nan,nan,NaN
-1.20502,-0.20603,2.463,2.74971
-1.19703,-0.20603,2.463,2.74621
-1.18904,-0.20603,2.463,2.74274
-1.18967,-0.207535,2.481,2.7593
-1.18162,-0.207535,2.481,2.75584
-1.17357,-0.207535,2.481,2.7524
-1.15706,-0.20603,2.463,2.72903
-1.14906,-0.20603,2.463,2.72565
-1.14107,-0.20603,2.463,2.72229
-1.13308,-0.20603,2.463,2.71895
-1.12508,-0.20603,2.463,2.71563
-1.11709,-0.20603,2.463,2.71232
-1.10909,-0.20603,2.463,2.70904
-1.1011,-0.20603,2.463,2.70578
-1.0931,-0.20603,2.463,2.70253
-1.08511,-0.20603,2.463,2.69931
-1.07712,-0.20603,2.463,2.69611
-1.06912,-0.20603,2.463,2.69292
-1.06113,-0.20603,2.463,2.68976
-1.05313,-0.20603,2.463,2.68662
-1.04514,-0.20603,2.463,2.68349
-1.03714,-0.20603,2.463,2.68039
-1.02915,-0.20603,2.463,2.67731
-1.01369,-0.204524,2.445,2.6547
-1.00576,-0.204524,2.445,2.65168
-0.997821,-0.204524,2.445,2.64868
-0.983002,-0.203102,2.428,2.6273
-0.975121,-0.203102,2.428,2.62437
-0.967241,-0.203102,2.428,2.62145
-0.95936,-0.203102,2.428,2.61855
-0.951479,-0.203102,2.428,2.61567
-0.936992,-0.20168,2.411,2.59452
-0.929166,-0.20168,2.411,2.59171
-0.921341,-0.20168,2.411,2.58891
-0.913515,-0.20168,2.411,2.58614
-0.899304,-0.200258,2.394,2.56517
-0.891534,-0.200258,2.394,2.56245
-0.883763,-0.200258,2.394,2.55976
-0.875993,-0.200258,2.394,2.55709
-0.868223,-0.200258,2.394,2.55444
-0.860452,-0.200258,2.394,2.55181
-0.852682,-0.200258,2.394,2.5492
-0.844912,-0.200258,2.394,2.54661
-0.837141,-0.200258,2.394,2.54404
-0.829371,-0.200258,2.394,2.54149
-0.821601,-0.200258,2.394,2.53897
-0.819609,-0.20168,2.411,2.55448
-0.811784,-0.20168,2.411,2.55198
-0.803958,-0.20168,2.411,2.5495
-0.796133,-0.20168,2.411,2.54704
-0.788307,-0.20168,2.411,2.54461
-0.780482,-0.20168,2.411,2.54219
-0.772656,-0.20168,2.411,2.5398
-0.764831,-0.20168,2.411,2.53743
-0.757005,-0.20168,2.411,2.53508
-0.74918,-0.20168,2.411,2.53276
-0.741354,-0.20168,2.411,2.53045
-0.733529,-0.20168,2.411,2.52817
-0.725703,-0.20168,2.411,2.52591
-0.717878,-0.20168,2.411,2.52368
-0.710052,-0.20168,2.411,2.52146
-0.702227,-0.20168,2.411,2.51927
-0.694401,-0.20168,2.411,2.5171
-0.686576,-0.20168,2.411,2.51495
-0.67875,-0.20168,2.411,2.51283
-0.670925,-0.20168,2.411,2.51072
-0.663099,-0.20168,2.411,2.50864
-0.655274,-0.20168,2.411,2.50659
-0.647448,-0.20168,2.411,2.50455
-0.644133,-0.203102,2.428,2.52019
-0.636252,-0.203102,2.428,2.51818
-0.628371,-0.203102,2.428,2.5162
-0.620491,-0.203102,2.428,2.51425
-0.61261,-0.203102,2.428,2.51231
-0.604729,-0.203102,2.428,2.5104
-0.601027,-0.204524,2.445,2.52608
-0.593092,-0.204524,2.445,2.52421
-0.585156,-0.204524,2.445,2.52235
-0.57722,-0.204524,2.445,2.52052
-0.569284,-0.204524,2.445,2.51872
-0.561348,-0.204524,2.445,2.51694
-0.553412,-0.204524,2.445,2.51518
-0.545476,-0.204524,2.445,2.51344
-0.541498,-0.20603,2.463,2.53022
-0.533504,-0.20603,2.463,2.52853
-0.525509,-0.20603,2.463,2.52685
-0.517515,-0.20603,2.463,2.5252
-0.509521,-0.20603,2.463,2.52357
-0.501526,-0.20603,2.463,2.52197
-0.493532,-0.20603,2.463,2.5204
-0.485538,-0.20603,2.463,2.51884
-0.477544,-0.20603,2.463,2.51731
-0.469549,-0.20603,2.463,2.51581
-0.464928,-0.207535,2.481,2.5327
-0.456875,-0.207535,2.481,2.53124
-0.448823,-0.207535,2.481,2.5298
-0.44077,-0.207535,2.481,2.52838
-0.432717,-0.207535,2.481,2.52699
-0.427746,-0.209041,2.499,2.54395
-0.419634,-0.209041,2.499,2.5426
-0.411523,-0.209041,2.499,2.54127
-0.403412,-0.209041,2.499,2.53997
-0.395301,-0.209041,2.499,2.53869
-0.38719,-0.209041,2.499,2.53744
-0.379079,-0.209041,2.499,2.53622
-0.370968,-0.209041,2.499,2.53502
-0.362857,-0.209041,2.499,2.53384
-0.354745,-0.209041,2.499,2.53269
-0.346634,-0.209041,2.499,2.53157
-0.338523,-0.209041,2.499,2.53047
-0.330412,-0.209041,2.499,2.5294
-0.322301,-0.209041,2.499,2.52835
-0.311927,-0.207535,2.481,2.50913
-0.303874,-0.207535,2.481,2.50814
-0.295821,-0.207535,2.481,2.50718
-0.287769,-0.207535,2.481,2.50624
-0.279716,-0.207535,2.481,2.50533
-0.271663,-0.207535,2.481,2.50444
-0.26361,-0.207535,2.481,2.50358
-0.255558,-0.207535,2.481,2.50275
-0.247505,-0.207535,2.481,2.50194
-0.24119,-0.209041,2.499,2.5193
-0.233078,-0.209041,2.499,2.51854
-0.224967,-0.209041,2.499,2.5178
-0.216856,-0.209041,2.499,2.51709
-0.208745,-0.209041,2.499,2.5164
-0.200634,-0.209041,2.499,2.51574
-0.192523,-0.209041,2.499,2.51511
-0.184412,-0.209041,2.499,2.5145
-0.1763,-0.209041,2.499,2.51392
-0.168189,-0.209041,2.499,2.51336
-0.160078,-0.209041,2.499,2.51283
-0.151967,-0.209041,2.499,2.51233
-0.143856,-0.209041,2.499,2.51185
-0.135745,-0.209041,2.499,2.5114
-0.127634,-0.209041,2.499,2.51097
-0.120383,-0.210547,2.517,2.52866
-0.112214,-0.210547,2.517,2.52828
-0.104044,-0.210547,2.517,2.52793
-0.0958747,-0.210547,2.517,2.52761
-0.0877052,-0.210547,2.517,2.52731
-0.0795356,-0.210547,2.517,2.52704
-0.0713661,-0.210547,2.517,2.5268
-0.0627446,-0.209041,2.499,2.50851
-0.0546334,-0.209041,2.499,2.50832
-0.0465223,-0.209041,2.499,2.50816
-0.0384112,-0.209041,2.499,2.50802
-0.0303,-0.209041,2.499,2.50791
-0.0220291,-0.207535,2.481,2.48976
-0.0139764,-0.207535,2.481,2.4897
-0.00592366,-0.207535,2.481,2.48967
0.00212905,-0.207535,2.481,2.48967
0.0101818,-0.207535,2.481,2.48969
0.0182345,-0.207535,2.481,2.48973
0.0262872,-0.207535,2.481,2.4898
0.0343399,-0.207535,2.481,2.4899
0.0423926,-0.207535,2.481,2.49003
0.0504453,-0.207535,2.481,2.49018
0.058498,-0.207535,2.481,2.49035
0.0665507,-0.207535,2.481,2.49055
0.0746034,-0.207535,2.481,2.49078
0.0826561,-0.207535,2.481,2.49104
0.0907089,-0.207535,2.481,2.49132
0.0987616,-0.207535,2.481,2.49162
0.106814,-0.207535,2.481,2.49196
0.1157,-0.209041,2.499,2.5104
0.123811,-0.209041,2.499,2.51078
0.131923,-0.209041,2.499,2.5112
0.140034,-0.209041,2.499,2.51163
0.149212,-0.210547,2.517,2.53019
0.157382,-0.210547,2.517,2.53069
0.165551,-0.210547,2.517,2.53121
0.173721,-0.210547,2.517,2.53176
0.18189,-0.210547,2.517,2.53233
0.19006,-0.210547,2.517,2.53293
0.198229,-0.210547,2.517,2.53356
0.206399,-0.210547,2.517,2.53421
0.214568,-0.210547,2.517,2.53489
0.222738,-0.210547,2.517,2.53559
0.230908,-0.210547,2.517,2.53632
0.239077,-0.210547,2.517,2.53708
0.247247,-0.210547,2.517,2.53786
0.255416,-0.210547,2.517,2.53867
0.263586,-0.210547,2.517,2.53951
0.271755,-0.210547,2.517,2.54037
0.279925,-0.210547,2.517,2.54126
0.288094,-0.210547,2.517,2.54217
0.296264,-0.210547,2.517,2.54311
0.304434,-0.210547,2.517,2.54407
0.312603,-0.210547,2.517,2.54506
0.320773,-0.210547,2.517,2.54608
0.328942,-0.210547,2.517,2.54712
0.337112,-0.210547,2.517,2.54819
0.345281,-0.210547,2.517,2.54928
0.353451,-0.210547,2.517,2.5504
0.36435,-0.212136,2.536,2.57081
0.372581,-0.212136,2.536,2.57199
0.380813,-0.212136,2.536,2.57319
0.389044,-0.212136,2.536,2.57442
0.397275,-0.212136,2.536,2.57568
0.405506,-0.212136,2.536,2.57696
0.413738,-0.212136,2.536,2.57827
0.421969,-0.212136,2.536,2.5796
0.4302,-0.212136,2.536,2.58096
0.438431,-0.212136,2.536,2.58235
0.446662,-0.212136,2.536,2.58376
0.454894,-0.212136,2.536,2.58519
0.463125,-0.212136,2.536,2.58665
0.471356,-0.212136,2.536,2.58814
0.479587,-0.212136,2.536,2.58965
0.487819,-0.212136,2.536,2.59119
0.49605,-0.212136,2.536,2.59275
0.504281,-0.212136,2.536,2.59434
0.508672,-0.210547,2.517,2.5765
0.516842,-0.210547,2.517,2.57813
0.525012,-0.210547,2.517,2.57978
0.529368,-0.209041,2.499,2.56299
0.537479,-0.209041,2.499,2.56468
0.54559,-0.209041,2.499,2.56639
0.553702,-0.209041,2.499,2.56813
0.561813,-0.209041,2.499,2.56989
0.569924,-0.209041,2.499,2.57168
0.578035,-0.209041,2.499,2.57348
0.586146,-0.209041,2.499,2.57532
0.594257,-0.209041,2.499,2.57718
0.602368,-0.209041,2.499,2.57906
0.610479,-0.209041,2.499,2.58097
0.618591,-0.209041,2.499,2.5829
0.626702,-0.209041,2.499,2.58485
0.634813,-0.209041,2.499,2.58683
0.638293,-0.207535,2.481,2.57018
0.646346,-0.207535,2.481,2.5722
0.654399,-0.207535,2.481,2.57423
0.662451,-0.207535,2.481,2.57629
0.670504,-0.207535,2.481,2.57837
0.678557,-0.207535,2.481,2.58048
0.691591,-0.209041,2.499,2.60135
0.699702,-0.209041,2.499,2.60351
0.707813,-0.209041,2.499,2.60571
0.715924,-0.209041,2.499,2.60792
0.724035,-0.209041,2.499,2.61016
0.732147,-0.209041,2.499,2.61242
0.740258,-0.209041,2.499,2.6147
0.748369,-0.209041,2.499,2.61701
0.75648,-0.209041,2.499,2.61934
0.764591,-0.209041,2.499,2.6217
0.772702,-0.209041,2.499,2.62407
0.780813,-0.209041,2.499,2.62647
0.788924,-0.209041,2.499,2.6289
0.797036,-0.209041,2.499,2.63134
0.805147,-0.209041,2.499,2.63381
0.813258,-0.209041,2.499,2.6363
0.821369,-0.209041,2.499,2.63882
0.82948,-0.209041,2.499,2.64135
0.831558,-0.207535,2.481,2.62487
0.839611,-0.207535,2.481,2.62743
0.847664,-0.207535,2.481,2.63001
0.855716,-0.207535,2.481,2.63262
0.857502,-0.20603,2.463,2.61613
0.865497,-0.20603,2.463,2.61876
0.873491,-0.20603,2.463,2.62141
0.875043,-0.204524,2.445,2.60491
0.882979,-0.204524,2.445,2.60759
0.890915,-0.204524,2.445,2.61028
0.892601,-0.203102,2.428,2.59484
0.894177,-0.20168,2.411,2.57937
0.902002,-0.20168,2.411,2.58209
0.903413,-0.200258,2.394,2.56661
0.911183,-0.200258,2.394,2.56936
0.918953,-0.200258,2.394,2.57212
0.926724,-0.200258,2.394,2.57491
0.927858,-0.198836,2.377,2.55941
0.935573,-0.198836,2.377,2.56222
0.943288,-0.198836,2.377,2.56505
0.951003,-0.198836,2.377,2.56789
0.958719,-0.198836,2.377,2.57076
nan,nan,nan,NaN
nan,nan,nan,NaN
nan,nan,nan,NaN
nan,nan,nan,NaN
nan,nan,nan,NaN
nan,nan,nan,NaN
nan,nan,nan,NaN
nan,nan,nan,NaN
nan,nan,nan,NaN
nan,nan,nan,NaN
nan,nan,nan,NaN
nan,nan,nan,NaN
nan,nan,nan,NaN
nan,nan,nan,NaN
nan,nan,nan,NaN
nan,nan,nan,NaN
nan,nan,nan,NaN
nan,nan,nan,NaN
nan,nan,nan,NaN
1.74234,-0.311261,3.721,4.1205
1.75442,-0.311261,3.721,4.12562
1.7665,-0.311261,3.721,4.13077
1.75946,-0.307915,3.681,4.09149
1.77141,-0.307915,3.681,4.09664
1.78335,-0.307915,3.681,4.10182
1.77628,-0.304653,3.642,4.06351
1.7881,-0.304653,3.642,4.0687
1.79992,-0.304653,3.642,4.0739
1.83114,-0.307915,3.681,4.12282
1.82356,-0.304653,3.642,4.0844
1.83538,-0.304653,3.642,4.0897
nan,nan,nan,NaN
nan,nan,nan,NaN
nan,nan,nan,NaN
nan,nan,nan,NaN
nan,nan,nan,NaN
nan,nan,nan,NaN
nan,nan,nan,NaN
nan,nan,nan,NaN
2.00575,-0.314691,3.762,4.27489
2.01796,-0.314691,3.762,4.28064
2.05284,-0.318204,3.804,4.33426
2.06519,-0.318204,3.804,4.34012
2.07753,-0.318204,3.804,4.34601
2.08988,-0.318204,3.804,4.35193
2.10223,-0.318204,3.804,4.35787
2.11457,-0.318204,3.804,4.36384
2.12692,-0.318204,3.804,4.36984
2.11565,-0.314691,3.762,4.32754
2.10467,-0.311261,3.721,4.2863
2.11675,-0.311261,3.721,4.29224
2.12882,-0.311261,3.721,4.29821
2.11789,-0.307915,3.681,4.25794
2.12983,-0.307915,3.681,4.26389
2.14178,-0.307915,3.681,4.26987
2.13091,-0.304653,3.642,4.23057
2.09802,-0.298296,3.566,4.14813
2.10959,-0.298296,3.566,4.154
2.09916,-0.2952,3.529,4.11673
2.06815,-0.289261,3.458,4.03964
2.07937,-0.289261,3.458,4.0454
2.04888,-0.283489,3.389,3.97034
2.02037,-0.278052,3.324,3.89977
2.03116,-0.278052,3.324,3.90537
2.04195,-0.278052,3.324,3.91099
1.97555,-0.267596,3.199,3.76935
1.98593,-0.267596,3.199,3.7748
1.94202,-0.260318,3.112,3.67747
1.91762,-0.255718,3.057,3.61772
1.92754,-0.255718,3.057,3.62299
1.90324,-0.251201,3.003,3.56419
1.89642,-0.249026,2.977,3.5385
1.90609,-0.249026,2.977,3.54369
1.88293,-0.24476,2.926,3.4881
1.86074,-0.240661,2.877,3.43473
1.85447,-0.238653,2.853,3.41111
1.86373,-0.238653,2.853,3.41615
1.84214,-0.234722,2.806,3.36485
1.83607,-0.232798,2.783,3.34222
1.84511,-0.232798,2.783,3.34719
1.82482,-0.229117,2.739,3.29918
1.80493,-0.22552,2.696,3.25224
1.81368,-0.22552,2.696,3.2571
1.80823,-0.223763,2.675,3.23657
1.78839,-0.22025,2.633,3.19054
-2.08328,-0.241456,3.003,3.66284
-2.07353,-0.241456,3.003,3.6573
-2.02805,-0.237275,2.951,3.58855
-2.00137,-0.235265,2.926,3.55279
-1.97485,-0.233255,2.901,3.51714
-1.96544,-0.233255,2.901,3.51186
-1.93984,-0.231325,2.877,3.47759
-1.9305,-0.231325,2.877,3.47239
-1.92116,-0.231325,2.877,3.46721
-1.91183,-0.231325,2.877,3.46204
-1.91836,-0.233255,2.901,3.48573
-1.90894,-0.233255,2.901,3.48056
-1.89953,-0.233255,2.901,3.4754
-1.9064,-0.235265,2.926,3.50017
-1.92997,-0.239366,2.977,3.55592
-1.93707,-0.241456,3.003,3.5817
-1.92733,-0.241456,3.003,3.57644
-1.93482,-0.243627,3.03,3.6033
-1.95929,-0.247969,3.084,3.66215
-1.94928,-0.247969,3.084,3.65681
-1.93927,-0.247969,3.084,3.65148
-1.94678,-0.250221,3.112,3.67928
-1.93668,-0.250221,3.112,3.67395
-1.92658,-0.250221,3.112,3.66863
-1.93434,-0.252552,3.141,3.69747
-1.94191,-0.254884,3.17,3.72624
-1.91395,-0.252552,3.141,3.68685
-1.90375,-0.252552,3.141,3.68157
-1.89356,-0.252552,3.141,3.67631
-1.88336,-0.252552,3.141,3.67106
-1.87317,-0.252552,3.141,3.66584
nan,nan,nan,NaN
nan,nan,nan,NaN
nan,nan,nan,NaN
nan,nan,nan,NaN
nan,nan,nan,NaN
nan,nan,nan,NaN
nan,nan,nan,NaN
nan,nan,nan,NaN
nan,nan,nan,NaN
nan,nan,nan,NaN
nan,nan,nan,NaN
nan,nan,nan,NaN
nan,nan,nan,NaN
nan,nan,nan,NaN
nan,nan,nan,NaN
nan,nan,nan,NaN
nan,nan,nan,NaN
nan,nan,nan,NaN
nan,nan,nan,NaN
nan,nan,nan,NaN
nan,nan,nan,NaN
nan,nan,nan,NaN
nan,nan,nan,NaN
nan,nan,nan,NaN
nan,nan,nan,NaN
nan,nan,nan,NaN
nan,nan,nan,NaN
nan,nan,nan,NaN
nan,nan,nan,NaN
nan,nan,nan,NaN
nan,nan,nan,NaN
nan,nan,nan,NaN
-1.20502,-0.198038,2.463,2.74912
-1.19703,-0.198038,2.463,2.74563
-1.18904,-0.198038,2.463,2.74215
-1.18104,-0.198038,2.463,2.73869
-1.17305,-0.198038,2.463,2.73526
-1.16505,-0.198038,2.463,2.73184
-1.15706,-0.198038,2.463,2.72844
-1.14906,-0.198038,2.463,2.72506
-1.13273,-0.19659,2.445,2.70181
-1.12479,-0.19659,2.445,2.69849
-1.11686,-0.19659,2.445,2.69519
-1.10892,-0.19659,2.445,2.69191
-1.10099,-0.19659,2.445,2.68865
-1.09305,-0.19659,2.445,2.68541
-1.08512,-0.19659,2.445,2.68219
-1.07718,-0.19659,2.445,2.67899
-1.06924,-0.19659,2.445,2.67581
-1.06131,-0.19659,2.445,2.67265
-1.05337,-0.19659,2.445,2.66951
-1.04544,-0.19659,2.445,2.66639
-1.0375,-0.19659,2.445,2.66328
-1.02956,-0.19659,2.445,2.6602
-1.02163,-0.19659,2.445,2.65714
-1.00664,-0.195223,2.428,2.63565
-0.998763,-0.195223,2.428,2.63265
-0.990883,-0.195223,2.428,2.62967
-0.983002,-0.195223,2.428,2.62671
-0.975121,-0.195223,2.428,2.62377
-0.967241,-0.195223,2.428,2.62085
-0.952643,-0.193857,2.411,2.59962
-0.944817,-0.193857,2.411,2.59676
-0.936992,-0.193857,2.411,2.59393
-0.929166,-0.193857,2.411,2.59111
-0.914845,-0.19249,2.394,2.57006
-0.907074,-0.19249,2.394,2.56731
-0.899304,-0.19249,2.394,2.56457
-0.891534,-0.19249,2.394,2.56186
-0.883763,-0.19249,2.394,2.55917
-0.875993,-0.19249,2.394,2.55649
-0.862057,-0.191123,2.377,2.53571
-0.854342,-0.191123,2.377,2.53309
-0.846627,-0.191123,2.377,2.5305
-0.838912,-0.191123,2.377,2.52793
-0.837141,-0.19249,2.394,2.54344
-0.829371,-0.19249,2.394,2.54089
-0.821601,-0.19249,2.394,2.53837
-0.81383,-0.19249,2.394,2.53586
-0.80606,-0.19249,2.394,2.53338
-0.79829,-0.19249,2.394,2.53092
-0.796133,-0.193857,2.411,2.54643
-0.788307,-0.193857,2.411,2.544
-0.780482,-0.193857,2.411,2.54158
-0.772656,-0.193857,2.411,2.53919
-0.764831,-0.193857,2.411,2.53682
-0.757005,-0.193857,2.411,2.53447
-0.74918,-0.193857,2.411,2.53215
-0.741354,-0.193857,2.411,2.52984
-0.733529,-0.193857,2.411,2.52756
-0.725703,-0.193857,2.411,2.5253
-0.717878,-0.193857,2.411,2.52306
-0.710052,-0.193857,2.411,2.52085
-0.702227,-0.193857,2.411,2.51866
-0.694401,-0.193857,2.411,2.51648
-0.686576,-0.193857,2.411,2.51434
-0.67875,-0.193857,2.411,2.51221
-0.670925,-0.193857,2.411,2.51011
-0.663099,-0.193857,2.411,2.50803
-0.655274,-0.193857,2.411,2.50597
-0.647448,-0.193857,2.411,2.50394
-0.644133,-0.195223,2.428,2.51956
-0.636252,-0.195223,2.428,2.51756
-0.628371,-0.195223,2.428,2.51558
-0.620491,-0.195223,2.428,2.51362
-0.61261,-0.195223,2.428,2.51169
-0.604729,-0.195223,2.428,2.50978
-0.601027,-0.19659,2.445,2.52545
-0.593092,-0.19659,2.445,2.52358
-0.585156,-0.19659,2.445,2.52172
-0.57722,-0.19659,2.445,2.51989
-0.569284,-0.19659,2.445,2.51809
-0.565481,-0.198038,2.463,2.53483
-0.557486,-0.198038,2.463,2.53306
-0.549492,-0.198038,2.463,2.53131
-0.541498,-0.198038,2.463,2.52959
-0.533504,-0.198038,2.463,2.52789
-0.525509,-0.198038,2.463,2.52621
-0.517515,-0.198038,2.463,2.52456
-0.509521,-0.198038,2.463,2.52293
-0.501526,-0.198038,2.463,2.52133
-0.493532,-0.198038,2.463,2.51975
-0.485538,-0.198038,2.463,2.5182
-0.477544,-0.198038,2.463,2.51667
-0.469549,-0.198038,2.463,2.51517
-0.464928,-0.199485,2.481,2.53206
-0.456875,-0.199485,2.481,2.53059
-0.448823,-0.199485,2.481,2.52915
-0.44077,-0.199485,2.481,2.52773
-0.432717,-0.199485,2.481,2.52634
-0.427746,-0.200932,2.499,2.54329
-0.419634,-0.200932,2.499,2.54194
-0.411523,-0.200932,2.499,2.54062
-0.403412,-0.200932,2.499,2.53931
-0.395301,-0.200932,2.499,2.53804
-0.38719,-0.200932,2.499,2.53679
-0.379079,-0.200932,2.499,2.53556
-0.370968,-0.200932,2.499,2.53436
-0.362857,-0.200932,2.499,2.53319
-0.354745,-0.200932,2.499,2.53204
-0.346634,-0.200932,2.499,2.53092
-0.340961,-0.20238,2.517,2.54804
-0.330412,-0.200932,2.499,2.52874
-0.322301,-0.200932,2.499,2.5277
-0.31419,-0.200932,2.499,2.52668
-0.306079,-0.200932,2.499,2.52568
-0.295821,-0.199485,2.481,2.50652
-0.287769,-0.199485,2.481,2.50559
-0.279716,-0.199485,2.481,2.50468
-0.271663,-0.199485,2.481,2.50379
-0.265523,-0.200932,2.499,2.52109
-0.257412,-0.200932,2.499,2.52025
-0.249301,-0.200932,2.499,2.51943
-0.24119,-0.200932,2.499,2.51864
-0.233078,-0.200932,2.499,2.51788
-0.224967,-0.200932,2.499,2.51714
