-1.61492,0.0598629,2.555,3.02317
-1.60663,0.0598629,2.555,3.01875
-1.59834,0.0598629,2.555,3.01435
-1.60187,0.0603081,2.574,3.03234
-1.59351,0.0603081,2.574,3.02794
-1.59686,0.0607532,2.593,3.04587
-1.60069,0.0612218,2.613,3.06492
-1.59221,0.0612218,2.613,3.0605
-1.60858,0.0621824,2.654,3.10405
-1.61263,0.0626745,2.675,3.12412
-1.60395,0.0626745,2.675,3.11965
-1.62031,0.0636585,2.717,3.1641
-1.61149,0.0636585,2.717,3.1596
-1.60267,0.0636585,2.717,3.15511
-1.58154,0.0631665,2.696,3.12629
-1.57278,0.0631665,2.696,3.12187
-1.56403,0.0631665,2.696,3.11747
-1.54317,0.0626745,2.675,3.08884
-1.52244,0.0621824,2.654,3.0603
-1.51383,0.0621824,2.654,3.05602
-1.48196,0.0612218,2.613,3.00462
-1.4622,0.0607532,2.593,2.97748
-1.45378,0.0607532,2.593,2.97335
-1.44537,0.0607532,2.593,2.96925
-1.42642,0.0603081,2.574,2.94343
-1.41807,0.0603081,2.574,2.93939
-1.42012,0.0607532,2.593,2.95704
-1.4117,0.0607532,2.593,2.95301
-1.42493,0.0616904,2.633,2.99448
-1.42768,0.0621824,2.654,3.01428
-1.41907,0.0621824,2.654,3.01021
-1.42162,0.0626745,2.675,3.02994
-1.42403,0.0631665,2.696,3.04963
-1.43785,0.064174,2.739,3.09413
-1.42896,0.064174,2.739,3.09001
-1.42007,0.064174,2.739,3.08591
-1.41118,0.064174,2.739,3.08183
-1.40229,0.064174,2.739,3.07777
-1.38221,0.0636585,2.717,3.04904
-1.37339,0.0636585,2.717,3.04505
-1.34347,0.0626745,2.675,2.99407
-1.31383,0.0616904,2.633,2.94324
-1.30529,0.0616904,2.633,2.93943
-1.27704,0.0607532,2.593,2.89105
-1.24074,0.0594177,2.536,2.82387
-1.23251,0.0594177,2.536,2.82027
-1.2151,0.0589726,2.517,2.79558
-1.18967,0.0581291,2.481,2.7521
-1.16447,0.0572856,2.445,2.70875
-1.15654,0.0572856,2.445,2.70534
-1.13263,0.056489,2.411,2.66439
-1.11687,0.0560907,2.394,2.64231
-1.1091,0.0560907,2.394,2.63903
-1.09351,0.0556924,2.377,2.61706
-1.0858,0.0556924,2.377,2.61384
-1.07808,0.0556924,2.377,2.61065
-1.06316,0.0553175,2.361,2.58992
-1.0555,0.0553175,2.361,2.58679
-1.04784,0.0553175,2.361,2.58367
-1.04017,0.0553175,2.361,2.58057
-1.02551,0.0549427,2.345,2.56002
-1.0179,0.0549427,2.345,2.55698
-1.01029,0.0549427,2.345,2.55396
-1.00268,0.0549427,2.345,2.55096
-0.995066,0.0549427,2.345,2.54798
-0.987455,0.0549427,2.345,2.54502
-0.979844,0.0549427,2.345,2.54207
-0.972232,0.0549427,2.345,2.53915
-0.964621,0.0549427,2.345,2.53624
-0.95701,0.0549427,2.345,2.53336
-0.949399,0.0549427,2.345,2.53049
-0.941787,0.0549427,2.345,2.52765
-0.934176,0.0549427,2.345,2.52482
-0.926565,0.0549427,2.345,2.52202
-0.918953,0.0549427,2.345,2.51923
-0.911342,0.0549427,2.345,2.51646
-0.903731,0.0549427,2.345,2.51372
-0.902234,0.0553175,2.361,2.52812
-0.894571,0.0553175,2.361,2.5254
-0.886907,0.0553175,2.361,2.52269
-0.879244,0.0553175,2.361,2.52001
-0.877488,0.0556924,2.377,2.53441
-0.869772,0.0556924,2.377,2.53175
-0.862057,0.0556924,2.377,2.52911
-0.854342,0.0556924,2.377,2.52649
-0.846627,0.0556924,2.377,2.52389
-0.838912,0.0556924,2.377,2.52131
-0.837141,0.0560907,2.394,2.53677
-0.829371,0.0560907,2.394,2.53421
-0.821601,0.0560907,2.394,2.53168
-0.81383,0.0560907,2.394,2.52917
-0.80606,0.0560907,2.394,2.52668
-0.79829,0.0560907,2.394,2.52421
-0.796133,0.056489,2.411,2.53967
-0.788307,0.056489,2.411,2.53723
-0.780482,0.056489,2.411,2.53481
-0.772656,0.056489,2.411,2.53241
-0.764831,0.056489,2.411,2.53004
-0.757005,0.056489,2.411,2.52768
-0.74918,0.056489,2.411,2.52535
-0.741354,0.056489,2.411,2.52304
-0.733529,0.056489,2.411,2.52075
-0.725703,0.056489,2.411,2.51848
-0.722939,0.0568873,2.428,2.53398
-0.715059,0.0568873,2.428,2.53174
-0.707178,0.0568873,2.428,2.52953
-0.699297,0.0568873,2.428,2.52734
-0.691417,0.0568873,2.428,2.52517
-0.683536,0.0568873,2.428,2.52302
-0.675655,0.0568873,2.428,2.5209
-0.667775,0.0568873,2.428,2.5188
-0.659894,0.0568873,2.428,2.51672
-0.652013,0.0568873,2.428,2.51467
-0.644133,0.0568873,2.428,2.51263
-0.636252,0.0568873,2.428,2.51063
-0.628371,0.0568873,2.428,2.50864
-0.620491,0.0568873,2.428,2.50668
-0.61261,0.0568873,2.428,2.50474
-0.604729,0.0568873,2.428,2.50282
-0.596848,0.0568873,2.428,2.50093
-0.588968,0.0568873,2.428,2.49906
-0.581087,0.0568873,2.428,2.49722
-0.573206,0.0568873,2.428,2.49539
-0.565326,0.0568873,2.428,2.49359
-0.557445,0.0568873,2.428,2.49182
-0.549564,0.0568873,2.428,2.49007
-0.537891,0.056489,2.411,2.47092
-0.530066,0.056489,2.411,2.46923
-0.52224,0.056489,2.411,2.46756
-0.514415,0.056489,2.411,2.46591
-0.506589,0.056489,2.411,2.46429
-0.498764,0.056489,2.411,2.4627
-0.490938,0.056489,2.411,2.46112
-0.483112,0.056489,2.411,2.45958
-0.478638,0.0568873,2.428,2.47538
-0.470758,0.0568873,2.428,2.47387
-0.462877,0.0568873,2.428,2.47238
-0.454996,0.0568873,2.428,2.47092
-0.450246,0.0572856,2.445,2.48677
-0.44231,0.0572856,2.445,2.48535
-0.434374,0.0572856,2.445,2.48395
-0.426438,0.0572856,2.445,2.48257
-0.418503,0.0572856,2.445,2.48122
-0.410567,0.0572856,2.445,2.47989
-0.402631,0.0572856,2.445,2.47859
-0.394695,0.0572856,2.445,2.47732
-0.386759,0.0572856,2.445,2.47606
-0.381612,0.0577074,2.463,2.49306
-0.373618,0.0577074,2.463,2.49184
-0.365624,0.0577074,2.463,2.49066
-0.357629,0.0577074,2.463,2.4895
-0.349635,0.0577074,2.463,2.48836
-0.341641,0.0577074,2.463,2.48725
-0.331208,0.0572856,2.445,2.468
-0.323272,0.0572856,2.445,2.46694
-0.315336,0.0572856,2.445,2.46592
-0.305263,0.0568873,2.428,2.44778
-0.297382,0.0568873,2.428,2.44681
-0.289502,0.0568873,2.428,2.44586
-0.281621,0.0568873,2.428,2.44494
-0.27374,0.0568873,2.428,2.44404
-0.26586,0.0568873,2.428,2.44317
-0.256173,0.056489,2.411,2.42523
-0.248347,0.056489,2.411,2.42442
-0.240522,0.056489,2.411,2.42363
-0.232696,0.056489,2.411,2.42286
-0.224871,0.056489,2.411,2.42212
-0.217045,0.056489,2.411,2.42141
-0.20922,0.056489,2.411,2.42072
-0.201394,0.056489,2.411,2.42006
-0.194934,0.0568873,2.428,2.43648
-0.187053,0.0568873,2.428,2.43586
-0.179172,0.0568873,2.428,2.43527
-0.171292,0.0568873,2.428,2.4347
-0.164555,0.0572856,2.445,2.4512
-0.156619,0.0572856,2.445,2.45068
-0.148683,0.0572856,2.445,2.45019
-0.141784,0.0577074,2.463,2.46775
-0.133789,0.0577074,2.463,2.46731
-0.125795,0.0577074,2.463,2.46689
-0.118662,0.0581291,2.481,2.48452
-0.110609,0.0581291,2.481,2.48414
-0.102556,0.0581291,2.481,2.4838
-0.0945035,0.0581291,2.481,2.48348
-0.0864508,0.0581291,2.481,2.48319
-0.078398,0.0581291,2.481,2.48292
-0.0708557,0.0585508,2.499,2.50069
-0.0627446,0.0585508,2.499,2.50047
-0.0546334,0.0585508,2.499,2.50028
-0.0465223,0.0585508,2.499,2.50012
-0.0384112,0.0585508,2.499,2.49998
-0.0303,0.0585508,2.499,2.49987
-0.0221889,0.0585508,2.499,2.49978
-0.0140778,0.0585508,2.499,2.49973
-0.00596664,0.0585508,2.499,2.49969
0.00214449,0.0585508,2.499,2.49969
0.0102556,0.0585508,2.499,2.49971
0.0183668,0.0585508,2.499,2.49975
0.0264779,0.0585508,2.499,2.49983
0.034589,0.0585508,2.499,2.49993
0.0427002,0.0585508,2.499,2.50005
0.0508113,0.0585508,2.499,2.5002
0.0589224,0.0585508,2.499,2.50038
0.0670336,0.0585508,2.499,2.50058
0.0751447,0.0585508,2.499,2.50082
0.0832558,0.0585508,2.499,2.50107
0.091367,0.0585508,2.499,2.50136
0.0994781,0.0585508,2.499,2.50166
0.107589,0.0585508,2.499,2.502
0.1157,0.0585508,2.499,2.50236
0.124703,0.0589726,2.517,2.52078
0.132873,0.0589726,2.517,2.52119
0.141042,0.0589726,2.517,2.52164
0.149212,0.0589726,2.517,2.52211
0.157382,0.0589726,2.517,2.52261
0.165551,0.0589726,2.517,2.52313
0.173721,0.0589726,2.517,2.52368
0.18189,0.0589726,2.517,2.52425
0.19006,0.0589726,2.517,2.52485
0.198229,0.0589726,2.517,2.52548
0.206399,0.0589726,2.517,2.52614
0.214568,0.0589726,2.517,2.52682
0.222738,0.0589726,2.517,2.52752
0.230908,0.0589726,2.517,2.52826
0.239077,0.0589726,2.517,2.52902
0.247247,0.0589726,2.517,2.5298
0.255416,0.0589726,2.517,2.53061
0.261701,0.0585508,2.499,2.51335
0.269812,0.0585508,2.499,2.51421
0.277923,0.0585508,2.499,2.51509
0.286034,0.0585508,2.499,2.516
0.294145,0.0585508,2.499,2.51693
0.302256,0.0585508,2.499,2.51789
0.310368,0.0585508,2.499,2.51888
0.318479,0.0585508,2.499,2.51989
0.32659,0.0585508,2.499,2.52093
0.334701,0.0585508,2.499,2.52199
0.342812,0.0585508,2.499,2.52308
0.348396,0.0581291,2.481,2.50602
0.356448,0.0581291,2.481,2.50715
0.364501,0.0581291,2.481,2.50831
0.372554,0.0581291,2.481,2.50949
0.380606,0.0581291,2.481,2.5107
0.388659,0.0581291,2.481,2.51193
0.396712,0.0581291,2.481,2.51319
0.404765,0.0581291,2.481,2.51447
0.412817,0.0581291,2.481,2.51578
0.42087,0.0581291,2.481,2.51712
0.428923,0.0581291,2.481,2.51847
0.436975,0.0581291,2.481,2.51986
0.445028,0.0581291,2.481,2.52127
0.453081,0.0581291,2.481,2.5227
0.461134,0.0581291,2.481,2.52416
0.469186,0.0581291,2.481,2.52564
0.477239,0.0581291,2.481,2.52715
0.485292,0.0581291,2.481,2.52869
0.493344,0.0581291,2.481,2.53024
0.501397,0.0581291,2.481,2.53183
0.50945,0.0581291,2.481,2.53343
0.517502,0.0581291,2.481,2.53506
0.521742,0.0577074,2.463,2.51832
0.529737,0.0577074,2.463,2.51998
0.537731,0.0577074,2.463,2.52168
0.545725,0.0577074,2.463,2.52339
0.553719,0.0577074,2.463,2.52513
0.565819,0.0581291,2.481,2.54537
0.573871,0.0581291,2.481,2.54717
0.581924,0.0581291,2.481,2.549
0.589977,0.0581291,2.481,2.55085
0.602368,0.0585508,2.499,2.57124
0.610479,0.0585508,2.499,2.57315
0.623046,0.0589726,2.517,2.59364
0.631216,0.0589726,2.517,2.59561
0.639385,0.0589726,2.517,2.59761
0.647555,0.0589726,2.517,2.59963
0.655725,0.0589726,2.517,2.60168
0.663894,0.0589726,2.517,2.60375
0.677137,0.0594177,2.536,2.62552
0.685368,0.0594177,2.536,2.62765
0.693599,0.0594177,2.536,2.62981
0.70183,0.0594177,2.536,2.63199
0.710062,0.0594177,2.536,2.6342
0.718293,0.0594177,2.536,2.63643
0.721081,0.0589726,2.517,2.61892
0.729251,0.0589726,2.517,2.62118
0.73742,0.0589726,2.517,2.62346
0.74559,0.0589726,2.517,2.62577
0.753759,0.0589726,2.517,2.6281
0.761929,0.0589726,2.517,2.63046
0.764591,0.0585508,2.499,2.61401
0.772702,0.0585508,2.499,2.61639
0.780813,0.0585508,2.499,2.6188
0.783242,0.0581291,2.481,2.60235
0.791295,0.0581291,2.481,2.60478
0.799347,0.0581291,2.481,2.60724
0.8074,0.0581291,2.481,2.60972
0.815453,0.0581291,2.481,2.61222
0.817531,0.0577074,2.463,2.59578
0.825525,0.0577074,2.463,2.59831
0.833519,0.0577074,2.463,2.60086
0.835364,0.0572856,2.445,2.5844
0.8433,0.0572856,2.445,2.58698
0.851236,0.0572856,2.445,2.58958
0.859171,0.0572856,2.445,2.5922
0.867107,0.0572856,2.445,2.59484
0.868959,0.0568873,2.428,2.57944
0.87684,0.0568873,2.428,2.58211
0.878526,0.056489,2.411,2.56669
0.886351,0.056489,2.411,2.56938
0.894177,0.056489,2.411,2.57209
0.902002,0.056489,2.411,2.57482
0.909828,0.056489,2.411,2.57758
0.911183,0.0560907,2.394,2.56215
0.918953,0.0560907,2.394,2.56493
0.926724,0.0560907,2.394,2.56772
0.934494,0.0560907,2.394,2.57054
0.935573,0.0556924,2.377,2.5551
0.943288,0.0556924,2.377,2.55793
0.951003,0.0556924,2.377,2.56079
0.958719,0.0556924,2.377,2.56366
0.966434,0.0556924,2.377,2.56656
0.981116,0.0560907,2.394,2.58785
0.988886,0.0560907,2.394,2.59081
0.996657,0.0560907,2.394,2.59378
1.00443,0.0560907,2.394,2.59678
1.0122,0.0560907,2.394,2.59979
1.03445,0.0568873,2.428,2.63979
1.04963,0.0572856,2.445,2.6614
1.05757,0.0572856,2.445,2.66454
1.07335,0.0577074,2.463,2.68734
1.08924,0.0581291,2.481,2.7102
1.11322,0.0589726,2.517,2.75282
1.12139,0.0589726,2.517,2.75614
1.14661,0.0598629,2.555,2.80113
1.16349,0.0603081,2.574,2.82539
1.17185,0.0603081,2.574,2.82884
1.18891,0.0607532,2.593,2.85322
1.2158,0.0616904,2.633,2.9008
1.22435,0.0616904,2.633,2.9044
1.24273,0.0621824,2.654,2.9312
1.26124,0.0626745,2.675,2.95809
1.26992,0.0626745,2.675,2.9618
1.27861,0.0626745,2.675,2.96553
1.29739,0.0631665,2.696,2.9926
1.30614,0.0631665,2.696,2.9964
1.3149,0.0631665,2.696,3.00023
1.33396,0.0636585,2.717,3.02747
1.34278,0.0636585,2.717,3.03137
1.34115,0.0631665,2.696,3.01182
1.3499,0.0631665,2.696,3.01573
1.35865,0.0631665,2.696,3.01966
1.3674,0.0631665,2.696,3.0236
1.3981,0.064174,2.739,3.07586
1.42959,0.0652049,2.783,3.12939
1.45051,0.0657437,2.806,3.15942
1.45962,0.0657437,2.806,3.16361
1.48077,0.0662826,2.829,3.19379
1.51523,0.0674073,2.877,3.25232
1.52457,0.0674073,2.877,3.25668
1.56003,0.0685553,2.926,3.31661
1.58294,0.0691411,2.951,3.34946
1.59252,0.0691411,2.951,3.354
1.63032,0.0703594,3.003,3.41774
1.65482,0.070992,3.03,3.45317
1.67949,0.0716246,3.057,3.4887
1.68941,0.0716246,3.057,3.49349
1.69933,0.0716246,3.057,3.4983
1.70925,0.0716246,3.057,3.50313
1.71917,0.0716246,3.057,3.50798
1.7291,0.0716246,3.057,3.51286
1.73902,0.0716246,3.057,3.51775
1.73349,0.070992,3.03,3.49155
1.74333,0.070992,3.03,3.49645
1.75316,0.070992,3.03,3.50136
1.74729,0.0703594,3.003,3.47505
1.75704,0.0703594,3.003,3.47996
1.75149,0.0697502,2.977,3.45472
1.76115,0.0697502,2.977,3.45963
1.75535,0.0691411,2.951,3.4343
1.76492,0.0691411,2.951,3.43921
1.7745,0.0691411,2.951,3.44413
1.76897,0.0685553,2.926,3.41986
1.76327,0.0679696,2.901,3.39552
1.77268,0.0679696,2.901,3.40042
1.76736,0.0674073,2.877,3.37716
1.77669,0.0674073,2.877,3.38206
1.78603,0.0674073,2.877,3.38697
1.76542,0.0662826,2.829,3.33532
1.76017,0.0657437,2.806,3.31303
1.76928,0.0657437,2.806,3.31788
1.74987,0.0646894,2.761,3.26946
1.74481,0.064174,2.739,3.24817
1.73962,0.0636585,2.717,3.22683
1.74844,0.0636585,2.717,3.23159
1.74367,0.0631665,2.696,3.21135
1.72512,0.0621824,2.654,3.16601
1.73374,0.0621824,2.654,3.17071
1.71543,0.0612218,2.613,3.12638
1.72392,0.0612218,2.613,3.13104
1.7324,0.0612218,2.613,3.13572
1.72755,0.0607532,2.593,3.11637
1.71053,0.0598629,2.555,3.07531
1.71882,0.0598629,2.555,3.07993
1.71427,0.0594177,2.536,3.06163
1.7096,0.0589726,2.517,3.04327
-1.90013,0.0730616,2.739,3.33436
-1.89124,0.0730616,2.739,3.3293
-1.88235,0.0730616,2.739,3.32426
-1.87346,0.0730616,2.739,3.31924
-1.8353,0.0719146,2.696,3.2622
-1.82655,0.0719146,2.696,3.25728
-1.8178,0.0719146,2.696,3.25238
-1.79496,0.0713544,2.675,3.2222
-1.78628,0.0713544,2.675,3.21737
-1.76364,0.0707942,2.654,3.18734
-1.75502,0.0707942,2.654,3.18258
-1.71943,0.0697006,2.613,3.12875
-1.71095,0.0697006,2.613,3.1241
-1.68944,0.0691671,2.593,3.09558
-1.6687,0.0686603,2.574,3.06835
-1.66035,0.0686603,2.574,3.06381
-1.6398,0.0681534,2.555,3.03671
-1.61938,0.0676466,2.536,3.00969
-1.61114,0.0676466,2.536,3.00527
-1.60291,0.0676466,2.536,3.00087
-1.59468,0.0676466,2.536,2.99648
-1.58645,0.0676466,2.536,2.99211
-1.57822,0.0676466,2.536,2.98775
-1.56999,0.0676466,2.536,2.98341
-1.58516,0.0686603,2.574,3.02373
-1.58844,0.0691671,2.593,3.04164
-1.58003,0.0691671,2.593,3.03726
-1.58373,0.0697006,2.613,3.05628
-1.59997,0.0707942,2.654,3.09978
-1.59135,0.0707942,2.654,3.09534
-1.59526,0.0713544,2.675,3.11538
-1.59904,0.0719146,2.696,3.13536
-1.59029,0.0719146,2.696,3.13091
-1.58154,0.0719146,2.696,3.12647
-1.56053,0.0713544,2.675,3.09774
-1.55185,0.0713544,2.675,3.09337
-1.53105,0.0707942,2.654,3.06478
-1.51039,0.0702341,2.633,3.03627
-1.50185,0.0702341,2.633,3.03202
-1.48196,0.0697006,2.613,3.0048
-1.4622,0.0691671,2.593,2.97766
-1.45378,0.0691671,2.593,2.97354
-1.44537,0.0691671,2.593,2.96943
-1.42642,0.0686603,2.574,2.94362
-1.41807,0.0686603,2.574,2.93958
-1.42012,0.0691671,2.593,2.95722
-1.4117,0.0691671,2.593,2.95319
-1.41411,0.0697006,2.613,2.97192
-1.42768,0.0707942,2.654,3.01447
-1.41907,0.0707942,2.654,3.0104
-1.42162,0.0713544,2.675,3.03013
-1.42403,0.0719146,2.696,3.04983
-1.43785,0.0730616,2.739,3.09433
-1.42896,0.0730616,2.739,3.09021
-1.42007,0.0730616,2.739,3.08611
-1.41118,0.0730616,2.739,3.08203
-1.39102,0.0724747,2.717,3.05324
-1.37152,0.0719146,2.696,3.02567
-1.36277,0.0719146,2.696,3.02171
-1.33293,0.0707942,2.654,2.97076
-1.30385,0.0697006,2.613,2.92107
-1.29537,0.0697006,2.613,2.9173
-1.26769,0.0686603,2.574,2.87006
-1.24074,0.0676466,2.536,2.82406
-1.23251,0.0676466,2.536,2.82045
-1.20641,0.0666597,2.499,2.77577
-1.18104,0.0656994,2.463,2.73231
-1.16447,0.0652193,2.445,2.70893
-1.15654,0.0652193,2.445,2.70552
-1.13263,0.0643123,2.411,2.66457
-1.11687,0.0638589,2.394,2.64248
-1.1091,0.0638589,2.394,2.63921
-1.09351,0.0634054,2.377,2.61723
-1.0858,0.0634054,2.377,2.61402
-1.07808,0.0634054,2.377,2.61083
-1.06316,0.0629786,2.361,2.5901
-1.0555,0.0629786,2.361,2.58696
-1.04784,0.0629786,2.361,2.58384
-1.03312,0.0625518,2.345,2.56326
-1.02551,0.0625518,2.345,2.5602
-1.0179,0.0625518,2.345,2.55716
-1.01029,0.0625518,2.345,2.55414
-1.00268,0.0625518,2.345,2.55114
-0.995066,0.0625518,2.345,2.54816
-0.987455,0.0625518,2.345,2.54519
-0.979844,0.0625518,2.345,2.54225
-0.972232,0.0625518,2.345,2.53933
-0.964621,0.0625518,2.345,2.53642
-0.95701,0.0625518,2.345,2.53354
-0.949399,0.0625518,2.345,2.53067
-0.948213,0.0629786,2.361,2.54507
-0.94055,0.0629786,2.361,2.54223
-0.932887,0.0629786,2.361,2.5394
-0.925224,0.0629786,2.361,2.5366
-0.91756,0.0629786,2.361,2.53381
-0.909897,0.0629786,2.361,2.53105
-0.902234,0.0629786,2.361,2.5283
-0.894571,0.0629786,2.361,2.52558
-0.886907,0.0629786,2.361,2.52287
-0.885203,0.0634054,2.377,2.53727
-0.877488,0.0634054,2.377,2.53459
-0.869772,0.0634054,2.377,2.53193
-0.862057,0.0634054,2.377,2.52929
-0.854342,0.0634054,2.377,2.52667
-0.846627,0.0634054,2.377,2.52407
-0.838912,0.0634054,2.377,2.52149
-0.837141,0.0638589,2.394,2.53695
-0.829371,0.0638589,2.394,2.5344
-0.821601,0.0638589,2.394,2.53187
-0.81383,0.0638589,2.394,2.52935
-0.80606,0.0638589,2.394,2.52687
-0.79829,0.0638589,2.394,2.5244
-0.796133,0.0643123,2.411,2.53986
-0.788307,0.0643123,2.411,2.53742
-0.780482,0.0643123,2.411,2.535
-0.772656,0.0643123,2.411,2.5326
-0.764831,0.0643123,2.411,2.53022
-0.757005,0.0643123,2.411,2.52787
-0.74918,0.0643123,2.411,2.52554
-0.741354,0.0643123,2.411,2.52322
-0.733529,0.0643123,2.411,2.52094
-0.725703,0.0643123,2.411,2.51867
-0.717878,0.0643123,2.411,2.51643
-0.715059,0.0647658,2.428,2.53193
-0.707178,0.0647658,2.428,2.52972
-0.699297,0.0647658,2.428,2.52753
-0.691417,0.0647658,2.428,2.52536
-0.683536,0.0647658,2.428,2.52321
-0.675655,0.0647658,2.428,2.52109
-0.667775,0.0647658,2.428,2.51899
-0.659894,0.0647658,2.428,2.51691
-0.652013,0.0647658,2.428,2.51486
-0.648643,0.0652193,2.445,2.53042
-0.640707,0.0652193,2.445,2.5284
-0.632771,0.0652193,2.445,2.5264
-0.624835,0.0652193,2.445,2.52442
-0.616899,0.0652193,2.445,2.52247
-0.608963,0.0652193,2.445,2.52054
-0.601027,0.0652193,2.445,2.51863
-0.588968,0.0647658,2.428,2.49925
-0.581087,0.0647658,2.428,2.49741
-0.573206,0.0647658,2.428,2.49559
-0.565326,0.0647658,2.428,2.49379
-0.557445,0.0647658,2.428,2.49201
-0.549564,0.0647658,2.428,2.49026
-0.541684,0.0647658,2.428,2.48853
-0.530066,0.0643123,2.411,2.46942
-0.52224,0.0643123,2.411,2.46775
-0.514415,0.0643123,2.411,2.46611
-0.506589,0.0643123,2.411,2.46449
-0.498764,0.0643123,2.411,2.46289
-0.490938,0.0643123,2.411,2.46132
-0.483112,0.0643123,2.411,2.45977
-0.478638,0.0647658,2.428,2.47558
-0.470758,0.0647658,2.428,2.47406
-0.462877,0.0647658,2.428,2.47258
-0.454996,0.0647658,2.428,2.47111
-0.450246,0.0652193,2.445,2.48697
-0.44231,0.0652193,2.445,2.48554
-0.434374,0.0652193,2.445,2.48414
-0.426438,0.0652193,2.445,2.48277
-0.418503,0.0652193,2.445,2.48142
-0.410567,0.0652193,2.445,2.48009
-0.405595,0.0656994,2.463,2.49704
-0.397601,0.0656994,2.463,2.49575
-0.389606,0.0656994,2.463,2.49449
-0.381612,0.0656994,2.463,2.49325
-0.373618,0.0656994,2.463,2.49204
-0.365624,0.0656994,2.463,2.49086
-0.357629,0.0656994,2.463,2.4897
-0.349635,0.0656994,2.463,2.48856
-0.341641,0.0656994,2.463,2.48745
-0.333646,0.0656994,2.463,2.48636
-0.325652,0.0656994,2.463,2.4853
-0.315336,0.0652193,2.445,2.46611
-0.3074,0.0652193,2.445,2.46511
-0.299465,0.0652193,2.445,2.46413
-0.291529,0.0652193,2.445,2.46318
-0.281621,0.0647658,2.428,2.44514
-0.27374,0.0647658,2.428,2.44424
-0.26586,0.0647658,2.428,2.44337
-0.256173,0.0643123,2.411,2.42542
-0.248347,0.0643123,2.411,2.42461
-0.240522,0.0643123,2.411,2.42382
-0.232696,0.0643123,2.411,2.42306
-0.224871,0.0643123,2.411,2.42232
-0.217045,0.0643123,2.411,2.4216
-0.20922,0.0643123,2.411,2.42092
-0.201394,0.0643123,2.411,2.42025
-0.194934,0.0647658,2.428,2.43667
-0.187053,0.0647658,2.428,2.43606
-0.179172,0.0647658,2.428,2.43546
-0.171292,0.0647658,2.428,2.4349
-0.164555,0.0652193,2.445,2.4514
-0.156619,0.0652193,2.445,2.45088
-0.148683,0.0652193,2.445,2.45038
-0.141784,0.0656994,2.463,2.46795
-0.133789,0.0656994,2.463,2.46751
-0.125795,0.0656994,2.463,2.46709
-0.118662,0.0661795,2.481,2.48472
-0.110609,0.0661795,2.481,2.48435
-0.102556,0.0661795,2.481,2.484
-0.0945035,0.0661795,2.481,2.48368
-0.0864508,0.0661795,2.481,2.48339
-0.078398,0.0661795,2.481,2.48312
-0.0708557,0.0666597,2.499,2.50089
-0.0627446,0.0666597,2.499,2.50068
-0.0546334,0.0666597,2.499,2.50049
-0.0465223,0.0666597,2.499,2.50032
-0.0384112,0.0666597,2.499,2.50018
-0.0303,0.0666597,2.499,2.50007
-0.0221889,0.0666597,2.499,2.49999
-0.0140778,0.0666597,2.499,2.49993
-0.00596664,0.0666597,2.499,2.4999
0.00214449,0.0666597,2.499,2.49989
0.0102556,0.0666597,2.499,2.49991
0.0183668,0.0666597,2.499,2.49996
0.0264779,0.0666597,2.499,2.50003
0.034589,0.0666597,2.499,2.50013
0.0427002,0.0666597,2.499,2.50025
0.0508113,0.0666597,2.499,2.50041
0.0589224,0.0666597,2.499,2.50058
0.0670336,0.0666597,2.499,2.50079
0.0751447,0.0666597,2.499,2.50102
0.0832558,0.0666597,2.499,2.50127
0.091367,0.0666597,2.499,2.50156
0.0994781,0.0666597,2.499,2.50187
0.107589,0.0666597,2.499,2.5022
0.1157,0.0666597,2.499,2.50256
0.124703,0.0671398,2.517,2.52098
0.132873,0.0671398,2.517,2.5214
0.141042,0.0671398,2.517,2.52184
0.149212,0.0671398,2.517,2.52231
0.157382,0.0671398,2.517,2.52281
0.165551,0.0671398,2.517,2.52333
0.173721,0.0671398,2.517,2.52388
0.18189,0.0671398,2.517,2.52446
0.19006,0.0671398,2.517,2.52506
0.198229,0.0671398,2.517,2.52569
0.206399,0.0671398,2.517,2.52634
0.214568,0.0671398,2.517,2.52702
0.222738,0.0671398,2.517,2.52773
0.230908,0.0671398,2.517,2.52846
0.239077,0.0671398,2.517,2.52922
0.247247,0.0671398,2.517,2.53001
0.255416,0.0671398,2.517,2.53082
0.261701,0.0666597,2.499,2.51355
0.269812,0.0666597,2.499,2.51441
0.277923,0.0666597,2.499,2.51529
0.286034,0.0666597,2.499,2.5162
0.294145,0.0666597,2.499,2.51713
0.302256,0.0666597,2.499,2.5181
0.310368,0.0666597,2.499,2.51908
0.318479,0.0666597,2.499,2.52009
0.32659,0.0666597,2.499,2.52113
0.334701,0.0666597,2.499,2.5222
0.342812,0.0666597,2.499,2.52328
0.350923,0.0666597,2.499,2.5244
0.359034,0.0666597,2.499,2.52554
0.364501,0.0661795,2.481,2.50851
0.372554,0.0661795,2.481,2.50969
0.380606,0.0661795,2.481,2.5109
0.388659,0.0661795,2.481,2.51213
0.396712,0.0661795,2.481,2.51339
0.404765,0.0661795,2.481,2.51467
0.412817,0.0661795,2.481,2.51598
0.42087,0.0661795,2.481,2.51731
0.428923,0.0661795,2.481,2.51867
0.436975,0.0661795,2.481,2.52006
0.445028,0.0661795,2.481,2.52147
0.453081,0.0661795,2.481,2.5229
0.461134,0.0661795,2.481,2.52436
0.469186,0.0661795,2.481,2.52584
0.477239,0.0661795,2.481,2.52735
0.485292,0.0661795,2.481,2.52888
0.493344,0.0661795,2.481,2.53044
0.501397,0.0661795,2.481,2.53202
0.50945,0.0661795,2.481,2.53363
0.517502,0.0661795,2.481,2.53526
0.525555,0.0661795,2.481,2.53692
0.533608,0.0661795,2.481,2.5386
0.541661,0.0661795,2.481,2.5403
0.549713,0.0661795,2.481,2.54203
0.557766,0.0661795,2.481,2.54379
0.565819,0.0661795,2.481,2.54556
0.573871,0.0661795,2.481,2.54737
0.581924,0.0661795,2.481,2.54919
0.594257,0.0666597,2.499,2.56955
0.602368,0.0666597,2.499,2.57144
0.610479,0.0666597,2.499,2.57335
0.623046,0.0671398,2.517,2.59384
0.631216,0.0671398,2.517,2.59581
0.639385,0.0671398,2.517,2.59781
0.647555,0.0671398,2.517,2.59983
0.655725,0.0671398,2.517,2.60188
0.663894,0.0671398,2.517,2.60395
0.677137,0.0676466,2.536,2.62572
0.685368,0.0676466,2.536,2.62785
0.693599,0.0676466,2.536,2.63001
0.70183,0.0676466,2.536,2.63219
0.710062,0.0676466,2.536,2.6344
0.718293,0.0676466,2.536,2.63663
0.721081,0.0671398,2.517,2.61911
0.729251,0.0671398,2.517,2.62137
0.73742,0.0671398,2.517,2.62366
0.74559,0.0671398,2.517,2.62597
0.753759,0.0671398,2.517,2.6283
0.761929,0.0671398,2.517,2.63065
0.764591,0.0666597,2.499,2.6142
0.772702,0.0666597,2.499,2.61658
0.780813,0.0666597,2.499,2.61899
0.788924,0.0666597,2.499,2.62142
0.791295,0.0661795,2.481,2.60497
0.799347,0.0661795,2.481,2.60743
0.8074,0.0661795,2.481,2.60991
0.815453,0.0661795,2.481,2.61241
0.823505,0.0661795,2.481,2.61494
0.831558,0.0661795,2.481,2.61749
0.833519,0.0656994,2.463,2.60105
0.841514,0.0656994,2.463,2.60362
0.849508,0.0656994,2.463,2.60621
0.851236,0.0652193,2.445,2.58976
0.859171,0.0652193,2.445,2.59238
0.867107,0.0652193,2.445,2.59502
0.875043,0.0652193,2.445,2.59769
0.87684,0.0647658,2.428,2.58229
0.88472,0.0647658,2.428,2.58498
0.892601,0.0647658,2.428,2.58769
0.894177,0.0643123,2.411,2.57228
0.902002,0.0643123,2.411,2.57501
0.909828,0.0643123,2.411,2.57776
0.917653,0.0643123,2.411,2.58053
0.918953,0.0638589,2.394,2.56511
0.926724,0.0638589,2.394,2.5679
0.934494,0.0638589,2.394,2.57072
0.942264,0.0638589,2.394,2.57355
0.950035,0.0638589,2.394,2.57641
0.951003,0.0634054,2.377,2.56097
0.958719,0.0634054,2.377,2.56384
0.973346,0.0638589,2.394,2.58509
0.981116,0.0638589,2.394,2.58803
0.988886,0.0638589,2.394,2.59099
0.996657,0.0638589,2.394,2.59396
1.01156,0.0643123,2.411,2.6154
1.01938,0.0643123,2.411,2.61844
1.0417,0.0652193,2.445,2.65846
1.05736,0.0656994,2.463,2.68117
1.06535,0.0656994,2.463,2.68434
1.08119,0.0661795,2.481,2.70716
1.10505,0.0671398,2.517,2.74972
1.13003,0.0681534,2.555,2.79457
1.13832,0.0681534,2.555,2.79794
1.15514,0.0686603,2.574,2.82215
1.17208,0.0691671,2.593,2.84644
1.1805,0.0691671,2.593,2.84991
1.19808,0.0697006,2.613,2.87542
1.2158,0.0702341,2.633,2.901
1.22435,0.0702341,2.633,2.90459
1.25256,0.0713544,2.675,2.95459
1.26124,0.0713544,2.675,2.95828
1.27989,0.0719146,2.696,2.98525
1.28864,0.0719146,2.696,2.98901
1.29739,0.0719146,2.696,2.99279
1.30614,0.0719146,2.696,2.9966
1.3149,0.0719146,2.696,3.00042
1.33396,0.0724747,2.717,3.02767
1.34278,0.0724747,2.717,3.03157
1.34115,0.0719146,2.696,3.01202
1.3499,0.0719146,2.696,3.01593
1.35865,0.0719146,2.696,3.01985
1.3674,0.0719146,2.696,3.0238
1.3981,0.0730616,2.739,3.07606
1.41829,0.0736484,2.761,3.10485
1.45051,0.0748488,2.806,3.15962
1.45962,0.0748488,2.806,3.16382
1.48077,0.0754623,2.829,3.194
1.50259,0.0761025,2.853,3.2254
1.51185,0.0761025,2.853,3.22972
1.5467,0.0773828,2.901,3.28848
1.58294,0.0787166,2.951,3.34967
1.59252,0.0787166,2.951,3.35421
1.63032,0.0801036,3.003,3.41795
1.65482,0.0808239,3.03,3.45338
1.67949,0.0815441,3.057,3.48892
1.68941,0.0815441,3.057,3.49371
1.69933,0.0815441,3.057,3.49852
1.70925,0.0815441,3.057,3.50335
1.71917,0.0815441,3.057,3.5082
1.7291,0.0815441,3.057,3.51307
1.73902,0.0815441,3.057,3.51797
1.73349,0.0808239,3.03,3.49177
1.74333,0.0808239,3.03,3.49666
1.73754,0.0801036,3.003,3.47037
1.74729,0.0801036,3.003,3.47526
1.75704,0.0801036,3.003,3.48017
1.75149,0.0794101,2.977,3.45493
1.76115,0.0794101,2.977,3.45984
1.75535,0.0787166,2.951,3.43451
1.74997,0.0780497,2.926,3.41027
1.75947,0.0780497,2.926,3.41516
1.75385,0.0773828,2.901,3.39084
1.76327,0.0773828,2.901,3.39572
1.77268,0.0773828,2.901,3.40062
1.76736,0.0767427,2.877,3.37736
1.76187,0.0761025,2.853,3.35404
1.77113,0.0761025,2.853,3.35892
1.76542,0.0754623,2.829,3.33551
1.74574,0.0742353,2.783,3.28606
1.75478,0.0742353,2.783,3.29087
1.74987,0.0736484,2.761,3.26964
1.7308,0.0724747,2.717,3.22227
1.72617,0.0719146,2.696,3.20207
1.73492,0.0719146,2.696,3.2068
1.73009,0.0713544,2.675,3.18652
1.71147,0.0702341,2.633,3.14114
1.72002,0.0702341,2.633,3.1458
1.71543,0.0697006,2.613,3.12655
1.71072,0.0691671,2.593,3.10725
1.71914,0.0691671,2.593,3.11189
1.71489,0.0686603,2.574,3.09371
1.71053,0.0681534,2.555,3.07548
1.71882,0.0681534,2.555,3.0801
1.71427,0.0676466,2.536,3.0618
1.7096,0.0671398,2.517,3.04344
-1.90013,0.0819492,2.739,3.33457
-1.89124,0.0819492,2.739,3.32951
-1.88235,0.0819492,2.739,3.32447
-1.85842,0.081291,2.717,3.29278
-1.8353,0.0806626,2.696,3.2624
-1.82655,0.0806626,2.696,3.25749
-1.8178,0.0806626,2.696,3.25259
-1.79496,0.0800343,2.675,3.22241
-1.78628,0.0800343,2.675,3.21758
-1.76364,0.079406,2.654,3.18754
-1.74114,0.0787777,2.633,3.1576
-1.71943,0.0781793,2.613,3.12895
-1.71095,0.0781793,2.613,3.1243
-1.68944,0.0775809,2.593,3.09578
-1.65639,0.076444,2.555,3.0459
-1.64809,0.076444,2.555,3.04139
-1.6398,0.076444,2.555,3.03691
-1.60724,0.0753071,2.517,2.98734
-1.59907,0.0753071,2.517,2.98295
-1.5909,0.0753071,2.517,2.97858
-1.57142,0.0747685,2.499,2.95295
-1.5633,0.0747685,2.499,2.94865
-1.5664,0.0753071,2.517,2.96556
-1.55823,0.0753071,2.517,2.96125
-1.56176,0.0758755,2.536,2.97928
-1.5768,0.0770125,2.574,3.01956
-1.56845,0.0770125,2.574,3.0152
-1.57161,0.0775809,2.593,3.03309
-1.58731,0.0787777,2.633,3.07546
-1.57876,0.0787777,2.633,3.07106
-1.58274,0.079406,2.654,3.09113
-1.58658,0.0800343,2.675,3.11115
-1.5779,0.0800343,2.675,3.10673
-1.56922,0.0800343,2.675,3.10233
-1.54828,0.079406,2.654,3.07363
-1.53967,0.079406,2.654,3.0693
-1.51894,0.0787777,2.633,3.04074
-1.49892,0.0781793,2.613,3.01341
-1.49044,0.0781793,2.613,3.0092
-1.48196,0.0781793,2.613,3.00501
-1.45149,0.0770125,2.574,2.95605
-1.44313,0.0770125,2.574,2.95195
-1.43478,0.0770125,2.574,2.94788
-1.42642,0.0770125,2.574,2.94382
-1.41807,0.0770125,2.574,2.93978
-1.40971,0.0770125,2.574,2.93576
-1.40136,0.0770125,2.574,2.93176
-1.41411,0.0781793,2.613,2.97214
-1.41639,0.0787777,2.633,2.99083
-1.40784,0.0787777,2.633,2.98679
-1.41046,0.079406,2.654,3.00656
-1.41293,0.0800343,2.675,3.02629
-1.41528,0.0806626,2.696,3.04597
-1.40652,0.0806626,2.696,3.04191
-1.40866,0.081291,2.717,3.06154
-1.39984,0.081291,2.717,3.05749
-1.39102,0.081291,2.717,3.05346
-1.37152,0.0806626,2.696,3.02589
-1.36277,0.0806626,2.696,3.02193
-1.33293,0.079406,2.654,2.97098
-1.30385,0.0781793,2.613,2.92129
-1.29537,0.0781793,2.613,2.91751
-1.25833,0.076444,2.555,2.84908
-1.24074,0.0758755,2.536,2.82427
-1.23251,0.0758755,2.536,2.82066
-1.20641,0.0747685,2.499,2.77597
-1.18104,0.0736914,2.463,2.73252
-1.15638,0.0726442,2.428,2.69029
-1.1485,0.0726442,2.428,2.68691
-1.13263,0.0721356,2.411,2.66477
-1.11687,0.071627,2.394,2.64268
-1.1091,0.071627,2.394,2.63941
-1.09351,0.0711184,2.377,2.61743
-1.0858,0.0711184,2.377,2.61422
-1.07808,0.0711184,2.377,2.61102
-1.06316,0.0706396,2.361,2.59029
-1.0555,0.0706396,2.361,2.58716
-1.04784,0.0706396,2.361,2.58404
-1.03312,0.0701609,2.345,2.56345
-1.02551,0.0701609,2.345,2.56039
-1.0179,0.0701609,2.345,2.55736
-1.01029,0.0701609,2.345,2.55434
-1.00268,0.0701609,2.345,2.55134
-0.995066,0.0701609,2.345,2.54835
-0.987455,0.0701609,2.345,2.54539
-0.979844,0.0701609,2.345,2.54245
-0.972232,0.0701609,2.345,2.53952
-0.964621,0.0701609,2.345,2.53662
-0.95701,0.0701609,2.345,2.53374
-0.955876,0.0706396,2.361,2.54814
-0.948213,0.0706396,2.361,2.54527
-0.94055,0.0706396,2.361,2.54243
-0.932887,0.0706396,2.361,2.5396
-0.925224,0.0706396,2.361,2.5368
-0.91756,0.0706396,2.361,2.53401
-0.909897,0.0706396,2.361,2.53125
-0.902234,0.0706396,2.361,2.5285
-0.900633,0.0711184,2.377,2.5429
-0.892918,0.0711184,2.377,2.54017
-0.885203,0.0711184,2.377,2.53747
-0.877488,0.0711184,2.377,2.53479
-0.869772,0.0711184,2.377,2.53213
-0.862057,0.0711184,2.377,2.52949
-0.854342,0.0711184,2.377,2.52687
-0.846627,0.0711184,2.377,2.52428
-0.838912,0.0711184,2.377,2.5217
-0.837141,0.071627,2.394,2.53716
-0.829371,0.071627,2.394,2.53461
-0.821601,0.071627,2.394,2.53207
-0.81383,0.071627,2.394,2.52956
-0.811784,0.0721356,2.411,2.54502
-0.803958,0.0721356,2.411,2.54253
-0.796133,0.0721356,2.411,2.54007
-0.788307,0.0721356,2.411,2.53763
-0.780482,0.0721356,2.411,2.53521
-0.772656,0.0721356,2.411,2.53281
-0.764831,0.0721356,2.411,2.53043
-0.757005,0.0721356,2.411,2.52808
-0.74918,0.0721356,2.411,2.52575
-0.741354,0.0721356,2.411,2.52344
-0.733529,0.0721356,2.411,2.52115
-0.725703,0.0721356,2.411,2.51888
-0.717878,0.0721356,2.411,2.51664
-0.715059,0.0726442,2.428,2.53215
-0.707178,0.0726442,2.428,2.52993
-0.699297,0.0726442,2.428,2.52774
-0.691417,0.0726442,2.428,2.52557
-0.683536,0.0726442,2.428,2.52343
-0.675655,0.0726442,2.428,2.5213
-0.667775,0.0726442,2.428,2.5192
-0.659894,0.0726442,2.428,2.51713
-0.652013,0.0726442,2.428,2.51507
-0.648643,0.0731529,2.445,2.53064
-0.640707,0.0731529,2.445,2.52861
-0.632771,0.0731529,2.445,2.52661
-0.624835,0.0731529,2.445,2.52464
-0.616899,0.0731529,2.445,2.52269
-0.608963,0.0731529,2.445,2.52076
-0.601027,0.0731529,2.445,2.51885
-0.588968,0.0726442,2.428,2.49947
-0.581087,0.0726442,2.428,2.49762
-0.573206,0.0726442,2.428,2.4958
-0.565326,0.0726442,2.428,2.494
-0.557445,0.0726442,2.428,2.49223
-0.549564,0.0726442,2.428,2.49048
-0.541684,0.0726442,2.428,2.48875
-0.530066,0.0721356,2.411,2.46963
-0.52224,0.0721356,2.411,2.46797
-0.514415,0.0721356,2.411,2.46632
-0.506589,0.0721356,2.411,2.4647
-0.498764,0.0721356,2.411,2.46311
-0.490938,0.0721356,2.411,2.46153
-0.483112,0.0721356,2.411,2.45998
-0.478638,0.0726442,2.428,2.47579
-0.470758,0.0726442,2.428,2.47428
-0.462877,0.0726442,2.428,2.4728
-0.454996,0.0726442,2.428,2.47133
-0.450246,0.0731529,2.445,2.48719
-0.44231,0.0731529,2.445,2.48576
-0.434374,0.0731529,2.445,2.48436
-0.426438,0.0731529,2.445,2.48299
-0.418503,0.0731529,2.445,2.48164
-0.410567,0.0731529,2.445,2.48031
-0.405595,0.0736914,2.463,2.49726
-0.397601,0.0736914,2.463,2.49597
-0.389606,0.0736914,2.463,2.49471
-0.381612,0.0736914,2.463,2.49348
-0.373618,0.0736914,2.463,2.49227
-0.365624,0.0736914,2.463,2.49108
-0.357629,0.0736914,2.463,2.48992
-0.349635,0.0736914,2.463,2.48878
-0.341641,0.0736914,2.463,2.48767
-0.333646,0.0736914,2.463,2.48659
-0.325652,0.0736914,2.463,2.48553
-0.315336,0.0731529,2.445,2.46634
-0.3074,0.0731529,2.445,2.46533
-0.299465,0.0731529,2.445,2.46436
-0.291529,0.0731529,2.445,2.46341
-0.281621,0.0726442,2.428,2.44536
-0.27374,0.0726442,2.428,2.44446
-0.26586,0.0726442,2.428,2.44359
-0.257979,0.0726442,2.428,2.44275
-0.250098,0.0726442,2.428,2.44193
-0.242218,0.0726442,2.428,2.44113
-0.232696,0.0721356,2.411,2.42328
-0.224871,0.0721356,2.411,2.42254
-0.218576,0.0726442,2.428,2.4389
-0.210695,0.0726442,2.428,2.43821
-0.202814,0.0726442,2.428,2.43754
-0.194934,0.0726442,2.428,2.4369
-0.187053,0.0726442,2.428,2.43628
-0.179172,0.0726442,2.428,2.43569
-0.172491,0.0731529,2.445,2.45217
-0.164555,0.0731529,2.445,2.45162
-0.156619,0.0731529,2.445,2.4511
-0.148683,0.0731529,2.445,2.45061
-0.141784,0.0736914,2.463,2.46818
-0.133789,0.0736914,2.463,2.46773
-0.126714,0.07423,2.481,2.48534
-0.118662,0.07423,2.481,2.48495
-0.110609,0.07423,2.481,2.48457
-0.102556,0.07423,2.481,2.48423
-0.0945035,0.07423,2.481,2.48391
-0.0864508,0.07423,2.481,2.48362
-0.078398,0.07423,2.481,2.48335
-0.0708557,0.0747685,2.499,2.50112
-0.0627446,0.0747685,2.499,2.50091
-0.0546334,0.0747685,2.499,2.50072
-0.0465223,0.0747685,2.499,2.50055
-0.0384112,0.0747685,2.499,2.50041
-0.0303,0.0747685,2.499,2.5003
-0.0221889,0.0747685,2.499,2.50022
-0.0140778,0.0747685,2.499,2.50016
-0.00596664,0.0747685,2.499,2.50013
0.00214449,0.0747685,2.499,2.50012
0.0102556,0.0747685,2.499,2.50014
0.0183668,0.0747685,2.499,2.50019
0.0262872,0.07423,2.481,2.48225
0.0343399,0.07423,2.481,2.48235
0.0423926,0.07423,2.481,2.48247
0.0504453,0.07423,2.481,2.48262
0.058498,0.07423,2.481,2.4828
0.0665507,0.07423,2.481,2.483
0.0746034,0.07423,2.481,2.48323
0.0832558,0.0747685,2.499,2.5015
0.091367,0.0747685,2.499,2.50179
0.0994781,0.0747685,2.499,2.5021
0.107589,0.0747685,2.499,2.50243
0.116534,0.0753071,2.517,2.52082
0.124703,0.0753071,2.517,2.52121
0.132873,0.0753071,2.517,2.52163
0.141042,0.0753071,2.517,2.52207
0.149212,0.0753071,2.517,2.52254
0.157382,0.0753071,2.517,2.52304
0.165551,0.0753071,2.517,2.52356
0.173721,0.0753071,2.517,2.52411
0.18189,0.0753071,2.517,2.52469
0.19006,0.0753071,2.517,2.52529
0.198229,0.0753071,2.517,2.52592
0.206399,0.0753071,2.517,2.52657
0.214568,0.0753071,2.517,2.52725
0.222738,0.0753071,2.517,2.52796
0.230908,0.0753071,2.517,2.52869
0.239077,0.0753071,2.517,2.52945
0.247247,0.0753071,2.517,2.53024
0.255416,0.0753071,2.517,2.53105
0.261701,0.0747685,2.499,2.51378
0.269812,0.0747685,2.499,2.51464
0.277923,0.0747685,2.499,2.51552
0.286034,0.0747685,2.499,2.51643
0.294145,0.0747685,2.499,2.51736
0.302256,0.0747685,2.499,2.51832
0.310368,0.0747685,2.499,2.51931
0.318479,0.0747685,2.499,2.52032
0.32659,0.0747685,2.499,2.52136
0.334701,0.0747685,2.499,2.52242
0.342812,0.0747685,2.499,2.52351
0.350923,0.0747685,2.499,2.52463
0.359034,0.0747685,2.499,2.52577
0.367146,0.0747685,2.499,2.52693
0.375257,0.0747685,2.499,2.52812
0.383368,0.0747685,2.499,2.52934
0.391479,0.0747685,2.499,2.53058
0.39959,0.0747685,2.499,2.53185
0.404765,0.07423,2.481,2.5149
0.412817,0.07423,2.481,2.51621
0.42087,0.07423,2.481,2.51754
0.428923,0.07423,2.481,2.5189
0.436975,0.07423,2.481,2.52028
0.445028,0.07423,2.481,2.52169
0.453081,0.07423,2.481,2.52312
0.461134,0.07423,2.481,2.52458
0.469186,0.07423,2.481,2.52607
0.477239,0.07423,2.481,2.52757
0.485292,0.07423,2.481,2.52911
0.493344,0.07423,2.481,2.53066
0.501397,0.07423,2.481,2.53225
0.50945,0.07423,2.481,2.53385
0.517502,0.07423,2.481,2.53548
0.525555,0.07423,2.481,2.53714
0.533608,0.07423,2.481,2.53882
0.541661,0.07423,2.481,2.54053
0.549713,0.07423,2.481,2.54225
0.557766,0.07423,2.481,2.54401
0.565819,0.07423,2.481,2.54579
0.573871,0.07423,2.481,2.54759
0.586146,0.0747685,2.499,2.56791
0.594257,0.0747685,2.499,2.56977
0.602368,0.0747685,2.499,2.57166
0.610479,0.0747685,2.499,2.57357
0.623046,0.0753071,2.517,2.59406
0.631216,0.0753071,2.517,2.59603
0.639385,0.0753071,2.517,2.59803
0.647555,0.0753071,2.517,2.60006
0.655725,0.0753071,2.517,2.6021
0.663894,0.0753071,2.517,2.60417
0.677137,0.0758755,2.536,2.62594
0.685368,0.0758755,2.536,2.62808
0.693599,0.0758755,2.536,2.63023
0.70183,0.0758755,2.536,2.63242
0.710062,0.0758755,2.536,2.63462
0.718293,0.0758755,2.536,2.63685
0.721081,0.0753071,2.517,2.61934
0.729251,0.0753071,2.517,2.6216
0.73742,0.0753071,2.517,2.62388
0.74559,0.0753071,2.517,2.62619
0.753759,0.0753071,2.517,2.62852
0.761929,0.0753071,2.517,2.63087
0.764591,0.0747685,2.499,2.61442
0.772702,0.0747685,2.499,2.6168
0.780813,0.0747685,2.499,2.61921
0.788924,0.0747685,2.499,2.62164
0.791295,0.07423,2.481,2.60519
0.799347,0.07423,2.481,2.60765
0.8074,0.07423,2.481,2.61013
0.815453,0.07423,2.481,2.61263
0.823505,0.07423,2.481,2.61515
0.831558,0.07423,2.481,2.6177
0.833519,0.0736914,2.463,2.60126
0.841514,0.0736914,2.463,2.60383
0.849508,0.0736914,2.463,2.60643
0.851236,0.0731529,2.445,2.58998
0.859171,0.0731529,2.445,2.5926
0.867107,0.0731529,2.445,2.59524
0.875043,0.0731529,2.445,2.5979
0.87684,0.0726442,2.428,2.5825
0.88472,0.0726442,2.428,2.58519
0.892601,0.0726442,2.428,2.58789
0.894177,0.0721356,2.411,2.57248
0.902002,0.0721356,2.411,2.57522
0.909828,0.0721356,2.411,2.57797
0.917653,0.0721356,2.411,2.58074
0.918953,0.071627,2.394,2.56532
0.926724,0.071627,2.394,2.56811
0.934494,0.071627,2.394,2.57092
0.942264,0.071627,2.394,2.57376
0.950035,0.071627,2.394,2.57661
0.951003,0.0711184,2.377,2.56117
0.958719,0.0711184,2.377,2.56405
0.973346,0.071627,2.394,2.5853
0.981116,0.071627,2.394,2.58823
0.988886,0.071627,2.394,2.59119
0.996657,0.071627,2.394,2.59416
1.01156,0.0721356,2.411,2.6156
1.01938,0.0721356,2.411,2.61864
1.0417,0.0731529,2.445,2.65867
1.05736,0.0736914,2.463,2.68138
1.06535,0.0736914,2.463,2.68454
1.08119,0.07423,2.481,2.70737
1.10505,0.0753071,2.517,2.74993
1.13003,0.076444,2.555,2.79479
1.13832,0.076444,2.555,2.79815
1.15514,0.0770125,2.574,2.82237
1.17208,0.0775809,2.593,2.84665
1.1805,0.0775809,2.593,2.85013
1.19808,0.0781793,2.613,2.87564
1.2158,0.0787777,2.633,2.90122
1.22435,0.0787777,2.633,2.90481
1.25256,0.0800343,2.675,2.95482
1.26124,0.0800343,2.675,2.95851
1.27989,0.0806626,2.696,2.98547
1.28864,0.0806626,2.696,2.98923
1.29739,0.0806626,2.696,2.99302
1.30614,0.0806626,2.696,2.99682
1.3149,0.0806626,2.696,3.00065
1.32365,0.0806626,2.696,3.00449
1.3324,0.0806626,2.696,3.00836
1.3307,0.0800343,2.675,2.98878
1.33938,0.0800343,2.675,2.99265
1.35865,0.0806626,2.696,3.02007
1.3674,0.0806626,2.696,3.02402
1.38687,0.081291,2.717,3.05157
1.40699,0.0819492,2.739,3.08033
1.42725,0.0826074,2.761,3.10918
1.43621,0.0826074,2.761,3.1133
1.46873,0.0839538,2.806,3.16826
1.50259,0.08536,2.853,3.22563
1.51185,0.08536,2.853,3.22995
1.5467,0.0867961,2.901,3.28871
1.58294,0.0882921,2.951,3.34991
1.59252,0.0882921,2.951,3.35445
1.63032,0.0898479,3.003,3.41819
1.65482,0.0906557,3.03,3.45363
1.66465,0.0906557,3.03,3.45835
1.67449,0.0906557,3.03,3.46309
1.69933,0.0914635,3.057,3.49876
1.70925,0.0914635,3.057,3.50359
1.71917,0.0914635,3.057,3.50844
1.71383,0.0906557,3.03,3.48229
1.72366,0.0906557,3.03,3.48714
1.73349,0.0906557,3.03,3.49201
1.72779,0.0898479,3.003,3.46574
1.73754,0.0898479,3.003,3.47061
1.74729,0.0898479,3.003,3.4755
1.74182,0.08907,2.977,3.45028
1.73619,0.0882921,2.951,3.42499
1.74577,0.0882921,2.951,3.42985
1.75535,0.0882921,2.951,3.43474
1.74997,0.0875441,2.926,3.4105
1.75947,0.0875441,2.926,3.41539
1.75385,0.0867961,2.901,3.39107
1.74868,0.086078,2.877,3.36785
1.75802,0.086078,2.877,3.37271
1.75261,0.08536,2.853,3.34941
1.74705,0.0846419,2.829,3.32605
1.75623,0.0846419,2.829,3.33088
1.73671,0.0832656,2.783,3.28149
1.73194,0.0826074,2.761,3.2603
1.7409,0.0826074,2.761,3.26507
1.73592,0.0819492,2.739,3.2438
1.71742,0.0806626,2.696,3.19757
1.71273,0.0800343,2.675,3.17734
1.72141,0.0800343,2.675,3.18202
1.71651,0.079406,2.654,3.16171
1.71147,0.0787777,2.633,3.14134
1.72002,0.0787777,2.633,3.14601
1.7023,0.0775809,2.593,3.10282
1.69819,0.0770125,2.574,3.08468
1.70654,0.0770125,2.574,3.08929
1.70224,0.076444,2.555,3.07107
1.69781,0.0758755,2.536,3.0528
1.70604,0.0758755,2.536,3.05739
1.71427,0.0758755,2.536,3.06199
1.7096,0.0753071,2.517,3.04363
-1.90013,0.0908368,2.739,3.3348
-1.89124,0.0908368,2.739,3.32974
-1.88235,0.0908368,2.739,3.3247
-1.85842,0.0901072,2.717,3.29301
-1.8353,0.0894107,2.696,3.26263
-1.82655,0.0894107,2.696,3.25771
-1.8178,0.0894107,2.696,3.25282
-1.79496,0.0887143,2.675,3.22263
-1.77225,0.0880178,2.654,3.19254
-1.76364,0.0880178,2.654,3.18777
-1.74114,0.0873214,2.633,3.15783
-1.71943,0.0866581,2.613,3.12917
-1.71095,0.0866581,2.613,3.12452
-1.68944,0.0859948,2.593,3.096
-1.65639,0.0847346,2.555,3.04612
-1.64809,0.0847346,2.555,3.04161
-1.6398,0.0847346,2.555,3.03713
-1.60724,0.0834743,2.517,2.98756
-1.59907,0.0834743,2.517,2.98317
-1.5909,0.0834743,2.517,2.9788
-1.57142,0.0828774,2.499,2.95317
-1.5633,0.0828774,2.499,2.94886
-1.5664,0.0834743,2.517,2.96578
-1.55823,0.0834743,2.517,2.96147
-1.56176,0.0841044,2.536,2.97951
-1.5768,0.0853647,2.574,3.01978
-1.56845,0.0853647,2.574,3.01543
-1.57161,0.0859948,2.593,3.03332
-1.58731,0.0873214,2.633,3.07569
-1.57876,0.0873214,2.633,3.07129
-1.58274,0.0880178,2.654,3.09136
-1.58658,0.0887143,2.675,3.11139
-1.5779,0.0887143,2.675,3.10697
-1.56922,0.0887143,2.675,3.10257
-1.54828,0.0880178,2.654,3.07386
-1.53967,0.0880178,2.654,3.06953
-1.51894,0.0873214,2.633,3.04097
-1.49892,0.0866581,2.613,3.01364
-1.49044,0.0866581,2.613,3.00943
-1.48196,0.0866581,2.613,3.00524
-1.45149,0.0853647,2.574,2.95628
-1.44313,0.0853647,2.574,2.95218
-1.43478,0.0853647,2.574,2.94811
-1.42642,0.0853647,2.574,2.94405
-1.41807,0.0853647,2.574,2.94001
-1.40971,0.0853647,2.574,2.93599
-1.40136,0.0853647,2.574,2.93199
-1.41411,0.0866581,2.613,2.97237
-1.41639,0.0873214,2.633,2.99106
-1.40784,0.0873214,2.633,2.98703
-1.41046,0.0880178,2.654,3.0068
-1.41293,0.0887143,2.675,3.02653
-1.41528,0.0894107,2.696,3.04621
-1.40652,0.0894107,2.696,3.04216
-1.40866,0.0901072,2.717,3.06179
-1.39984,0.0901072,2.717,3.05774
-1.39102,0.0901072,2.717,3.05371
-1.37152,0.0894107,2.696,3.02613
-1.36277,0.0894107,2.696,3.02218
-1.33293,0.0880178,2.654,2.97122
-1.30385,0.0866581,2.613,2.92153
-1.29537,0.0866581,2.613,2.91775
-1.25833,0.0847346,2.555,2.84931
-1.24074,0.0841044,2.536,2.8245
-1.23251,0.0841044,2.536,2.82089
-1.20641,0.0828774,2.499,2.7762
-1.18104,0.0816835,2.463,2.73275
-1.15638,0.0805227,2.428,2.69052
-1.1485,0.0805227,2.428,2.68714
-1.13263,0.0799589,2.411,2.66499
-1.11687,0.0793951,2.394,2.6429
-1.1091,0.0793951,2.394,2.63963
-1.09351,0.0788313,2.377,2.61765
-1.0858,0.0788313,2.377,2.61444
-1.07808,0.0788313,2.377,2.61125
-1.06316,0.0783007,2.361,2.59051
-1.0555,0.0783007,2.361,2.58738
-1.04784,0.0783007,2.361,2.58426
-1.03312,0.0777701,2.345,2.56367
-1.02551,0.0777701,2.345,2.56061
-1.0179,0.0777701,2.345,2.55758
-1.01029,0.0777701,2.345,2.55456
-1.00268,0.0777701,2.345,2.55156
-0.995066,0.0777701,2.345,2.54857
-0.987455,0.0777701,2.345,2.54561
-0.979844,0.0777701,2.345,2.54267
-0.972232,0.0777701,2.345,2.53975
-0.964621,0.0777701,2.345,2.53684
-0.95701,0.0777701,2.345,2.53396
-0.955876,0.0783007,2.361,2.54836
-0.948213,0.0783007,2.361,2.5455
-0.94055,0.0783007,2.361,2.54265
-0.932887,0.0783007,2.361,2.53983
-0.925224,0.0783007,2.361,2.53702
-0.91756,0.0783007,2.361,2.53424
-0.909897,0.0783007,2.361,2.53147
-0.902234,0.0783007,2.361,2.52873
-0.900633,0.0788313,2.377,2.54312
-0.892918,0.0788313,2.377,2.5404
-0.885203,0.0788313,2.377,2.5377
-0.877488,0.0788313,2.377,2.53502
-0.869772,0.0788313,2.377,2.53236
-0.862057,0.0788313,2.377,2.52972
-0.854342,0.0788313,2.377,2.5271
-0.846627,0.0788313,2.377,2.5245
-0.838912,0.0788313,2.377,2.52193
-0.837141,0.0793951,2.394,2.53739
-0.829371,0.0793951,2.394,2.53484
-0.821601,0.0793951,2.394,2.5323
-0.81383,0.0793951,2.394,2.52979
-0.80606,0.0793951,2.394,2.52731
-0.79829,0.0793951,2.394,2.52484
-0.790519,0.0793951,2.394,2.52239
-0.788307,0.0799589,2.411,2.53786
-0.780482,0.0799589,2.411,2.53544
-0.772656,0.0799589,2.411,2.53304
-0.764831,0.0799589,2.411,2.53067
-0.757005,0.0799589,2.411,2.52831
-0.74918,0.0799589,2.411,2.52598
-0.741354,0.0799589,2.411,2.52367
-0.733529,0.0799589,2.411,2.52138
-0.725703,0.0799589,2.411,2.51912
-0.717878,0.0799589,2.411,2.51688
-0.715059,0.0805227,2.428,2.53239
-0.707178,0.0805227,2.428,2.53017
-0.699297,0.0805227,2.428,2.52798
-0.696258,0.0810865,2.445,2.5435
-0.688322,0.0810865,2.445,2.54134
-0.675655,0.0805227,2.428,2.52154
-0.667775,0.0805227,2.428,2.51944
-0.664514,0.0810865,2.445,2.53499
-0.656578,0.0810865,2.445,2.53292
-0.648643,0.0810865,2.445,2.53088
-0.640707,0.0810865,2.445,2.52885
-0.632771,0.0810865,2.445,2.52686
-0.624835,0.0810865,2.445,2.52488
-0.616899,0.0810865,2.445,2.52293
-0.608963,0.0810865,2.445,2.521
-0.601027,0.0810865,2.445,2.51909
-0.593092,0.0810865,2.445,2.51721
-0.585156,0.0810865,2.445,2.51535
-0.573206,0.0805227,2.428,2.49604
-0.565326,0.0805227,2.428,2.49425
-0.557445,0.0805227,2.428,2.49247
-0.549564,0.0805227,2.428,2.49072
-0.541684,0.0805227,2.428,2.48899
-0.530066,0.0799589,2.411,2.46988
-0.52224,0.0799589,2.411,2.46821
-0.514415,0.0799589,2.411,2.46656
-0.506589,0.0799589,2.411,2.46494
-0.50228,0.0805227,2.428,2.48072
-0.4944,0.0805227,2.428,2.47913
-0.486519,0.0805227,2.428,2.47757
-0.478638,0.0805227,2.428,2.47604
-0.470758,0.0805227,2.428,2.47453
-0.462877,0.0805227,2.428,2.47304
-0.454996,0.0805227,2.428,2.47158
-0.450246,0.0810865,2.445,2.48743
-0.44231,0.0810865,2.445,2.48601
-0.434374,0.0810865,2.445,2.48461
-0.426438,0.0810865,2.445,2.48323
-0.418503,0.0810865,2.445,2.48188
-0.413589,0.0816835,2.463,2.49882
-0.405595,0.0816835,2.463,2.49751
-0.397601,0.0816835,2.463,2.49622
-0.389606,0.0816835,2.463,2.49496
-0.381612,0.0816835,2.463,2.49373
-0.376348,0.0822804,2.481,2.51073
-0.368296,0.0822804,2.481,2.50954
-0.360243,0.0822804,2.481,2.50837
-0.35219,0.0822804,2.481,2.50722
-0.344137,0.0822804,2.481,2.50611
-0.336085,0.0822804,2.481,2.50501
-0.328032,0.0822804,2.481,2.50394
-0.317658,0.0816835,2.463,2.48474
-0.309664,0.0816835,2.463,2.48373
-0.301669,0.0816835,2.463,2.48275
-0.291529,0.0810865,2.445,2.46365
-0.283593,0.0810865,2.445,2.46273
-0.275657,0.0810865,2.445,2.46183
-0.267721,0.0810865,2.445,2.46095
-0.257979,0.0805227,2.428,2.44299
-0.250098,0.0805227,2.428,2.44217
-0.242218,0.0805227,2.428,2.44138
-0.234337,0.0805227,2.428,2.44061
-0.226456,0.0805227,2.428,2.43987
-0.218576,0.0805227,2.428,2.43915
-0.210695,0.0805227,2.428,2.43845
-0.202814,0.0805227,2.428,2.43779
-0.196298,0.0810865,2.445,2.45421
-0.188363,0.0810865,2.445,2.45359
-0.180427,0.0810865,2.445,2.45299
-0.172491,0.0810865,2.445,2.45242
-0.165766,0.0816835,2.463,2.46992
-0.157772,0.0816835,2.463,2.4694
-0.149778,0.0816835,2.463,2.4689
-0.14282,0.0822804,2.481,2.48647
-0.134767,0.0822804,2.481,2.48602
-0.126714,0.0822804,2.481,2.4856
-0.118662,0.0822804,2.481,2.4852
-0.110609,0.0822804,2.481,2.48483
-0.102556,0.0822804,2.481,2.48448
-0.0945035,0.0822804,2.481,2.48416
-0.087078,0.0828774,2.499,2.50189
-0.0789668,0.0828774,2.499,2.50162
-0.0708557,0.0828774,2.499,2.50138
