0.130221,0.62694,1.802,1.91238
0.13607,0.62694,1.802,1.91279
0.141919,0.62694,1.802,1.91322
0.147767,0.62694,1.802,1.91366
0.152764,0.623461,1.792,1.9035
0.15858,0.623461,1.792,1.90397
0.164397,0.623461,1.792,1.90447
0.169358,0.620329,1.783,1.89541
0.175145,0.620329,1.783,1.89594
0.180933,0.620329,1.783,1.89648
0.18672,0.620329,1.783,1.89704
0.192507,0.620329,1.783,1.89762
0.201408,0.630071,1.811,1.92802
0.207286,0.630071,1.811,1.92865
0.213164,0.630071,1.811,1.92929
0.219042,0.630071,1.811,1.92995
0.22492,0.630071,1.811,1.93062
0.230798,0.630071,1.811,1.93132
0.236676,0.630071,1.811,1.93203
0.242554,0.630071,1.811,1.93276
0.248432,0.630071,1.811,1.9335
0.254311,0.630071,1.811,1.93427
0.260189,0.630071,1.811,1.93505
0.266067,0.630071,1.811,1.93585
0.271945,0.630071,1.811,1.93666
0.277823,0.630071,1.811,1.9375
0.283701,0.630071,1.811,1.93835
0.289579,0.630071,1.811,1.93922
0.295457,0.630071,1.811,1.9401
0.301335,0.630071,1.811,1.94101
0.307213,0.630071,1.811,1.94193
0.313091,0.630071,1.811,1.94287
0.318969,0.630071,1.811,1.94382
0.324847,0.630071,1.811,1.9448
0.330725,0.630071,1.811,1.94579
0.338462,0.63355,1.821,1.95755
0.344372,0.63355,1.821,1.95858
0.352207,0.637029,1.831,1.97039
0.35815,0.637029,1.831,1.97146
0.364092,0.637029,1.831,1.97254
0.368015,0.63355,1.821,1.96287
0.373925,0.63355,1.821,1.96399
0.379836,0.63355,1.821,1.96512
0.385746,0.63355,1.821,1.96627
0.391657,0.63355,1.821,1.96744
0.397567,0.63355,1.821,1.96863
0.403478,0.63355,1.821,1.96983
0.40714,0.630071,1.811,1.96022
0.413018,0.630071,1.811,1.96145
0.416814,0.62694,1.802,1.95294
0.422663,0.62694,1.802,1.9542
0.428512,0.62694,1.802,1.95547
0.434361,0.62694,1.802,1.95676
0.437767,0.623461,1.792,1.94721
0.443583,0.623461,1.792,1.94852
0.451907,0.62694,1.802,1.96073
0.455216,0.623461,1.792,1.9512
0.461032,0.623461,1.792,1.95257
0.466849,0.623461,1.792,1.95395
0.472665,0.623461,1.792,1.95535
0.478482,0.623461,1.792,1.95676
0.487,0.62694,1.802,1.96912
0.492849,0.62694,1.802,1.97057
0.498698,0.62694,1.802,1.97204
0.501747,0.623461,1.792,1.96258
0.507563,0.623461,1.792,1.96407
0.51338,0.623461,1.792,1.96559
0.524701,0.630071,1.811,1.98797
0.530579,0.630071,1.811,1.98953
0.536457,0.630071,1.811,1.9911
0.542335,0.630071,1.811,1.9927
0.548213,0.630071,1.811,1.9943
0.554091,0.630071,1.811,1.99593
0.559969,0.630071,1.811,1.99757
0.565848,0.630071,1.811,1.99922
0.571726,0.630071,1.811,2.0009
0.577604,0.630071,1.811,2.00258
0.586704,0.63355,1.821,2.01535
0.592614,0.63355,1.821,2.01708
0.598525,0.63355,1.821,2.01883
0.604435,0.63355,1.821,2.02059
0.610346,0.63355,1.821,2.02236
0.616256,0.63355,1.821,2.02415
0.622167,0.63355,1.821,2.02596
0.628077,0.63355,1.821,2.02778
0.633988,0.63355,1.821,2.02962
0.639898,0.63355,1.821,2.03148
0.645809,0.63355,1.821,2.03335
0.651719,0.63355,1.821,2.03523
0.65763,0.63355,1.821,2.03713
0.66354,0.63355,1.821,2.03905
0.669451,0.63355,1.821,2.04098
0.675361,0.63355,1.821,2.04292
0.677531,0.630071,1.811,2.03366
0.683409,0.630071,1.811,2.03562
0.689287,0.630071,1.811,2.0376
0.69171,0.62694,1.802,2.02946
0.697559,0.62694,1.802,2.03146
0.703408,0.62694,1.802,2.03348
0.705321,0.623461,1.792,2.02421
0.711137,0.623461,1.792,2.02625
0.713353,0.620329,1.783,2.01811
0.71551,0.617198,1.774,2.00997
0.717609,0.614067,1.765,2.00182
0.723337,0.614067,1.765,2.00388
0.725348,0.610936,1.756,1.99572
0.731048,0.610936,1.756,1.9978
0.736748,0.610936,1.756,1.99989
0.742447,0.610936,1.756,2.002
0.751981,0.614067,1.765,2.01439
0.75771,0.614067,1.765,2.01654
0.759546,0.610936,1.756,2.0084
0.765245,0.610936,1.756,2.01057
0.774896,0.614067,1.765,2.02306
0.780625,0.614067,1.765,2.02526
0.786354,0.614067,1.765,2.02748
0.796121,0.617198,1.774,2.04005
0.801879,0.617198,1.774,2.04231
0.807637,0.617198,1.774,2.04458
0.821648,0.623461,1.792,2.06763
0.827465,0.623461,1.792,2.06994
0.833281,0.623461,1.792,2.07228
0.839097,0.623461,1.792,2.07462
0.849629,0.62694,1.802,2.08857
0.855478,0.62694,1.802,2.09096
0.865628,0.630071,1.811,2.10381
0.871506,0.630071,1.811,2.10624
0.877384,0.630071,1.811,2.10868
0.88814,0.63355,1.821,2.12279
0.89896,0.637029,1.831,2.13694
0.909845,0.640508,1.841,2.15113
0.91582,0.640508,1.841,2.15366
0.921796,0.640508,1.841,2.15621
0.927771,0.640508,1.841,2.15877
0.933747,0.640508,1.841,2.16135
0.944316,0.64364,1.85,2.17451
0.950321,0.64364,1.85,2.17713
0.956325,0.64364,1.85,2.17975
0.96233,0.64364,1.85,2.1824
0.968335,0.64364,1.85,2.18505
0.974339,0.64364,1.85,2.18772
0.975575,0.640508,1.841,2.17974
0.98155,0.640508,1.841,2.18242
0.987526,0.640508,1.841,2.18512
0.993501,0.640508,1.841,2.18782
0.999476,0.640508,1.841,2.19054
1.00545,0.640508,1.841,2.19328
1.01143,0.640508,1.841,2.19602
1.01188,0.637029,1.831,2.18684
1.01782,0.637029,1.831,2.18959
1.02376,0.637029,1.831,2.19236
1.02971,0.637029,1.831,2.19514
1.03565,0.637029,1.831,2.19794
1.04159,0.637029,1.831,2.20075
1.04753,0.637029,1.831,2.20356
1.04772,0.63355,1.821,2.19435
1.05363,0.63355,1.821,2.19717
1.05954,0.63355,1.821,2.20001
1.06546,0.63355,1.821,2.20287
1.07137,0.63355,1.821,2.20573
1.07728,0.63355,1.821,2.20861
1.07724,0.630071,1.811,2.19935
1.08312,0.630071,1.811,2.20224
1.08358,0.62694,1.802,2.19418
1.08339,0.623461,1.792,2.18488
1.0892,0.623461,1.792,2.18777
1.09502,0.623461,1.792,2.19067
1.10083,0.623461,1.792,2.19358
1.10665,0.623461,1.792,2.19651
1.10688,0.620329,1.783,2.1884
1.11267,0.620329,1.783,2.19133
1.11281,0.617198,1.774,2.1832
1.11857,0.617198,1.774,2.18614
1.12433,0.617198,1.774,2.18909
1.14792,0.62694,1.802,2.22665
1.15377,0.62694,1.802,2.22967
1.15962,0.62694,1.802,2.2327
1.159,0.623461,1.792,2.22334
1.16482,0.623461,1.792,2.22638
1.17063,0.623461,1.792,2.22943
1.17645,0.623461,1.792,2.23249
1.18226,0.623461,1.792,2.23556
1.18808,0.623461,1.792,2.23864
1.1939,0.623461,1.792,2.24173
1.19971,0.623461,1.792,2.24483
1.21226,0.62694,1.802,2.26049
1.21811,0.62694,1.802,2.26363
1.22395,0.62694,1.802,2.26679
-1.48459,0.751479,2.14,2.71078
-1.46798,0.746562,2.126,2.68927
-1.46107,0.746562,2.126,2.68551
-1.45417,0.746562,2.126,2.68176
-1.44727,0.746562,2.126,2.67803
-1.43157,0.741997,2.113,2.65795
-1.42471,0.741997,2.113,2.65426
-1.41785,0.741997,2.113,2.65059
-1.40231,0.737432,2.1,2.63064
-1.38686,0.732867,2.087,2.61075
-1.38008,0.732867,2.087,2.60716
-1.35686,0.724088,2.062,2.57239
-1.34231,0.719874,2.05,2.55392
-1.33565,0.719874,2.05,2.55043
-1.32122,0.71566,2.038,2.53204
-1.30686,0.711446,2.026,2.51371
-1.30029,0.711446,2.026,2.5103
-1.29371,0.711446,2.026,2.5069
-1.28714,0.711446,2.026,2.50351
-1.28056,0.711446,2.026,2.50013
-1.27398,0.711446,2.026,2.49677
-1.2599,0.707233,2.014,2.47865
-1.25336,0.707233,2.014,2.47534
-1.24683,0.707233,2.014,2.47203
-1.24029,0.707233,2.014,2.46874
-1.23375,0.707233,2.014,2.46547
-1.23453,0.711446,2.026,2.47687
-1.22795,0.711446,2.026,2.4736
-1.22138,0.711446,2.026,2.47034
-1.222,0.71566,2.038,2.48171
-1.21538,0.71566,2.038,2.47846
-1.20877,0.71566,2.038,2.47522
-1.19507,0.711446,2.026,2.45744
-1.1885,0.711446,2.026,2.45425
-1.18192,0.711446,2.026,2.45108
-1.18231,0.71566,2.038,2.46241
-1.19704,0.728653,2.075,2.50389
-1.1903,0.728653,2.075,2.50068
-1.16931,0.719874,2.05,2.46739
-1.16265,0.719874,2.05,2.46424
-1.156,0.719874,2.05,2.46111
-1.14935,0.719874,2.05,2.45799
-1.14269,0.719874,2.05,2.45489
-1.13604,0.719874,2.05,2.4518
-1.12277,0.71566,2.038,2.43439
-1.11616,0.71566,2.038,2.43134
-1.10954,0.71566,2.038,2.42831
-1.10293,0.71566,2.038,2.4253
-1.09631,0.71566,2.038,2.4223
-1.09612,0.719874,2.05,2.43356
-1.08309,0.71566,2.038,2.41634
-1.07647,0.71566,2.038,2.41338
-1.06986,0.71566,2.038,2.41044
-1.06324,0.71566,2.038,2.40751
-1.05663,0.71566,2.038,2.40459
-1.05001,0.71566,2.038,2.40169
-1.0434,0.71566,2.038,2.39881
-1.03068,0.711446,2.026,2.38183
-1.0241,0.711446,2.026,2.37899
-1.01752,0.711446,2.026,2.37617
-1.00496,0.707233,2.014,2.35931
-0.998424,0.707233,2.014,2.35653
-0.991887,0.707233,2.014,2.35377
-0.979479,0.703019,2.002,2.33701
-0.972981,0.703019,2.002,2.33429
-0.96069,0.698805,1.99,2.31762
-0.954231,0.698805,1.99,2.31495
-0.942533,0.694942,1.979,2.29951
-0.930433,0.690728,1.967,2.28296
-0.924049,0.690728,1.967,2.28036
-0.912533,0.686865,1.956,2.26505
-0.906184,0.686865,1.956,2.2625
-0.899835,0.686865,1.956,2.25996
-0.888462,0.683003,1.945,2.24475
-0.87716,0.67914,1.934,2.22957
-0.870883,0.67914,1.934,2.22711
-0.864605,0.67914,1.934,2.22466
-0.858328,0.67914,1.934,2.22223
-0.852051,0.67914,1.934,2.21981
-0.845774,0.67914,1.934,2.21741
-0.839496,0.67914,1.934,2.21503
-0.833219,0.67914,1.934,2.21265
-0.826942,0.67914,1.934,2.2103
-0.820665,0.67914,1.934,2.20796
-0.814387,0.67914,1.934,2.20563
-0.812706,0.683003,1.945,2.21585
-0.806393,0.683003,1.945,2.21355
-0.80008,0.683003,1.945,2.21125
-0.793767,0.683003,1.945,2.20898
-0.787454,0.683003,1.945,2.20672
-0.781141,0.683003,1.945,2.20447
-0.77921,0.686865,1.956,2.2147
-0.772862,0.686865,1.956,2.21247
-0.766513,0.686865,1.956,2.21026
-0.760164,0.686865,1.956,2.20807
-0.758055,0.690728,1.967,2.2183
-0.75167,0.690728,1.967,2.21612
-0.745286,0.690728,1.967,2.21397
-0.738902,0.690728,1.967,2.21183
-0.732517,0.690728,1.967,2.2097
-0.722072,0.686865,1.956,2.19525
-0.715724,0.686865,1.956,2.19317
-0.709375,0.686865,1.956,2.1911
-0.699072,0.683003,1.945,2.17675
-0.688842,0.67914,1.934,2.16243
-0.682564,0.67914,1.934,2.16044
-0.67244,0.675277,1.923,2.14618
-0.666199,0.675277,1.923,2.14424
-0.659957,0.675277,1.923,2.14231
-0.649976,0.671414,1.912,2.12815
-0.640403,0.667903,1.902,2.11514
-0.63423,0.667903,1.902,2.11328
-0.624424,0.66404,1.891,2.09922
-0.615017,0.660529,1.881,2.08631
-0.608912,0.660529,1.881,2.08452
-0.602807,0.660529,1.881,2.08275
-0.593529,0.657017,1.871,2.06992
-0.584316,0.653505,1.861,2.05714
-0.578276,0.653505,1.861,2.05543
-0.572236,0.653505,1.861,2.05374
-0.566195,0.653505,1.861,2.05206
-0.560155,0.653505,1.861,2.05041
-0.550839,0.649643,1.85,2.03665
-0.544835,0.649643,1.85,2.03504
-0.53883,0.649643,1.85,2.03344
-0.532825,0.649643,1.85,2.03186
-0.526821,0.649643,1.85,2.03029
-0.520816,0.649643,1.85,2.02874
-0.514812,0.649643,1.85,2.02721
-0.508807,0.649643,1.85,2.02569
-0.500356,0.646482,1.841,2.01434
-0.494381,0.646482,1.841,2.01287
-0.488405,0.646482,1.841,2.01141
-0.48243,0.646482,1.841,2.00996
-0.476454,0.646482,1.841,2.00854
-0.470479,0.646482,1.841,2.00713
-0.464504,0.646482,1.841,2.00574
-0.458528,0.646482,1.841,2.00436
-0.452553,0.646482,1.841,2.003
-0.446577,0.646482,1.841,2.00166
-0.440602,0.646482,1.841,2.00034
-0.436751,0.649643,1.85,2.0088
-0.430747,0.649643,1.85,2.00751
-0.424742,0.649643,1.85,2.00623
-0.418737,0.649643,1.85,2.00496
-0.412733,0.649643,1.85,2.00372
-0.406728,0.649643,1.85,2.00249
-0.403106,0.653505,1.861,2.01318
-0.397066,0.653505,1.861,2.01198
-0.391025,0.653505,1.861,2.01079
-0.384985,0.653505,1.861,2.00963
-0.378945,0.653505,1.861,2.00848
-0.372904,0.653505,1.861,2.00735
-0.368835,0.657017,1.871,2.01702
-0.362763,0.657017,1.871,2.01591
-0.35669,0.657017,1.871,2.01483
-0.350617,0.657017,1.871,2.01376
-0.344544,0.657017,1.871,2.01272
-0.338471,0.657017,1.871,2.01168
-0.332399,0.657017,1.871,2.01067
-0.326326,0.657017,1.871,2.00968
-0.318541,0.653505,1.861,1.99796
-0.312501,0.653505,1.861,1.99701
-0.304649,0.649643,1.85,1.98427
-0.298644,0.649643,1.85,1.98336
-0.29264,0.649643,1.85,1.98247
-0.285241,0.646482,1.841,1.97195
-0.279265,0.646482,1.841,1.97109
-0.271805,0.642971,1.831,1.95955
-0.26441,0.639459,1.821,1.94804
-0.2585,0.639459,1.821,1.94725
-0.251202,0.635948,1.811,1.93578
-0.244105,0.632787,1.802,1.92541
-0.238256,0.632787,1.802,1.92468
-0.232407,0.632787,1.802,1.92396
-0.225301,0.629276,1.792,1.91259
-0.218383,0.626115,1.783,1.90231
-0.212595,0.626115,1.783,1.90166
-0.205764,0.622955,1.774,1.89142
-0.200006,0.622955,1.774,1.89081
-0.194248,0.622955,1.774,1.89021
-0.18849,0.622955,1.774,1.88962
-0.182732,0.622955,1.774,1.88906
-0.176975,0.622955,1.774,1.88851
-0.170348,0.619794,1.765,1.8784
-0.164619,0.619794,1.765,1.87789
-0.15889,0.619794,1.765,1.8774
-0.153162,0.619794,1.765,1.87692
-0.147433,0.619794,1.765,1.87646
-0.141704,0.619794,1.765,1.87602
-0.135975,0.619794,1.765,1.8756
-0.130247,0.619794,1.765,1.87519
-0.124518,0.619794,1.765,1.8748
-0.118789,0.619794,1.765,1.87443
-0.11306,0.619794,1.765,1.87407
-0.107879,0.622955,1.774,1.88329
-0.102121,0.622955,1.774,1.88297
-0.096363,0.622955,1.774,1.88267
-0.0920351,0.632787,1.802,1.91209
-0.0861863,0.632787,1.802,1.91182
-0.0803374,0.632787,1.802,1.91156
-0.0744886,0.632787,1.802,1.91133
-0.0686398,0.632787,1.802,1.91111
-0.0627909,0.632787,1.802,1.91091
-0.0569421,0.632787,1.802,1.91072
-0.0508097,0.629276,1.792,1.89996
-0.0449933,0.629276,1.792,1.89981
-0.0391769,0.629276,1.792,1.89968
-0.0333605,0.629276,1.792,1.89957
-0.0275441,0.629276,1.792,1.89948
-0.0216186,0.626115,1.783,1.88986
-0.0157515,0.622955,1.774,1.88026
-0.00999358,0.622955,1.774,1.88023
-0.00423562,0.622955,1.774,1.8802
0.00152234,0.622955,1.774,1.8802
0.00728031,0.622955,1.774,1.88021
0.0130383,0.622955,1.774,1.88024
0.0187962,0.622955,1.774,1.88029
0.0245542,0.622955,1.774,1.88036
0.0304659,0.626115,1.783,1.88998
0.0362531,0.626115,1.783,1.89009
0.0420403,0.626115,1.783,1.89021
0.0478275,0.626115,1.783,1.89034
0.0536146,0.626115,1.783,1.8905
0.0597017,0.629276,1.792,1.90021
0.065518,0.629276,1.792,1.90041
0.0717325,0.632787,1.802,1.91122
0.0775814,0.632787,1.802,1.91145
0.0834302,0.632787,1.802,1.9117
0.089279,0.632787,1.802,1.91196
0.0951279,0.632787,1.802,1.91224
0.100977,0.632787,1.802,1.91254
0.106826,0.632787,1.802,1.91286
0.112674,0.632787,1.802,1.9132
0.118523,0.632787,1.802,1.91355
0.124372,0.632787,1.802,1.91392
0.130221,0.632787,1.802,1.91431
0.13607,0.632787,1.802,1.91472
0.141919,0.632787,1.802,1.91514
0.147767,0.632787,1.802,1.91558
0.152764,0.629276,1.792,1.90541
0.15858,0.629276,1.792,1.90589
0.164397,0.629276,1.792,1.90638
0.169358,0.626115,1.783,1.89731
0.175145,0.626115,1.783,1.89784
0.180933,0.626115,1.783,1.89838
0.18672,0.626115,1.783,1.89894
0.192507,0.626115,1.783,1.89952
0.198294,0.626115,1.783,1.90011
0.204081,0.626115,1.783,1.90073
0.208809,0.622955,1.774,1.89176
0.214567,0.622955,1.774,1.8924
0.220325,0.622955,1.774,1.89306
0.226083,0.622955,1.774,1.89374
0.231841,0.622955,1.774,1.89444
0.237599,0.622955,1.774,1.89515
0.243357,0.622955,1.774,1.89588
0.250379,0.626115,1.783,1.90625
0.256166,0.626115,1.783,1.90702
0.260631,0.622955,1.774,1.89818
0.266389,0.622955,1.774,1.89898
0.272147,0.622955,1.774,1.89979
0.277905,0.622955,1.774,1.90063
0.283663,0.622955,1.774,1.90148
0.290889,0.626115,1.783,1.912
0.296676,0.626115,1.783,1.91288
0.302463,0.626115,1.783,1.91379
0.30825,0.626115,1.783,1.91471
0.314038,0.626115,1.783,1.91565
0.319825,0.626115,1.783,1.91661
0.325612,0.626115,1.783,1.91759
0.331399,0.626115,1.783,1.91858
0.337186,0.626115,1.783,1.91958
0.342973,0.626115,1.783,1.92061
0.348761,0.626115,1.783,1.92165
0.356337,0.629276,1.792,1.93242
0.360335,0.626115,1.783,1.92379
0.366122,0.626115,1.783,1.92488
0.371909,0.626115,1.783,1.92599
0.377696,0.626115,1.783,1.92711
0.383484,0.626115,1.783,1.92826
0.389271,0.626115,1.783,1.92941
0.395058,0.626115,1.783,1.93059
0.398822,0.622955,1.774,1.92203
0.40458,0.622955,1.774,1.92324
0.410338,0.622955,1.774,1.92445
0.413985,0.619794,1.765,1.91592
0.419713,0.619794,1.765,1.91717
0.425442,0.619794,1.765,1.91843
0.431171,0.619794,1.765,1.91971
0.4369,0.619794,1.765,1.921
0.442628,0.619794,1.765,1.92231
0.446071,0.616634,1.756,1.91383
0.451771,0.616634,1.756,1.91517
0.45747,0.616634,1.756,1.91652
0.46317,0.616634,1.756,1.91789
0.471272,0.619794,1.765,1.92911
0.477001,0.619794,1.765,1.93052
0.48273,0.619794,1.765,1.93194
0.488459,0.619794,1.765,1.93338
0.494187,0.619794,1.765,1.93484
0.499916,0.619794,1.765,1.93631
0.505645,0.619794,1.765,1.93779
0.511374,0.619794,1.765,1.9393
0.517102,0.619794,1.765,1.94082
0.522831,0.619794,1.765,1.94235
0.52856,0.619794,1.765,1.9439
0.537013,0.622955,1.774,1.95539
0.542771,0.622955,1.774,1.95697
0.548529,0.622955,1.774,1.95858
0.554287,0.622955,1.774,1.9602
0.560045,0.622955,1.774,1.96184
0.568673,0.626115,1.783,1.97345
0.57446,0.626115,1.783,1.97512
0.580248,0.626115,1.783,1.97681
0.586035,0.626115,1.783,1.97852
0.594809,0.629276,1.792,1.99024
0.600626,0.629276,1.792,1.99198
0.606442,0.629276,1.792,1.99375
0.612258,0.629276,1.792,1.99552
0.618075,0.629276,1.792,1.99732
0.623891,0.629276,1.792,1.99912
0.629708,0.629276,1.792,2.00095
0.635524,0.629276,1.792,2.00278
0.64134,0.629276,1.792,2.00464
0.647157,0.629276,1.792,2.00651
0.652973,0.629276,1.792,2.00839
0.65879,0.629276,1.792,2.01029
0.664606,0.629276,1.792,2.0122
0.670422,0.629276,1.792,2.01413
0.676239,0.629276,1.792,2.01607
0.67863,0.626115,1.783,2.0079
0.680962,0.622955,1.774,1.99971
0.68672,0.622955,1.774,2.00168
0.692478,0.622955,1.774,2.00367
0.694694,0.619794,1.765,1.99549
0.700422,0.619794,1.765,1.99749
0.70255,0.616634,1.756,1.98931
0.70462,0.613473,1.747,1.98112
0.71029,0.613473,1.747,1.98315
0.712272,0.610313,1.738,1.97496
0.717913,0.610313,1.738,1.977
0.719808,0.607153,1.729,1.96881
0.725419,0.607153,1.729,1.97087
0.731031,0.607153,1.729,1.97294
0.740478,0.610313,1.738,1.9853
0.746119,0.610313,1.738,1.98742
0.75176,0.610313,1.738,1.98954
0.757401,0.610313,1.738,1.99168
0.763042,0.610313,1.738,1.99383
0.768683,0.610313,1.738,1.996
0.774324,0.610313,1.738,1.99818
0.784005,0.613473,1.747,2.01073
0.789675,0.613473,1.747,2.01294
0.795345,0.613473,1.747,2.01518
0.801015,0.613473,1.747,2.01742
0.814997,0.619794,1.765,2.04049
0.820726,0.619794,1.765,2.04278
0.826455,0.619794,1.765,2.04509
0.836427,0.622955,1.774,2.05785
0.842185,0.622955,1.774,2.0602
0.865628,0.635948,1.811,2.10558
0.871506,0.635948,1.811,2.108
0.877384,0.635948,1.811,2.11044
0.88814,0.639459,1.821,2.12456
0.89896,0.642971,1.831,2.13871
0.909845,0.646482,1.841,2.15291
0.91582,0.646482,1.841,2.15545
0.921796,0.646482,1.841,2.15799
0.927771,0.646482,1.841,2.16055
0.933747,0.646482,1.841,2.16312
0.944316,0.649643,1.85,2.1763
0.950321,0.649643,1.85,2.17891
0.956325,0.649643,1.85,2.18154
0.96233,0.649643,1.85,2.18417
0.968335,0.649643,1.85,2.18683
0.974339,0.649643,1.85,2.18949
0.975575,0.646482,1.841,2.18151
0.98155,0.646482,1.841,2.18418
0.987526,0.646482,1.841,2.18688
0.993501,0.646482,1.841,2.18958
0.999476,0.646482,1.841,2.1923
1.00545,0.646482,1.841,2.19503
1.01143,0.646482,1.841,2.19777
1.01188,0.642971,1.831,2.18858
1.01782,0.642971,1.831,2.19133
1.02376,0.642971,1.831,2.1941
1.02971,0.642971,1.831,2.19688
1.03565,0.642971,1.831,2.19967
1.04159,0.642971,1.831,2.20247
1.04753,0.642971,1.831,2.20529
1.04772,0.639459,1.821,2.19606
1.05363,0.639459,1.821,2.19888
1.05954,0.639459,1.821,2.20172
1.06546,0.639459,1.821,2.20457
1.07137,0.639459,1.821,2.20744
1.07728,0.639459,1.821,2.21031
1.07724,0.635948,1.811,2.20104
1.08312,0.635948,1.811,2.20393
1.08358,0.632787,1.802,2.19585
1.08339,0.629276,1.792,2.18654
1.0892,0.629276,1.792,2.18943
1.09502,0.629276,1.792,2.19233
1.10083,0.629276,1.792,2.19524
1.10665,0.629276,1.792,2.19816
1.10688,0.626115,1.783,2.19004
1.11267,0.626115,1.783,2.19297
1.11281,0.622955,1.774,2.18483
1.11857,0.622955,1.774,2.18777
1.12433,0.622955,1.774,2.19072
1.13008,0.622955,1.774,2.19368
1.13584,0.622955,1.774,2.19665
1.13581,0.619794,1.765,2.18848
1.14154,0.619794,1.765,2.19145
1.14726,0.619794,1.765,2.19444
1.15299,0.619794,1.765,2.19745
1.15872,0.619794,1.765,2.20046
1.16445,0.619794,1.765,2.20348
1.17018,0.619794,1.765,2.20651
1.17591,0.619794,1.765,2.20955
1.18164,0.619794,1.765,2.21261
1.18737,0.619794,1.765,2.21567
1.19309,0.619794,1.765,2.21875
1.20494,0.622955,1.774,2.23316
-1.48459,0.758422,2.14,2.71271
-1.46798,0.753461,2.126,2.6912
-1.46107,0.753461,2.126,2.68744
-1.45417,0.753461,2.126,2.68369
-1.44727,0.753461,2.126,2.67996
-1.43157,0.748854,2.113,2.65987
-1.42471,0.748854,2.113,2.65619
-1.41785,0.748854,2.113,2.65252
-1.40231,0.744246,2.1,2.63256
-1.38686,0.739639,2.087,2.61266
-1.38008,0.739639,2.087,2.60907
-1.35686,0.730779,2.062,2.57428
-1.34231,0.726526,2.05,2.5558
-1.33565,0.726526,2.05,2.55231
-1.32122,0.722273,2.038,2.53392
-1.30686,0.71802,2.026,2.51558
-1.30029,0.71802,2.026,2.51217
-1.29371,0.71802,2.026,2.50877
-1.28714,0.71802,2.026,2.50538
-1.28056,0.71802,2.026,2.50201
-1.27398,0.71802,2.026,2.49865
-1.2599,0.713768,2.014,2.48053
-1.25336,0.713768,2.014,2.47721
-1.24683,0.713768,2.014,2.47391
-1.24029,0.713768,2.014,2.47062
-1.23375,0.713768,2.014,2.46735
-1.23453,0.71802,2.026,2.47877
-1.22795,0.71802,2.026,2.4755
-1.22138,0.71802,2.026,2.47224
-1.222,0.722273,2.038,2.48363
-1.21538,0.722273,2.038,2.48038
-1.20877,0.722273,2.038,2.47714
-1.19507,0.71802,2.026,2.45936
-1.1885,0.71802,2.026,2.45617
-1.18192,0.71802,2.026,2.45299
-1.18231,0.722273,2.038,2.46434
-1.17569,0.722273,2.038,2.46117
-1.16219,0.71802,2.026,2.44355
-1.15562,0.71802,2.026,2.44043
-1.14904,0.71802,2.026,2.43732
-1.1357,0.713768,2.014,2.41981
-1.12916,0.713768,2.014,2.41675
-1.12263,0.713768,2.014,2.4137
-1.11609,0.713768,2.014,2.41067
-1.10294,0.709515,2.002,2.3933
-1.09644,0.709515,2.002,2.39031
-1.08995,0.709515,2.002,2.38734
-1.08345,0.709515,2.002,2.38438
-1.07695,0.709515,2.002,2.38144
-1.07045,0.709515,2.002,2.3785
-1.06395,0.709515,2.002,2.37559
-1.05746,0.709515,2.002,2.37268
-1.05726,0.713768,2.014,2.384
-1.04446,0.709515,2.002,2.36692
-1.03796,0.709515,2.002,2.36406
-1.03146,0.709515,2.002,2.36121
-1.02497,0.709515,2.002,2.35838
-1.01236,0.705262,1.99,2.34145
-1.0059,0.705262,1.99,2.33866
-0.999444,0.705262,1.99,2.33589
-0.987497,0.701364,1.979,2.32024
-0.975124,0.697111,1.967,2.30346
-0.96874,0.697111,1.967,2.30076
-0.962355,0.697111,1.967,2.29808
-0.950625,0.693212,1.956,2.28258
-0.944276,0.693212,1.956,2.27994
-0.937928,0.693212,1.956,2.27732
-0.92634,0.689314,1.945,2.26192
-0.914824,0.685415,1.934,2.24656
-0.908546,0.685415,1.934,2.24402
-0.897137,0.681517,1.923,2.22873
-0.8858,0.677619,1.912,2.21349
-0.879594,0.677619,1.912,2.21102
-0.873388,0.677619,1.912,2.20856
-0.862647,0.674075,1.902,2.19457
-0.856473,0.674075,1.902,2.19215
-0.8503,0.674075,1.902,2.18975
-0.844126,0.674075,1.902,2.18736
-0.837953,0.674075,1.902,2.18498
-0.831779,0.674075,1.902,2.18262
-0.825606,0.674075,1.902,2.18028
-0.819433,0.674075,1.902,2.17795
-0.813259,0.674075,1.902,2.17563
-0.807086,0.674075,1.902,2.17333
-0.805123,0.677619,1.912,2.18246
-0.798917,0.677619,1.912,2.18018
-0.792711,0.677619,1.912,2.17791
-0.791031,0.681517,1.923,2.18818
-0.789278,0.685415,1.934,2.19843
-0.783001,0.685415,1.934,2.19619
-0.776724,0.685415,1.934,2.19396
-0.770446,0.685415,1.934,2.19174
-0.768515,0.689314,1.945,2.202
-0.762202,0.689314,1.945,2.1998
-0.755889,0.689314,1.945,2.19762
-0.749576,0.689314,1.945,2.19546
-0.743263,0.689314,1.945,2.19331
-0.73695,0.689314,1.945,2.19118
-0.730637,0.689314,1.945,2.18907
-0.724324,0.689314,1.945,2.18697
-0.713951,0.685415,1.934,2.17253
-0.703648,0.681517,1.923,2.15813
-0.697407,0.681517,1.923,2.1561
-0.691165,0.681517,1.923,2.15409
-0.681006,0.677619,1.912,2.13979
-0.6748,0.677619,1.912,2.13782
-0.665097,0.674075,1.902,2.1247
-0.655113,0.670176,1.891,2.1105
-0.648975,0.670176,1.891,2.1086
-0.639438,0.666632,1.881,2.09558
-0.633333,0.666632,1.881,2.09372
-0.627228,0.666632,1.881,2.09188
-0.614518,0.659544,1.861,2.06784
-0.608478,0.659544,1.861,2.06605
-0.602437,0.659544,1.861,2.06428
-0.596397,0.659544,1.861,2.06253
-0.586867,0.655646,1.85,2.04861
-0.578037,0.652456,1.841,2.03694
-0.572061,0.652456,1.841,2.03525
-0.566086,0.652456,1.841,2.03358
-0.557068,0.648912,1.831,2.02088
-0.551125,0.648912,1.831,2.01925
-0.545182,0.648912,1.831,2.01764
-0.539239,0.648912,1.831,2.01604
-0.533296,0.648912,1.831,2.01446
-0.527353,0.648912,1.831,2.0129
-0.518563,0.645368,1.821,2.00036
-0.512652,0.645368,1.821,1.99884
-0.506742,0.645368,1.821,1.99733
-0.500831,0.645368,1.821,1.99584
-0.49492,0.645368,1.821,1.99436
-0.48901,0.645368,1.821,1.99291
-0.483099,0.645368,1.821,1.99146
-0.477189,0.645368,1.821,1.99004
-0.471278,0.645368,1.821,1.98863
-0.465368,0.645368,1.821,1.98724
-0.459457,0.645368,1.821,1.98586
-0.453547,0.645368,1.821,1.9845
-0.447636,0.645368,1.821,1.98316
-0.441726,0.645368,1.821,1.98183
-0.435815,0.645368,1.821,1.98052
-0.429905,0.645368,1.821,1.97923
-0.423994,0.645368,1.821,1.97796
-0.418084,0.645368,1.821,1.9767
-0.414437,0.648912,1.831,1.9863
-0.408494,0.648912,1.831,1.98507
-0.402551,0.648912,1.831,1.98386
-0.396608,0.648912,1.831,1.98266
-0.390665,0.648912,1.831,1.98148
-0.391025,0.659544,1.861,2.01276
-0.384985,0.659544,1.861,2.0116
-0.378945,0.659544,1.861,2.01045
-0.372904,0.659544,1.861,2.00932
-0.368835,0.663088,1.871,2.019
-0.362763,0.663088,1.871,2.0179
-0.35669,0.663088,1.871,2.01682
-0.350617,0.663088,1.871,2.01575
-0.344544,0.663088,1.871,2.01471
-0.338471,0.663088,1.871,2.01368
-0.332399,0.663088,1.871,2.01266
-0.326326,0.663088,1.871,2.01167
-0.318541,0.659544,1.861,1.99995
-0.312501,0.659544,1.861,1.99899
-0.304649,0.655646,1.85,1.98625
-0.298644,0.655646,1.85,1.98534
-0.29264,0.655646,1.85,1.98444
-0.285241,0.652456,1.841,1.97392
-0.279265,0.652456,1.841,1.97306
-0.271805,0.648912,1.831,1.96151
-0.26441,0.645368,1.821,1.94999
-0.2585,0.645368,1.821,1.9492
-0.251202,0.641824,1.811,1.93772
-0.244105,0.638634,1.802,1.92734
-0.238256,0.638634,1.802,1.92661
-0.232407,0.638634,1.802,1.92589
-0.225301,0.63509,1.792,1.91451
-0.218383,0.631901,1.783,1.90423
-0.212595,0.631901,1.783,1.90357
-0.205764,0.628711,1.774,1.89333
-0.200006,0.628711,1.774,1.89271
-0.194248,0.628711,1.774,1.89211
-0.18849,0.628711,1.774,1.89153
-0.182732,0.628711,1.774,1.89096
-0.176975,0.628711,1.774,1.89042
-0.170348,0.625521,1.765,1.8803
-0.164619,0.625521,1.765,1.87979
-0.15889,0.625521,1.765,1.87929
-0.153162,0.625521,1.765,1.87882
-0.147433,0.625521,1.765,1.87836
-0.141704,0.625521,1.765,1.87792
-0.135975,0.625521,1.765,1.8775
-0.130247,0.625521,1.765,1.87709
-0.124518,0.625521,1.765,1.8767
-0.118789,0.625521,1.765,1.87633
-0.11306,0.625521,1.765,1.87598
-0.107879,0.628711,1.774,1.8852
-0.102121,0.628711,1.774,1.88488
-0.096363,0.628711,1.774,1.88458
-0.0906051,0.628711,1.774,1.88429
-0.0848471,0.628711,1.774,1.88403
-0.0790891,0.628711,1.774,1.88378
-0.0733312,0.628711,1.774,1.88354
-0.0672304,0.625521,1.765,1.87377
-0.0615017,0.625521,1.765,1.87358
-0.0557729,0.625521,1.765,1.8734
-0.0500441,0.625521,1.765,1.87323
-0.0443154,0.625521,1.765,1.87309
-0.0383899,0.622332,1.756,1.86341
-0.0326903,0.622332,1.756,1.8633
-0.0269908,0.622332,1.756,1.86321
-0.0212913,0.622332,1.756,1.86314
-0.0155118,0.619142,1.747,1.85353
-0.00984148,0.619142,1.747,1.85349
-0.00417116,0.619142,1.747,1.85347
0.00149917,0.619142,1.747,1.85347
0.0071695,0.619142,1.747,1.85348
0.0128398,0.619142,1.747,1.85351
0.0185102,0.619142,1.747,1.85356
0.0241805,0.619142,1.747,1.85363
0.0298508,0.619142,1.747,1.85371
0.0355211,0.619142,1.747,1.85381
0.0411915,0.619142,1.747,1.85393
0.0471032,0.622332,1.756,1.86361
0.0528028,0.622332,1.756,1.86377
0.0588021,0.625521,1.765,1.87349
0.0645309,0.625521,1.765,1.87368
0.0702596,0.625521,1.765,1.87388
0.0759884,0.625521,1.765,1.87411
0.0821338,0.628711,1.774,1.88391
0.0878918,0.628711,1.774,1.88417
0.0936498,0.628711,1.774,1.88444
0.0994077,0.628711,1.774,1.88474
0.105166,0.628711,1.774,1.88505
0.110924,0.628711,1.774,1.88538
0.116682,0.628711,1.774,1.88573
0.12244,0.628711,1.774,1.88609
0.127547,0.625521,1.765,1.8769
0.133276,0.625521,1.765,1.8773
0.139005,0.625521,1.765,1.87772
0.144733,0.625521,1.765,1.87815
0.150462,0.625521,1.765,1.8786
0.155394,0.622332,1.756,1.86949
0.161094,0.622332,1.756,1.86997
0.166794,0.622332,1.756,1.87047
0.172493,0.622332,1.756,1.87099
0.178193,0.622332,1.756,1.87152
0.18295,0.619142,1.747,1.86248
0.18862,0.619142,1.747,1.86304
0.19429,0.619142,1.747,1.86362
0.199961,0.619142,1.747,1.86422
0.205631,0.619142,1.747,1.86484
0.211301,0.619142,1.747,1.86547
0.216972,0.619142,1.747,1.86613
0.222642,0.619142,1.747,1.86679
0.228312,0.619142,1.747,1.86748
0.233983,0.619142,1.747,1.86818
0.239653,0.619142,1.747,1.8689
0.245323,0.619142,1.747,1.86963
0.250994,0.619142,1.747,1.87039
0.256664,0.619142,1.747,1.87116
0.262334,0.619142,1.747,1.87194
0.268005,0.619142,1.747,1.87274
0.273675,0.619142,1.747,1.87356
0.279345,0.619142,1.747,1.8744
0.285016,0.619142,1.747,1.87525
0.290686,0.619142,1.747,1.87612
0.296356,0.619142,1.747,1.87701
0.302027,0.619142,1.747,1.87792
0.307697,0.619142,1.747,1.87884
0.313367,0.619142,1.747,1.87977
0.320681,0.622332,1.756,1.89042
0.326381,0.622332,1.756,1.89139
0.33208,0.622332,1.756,1.89238
0.33778,0.622332,1.756,1.89339
0.343479,0.622332,1.756,1.89442
0.350968,0.625521,1.765,1.90517
0.356697,0.625521,1.765,1.90624
0.362426,0.625521,1.765,1.90732
0.368155,0.625521,1.765,1.90841
0.371977,0.622332,1.756,1.89979
0.377677,0.622332,1.756,1.90091
0.383376,0.622332,1.756,1.90205
0.389076,0.622332,1.756,1.90321
0.392752,0.619142,1.747,1.89462
0.398422,0.619142,1.747,1.89581
0.402011,0.615952,1.738,1.88723
0.407652,0.615952,1.738,1.88844
0.413293,0.615952,1.738,1.88967
0.418934,0.615952,1.738,1.89091
0.422377,0.612763,1.729,1.88237
0.427988,0.612763,1.729,1.88364
0.435857,0.615952,1.738,1.89473
0.439212,0.612763,1.729,1.88622
0.444824,0.612763,1.729,1.88753
0.450436,0.612763,1.729,1.88887
0.456048,0.612763,1.729,1.89021
0.46166,0.612763,1.729,1.89157
0.467272,0.612763,1.729,1.89295
0.472884,0.612763,1.729,1.89434
0.478496,0.612763,1.729,1.89575
0.484108,0.612763,1.729,1.89718
0.489719,0.612763,1.729,1.89862
0.495331,0.612763,1.729,1.90007
0.500943,0.612763,1.729,1.90154
0.509192,0.615952,1.738,1.91293
0.514833,0.615952,1.738,1.91444
0.520474,0.615952,1.738,1.91597
0.526115,0.615952,1.738,1.91751
0.531756,0.615952,1.738,1.91906
0.54018,0.619142,1.747,1.93058
0.554287,0.628711,1.774,1.96204
0.560045,0.628711,1.774,1.96367
0.568673,0.631901,1.783,1.97529
0.57446,0.631901,1.783,1.97697
0.580248,0.631901,1.783,1.97865
0.586035,0.631901,1.783,1.98036
0.594809,0.63509,1.792,1.99208
0.600626,0.63509,1.792,1.99383
0.606442,0.63509,1.792,1.99559
0.612258,0.63509,1.792,1.99736
0.618075,0.63509,1.792,1.99915
0.623891,0.63509,1.792,2.00096
0.629708,0.63509,1.792,2.00278
0.635524,0.63509,1.792,2.00462
0.64134,0.63509,1.792,2.00647
0.647157,0.63509,1.792,2.00834
0.652973,0.63509,1.792,2.01022
0.65879,0.63509,1.792,2.01212
0.664606,0.63509,1.792,2.01403
0.670422,0.63509,1.792,2.01595
0.676239,0.63509,1.792,2.0179
0.67863,0.631901,1.783,2.00971
0.680962,0.628711,1.774,2.00152
0.68672,0.628711,1.774,2.00348
0.692478,0.628711,1.774,2.00546
0.694694,0.625521,1.765,1.99727
0.700422,0.625521,1.765,1.99927
0.70255,0.622332,1.756,1.99108
0.70462,0.619142,1.747,1.98289
0.71029,0.619142,1.747,1.98491
0.712272,0.615952,1.738,1.97671
0.717913,0.615952,1.738,1.97875
0.719808,0.612763,1.729,1.97054
0.725419,0.612763,1.729,1.9726
0.731031,0.612763,1.729,1.97467
0.740478,0.615952,1.738,1.98705
0.746119,0.615952,1.738,1.98915
0.75176,0.615952,1.738,1.99128
0.757401,0.615952,1.738,1.99341
0.763042,0.615952,1.738,1.99556
0.768683,0.615952,1.738,1.99773
0.774324,0.615952,1.738,1.9999
0.784005,0.619142,1.747,2.01246
0.789675,0.619142,1.747,2.01468
0.795345,0.619142,1.747,2.01691
0.801015,0.619142,1.747,2.01915
0.814997,0.625521,1.765,2.04223
0.820726,0.625521,1.765,2.04453
0.826455,0.625521,1.765,2.04683
0.836427,0.628711,1.774,2.0596
0.842185,0.628711,1.774,2.06195
0.847943,0.628711,1.774,2.06431
0.853701,0.628711,1.774,2.06668
0.859459,0.628711,1.774,2.06906
0.873996,0.63509,1.792,2.09248
0.884722,0.638634,1.802,2.10661
0.890571,0.638634,1.802,2.10907
0.89642,0.638634,1.802,2.11155
0.902268,0.638634,1.802,2.11404
0.912653,0.641824,1.811,2.12711
0.918531,0.641824,1.811,2.12964
0.924409,0.641824,1.811,2.13218
0.930287,0.641824,1.811,2.13474
0.936165,0.641824,1.811,2.1373
0.942043,0.641824,1.811,2.13988
0.947921,0.641824,1.811,2.14248
0.953799,0.641824,1.811,2.14509
0.959677,0.641824,1.811,2.14771
0.965555,0.641824,1.811,2.15034
0.971433,0.641824,1.811,2.15298
0.977311,0.641824,1.811,2.15564
0.98319,0.641824,1.811,2.15831
0.989068,0.641824,1.811,2.161
0.990001,0.638634,1.802,2.15294
0.99585,0.638634,1.802,2.15564
1.0017,0.638634,1.802,2.15835
1.00755,0.638634,1.802,2.16107
1.0134,0.638634,1.802,2.1638
1.01925,0.638634,1.802,2.16655
1.02509,0.638634,1.802,2.1693
1.02522,0.63509,1.792,2.16002
1.03104,0.63509,1.792,2.16279
1.03685,0.63509,1.792,2.16557
1.04267,0.63509,1.792,2.16836
1.04849,0.63509,1.792,2.17116
1.0543,0.63509,1.792,2.17397
1.0548,0.631901,1.783,2.16587
1.05523,0.628711,1.774,2.15774
1.06099,0.628711,1.774,2.16057
1.06675,0.628711,1.774,2.1634
1.06706,0.625521,1.765,2.15526
1.07279,0.625521,1.765,2.1581
1.07852,0.625521,1.765,2.16095
1.07872,0.622332,1.756,2.15278
1.08442,0.622332,1.756,2.15564
1.09012,0.622332,1.756,2.15852
1.09582,0.622332,1.756,2.1614
1.09587,0.619142,1.747,2.1532
1.10154,0.619142,1.747,2.15609
1.10721,0.619142,1.747,2.159
1.11288,0.619142,1.747,2.16191
1.11855,0.619142,1.747,2.16483
1.12422,0.619142,1.747,2.16777
1.12407,0.615952,1.738,2.15953
1.12971,0.615952,1.738,2.16247
1.13536,0.615952,1.738,2.16543
1.14691,0.619142,1.747,2.17962
1.15258,0.619142,1.747,2.18261
1.15825,0.619142,1.747,2.18561
1.16392,0.619142,1.747,2.18862
1.16959,0.619142,1.747,2.19164
1.17526,0.619142,1.747,2.19467
1.18093,0.619142,1.747,2.19771
1.1866,0.619142,1.747,2.20076
-1.39718,0.720303,2.014,2.55483
-1.38235,0.716011,2.002,2.53606
-1.37586,0.716011,2.002,2.53252
-1.37757,0.720303,2.014,2.54415
-1.37103,0.720303,2.014,2.54062
-1.35636,0.716011,2.002,2.52198
-1.34986,0.716011,2.002,2.51849
-1.34337,0.716011,2.002,2.51502
-1.33687,0.716011,2.002,2.51155
-1.33037,0.716011,2.002,2.5081
-1.33181,0.720303,2.014,2.51967
-1.31737,0.716011,2.002,2.50123
-1.30302,0.711719,1.99,2.48284
-1.29656,0.711719,1.99,2.47946
-1.2901,0.711719,1.99,2.47609
-1.27655,0.707785,1.979,2.45906
-1.27012,0.707785,1.979,2.45573
-1.2637,0.707785,1.979,2.45241
-1.25728,0.707785,1.979,2.44911
-1.25085,0.707785,1.979,2.44582
-1.24443,0.707785,1.979,2.44254
-1.23801,0.707785,1.979,2.43928
-1.23158,0.707785,1.979,2.43602
-1.23197,0.711719,1.99,2.4463
-1.22551,0.711719,1.99,2.44306
-1.21905,0.711719,1.99,2.43982
-1.21991,0.716011,2.002,2.45129
-1.21341,0.716011,2.002,2.44807
-1.20691,0.716011,2.002,2.44485
-1.20041,0.716011,2.002,2.44165
-1.19391,0.716011,2.002,2.43846
-1.19453,0.720303,2.014,2.44989
-1.188,0.720303,2.014,2.44671
-1.18146,0.720303,2.014,2.44354
-1.17492,0.720303,2.014,2.44038
-1.16838,0.720303,2.014,2.43724
-1.16185,0.720303,2.014,2.43412
-1.15531,0.720303,2.014,2.431
-1.14193,0.716011,2.002,2.41344
-1.13543,0.716011,2.002,2.41037
-1.12893,0.716011,2.002,2.40732
-1.11571,0.711719,1.99,2.38986
-1.10925,0.711719,1.99,2.38685
-1.10279,0.711719,1.99,2.38386
-1.09027,0.707785,1.979,2.36772
-1.08385,0.707785,1.979,2.36477
-1.07742,0.707785,1.979,2.36183
-1.071,0.707785,1.979,2.35891
-1.06458,0.707785,1.979,2.356
-1.05815,0.707785,1.979,2.3531
-1.04535,0.703493,1.967,2.33597
-1.03897,0.703493,1.967,2.33312
-1.03258,0.703493,1.967,2.33028
-1.0262,0.703493,1.967,2.32746
-1.01981,0.703493,1.967,2.32465
-1.00776,0.699559,1.956,2.30888
-1.00141,0.699559,1.956,2.30611
-0.995066,0.699559,1.956,2.30336
-0.988717,0.699559,1.956,2.30063
-0.982368,0.699559,1.956,2.2979
-0.97602,0.699559,1.956,2.2952
-0.964218,0.695625,1.945,2.27961
-0.957905,0.695625,1.945,2.27695
-0.94621,0.691691,1.934,2.26144
-0.934587,0.687757,1.923,2.24597
-0.928345,0.687757,1.923,2.24338
-0.922104,0.687757,1.923,2.24081
-0.910623,0.683823,1.912,2.22544
-0.899687,0.680246,1.902,2.21128
-0.893514,0.680246,1.902,2.20878
-0.882208,0.676312,1.891,2.19353
-0.876071,0.676312,1.891,2.19107
-0.869933,0.676312,1.891,2.18862
-0.859227,0.672736,1.881,2.17463
-0.853122,0.672736,1.881,2.17222
-0.847017,0.672736,1.881,2.16983
-0.836441,0.669159,1.871,2.15593
-0.830368,0.669159,1.871,2.15358
-0.824295,0.669159,1.871,2.15125
-0.818223,0.669159,1.871,2.14893
-0.816491,0.672736,1.881,2.1581
-0.810385,0.672736,1.881,2.1558
-0.80428,0.672736,1.881,2.15351
-0.798175,0.672736,1.881,2.15124
-0.79628,0.676312,1.891,2.1604
-0.794739,0.680246,1.902,2.1707
-0.788566,0.680246,1.902,2.16845
-0.782392,0.680246,1.902,2.16621
-0.7803,0.683823,1.912,2.17537
-0.774094,0.683823,1.912,2.17315
-0.772306,0.687757,1.923,2.18344
-0.766064,0.687757,1.923,2.18124
-0.759823,0.687757,1.923,2.17905
-0.753581,0.687757,1.923,2.17688
-0.747339,0.687757,1.923,2.17473
-0.741098,0.687757,1.923,2.17259
-0.734856,0.687757,1.923,2.17047
-0.728615,0.687757,1.923,2.16837
-0.730637,0.695625,1.945,2.19106
-0.724324,0.695625,1.945,2.18896
-0.713951,0.691691,1.934,2.17452
-0.703648,0.687757,1.923,2.16011
-0.697407,0.687757,1.923,2.15808
-0.691165,0.687757,1.923,2.15607
-0.681006,0.683823,1.912,2.14176
-0.6748,0.683823,1.912,2.13979
-0.665097,0.680246,1.902,2.12666
-0.655113,0.676312,1.891,2.11245
-0.648975,0.676312,1.891,2.11056
-0.639438,0.672736,1.881,2.09753
-0.633333,0.672736,1.881,2.09567
-0.627228,0.672736,1.881,2.09384
-0.614518,0.665583,1.861,2.06977
-0.608478,0.665583,1.861,2.06799
-0.602437,0.665583,1.861,2.06622
-0.596397,0.665583,1.861,2.06446
-0.586867,0.661649,1.85,2.05053
-0.578037,0.65843,1.841,2.03886
-0.572061,0.65843,1.841,2.03717
-0.566086,0.65843,1.841,2.0355
-0.557068,0.654853,1.831,2.0228
-0.551125,0.654853,1.831,2.02117
-0.545182,0.654853,1.831,2.01956
-0.539239,0.654853,1.831,2.01796
-0.533296,0.654853,1.831,2.01638
-0.527353,0.654853,1.831,2.01482
-0.518563,0.651277,1.821,2.00228
-0.512652,0.651277,1.821,2.00075
-0.506742,0.651277,1.821,1.99925
-0.500831,0.651277,1.821,1.99776
-0.49492,0.651277,1.821,1.99628
-0.48901,0.651277,1.821,1.99483
-0.483099,0.651277,1.821,1.99339
-0.477189,0.651277,1.821,1.99196
-0.471278,0.651277,1.821,1.99055
-0.465368,0.651277,1.821,1.98916
-0.459457,0.651277,1.821,1.98779
-0.453547,0.651277,1.821,1.98643
-0.447636,0.651277,1.821,1.98509
-0.441726,0.651277,1.821,1.98377
-0.435815,0.651277,1.821,1.98246
-0.429905,0.651277,1.821,1.98117
-0.423994,0.651277,1.821,1.97989
-0.418084,0.651277,1.821,1.97864
-0.414437,0.654853,1.831,1.98825
-0.408494,0.654853,1.831,1.98702
-0.402551,0.654853,1.831,1.98581
-0.396608,0.654853,1.831,1.98461
-0.390665,0.654853,1.831,1.98343
-0.384722,0.654853,1.831,1.98227
-0.378779,0.654853,1.831,1.98113
-0.372836,0.654853,1.831,1.98
-0.366893,0.654853,1.831,1.97889
-0.362921,0.65843,1.841,1.9886
-0.356946,0.65843,1.841,1.98752
-0.35097,0.65843,1.841,1.98645
-0.344995,0.65843,1.841,1.9854
-0.33902,0.65843,1.841,1.98438
-0.333044,0.65843,1.841,1.98336
-0.327069,0.65843,1.841,1.98237
-0.321093,0.65843,1.841,1.98139
-0.315118,0.65843,1.841,1.98043
-0.309142,0.65843,1.841,1.97949
-0.30152,0.654853,1.831,1.96782
-0.295577,0.654853,1.831,1.96692
-0.288052,0.651277,1.821,1.95529
-0.280593,0.6477,1.811,1.9437
-0.274715,0.6477,1.811,1.94286
-0.2675,0.644481,1.802,1.93239
-0.2602,0.640905,1.792,1.92087
-0.254383,0.640905,1.792,1.92009
-0.248567,0.640905,1.792,1.91933
-0.241531,0.637686,1.783,1.90894
-0.235744,0.637686,1.783,1.90822
-0.228796,0.634467,1.774,1.89789
-0.221907,0.631248,1.765,1.88758
-0.216178,0.631248,1.765,1.88691
-0.210449,0.631248,1.765,1.88626
-0.20472,0.631248,1.765,1.88563
-0.197977,0.62803,1.756,1.87541
-0.192277,0.62803,1.756,1.87481
-0.186578,0.62803,1.756,1.87424
-0.179951,0.624811,1.747,1.86408
-0.174281,0.624811,1.747,1.86354
-0.168611,0.624811,1.747,1.86302
-0.16294,0.624811,1.747,1.86251
-0.15727,0.624811,1.747,1.86202
-0.1516,0.624811,1.747,1.86155
-0.145929,0.624811,1.747,1.8611
-0.140259,0.624811,1.747,1.86066
-0.134589,0.624811,1.747,1.86025
-0.128918,0.624811,1.747,1.85984
-0.123248,0.624811,1.747,1.85946
-0.117578,0.624811,1.747,1.85909
-0.111907,0.624811,1.747,1.85874
-0.106237,0.624811,1.747,1.85841
-0.100567,0.624811,1.747,1.85809
-0.0948964,0.624811,1.747,1.8578
-0.0892261,0.624811,1.747,1.85751
-0.0835558,0.624811,1.747,1.85725
-0.0778854,0.624811,1.747,1.857
-0.0718431,0.621592,1.738,1.84721
-0.0662019,0.621592,1.738,1.847
-0.0605608,0.621592,1.738,1.8468
-0.0549197,0.621592,1.738,1.84663
-0.0490234,0.618373,1.729,1.83691
-0.0434115,0.618373,1.729,1.83677
-0.0377996,0.618373,1.729,1.83664
-0.0320202,0.615154,1.72,1.82698
-0.0264375,0.615154,1.72,1.82689
-0.0208548,0.615154,1.72,1.82681
-0.015201,0.612293,1.712,1.81826
-0.00964432,0.612293,1.712,1.81822
-0.00408759,0.612293,1.712,1.8182
0.00146914,0.612293,1.712,1.8182
0.00702586,0.612293,1.712,1.81821
0.0126414,0.615154,1.72,1.82674
0.0182241,0.615154,1.72,1.82679
0.0238068,0.615154,1.72,1.82685
0.0293895,0.615154,1.72,1.82693
0.0349722,0.615154,1.72,1.82703
0.0407671,0.618373,1.729,1.83671
0.046379,0.618373,1.729,1.83684
0.0519909,0.618373,1.729,1.83699
0.0579026,0.621592,1.738,1.84672
0.0635437,0.621592,1.738,1.84691
0.0691848,0.621592,1.738,1.84711
0.074826,0.621592,1.738,1.84733
0.0808838,0.624811,1.747,1.85713
0.0865541,0.624811,1.747,1.85739
0.0922244,0.624811,1.747,1.85766
0.0978948,0.624811,1.747,1.85795
0.103565,0.624811,1.747,1.85826
0.109235,0.624811,1.747,1.85858
0.114314,0.621592,1.738,1.84935
0.119955,0.621592,1.738,1.84971
0.125596,0.621592,1.738,1.85008
0.131237,0.621592,1.738,1.85047
0.136878,0.621592,1.738,1.85088
0.142519,0.621592,1.738,1.85131
0.147393,0.618373,1.729,1.84216
0.153005,0.618373,1.729,1.84262
0.158617,0.618373,1.729,1.84309
0.163374,0.615154,1.72,1.83399
0.168957,0.615154,1.72,1.83449
0.174539,0.615154,1.72,1.83501
0.180122,0.615154,1.72,1.83555
0.185705,0.615154,1.72,1.83611
0.191288,0.615154,1.72,1.83668
0.19687,0.615154,1.72,1.83727
0.202453,0.615154,1.72,1.83788
0.207068,0.612293,1.712,1.82995
0.212625,0.612293,1.712,1.83059
0.218181,0.612293,1.712,1.83124
0.224784,0.615154,1.72,1.84047
0.230366,0.615154,1.72,1.84116
0.235949,0.615154,1.72,1.84187
0.241532,0.615154,1.72,1.84259
0.247114,0.615154,1.72,1.84333
0.252697,0.615154,1.72,1.84409
0.262334,0.624811,1.747,1.87382
0.268005,0.624811,1.747,1.87463
0.273675,0.624811,1.747,1.87545
0.279345,0.624811,1.747,1.87628
0.285016,0.624811,1.747,1.87713
0.290686,0.624811,1.747,1.878
0.296356,0.624811,1.747,1.87889
0.302027,0.624811,1.747,1.87979
0.307697,0.624811,1.747,1.88071
0.313367,0.624811,1.747,1.88165
0.320681,0.62803,1.756,1.8923
0.326381,0.62803,1.756,1.89327
0.33208,0.62803,1.756,1.89426
0.33778,0.62803,1.756,1.89527
0.343479,0.62803,1.756,1.8963
0.350968,0.631248,1.765,1.90706
0.356697,0.631248,1.765,1.90812
0.362426,0.631248,1.765,1.9092
0.368155,0.631248,1.765,1.9103
0.371977,0.62803,1.756,1.90166
0.377677,0.62803,1.756,1.90279
0.383376,0.62803,1.756,1.90393
0.389076,0.62803,1.756,1.90508
0.392752,0.624811,1.747,1.89648
0.398422,0.624811,1.747,1.89767
0.402011,0.621592,1.738,1.88908
0.407652,0.621592,1.738,1.89029
0.413293,0.621592,1.738,1.89152
0.418934,0.621592,1.738,1.89276
0.422377,0.618373,1.729,1.8842
0.427988,0.618373,1.729,1.88547
0.435857,0.621592,1.738,1.89657
0.439212,0.618373,1.729,1.88805
0.444824,0.618373,1.729,1.88936
0.450436,0.618373,1.729,1.89069
0.456048,0.618373,1.729,1.89204
0.46166,0.618373,1.729,1.8934
0.467272,0.618373,1.729,1.89477
0.472884,0.618373,1.729,1.89617
0.478496,0.618373,1.729,1.89757
0.484108,0.618373,1.729,1.899
0.489719,0.618373,1.729,1.90043
0.495331,0.618373,1.729,1.90189
0.500943,0.618373,1.729,1.90336
0.509192,0.621592,1.738,1.91476
0.514833,0.621592,1.738,1.91627
0.520474,0.621592,1.738,1.91779
0.526115,0.621592,1.738,1.91933
0.531756,0.621592,1.738,1.92088
0.54018,0.624811,1.747,1.93241
0.545851,0.624811,1.747,1.934
0.551521,0.624811,1.747,1.93561
0.557191,0.624811,1.747,1.93723
0.565761,0.62803,1.756,1.94886
0.57439,0.631248,1.765,1.96052
0.580119,0.631248,1.765,1.9622
0.585847,0.631248,1.765,1.9639
0.591576,0.631248,1.765,1.96562
0.597305,0.631248,1.765,1.96735
0.603034,0.631248,1.765,1.9691
0.608762,0.631248,1.765,1.97086
0.614491,0.631248,1.765,1.97264
0.62022,0.631248,1.765,1.97443
0.625949,0.631248,1.765,1.97624
0.631677,0.631248,1.765,1.97806
0.637406,0.631248,1.765,1.9799
0.643135,0.631248,1.765,1.98175
0.648864,0.631248,1.765,1.98361
0.654592,0.631248,1.765,1.9855
0.656954,0.62803,1.756,1.97726
0.662654,0.62803,1.756,1.97916
0.664928,0.624811,1.747,1.97092
0.670598,0.624811,1.747,1.97284
0.676268,0.624811,1.747,1.97478
0.678425,0.621592,1.738,1.96654
0.680524,0.618373,1.729,1.9583
0.686136,0.618373,1.729,1.96026
0.691748,0.618373,1.729,1.96223
0.69373,0.615154,1.72,1.95399
0.699313,0.615154,1.72,1.95598
0.701617,0.612293,1.712,1.94887
0.707173,0.612293,1.712,1.95088
0.708983,0.609074,1.703,1.94264
0.714511,0.609074,1.703,1.94466
0.720038,0.609074,1.703,1.9467
0.7294,0.612293,1.712,1.95905
0.734957,0.612293,1.712,1.96112
0.740514,0.612293,1.712,1.96321
0.746071,0.612293,1.712,1.96532
0.751627,0.612293,1.712,1.96743
0.757184,0.612293,1.712,1.96956
0.762741,0.612293,1.712,1.97171
0.768297,0.612293,1.712,1.97386
0.773854,0.612293,1.712,1.97603
0.783053,0.615154,1.72,1.98746
0.788636,0.615154,1.72,1.98966
0.794218,0.615154,1.72,1.99188
0.799801,0.615154,1.72,1.99412
0.809598,0.618373,1.729,2.00681
0.819453,0.621592,1.738,2.01954
0.825094,0.621592,1.738,2.02183
0.835037,0.624811,1.747,2.03462
0.840708,0.624811,1.747,2.03696
0.846378,0.624811,1.747,2.0393
0.856438,0.62803,1.756,2.05218
0.866556,0.631248,1.765,2.0651
0.872285,0.631248,1.765,2.06751
0.878014,0.631248,1.765,2.06993
0.888249,0.634467,1.774,2.08293
0.894007,0.634467,1.774,2.0854
0.899765,0.634467,1.774,2.08787
0.905523,0.634467,1.774,2.09036
0.911281,0.634467,1.774,2.09286
0.917039,0.634467,1.774,2.09537
0.922797,0.634467,1.774,2.0979
0.933265,0.637686,1.783,2.11109
0.934312,0.634467,1.774,2.10299
0.94007,0.634467,1.774,2.10555
0.945828,0.634467,1.774,2.10813
0.951586,0.634467,1.774,2.11072
0.957344,0.634467,1.774,2.11332
0.963102,0.634467,1.774,2.11594
0.96886,0.634467,1.774,2.11856
0.974618,0.634467,1.774,2.1212
0.975402,0.631248,1.765,2.11308
0.981131,0.631248,1.765,2.11573
0.98686,0.631248,1.765,2.11839
0.992589,0.631248,1.765,2.12107
0.998317,0.631248,1.765,2.12376
1.00405,0.631248,1.765,2.12645
1.00977,0.631248,1.765,2.12917
1.0155,0.631248,1.765,2.13189
1.01603,0.62803,1.756,2.12374
1.02172,0.62803,1.756,2.12647
1.02742,0.62803,1.756,2.12922
1.03312,0.62803,1.756,2.13197
1.0335,0.624811,1.747,2.1238
1.03917,0.624811,1.747,2.12656
1.04484,0.624811,1.747,2.12934
1.0451,0.621592,1.738,2.12114
1.05074,0.621592,1.738,2.12393
1.05638,0.621592,1.738,2.12673
1.05652,0.618373,1.729,2.11851
1.06213,0.618373,1.729,2.12131
1.06775,0.618373,1.729,2.12413
1.07336,0.618373,1.729,2.12695
1.07335,0.615154,1.72,2.1187
1.07894,0.615154,1.72,2.12154
1.08452,0.615154,1.72,2.12438
1.0901,0.615154,1.72,2.12724
1.09568,0.615154,1.72,2.1301
1.10127,0.615154,1.72,2.13298
1.10685,0.615154,1.72,2.13587
1.11243,0.615154,1.72,2.13877
1.11801,0.615154,1.72,2.14167
1.1236,0.615154,1.72,2.14459
1.13509,0.618373,1.729,2.15876
1.1407,0.618373,1.729,2.16172
1.14631,0.618373,1.729,2.16468
1.15192,0.618373,1.729,2.16766
1.15754,0.618373,1.729,2.17065
1.16315,0.618373,1.729,2.17365
1.16876,0.618373,1.729,2.17665
1.1866,0.624811,1.747,2.20237
-1.32642,0.690027,1.912,2.42719
-1.31331,0.686418,1.902,2.41113
-1.30713,0.686418,1.902,2.40777
-1.30096,0.686418,1.902,2.40443
-1.29479,0.686418,1.902,2.40109
-1.28861,0.686418,1.902,2.39777
-1.28918,0.690027,1.912,2.40705
-1.28298,0.690027,1.912,2.40373
-1.27677,0.690027,1.912,2.40042
-1.28518,0.697966,1.934,2.42471
-1.27891,0.697966,1.934,2.42139
-1.27263,0.697966,1.934,2.41808
-1.27355,0.701936,1.945,2.42851
-1.26724,0.701936,1.945,2.42521
-1.26093,0.701936,1.945,2.42192
-1.25462,0.701936,1.945,2.41864
-1.2483,0.701936,1.945,2.41537
-1.24199,0.701936,1.945,2.41211
-1.23568,0.701936,1.945,2.40887
-1.22936,0.701936,1.945,2.40563
-1.22305,0.701936,1.945,2.40241
-1.22362,0.705906,1.956,2.41277
-1.21042,0.701936,1.945,2.39601
-1.20411,0.701936,1.945,2.39283
-1.1978,0.701936,1.945,2.38966
-1.20496,0.709876,1.967,2.41349
-1.19858,0.709876,1.967,2.41031
-1.19219,0.709876,1.967,2.40714
-1.19304,0.714207,1.979,2.41865
-1.18662,0.714207,1.979,2.41549
-1.1802,0.714207,1.979,2.41234
-1.1803,0.718176,1.99,2.4226
-1.17384,0.718176,1.99,2.41946
-1.17442,0.722507,2.002,2.4309
-1.16792,0.722507,2.002,2.42777
-1.15446,0.718176,1.99,2.41012
-1.148,0.718176,1.99,2.40703
-1.14154,0.718176,1.99,2.40395
-1.12881,0.714207,1.979,2.38762
-1.12239,0.714207,1.979,2.38459
-1.11596,0.714207,1.979,2.38158
-1.10281,0.709876,1.967,2.36415
-1.09643,0.709876,1.967,2.36118
-1.09004,0.709876,1.967,2.35822
-1.0776,0.705906,1.956,2.34211
-1.07125,0.705906,1.956,2.33919
