0.798033,-0.179467,2.428,2.56208
0.805913,-0.179467,2.428,2.56454
0.813794,-0.179467,2.428,2.56703
0.821675,-0.179467,2.428,2.56954
0.823747,-0.17821,2.411,2.55406
0.831573,-0.17821,2.411,2.5566
0.839398,-0.17821,2.411,2.55915
0.84125,-0.176953,2.394,2.54367
0.84902,-0.176953,2.394,2.54625
0.856791,-0.176953,2.394,2.54885
0.858422,-0.175697,2.377,2.53335
0.866137,-0.175697,2.377,2.53598
0.86797,-0.174514,2.361,2.52154
0.875633,-0.174514,2.361,2.52418
0.883296,-0.174514,2.361,2.52685
0.884922,-0.173332,2.345,2.5124
0.892533,-0.173332,2.345,2.51509
0.894003,-0.172149,2.329,2.50062
0.901562,-0.172149,2.329,2.50334
0.909121,-0.172149,2.329,2.50607
0.910383,-0.170966,2.313,2.49159
0.917891,-0.170966,2.313,2.49434
0.925398,-0.170966,2.313,2.49711
0.932905,-0.170966,2.313,2.4999
0.940413,-0.170966,2.313,2.50271
0.94792,-0.170966,2.313,2.50554
nan,nan,nan,NaN
nan,nan,nan,NaN
nan,nan,nan,NaN
nan,nan,nan,NaN
nan,nan,nan,NaN
nan,nan,nan,NaN
nan,nan,nan,NaN
nan,nan,nan,NaN
nan,nan,nan,NaN
nan,nan,nan,NaN
nan,nan,nan,NaN
nan,nan,nan,NaN
nan,nan,nan,NaN
nan,nan,nan,NaN
nan,nan,nan,NaN
nan,nan,nan,NaN
nan,nan,nan,NaN
1.66977,-0.263582,3.566,3.94638
1.68134,-0.263582,3.566,3.9513
1.69292,-0.263582,3.566,3.95623
1.6868,-0.260847,3.529,3.9201
1.69826,-0.260847,3.529,3.92504
1.70971,-0.260847,3.529,3.93001
1.72117,-0.260847,3.529,3.93501
1.75079,-0.263582,3.566,3.98134
1.76236,-0.263582,3.566,3.98645
1.77394,-0.263582,3.566,3.99158
1.78551,-0.263582,3.566,3.99673
nan,nan,nan,NaN
nan,nan,nan,NaN
nan,nan,nan,NaN
nan,nan,nan,NaN
nan,nan,nan,NaN
nan,nan,nan,NaN
nan,nan,nan,NaN
nan,nan,nan,NaN
nan,nan,nan,NaN
2.12252,-0.294257,3.981,4.52106
2.11076,-0.290857,3.935,4.47483
2.12353,-0.290857,3.935,4.48087
2.13631,-0.290857,3.935,4.48694
2.14908,-0.290857,3.935,4.49303
2.16185,-0.290857,3.935,4.49916
2.14975,-0.287531,3.89,4.45379
2.16238,-0.287531,3.89,4.45989
2.17501,-0.287531,3.89,4.46603
2.16289,-0.284279,3.846,4.42161
2.15161,-0.281174,3.804,4.37937
2.14007,-0.27807,3.762,4.33703
2.15228,-0.27807,3.762,4.34307
2.1409,-0.275039,3.721,4.30174
2.12983,-0.272083,3.681,4.26145
2.14178,-0.272083,3.681,4.26744
2.13091,-0.2692,3.642,4.22817
2.12037,-0.266391,3.604,4.18996
2.13207,-0.266391,3.604,4.19589
2.09916,-0.260847,3.529,4.11441
2.08908,-0.258186,3.493,4.07823
2.10042,-0.258186,3.493,4.08405
2.06944,-0.253012,3.423,4.00793
2.03982,-0.24806,3.356,3.93512
2.05072,-0.24806,3.356,3.94077
2.02229,-0.243329,3.292,3.87119
1.97555,-0.236455,3.199,3.76727
1.98593,-0.236455,3.199,3.77272
1.94202,-0.230025,3.112,3.67545
1.91762,-0.225959,3.057,3.61574
1.92754,-0.225959,3.057,3.62101
1.90324,-0.221968,3.003,3.56225
1.89642,-0.220046,2.977,3.53658
1.90609,-0.220046,2.977,3.54177
1.86684,-0.214429,2.901,3.45643
1.86074,-0.212655,2.877,3.43288
1.85447,-0.210881,2.853,3.40928
1.86373,-0.210881,2.853,3.41432
1.85724,-0.209107,2.829,3.39062
1.83607,-0.205707,2.783,3.34044
1.84511,-0.205707,2.783,3.34542
1.82482,-0.202454,2.739,3.29744
1.81899,-0.200828,2.717,3.27584
1.8278,-0.200828,2.717,3.28075
1.80823,-0.197724,2.675,3.23488
1.78839,-0.194619,2.633,3.18887
-1.97922,-0.201623,2.853,3.47816
-1.96996,-0.201623,2.853,3.4729
-1.94421,-0.199927,2.829,3.43848
-1.90356,-0.196676,2.783,3.37747
-1.87955,-0.195121,2.761,3.34573
-1.87059,-0.195121,2.761,3.3407
-1.84679,-0.193567,2.739,3.30911
-1.82314,-0.192012,2.717,3.27762
-1.81432,-0.192012,2.717,3.27272
-1.8055,-0.192012,2.717,3.26784
-1.81123,-0.193567,2.739,3.2894
-1.80234,-0.193567,2.739,3.28451
-1.79345,-0.193567,2.739,3.27964
-1.81323,-0.196676,2.783,3.3274
-1.83402,-0.199927,2.829,3.3774
-1.8558,-0.203319,2.877,3.42964
-1.84646,-0.203319,2.877,3.4246
-1.86841,-0.206782,2.926,3.47782
-1.89132,-0.210386,2.977,3.53325
-1.88165,-0.210386,2.977,3.52809
-1.90532,-0.214132,3.03,3.58566
-1.92926,-0.217948,3.084,3.64426
-1.91925,-0.217948,3.084,3.63897
-1.90924,-0.217948,3.084,3.6337
-1.91648,-0.219927,3.112,3.66139
-1.92414,-0.221976,3.141,3.69019
-1.91395,-0.221976,3.141,3.68488
-1.90375,-0.221976,3.141,3.6796
-1.89356,-0.221976,3.141,3.67433
-1.88336,-0.221976,3.141,3.66909
-1.87317,-0.221976,3.141,3.66387
nan,nan,nan,NaN
nan,nan,nan,NaN
nan,nan,nan,NaN
nan,nan,nan,NaN
nan,nan,nan,NaN
nan,nan,nan,NaN
nan,nan,nan,NaN
nan,nan,nan,NaN
nan,nan,nan,NaN
nan,nan,nan,NaN
nan,nan,nan,NaN
nan,nan,nan,NaN
nan,nan,nan,NaN
nan,nan,nan,NaN
nan,nan,nan,NaN
nan,nan,nan,NaN
nan,nan,nan,NaN
nan,nan,nan,NaN
nan,nan,nan,NaN
nan,nan,nan,NaN
nan,nan,nan,NaN
nan,nan,nan,NaN
nan,nan,nan,NaN
nan,nan,nan,NaN
nan,nan,nan,NaN
nan,nan,nan,NaN
nan,nan,nan,NaN
nan,nan,nan,NaN
nan,nan,nan,NaN
nan,nan,nan,NaN
nan,nan,nan,NaN
nan,nan,nan,NaN
-1.17127,-0.169185,2.394,2.67053
-1.1635,-0.169185,2.394,2.66713
-1.14752,-0.167984,2.377,2.64483
-1.1398,-0.167984,2.377,2.6415
-1.13209,-0.167984,2.377,2.63818
-1.12437,-0.167984,2.377,2.63487
-1.11666,-0.167984,2.377,2.63159
-1.10894,-0.167984,2.377,2.62833
-1.09381,-0.166853,2.361,2.60741
-1.08615,-0.166853,2.361,2.60421
-1.07849,-0.166853,2.361,2.60102
-1.07082,-0.166853,2.361,2.59785
-1.06316,-0.166853,2.361,2.5947
-1.0555,-0.166853,2.361,2.59157
-1.04784,-0.166853,2.361,2.58846
-1.04017,-0.166853,2.361,2.58537
-1.03251,-0.166853,2.361,2.58229
-1.02485,-0.166853,2.361,2.57924
-1.01718,-0.166853,2.361,2.5762
-1.01636,-0.167984,2.377,2.59062
-1.00865,-0.167984,2.377,2.58761
-1.00093,-0.167984,2.377,2.58461
-0.993215,-0.167984,2.377,2.58163
-0.9855,-0.167984,2.377,2.57867
-0.977785,-0.167984,2.377,2.57573
-0.970069,-0.167984,2.377,2.57282
-0.962354,-0.167984,2.377,2.56992
-0.954639,-0.167984,2.377,2.56704
-0.946924,-0.167984,2.377,2.56418
-0.939209,-0.167984,2.377,2.56134
-0.931494,-0.167984,2.377,2.55852
-0.923778,-0.167984,2.377,2.55572
-0.916063,-0.167984,2.377,2.55294
-0.908348,-0.167984,2.377,2.55019
-0.900633,-0.167984,2.377,2.54745
-0.892918,-0.167984,2.377,2.54473
-0.885203,-0.167984,2.377,2.54203
-0.877488,-0.167984,2.377,2.53936
-0.869772,-0.167984,2.377,2.5367
-0.862057,-0.167984,2.377,2.53407
-0.854342,-0.167984,2.377,2.53145
-0.846627,-0.167984,2.377,2.52886
-0.838912,-0.167984,2.377,2.52629
-0.831197,-0.167984,2.377,2.52373
-0.823481,-0.167984,2.377,2.5212
-0.815766,-0.167984,2.377,2.51869
-0.808051,-0.167984,2.377,2.51621
-0.80606,-0.169185,2.394,2.53172
-0.79829,-0.169185,2.394,2.52925
-0.790519,-0.169185,2.394,2.52681
-0.782749,-0.169185,2.394,2.52439
-0.774979,-0.169185,2.394,2.52199
-0.767208,-0.169185,2.394,2.51962
-0.759438,-0.169185,2.394,2.51726
-0.751668,-0.169185,2.394,2.51493
-0.743897,-0.169185,2.394,2.51262
-0.741354,-0.170387,2.411,2.52815
-0.733529,-0.170387,2.411,2.52587
-0.725703,-0.170387,2.411,2.52361
-0.717878,-0.170387,2.411,2.52137
-0.710052,-0.170387,2.411,2.51915
-0.702227,-0.170387,2.411,2.51696
-0.694401,-0.170387,2.411,2.51479
-0.686576,-0.170387,2.411,2.51264
-0.67875,-0.170387,2.411,2.51051
-0.670925,-0.170387,2.411,2.5084
-0.667775,-0.171588,2.428,2.52399
-0.659894,-0.171588,2.428,2.52192
-0.652013,-0.171588,2.428,2.51987
-0.644133,-0.171588,2.428,2.51784
-0.636252,-0.171588,2.428,2.51584
-0.628371,-0.171588,2.428,2.51386
-0.620491,-0.171588,2.428,2.5119
-0.61261,-0.171588,2.428,2.50996
-0.604729,-0.171588,2.428,2.50805
-0.596848,-0.171588,2.428,2.50616
-0.588968,-0.171588,2.428,2.5043
-0.581087,-0.171588,2.428,2.50246
-0.573206,-0.171588,2.428,2.50064
-0.565326,-0.171588,2.428,2.49884
-0.557445,-0.171588,2.428,2.49707
-0.549564,-0.171588,2.428,2.49533
-0.541684,-0.171588,2.428,2.4936
-0.53754,-0.17279,2.445,2.50935
-0.529605,-0.17279,2.445,2.50766
-0.521669,-0.17279,2.445,2.506
-0.513733,-0.17279,2.445,2.50436
-0.505797,-0.17279,2.445,2.50274
-0.497861,-0.17279,2.445,2.50115
-0.489925,-0.17279,2.445,2.49958
-0.481989,-0.17279,2.445,2.49804
-0.474054,-0.17279,2.445,2.49652
-0.466118,-0.17279,2.445,2.49502
-0.461555,-0.174062,2.463,2.51191
-0.453561,-0.174062,2.463,2.51045
-0.445566,-0.174062,2.463,2.50902
-0.44077,-0.175334,2.481,2.52594
-0.432717,-0.175334,2.481,2.52455
-0.424665,-0.175334,2.481,2.52318
-0.416612,-0.175334,2.481,2.52184
-0.408559,-0.175334,2.481,2.52052
-0.400506,-0.175334,2.481,2.51923
-0.392454,-0.175334,2.481,2.51796
-0.384401,-0.175334,2.481,2.51672
-0.376348,-0.175334,2.481,2.5155
-0.368296,-0.175334,2.481,2.51431
-0.360243,-0.175334,2.481,2.51314
-0.35219,-0.175334,2.481,2.512
-0.344137,-0.175334,2.481,2.51088
-0.336085,-0.175334,2.481,2.50979
-0.328032,-0.175334,2.481,2.50873
-0.319979,-0.175334,2.481,2.50769
-0.309664,-0.174062,2.463,2.48849
-0.301669,-0.174062,2.463,2.4875
-0.293675,-0.174062,2.463,2.48655
-0.285681,-0.174062,2.463,2.48561
-0.277686,-0.174062,2.463,2.48471
-0.269692,-0.174062,2.463,2.48383
-0.261698,-0.174062,2.463,2.48297
-0.253704,-0.174062,2.463,2.48214
-0.245709,-0.174062,2.463,2.48134
-0.235978,-0.17279,2.445,2.46243
-0.228042,-0.17279,2.445,2.46168
-0.220106,-0.17279,2.445,2.46096
-0.21217,-0.17279,2.445,2.46026
-0.204234,-0.17279,2.445,2.45959
-0.196298,-0.17279,2.445,2.45895
-0.188363,-0.17279,2.445,2.45833
-0.180427,-0.17279,2.445,2.45773
-0.173761,-0.174062,2.463,2.47525
-0.165766,-0.174062,2.463,2.4747
-0.157772,-0.174062,2.463,2.47418
-0.150872,-0.175334,2.481,2.49176
-0.14282,-0.175334,2.481,2.49129
-0.134767,-0.175334,2.481,2.49084
-0.126714,-0.175334,2.481,2.49041
-0.118662,-0.175334,2.481,2.49002
-0.110609,-0.175334,2.481,2.48965
-0.102556,-0.175334,2.481,2.4893
-0.0945035,-0.175334,2.481,2.48898
-0.0864508,-0.175334,2.481,2.48869
-0.078398,-0.175334,2.481,2.48842
-0.0703453,-0.175334,2.481,2.48818
-0.0622926,-0.175334,2.481,2.48797
-0.0546334,-0.176606,2.499,2.50583
-0.0465223,-0.176606,2.499,2.50566
-0.0384112,-0.176606,2.499,2.50553
-0.0303,-0.176606,2.499,2.50542
-0.0221889,-0.176606,2.499,2.50533
-0.0140778,-0.176606,2.499,2.50527
-0.00596664,-0.176606,2.499,2.50524
0.00214449,-0.176606,2.499,2.50523
0.0102556,-0.176606,2.499,2.50525
0.0182345,-0.175334,2.481,2.48725
0.0262872,-0.175334,2.481,2.48733
0.0343399,-0.175334,2.481,2.48743
0.0423926,-0.175334,2.481,2.48755
0.0504453,-0.175334,2.481,2.4877
0.058498,-0.175334,2.481,2.48788
0.0665507,-0.175334,2.481,2.48808
0.0746034,-0.175334,2.481,2.48831
0.0826561,-0.175334,2.481,2.48856
0.0907089,-0.175334,2.481,2.48884
0.0987616,-0.175334,2.481,2.48915
0.106814,-0.175334,2.481,2.48948
0.114867,-0.175334,2.481,2.48984
0.12292,-0.175334,2.481,2.49022
0.130972,-0.175334,2.481,2.49063
0.138016,-0.174062,2.463,2.473
0.146011,-0.174062,2.463,2.47346
0.154005,-0.174062,2.463,2.47394
0.161999,-0.174062,2.463,2.47445
0.171236,-0.175334,2.481,2.49308
0.179289,-0.175334,2.481,2.49364
0.187341,-0.175334,2.481,2.49423
0.195394,-0.175334,2.481,2.49485
0.203447,-0.175334,2.481,2.49549
0.2115,-0.175334,2.481,2.49616
0.219552,-0.175334,2.481,2.49686
0.227605,-0.175334,2.481,2.49758
0.233948,-0.174062,2.463,2.4802
0.241942,-0.174062,2.463,2.48097
0.249936,-0.174062,2.463,2.48176
0.257931,-0.174062,2.463,2.48258
0.265925,-0.174062,2.463,2.48342
0.273919,-0.174062,2.463,2.48429
0.281914,-0.174062,2.463,2.48518
0.289908,-0.174062,2.463,2.4861
0.300079,-0.175334,2.481,2.50522
0.308132,-0.175334,2.481,2.5062
0.316185,-0.175334,2.481,2.50721
0.324237,-0.175334,2.481,2.50823
0.33229,-0.175334,2.481,2.50929
0.340343,-0.175334,2.481,2.51037
0.348396,-0.175334,2.481,2.51147
0.356448,-0.175334,2.481,2.5126
0.364501,-0.175334,2.481,2.51376
0.372554,-0.175334,2.481,2.51494
0.380606,-0.175334,2.481,2.51614
0.388659,-0.175334,2.481,2.51737
0.396712,-0.175334,2.481,2.51863
0.404765,-0.175334,2.481,2.51991
0.412817,-0.175334,2.481,2.52121
0.417816,-0.174062,2.463,2.50424
0.425811,-0.174062,2.463,2.50559
0.433805,-0.174062,2.463,2.50696
0.441799,-0.174062,2.463,2.50836
0.449794,-0.174062,2.463,2.50978
0.457788,-0.174062,2.463,2.51122
0.465782,-0.174062,2.463,2.51269
0.470314,-0.17279,2.445,2.49581
0.47825,-0.17279,2.445,2.49732
0.486186,-0.17279,2.445,2.49885
0.494122,-0.17279,2.445,2.50041
0.502058,-0.17279,2.445,2.50199
0.509993,-0.17279,2.445,2.50359
0.514328,-0.171588,2.428,2.4878
0.522209,-0.171588,2.428,2.48944
0.530089,-0.171588,2.428,2.49111
0.53797,-0.171588,2.428,2.4928
0.545851,-0.171588,2.428,2.49451
0.553732,-0.171588,2.428,2.49625
0.561612,-0.171588,2.428,2.49801
0.569493,-0.171588,2.428,2.49979
0.577374,-0.171588,2.428,2.5016
0.581156,-0.170387,2.411,2.4859
0.588982,-0.170387,2.411,2.48774
0.596808,-0.170387,2.411,2.4896
0.604633,-0.170387,2.411,2.49149
0.612459,-0.170387,2.411,2.4934
0.620284,-0.170387,2.411,2.49534
0.62811,-0.170387,2.411,2.49729
0.635935,-0.170387,2.411,2.49927
0.643761,-0.170387,2.411,2.50128
0.651586,-0.170387,2.411,2.5033
0.659412,-0.170387,2.411,2.50535
0.671942,-0.171588,2.428,2.5251
0.679823,-0.171588,2.428,2.52721
0.687703,-0.171588,2.428,2.52934
0.695584,-0.171588,2.428,2.53149
0.703465,-0.171588,2.428,2.53367
0.711345,-0.171588,2.428,2.53587
0.724262,-0.17279,2.445,2.55586
0.732198,-0.17279,2.445,2.55812
0.740133,-0.17279,2.445,2.56041
0.748069,-0.17279,2.445,2.56271
0.756005,-0.17279,2.445,2.56504
0.763941,-0.17279,2.445,2.56739
0.771877,-0.17279,2.445,2.56976
0.779813,-0.17279,2.445,2.57216
0.787749,-0.17279,2.445,2.57457
0.795684,-0.17279,2.445,2.57701
0.80362,-0.17279,2.445,2.57947
0.811556,-0.17279,2.445,2.58196
0.813794,-0.171588,2.428,2.56649
0.821675,-0.171588,2.428,2.569
0.829556,-0.171588,2.428,2.57153
0.837436,-0.171588,2.428,2.57409
0.839398,-0.170387,2.411,2.55862
0.847224,-0.170387,2.411,2.5612
0.855049,-0.170387,2.411,2.5638
0.856791,-0.169185,2.394,2.54832
0.858422,-0.167984,2.377,2.53283
0.866137,-0.167984,2.377,2.53546
0.873852,-0.167984,2.377,2.5381
0.875633,-0.166853,2.361,2.52367
0.883296,-0.166853,2.361,2.52634
0.884922,-0.165722,2.345,2.51189
0.886443,-0.164592,2.329,2.49742
0.887861,-0.163461,2.313,2.48294
0.895368,-0.163461,2.313,2.48563
0.902876,-0.163461,2.313,2.48835
0.910383,-0.163461,2.313,2.49108
0.917891,-0.163461,2.313,2.49383
0.925398,-0.163461,2.313,2.49661
nan,nan,nan,NaN
nan,nan,nan,NaN
0.941773,-0.162401,2.298,2.4888
0.942623,-0.16127,2.282,2.47428
0.950029,-0.16127,2.282,2.47711
0.957436,-0.16127,2.282,2.47996
nan,nan,nan,NaN
nan,nan,nan,NaN
nan,nan,nan,NaN
nan,nan,nan,NaN
nan,nan,nan,NaN
nan,nan,nan,NaN
nan,nan,nan,NaN
nan,nan,nan,NaN
nan,nan,nan,NaN
nan,nan,nan,NaN
nan,nan,nan,NaN
nan,nan,nan,NaN
nan,nan,nan,NaN
nan,nan,nan,NaN
1.66977,-0.252011,3.566,3.94563
1.68134,-0.252011,3.566,3.95054
1.69292,-0.252011,3.566,3.95548
1.6868,-0.249396,3.529,3.91936
1.69826,-0.249396,3.529,3.9243
1.70971,-0.249396,3.529,3.92927
1.72117,-0.249396,3.529,3.93427
1.75079,-0.252011,3.566,3.98059
1.76236,-0.252011,3.566,3.9857
1.77394,-0.252011,3.566,3.99083
1.78551,-0.252011,3.566,3.99599
nan,nan,nan,NaN
nan,nan,nan,NaN
nan,nan,nan,NaN
nan,nan,nan,NaN
nan,nan,nan,NaN
nan,nan,nan,NaN
nan,nan,nan,NaN
nan,nan,nan,NaN
nan,nan,nan,NaN
2.12252,-0.281339,3.981,4.52024
2.11076,-0.278089,3.935,4.47402
2.12353,-0.278089,3.935,4.48006
2.13631,-0.278089,3.935,4.48613
2.14908,-0.278089,3.935,4.49223
2.16185,-0.278089,3.935,4.49835
2.14975,-0.274908,3.89,4.45299
2.16238,-0.274908,3.89,4.4591
2.17501,-0.274908,3.89,4.46524
2.16289,-0.271799,3.846,4.42082
2.15161,-0.268831,3.804,4.3786
2.14007,-0.265863,3.762,4.33627
2.15228,-0.265863,3.762,4.34231
2.1409,-0.262965,3.721,4.30098
2.12983,-0.260138,3.681,4.26071
2.14178,-0.260138,3.681,4.26669
2.13091,-0.257382,3.642,4.22743
2.12037,-0.254697,3.604,4.18923
2.13207,-0.254697,3.604,4.19517
2.09916,-0.249396,3.529,4.1137
2.08908,-0.246852,3.493,4.07753
2.10042,-0.246852,3.493,4.08335
2.06944,-0.241905,3.423,4.00725
2.03982,-0.23717,3.356,3.93445
2.05072,-0.23717,3.356,3.9401
2.02229,-0.232647,3.292,3.87054
1.97555,-0.226075,3.199,3.76663
1.98593,-0.226075,3.199,3.77208
1.94202,-0.219927,3.112,3.67483
1.91762,-0.21604,3.057,3.61513
1.92754,-0.21604,3.057,3.62041
1.90324,-0.212224,3.003,3.56165
1.89642,-0.210386,2.977,3.53599
1.87343,-0.206782,2.926,3.48052
1.86684,-0.205015,2.901,3.45586
1.86074,-0.203319,2.877,3.43232
1.85447,-0.201623,2.853,3.40871
1.86373,-0.201623,2.853,3.41376
1.85724,-0.199927,2.829,3.39007
1.83607,-0.196676,2.783,3.3399
1.84511,-0.196676,2.783,3.34487
1.82482,-0.193567,2.739,3.2969
1.81899,-0.192012,2.717,3.27531
1.8278,-0.192012,2.717,3.28022
1.80823,-0.189044,2.675,3.23436
1.78839,-0.186076,2.633,3.18836
-1.97922,-0.192366,2.853,3.47763
-1.96996,-0.192366,2.853,3.47237
-1.94421,-0.190747,2.829,3.43796
-1.90356,-0.187646,2.783,3.37696
-1.87955,-0.186162,2.761,3.34522
-1.87059,-0.186162,2.761,3.34019
-1.84679,-0.184679,2.739,3.30861
-1.82314,-0.183196,2.717,3.27712
-1.81432,-0.183196,2.717,3.27222
-1.8055,-0.183196,2.717,3.26734
-1.81123,-0.184679,2.739,3.28889
-1.80234,-0.184679,2.739,3.284
-1.79345,-0.184679,2.739,3.27913
-1.78456,-0.184679,2.739,3.27428
-1.8042,-0.187646,2.783,3.32196
-1.82484,-0.190747,2.829,3.37189
-1.81565,-0.190747,2.829,3.36693
-1.83712,-0.193984,2.877,3.41903
-1.85891,-0.197288,2.926,3.47217
-1.84942,-0.197288,2.926,3.46709
-1.90532,-0.2043,3.03,3.58509
-1.89548,-0.2043,3.03,3.57987
-1.90245,-0.20612,3.057,3.60653
-1.89253,-0.20612,3.057,3.60131
-1.89923,-0.207941,3.084,3.62786
-1.88922,-0.207941,3.084,3.62263
-1.87921,-0.207941,3.084,3.61742
-1.8692,-0.207941,3.084,3.61223
-1.85919,-0.207941,3.084,3.60706
-1.84918,-0.207941,3.084,3.60191
-1.82307,-0.20612,3.057,3.5653
-1.81315,-0.20612,3.057,3.56023
nan,nan,nan,NaN
nan,nan,nan,NaN
nan,nan,nan,NaN
nan,nan,nan,NaN
nan,nan,nan,NaN
nan,nan,nan,NaN
nan,nan,nan,NaN
nan,nan,nan,NaN
nan,nan,nan,NaN
nan,nan,nan,NaN
nan,nan,nan,NaN
nan,nan,nan,NaN
nan,nan,nan,NaN
nan,nan,nan,NaN
nan,nan,nan,NaN
nan,nan,nan,NaN
nan,nan,nan,NaN
nan,nan,nan,NaN
nan,nan,nan,NaN
nan,nan,nan,NaN
nan,nan,nan,NaN
nan,nan,nan,NaN
nan,nan,nan,NaN
nan,nan,nan,NaN
nan,nan,nan,NaN
nan,nan,nan,NaN
nan,nan,nan,NaN
nan,nan,nan,NaN
nan,nan,nan,NaN
nan,nan,nan,NaN
nan,nan,nan,NaN
nan,nan,nan,NaN
nan,nan,nan,NaN
-1.15572,-0.161417,2.394,2.66327
-1.14795,-0.161417,2.394,2.6599
-1.14018,-0.161417,2.394,2.65656
-1.13241,-0.161417,2.394,2.65323
-1.11666,-0.160271,2.377,2.63111
-1.10894,-0.160271,2.377,2.62784
-1.10123,-0.160271,2.377,2.6246
-1.08615,-0.159192,2.361,2.60373
-1.07849,-0.159192,2.361,2.60054
-1.07082,-0.159192,2.361,2.59737
-1.06316,-0.159192,2.361,2.59422
-1.0555,-0.159192,2.361,2.59109
-1.04784,-0.159192,2.361,2.58798
-1.04017,-0.159192,2.361,2.58488
-1.03251,-0.159192,2.361,2.58181
-1.02485,-0.159192,2.361,2.57875
-1.01718,-0.159192,2.361,2.57572
-1.01636,-0.160271,2.377,2.59014
-1.00865,-0.160271,2.377,2.58712
-1.00093,-0.160271,2.377,2.58412
-0.993215,-0.160271,2.377,2.58114
-0.9855,-0.160271,2.377,2.57818
-0.977785,-0.160271,2.377,2.57524
-0.970069,-0.160271,2.377,2.57232
-0.962354,-0.160271,2.377,2.56942
-0.954639,-0.160271,2.377,2.56654
-0.946924,-0.160271,2.377,2.56369
-0.939209,-0.160271,2.377,2.56085
-0.931494,-0.160271,2.377,2.55803
-0.923778,-0.160271,2.377,2.55523
-0.916063,-0.160271,2.377,2.55245
-0.908348,-0.160271,2.377,2.54969
-0.900633,-0.160271,2.377,2.54695
-0.892918,-0.160271,2.377,2.54423
-0.885203,-0.160271,2.377,2.54153
-0.877488,-0.160271,2.377,2.53886
-0.869772,-0.160271,2.377,2.5362
-0.862057,-0.160271,2.377,2.53357
-0.854342,-0.160271,2.377,2.53095
-0.846627,-0.160271,2.377,2.52836
-0.838912,-0.160271,2.377,2.52578
-0.831197,-0.160271,2.377,2.52323
-0.823481,-0.160271,2.377,2.5207
-0.815766,-0.160271,2.377,2.51819
-0.808051,-0.160271,2.377,2.5157
-0.80606,-0.161417,2.394,2.53121
-0.79829,-0.161417,2.394,2.52875
-0.790519,-0.161417,2.394,2.5263
-0.782749,-0.161417,2.394,2.52388
-0.774979,-0.161417,2.394,2.52148
-0.767208,-0.161417,2.394,2.51911
-0.759438,-0.161417,2.394,2.51675
-0.751668,-0.161417,2.394,2.51442
-0.743897,-0.161417,2.394,2.51211
-0.741354,-0.162563,2.411,2.52764
-0.733529,-0.162563,2.411,2.52535
-0.725703,-0.162563,2.411,2.52309
-0.717878,-0.162563,2.411,2.52085
-0.710052,-0.162563,2.411,2.51864
-0.702227,-0.162563,2.411,2.51644
-0.694401,-0.162563,2.411,2.51427
-0.686576,-0.162563,2.411,2.51212
-0.67875,-0.162563,2.411,2.50999
-0.670925,-0.162563,2.411,2.50789
-0.667775,-0.16371,2.428,2.52347
-0.659894,-0.16371,2.428,2.5214
-0.652013,-0.16371,2.428,2.51935
-0.644133,-0.16371,2.428,2.51732
-0.636252,-0.16371,2.428,2.51531
-0.628371,-0.16371,2.428,2.51333
-0.620491,-0.16371,2.428,2.51137
-0.61261,-0.16371,2.428,2.50944
-0.604729,-0.16371,2.428,2.50753
-0.596848,-0.16371,2.428,2.50564
-0.588968,-0.16371,2.428,2.50377
-0.581087,-0.16371,2.428,2.50193
-0.573206,-0.16371,2.428,2.50011
-0.565326,-0.16371,2.428,2.49832
-0.557445,-0.16371,2.428,2.49654
-0.549564,-0.16371,2.428,2.4948
-0.541684,-0.16371,2.428,2.49307
-0.53754,-0.164856,2.445,2.50882
-0.529605,-0.164856,2.445,2.50713
-0.521669,-0.164856,2.445,2.50546
-0.513733,-0.164856,2.445,2.50382
-0.505797,-0.164856,2.445,2.50221
-0.497861,-0.164856,2.445,2.50061
-0.489925,-0.164856,2.445,2.49905
-0.481989,-0.164856,2.445,2.4975
-0.474054,-0.164856,2.445,2.49598
-0.466118,-0.164856,2.445,2.49449
-0.458182,-0.164856,2.445,2.49302
-0.450246,-0.164856,2.445,2.49157
-0.445566,-0.16607,2.463,2.50848
-0.44077,-0.167283,2.481,2.5254
-0.432717,-0.167283,2.481,2.524
-0.424665,-0.167283,2.481,2.52263
-0.416612,-0.167283,2.481,2.52129
-0.408559,-0.167283,2.481,2.51997
-0.400506,-0.167283,2.481,2.51868
-0.392454,-0.167283,2.481,2.51741
-0.384401,-0.167283,2.481,2.51617
-0.376348,-0.167283,2.481,2.51495
-0.368296,-0.167283,2.481,2.51376
-0.360243,-0.167283,2.481,2.51259
-0.35219,-0.167283,2.481,2.51145
-0.344137,-0.167283,2.481,2.51033
-0.336085,-0.167283,2.481,2.50924
-0.328032,-0.167283,2.481,2.50818
-0.317658,-0.16607,2.463,2.48895
-0.309664,-0.16607,2.463,2.48794
-0.301669,-0.16607,2.463,2.48696
-0.293675,-0.16607,2.463,2.486
-0.285681,-0.16607,2.463,2.48507
-0.277686,-0.16607,2.463,2.48416
-0.267721,-0.164856,2.445,2.46513
-0.259785,-0.164856,2.445,2.46428
-0.251849,-0.164856,2.445,2.46346
-0.243914,-0.164856,2.445,2.46266
-0.235978,-0.164856,2.445,2.46189
-0.228042,-0.164856,2.445,2.46114
-0.220106,-0.164856,2.445,2.46042
-0.21217,-0.164856,2.445,2.45972
-0.204234,-0.164856,2.445,2.45905
-0.196298,-0.164856,2.445,2.4584
-0.188363,-0.164856,2.445,2.45778
-0.180427,-0.164856,2.445,2.45718
-0.173761,-0.16607,2.463,2.4747
-0.165766,-0.16607,2.463,2.47415
-0.157772,-0.16607,2.463,2.47363
-0.149778,-0.16607,2.463,2.47313
-0.141784,-0.16607,2.463,2.47266
-0.133789,-0.16607,2.463,2.47222
-0.125795,-0.16607,2.463,2.4718
-0.117801,-0.16607,2.463,2.4714
-0.109806,-0.16607,2.463,2.47103
-0.101812,-0.16607,2.463,2.47069
-0.0938178,-0.16607,2.463,2.47037
-0.0858236,-0.16607,2.463,2.47008
-0.0778293,-0.16607,2.463,2.46982
-0.0703453,-0.167283,2.481,2.48763
-0.0622926,-0.167283,2.481,2.48741
-0.0542399,-0.167283,2.481,2.48722
-0.0461872,-0.167283,2.481,2.48706
-0.0381345,-0.167283,2.481,2.48693
-0.0300818,-0.167283,2.481,2.48682
-0.0221889,-0.168497,2.499,2.50477
-0.0140778,-0.168497,2.499,2.50471
-0.00596664,-0.168497,2.499,2.50468
0.00214449,-0.168497,2.499,2.50467
0.0102556,-0.168497,2.499,2.5047
0.0183668,-0.168497,2.499,2.50474
0.0262872,-0.167283,2.481,2.48677
0.0343399,-0.167283,2.481,2.48687
0.0423926,-0.167283,2.481,2.48699
0.0504453,-0.167283,2.481,2.48715
0.058498,-0.167283,2.481,2.48732
0.0665507,-0.167283,2.481,2.48752
0.0746034,-0.167283,2.481,2.48775
0.0826561,-0.167283,2.481,2.48801
0.0907089,-0.167283,2.481,2.48829
0.0987616,-0.167283,2.481,2.48859
0.106814,-0.167283,2.481,2.48893
0.114867,-0.167283,2.481,2.48928
0.12292,-0.167283,2.481,2.48967
0.130972,-0.167283,2.481,2.49008
0.138016,-0.16607,2.463,2.47245
0.146011,-0.16607,2.463,2.47291
0.154005,-0.16607,2.463,2.47339
0.161999,-0.16607,2.463,2.4739
0.169994,-0.16607,2.463,2.47444
0.177988,-0.16607,2.463,2.475
0.185982,-0.16607,2.463,2.47559
0.195394,-0.167283,2.481,2.4943
0.203447,-0.167283,2.481,2.49494
0.209965,-0.16607,2.463,2.47751
0.217959,-0.16607,2.463,2.4782
0.225954,-0.16607,2.463,2.47891
0.233948,-0.16607,2.463,2.47965
0.241942,-0.16607,2.463,2.48042
0.249936,-0.16607,2.463,2.48121
0.257931,-0.16607,2.463,2.48203
0.265925,-0.16607,2.463,2.48287
0.273919,-0.16607,2.463,2.48374
0.281914,-0.16607,2.463,2.48464
0.289908,-0.16607,2.463,2.48556
0.297902,-0.16607,2.463,2.4865
0.305896,-0.16607,2.463,2.48747
0.313891,-0.16607,2.463,2.48847
0.321885,-0.16607,2.463,2.48949
0.329879,-0.16607,2.463,2.49054
0.337874,-0.16607,2.463,2.49161
0.345868,-0.16607,2.463,2.4927
0.356448,-0.167283,2.481,2.51205
0.364501,-0.167283,2.481,2.51321
0.369851,-0.16607,2.463,2.49614
0.377845,-0.16607,2.463,2.49734
0.385839,-0.16607,2.463,2.49856
0.393834,-0.16607,2.463,2.49981
0.401828,-0.16607,2.463,2.50108
0.409822,-0.16607,2.463,2.50238
0.417816,-0.16607,2.463,2.5037
0.425811,-0.16607,2.463,2.50505
0.433805,-0.16607,2.463,2.50642
0.441799,-0.16607,2.463,2.50781
0.449794,-0.16607,2.463,2.50924
0.457788,-0.16607,2.463,2.51068
0.462378,-0.164856,2.445,2.49379
0.470314,-0.164856,2.445,2.49528
0.47825,-0.164856,2.445,2.49678
0.486186,-0.164856,2.445,2.49832
0.494122,-0.164856,2.445,2.49987
0.502058,-0.164856,2.445,2.50145
0.506447,-0.16371,2.428,2.48565
0.514328,-0.16371,2.428,2.48727
0.522209,-0.16371,2.428,2.48891
0.530089,-0.16371,2.428,2.49058
0.53797,-0.16371,2.428,2.49227
0.545851,-0.16371,2.428,2.49398
0.553732,-0.16371,2.428,2.49572
0.561612,-0.16371,2.428,2.49748
0.569493,-0.16371,2.428,2.49926
0.577374,-0.16371,2.428,2.50107
0.581156,-0.162563,2.411,2.48538
0.588982,-0.162563,2.411,2.48722
0.601016,-0.16371,2.428,2.50663
0.608896,-0.16371,2.428,2.50853
0.612459,-0.162563,2.411,2.49288
0.620284,-0.162563,2.411,2.49481
0.62811,-0.162563,2.411,2.49677
0.635935,-0.162563,2.411,2.49875
0.6483,-0.16371,2.428,2.51839
0.65618,-0.16371,2.428,2.52043
0.664061,-0.16371,2.428,2.52249
0.671942,-0.16371,2.428,2.52458
0.679823,-0.16371,2.428,2.52669
0.687703,-0.16371,2.428,2.52882
0.695584,-0.16371,2.428,2.53097
0.70839,-0.164856,2.445,2.55089
0.716326,-0.164856,2.445,2.5531
0.724262,-0.164856,2.445,2.55534
0.732198,-0.164856,2.445,2.5576
0.745582,-0.16607,2.463,2.57873
0.753577,-0.16607,2.463,2.58105
0.761571,-0.16607,2.463,2.5834
0.769565,-0.16607,2.463,2.58576
0.777559,-0.16607,2.463,2.58816
0.779813,-0.164856,2.445,2.57164
0.787749,-0.164856,2.445,2.57405
0.795684,-0.164856,2.445,2.57649
0.80362,-0.164856,2.445,2.57895
0.811556,-0.164856,2.445,2.58144
0.819492,-0.164856,2.445,2.58394
0.827428,-0.164856,2.445,2.58647
0.829556,-0.16371,2.428,2.57102
0.837436,-0.16371,2.428,2.57357
0.845317,-0.16371,2.428,2.57615
0.847224,-0.162563,2.411,2.56069
0.855049,-0.162563,2.411,2.56329
0.856791,-0.161417,2.394,2.54782
0.864561,-0.161417,2.394,2.55044
0.872331,-0.161417,2.394,2.55309
0.873852,-0.160271,2.377,2.5376
0.875633,-0.159192,2.361,2.52317
0.883296,-0.159192,2.361,2.52584
0.884922,-0.158113,2.345,2.5114
0.886443,-0.157035,2.329,2.49693
0.887861,-0.155956,2.313,2.48246
0.895368,-0.155956,2.313,2.48515
0.902876,-0.155956,2.313,2.48787
0.910383,-0.155956,2.313,2.4906
0.917891,-0.155956,2.313,2.49335
0.925398,-0.155956,2.313,2.49613
nan,nan,nan,NaN
nan,nan,nan,NaN
0.941773,-0.154944,2.298,2.48832
0.942623,-0.153865,2.282,2.47381
0.950029,-0.153865,2.282,2.47664
0.957436,-0.153865,2.282,2.47949
nan,nan,nan,NaN
nan,nan,nan,NaN
nan,nan,nan,NaN
nan,nan,nan,NaN
nan,nan,nan,NaN
nan,nan,nan,NaN
nan,nan,nan,NaN
nan,nan,nan,NaN
nan,nan,nan,NaN
nan,nan,nan,NaN
nan,nan,nan,NaN
nan,nan,nan,NaN
1.59675,-0.233158,3.458,3.81598
1.60797,-0.233158,3.458,3.82069
1.6192,-0.233158,3.458,3.82543
1.64692,-0.235518,3.493,3.86896
1.65826,-0.235518,3.493,3.8738
1.6696,-0.235518,3.493,3.87867
1.66409,-0.233158,3.458,3.84465
1.67532,-0.233158,3.458,3.84952
1.68654,-0.233158,3.458,3.85442
1.69776,-0.233158,3.458,3.85934
1.70899,-0.233158,3.458,3.86429
1.72021,-0.233158,3.458,3.86927
1.71391,-0.230798,3.423,3.83506
1.70789,-0.228506,3.389,3.8019
1.71889,-0.228506,3.389,3.80685
1.72989,-0.228506,3.389,3.81183
nan,nan,nan,NaN
nan,nan,nan,NaN
nan,nan,nan,NaN
nan,nan,nan,NaN
nan,nan,nan,NaN
nan,nan,nan,NaN
2.05054,-0.259319,3.846,4.3662
2.06302,-0.259319,3.846,4.37207
2.07551,-0.259319,3.846,4.37798
2.08799,-0.259319,3.846,4.38391
2.1245,-0.262286,3.89,4.44009
2.13713,-0.262286,3.89,4.44615
2.14975,-0.262286,3.89,4.45223
2.13792,-0.259319,3.846,4.40791
2.1504,-0.259319,3.846,4.41398
2.13927,-0.256487,3.804,4.3718
2.12786,-0.253656,3.762,4.32952
2.11675,-0.250891,3.721,4.28829
2.12882,-0.250891,3.721,4.29426
2.11789,-0.248194,3.681,4.25403
2.10727,-0.245564,3.642,4.21486
2.11909,-0.245564,3.642,4.22078
2.10868,-0.243002,3.604,4.18263
2.09802,-0.24044,3.566,4.14438
2.10959,-0.24044,3.566,4.15025
2.09916,-0.237945,3.529,4.11302
2.06815,-0.233158,3.458,4.03601
2.07937,-0.233158,3.458,4.04177
2.04888,-0.228506,3.389,3.96679
2.02037,-0.224123,3.324,3.89629
2.03116,-0.224123,3.324,3.9019
2.00264,-0.219808,3.26,3.83229
1.97555,-0.215695,3.199,3.76602
1.98593,-0.215695,3.199,3.77148
1.94202,-0.209829,3.112,3.67424
1.91762,-0.20612,3.057,3.61455
1.92754,-0.20612,3.057,3.61983
1.90324,-0.202479,3.003,3.56109
1.87986,-0.198973,2.951,3.50455
1.87343,-0.197288,2.926,3.47996
1.88293,-0.197288,2.926,3.48509
1.86074,-0.193984,2.877,3.43178
1.83887,-0.190747,2.829,3.37951
1.84806,-0.190747,2.829,3.38451
1.84214,-0.189197,2.806,3.36198
1.82156,-0.186162,2.761,3.31298
1.83052,-0.186162,2.761,3.31792
1.82482,-0.184679,2.739,3.29639
1.81899,-0.183196,2.717,3.27481
1.8278,-0.183196,2.717,3.27971
1.80823,-0.180364,2.675,3.23386
1.80265,-0.178948,2.654,3.2133
-1.99587,-0.184648,2.877,3.50638
-1.98653,-0.184648,2.877,3.50108
-1.94421,-0.181568,2.829,3.43746
-1.90356,-0.178615,2.783,3.37647
-1.87955,-0.177203,2.761,3.34473
-1.87059,-0.177203,2.761,3.3397
-1.84679,-0.175791,2.739,3.30812
-1.82314,-0.174379,2.717,3.27664
-1.81432,-0.174379,2.717,3.27174
-1.8055,-0.174379,2.717,3.26686
-1.79668,-0.174379,2.717,3.26199
-1.78787,-0.174379,2.717,3.25714
-1.77905,-0.174379,2.717,3.25231
-1.78456,-0.175791,2.739,3.27379
-1.78993,-0.177203,2.761,3.29521
-1.79516,-0.178615,2.783,3.31657
-1.78613,-0.178615,2.783,3.31169
-1.8218,-0.183108,2.853,3.39
-1.82778,-0.184648,2.877,3.41351
-1.81845,-0.184648,2.877,3.40851
-1.87199,-0.191066,2.977,3.52184
-1.86233,-0.191066,2.977,3.51672
-1.86885,-0.192735,3.003,3.54228
-1.8591,-0.192735,3.003,3.53715
-1.86598,-0.194468,3.03,3.56379
-1.85614,-0.194468,3.03,3.55865
-1.82986,-0.192735,3.003,3.52187
-1.82011,-0.192735,3.003,3.51681
-1.81036,-0.192735,3.003,3.51178
-1.78503,-0.191066,2.977,3.4764
-1.75986,-0.189398,2.951,3.44113
-1.75028,-0.189398,2.951,3.43624
-1.7407,-0.189398,2.951,3.43137
-1.73112,-0.189398,2.951,3.42652
nan,nan,nan,NaN
nan,nan,nan,NaN
nan,nan,nan,NaN
nan,nan,nan,NaN
nan,nan,nan,NaN
nan,nan,nan,NaN
nan,nan,nan,NaN
nan,nan,nan,NaN
nan,nan,nan,NaN
nan,nan,nan,NaN
nan,nan,nan,NaN
nan,nan,nan,NaN
nan,nan,nan,NaN
nan,nan,nan,NaN
nan,nan,nan,NaN
nan,nan,nan,NaN
nan,nan,nan,NaN
nan,nan,nan,NaN
nan,nan,nan,NaN
nan,nan,nan,NaN
nan,nan,nan,NaN
nan,nan,nan,NaN
nan,nan,nan,NaN
nan,nan,nan,NaN
nan,nan,nan,NaN
nan,nan,nan,NaN
nan,nan,nan,NaN
nan,nan,nan,NaN
nan,nan,nan,NaN
nan,nan,nan,NaN
nan,nan,nan,NaN
-1.16393,-0.15474,2.411,2.68172
-1.15611,-0.15474,2.411,2.67833
-1.14828,-0.15474,2.411,2.67496
-1.13241,-0.153649,2.394,2.65277
-1.12464,-0.153649,2.394,2.64947
-1.11687,-0.153649,2.394,2.64618
-1.10123,-0.152558,2.377,2.62414
-1.08615,-0.151531,2.361,2.60327
-1.07849,-0.151531,2.361,2.60008
-1.07082,-0.151531,2.361,2.59691
-1.06316,-0.151531,2.361,2.59376
-1.0555,-0.151531,2.361,2.59063
-1.04784,-0.151531,2.361,2.58752
-1.04017,-0.151531,2.361,2.58442
-1.03251,-0.151531,2.361,2.58135
-1.02485,-0.151531,2.361,2.57829
-1.01718,-0.151531,2.361,2.57526
-1.01636,-0.152558,2.377,2.58967
-1.00865,-0.152558,2.377,2.58665
-1.00093,-0.152558,2.377,2.58365
-0.993215,-0.152558,2.377,2.58067
-0.9855,-0.152558,2.377,2.57771
-0.977785,-0.152558,2.377,2.57477
-0.970069,-0.152558,2.377,2.57186
-0.962354,-0.152558,2.377,2.56895
-0.961466,-0.153649,2.394,2.58443
-0.946924,-0.152558,2.377,2.56321
-0.939209,-0.152558,2.377,2.56037
-0.931494,-0.152558,2.377,2.55755
-0.923778,-0.152558,2.377,2.55475
-0.916063,-0.152558,2.377,2.55197
-0.908348,-0.152558,2.377,2.54922
-0.900633,-0.152558,2.377,2.54648
-0.892918,-0.152558,2.377,2.54376
-0.885203,-0.152558,2.377,2.54106
-0.877488,-0.152558,2.377,2.53838
-0.869772,-0.152558,2.377,2.53573
-0.862057,-0.152558,2.377,2.53309
-0.854342,-0.152558,2.377,2.53047
-0.846627,-0.152558,2.377,2.52788
-0.838912,-0.152558,2.377,2.52531
-0.831197,-0.152558,2.377,2.52275
-0.823481,-0.152558,2.377,2.52022
-0.815766,-0.152558,2.377,2.51771
-0.808051,-0.152558,2.377,2.51522
-0.800336,-0.152558,2.377,2.51276
-0.792621,-0.152558,2.377,2.51031
-0.790519,-0.153649,2.394,2.52582
-0.782749,-0.153649,2.394,2.5234
-0.774979,-0.153649,2.394,2.521
-0.767208,-0.153649,2.394,2.51862
-0.759438,-0.153649,2.394,2.51627
-0.751668,-0.153649,2.394,2.51393
-0.743897,-0.153649,2.394,2.51162
-0.741354,-0.15474,2.411,2.52715
-0.733529,-0.15474,2.411,2.52486
-0.725703,-0.15474,2.411,2.5226
-0.717878,-0.15474,2.411,2.52036
-0.710052,-0.15474,2.411,2.51814
-0.702227,-0.15474,2.411,2.51595
-0.694401,-0.15474,2.411,2.51377
-0.686576,-0.15474,2.411,2.51162
-0.67875,-0.15474,2.411,2.5095
-0.670925,-0.15474,2.411,2.50739
-0.667775,-0.155831,2.428,2.52297
-0.659894,-0.155831,2.428,2.5209
-0.652013,-0.155831,2.428,2.51885
-0.644133,-0.155831,2.428,2.51682
-0.636252,-0.155831,2.428,2.51481
-0.628371,-0.155831,2.428,2.51283
-0.620491,-0.155831,2.428,2.51087
-0.61261,-0.155831,2.428,2.50894
-0.604729,-0.155831,2.428,2.50702
-0.596848,-0.155831,2.428,2.50513
-0.588968,-0.155831,2.428,2.50327
-0.581087,-0.155831,2.428,2.50143
-0.573206,-0.155831,2.428,2.49961
-0.565326,-0.155831,2.428,2.49781
-0.557445,-0.155831,2.428,2.49604
-0.549564,-0.155831,2.428,2.49429
-0.541684,-0.155831,2.428,2.49257
-0.53754,-0.156922,2.445,2.50831
-0.529605,-0.156922,2.445,2.50662
-0.521669,-0.156922,2.445,2.50495
-0.513733,-0.156922,2.445,2.50331
-0.505797,-0.156922,2.445,2.5017
-0.497861,-0.156922,2.445,2.5001
-0.489925,-0.156922,2.445,2.49853
-0.481989,-0.156922,2.445,2.49699
-0.474054,-0.156922,2.445,2.49547
-0.466118,-0.156922,2.445,2.49398
-0.458182,-0.156922,2.445,2.49251
-0.450246,-0.156922,2.445,2.49106
-0.445566,-0.158078,2.463,2.50796
-0.437572,-0.158078,2.463,2.50656
-0.429578,-0.158078,2.463,2.50517
-0.424665,-0.159233,2.481,2.52211
-0.416612,-0.159233,2.481,2.52077
-0.408559,-0.159233,2.481,2.51945
-0.400506,-0.159233,2.481,2.51816
-0.392454,-0.159233,2.481,2.51689
-0.384401,-0.159233,2.481,2.51565
-0.376348,-0.159233,2.481,2.51443
-0.368296,-0.159233,2.481,2.51324
-0.360243,-0.159233,2.481,2.51207
-0.35219,-0.159233,2.481,2.51093
-0.344137,-0.159233,2.481,2.50981
-0.336085,-0.159233,2.481,2.50872
-0.328032,-0.159233,2.481,2.50765
-0.317658,-0.158078,2.463,2.48843
-0.309664,-0.158078,2.463,2.48742
-0.301669,-0.158078,2.463,2.48644
-0.293675,-0.158078,2.463,2.48548
-0.283593,-0.156922,2.445,2.46639
-0.275657,-0.156922,2.445,2.46549
-0.267721,-0.156922,2.445,2.46461
-0.259785,-0.156922,2.445,2.46377
-0.251849,-0.156922,2.445,2.46294
-0.243914,-0.156922,2.445,2.46214
-0.235978,-0.156922,2.445,2.46137
-0.228042,-0.156922,2.445,2.46062
-0.220106,-0.156922,2.445,2.4599
-0.21217,-0.156922,2.445,2.4592
-0.204234,-0.156922,2.445,2.45853
-0.196298,-0.156922,2.445,2.45788
-0.188363,-0.156922,2.445,2.45726
-0.180427,-0.156922,2.445,2.45667
-0.172491,-0.156922,2.445,2.4561
-0.164555,-0.156922,2.445,2.45555
-0.157772,-0.158078,2.463,2.47311
-0.149778,-0.158078,2.463,2.47261
-0.141784,-0.158078,2.463,2.47214
-0.133789,-0.158078,2.463,2.47169
-0.125795,-0.158078,2.463,2.47127
-0.117801,-0.158078,2.463,2.47088
-0.109806,-0.158078,2.463,2.47051
-0.101812,-0.158078,2.463,2.47017
-0.0938178,-0.158078,2.463,2.46985
-0.0858236,-0.158078,2.463,2.46956
-0.0778293,-0.158078,2.463,2.46929
-0.069835,-0.158078,2.463,2.46906
-0.0618407,-0.158078,2.463,2.46884
-0.0542399,-0.159233,2.481,2.4867
-0.0461872,-0.159233,2.481,2.48653
-0.0381345,-0.159233,2.481,2.4864
-0.0300818,-0.159233,2.481,2.48629
-0.0220291,-0.159233,2.481,2.4862
-0.0139764,-0.159233,2.481,2.48614
-0.00592366,-0.159233,2.481,2.48611
0.00212905,-0.159233,2.481,2.48611
0.0101818,-0.159233,2.481,2.48613
0.0182345,-0.159233,2.481,2.48617
0.0262872,-0.159233,2.481,2.48624
0.0343399,-0.159233,2.481,2.48634
0.0423926,-0.159233,2.481,2.48647
0.0504453,-0.159233,2.481,2.48662
0.058498,-0.159233,2.481,2.48679
0.0665507,-0.159233,2.481,2.487
0.0746034,-0.159233,2.481,2.48722
0.0826561,-0.159233,2.481,2.48748
0.0907089,-0.159233,2.481,2.48776
0.098045,-0.158078,2.463,2.47001
0.106039,-0.158078,2.463,2.47034
0.114867,-0.159233,2.481,2.48876
0.12292,-0.159233,2.481,2.48914
0.130972,-0.159233,2.481,2.48955
0.138016,-0.158078,2.463,2.47192
0.146011,-0.158078,2.463,2.47238
0.154005,-0.158078,2.463,2.47287
0.161999,-0.158078,2.463,2.47338
0.169994,-0.158078,2.463,2.47392
0.177988,-0.158078,2.463,2.47448
0.185982,-0.158078,2.463,2.47506
0.195394,-0.159233,2.481,2.49377
0.203447,-0.159233,2.481,2.49442
0.209965,-0.158078,2.463,2.47698
0.217959,-0.158078,2.463,2.47767
0.225954,-0.158078,2.463,2.47839
0.233948,-0.158078,2.463,2.47913
0.241942,-0.158078,2.463,2.4799
0.249936,-0.158078,2.463,2.48069
0.257931,-0.158078,2.463,2.48151
0.265925,-0.158078,2.463,2.48235
0.273919,-0.158078,2.463,2.48322
0.281914,-0.158078,2.463,2.48412
0.289908,-0.158078,2.463,2.48504
0.297902,-0.158078,2.463,2.48598
0.305896,-0.158078,2.463,2.48695
0.313891,-0.158078,2.463,2.48795
0.321885,-0.158078,2.463,2.48897
0.329879,-0.158078,2.463,2.49002
0.337874,-0.158078,2.463,2.49109
0.345868,-0.158078,2.463,2.49218
0.356448,-0.159233,2.481,2.51153
0.364501,-0.159233,2.481,2.51268
0.369851,-0.158078,2.463,2.49563
0.377845,-0.158078,2.463,2.49682
0.385839,-0.158078,2.463,2.49805
0.393834,-0.158078,2.463,2.49929
0.401828,-0.158078,2.463,2.50056
0.409822,-0.158078,2.463,2.50186
0.417816,-0.158078,2.463,2.50318
0.425811,-0.158078,2.463,2.50453
0.433805,-0.158078,2.463,2.5059
0.441799,-0.158078,2.463,2.5073
0.449794,-0.158078,2.463,2.50872
0.457788,-0.158078,2.463,2.51016
0.462378,-0.156922,2.445,2.49328
0.470314,-0.156922,2.445,2.49476
0.47825,-0.156922,2.445,2.49627
0.486186,-0.156922,2.445,2.4978
0.494122,-0.156922,2.445,2.49936
0.502058,-0.156922,2.445,2.50094
0.506447,-0.155831,2.428,2.48515
0.514328,-0.155831,2.428,2.48677
0.522209,-0.155831,2.428,2.48841
0.530089,-0.155831,2.428,2.49007
0.53797,-0.155831,2.428,2.49176
0.545851,-0.155831,2.428,2.49348
0.553732,-0.155831,2.428,2.49521
0.561612,-0.155831,2.428,2.49697
0.569493,-0.155831,2.428,2.49876
0.577374,-0.155831,2.428,2.50057
0.581156,-0.15474,2.411,2.48488
0.588982,-0.15474,2.411,2.48672
0.601016,-0.155831,2.428,2.50613
0.608896,-0.155831,2.428,2.50803
0.612459,-0.15474,2.411,2.49238
0.620284,-0.15474,2.411,2.49432
0.62811,-0.15474,2.411,2.49627
0.635935,-0.15474,2.411,2.49826
0.6483,-0.155831,2.428,2.51789
0.65618,-0.155831,2.428,2.51993
0.664061,-0.155831,2.428,2.52199
0.671942,-0.155831,2.428,2.52408
0.679823,-0.155831,2.428,2.52619
0.687703,-0.155831,2.428,2.52832
0.695584,-0.155831,2.428,2.53048
0.70839,-0.156922,2.445,2.55039
0.716326,-0.156922,2.445,2.5526
0.724262,-0.156922,2.445,2.55484
0.732198,-0.156922,2.445,2.5571
0.745582,-0.158078,2.463,2.57823
0.753577,-0.158078,2.463,2.58055
0.761571,-0.158078,2.463,2.5829
0.769565,-0.158078,2.463,2.58526
0.777559,-0.158078,2.463,2.58765
0.779813,-0.156922,2.445,2.57114
0.787749,-0.156922,2.445,2.57356
0.795684,-0.156922,2.445,2.576
0.80362,-0.156922,2.445,2.57846
0.811556,-0.156922,2.445,2.58094
0.819492,-0.156922,2.445,2.58345
0.827428,-0.156922,2.445,2.58598
0.829556,-0.155831,2.428,2.57053
0.837436,-0.155831,2.428,2.57309
0.845317,-0.155831,2.428,2.57566
0.847224,-0.15474,2.411,2.56021
0.855049,-0.15474,2.411,2.56281
0.856791,-0.153649,2.394,2.54734
0.864561,-0.153649,2.394,2.54996
0.872331,-0.153649,2.394,2.55261
0.873852,-0.152558,2.377,2.53713
0.875633,-0.151531,2.361,2.5227
0.883296,-0.151531,2.361,2.52537
0.884922,-0.150504,2.345,2.51093
0.886443,-0.149477,2.329,2.49647
0.887861,-0.14845,2.313,2.482
0.895368,-0.14845,2.313,2.48469
0.897021,-0.147488,2.298,2.47128
0.904479,-0.147488,2.298,2.47399
0.911938,-0.147488,2.298,2.47673
0.919397,-0.147488,2.298,2.47949
0.920402,-0.146461,2.282,2.46498
0.927809,-0.146461,2.282,2.46775
0.935216,-0.146461,2.282,2.47055
0.942623,-0.146461,2.282,2.47336
0.950029,-0.146461,2.282,2.47619
0.957436,-0.146461,2.282,2.47904
nan,nan,nan,NaN
nan,nan,nan,NaN
nan,nan,nan,NaN
nan,nan,nan,NaN
nan,nan,nan,NaN
nan,nan,nan,NaN
nan,nan,nan,NaN
nan,nan,nan,NaN
nan,nan,nan,NaN
nan,nan,nan,NaN
nan,nan,nan,NaN
nan,nan,nan,NaN
1.59675,-0.221937,3.458,3.81531
1.60797,-0.221937,3.458,3.82003
1.6192,-0.221937,3.458,3.82476
1.64692,-0.224184,3.493,3.86829
1.65826,-0.224184,3.493,3.87313
1.6696,-0.224184,3.493,3.878
1.66409,-0.221937,3.458,3.84399
1.67532,-0.221937,3.458,3.84886
1.68654,-0.221937,3.458,3.85376
1.69776,-0.221937,3.458,3.85868
1.70899,-0.221937,3.458,3.86363
1.72021,-0.221937,3.458,3.86861
1.71391,-0.219691,3.423,3.83441
1.70789,-0.217509,3.389,3.80125
1.71889,-0.217509,3.389,3.80621
1.72989,-0.217509,3.389,3.81119
nan,nan,nan,NaN
nan,nan,nan,NaN
nan,nan,nan,NaN
nan,nan,nan,NaN
nan,nan,nan,NaN
nan,nan,nan,NaN
1.98389,-0.238817,3.721,4.22359
1.99597,-0.238817,3.721,4.22928
2.03017,-0.241448,3.762,4.28165
2.04238,-0.241448,3.762,4.28746
2.07753,-0.244144,3.804,4.34122
2.08988,-0.244144,3.804,4.34714
2.10223,-0.244144,3.804,4.35309
2.11457,-0.244144,3.804,4.35906
2.12692,-0.244144,3.804,4.36507
2.11565,-0.241448,3.762,4.32284
2.10467,-0.238817,3.721,4.28165
2.09399,-0.23625,3.681,4.24151
2.10594,-0.23625,3.681,4.24742
2.09545,-0.233747,3.642,4.20829
2.08528,-0.231308,3.604,4.17022
2.09698,-0.231308,3.604,4.17608
2.08644,-0.228869,3.566,4.13787
2.07625,-0.226494,3.529,4.10073
2.0877,-0.226494,3.529,4.10654
2.07774,-0.224184,3.493,4.07042
2.04722,-0.219691,3.423,3.99453
2.05833,-0.219691,3.423,4.00024
2.04888,-0.217509,3.389,3.96618
2.02037,-0.213337,3.324,3.89569
2.03116,-0.213337,3.324,3.9013
1.98421,-0.207304,3.23,3.79644
1.95764,-0.203453,3.17,3.7313
1.96793,-0.203453,3.17,3.73671
1.94202,-0.199731,3.112,3.67367
1.91762,-0.196201,3.057,3.614
1.92754,-0.196201,3.057,3.61928
1.90324,-0.192735,3.003,3.56054
1.87986,-0.189398,2.951,3.50402
1.85743,-0.186189,2.901,3.44971
1.86684,-0.186189,2.901,3.45479
1.86074,-0.184648,2.877,3.43126
1.82392,-0.180092,2.806,3.35153
1.83303,-0.180092,2.806,3.3565
1.82704,-0.178615,2.783,3.33393
1.82156,-0.177203,2.761,3.31249
1.83052,-0.177203,2.761,3.31743
1.82482,-0.175791,2.739,3.29591
1.80493,-0.173032,2.696,3.24902
1.81368,-0.173032,2.696,3.25389
1.80823,-0.171684,2.675,3.23339
1.80265,-0.170336,2.654,3.21283
-1.99587,-0.175313,2.877,3.5059
-1.98653,-0.175313,2.877,3.5006
-1.94421,-0.172388,2.829,3.43699
-1.91929,-0.170987,2.806,3.4039
-1.87955,-0.168244,2.761,3.34427
-1.87059,-0.168244,2.761,3.33924
-1.84679,-0.166904,2.739,3.30766
-1.8379,-0.166904,2.739,3.30271
-1.82901,-0.166904,2.739,3.29777
-1.82012,-0.166904,2.739,3.29284
-1.79668,-0.165563,2.717,3.26153
-1.78787,-0.165563,2.717,3.25668
-1.77905,-0.165563,2.717,3.25185
-1.78456,-0.166904,2.739,3.27332
-1.78993,-0.168244,2.761,3.29474
-1.79516,-0.169585,2.783,3.31609
-1.78613,-0.169585,2.783,3.31121
-1.8218,-0.173851,2.853,3.38951
-1.82778,-0.175313,2.877,3.41301
-1.81845,-0.175313,2.877,3.40802
-1.87199,-0.181407,2.977,3.52133
-1.86233,-0.181407,2.977,3.51621
-1.86885,-0.182991,3.003,3.54176
-1.8591,-0.182991,3.003,3.53663
-1.86598,-0.184636,3.03,3.56327
-1.85614,-0.184636,3.03,3.55813
-1.82986,-0.182991,3.003,3.52135
-1.82011,-0.182991,3.003,3.51629
-1.81036,-0.182991,3.003,3.51126
-1.78503,-0.181407,2.977,3.47588
-1.75986,-0.179822,2.951,3.44062
-1.75028,-0.179822,2.951,3.43573
-1.7407,-0.179822,2.951,3.43086
-1.73112,-0.179822,2.951,3.42601
nan,nan,nan,NaN
nan,nan,nan,NaN
nan,nan,nan,NaN
nan,nan,nan,NaN
nan,nan,nan,NaN
nan,nan,nan,NaN
nan,nan,nan,NaN
nan,nan,nan,NaN
nan,nan,nan,NaN
nan,nan,nan,NaN
nan,nan,nan,NaN
nan,nan,nan,NaN
nan,nan,nan,NaN
nan,nan,nan,NaN
nan,nan,nan,NaN
nan,nan,nan,NaN
nan,nan,nan,NaN
nan,nan,nan,NaN
nan,nan,nan,NaN
nan,nan,nan,NaN
nan,nan,nan,NaN
nan,nan,nan,NaN
nan,nan,nan,NaN
nan,nan,nan,NaN
nan,nan,nan,NaN
nan,nan,nan,NaN
nan,nan,nan,NaN
nan,nan,nan,NaN
nan,nan,nan,NaN
-1.20502,-0.150085,2.463,2.74608
-1.19703,-0.150085,2.463,2.74259
-1.16393,-0.146917,2.411,2.68128
-1.15611,-0.146917,2.411,2.67789
-1.14828,-0.146917,2.411,2.67452
-1.13241,-0.145881,2.394,2.65233
-1.12464,-0.145881,2.394,2.64903
-1.11687,-0.145881,2.394,2.64574
-1.10123,-0.144845,2.377,2.6237
-1.08615,-0.14387,2.361,2.60283
-1.07849,-0.14387,2.361,2.59965
-1.07082,-0.14387,2.361,2.59648
-1.06316,-0.14387,2.361,2.59332
-1.0555,-0.14387,2.361,2.59019
-1.04784,-0.14387,2.361,2.58708
-1.04017,-0.14387,2.361,2.58398
-1.03251,-0.14387,2.361,2.58091
-1.02485,-0.14387,2.361,2.57785
-1.01718,-0.14387,2.361,2.57482
-1.01636,-0.144845,2.377,2.58923
-1.00865,-0.144845,2.377,2.58621
-1.00093,-0.144845,2.377,2.58321
-0.993215,-0.144845,2.377,2.58023
-0.9855,-0.144845,2.377,2.57727
-0.977785,-0.144845,2.377,2.57433
-0.970069,-0.144845,2.377,2.57141
-0.962354,-0.144845,2.377,2.56851
-0.961466,-0.145881,2.394,2.58398
-0.946924,-0.144845,2.377,2.56277
-0.939209,-0.144845,2.377,2.55993
-0.931494,-0.144845,2.377,2.55711
-0.923778,-0.144845,2.377,2.55431
-0.916063,-0.144845,2.377,2.55153
-0.908348,-0.144845,2.377,2.54877
-0.900633,-0.144845,2.377,2.54603
-0.892918,-0.144845,2.377,2.54331
-0.885203,-0.144845,2.377,2.54061
-0.877488,-0.144845,2.377,2.53793
-0.869772,-0.144845,2.377,2.53527
-0.862057,-0.144845,2.377,2.53264
-0.854342,-0.144845,2.377,2.53002
-0.846627,-0.144845,2.377,2.52743
-0.838912,-0.144845,2.377,2.52485
-0.831197,-0.144845,2.377,2.5223
-0.823481,-0.144845,2.377,2.51977
-0.815766,-0.144845,2.377,2.51726
-0.808051,-0.144845,2.377,2.51477
-0.800336,-0.144845,2.377,2.5123
-0.792621,-0.144845,2.377,2.50985
-0.784906,-0.144845,2.377,2.50743
-0.782749,-0.145881,2.394,2.52294
-0.774979,-0.145881,2.394,2.52054
-0.767208,-0.145881,2.394,2.51816
-0.759438,-0.145881,2.394,2.5158
-0.751668,-0.145881,2.394,2.51347
-0.743897,-0.145881,2.394,2.51116
-0.741354,-0.146917,2.411,2.52668
-0.733529,-0.146917,2.411,2.52439
-0.725703,-0.146917,2.411,2.52213
-0.717878,-0.146917,2.411,2.51989
-0.710052,-0.146917,2.411,2.51767
-0.702227,-0.146917,2.411,2.51548
-0.694401,-0.146917,2.411,2.5133
-0.686576,-0.146917,2.411,2.51115
-0.67875,-0.146917,2.411,2.50903
-0.670925,-0.146917,2.411,2.50692
-0.667775,-0.147953,2.428,2.5225
-0.659894,-0.147953,2.428,2.52042
-0.652013,-0.147953,2.428,2.51837
-0.644133,-0.147953,2.428,2.51634
-0.636252,-0.147953,2.428,2.51434
-0.628371,-0.147953,2.428,2.51235
-0.620491,-0.147953,2.428,2.5104
-0.61261,-0.147953,2.428,2.50846
-0.604729,-0.147953,2.428,2.50655
-0.596848,-0.147953,2.428,2.50466
-0.588968,-0.147953,2.428,2.50279
-0.581087,-0.147953,2.428,2.50095
-0.573206,-0.147953,2.428,2.49913
-0.565326,-0.147953,2.428,2.49733
-0.557445,-0.147953,2.428,2.49556
-0.549564,-0.147953,2.428,2.49381
-0.541684,-0.147953,2.428,2.49209
-0.533803,-0.147953,2.428,2.49039
-0.525922,-0.147953,2.428,2.48871
-0.518042,-0.147953,2.428,2.48705
-0.510161,-0.147953,2.428,2.48543
-0.50228,-0.147953,2.428,2.48382
-0.4944,-0.147953,2.428,2.48224
-0.489925,-0.148989,2.445,2.49805
-0.481989,-0.148989,2.445,2.49651
-0.474054,-0.148989,2.445,2.49499
-0.466118,-0.148989,2.445,2.49349
-0.458182,-0.148989,2.445,2.49202
-0.450246,-0.148989,2.445,2.49057
-0.44231,-0.148989,2.445,2.48915
-0.437572,-0.150085,2.463,2.50607
-0.429578,-0.150085,2.463,2.50468
-0.421584,-0.150085,2.463,2.50332
-0.413589,-0.150085,2.463,2.50199
-0.408559,-0.151182,2.481,2.51896
-0.400506,-0.151182,2.481,2.51766
-0.392454,-0.151182,2.481,2.51639
-0.384401,-0.151182,2.481,2.51515
-0.376348,-0.151182,2.481,2.51393
-0.368296,-0.151182,2.481,2.51274
-0.360243,-0.151182,2.481,2.51157
-0.35219,-0.151182,2.481,2.51043
-0.344137,-0.151182,2.481,2.50931
-0.336085,-0.151182,2.481,2.50822
-0.328032,-0.151182,2.481,2.50715
-0.317658,-0.150085,2.463,2.48793
-0.309664,-0.150085,2.463,2.48692
-0.301669,-0.150085,2.463,2.48594
-0.293675,-0.150085,2.463,2.48498
-0.283593,-0.148989,2.445,2.4659
-0.275657,-0.148989,2.445,2.465
-0.267721,-0.148989,2.445,2.46412
-0.259785,-0.148989,2.445,2.46327
-0.251849,-0.148989,2.445,2.46245
-0.243914,-0.148989,2.445,2.46165
-0.235978,-0.148989,2.445,2.46088
-0.228042,-0.148989,2.445,2.46013
-0.220106,-0.148989,2.445,2.4594
-0.21217,-0.148989,2.445,2.45871
