0.404765,0.00177602,2.481,2.5138
0.412817,0.00177602,2.481,2.51511
0.42087,0.00177602,2.481,2.51645
0.428923,0.00177602,2.481,2.5178
0.436975,0.00177602,2.481,2.51919
0.445028,0.00177602,2.481,2.5206
0.453081,0.00177602,2.481,2.52203
0.461134,0.00177602,2.481,2.52349
0.469186,0.00177602,2.481,2.52498
0.477239,0.00177602,2.481,2.52648
0.485292,0.00177602,2.481,2.52802
0.493344,0.00177602,2.481,2.52958
0.501397,0.00177602,2.481,2.53116
0.513146,0.00178891,2.499,2.55114
0.521257,0.00178891,2.499,2.55279
0.529368,0.00178891,2.499,2.55445
0.537479,0.00178891,2.499,2.55615
0.54559,0.00178891,2.499,2.55787
0.553702,0.00178891,2.499,2.55961
0.561813,0.00178891,2.499,2.56137
0.569924,0.00178891,2.499,2.56317
0.578035,0.00178891,2.499,2.56498
0.586146,0.00178891,2.499,2.56682
0.594257,0.00178891,2.499,2.56869
0.602368,0.00178891,2.499,2.57057
0.610479,0.00178891,2.499,2.57249
0.618591,0.00178891,2.499,2.57442
0.626702,0.00178891,2.499,2.57639
0.634813,0.00178891,2.499,2.57837
0.642924,0.00178891,2.499,2.58038
0.651035,0.00178891,2.499,2.58241
0.659146,0.00178891,2.499,2.58447
0.667257,0.00178891,2.499,2.58655
0.675369,0.00178891,2.499,2.58865
0.68348,0.00178891,2.499,2.59078
0.691591,0.00178891,2.499,2.59293
0.699702,0.00178891,2.499,2.59511
0.707813,0.00178891,2.499,2.59731
0.715924,0.00178891,2.499,2.59953
0.729251,0.00180179,2.517,2.62052
0.73742,0.00180179,2.517,2.6228
0.74559,0.00180179,2.517,2.62511
0.753759,0.00180179,2.517,2.62744
0.761929,0.00180179,2.517,2.6298
0.770098,0.00180179,2.517,2.63217
0.778268,0.00180179,2.517,2.63458
0.786437,0.00180179,2.517,2.637
0.794607,0.00180179,2.517,2.63945
0.802777,0.00180179,2.517,2.64192
0.810946,0.00180179,2.517,2.64441
0.819116,0.00180179,2.517,2.64693
0.827285,0.00180179,2.517,2.64947
0.835455,0.00180179,2.517,2.65203
0.843624,0.00180179,2.517,2.65462
0.845702,0.00178891,2.499,2.63822
0.853814,0.00178891,2.499,2.64083
0.861925,0.00178891,2.499,2.64347
0.870036,0.00178891,2.499,2.64612
0.878147,0.00178891,2.499,2.6488
0.886258,0.00178891,2.499,2.6515
0.887927,0.00177602,2.481,2.63511
0.89598,0.00177602,2.481,2.63783
0.897474,0.00176313,2.463,2.62142
0.905468,0.00176313,2.463,2.62417
0.913462,0.00176313,2.463,2.62693
0.914722,0.00175025,2.445,2.61051
0.922658,0.00175025,2.445,2.6133
0.930594,0.00175025,2.445,2.61611
0.93853,0.00175025,2.445,2.61894
0.946466,0.00175025,2.445,2.6218
0.954402,0.00175025,2.445,2.62467
0.955646,0.00173808,2.428,2.6093
0.963527,0.00173808,2.428,2.6122
0.971408,0.00173808,2.428,2.61511
0.979289,0.00173808,2.428,2.61805
0.980257,0.00172591,2.411,2.60266
0.988083,0.00172591,2.411,2.60562
0.995908,0.00172591,2.411,2.60859
1.00373,0.00172591,2.411,2.61159
1.01156,0.00172591,2.411,2.61461
1.01938,0.00172591,2.411,2.61765
1.03445,0.00173808,2.428,2.63918
1.04233,0.00173808,2.428,2.64228
1.05021,0.00173808,2.428,2.6454
1.0581,0.00173808,2.428,2.64854
1.07344,0.00175025,2.445,2.67026
1.08138,0.00175025,2.445,2.67346
1.09733,0.00176313,2.463,2.69639
1.12148,0.00178891,2.499,2.73911
1.13773,0.00180179,2.517,2.76219
1.1459,0.00180179,2.517,2.76557
1.17149,0.00182899,2.555,2.81077
1.18856,0.00184259,2.574,2.83516
1.19691,0.00184259,2.574,2.83868
1.22353,0.00187051,2.613,2.88527
1.24144,0.00188483,2.633,2.91099
1.24998,0.00188483,2.633,2.91464
1.26857,0.00189986,2.654,2.9416
1.28729,0.00191489,2.675,2.96863
1.31632,0.00194496,2.717,3.01907
1.32514,0.00194496,2.717,3.02293
1.34476,0.00196071,2.739,3.05131
1.37539,0.00199221,2.783,3.10432
1.38443,0.00199221,2.783,3.10833
1.39346,0.00199221,2.783,3.11237
1.41408,0.00200867,2.806,3.14218
1.42319,0.00200867,2.806,3.14629
1.44404,0.00202514,2.829,3.17624
1.47788,0.0020595,2.877,3.23439
1.51254,0.00209457,2.926,3.29382
1.52204,0.00209457,2.926,3.2982
1.54462,0.00211247,2.951,3.33081
1.5679,0.00213108,2.977,3.36464
1.57756,0.00213108,2.977,3.36916
1.60108,0.00214969,3.003,3.40316
1.62531,0.00216902,3.03,3.43839
1.63515,0.00216902,3.03,3.44305
1.65964,0.00218835,3.057,3.47846
1.68431,0.00220768,3.084,3.51397
1.69432,0.00220768,3.084,3.51878
1.70433,0.00220768,3.084,3.52361
1.69933,0.00218835,3.057,3.49757
1.70925,0.00218835,3.057,3.5024
1.71917,0.00218835,3.057,3.50725
1.71383,0.00216902,3.03,3.48111
1.72366,0.00216902,3.03,3.48596
1.73349,0.00216902,3.03,3.49083
1.72779,0.00214969,3.003,3.46458
1.73754,0.00214969,3.003,3.46945
1.73216,0.00213108,2.977,3.44426
1.74182,0.00213108,2.977,3.44913
1.73619,0.00211247,2.951,3.42385
1.74577,0.00211247,2.951,3.42872
1.75535,0.00211247,2.951,3.43361
1.76492,0.00211247,2.951,3.43851
1.7745,0.00211247,2.951,3.44344
1.76897,0.00209457,2.926,3.41917
1.77846,0.00209457,2.926,3.42409
1.78796,0.00209457,2.926,3.42904
1.76736,0.0020595,2.877,3.37649
1.77669,0.0020595,2.877,3.38139
1.78603,0.0020595,2.877,3.3863
1.78039,0.00204232,2.853,3.36295
1.7746,0.00202514,2.829,3.33953
1.78378,0.00202514,2.829,3.34442
1.79296,0.00202514,2.829,3.34932
1.77284,0.00199221,2.783,3.29971
1.76779,0.00197646,2.761,3.27845
1.77675,0.00197646,2.761,3.28329
1.77148,0.00196071,2.739,3.26194
1.76607,0.00194496,2.717,3.24054
1.77489,0.00194496,2.717,3.24536
1.75614,0.00191489,2.675,3.19995
1.73711,0.00188483,2.633,3.1544
1.74566,0.00188483,2.633,3.15912
1.74088,0.00187051,2.613,3.13981
1.73597,0.0018562,2.593,3.12046
1.74439,0.0018562,2.593,3.12515
1.73996,0.00184259,2.574,3.10692
1.7225,0.00181539,2.536,3.06567
-1.97922,0.0112998,2.853,3.47233
-1.95339,0.0112048,2.829,3.43789
-1.94421,0.0112048,2.829,3.43268
-1.90356,0.0110226,2.783,3.37176
-1.89453,0.0110226,2.783,3.36667
-1.88549,0.0110226,2.783,3.36159
-1.84679,0.0108483,2.739,3.30347
-1.82314,0.0107612,2.717,3.27201
-1.81432,0.0107612,2.717,3.2671
-1.8055,0.0107612,2.717,3.26222
-1.79668,0.0107612,2.717,3.25734
-1.77405,0.010678,2.696,3.22735
-1.7653,0.010678,2.696,3.22255
-1.75655,0.010678,2.696,3.21776
-1.73418,0.0105948,2.675,3.18797
-1.7255,0.0105948,2.675,3.18325
-1.71682,0.0105948,2.675,3.17855
-1.70813,0.0105948,2.675,3.17387
-1.69945,0.0105948,2.675,3.16921
-1.69077,0.0105948,2.675,3.16456
-1.69529,0.010678,2.696,3.18474
-1.68654,0.010678,2.696,3.18009
-1.69086,0.0107612,2.717,3.20019
-1.68204,0.0107612,2.717,3.19554
-1.67322,0.0107612,2.717,3.19091
-1.67788,0.0108483,2.739,3.21209
-1.66899,0.0108483,2.739,3.20746
-1.67344,0.0109355,2.761,3.22856
-1.67774,0.0110226,2.783,3.24962
-1.6687,0.0110226,2.783,3.24496
-1.65967,0.0110226,2.783,3.24033
-1.63759,0.0109355,2.761,3.21013
-1.62863,0.0109355,2.761,3.20557
-1.61967,0.0109355,2.761,3.20102
-1.59787,0.0108483,2.739,3.17103
-1.58898,0.0108483,2.739,3.16656
-1.58009,0.0108483,2.739,3.16211
-1.55858,0.0107612,2.717,3.13231
-1.54976,0.0107612,2.717,3.12793
-1.52903,0.010678,2.696,3.09943
-1.52028,0.010678,2.696,3.09512
-1.51153,0.010678,2.696,3.09083
-1.50278,0.010678,2.696,3.08656
-1.49403,0.010678,2.696,3.08231
-1.48528,0.010678,2.696,3.07808
-1.48803,0.0107612,2.717,3.09781
-1.47921,0.0107612,2.717,3.09359
-1.4823,0.0108483,2.739,3.11439
-1.48524,0.0109355,2.761,3.13515
-1.47628,0.0109355,2.761,3.13092
-1.47901,0.0110226,2.783,3.15162
-1.48213,0.0111137,2.806,3.1734
-1.48509,0.0112048,2.829,3.19513
-1.47591,0.0112048,2.829,3.19088
-1.49162,0.0113949,2.877,3.24071
-1.49464,0.0114899,2.901,3.26342
-1.48523,0.0114899,2.901,3.25912
-1.4636,0.0113949,2.877,3.22791
-1.45426,0.0113949,2.877,3.22368
-1.43287,0.0112998,2.853,3.19263
-1.40016,0.0111137,2.806,3.13595
-1.39105,0.0111137,2.806,3.1319
-1.35978,0.0109355,2.761,3.0777
-1.32929,0.0107612,2.717,3.02477
-1.31027,0.010678,2.696,2.99755
-1.30152,0.010678,2.696,2.99374
-1.26256,0.0104285,2.633,2.92008
-1.23496,0.0102701,2.593,2.87209
-1.22654,0.0102701,2.593,2.86848
-1.19135,0.0100443,2.536,2.80191
-1.17426,0.00996904,2.517,2.77746
-1.16609,0.00996904,2.517,2.77401
-1.14136,0.00982646,2.481,2.73096
-1.12508,0.00975517,2.463,2.70782
-1.11709,0.00975517,2.463,2.7045
-1.10099,0.00968387,2.445,2.68147
-1.09305,0.00968387,2.445,2.67822
-1.08512,0.00968387,2.445,2.67499
-1.06969,0.00961654,2.428,2.65321
-1.06181,0.00961654,2.428,2.65004
-1.05393,0.00961654,2.428,2.64689
-1.04605,0.00961654,2.428,2.64376
-1.03817,0.00961654,2.428,2.64066
-1.02307,0.00954921,2.411,2.6191
-1.01525,0.00954921,2.411,2.61605
-1.00742,0.00954921,2.411,2.61303
-0.999596,0.00954921,2.411,2.61002
-0.99177,0.00954921,2.411,2.60703
-0.983945,0.00954921,2.411,2.60407
-0.976119,0.00954921,2.411,2.60112
-0.975121,0.00961654,2.428,2.61651
-0.967241,0.00961654,2.428,2.61359
-0.952643,0.00954921,2.411,2.5924
-0.944817,0.00954921,2.411,2.58954
-0.936992,0.00954921,2.411,2.58669
-0.929166,0.00954921,2.411,2.58387
-0.921341,0.00954921,2.411,2.58106
-0.913515,0.00954921,2.411,2.57828
-0.90569,0.00954921,2.411,2.57552
-0.904195,0.00961654,2.428,2.59092
-0.896315,0.00961654,2.428,2.58818
-0.888434,0.00961654,2.428,2.58546
-0.880553,0.00961654,2.428,2.58276
-0.872672,0.00961654,2.428,2.58008
-0.870847,0.00968387,2.445,2.59548
-0.862911,0.00968387,2.445,2.59282
-0.854975,0.00968387,2.445,2.59019
-0.853275,0.00975517,2.463,2.60663
-0.845281,0.00975517,2.463,2.60403
-0.837286,0.00975517,2.463,2.60144
-0.829292,0.00975517,2.463,2.59888
-0.821298,0.00975517,2.463,2.59634
-0.819247,0.00982646,2.481,2.61278
-0.811195,0.00982646,2.481,2.61027
-0.803142,0.00982646,2.481,2.60778
-0.795089,0.00982646,2.481,2.60531
-0.787037,0.00982646,2.481,2.60286
-0.778984,0.00982646,2.481,2.60044
-0.770931,0.00982646,2.481,2.59804
-0.768413,0.00989775,2.499,2.61449
-0.760302,0.00989775,2.499,2.61212
-0.752191,0.00989775,2.499,2.60977
-0.74408,0.00989775,2.499,2.60744
-0.735969,0.00989775,2.499,2.60514
-0.727858,0.00989775,2.499,2.60286
-0.719746,0.00989775,2.499,2.6006
-0.711635,0.00989775,2.499,2.59837
-0.703524,0.00989775,2.499,2.59616
-0.690404,0.00982646,2.481,2.57529
-0.682351,0.00982646,2.481,2.57314
-0.674299,0.00982646,2.481,2.57102
-0.661412,0.00975517,2.463,2.55028
-0.653418,0.00975517,2.463,2.54822
-0.645424,0.00975517,2.463,2.54618
-0.637429,0.00975517,2.463,2.54417
-0.629435,0.00975517,2.463,2.54217
-0.621441,0.00975517,2.463,2.54021
-0.613446,0.00975517,2.463,2.53826
-0.601027,0.00968387,2.445,2.51781
-0.593092,0.00968387,2.445,2.51592
-0.585156,0.00968387,2.445,2.51407
-0.57722,0.00968387,2.445,2.51223
-0.569284,0.00968387,2.445,2.51042
-0.561348,0.00968387,2.445,2.50863
-0.553412,0.00968387,2.445,2.50687
-0.545476,0.00968387,2.445,2.50513
-0.53754,0.00968387,2.445,2.50341
-0.529605,0.00968387,2.445,2.50172
-0.521669,0.00968387,2.445,2.50005
-0.513733,0.00968387,2.445,2.49841
-0.505797,0.00968387,2.445,2.49679
-0.497861,0.00968387,2.445,2.49519
-0.493532,0.00975517,2.463,2.51198
-0.485538,0.00975517,2.463,2.51042
-0.477544,0.00975517,2.463,2.50889
-0.469549,0.00975517,2.463,2.50738
-0.461555,0.00975517,2.463,2.50589
-0.453561,0.00975517,2.463,2.50443
-0.445566,0.00975517,2.463,2.503
-0.44077,0.00982646,2.481,2.51987
-0.432717,0.00982646,2.481,2.51847
-0.424665,0.00982646,2.481,2.5171
-0.419634,0.00989775,2.499,2.53401
-0.411523,0.00989775,2.499,2.53268
-0.403412,0.00989775,2.499,2.53137
-0.395301,0.00989775,2.499,2.53009
-0.389979,0.00996904,2.517,2.54705
-0.381809,0.00996904,2.517,2.54581
-0.37364,0.00996904,2.517,2.5446
-0.36547,0.00996904,2.517,2.54341
-0.357301,0.00996904,2.517,2.54225
-0.349131,0.00996904,2.517,2.54112
-0.343535,0.0100443,2.536,2.55918
-0.335304,0.0100443,2.536,2.55809
-0.327073,0.0100443,2.536,2.55702
-0.318842,0.0100443,2.536,2.55598
-0.31061,0.0100443,2.536,2.55497
-0.300114,0.00996904,2.517,2.53485
-0.291944,0.00996904,2.517,2.53389
-0.283775,0.00996904,2.517,2.53297
-0.275605,0.00996904,2.517,2.53206
-0.267435,0.00996904,2.517,2.53119
-0.259266,0.00996904,2.517,2.53034
-0.251096,0.00996904,2.517,2.52951
-0.24119,0.00989775,2.499,2.51063
-0.233078,0.00989775,2.499,2.50987
-0.224967,0.00989775,2.499,2.50913
-0.216856,0.00989775,2.499,2.50841
-0.208745,0.00989775,2.499,2.50772
-0.200634,0.00989775,2.499,2.50706
-0.192523,0.00989775,2.499,2.50642
-0.18574,0.00996904,2.517,2.52386
-0.17757,0.00996904,2.517,2.52328
-0.169401,0.00996904,2.517,2.52271
-0.161231,0.00996904,2.517,2.52218
-0.153062,0.00996904,2.517,2.52167
-0.144892,0.00996904,2.517,2.52119
-0.136723,0.00996904,2.517,2.52073
-0.128553,0.00996904,2.517,2.5203
-0.120383,0.00996904,2.517,2.5199
-0.112214,0.00996904,2.517,2.51952
-0.104044,0.00996904,2.517,2.51917
-0.0965985,0.0100443,2.536,2.53786
-0.0883672,0.0100443,2.536,2.53756
-0.080136,0.0100443,2.536,2.53729
-0.0719048,0.0100443,2.536,2.53704
-0.0636736,0.0100443,2.536,2.53682
-0.0554423,0.0100443,2.536,2.53663
-0.0472111,0.0100443,2.536,2.53646
-0.0389799,0.0100443,2.536,2.53632
-0.0307487,0.0100443,2.536,2.53621
-0.0225174,0.0100443,2.536,2.53612
-0.0142862,0.0100443,2.536,2.53606
-0.00605498,0.0100443,2.536,2.53603
0.00215994,0.00996904,2.517,2.51702
0.0102556,0.00989775,2.499,2.49904
0.0183668,0.00989775,2.499,2.49909
0.0264779,0.00989775,2.499,2.49916
0.034589,0.00989775,2.499,2.49926
0.0427002,0.00989775,2.499,2.49938
0.0504453,0.00982646,2.481,2.48153
0.0580736,0.00975517,2.463,2.4637
0.0660679,0.00975517,2.463,2.46391
0.0740622,0.00975517,2.463,2.46413
0.0814568,0.00968387,2.445,2.44638
0.0893926,0.00968387,2.445,2.44665
0.0973285,0.00968387,2.445,2.44696
0.105264,0.00968387,2.445,2.44728
0.1132,0.00968387,2.445,2.44764
0.122028,0.00975517,2.463,2.46604
0.130022,0.00975517,2.463,2.46645
0.138016,0.00975517,2.463,2.46688
0.146011,0.00975517,2.463,2.46734
0.154005,0.00975517,2.463,2.46783
0.163183,0.00982646,2.481,2.48638
0.171236,0.00982646,2.481,2.48692
0.179289,0.00982646,2.481,2.48749
0.188701,0.00989775,2.499,2.50613
0.196812,0.00989775,2.499,2.50676
0.206399,0.00996904,2.517,2.52547
0.214568,0.00996904,2.517,2.52615
0.222738,0.00996904,2.517,2.52686
0.230908,0.00996904,2.517,2.52759
0.239077,0.00996904,2.517,2.52835
0.247247,0.00996904,2.517,2.52913
0.255416,0.00996904,2.517,2.52995
0.263586,0.00996904,2.517,2.53078
0.271755,0.00996904,2.517,2.53165
0.279925,0.00996904,2.517,2.53254
0.288094,0.00996904,2.517,2.53345
0.296264,0.00996904,2.517,2.5344
0.302256,0.00989775,2.499,2.51723
0.310368,0.00989775,2.499,2.51822
0.318479,0.00989775,2.499,2.51923
0.32659,0.00989775,2.499,2.52027
0.334701,0.00989775,2.499,2.52133
0.342812,0.00989775,2.499,2.52242
0.348396,0.00982646,2.481,2.50536
0.356448,0.00982646,2.481,2.50649
0.364501,0.00982646,2.481,2.50765
0.372554,0.00982646,2.481,2.50884
0.380606,0.00982646,2.481,2.51004
0.388659,0.00982646,2.481,2.51128
0.396712,0.00982646,2.481,2.51254
0.404765,0.00982646,2.481,2.51382
0.412817,0.00982646,2.481,2.51513
0.42087,0.00982646,2.481,2.51646
0.428923,0.00982646,2.481,2.51782
0.436975,0.00982646,2.481,2.51921
0.445028,0.00982646,2.481,2.52062
0.453081,0.00982646,2.481,2.52205
0.461134,0.00982646,2.481,2.52351
0.469186,0.00982646,2.481,2.52499
0.477239,0.00982646,2.481,2.5265
0.485292,0.00982646,2.481,2.52804
0.493344,0.00982646,2.481,2.52959
0.505035,0.00989775,2.499,2.54954
0.513146,0.00989775,2.499,2.55116
0.521257,0.00989775,2.499,2.5528
0.529368,0.00989775,2.499,2.55447
0.537479,0.00989775,2.499,2.55617
0.54952,0.00996904,2.517,2.57631
0.55769,0.00996904,2.517,2.57806
0.565859,0.00996904,2.517,2.57984
0.574029,0.00996904,2.517,2.58165
0.582199,0.00996904,2.517,2.58348
0.590368,0.00996904,2.517,2.58533
0.594257,0.00989775,2.499,2.5687
0.602368,0.00989775,2.499,2.57059
0.610479,0.00989775,2.499,2.57251
0.618591,0.00989775,2.499,2.57444
0.626702,0.00989775,2.499,2.5764
0.634813,0.00989775,2.499,2.57839
0.642924,0.00989775,2.499,2.5804
0.651035,0.00989775,2.499,2.58243
0.659146,0.00989775,2.499,2.58449
0.667257,0.00989775,2.499,2.58657
0.675369,0.00989775,2.499,2.58867
0.68348,0.00989775,2.499,2.5908
0.691591,0.00989775,2.499,2.59295
0.699702,0.00989775,2.499,2.59513
0.707813,0.00989775,2.499,2.59733
0.715924,0.00989775,2.499,2.59955
0.729251,0.00996904,2.517,2.62053
0.73742,0.00996904,2.517,2.62282
0.74559,0.00996904,2.517,2.62513
0.753759,0.00996904,2.517,2.62746
0.761929,0.00996904,2.517,2.62981
0.770098,0.00996904,2.517,2.63219
0.778268,0.00996904,2.517,2.63459
0.786437,0.00996904,2.517,2.63702
0.794607,0.00996904,2.517,2.63947
0.802777,0.00996904,2.517,2.64194
0.810946,0.00996904,2.517,2.64443
0.819116,0.00996904,2.517,2.64695
0.827285,0.00996904,2.517,2.64949
0.82948,0.00989775,2.499,2.63309
0.837591,0.00989775,2.499,2.63565
0.845702,0.00989775,2.499,2.63824
0.853814,0.00989775,2.499,2.64085
0.861925,0.00989775,2.499,2.64349
0.870036,0.00989775,2.499,2.64614
0.871822,0.00982646,2.481,2.62974
0.879874,0.00982646,2.481,2.63242
0.887927,0.00982646,2.481,2.63512
0.889479,0.00975517,2.463,2.61871
0.897474,0.00975517,2.463,2.62144
0.905468,0.00975517,2.463,2.62418
0.913462,0.00975517,2.463,2.62695
0.921457,0.00975517,2.463,2.62974
0.929451,0.00975517,2.463,2.63255
0.930594,0.00968387,2.445,2.61613
0.93853,0.00968387,2.445,2.61896
0.946466,0.00968387,2.445,2.62182
0.954402,0.00968387,2.445,2.62469
0.955646,0.00961654,2.428,2.60932
0.963527,0.00961654,2.428,2.61221
0.971408,0.00961654,2.428,2.61513
0.979289,0.00961654,2.428,2.61807
0.980257,0.00954921,2.411,2.60267
0.988083,0.00954921,2.411,2.60563
0.995908,0.00954921,2.411,2.60861
1.00373,0.00954921,2.411,2.61161
1.01156,0.00954921,2.411,2.61463
1.01938,0.00954921,2.411,2.61766
1.03445,0.00961654,2.428,2.6392
1.04233,0.00961654,2.428,2.6423
1.05021,0.00961654,2.428,2.64542
1.0581,0.00961654,2.428,2.64855
1.07344,0.00968387,2.445,2.67028
1.08138,0.00968387,2.445,2.67348
1.10535,0.00982646,2.481,2.71611
1.12148,0.00989775,2.499,2.73913
1.13773,0.00996904,2.517,2.76221
1.1459,0.00996904,2.517,2.76559
1.17149,0.0101195,2.555,2.81079
1.19733,0.0102701,2.593,2.85611
1.20575,0.0102701,2.593,2.85965
1.22353,0.0103493,2.613,2.88529
1.24144,0.0104285,2.633,2.91101
1.24998,0.0104285,2.633,2.91466
1.27861,0.0105948,2.675,2.96489
1.29739,0.010678,2.696,2.99195
1.31632,0.0107612,2.717,3.01909
1.32514,0.0107612,2.717,3.02294
1.34476,0.0108483,2.739,3.05133
1.37539,0.0110226,2.783,3.10434
1.38443,0.0110226,2.783,3.10835
1.39346,0.0110226,2.783,3.11239
1.41408,0.0111137,2.806,3.1422
1.42319,0.0111137,2.806,3.1463
1.44404,0.0112048,2.829,3.17626
1.47788,0.0113949,2.877,3.23441
1.51254,0.011589,2.926,3.29384
1.52204,0.011589,2.926,3.29822
1.54462,0.011688,2.951,3.33083
1.5679,0.011791,2.977,3.36466
1.57756,0.011791,2.977,3.36918
1.60108,0.0118939,3.003,3.40318
1.62531,0.0120009,3.03,3.43841
1.63515,0.0120009,3.03,3.44307
1.65964,0.0121078,3.057,3.47848
1.68431,0.0122148,3.084,3.51399
1.69432,0.0122148,3.084,3.5188
1.70433,0.0122148,3.084,3.52363
1.69933,0.0121078,3.057,3.49759
1.70925,0.0121078,3.057,3.50242
1.71917,0.0121078,3.057,3.50727
1.71383,0.0120009,3.03,3.48113
1.72366,0.0120009,3.03,3.48598
1.73349,0.0120009,3.03,3.49085
1.72779,0.0118939,3.003,3.4646
1.73754,0.0118939,3.003,3.46947
1.73216,0.011791,2.977,3.44428
1.74182,0.011791,2.977,3.44915
1.73619,0.011688,2.951,3.42387
1.74577,0.011688,2.951,3.42874
1.75535,0.011688,2.951,3.43362
1.74997,0.011589,2.926,3.4094
1.75947,0.011589,2.926,3.41428
1.76897,0.011589,2.926,3.41919
1.76327,0.0114899,2.901,3.39486
1.77268,0.0114899,2.901,3.39976
1.76736,0.0113949,2.877,3.37651
1.77669,0.0113949,2.877,3.38141
1.78603,0.0113949,2.877,3.38632
1.78039,0.0112998,2.853,3.36297
1.7746,0.0112048,2.829,3.33955
1.78378,0.0112048,2.829,3.34443
1.77839,0.0111137,2.806,3.32211
1.77284,0.0110226,2.783,3.29972
1.7537,0.0108483,2.739,3.25234
1.76259,0.0108483,2.739,3.25714
1.75725,0.0107612,2.717,3.23576
1.75242,0.010678,2.696,3.21551
1.76117,0.010678,2.696,3.22029
1.75614,0.0105948,2.675,3.19996
1.73711,0.0104285,2.633,3.15442
1.74566,0.0104285,2.633,3.15913
1.74088,0.0103493,2.613,3.13983
1.73597,0.0102701,2.593,3.12047
1.74439,0.0102701,2.593,3.12516
1.73996,0.0101948,2.574,3.10693
1.7225,0.0100443,2.536,3.06568
-1.97922,0.0205574,2.853,3.47237
-1.95339,0.0203844,2.829,3.43793
-1.94421,0.0203844,2.829,3.43272
-1.90356,0.020053,2.783,3.3718
-1.89453,0.020053,2.783,3.36671
-1.88549,0.020053,2.783,3.36163
-1.84679,0.0197359,2.739,3.30351
-1.82314,0.0195774,2.717,3.27205
-1.81432,0.0195774,2.717,3.26715
-1.8055,0.0195774,2.717,3.26226
-1.79668,0.0195774,2.717,3.25738
-1.77405,0.0194261,2.696,3.22739
-1.7653,0.0194261,2.696,3.22259
-1.74286,0.0192748,2.675,3.19274
-1.73418,0.0192748,2.675,3.18801
-1.7255,0.0192748,2.675,3.18329
-1.71682,0.0192748,2.675,3.17859
-1.70813,0.0192748,2.675,3.17391
-1.69945,0.0192748,2.675,3.16925
-1.69077,0.0192748,2.675,3.1646
-1.68209,0.0192748,2.675,3.15997
-1.68654,0.0194261,2.696,3.18013
-1.67779,0.0194261,2.696,3.1755
-1.66904,0.0194261,2.696,3.17088
-1.66029,0.0194261,2.696,3.16628
-1.67788,0.0197359,2.739,3.21213
-1.66899,0.0197359,2.739,3.2075
-1.67344,0.0198944,2.761,3.22861
-1.66447,0.0198944,2.761,3.22397
-1.65551,0.0198944,2.761,3.21935
-1.64655,0.0198944,2.761,3.21475
-1.63759,0.0198944,2.761,3.21017
-1.62863,0.0198944,2.761,3.20561
-1.61967,0.0198944,2.761,3.20107
-1.59787,0.0197359,2.739,3.17107
-1.58898,0.0197359,2.739,3.1666
-1.5674,0.0195774,2.717,3.13675
-1.54653,0.0194261,2.696,3.10814
-1.53778,0.0194261,2.696,3.1038
-1.51712,0.0192748,2.675,3.07533
-1.4966,0.0191235,2.654,3.04695
-1.48798,0.0191235,2.654,3.04273
-1.47937,0.0191235,2.654,3.03852
-1.47075,0.0191235,2.654,3.03434
-1.47371,0.0192748,2.675,3.05415
-1.47653,0.0194261,2.696,3.07391
-1.46778,0.0194261,2.696,3.06972
-1.47039,0.0195774,2.717,3.08942
-1.47341,0.0197359,2.739,3.11022
-1.46452,0.0197359,2.739,3.10601
-1.46732,0.0198944,2.761,3.12675
-1.46998,0.020053,2.783,3.14743
-1.48509,0.0203844,2.829,3.19518
-1.47591,0.0203844,2.829,3.19092
-1.47917,0.0205574,2.853,3.21372
-1.48228,0.0207303,2.877,3.23646
-1.47294,0.0207303,2.877,3.2322
-1.45139,0.0205574,2.853,3.20103
-1.44213,0.0205574,2.853,3.19684
-1.42082,0.0203844,2.829,3.16581
-1.40016,0.0202187,2.806,3.136
-1.39105,0.0202187,2.806,3.13194
-1.35978,0.0198944,2.761,3.07775
-1.32929,0.0195774,2.717,3.02481
-1.28986,0.0191235,2.654,2.9509
-1.28124,0.0191235,2.654,2.94714
-1.25297,0.018828,2.613,2.89794
-1.23496,0.0186839,2.593,2.87213
-1.22654,0.0186839,2.593,2.86852
-1.19135,0.0182732,2.536,2.80195
-1.16586,0.0180066,2.499,2.75764
-1.15775,0.0180066,2.499,2.75422
-1.14136,0.0178769,2.481,2.731
-1.12508,0.0177472,2.463,2.70786
-1.11709,0.0177472,2.463,2.70455
-1.10099,0.0176175,2.445,2.68151
-1.09305,0.0176175,2.445,2.67826
-1.08512,0.0176175,2.445,2.67503
-1.06969,0.017495,2.428,2.65325
-1.06181,0.017495,2.428,2.65008
-1.05393,0.017495,2.428,2.64693
-1.04605,0.017495,2.428,2.64381
-1.0309,0.0173725,2.411,2.62221
-1.02307,0.0173725,2.411,2.61914
-1.01525,0.0173725,2.411,2.61609
-1.00742,0.0173725,2.411,2.61307
-0.999596,0.0173725,2.411,2.61006
-0.99177,0.0173725,2.411,2.60707
-0.983945,0.0173725,2.411,2.60411
-0.976119,0.0173725,2.411,2.60116
-0.975121,0.017495,2.428,2.61655
-0.967241,0.017495,2.428,2.61363
-0.952643,0.0173725,2.411,2.59244
-0.944817,0.0173725,2.411,2.58958
-0.936992,0.0173725,2.411,2.58673
-0.929166,0.0173725,2.411,2.58391
-0.921341,0.0173725,2.411,2.5811
-0.913515,0.0173725,2.411,2.57832
-0.90569,0.0173725,2.411,2.57556
-0.904195,0.017495,2.428,2.59096
-0.896315,0.017495,2.428,2.58822
-0.888434,0.017495,2.428,2.5855
-0.880553,0.017495,2.428,2.5828
-0.872672,0.017495,2.428,2.58013
-0.870847,0.0176175,2.445,2.59552
-0.862911,0.0176175,2.445,2.59287
-0.854975,0.0176175,2.445,2.59024
-0.853275,0.0177472,2.463,2.60668
-0.845281,0.0177472,2.463,2.60407
-0.837286,0.0177472,2.463,2.60149
-0.835353,0.0178769,2.481,2.61792
-0.8273,0.0178769,2.481,2.61536
-0.819247,0.0178769,2.481,2.61282
-0.811195,0.0178769,2.481,2.61031
-0.803142,0.0178769,2.481,2.60782
-0.795089,0.0178769,2.481,2.60535
-0.787037,0.0178769,2.481,2.6029
-0.784635,0.0180066,2.499,2.61935
-0.776524,0.0180066,2.499,2.61693
-0.768413,0.0180066,2.499,2.61453
-0.760302,0.0180066,2.499,2.61216
-0.752191,0.0180066,2.499,2.60981
-0.74408,0.0180066,2.499,2.60749
-0.735969,0.0180066,2.499,2.60518
-0.727858,0.0180066,2.499,2.6029
-0.719746,0.0180066,2.499,2.60065
-0.711635,0.0180066,2.499,2.59841
-0.703524,0.0180066,2.499,2.5962
-0.690404,0.0178769,2.481,2.57533
-0.682351,0.0178769,2.481,2.57319
-0.674299,0.0178769,2.481,2.57106
-0.661412,0.0177472,2.463,2.55032
-0.653418,0.0177472,2.463,2.54826
-0.645424,0.0177472,2.463,2.54622
-0.637429,0.0177472,2.463,2.54421
-0.629435,0.0177472,2.463,2.54222
-0.621441,0.0177472,2.463,2.54025
-0.613446,0.0177472,2.463,2.53831
-0.601027,0.0176175,2.445,2.51785
-0.593092,0.0176175,2.445,2.51597
-0.585156,0.0176175,2.445,2.51411
-0.57722,0.0176175,2.445,2.51227
-0.569284,0.0176175,2.445,2.51046
-0.561348,0.0176175,2.445,2.50867
-0.553412,0.0176175,2.445,2.50691
-0.545476,0.0176175,2.445,2.50517
-0.53754,0.0176175,2.445,2.50345
-0.529605,0.0176175,2.445,2.50176
-0.521669,0.0176175,2.445,2.50009
-0.513733,0.0176175,2.445,2.49845
-0.505797,0.0176175,2.445,2.49683
-0.497861,0.0176175,2.445,2.49524
-0.493532,0.0177472,2.463,2.51202
-0.485538,0.0177472,2.463,2.51046
-0.477544,0.0177472,2.463,2.50893
-0.469549,0.0177472,2.463,2.50742
-0.461555,0.0177472,2.463,2.50594
-0.453561,0.0177472,2.463,2.50448
-0.445566,0.0177472,2.463,2.50304
-0.437572,0.0177472,2.463,2.50163
-0.432717,0.0178769,2.481,2.51852
-0.424665,0.0178769,2.481,2.51715
-0.416612,0.0178769,2.481,2.5158
-0.411523,0.0180066,2.499,2.53272
-0.403412,0.0180066,2.499,2.53142
-0.395301,0.0180066,2.499,2.53014
-0.38719,0.0180066,2.499,2.52888
-0.379079,0.0180066,2.499,2.52765
-0.37364,0.0181363,2.517,2.54465
-0.36547,0.0181363,2.517,2.54346
-0.357301,0.0181363,2.517,2.5423
-0.349131,0.0181363,2.517,2.54116
-0.340961,0.0181363,2.517,2.54005
-0.335304,0.0182732,2.536,2.55814
-0.327073,0.0182732,2.536,2.55707
-0.316453,0.0181363,2.517,2.53688
-0.308283,0.0181363,2.517,2.53587
-0.300114,0.0181363,2.517,2.53489
-0.291944,0.0181363,2.517,2.53394
-0.283775,0.0181363,2.517,2.53301
-0.275605,0.0181363,2.517,2.53211
-0.267435,0.0181363,2.517,2.53123
-0.259266,0.0181363,2.517,2.53038
-0.251096,0.0181363,2.517,2.52956
-0.24119,0.0180066,2.499,2.51068
-0.233078,0.0180066,2.499,2.50991
-0.224967,0.0180066,2.499,2.50917
-0.216856,0.0180066,2.499,2.50846
-0.208745,0.0180066,2.499,2.50777
-0.200634,0.0180066,2.499,2.50711
-0.192523,0.0180066,2.499,2.50647
-0.184412,0.0180066,2.499,2.50586
-0.17757,0.0181363,2.517,2.52332
-0.169401,0.0181363,2.517,2.52276
-0.161231,0.0181363,2.517,2.52222
-0.153062,0.0181363,2.517,2.52172
-0.144892,0.0181363,2.517,2.52123
-0.136723,0.0181363,2.517,2.52078
-0.128553,0.0181363,2.517,2.52035
-0.120383,0.0181363,2.517,2.51994
-0.112214,0.0181363,2.517,2.51957
-0.104044,0.0181363,2.517,2.51921
-0.0965985,0.0182732,2.536,2.5379
-0.0883672,0.0182732,2.536,2.5376
-0.080136,0.0182732,2.536,2.53733
-0.0719048,0.0182732,2.536,2.53709
-0.0636736,0.0182732,2.536,2.53686
-0.0554423,0.0182732,2.536,2.53667
-0.0475648,0.0184101,2.555,2.55551
-0.0392719,0.0184101,2.555,2.55537
-0.0307487,0.0182732,2.536,2.53625
-0.0225174,0.0182732,2.536,2.53617
-0.0142862,0.0182732,2.536,2.53611
-0.00605498,0.0182732,2.536,2.53607
0.00215994,0.0181363,2.517,2.51707
0.0103295,0.0181363,2.517,2.51709
0.0184991,0.0181363,2.517,2.51713
0.0264779,0.0180066,2.499,2.49921
0.034589,0.0180066,2.499,2.4993
0.0427002,0.0180066,2.499,2.49943
0.0504453,0.0178769,2.481,2.48158
0.0580736,0.0177472,2.463,2.46375
0.0660679,0.0177472,2.463,2.46395
0.0740622,0.0177472,2.463,2.46418
0.0814568,0.0176175,2.445,2.44642
0.0893926,0.0176175,2.445,2.4467
0.0973285,0.0176175,2.445,2.447
0.105264,0.0176175,2.445,2.44733
0.1132,0.0176175,2.445,2.44768
0.122028,0.0177472,2.463,2.46608
0.130022,0.0177472,2.463,2.46649
0.138016,0.0177472,2.463,2.46693
0.146011,0.0177472,2.463,2.46739
0.154005,0.0177472,2.463,2.46787
0.163183,0.0178769,2.481,2.48643
0.171236,0.0178769,2.481,2.48697
0.179289,0.0178769,2.481,2.48753
0.188701,0.0180066,2.499,2.50618
0.198229,0.0181363,2.517,2.52486
0.206399,0.0181363,2.517,2.52551
0.214568,0.0181363,2.517,2.52619
0.222738,0.0181363,2.517,2.5269
0.230908,0.0181363,2.517,2.52763
0.239077,0.0181363,2.517,2.52839
0.247247,0.0181363,2.517,2.52918
0.255416,0.0181363,2.517,2.52999
0.263586,0.0181363,2.517,2.53083
0.271755,0.0181363,2.517,2.53169
0.279925,0.0181363,2.517,2.53258
0.288094,0.0181363,2.517,2.5335
0.296264,0.0181363,2.517,2.53444
0.302256,0.0180066,2.499,2.51728
0.310368,0.0180066,2.499,2.51826
0.318479,0.0180066,2.499,2.51928
0.32659,0.0180066,2.499,2.52031
0.334701,0.0180066,2.499,2.52138
0.342812,0.0180066,2.499,2.52247
0.350923,0.0180066,2.499,2.52358
0.359034,0.0180066,2.499,2.52472
0.367146,0.0180066,2.499,2.52589
0.372554,0.0178769,2.481,2.50888
0.380606,0.0178769,2.481,2.51009
0.388659,0.0178769,2.481,2.51132
0.396712,0.0178769,2.481,2.51258
0.404765,0.0178769,2.481,2.51386
0.412817,0.0178769,2.481,2.51517
0.42087,0.0178769,2.481,2.51651
0.428923,0.0178769,2.481,2.51787
0.436975,0.0178769,2.481,2.51925
0.445028,0.0178769,2.481,2.52066
0.453081,0.0178769,2.481,2.5221
0.461134,0.0178769,2.481,2.52355
0.469186,0.0178769,2.481,2.52504
0.480701,0.0180066,2.499,2.54488
0.488812,0.0180066,2.499,2.54642
0.496924,0.0180066,2.499,2.54799
0.505035,0.0180066,2.499,2.54959
0.513146,0.0180066,2.499,2.5512
0.521257,0.0180066,2.499,2.55285
0.529368,0.0180066,2.499,2.55452
0.541351,0.0181363,2.517,2.57462
0.54952,0.0181363,2.517,2.57635
0.55769,0.0181363,2.517,2.57811
0.565859,0.0181363,2.517,2.57989
0.574029,0.0181363,2.517,2.58169
0.582199,0.0181363,2.517,2.58352
0.590368,0.0181363,2.517,2.58537
0.598538,0.0181363,2.517,2.58725
0.606707,0.0181363,2.517,2.58915
0.610479,0.0180066,2.499,2.57255
0.618591,0.0180066,2.499,2.57449
0.626702,0.0180066,2.499,2.57645
0.634813,0.0180066,2.499,2.57843
0.642924,0.0180066,2.499,2.58044
0.651035,0.0180066,2.499,2.58247
0.659146,0.0180066,2.499,2.58453
0.667257,0.0180066,2.499,2.58661
0.675369,0.0180066,2.499,2.58872
0.68348,0.0180066,2.499,2.59084
0.691591,0.0180066,2.499,2.59299
0.699702,0.0180066,2.499,2.59517
0.707813,0.0180066,2.499,2.59737
0.715924,0.0180066,2.499,2.59959
0.729251,0.0181363,2.517,2.62058
0.73742,0.0181363,2.517,2.62286
0.74559,0.0181363,2.517,2.62517
0.753759,0.0181363,2.517,2.6275
0.761929,0.0181363,2.517,2.62986
0.770098,0.0181363,2.517,2.63224
0.778268,0.0181363,2.517,2.63464
0.786437,0.0181363,2.517,2.63706
0.794607,0.0181363,2.517,2.63951
0.802777,0.0181363,2.517,2.64198
0.810946,0.0181363,2.517,2.64448
0.819116,0.0181363,2.517,2.64699
0.827285,0.0181363,2.517,2.64953
0.82948,0.0180066,2.499,2.63313
0.837591,0.0180066,2.499,2.63569
0.845702,0.0180066,2.499,2.63828
0.853814,0.0180066,2.499,2.64089
0.861925,0.0180066,2.499,2.64353
0.870036,0.0180066,2.499,2.64618
0.871822,0.0178769,2.481,2.62978
0.879874,0.0178769,2.481,2.63246
0.887927,0.0178769,2.481,2.63517
0.889479,0.0177472,2.463,2.61875
0.897474,0.0177472,2.463,2.62148
0.905468,0.0177472,2.463,2.62422
0.913462,0.0177472,2.463,2.62699
0.921457,0.0177472,2.463,2.62978
0.929451,0.0177472,2.463,2.6326
0.937445,0.0177472,2.463,2.63543
0.93853,0.0176175,2.445,2.619
0.946466,0.0176175,2.445,2.62186
0.954402,0.0176175,2.445,2.62473
0.955646,0.017495,2.428,2.60936
0.963527,0.017495,2.428,2.61225
0.971408,0.017495,2.428,2.61517
0.979289,0.017495,2.428,2.61811
0.980257,0.0173725,2.411,2.60272
0.988083,0.0173725,2.411,2.60567
0.995908,0.0173725,2.411,2.60865
1.00373,0.0173725,2.411,2.61165
1.01156,0.0173725,2.411,2.61467
1.01938,0.0173725,2.411,2.6177
1.02721,0.0173725,2.411,2.62076
1.04233,0.017495,2.428,2.64234
1.05021,0.017495,2.428,2.64546
1.0581,0.017495,2.428,2.6486
1.07344,0.0176175,2.445,2.67032
1.08138,0.0176175,2.445,2.67352
1.10535,0.0178769,2.481,2.71615
1.12148,0.0180066,2.499,2.73917
1.13773,0.0181363,2.517,2.76225
1.1459,0.0181363,2.517,2.76563
1.17149,0.0184101,2.555,2.81083
1.19733,0.0186839,2.593,2.85615
1.20575,0.0186839,2.593,2.85969
1.22353,0.018828,2.613,2.88533
1.24144,0.0189721,2.633,2.91105
1.24998,0.0189721,2.633,2.91471
1.27861,0.0192748,2.675,2.96493
1.29739,0.0194261,2.696,2.99199
1.31632,0.0195774,2.717,3.01913
1.32514,0.0195774,2.717,3.02299
1.34476,0.0197359,2.739,3.05137
1.35365,0.0197359,2.739,3.0553
1.36254,0.0197359,2.739,3.05925
1.38244,0.0198944,2.761,3.08783
1.40249,0.020053,2.783,3.11648
1.41152,0.020053,2.783,3.12056
1.44404,0.0203844,2.829,3.1763
1.47788,0.0207303,2.877,3.23445
1.49962,0.0209032,2.901,3.26575
1.50904,0.0209032,2.901,3.27008
1.53154,0.0210834,2.926,3.30266
1.5542,0.0212635,2.951,3.33533
1.56378,0.0212635,2.951,3.3398
1.58722,0.0214508,2.977,3.37376
1.61083,0.0216382,3.003,3.40782
1.62058,0.0216382,3.003,3.41244
1.64498,0.0218327,3.03,3.4478
1.66956,0.0220273,3.057,3.48327
1.67949,0.0220273,3.057,3.48804
1.68941,0.0220273,3.057,3.49283
1.69933,0.0220273,3.057,3.49764
1.70925,0.0220273,3.057,3.50247
1.71917,0.0220273,3.057,3.50732
1.71383,0.0218327,3.03,3.48117
1.72366,0.0218327,3.03,3.48603
1.73349,0.0218327,3.03,3.4909
1.72779,0.0216382,3.003,3.46464
1.73754,0.0216382,3.003,3.46951
1.73216,0.0214508,2.977,3.44432
1.74182,0.0214508,2.977,3.44919
1.73619,0.0212635,2.951,3.42392
1.74577,0.0212635,2.951,3.42878
1.75535,0.0212635,2.951,3.43367
1.74997,0.0210834,2.926,3.40945
1.75947,0.0210834,2.926,3.41433
1.76897,0.0210834,2.926,3.41923
1.76327,0.0209032,2.901,3.3949
1.77268,0.0209032,2.901,3.3998
1.76736,0.0207303,2.877,3.37655
1.76187,0.0205574,2.853,3.35324
1.77113,0.0205574,2.853,3.35812
1.78039,0.0205574,2.853,3.36301
1.7746,0.0203844,2.829,3.33959
1.78378,0.0203844,2.829,3.34448
1.77839,0.0202187,2.806,3.32215
1.75883,0.0198944,2.761,3.27368
1.7537,0.0197359,2.739,3.25238
1.76259,0.0197359,2.739,3.25718
1.74367,0.0194261,2.696,3.21079
1.73877,0.0192748,2.675,3.19051
1.74746,0.0192748,2.675,3.19525
1.74235,0.0191235,2.654,3.17488
1.73711,0.0189721,2.633,3.15446
1.74566,0.0189721,2.633,3.15917
1.74088,0.018828,2.613,3.13987
1.73597,0.0186839,2.593,3.12051
1.74439,0.0186839,2.593,3.1252
1.72711,0.0184101,2.555,3.08404
1.7225,0.0182732,2.536,3.06572
-1.97922,0.0298149,2.853,3.47244
-1.95339,0.0295641,2.829,3.438
-1.94421,0.0295641,2.829,3.43279
-1.91929,0.0293237,2.806,3.39973
-1.89453,0.0290833,2.783,3.36677
-1.88549,0.0290833,2.783,3.3617
-1.86163,0.0288534,2.761,3.33011
-1.82314,0.0283936,2.717,3.27212
-1.81432,0.0283936,2.717,3.26721
-1.8055,0.0283936,2.717,3.26232
-1.7828,0.0281742,2.696,3.23227
-1.77405,0.0281742,2.696,3.22745
-1.7653,0.0281742,2.696,3.22265
-1.74286,0.0279547,2.675,3.1928
-1.73418,0.0279547,2.675,3.18807
-1.7255,0.0279547,2.675,3.18336
-1.70334,0.0277353,2.654,3.1537
-1.69472,0.0277353,2.654,3.14906
-1.68611,0.0277353,2.654,3.14443
-1.6775,0.0277353,2.654,3.13982
-1.66888,0.0277353,2.654,3.13523
-1.6734,0.0279547,2.675,3.15542
-1.67779,0.0281742,2.696,3.17556
-1.66904,0.0281742,2.696,3.17095
-1.66029,0.0281742,2.696,3.16635
-1.65154,0.0281742,2.696,3.16177
-1.64279,0.0281742,2.696,3.15721
-1.64677,0.0283936,2.717,3.17722
-1.65121,0.0286235,2.739,3.19835
-1.64232,0.0286235,2.739,3.19377
-1.63343,0.0286235,2.739,3.18921
-1.62454,0.0286235,2.739,3.18466
-1.61565,0.0286235,2.739,3.18014
-1.59385,0.0283936,2.717,3.15012
-1.57278,0.0281742,2.696,3.12136
-1.56403,0.0281742,2.696,3.11696
-1.55528,0.0281742,2.696,3.11257
-1.54653,0.0281742,2.696,3.10821
-1.53778,0.0281742,2.696,3.10387
-1.51712,0.0279547,2.675,3.0754
-1.4966,0.0277353,2.654,3.04701
-1.48798,0.0277353,2.654,3.04279
-1.47937,0.0277353,2.654,3.03859
-1.47075,0.0277353,2.654,3.0344
-1.47371,0.0279547,2.675,3.05421
-1.47653,0.0281742,2.696,3.07398
-1.46778,0.0281742,2.696,3.06979
-1.47039,0.0283936,2.717,3.08949
-1.47341,0.0286235,2.739,3.11029
-1.46452,0.0286235,2.739,3.10608
-1.46732,0.0288534,2.761,3.12682
-1.46998,0.0290833,2.783,3.1475
-1.48509,0.0295641,2.829,3.19525
-1.47591,0.0295641,2.829,3.19099
-1.47917,0.0298149,2.853,3.21379
-1.48228,0.0300657,2.877,3.23654
-1.47294,0.0300657,2.877,3.23227
-1.45139,0.0298149,2.853,3.2011
-1.44213,0.0298149,2.853,3.19691
-1.42082,0.0295641,2.829,3.16589
-1.40016,0.0293237,2.806,3.13607
-1.39105,0.0293237,2.806,3.13202
-1.35978,0.0288534,2.761,3.07782
-1.32929,0.0283936,2.717,3.02488
-1.28986,0.0277353,2.654,2.95097
-1.28124,0.0277353,2.654,2.94721
-1.25297,0.0273068,2.613,2.89801
-1.23496,0.0270978,2.593,2.8722
-1.22654,0.0270978,2.593,2.86859
-1.19135,0.0265021,2.536,2.80202
-1.16586,0.0261154,2.499,2.7577
-1.15775,0.0261154,2.499,2.75428
-1.14136,0.0259273,2.481,2.73107
-1.12508,0.0257392,2.463,2.70792
-1.11709,0.0257392,2.463,2.70461
-1.10099,0.0255511,2.445,2.68158
-1.09305,0.0255511,2.445,2.67833
-1.08512,0.0255511,2.445,2.6751
-1.06969,0.0253735,2.428,2.65331
-1.06181,0.0253735,2.428,2.65014
-1.05393,0.0253735,2.428,2.647
-1.04605,0.0253735,2.428,2.64387
-1.0309,0.0251958,2.411,2.62227
-1.02307,0.0251958,2.411,2.6192
-1.01525,0.0251958,2.411,2.61616
-1.00742,0.0251958,2.411,2.61313
-0.999596,0.0251958,2.411,2.61012
-0.99177,0.0251958,2.411,2.60714
-0.983945,0.0251958,2.411,2.60417
-0.976119,0.0251958,2.411,2.60122
-0.975121,0.0253735,2.428,2.61662
-0.967241,0.0253735,2.428,2.61369
-0.952643,0.0251958,2.411,2.59251
-0.944817,0.0251958,2.411,2.58964
-0.936992,0.0251958,2.411,2.5868
-0.929166,0.0251958,2.411,2.58397
-0.921341,0.0251958,2.411,2.58117
-0.913515,0.0251958,2.411,2.57838
-0.90569,0.0251958,2.411,2.57562
-0.904195,0.0253735,2.428,2.59102
-0.896315,0.0253735,2.428,2.58828
-0.888434,0.0253735,2.428,2.58556
-0.880553,0.0253735,2.428,2.58287
-0.872672,0.0253735,2.428,2.58019
-0.870847,0.0255511,2.445,2.59558
-0.862911,0.0255511,2.445,2.59293
-0.854975,0.0255511,2.445,2.5903
-0.853275,0.0257392,2.463,2.60674
-0.845281,0.0257392,2.463,2.60414
-0.837286,0.0257392,2.463,2.60155
-0.835353,0.0259273,2.481,2.61799
-0.8273,0.0259273,2.481,2.61543
-0.819247,0.0259273,2.481,2.61289
-0.811195,0.0259273,2.481,2.61038
-0.803142,0.0259273,2.481,2.60789
-0.795089,0.0259273,2.481,2.60542
-0.787037,0.0259273,2.481,2.60297
-0.784635,0.0261154,2.499,2.61942
-0.776524,0.0261154,2.499,2.617
-0.768413,0.0261154,2.499,2.6146
-0.760302,0.0261154,2.499,2.61223
-0.752191,0.0261154,2.499,2.60988
-0.74408,0.0261154,2.499,2.60755
-0.735969,0.0261154,2.499,2.60525
-0.727858,0.0261154,2.499,2.60297
-0.719746,0.0261154,2.499,2.60071
-0.706509,0.0259273,2.481,2.57977
-0.698457,0.0259273,2.481,2.57757
-0.690404,0.0259273,2.481,2.5754
-0.682351,0.0259273,2.481,2.57325
-0.674299,0.0259273,2.481,2.57113
-0.661412,0.0257392,2.463,2.55039
-0.653418,0.0257392,2.463,2.54833
-0.645424,0.0257392,2.463,2.54629
-0.637429,0.0257392,2.463,2.54428
-0.629435,0.0257392,2.463,2.54229
-0.621441,0.0257392,2.463,2.54032
-0.613446,0.0257392,2.463,2.53838
-0.601027,0.0255511,2.445,2.51792
-0.593092,0.0255511,2.445,2.51604
-0.585156,0.0255511,2.445,2.51418
-0.57722,0.0255511,2.445,2.51234
-0.569284,0.0255511,2.445,2.51053
-0.561348,0.0255511,2.445,2.50874
-0.553412,0.0255511,2.445,2.50698
-0.545476,0.0255511,2.445,2.50524
-0.53754,0.0255511,2.445,2.50352
-0.529605,0.0255511,2.445,2.50183
-0.521669,0.0255511,2.445,2.50016
-0.513733,0.0255511,2.445,2.49852
-0.505797,0.0255511,2.445,2.4969
-0.497861,0.0255511,2.445,2.4953
-0.489925,0.0255511,2.445,2.49373
-0.485538,0.0257392,2.463,2.51053
-0.477544,0.0257392,2.463,2.509
-0.469549,0.0257392,2.463,2.50749
-0.461555,0.0257392,2.463,2.50601
-0.453561,0.0257392,2.463,2.50455
-0.445566,0.0257392,2.463,2.50311
-0.437572,0.0257392,2.463,2.5017
-0.432717,0.0259273,2.481,2.51859
-0.424665,0.0259273,2.481,2.51722
-0.416612,0.0259273,2.481,2.51587
-0.408559,0.0259273,2.481,2.51455
-0.400506,0.0259273,2.481,2.51325
-0.395301,0.0261154,2.499,2.53021
-0.38719,0.0261154,2.499,2.52895
-0.379079,0.0261154,2.499,2.52772
-0.370968,0.0261154,2.499,2.52652
-0.36547,0.0263036,2.517,2.54353
-0.357301,0.0263036,2.517,2.54237
-0.349131,0.0263036,2.517,2.54123
-0.340961,0.0263036,2.517,2.54013
-0.335304,0.0265021,2.536,2.55821
-0.324622,0.0263036,2.517,2.53798
-0.316453,0.0263036,2.517,2.53695
-0.308283,0.0263036,2.517,2.53595
-0.300114,0.0263036,2.517,2.53497
-0.291944,0.0263036,2.517,2.53401
-0.283775,0.0263036,2.517,2.53308
-0.275605,0.0263036,2.517,2.53218
-0.267435,0.0263036,2.517,2.5313
-0.257412,0.0261154,2.499,2.51236
-0.249301,0.0261154,2.499,2.51154
-0.24119,0.0261154,2.499,2.51075
-0.233078,0.0261154,2.499,2.50998
-0.224967,0.0261154,2.499,2.50924
-0.216856,0.0261154,2.499,2.50853
-0.208745,0.0261154,2.499,2.50784
-0.200634,0.0261154,2.499,2.50718
-0.192523,0.0261154,2.499,2.50654
-0.184412,0.0261154,2.499,2.50593
-0.17757,0.0263036,2.517,2.52339
-0.169401,0.0263036,2.517,2.52283
-0.161231,0.0263036,2.517,2.5223
-0.153062,0.0263036,2.517,2.52179
-0.144892,0.0263036,2.517,2.5213
-0.136723,0.0263036,2.517,2.52085
-0.128553,0.0263036,2.517,2.52042
-0.120383,0.0263036,2.517,2.52001
-0.112214,0.0263036,2.517,2.51964
-0.10483,0.0265021,2.536,2.5383
-0.0965985,0.0265021,2.536,2.53798
-0.0883672,0.0265021,2.536,2.53768
-0.080136,0.0265021,2.536,2.5374
-0.0719048,0.0265021,2.536,2.53716
-0.0636736,0.0265021,2.536,2.53694
-0.0554423,0.0265021,2.536,2.53674
-0.0475648,0.0267007,2.555,2.55558
-0.0392719,0.0267007,2.555,2.55544
-0.030979,0.0267007,2.555,2.55533
-0.0225174,0.0265021,2.536,2.53624
-0.0142862,0.0265021,2.536,2.53618
-0.00605498,0.0265021,2.536,2.53615
0.00217625,0.0265021,2.536,2.53614
0.0103295,0.0263036,2.517,2.51716
0.0184991,0.0263036,2.517,2.51721
0.0264779,0.0261154,2.499,2.49928
0.034589,0.0261154,2.499,2.49938
0.0427002,0.0261154,2.499,2.4995
0.0508113,0.0261154,2.499,2.49965
0.0580736,0.0257392,2.463,2.46382
0.0660679,0.0257392,2.463,2.46402
0.0740622,0.0257392,2.463,2.46425
0.0820565,0.0257392,2.463,2.4645
0.0900507,0.0257392,2.463,2.46478
0.0973285,0.0255511,2.445,2.44707
0.105264,0.0255511,2.445,2.4474
0.114034,0.0257392,2.463,2.46577
0.122028,0.0257392,2.463,2.46616
0.130022,0.0257392,2.463,2.46656
0.138016,0.0257392,2.463,2.467
0.146011,0.0257392,2.463,2.46746
0.154005,0.0257392,2.463,2.46794
0.163183,0.0259273,2.481,2.4865
0.172478,0.0261154,2.499,2.50508
0.180589,0.0261154,2.499,2.50565
0.188701,0.0261154,2.499,2.50625
0.198229,0.0263036,2.517,2.52493
0.207957,0.0265021,2.536,2.54465
0.216188,0.0265021,2.536,2.54534
0.224419,0.0265021,2.536,2.54605
0.232651,0.0265021,2.536,2.54679
0.240882,0.0265021,2.536,2.54755
0.249113,0.0265021,2.536,2.54834
0.257344,0.0265021,2.536,2.54916
0.263586,0.0263036,2.517,2.5309
0.271755,0.0263036,2.517,2.53176
0.279925,0.0263036,2.517,2.53265
0.288094,0.0263036,2.517,2.53357
0.296264,0.0263036,2.517,2.53451
0.304434,0.0263036,2.517,2.53548
0.312603,0.0263036,2.517,2.53647
0.318479,0.0261154,2.499,2.51935
0.32659,0.0261154,2.499,2.52039
0.334701,0.0261154,2.499,2.52145
0.342812,0.0261154,2.499,2.52254
0.350923,0.0261154,2.499,2.52365
0.359034,0.0261154,2.499,2.52479
0.367146,0.0261154,2.499,2.52596
0.375257,0.0261154,2.499,2.52715
0.383368,0.0261154,2.499,2.52837
0.391479,0.0261154,2.499,2.52961
0.39959,0.0261154,2.499,2.53088
0.407701,0.0261154,2.499,2.53217
0.415812,0.0261154,2.499,2.53349
0.423923,0.0261154,2.499,2.53484
0.432035,0.0261154,2.499,2.53621
0.440146,0.0261154,2.499,2.5376
0.448257,0.0261154,2.499,2.53902
0.456368,0.0261154,2.499,2.54046
0.464479,0.0261154,2.499,2.54193
0.47259,0.0261154,2.499,2.54343
0.480701,0.0261154,2.499,2.54495
0.488812,0.0261154,2.499,2.54649
0.496924,0.0261154,2.499,2.54806
0.505035,0.0261154,2.499,2.54966
0.516842,0.0263036,2.517,2.56965
0.525012,0.0263036,2.517,2.57131
0.533181,0.0263036,2.517,2.57299
0.541351,0.0263036,2.517,2.57469
0.54952,0.0263036,2.517,2.57642
0.55769,0.0263036,2.517,2.57818
0.565859,0.0263036,2.517,2.57996
0.574029,0.0263036,2.517,2.58176
0.582199,0.0263036,2.517,2.58359
0.590368,0.0263036,2.517,2.58544
0.598538,0.0263036,2.517,2.58732
0.606707,0.0263036,2.517,2.58922
0.610479,0.0261154,2.499,2.57262
0.618591,0.0261154,2.499,2.57456
0.626702,0.0261154,2.499,2.57652
0.634813,0.0261154,2.499,2.5785
0.642924,0.0261154,2.499,2.58051
0.651035,0.0261154,2.499,2.58254
0.659146,0.0261154,2.499,2.5846
0.667257,0.0261154,2.499,2.58668
0.675369,0.0261154,2.499,2.58878
0.68348,0.0261154,2.499,2.59091
0.691591,0.0261154,2.499,2.59306
0.699702,0.0261154,2.499,2.59524
0.707813,0.0261154,2.499,2.59744
0.715924,0.0261154,2.499,2.59966
0.729251,0.0263036,2.517,2.62065
0.73742,0.0263036,2.517,2.62293
0.74559,0.0263036,2.517,2.62524
0.753759,0.0263036,2.517,2.62757
0.761929,0.0263036,2.517,2.62993
0.770098,0.0263036,2.517,2.63231
0.778268,0.0263036,2.517,2.63471
0.786437,0.0263036,2.517,2.63713
0.794607,0.0263036,2.517,2.63958
0.802777,0.0263036,2.517,2.64205
0.810946,0.0263036,2.517,2.64454
0.819116,0.0263036,2.517,2.64706
0.827285,0.0263036,2.517,2.6496
0.82948,0.0261154,2.499,2.6332
0.837591,0.0261154,2.499,2.63576
0.845702,0.0261154,2.499,2.63835
0.853814,0.0261154,2.499,2.64096
0.861925,0.0261154,2.499,2.6436
0.863769,0.0259273,2.481,2.62719
0.871822,0.0259273,2.481,2.62985
0.879874,0.0259273,2.481,2.63253
0.887927,0.0259273,2.481,2.63523
0.889479,0.0257392,2.463,2.61882
0.897474,0.0257392,2.463,2.62154
0.905468,0.0257392,2.463,2.62429
0.913462,0.0257392,2.463,2.62706
0.921457,0.0257392,2.463,2.62985
0.929451,0.0257392,2.463,2.63266
0.937445,0.0257392,2.463,2.6355
0.93853,0.0255511,2.445,2.61907
0.946466,0.0255511,2.445,2.62192
0.954402,0.0255511,2.445,2.6248
0.955646,0.0253735,2.428,2.60942
0.963527,0.0253735,2.428,2.61232
0.971408,0.0253735,2.428,2.61524
0.979289,0.0253735,2.428,2.61817
0.987169,0.0253735,2.428,2.62113
0.99505,0.0253735,2.428,2.62411
1.00293,0.0253735,2.428,2.62711
1.00373,0.0251958,2.411,2.61171
1.01156,0.0251958,2.411,2.61473
1.01938,0.0251958,2.411,2.61777
1.02721,0.0251958,2.411,2.62082
1.04233,0.0253735,2.428,2.6424
1.05021,0.0253735,2.428,2.64552
1.0655,0.0255511,2.445,2.6672
1.08134,0.0257392,2.463,2.69004
1.08934,0.0257392,2.463,2.69327
1.11337,0.0261154,2.499,2.73592
1.12956,0.0263036,2.517,2.75896
1.14632,0.0265021,2.536,2.78317
1.15455,0.0265021,2.536,2.78657
1.1802,0.0268992,2.574,2.8318
1.20657,0.0273068,2.613,2.87825
1.21505,0.0273068,2.613,2.88181
1.24273,0.0277353,2.654,2.93067
1.26124,0.0279547,2.675,2.95756
1.26992,0.0279547,2.675,2.96127
1.27861,0.0279547,2.675,2.965
1.29739,0.0281742,2.696,2.99206
1.31632,0.0283936,2.717,3.0192
1.32514,0.0283936,2.717,3.02306
1.33396,0.0283936,2.717,3.02694
1.35365,0.0286235,2.739,3.05537
1.36254,0.0286235,2.739,3.05932
1.38244,0.0288534,2.761,3.0879
1.3914,0.0288534,2.761,3.09192
1.40037,0.0288534,2.761,3.09596
1.4323,0.0293237,2.806,3.15055
1.45322,0.0295641,2.829,3.18056
1.48722,0.0300657,2.877,3.2388
1.49655,0.0300657,2.877,3.2431
1.51845,0.0303165,2.901,3.27451
1.5542,0.030839,2.951,3.3354
1.56378,0.030839,2.951,3.33987
1.58722,0.0311107,2.977,3.37384
1.61083,0.0313824,3.003,3.4079
1.62058,0.0313824,3.003,3.41252
1.64498,0.0316646,3.03,3.44788
1.66956,0.0319467,3.057,3.48335
1.67949,0.0319467,3.057,3.48811
1.68941,0.0319467,3.057,3.4929
1.69933,0.0319467,3.057,3.49771
1.70925,0.0319467,3.057,3.50254
1.71917,0.0319467,3.057,3.5074
1.71383,0.0316646,3.03,3.48125
1.72366,0.0316646,3.03,3.4861
1.73349,0.0316646,3.03,3.49098
1.74333,0.0316646,3.03,3.49587
1.75316,0.0316646,3.03,3.50078
1.74729,0.0313824,3.003,3.47448
1.75704,0.0313824,3.003,3.47939
1.75149,0.0311107,2.977,3.45416
1.76115,0.0311107,2.977,3.45907
1.75535,0.030839,2.951,3.43374
1.74997,0.0305777,2.926,3.40952
1.75947,0.0305777,2.926,3.4144
1.76897,0.0305777,2.926,3.41931
1.76327,0.0303165,2.901,3.39497
1.77268,0.0303165,2.901,3.39987
1.76736,0.0300657,2.877,3.37662
1.76187,0.0298149,2.853,3.35331
1.77113,0.0298149,2.853,3.35819
1.76542,0.0295641,2.829,3.33479
1.76017,0.0293237,2.806,3.31251
1.76928,0.0293237,2.806,3.31735
1.76381,0.0290833,2.783,3.29499
1.74481,0.0286235,2.739,3.24766
1.7537,0.0286235,2.739,3.25245
1.76259,0.0286235,2.739,3.25725
1.74367,0.0281742,2.696,3.21086
1.73877,0.0279547,2.675,3.19057
1.74746,0.0279547,2.675,3.19531
1.74235,0.0277353,2.654,3.17494
1.73711,0.0275158,2.633,3.15452
1.74566,0.0275158,2.633,3.15923
1.74088,0.0273068,2.613,3.13993
1.73597,0.0270978,2.593,3.12057
1.74439,0.0270978,2.593,3.12526
1.72711,0.0267007,2.555,3.0841
1.7225,0.0265021,2.536,3.06578
-1.97922,0.0390724,2.853,3.47253
-1.95339,0.0387437,2.829,3.43809
-1.94421,0.0387437,2.829,3.43288
-1.91929,0.0384287,2.806,3.39982
-1.89453,0.0381137,2.783,3.36686
-1.88549,0.0381137,2.783,3.36179
-1.86163,0.0378124,2.761,3.3302
-1.82314,0.0372098,2.717,3.2722
-1.81432,0.0372098,2.717,3.2673
-1.8055,0.0372098,2.717,3.26241
-1.7828,0.0369222,2.696,3.23236
-1.77405,0.0369222,2.696,3.22754
-1.7653,0.0369222,2.696,3.22274
-1.74286,0.0366346,2.675,3.19289
-1.73418,0.0366346,2.675,3.18816
-1.7255,0.0366346,2.675,3.18344
