-0.983945,-0.0452139,2.411,2.60444
-0.976119,-0.0452139,2.411,2.60149
-0.968294,-0.0452139,2.411,2.59857
-0.960468,-0.0452139,2.411,2.59566
-0.952643,-0.0452139,2.411,2.59278
-0.944817,-0.0452139,2.411,2.58991
-0.936992,-0.0452139,2.411,2.58707
-0.929166,-0.0452139,2.411,2.58424
-0.927837,-0.0455327,2.428,2.59964
-0.919957,-0.0455327,2.428,2.59684
-0.912076,-0.0455327,2.428,2.59406
-0.904195,-0.0455327,2.428,2.5913
-0.896315,-0.0455327,2.428,2.58856
-0.888434,-0.0455327,2.428,2.58584
-0.880553,-0.0455327,2.428,2.58314
-0.872672,-0.0455327,2.428,2.58047
-0.864792,-0.0455327,2.428,2.57781
-0.850911,-0.0452139,2.411,2.55715
-0.843086,-0.0452139,2.411,2.55456
-0.83526,-0.0452139,2.411,2.55198
-0.827435,-0.0452139,2.411,2.54943
-0.81383,-0.0448951,2.394,2.52895
-0.80606,-0.0448951,2.394,2.52646
-0.79829,-0.0448951,2.394,2.52399
-0.790519,-0.0448951,2.394,2.52154
-0.782749,-0.0448951,2.394,2.51912
-0.774979,-0.0448951,2.394,2.51671
-0.767208,-0.0448951,2.394,2.51433
-0.759438,-0.0448951,2.394,2.51197
-0.751668,-0.0448951,2.394,2.50963
-0.743897,-0.0448951,2.394,2.50732
-0.736127,-0.0448951,2.394,2.50502
-0.728357,-0.0448951,2.394,2.50275
-0.720586,-0.0448951,2.394,2.5005
-0.712816,-0.0448951,2.394,2.49827
-0.705046,-0.0448951,2.394,2.49607
-0.697275,-0.0448951,2.394,2.49388
-0.694401,-0.0452139,2.411,2.50941
-0.686576,-0.0452139,2.411,2.50726
-0.683536,-0.0455327,2.428,2.52279
-0.675655,-0.0455327,2.428,2.52067
-0.667775,-0.0455327,2.428,2.51857
-0.659894,-0.0455327,2.428,2.51649
-0.652013,-0.0455327,2.428,2.51443
-0.644133,-0.0455327,2.428,2.5124
-0.636252,-0.0455327,2.428,2.51039
-0.628371,-0.0455327,2.428,2.50841
-0.624835,-0.0458515,2.445,2.52399
-0.616899,-0.0458515,2.445,2.52204
-0.608963,-0.0458515,2.445,2.52011
-0.601027,-0.0458515,2.445,2.51821
-0.597458,-0.0461891,2.463,2.53485
-0.589464,-0.0461891,2.463,2.53298
-0.581469,-0.0461891,2.463,2.53113
-0.573475,-0.0461891,2.463,2.5293
-0.565481,-0.0461891,2.463,2.5275
-0.557486,-0.0461891,2.463,2.52573
-0.549492,-0.0461891,2.463,2.52397
-0.545455,-0.0465266,2.481,2.54068
-0.537403,-0.0465266,2.481,2.53896
-0.52935,-0.0465266,2.481,2.53727
-0.525079,-0.0468642,2.499,2.554
-0.516968,-0.0468642,2.499,2.55234
-0.508857,-0.0468642,2.499,2.55071
-0.500746,-0.0468642,2.499,2.54911
-0.496183,-0.0472017,2.517,2.56588
-0.488013,-0.0472017,2.517,2.56431
-0.479844,-0.0472017,2.517,2.56277
-0.475235,-0.047558,2.536,2.58058
-0.467004,-0.047558,2.536,2.57908
-0.458772,-0.047558,2.536,2.5776
-0.450541,-0.047558,2.536,2.57615
-0.44231,-0.047558,2.536,2.57472
-0.434079,-0.047558,2.536,2.57332
-0.425848,-0.047558,2.536,2.57195
-0.417616,-0.047558,2.536,2.5706
-0.409385,-0.047558,2.536,2.56927
-0.398148,-0.0472017,2.517,2.54873
-0.389979,-0.0472017,2.517,2.54747
-0.381809,-0.0472017,2.517,2.54623
-0.37364,-0.0472017,2.517,2.54502
-0.36547,-0.0472017,2.517,2.54383
-0.357301,-0.0472017,2.517,2.54267
-0.349131,-0.0472017,2.517,2.54154
-0.340961,-0.0472017,2.517,2.54043
-0.332792,-0.0472017,2.517,2.53934
-0.324622,-0.0472017,2.517,2.53829
-0.316453,-0.0472017,2.517,2.53725
-0.308283,-0.0472017,2.517,2.53625
-0.300114,-0.0472017,2.517,2.53527
-0.291944,-0.0472017,2.517,2.53431
-0.283775,-0.0472017,2.517,2.53339
-0.275605,-0.0472017,2.517,2.53248
-0.265523,-0.0468642,2.499,2.5135
-0.257412,-0.0468642,2.499,2.51266
-0.249301,-0.0468642,2.499,2.51184
-0.24119,-0.0468642,2.499,2.51105
-0.233078,-0.0468642,2.499,2.51028
-0.224967,-0.0468642,2.499,2.50954
-0.216856,-0.0468642,2.499,2.50883
-0.208745,-0.0468642,2.499,2.50814
-0.200634,-0.0468642,2.499,2.50748
-0.191136,-0.0465266,2.481,2.48879
-0.183083,-0.0465266,2.481,2.48818
-0.175031,-0.0465266,2.481,2.4876
-0.166978,-0.0465266,2.481,2.48705
-0.158925,-0.0465266,2.481,2.48652
-0.150872,-0.0465266,2.481,2.48602
-0.143856,-0.0468642,2.499,2.50358
-0.135745,-0.0468642,2.499,2.50312
-0.127634,-0.0468642,2.499,2.5027
-0.119523,-0.0468642,2.499,2.5023
-0.111411,-0.0468642,2.499,2.50192
-0.1033,-0.0468642,2.499,2.50157
-0.0951891,-0.0468642,2.499,2.50125
-0.087078,-0.0468642,2.499,2.50096
-0.0789668,-0.0468642,2.499,2.50069
-0.0708557,-0.0468642,2.499,2.50044
-0.0627446,-0.0468642,2.499,2.50023
-0.0546334,-0.0468642,2.499,2.50004
-0.0465223,-0.0468642,2.499,2.49987
-0.0384112,-0.0468642,2.499,2.49973
-0.0300818,-0.0465266,2.481,2.48162
-0.0220291,-0.0465266,2.481,2.48153
-0.0139764,-0.0465266,2.481,2.48148
-0.00592366,-0.0465266,2.481,2.48144
0.00212905,-0.0465266,2.481,2.48144
0.0101818,-0.0465266,2.481,2.48146
0.0182345,-0.0465266,2.481,2.4815
0.0262872,-0.0465266,2.481,2.48158
0.0340907,-0.0461891,2.463,2.46367
0.042085,-0.0461891,2.463,2.46379
0.0500793,-0.0461891,2.463,2.46394
0.0580736,-0.0461891,2.463,2.46412
0.0660679,-0.0461891,2.463,2.46432
0.0740622,-0.0461891,2.463,2.46455
0.0826561,-0.0465266,2.481,2.48281
0.0907089,-0.0465266,2.481,2.48309
0.0987616,-0.0465266,2.481,2.4834
0.106814,-0.0465266,2.481,2.48373
0.114867,-0.0465266,2.481,2.48409
0.12292,-0.0465266,2.481,2.48448
0.130972,-0.0465266,2.481,2.48489
0.140034,-0.0468642,2.499,2.50336
0.148145,-0.0468642,2.499,2.50383
0.156256,-0.0468642,2.499,2.50432
0.164367,-0.0468642,2.499,2.50484
0.172478,-0.0468642,2.499,2.50538
0.180589,-0.0468642,2.499,2.50595
0.188701,-0.0468642,2.499,2.50655
0.198229,-0.0472017,2.517,2.52524
0.206399,-0.0472017,2.517,2.52589
0.214568,-0.0472017,2.517,2.52657
0.222738,-0.0472017,2.517,2.52728
0.230908,-0.0472017,2.517,2.52801
0.239077,-0.0472017,2.517,2.52877
0.247247,-0.0472017,2.517,2.52956
0.255416,-0.0472017,2.517,2.53037
0.263586,-0.0472017,2.517,2.5312
0.271755,-0.0472017,2.517,2.53207
0.279925,-0.0472017,2.517,2.53296
0.288094,-0.0472017,2.517,2.53387
0.296264,-0.0472017,2.517,2.53482
0.304434,-0.0472017,2.517,2.53578
0.312603,-0.0472017,2.517,2.53678
0.320773,-0.0472017,2.517,2.5378
0.328942,-0.0472017,2.517,2.53884
0.337112,-0.0472017,2.517,2.53991
0.345281,-0.0472017,2.517,2.54101
0.353451,-0.0472017,2.517,2.54213
0.36162,-0.0472017,2.517,2.54328
0.367146,-0.0468642,2.499,2.52626
0.375257,-0.0468642,2.499,2.52745
0.383368,-0.0468642,2.499,2.52867
0.391479,-0.0468642,2.499,2.52991
0.39959,-0.0468642,2.499,2.53118
0.407701,-0.0468642,2.499,2.53247
0.415812,-0.0468642,2.499,2.53379
0.423923,-0.0468642,2.499,2.53513
0.432035,-0.0468642,2.499,2.5365
0.440146,-0.0468642,2.499,2.5379
0.445028,-0.0465266,2.481,2.52103
0.453081,-0.0465266,2.481,2.52246
0.461134,-0.0465266,2.481,2.52392
0.469186,-0.0465266,2.481,2.5254
0.477239,-0.0465266,2.481,2.52691
0.488812,-0.0468642,2.499,2.54679
0.496924,-0.0468642,2.499,2.54836
0.501397,-0.0465266,2.481,2.53159
0.50945,-0.0465266,2.481,2.53319
0.521257,-0.0468642,2.499,2.55322
0.529368,-0.0468642,2.499,2.55488
0.537479,-0.0468642,2.499,2.55658
0.54559,-0.0468642,2.499,2.55829
0.553702,-0.0468642,2.499,2.56004
0.561813,-0.0468642,2.499,2.5618
0.574029,-0.0472017,2.517,2.58206
0.578035,-0.0468642,2.499,2.56541
0.586146,-0.0468642,2.499,2.56725
0.594257,-0.0468642,2.499,2.56911
0.602368,-0.0468642,2.499,2.571
0.610479,-0.0468642,2.499,2.57291
0.618591,-0.0468642,2.499,2.57485
0.631216,-0.0472017,2.517,2.59537
0.639385,-0.0472017,2.517,2.59737
0.647555,-0.0472017,2.517,2.59939
0.655725,-0.0472017,2.517,2.60144
0.663894,-0.0472017,2.517,2.60351
0.672064,-0.0472017,2.517,2.60561
0.680233,-0.0472017,2.517,2.60773
0.688403,-0.0472017,2.517,2.60987
0.696572,-0.0472017,2.517,2.61204
0.704742,-0.0472017,2.517,2.61423
0.712911,-0.0472017,2.517,2.61644
0.721081,-0.0472017,2.517,2.61868
0.729251,-0.0472017,2.517,2.62094
0.73742,-0.0472017,2.517,2.62322
0.74559,-0.0472017,2.517,2.62553
0.753759,-0.0472017,2.517,2.62786
0.761929,-0.0472017,2.517,2.63022
0.764591,-0.0468642,2.499,2.61377
0.772702,-0.0468642,2.499,2.61615
0.780813,-0.0468642,2.499,2.61856
0.788924,-0.0468642,2.499,2.62099
0.797036,-0.0468642,2.499,2.62345
0.805147,-0.0468642,2.499,2.62592
0.813258,-0.0468642,2.499,2.62842
0.821369,-0.0468642,2.499,2.63094
0.823505,-0.0465266,2.481,2.61451
0.831558,-0.0465266,2.481,2.61706
0.839611,-0.0465266,2.481,2.61963
0.847664,-0.0465266,2.481,2.62222
0.855716,-0.0465266,2.481,2.62484
0.863769,-0.0465266,2.481,2.62747
0.865497,-0.0461891,2.463,2.61105
0.873491,-0.0461891,2.463,2.61371
0.881485,-0.0461891,2.463,2.61639
0.889479,-0.0461891,2.463,2.6191
0.897474,-0.0461891,2.463,2.62182
0.905468,-0.0461891,2.463,2.62457
0.906787,-0.0458515,2.445,2.60814
0.914722,-0.0458515,2.445,2.61091
0.922658,-0.0458515,2.445,2.6137
0.924124,-0.0455327,2.428,2.59832
0.932004,-0.0455327,2.428,2.60113
0.939885,-0.0455327,2.428,2.60397
0.947766,-0.0455327,2.428,2.60682
0.955646,-0.0455327,2.428,2.6097
0.963527,-0.0455327,2.428,2.61259
0.971408,-0.0455327,2.428,2.61551
0.979289,-0.0455327,2.428,2.61845
0.987169,-0.0455327,2.428,2.6214
1.00202,-0.0458515,2.445,2.64276
1.00995,-0.0458515,2.445,2.64578
1.02538,-0.0461891,2.463,2.66832
1.04093,-0.0465266,2.481,2.69092
1.04898,-0.0465266,2.481,2.69405
1.07237,-0.0472017,2.517,2.73633
1.09685,-0.0479144,2.555,2.7809
1.10515,-0.0479144,2.555,2.78418
1.13,-0.048627,2.593,2.82894
1.15598,-0.0493771,2.633,2.87601
1.1831,-0.0501647,2.675,2.92538
1.19178,-0.0501647,2.675,2.92891
1.20989,-0.0505585,2.696,2.95547
1.21864,-0.0505585,2.696,2.95906
1.22739,-0.0505585,2.696,2.96268
1.24577,-0.0509524,2.717,2.98942
1.25459,-0.0509524,2.717,2.9931
1.26341,-0.0509524,2.717,2.99681
1.28253,-0.0513649,2.739,3.02484
1.29142,-0.0513649,2.739,3.02862
1.30031,-0.0513649,2.739,3.03242
1.3092,-0.0513649,2.739,3.03624
1.31809,-0.0513649,2.739,3.04008
1.33764,-0.0517775,2.761,3.0684
1.3466,-0.0517775,2.761,3.07232
1.35556,-0.0517775,2.761,3.07625
1.38676,-0.0526214,2.806,3.13042
1.39587,-0.0526214,2.806,3.13446
1.42851,-0.0535028,2.853,3.1911
1.44986,-0.0539529,2.877,3.22213
1.4592,-0.0539529,2.877,3.22635
1.49355,-0.0548718,2.926,3.2856
1.51589,-0.0553406,2.951,3.31804
1.55235,-0.0563158,3.003,3.38097
1.5621,-0.0563158,3.003,3.38546
1.58598,-0.0568221,3.03,3.42045
1.62425,-0.0578348,3.084,3.48606
1.63426,-0.0578348,3.084,3.49073
1.6592,-0.0583599,3.112,3.52716
1.68485,-0.0589037,3.141,3.56484
1.7107,-0.0594476,3.17,3.60263
1.72099,-0.0594476,3.17,3.60753
1.74712,-0.0599914,3.199,3.64549
1.7575,-0.0599914,3.199,3.65048
1.76788,-0.0599914,3.199,3.65549
1.77827,-0.0599914,3.199,3.66052
1.78865,-0.0599914,3.199,3.66558
1.79903,-0.0599914,3.199,3.67066
1.80941,-0.0599914,3.199,3.67576
1.8198,-0.0599914,3.199,3.68088
1.83018,-0.0599914,3.199,3.68602
1.82388,-0.0594476,3.17,3.65773
1.83417,-0.0594476,3.17,3.66287
1.84446,-0.0594476,3.17,3.66803
1.85475,-0.0594476,3.17,3.67322
1.84797,-0.0589037,3.141,3.64477
1.85817,-0.0589037,3.141,3.64995
1.86836,-0.0589037,3.141,3.65515
1.87856,-0.0589037,3.141,3.66037
1.88875,-0.0589037,3.141,3.66562
1.88142,-0.0583599,3.112,3.63699
1.8745,-0.0578348,3.084,3.60945
1.88451,-0.0578348,3.084,3.61466
1.87793,-0.0573284,3.057,3.5882
1.87118,-0.0568221,3.03,3.56166
1.88101,-0.0568221,3.03,3.56684
1.874,-0.0563158,3.003,3.54021
1.86744,-0.0558282,2.977,3.51468
1.86071,-0.0553406,2.951,3.48908
1.87028,-0.0553406,2.951,3.4942
1.84801,-0.0544029,2.901,3.44004
1.81133,-0.0530527,2.829,3.35961
1.82051,-0.0530527,2.829,3.36457
1.79994,-0.0521901,2.783,3.31475
1.78037,-0.0513649,2.739,3.26718
1.78926,-0.0513649,2.739,3.27204
1.76992,-0.0505585,2.696,3.22546
1.75097,-0.0497709,2.654,3.17995
1.75958,-0.0497709,2.654,3.1847
1.74088,-0.049002,2.613,3.1402
1.71053,-0.0479144,2.555,3.0751
1.71882,-0.0479144,2.555,3.07972
1.70143,-0.0472017,2.517,3.03848
1.68515,-0.0465266,2.481,2.99954
-1.96257,-0.0438731,2.829,3.44338
-1.93751,-0.0435164,2.806,3.4102
-1.9284,-0.0435164,2.806,3.40503
-1.90356,-0.0431597,2.783,3.37202
-1.86457,-0.0424773,2.739,3.31369
-1.85568,-0.0424773,2.739,3.3087
-1.84679,-0.0424773,2.739,3.30372
-1.82314,-0.0421361,2.717,3.27226
-1.81432,-0.0421361,2.717,3.26736
-1.8055,-0.0421361,2.717,3.26247
-1.7828,-0.0418105,2.696,3.23242
-1.77405,-0.0418105,2.696,3.2276
-1.7653,-0.0418105,2.696,3.2228
-1.75655,-0.0418105,2.696,3.21801
-1.7478,-0.0418105,2.696,3.21325
-1.73905,-0.0418105,2.696,3.2085
-1.73029,-0.0418105,2.696,3.20376
-1.70813,-0.0414848,2.675,3.17412
-1.69945,-0.0414848,2.675,3.16946
-1.69077,-0.0414848,2.675,3.16481
-1.68209,-0.0414848,2.675,3.16018
-1.68654,-0.0418105,2.696,3.18034
-1.67779,-0.0418105,2.696,3.17571
-1.66904,-0.0418105,2.696,3.1711
-1.66029,-0.0418105,2.696,3.1665
-1.6644,-0.0421361,2.717,3.18655
-1.65559,-0.0421361,2.717,3.18195
-1.6601,-0.0424773,2.739,3.2031
-1.66447,-0.0428185,2.761,3.22419
-1.65551,-0.0428185,2.761,3.21958
-1.65967,-0.0431597,2.783,3.2406
-1.66428,-0.0435164,2.806,3.26272
-1.66874,-0.0438731,2.829,3.28479
-1.65956,-0.0438731,2.829,3.28014
nan,nan,nan,NaN
nan,nan,nan,NaN
nan,nan,nan,NaN
nan,nan,nan,NaN
nan,nan,nan,NaN
nan,nan,nan,NaN
nan,nan,nan,NaN
nan,nan,nan,NaN
nan,nan,nan,NaN
-1.53005,-0.0428185,2.761,3.1569
-1.52109,-0.0428185,2.761,3.15257
-1.51213,-0.0428185,2.761,3.14825
-1.50317,-0.0428185,2.761,3.14396
-1.50611,-0.0431597,2.783,3.1647
-1.50945,-0.0435164,2.806,3.18653
-1.50034,-0.0435164,2.806,3.18223
-1.49124,-0.0435164,2.806,3.17794
-1.49428,-0.0438731,2.829,3.19969
-1.48509,-0.0438731,2.829,3.19541
-1.47591,-0.0438731,2.829,3.19116
-1.47917,-0.0442453,2.853,3.21396
-1.49464,-0.0449897,2.901,3.26371
-1.47294,-0.0446175,2.877,3.23244
-1.43918,-0.0438731,2.829,3.17434
-1.43,-0.0438731,2.829,3.17018
-1.39772,-0.0431597,2.783,3.11457
-1.34527,-0.0418105,2.696,3.01329
-1.33652,-0.0418105,2.696,3.00939
-1.30708,-0.0411591,2.654,2.9587
-1.27841,-0.0405233,2.613,2.90925
-1.26993,-0.0405233,2.613,2.90554
-1.24262,-0.0399185,2.574,2.85853
-1.22516,-0.0396238,2.555,2.83383
-1.20781,-0.0393291,2.536,2.80921
-1.19958,-0.0393291,2.536,2.80568
-1.17397,-0.0387553,2.499,2.76129
-1.15746,-0.0384762,2.481,2.73798
-1.14941,-0.0384762,2.481,2.73459
-1.12479,-0.0379179,2.445,2.69158
-1.10909,-0.0376542,2.428,2.66959
-1.10121,-0.0376542,2.428,2.66632
-1.09333,-0.0376542,2.428,2.66308
-1.07785,-0.0373906,2.411,2.64123
-1.07003,-0.0373906,2.411,2.63804
-1.05471,-0.037127,2.394,2.6163
-1.04694,-0.037127,2.394,2.61318
-1.03917,-0.037127,2.394,2.61007
-1.0314,-0.037127,2.394,2.60699
-1.02363,-0.037127,2.394,2.60393
-1.01586,-0.037127,2.394,2.60088
-1.00809,-0.037127,2.394,2.59786
-1.00032,-0.037127,2.394,2.59485
-0.992548,-0.037127,2.394,2.59187
-0.99177,-0.0373906,2.411,2.60728
-0.983945,-0.0373906,2.411,2.60432
-0.976119,-0.0373906,2.411,2.60137
-0.968294,-0.0373906,2.411,2.59844
-0.960468,-0.0373906,2.411,2.59554
-0.952643,-0.0373906,2.411,2.59265
-0.944817,-0.0373906,2.411,2.58979
-0.943599,-0.0376542,2.428,2.60518
-0.935718,-0.0376542,2.428,2.60234
-0.927837,-0.0376542,2.428,2.59952
-0.919957,-0.0376542,2.428,2.59671
-0.912076,-0.0376542,2.428,2.59393
-0.904195,-0.0376542,2.428,2.59117
-0.896315,-0.0376542,2.428,2.58843
-0.888434,-0.0376542,2.428,2.58571
-0.880553,-0.0376542,2.428,2.58302
-0.872672,-0.0376542,2.428,2.58034
-0.864792,-0.0376542,2.428,2.57769
-0.856911,-0.0376542,2.428,2.57505
-0.843086,-0.0373906,2.411,2.55443
-0.83526,-0.0373906,2.411,2.55186
-0.827435,-0.0373906,2.411,2.54931
-0.819609,-0.0373906,2.411,2.54678
-0.811784,-0.0373906,2.411,2.54427
-0.79829,-0.037127,2.394,2.52386
-0.790519,-0.037127,2.394,2.52142
-0.782749,-0.037127,2.394,2.51899
-0.774979,-0.037127,2.394,2.51659
-0.767208,-0.037127,2.394,2.5142
-0.759438,-0.037127,2.394,2.51184
-0.751668,-0.037127,2.394,2.50951
-0.743897,-0.037127,2.394,2.50719
-0.736127,-0.037127,2.394,2.50489
-0.728357,-0.037127,2.394,2.50262
-0.720586,-0.037127,2.394,2.50037
-0.717878,-0.0373906,2.411,2.51588
-0.710052,-0.0373906,2.411,2.51366
-0.702227,-0.0373906,2.411,2.51146
-0.694401,-0.0373906,2.411,2.50929
-0.691417,-0.0376542,2.428,2.52481
-0.683536,-0.0376542,2.428,2.52266
-0.675655,-0.0376542,2.428,2.52054
-0.667775,-0.0376542,2.428,2.51844
-0.659894,-0.0376542,2.428,2.51636
-0.652013,-0.0376542,2.428,2.5143
-0.648643,-0.0379179,2.445,2.52986
-0.640707,-0.0379179,2.445,2.52784
-0.632771,-0.0379179,2.445,2.52584
-0.624835,-0.0379179,2.445,2.52386
-0.616899,-0.0379179,2.445,2.52191
-0.613446,-0.038197,2.463,2.53853
-0.605452,-0.038197,2.463,2.53661
-0.597458,-0.038197,2.463,2.53472
-0.589464,-0.038197,2.463,2.53284
-0.581469,-0.038197,2.463,2.53099
-0.573475,-0.038197,2.463,2.52917
-0.565481,-0.038197,2.463,2.52737
-0.557486,-0.038197,2.463,2.52559
-0.553508,-0.0384762,2.481,2.54228
-0.545455,-0.0384762,2.481,2.54054
-0.537403,-0.0384762,2.481,2.53883
-0.52935,-0.0384762,2.481,2.53713
-0.525079,-0.0387553,2.499,2.55386
-0.516968,-0.0387553,2.499,2.55221
-0.508857,-0.0387553,2.499,2.55058
-0.504353,-0.0390345,2.517,2.56733
-0.496183,-0.0390345,2.517,2.56574
-0.488013,-0.0390345,2.517,2.56417
-0.479844,-0.0390345,2.517,2.56263
-0.475235,-0.0393291,2.536,2.58044
-0.467004,-0.0393291,2.536,2.57894
-0.458772,-0.0393291,2.536,2.57746
-0.450541,-0.0393291,2.536,2.57601
-0.44231,-0.0393291,2.536,2.57458
-0.434079,-0.0393291,2.536,2.57318
-0.425848,-0.0393291,2.536,2.57181
-0.417616,-0.0393291,2.536,2.57046
-0.409385,-0.0393291,2.536,2.56913
-0.398148,-0.0390345,2.517,2.54859
-0.389979,-0.0390345,2.517,2.54733
-0.381809,-0.0390345,2.517,2.54609
-0.37364,-0.0390345,2.517,2.54488
-0.36547,-0.0390345,2.517,2.54369
-0.357301,-0.0390345,2.517,2.54253
-0.349131,-0.0390345,2.517,2.5414
-0.340961,-0.0390345,2.517,2.54029
-0.332792,-0.0390345,2.517,2.53921
-0.324622,-0.0390345,2.517,2.53815
-0.316453,-0.0390345,2.517,2.53712
-0.308283,-0.0390345,2.517,2.53611
-0.300114,-0.0390345,2.517,2.53513
-0.291944,-0.0390345,2.517,2.53418
-0.283775,-0.0390345,2.517,2.53325
-0.275605,-0.0390345,2.517,2.53235
-0.265523,-0.0387553,2.499,2.51337
-0.257412,-0.0387553,2.499,2.51252
-0.249301,-0.0387553,2.499,2.5117
-0.24119,-0.0387553,2.499,2.51091
-0.233078,-0.0387553,2.499,2.51015
-0.224967,-0.0387553,2.499,2.5094
-0.216856,-0.0387553,2.499,2.50869
-0.208745,-0.0387553,2.499,2.508
-0.200634,-0.0387553,2.499,2.50734
-0.191136,-0.0384762,2.481,2.48865
-0.183083,-0.0384762,2.481,2.48804
-0.175031,-0.0384762,2.481,2.48746
-0.166978,-0.0384762,2.481,2.48691
-0.158925,-0.0384762,2.481,2.48638
-0.150872,-0.0384762,2.481,2.48588
-0.143856,-0.0387553,2.499,2.50344
-0.135745,-0.0387553,2.499,2.50298
-0.127634,-0.0387553,2.499,2.50256
-0.119523,-0.0387553,2.499,2.50216
-0.111411,-0.0387553,2.499,2.50178
-0.1033,-0.0387553,2.499,2.50143
-0.0951891,-0.0387553,2.499,2.50111
-0.087078,-0.0387553,2.499,2.50082
-0.0789668,-0.0387553,2.499,2.50055
-0.0708557,-0.0387553,2.499,2.5003
-0.0627446,-0.0387553,2.499,2.50009
-0.0546334,-0.0387553,2.499,2.4999
-0.0465223,-0.0387553,2.499,2.49973
-0.0384112,-0.0387553,2.499,2.4996
-0.0300818,-0.0384762,2.481,2.48148
-0.0220291,-0.0384762,2.481,2.4814
-0.0139764,-0.0384762,2.481,2.48134
-0.00592366,-0.0384762,2.481,2.48131
0.00212905,-0.0384762,2.481,2.4813
0.0101818,-0.0384762,2.481,2.48132
0.0182345,-0.0384762,2.481,2.48137
0.0262872,-0.0384762,2.481,2.48144
0.0340907,-0.038197,2.463,2.46353
0.042085,-0.038197,2.463,2.46366
0.0500793,-0.038197,2.463,2.46381
0.0580736,-0.038197,2.463,2.46398
0.0660679,-0.038197,2.463,2.46418
0.0740622,-0.038197,2.463,2.46441
0.0826561,-0.0384762,2.481,2.48267
0.0907089,-0.0384762,2.481,2.48296
0.0987616,-0.0384762,2.481,2.48326
0.106814,-0.0384762,2.481,2.4836
0.114867,-0.0384762,2.481,2.48396
0.12292,-0.0384762,2.481,2.48434
0.130972,-0.0384762,2.481,2.48475
0.140034,-0.0387553,2.499,2.50322
0.148145,-0.0387553,2.499,2.50369
0.156256,-0.0387553,2.499,2.50418
0.165551,-0.0390345,2.517,2.52274
0.173721,-0.0390345,2.517,2.52329
0.18189,-0.0390345,2.517,2.52387
0.19006,-0.0390345,2.517,2.52447
0.198229,-0.0390345,2.517,2.5251
0.206399,-0.0390345,2.517,2.52575
0.214568,-0.0390345,2.517,2.52643
0.222738,-0.0390345,2.517,2.52714
0.232651,-0.0393291,2.536,2.54695
0.240882,-0.0393291,2.536,2.54772
0.249113,-0.0393291,2.536,2.54851
0.257344,-0.0393291,2.536,2.54933
0.265575,-0.0393291,2.536,2.55017
0.273807,-0.0393291,2.536,2.55104
0.282038,-0.0393291,2.536,2.55194
0.290269,-0.0393291,2.536,2.55286
0.2985,-0.0393291,2.536,2.55381
0.306732,-0.0393291,2.536,2.55479
0.314963,-0.0393291,2.536,2.55579
0.320773,-0.0390345,2.517,2.53766
0.328942,-0.0390345,2.517,2.5387
0.337112,-0.0390345,2.517,2.53978
0.345281,-0.0390345,2.517,2.54087
0.353451,-0.0390345,2.517,2.542
0.36162,-0.0390345,2.517,2.54314
0.36979,-0.0390345,2.517,2.54432
0.375257,-0.0387553,2.499,2.52731
0.383368,-0.0387553,2.499,2.52853
0.391479,-0.0387553,2.499,2.52977
0.39959,-0.0387553,2.499,2.53104
0.407701,-0.0387553,2.499,2.53234
0.415812,-0.0387553,2.499,2.53365
0.42087,-0.0384762,2.481,2.51674
0.428923,-0.0384762,2.481,2.5181
0.436975,-0.0384762,2.481,2.51948
0.445028,-0.0384762,2.481,2.52089
0.453081,-0.0384762,2.481,2.52233
0.461134,-0.0384762,2.481,2.52378
0.469186,-0.0384762,2.481,2.52527
0.477239,-0.0384762,2.481,2.52678
0.485292,-0.0384762,2.481,2.52831
0.493344,-0.0384762,2.481,2.52987
0.501397,-0.0384762,2.481,2.53145
0.50945,-0.0384762,2.481,2.53306
0.521257,-0.0387553,2.499,2.55308
0.529368,-0.0387553,2.499,2.55475
0.537479,-0.0387553,2.499,2.55644
0.54559,-0.0387553,2.499,2.55816
0.553702,-0.0387553,2.499,2.5599
0.561813,-0.0387553,2.499,2.56167
0.574029,-0.0390345,2.517,2.58192
0.578035,-0.0387553,2.499,2.56527
0.586146,-0.0387553,2.499,2.56711
0.594257,-0.0387553,2.499,2.56898
0.602368,-0.0387553,2.499,2.57087
0.610479,-0.0387553,2.499,2.57278
0.618591,-0.0387553,2.499,2.57472
0.626702,-0.0387553,2.499,2.57668
0.634813,-0.0387553,2.499,2.57866
0.647555,-0.0390345,2.517,2.59926
0.655725,-0.0390345,2.517,2.60131
0.663894,-0.0390345,2.517,2.60338
0.672064,-0.0390345,2.517,2.60547
0.680233,-0.0390345,2.517,2.60759
0.688403,-0.0390345,2.517,2.60973
0.691591,-0.0387553,2.499,2.59322
0.699702,-0.0387553,2.499,2.5954
0.707813,-0.0387553,2.499,2.5976
0.715924,-0.0387553,2.499,2.59982
0.724035,-0.0387553,2.499,2.60206
0.732147,-0.0387553,2.499,2.60433
0.740258,-0.0387553,2.499,2.60662
0.748369,-0.0387553,2.499,2.60894
0.75648,-0.0387553,2.499,2.61128
0.764591,-0.0387553,2.499,2.61364
0.772702,-0.0387553,2.499,2.61602
0.780813,-0.0387553,2.499,2.61843
0.788924,-0.0387553,2.499,2.62086
0.797036,-0.0387553,2.499,2.62331
0.805147,-0.0387553,2.499,2.62579
0.813258,-0.0387553,2.499,2.62829
0.821369,-0.0387553,2.499,2.63081
0.823505,-0.0384762,2.481,2.61438
0.831558,-0.0384762,2.481,2.61693
0.839611,-0.0384762,2.481,2.6195
0.847664,-0.0384762,2.481,2.62209
0.855716,-0.0384762,2.481,2.62471
0.863769,-0.0384762,2.481,2.62734
0.871822,-0.0384762,2.481,2.63
0.879874,-0.0384762,2.481,2.63268
0.881485,-0.038197,2.463,2.61627
0.889479,-0.038197,2.463,2.61897
0.897474,-0.038197,2.463,2.6217
0.905468,-0.038197,2.463,2.62444
0.906787,-0.0379179,2.445,2.60801
0.914722,-0.0379179,2.445,2.61078
0.922658,-0.0379179,2.445,2.61357
0.924124,-0.0376542,2.428,2.59819
0.932004,-0.0376542,2.428,2.60101
0.939885,-0.0376542,2.428,2.60384
0.947766,-0.0376542,2.428,2.6067
0.955646,-0.0376542,2.428,2.60957
0.963527,-0.0376542,2.428,2.61247
0.971408,-0.0376542,2.428,2.61538
0.979289,-0.0376542,2.428,2.61832
0.987169,-0.0376542,2.428,2.62128
1.00202,-0.0379179,2.445,2.64263
1.00995,-0.0379179,2.445,2.64565
1.02538,-0.038197,2.463,2.66819
1.04093,-0.0384762,2.481,2.69079
1.04898,-0.0384762,2.481,2.69392
1.07237,-0.0390345,2.517,2.7362
1.09685,-0.0396238,2.555,2.78077
1.10515,-0.0396238,2.555,2.78405
1.13,-0.0402131,2.593,2.82881
1.15598,-0.0408334,2.633,2.87587
1.1831,-0.0414848,2.675,2.92525
1.19178,-0.0414848,2.675,2.92877
1.20989,-0.0418105,2.696,2.95533
1.21864,-0.0418105,2.696,2.95893
1.22739,-0.0418105,2.696,2.96254
1.24577,-0.0421361,2.717,2.98928
1.25459,-0.0421361,2.717,2.99297
1.26341,-0.0421361,2.717,2.99668
1.28253,-0.0424773,2.739,3.0247
1.29142,-0.0424773,2.739,3.02848
1.30031,-0.0424773,2.739,3.03228
1.3092,-0.0424773,2.739,3.0361
1.32867,-0.0428185,2.761,3.06436
1.33764,-0.0428185,2.761,3.06826
1.3466,-0.0428185,2.761,3.07218
1.36636,-0.0431597,2.783,3.10063
1.38676,-0.0435164,2.806,3.13028
1.39587,-0.0435164,2.806,3.13432
1.41649,-0.0438731,2.829,3.16411
1.44986,-0.0446175,2.877,3.22199
1.4592,-0.0446175,2.877,3.2262
1.48079,-0.0449897,2.901,3.25739
1.51589,-0.0457651,2.951,3.31789
1.53891,-0.0461683,2.977,3.35155
1.54857,-0.0461683,2.977,3.356
1.58598,-0.0469903,3.03,3.4203
1.59581,-0.0469903,3.03,3.42487
1.60564,-0.0469903,3.03,3.42946
1.64427,-0.0478277,3.084,3.49528
1.6693,-0.0482619,3.112,3.53177
1.6794,-0.0482619,3.112,3.53656
1.70524,-0.0487117,3.141,3.57437
1.71544,-0.0487117,3.141,3.57924
1.74157,-0.0491614,3.17,3.61723
1.75186,-0.0491614,3.17,3.6222
1.76214,-0.0491614,3.17,3.62719
1.77243,-0.0491614,3.17,3.63219
1.78272,-0.0491614,3.17,3.63723
1.79301,-0.0491614,3.17,3.64228
1.8033,-0.0491614,3.17,3.64736
1.81359,-0.0491614,3.17,3.65245
1.82388,-0.0491614,3.17,3.65757
1.83417,-0.0491614,3.17,3.66272
1.84446,-0.0491614,3.17,3.66788
1.85475,-0.0491614,3.17,3.67306
1.84797,-0.0487117,3.141,3.64462
1.85817,-0.0487117,3.141,3.6498
1.86836,-0.0487117,3.141,3.655
1.87856,-0.0487117,3.141,3.66022
1.88875,-0.0487117,3.141,3.66547
1.88142,-0.0482619,3.112,3.63684
1.8745,-0.0478277,3.084,3.60931
1.88451,-0.0478277,3.084,3.61451
1.87793,-0.047409,3.057,3.58805
1.87118,-0.0469903,3.03,3.56152
1.88101,-0.0469903,3.03,3.5667
1.874,-0.0465715,3.003,3.54006
1.86744,-0.0461683,2.977,3.51454
1.86071,-0.0457651,2.951,3.48894
1.87028,-0.0457651,2.951,3.49406
1.84801,-0.0449897,2.901,3.43991
1.81133,-0.0438731,2.829,3.35948
1.82051,-0.0438731,2.829,3.36443
1.79994,-0.0431597,2.783,3.31463
1.78037,-0.0424773,2.739,3.26706
1.78926,-0.0424773,2.739,3.27191
1.76992,-0.0418105,2.696,3.22534
1.75097,-0.0411591,2.654,3.17983
1.75958,-0.0411591,2.654,3.18458
1.74088,-0.0405233,2.613,3.14007
1.71053,-0.0396238,2.555,3.07498
1.71882,-0.0396238,2.555,3.0796
1.70143,-0.0390345,2.517,3.03837
1.68515,-0.0384762,2.481,2.99943
-1.96257,-0.0346934,2.829,3.44327
-1.93751,-0.0344114,2.806,3.4101
-1.9284,-0.0344114,2.806,3.40493
-1.90356,-0.0341293,2.783,3.37191
-1.87955,-0.0338595,2.761,3.34021
-1.87059,-0.0338595,2.761,3.33517
-1.84679,-0.0335897,2.739,3.30362
-1.82314,-0.0333199,2.717,3.27216
-1.81432,-0.0333199,2.717,3.26726
-1.79155,-0.0330624,2.696,3.23715
-1.7828,-0.0330624,2.696,3.23232
-1.76023,-0.0328049,2.675,3.20236
-1.75155,-0.0328049,2.675,3.1976
-1.74286,-0.0328049,2.675,3.19285
-1.73418,-0.0328049,2.675,3.18812
-1.7255,-0.0328049,2.675,3.1834
-1.71682,-0.0328049,2.675,3.1787
-1.69472,-0.0325473,2.654,3.14911
-1.68611,-0.0325473,2.654,3.14448
-1.6775,-0.0325473,2.654,3.13987
-1.66888,-0.0325473,2.654,3.13527
-1.6734,-0.0328049,2.675,3.15547
-1.66472,-0.0328049,2.675,3.15087
-1.65604,-0.0328049,2.675,3.14629
-1.66029,-0.0330624,2.696,3.1664
-1.65154,-0.0330624,2.696,3.16182
-1.64279,-0.0330624,2.696,3.15726
-1.64677,-0.0333199,2.717,3.17727
-1.65121,-0.0335897,2.739,3.1984
-1.64232,-0.0335897,2.739,3.19382
-1.64655,-0.0338595,2.761,3.21487
-1.65064,-0.0341293,2.783,3.23587
-1.66874,-0.0346934,2.829,3.28468
-1.65956,-0.0346934,2.829,3.28003
-1.65037,-0.0346934,2.829,3.27539
-1.64119,-0.0346934,2.829,3.27077
-1.63201,-0.0346934,2.829,3.26618
-1.63659,-0.0349878,2.853,3.28927
-1.62733,-0.0349878,2.853,3.28467
-1.61807,-0.0349878,2.853,3.28009
nan,nan,nan,NaN
nan,nan,nan,NaN
nan,nan,nan,NaN
-1.53005,-0.0338595,2.761,3.15679
-1.52109,-0.0338595,2.761,3.15246
-1.51213,-0.0338595,2.761,3.14814
-1.50317,-0.0338595,2.761,3.14385
-1.4942,-0.0338595,2.761,3.13957
-1.49708,-0.0341293,2.783,3.1603
-1.48804,-0.0341293,2.783,3.15603
-1.49124,-0.0344114,2.806,3.17783
-1.48213,-0.0344114,2.806,3.17357
-1.47302,-0.0344114,2.806,3.16932
-1.47591,-0.0346934,2.829,3.19104
-1.47917,-0.0349878,2.853,3.21384
-1.49464,-0.0355764,2.901,3.26359
-1.47294,-0.0352821,2.877,3.23232
-1.43918,-0.0346934,2.829,3.17422
-1.43,-0.0346934,2.829,3.17007
-1.39772,-0.0341293,2.783,3.11446
-1.35575,-0.0333199,2.717,3.03665
-1.34693,-0.0333199,2.717,3.03273
-1.30708,-0.0325473,2.654,2.95859
-1.2882,-0.0322898,2.633,2.93141
-1.27965,-0.0322898,2.633,2.92767
-1.25179,-0.0317992,2.593,2.87952
-1.23427,-0.0315662,2.574,2.8548
-1.20781,-0.0311002,2.536,2.80911
-1.19958,-0.0311002,2.536,2.80558
-1.17397,-0.0306465,2.499,2.76119
-1.15746,-0.0304257,2.481,2.73788
-1.14941,-0.0304257,2.481,2.73449
-1.12479,-0.0299843,2.445,2.69148
-1.11686,-0.0299843,2.445,2.68818
-1.10892,-0.0299843,2.445,2.68489
-1.09333,-0.0297758,2.428,2.66298
-1.07785,-0.0295673,2.411,2.64113
-1.07003,-0.0295673,2.411,2.63794
-1.05471,-0.0293588,2.394,2.6162
-1.04694,-0.0293588,2.394,2.61308
-1.03917,-0.0293588,2.394,2.60998
-1.0314,-0.0293588,2.394,2.60689
-1.02363,-0.0293588,2.394,2.60383
-1.01586,-0.0293588,2.394,2.60078
-1.00809,-0.0293588,2.394,2.59776
-1.00032,-0.0293588,2.394,2.59475
-0.992548,-0.0293588,2.394,2.59177
-0.99177,-0.0295673,2.411,2.60718
-0.983945,-0.0295673,2.411,2.60422
-0.976119,-0.0295673,2.411,2.60127
-0.968294,-0.0295673,2.411,2.59834
-0.960468,-0.0295673,2.411,2.59544
-0.952643,-0.0295673,2.411,2.59255
-0.951479,-0.0297758,2.428,2.60795
-0.943599,-0.0297758,2.428,2.60508
-0.935718,-0.0297758,2.428,2.60224
-0.927837,-0.0297758,2.428,2.59941
-0.919957,-0.0297758,2.428,2.59661
-0.912076,-0.0297758,2.428,2.59383
-0.904195,-0.0297758,2.428,2.59107
-0.896315,-0.0297758,2.428,2.58833
-0.888434,-0.0297758,2.428,2.58561
-0.880553,-0.0297758,2.428,2.58291
-0.872672,-0.0297758,2.428,2.58024
-0.864792,-0.0297758,2.428,2.57758
-0.856911,-0.0297758,2.428,2.57495
-0.84903,-0.0297758,2.428,2.57234
-0.84115,-0.0297758,2.428,2.56975
-0.827435,-0.0295673,2.411,2.5492
-0.819609,-0.0295673,2.411,2.54668
-0.811784,-0.0295673,2.411,2.54417
-0.803958,-0.0295673,2.411,2.54168
-0.796133,-0.0295673,2.411,2.53922
-0.788307,-0.0295673,2.411,2.53677
-0.780482,-0.0295673,2.411,2.53435
-0.772656,-0.0295673,2.411,2.53195
-0.759438,-0.0293588,2.394,2.51174
-0.751668,-0.0293588,2.394,2.5094
-0.743897,-0.0293588,2.394,2.50709
-0.736127,-0.0293588,2.394,2.50479
-0.728357,-0.0293588,2.394,2.50252
-0.720586,-0.0293588,2.394,2.50027
-0.717878,-0.0295673,2.411,2.51578
-0.710052,-0.0295673,2.411,2.51356
-0.702227,-0.0295673,2.411,2.51136
-0.694401,-0.0295673,2.411,2.50918
-0.691417,-0.0297758,2.428,2.5247
-0.683536,-0.0297758,2.428,2.52256
-0.675655,-0.0297758,2.428,2.52043
-0.667775,-0.0297758,2.428,2.51833
-0.659894,-0.0297758,2.428,2.51625
-0.652013,-0.0297758,2.428,2.5142
-0.648643,-0.0299843,2.445,2.52976
-0.640707,-0.0299843,2.445,2.52773
-0.632771,-0.0299843,2.445,2.52573
-0.624835,-0.0299843,2.445,2.52376
-0.616899,-0.0299843,2.445,2.5218
-0.613446,-0.030205,2.463,2.53842
-0.605452,-0.030205,2.463,2.5365
-0.597458,-0.030205,2.463,2.53461
-0.589464,-0.030205,2.463,2.53274
-0.581469,-0.030205,2.463,2.53089
-0.573475,-0.030205,2.463,2.52906
-0.565481,-0.030205,2.463,2.52726
-0.557486,-0.030205,2.463,2.52548
-0.553508,-0.0304257,2.481,2.54218
-0.545455,-0.0304257,2.481,2.54043
-0.537403,-0.0304257,2.481,2.53872
-0.52935,-0.0304257,2.481,2.53703
-0.525079,-0.0306465,2.499,2.55375
-0.516968,-0.0306465,2.499,2.5521
-0.508857,-0.0306465,2.499,2.55047
-0.504353,-0.0308672,2.517,2.56722
-0.496183,-0.0308672,2.517,2.56563
-0.488013,-0.0308672,2.517,2.56406
-0.479844,-0.0308672,2.517,2.56252
-0.475235,-0.0311002,2.536,2.58033
-0.467004,-0.0311002,2.536,2.57883
-0.458772,-0.0311002,2.536,2.57735
-0.450541,-0.0311002,2.536,2.5759
-0.44231,-0.0311002,2.536,2.57447
-0.434079,-0.0311002,2.536,2.57307
-0.425848,-0.0311002,2.536,2.57169
-0.417616,-0.0311002,2.536,2.57034
-0.406318,-0.0308672,2.517,2.54977
-0.398148,-0.0308672,2.517,2.54848
-0.389979,-0.0308672,2.517,2.54722
-0.381809,-0.0308672,2.517,2.54598
-0.37364,-0.0308672,2.517,2.54477
-0.36547,-0.0308672,2.517,2.54358
-0.357301,-0.0308672,2.517,2.54242
-0.349131,-0.0308672,2.517,2.54129
-0.340961,-0.0308672,2.517,2.54018
-0.332792,-0.0308672,2.517,2.53909
-0.324622,-0.0308672,2.517,2.53804
-0.316453,-0.0308672,2.517,2.537
-0.308283,-0.0308672,2.517,2.536
-0.300114,-0.0308672,2.517,2.53502
-0.291944,-0.0308672,2.517,2.53406
-0.283775,-0.0308672,2.517,2.53313
-0.275605,-0.0308672,2.517,2.53223
-0.267435,-0.0308672,2.517,2.53136
-0.259266,-0.0308672,2.517,2.53051
-0.251096,-0.0308672,2.517,2.52968
-0.24119,-0.0306465,2.499,2.5108
-0.233078,-0.0306465,2.499,2.51003
-0.224967,-0.0306465,2.499,2.50929
-0.216856,-0.0306465,2.499,2.50858
-0.208745,-0.0306465,2.499,2.50789
-0.200634,-0.0306465,2.499,2.50723
-0.191136,-0.0304257,2.481,2.48854
-0.183083,-0.0304257,2.481,2.48793
-0.175031,-0.0304257,2.481,2.48735
-0.166978,-0.0304257,2.481,2.4868
-0.158925,-0.0304257,2.481,2.48627
-0.150872,-0.0304257,2.481,2.48577
-0.14282,-0.0304257,2.481,2.48529
-0.134767,-0.0304257,2.481,2.48484
-0.127634,-0.0306465,2.499,2.50244
-0.119523,-0.0306465,2.499,2.50204
-0.111411,-0.0306465,2.499,2.50167
-0.1033,-0.0306465,2.499,2.50132
-0.0951891,-0.0306465,2.499,2.501
-0.087078,-0.0306465,2.499,2.5007
-0.0789668,-0.0306465,2.499,2.50044
-0.0708557,-0.0306465,2.499,2.50019
-0.0627446,-0.0306465,2.499,2.49998
-0.0546334,-0.0306465,2.499,2.49978
-0.0465223,-0.0306465,2.499,2.49962
-0.0384112,-0.0306465,2.499,2.49948
-0.0300818,-0.0304257,2.481,2.48137
-0.0220291,-0.0304257,2.481,2.48128
-0.0139764,-0.0304257,2.481,2.48123
-0.00592366,-0.0304257,2.481,2.48119
0.00212905,-0.0304257,2.481,2.48119
0.0101818,-0.0304257,2.481,2.48121
0.0182345,-0.0304257,2.481,2.48125
0.0262872,-0.0304257,2.481,2.48133
0.0343399,-0.0304257,2.481,2.48142
0.0423926,-0.0304257,2.481,2.48155
0.0504453,-0.0304257,2.481,2.4817
0.058498,-0.0304257,2.481,2.48188
0.0665507,-0.0304257,2.481,2.48208
0.0746034,-0.0304257,2.481,2.48231
0.0826561,-0.0304257,2.481,2.48256
0.0907089,-0.0304257,2.481,2.48284
0.0987616,-0.0304257,2.481,2.48315
0.106814,-0.0304257,2.481,2.48348
0.1157,-0.0306465,2.499,2.50186
0.123811,-0.0306465,2.499,2.50225
0.131923,-0.0306465,2.499,2.50267
0.140034,-0.0306465,2.499,2.50311
0.149212,-0.0308672,2.517,2.52161
0.157382,-0.0308672,2.517,2.5221
0.165551,-0.0308672,2.517,2.52263
0.173721,-0.0308672,2.517,2.52318
0.18189,-0.0308672,2.517,2.52375
0.19006,-0.0308672,2.517,2.52435
0.199726,-0.0311002,2.536,2.54404
0.207957,-0.0311002,2.536,2.5447
0.216188,-0.0311002,2.536,2.54539
0.224419,-0.0311002,2.536,2.5461
0.232651,-0.0311002,2.536,2.54684
0.240882,-0.0311002,2.536,2.5476
0.249113,-0.0311002,2.536,2.5484
0.257344,-0.0311002,2.536,2.54921
0.265575,-0.0311002,2.536,2.55006
0.273807,-0.0311002,2.536,2.55093
0.282038,-0.0311002,2.536,2.55182
0.290269,-0.0311002,2.536,2.55275
0.2985,-0.0311002,2.536,2.5537
0.306732,-0.0311002,2.536,2.55467
0.314963,-0.0311002,2.536,2.55567
0.320773,-0.0308672,2.517,2.53755
0.328942,-0.0308672,2.517,2.53859
0.337112,-0.0308672,2.517,2.53966
0.345281,-0.0308672,2.517,2.54076
0.353451,-0.0308672,2.517,2.54188
0.36162,-0.0308672,2.517,2.54303
0.36979,-0.0308672,2.517,2.54421
0.375257,-0.0306465,2.499,2.5272
0.383368,-0.0306465,2.499,2.52842
0.391479,-0.0306465,2.499,2.52966
0.39959,-0.0306465,2.499,2.53093
0.407701,-0.0306465,2.499,2.53222
0.415812,-0.0306465,2.499,2.53354
0.42087,-0.0304257,2.481,2.51663
0.428923,-0.0304257,2.481,2.51799
0.436975,-0.0304257,2.481,2.51937
0.445028,-0.0304257,2.481,2.52078
0.453081,-0.0304257,2.481,2.52222
0.461134,-0.0304257,2.481,2.52367
0.469186,-0.0304257,2.481,2.52516
0.477239,-0.0304257,2.481,2.52667
0.485292,-0.0304257,2.481,2.5282
0.493344,-0.0304257,2.481,2.52976
0.501397,-0.0304257,2.481,2.53134
0.50945,-0.0304257,2.481,2.53295
0.521257,-0.0306465,2.499,2.55297
0.529368,-0.0306465,2.499,2.55464
0.537479,-0.0306465,2.499,2.55633
0.54559,-0.0306465,2.499,2.55805
0.553702,-0.0306465,2.499,2.55979
0.561813,-0.0306465,2.499,2.56156
0.574029,-0.0308672,2.517,2.58181
0.578035,-0.0306465,2.499,2.56516
0.586146,-0.0306465,2.499,2.567
0.594257,-0.0306465,2.499,2.56887
0.602368,-0.0306465,2.499,2.57076
0.610479,-0.0306465,2.499,2.57267
0.618591,-0.0306465,2.499,2.57461
0.626702,-0.0306465,2.499,2.57657
0.634813,-0.0306465,2.499,2.57855
0.647555,-0.0308672,2.517,2.59915
0.655725,-0.0308672,2.517,2.6012
0.663894,-0.0308672,2.517,2.60327
0.672064,-0.0308672,2.517,2.60536
0.680233,-0.0308672,2.517,2.60748
0.688403,-0.0308672,2.517,2.60962
0.691591,-0.0306465,2.499,2.59311
0.699702,-0.0306465,2.499,2.59529
0.707813,-0.0306465,2.499,2.59749
0.715924,-0.0306465,2.499,2.59971
0.724035,-0.0306465,2.499,2.60195
0.732147,-0.0306465,2.499,2.60422
0.740258,-0.0306465,2.499,2.60652
0.748369,-0.0306465,2.499,2.60883
0.75648,-0.0306465,2.499,2.61117
0.764591,-0.0306465,2.499,2.61353
0.767137,-0.0304257,2.481,2.59707
0.775189,-0.0304257,2.481,2.59946
0.783242,-0.0304257,2.481,2.60188
0.791295,-0.0304257,2.481,2.60431
0.799347,-0.0304257,2.481,2.60677
0.8074,-0.0304257,2.481,2.60925
0.815453,-0.0304257,2.481,2.61175
0.823505,-0.0304257,2.481,2.61428
0.831558,-0.0304257,2.481,2.61683
0.839611,-0.0304257,2.481,2.6194
0.847664,-0.0304257,2.481,2.62199
0.855716,-0.0304257,2.481,2.6246
0.857502,-0.030205,2.463,2.60818
0.865497,-0.030205,2.463,2.61082
0.873491,-0.030205,2.463,2.61348
0.881485,-0.030205,2.463,2.61616
0.889479,-0.030205,2.463,2.61887
0.897474,-0.030205,2.463,2.62159
0.905468,-0.030205,2.463,2.62434
0.906787,-0.0299843,2.445,2.60791
0.914722,-0.0299843,2.445,2.61068
0.922658,-0.0299843,2.445,2.61347
0.924124,-0.0297758,2.428,2.59809
0.932004,-0.0297758,2.428,2.6009
0.939885,-0.0297758,2.428,2.60374
0.947766,-0.0297758,2.428,2.60659
0.955646,-0.0297758,2.428,2.60947
0.963527,-0.0297758,2.428,2.61237
0.971408,-0.0297758,2.428,2.61528
0.979289,-0.0297758,2.428,2.61822
0.987169,-0.0297758,2.428,2.62118
1.00202,-0.0299843,2.445,2.64253
1.00995,-0.0299843,2.445,2.64555
1.02538,-0.030205,2.463,2.66809
1.04093,-0.0304257,2.481,2.69069
1.04898,-0.0304257,2.481,2.69382
1.07237,-0.0308672,2.517,2.7361
1.0887,-0.0311002,2.536,2.75999
1.09693,-0.0311002,2.536,2.76324
1.11344,-0.0313332,2.555,2.78725
1.13842,-0.0317992,2.593,2.83208
1.16452,-0.0322898,2.633,2.87921
1.17307,-0.0322898,2.633,2.88268
1.20046,-0.0328049,2.675,2.9322
1.20915,-0.0328049,2.675,2.93577
1.21783,-0.0328049,2.675,2.93936
1.23614,-0.0330624,2.696,2.96607
1.25459,-0.0333199,2.717,2.99286
1.26341,-0.0333199,2.717,2.99656
1.27223,-0.0333199,2.717,3.00029
1.29142,-0.0335897,2.739,3.02837
1.30031,-0.0335897,2.739,3.03217
1.3092,-0.0335897,2.739,3.03599
1.32867,-0.0338595,2.761,3.06425
1.33764,-0.0338595,2.761,3.06815
1.3466,-0.0338595,2.761,3.07207
1.36636,-0.0341293,2.783,3.10052
1.38676,-0.0344114,2.806,3.13016
1.39587,-0.0344114,2.806,3.13421
1.41649,-0.0346934,2.829,3.164
1.43777,-0.0349878,2.853,3.195
1.44703,-0.0349878,2.853,3.19918
1.46854,-0.0352821,2.877,3.23032
1.50305,-0.035883,2.926,3.28967
1.53891,-0.0365084,2.977,3.35143
1.54857,-0.0365084,2.977,3.35588
1.57184,-0.0368273,3.003,3.3897
1.59581,-0.0371584,3.03,3.42475
1.60564,-0.0371584,3.03,3.42934
1.61548,-0.0371584,3.03,3.43396
1.65428,-0.0378206,3.084,3.49988
1.66429,-0.0378206,3.084,3.50462
1.6895,-0.038164,3.112,3.54124
1.6996,-0.038164,3.112,3.54608
1.72563,-0.0385196,3.141,3.58402
1.73583,-0.0385196,3.141,3.58894
1.74602,-0.0385196,3.141,3.59388
1.75622,-0.0385196,3.141,3.59884
1.76641,-0.0385196,3.141,3.60383
1.79301,-0.0388753,3.17,3.64216
1.8033,-0.0388753,3.17,3.64723
1.81359,-0.0388753,3.17,3.65233
1.82388,-0.0388753,3.17,3.65745
1.83417,-0.0388753,3.17,3.66259
1.84446,-0.0388753,3.17,3.66776
1.85475,-0.0388753,3.17,3.67294
1.84797,-0.0385196,3.141,3.6445
1.85817,-0.0385196,3.141,3.64968
1.86836,-0.0385196,3.141,3.65488
1.87856,-0.0385196,3.141,3.6601
1.88875,-0.0385196,3.141,3.66534
1.88142,-0.038164,3.112,3.63672
1.8745,-0.0378206,3.084,3.60919
1.88451,-0.0378206,3.084,3.6144
1.87793,-0.0374895,3.057,3.58794
1.87118,-0.0371584,3.03,3.5614
1.88101,-0.0371584,3.03,3.56658
1.874,-0.0368273,3.003,3.53995
1.86744,-0.0365084,2.977,3.51443
1.84494,-0.035883,2.926,3.45927
1.85444,-0.035883,2.926,3.46435
1.84801,-0.0355764,2.901,3.4398
1.82669,-0.0349878,2.853,3.38787
1.83595,-0.0349878,2.853,3.39287
1.81482,-0.0344114,2.806,3.34191
1.79467,-0.0338595,2.761,3.29319
1.80364,-0.0338595,2.761,3.29809
1.76992,-0.0330624,2.696,3.22523
1.73711,-0.0322898,2.633,3.15457
1.74566,-0.0322898,2.633,3.15928
1.74088,-0.0320445,2.613,3.13998
1.71053,-0.0313332,2.555,3.07488
1.71882,-0.0313332,2.555,3.07951
1.70143,-0.0308672,2.517,3.03827
1.69737,-0.0306465,2.499,3.02109
-1.96257,-0.0255138,2.829,3.44319
-1.93751,-0.0253064,2.806,3.41002
-1.9284,-0.0253064,2.806,3.40485
-1.90356,-0.0250989,2.783,3.37183
-1.87955,-0.0249005,2.761,3.34013
-1.87059,-0.0249005,2.761,3.33509
-1.84679,-0.0247021,2.739,3.30354
-1.82314,-0.0245037,2.717,3.27208
-1.81432,-0.0245037,2.717,3.26718
-1.79155,-0.0243143,2.696,3.23707
-1.7828,-0.0243143,2.696,3.23224
-1.76023,-0.0241249,2.675,3.20228
-1.75155,-0.0241249,2.675,3.19752
-1.74286,-0.0241249,2.675,3.19277
-1.73418,-0.0241249,2.675,3.18804
-1.7255,-0.0241249,2.675,3.18332
-1.71682,-0.0241249,2.675,3.17863
-1.69472,-0.0239355,2.654,3.14903
-1.68611,-0.0239355,2.654,3.1444
-1.6775,-0.0239355,2.654,3.13979
-1.66888,-0.0239355,2.654,3.1352
-1.6734,-0.0241249,2.675,3.15539
-1.66472,-0.0241249,2.675,3.15079
-1.65604,-0.0241249,2.675,3.14622
-1.66029,-0.0243143,2.696,3.16632
-1.65154,-0.0243143,2.696,3.16174
-1.64279,-0.0243143,2.696,3.15718
-1.64677,-0.0245037,2.717,3.17719
-1.65121,-0.0247021,2.739,3.19832
-1.64232,-0.0247021,2.739,3.19374
-1.64655,-0.0249005,2.761,3.21479
-1.65064,-0.0250989,2.783,3.23579
-1.66874,-0.0255138,2.829,3.2846
-1.65956,-0.0255138,2.829,3.27994
-1.65037,-0.0255138,2.829,3.27531
-1.64119,-0.0255138,2.829,3.27069
-1.63201,-0.0255138,2.829,3.26609
-1.63659,-0.0257302,2.853,3.28918
-1.62733,-0.0257302,2.853,3.28458
-1.61807,-0.0257302,2.853,3.28001
nan,nan,nan,NaN
nan,nan,nan,NaN
nan,nan,nan,NaN
nan,nan,nan,NaN
nan,nan,nan,NaN
nan,nan,nan,NaN
-1.50317,-0.0249005,2.761,3.14376
-1.4942,-0.0249005,2.761,3.13949
-1.49708,-0.0250989,2.783,3.16022
-1.48804,-0.0250989,2.783,3.15595
-1.49124,-0.0253064,2.806,3.17774
-1.48213,-0.0253064,2.806,3.17348
-1.47302,-0.0253064,2.806,3.16924
-1.47591,-0.0255138,2.829,3.19096
-1.47917,-0.0257302,2.853,3.21376
-1.49464,-0.0261631,2.901,3.2635
-1.48523,-0.0261631,2.901,3.2592
-1.45139,-0.0257302,2.853,3.20106
-1.44213,-0.0257302,2.853,3.19688
-1.39772,-0.0250989,2.783,3.11437
-1.35575,-0.0245037,2.717,3.03657
-1.34693,-0.0245037,2.717,3.03264
-1.30708,-0.0239355,2.654,2.95851
-1.2882,-0.0237461,2.633,2.93133
-1.27965,-0.0237461,2.633,2.92759
-1.25179,-0.0233854,2.593,2.87944
-1.23427,-0.023214,2.574,2.85472
-1.19876,-0.0227,2.517,2.78798
-1.1906,-0.0227,2.517,2.78448
-1.17397,-0.0225376,2.499,2.76111
-1.15746,-0.0223753,2.481,2.73781
-1.14941,-0.0223753,2.481,2.73441
-1.12479,-0.0220506,2.445,2.69141
-1.10909,-0.0218973,2.428,2.66941
-1.10121,-0.0218973,2.428,2.66615
-1.08568,-0.021744,2.411,2.64426
-1.07785,-0.021744,2.411,2.64105
-1.07003,-0.021744,2.411,2.63787
-1.05471,-0.0215907,2.394,2.61613
-1.04694,-0.0215907,2.394,2.613
-1.03917,-0.0215907,2.394,2.6099
-1.0314,-0.0215907,2.394,2.60682
-1.02363,-0.0215907,2.394,2.60375
-1.01586,-0.0215907,2.394,2.60071
-1.00809,-0.0215907,2.394,2.59768
-1.00032,-0.0215907,2.394,2.59468
-0.992548,-0.0215907,2.394,2.59169
-0.99177,-0.021744,2.411,2.60711
-0.983945,-0.021744,2.411,2.60414
-0.976119,-0.021744,2.411,2.60119
-0.968294,-0.021744,2.411,2.59827
-0.960468,-0.021744,2.411,2.59536
-0.952643,-0.021744,2.411,2.59247
-0.951479,-0.0218973,2.428,2.60787
-0.943599,-0.0218973,2.428,2.605
-0.935718,-0.0218973,2.428,2.60216
-0.927837,-0.0218973,2.428,2.59934
-0.919957,-0.0218973,2.428,2.59653
-0.912076,-0.0218973,2.428,2.59375
-0.904195,-0.0218973,2.428,2.59099
-0.896315,-0.0218973,2.428,2.58825
-0.888434,-0.0218973,2.428,2.58553
-0.880553,-0.0218973,2.428,2.58284
-0.872672,-0.0218973,2.428,2.58016
-0.864792,-0.0218973,2.428,2.5775
-0.856911,-0.0218973,2.428,2.57487
-0.84903,-0.0218973,2.428,2.57226
-0.84115,-0.0218973,2.428,2.56967
-0.827435,-0.021744,2.411,2.54913
-0.819609,-0.021744,2.411,2.5466
-0.811784,-0.021744,2.411,2.54409
-0.803958,-0.021744,2.411,2.5416
-0.796133,-0.021744,2.411,2.53914
-0.788307,-0.021744,2.411,2.5367
-0.780482,-0.021744,2.411,2.53427
-0.772656,-0.021744,2.411,2.53188
-0.759438,-0.0215907,2.394,2.51166
-0.751668,-0.0215907,2.394,2.50932
-0.743897,-0.0215907,2.394,2.50701
-0.741354,-0.021744,2.411,2.5225
-0.733529,-0.021744,2.411,2.52021
-0.725703,-0.021744,2.411,2.51794
-0.722939,-0.0218973,2.428,2.53344
-0.715059,-0.0218973,2.428,2.5312
-0.707178,-0.0218973,2.428,2.52899
-0.699297,-0.0218973,2.428,2.52679
-0.691417,-0.0218973,2.428,2.52462
-0.688322,-0.0220506,2.445,2.54014
-0.680386,-0.0220506,2.445,2.538
-0.67245,-0.0220506,2.445,2.53588
-0.664514,-0.0220506,2.445,2.53379
-0.656578,-0.0220506,2.445,2.53172
-0.648643,-0.0220506,2.445,2.52967
-0.640707,-0.0220506,2.445,2.52765
-0.632771,-0.0220506,2.445,2.52565
-0.629435,-0.022213,2.463,2.54225
-0.621441,-0.022213,2.463,2.54029
-0.613446,-0.022213,2.463,2.53834
-0.605452,-0.022213,2.463,2.53642
-0.597458,-0.022213,2.463,2.53453
-0.593771,-0.0223753,2.481,2.55116
-0.585719,-0.0223753,2.481,2.5493
-0.577666,-0.0223753,2.481,2.54746
-0.569613,-0.0223753,2.481,2.54565
-0.561561,-0.0223753,2.481,2.54386
-0.553508,-0.0223753,2.481,2.54209
-0.545455,-0.0223753,2.481,2.54035
-0.537403,-0.0223753,2.481,2.53863
-0.52935,-0.0223753,2.481,2.53694
-0.525079,-0.0225376,2.499,2.55367
-0.516968,-0.0225376,2.499,2.55201
-0.508857,-0.0225376,2.499,2.55038
-0.500746,-0.0225376,2.499,2.54878
-0.496183,-0.0227,2.517,2.56554
-0.488013,-0.0227,2.517,2.56397
-0.479844,-0.0227,2.517,2.56243
-0.471674,-0.0227,2.517,2.56091
-0.463505,-0.0227,2.517,2.55942
-0.455335,-0.0227,2.517,2.55796
-0.450541,-0.0228713,2.536,2.57581
-0.44231,-0.0228713,2.536,2.57438
-0.430827,-0.0227,2.517,2.55371
-0.422657,-0.0227,2.517,2.55234
-0.417616,-0.0228713,2.536,2.57026
-0.406318,-0.0227,2.517,2.54969
-0.398148,-0.0227,2.517,2.5484
-0.389979,-0.0227,2.517,2.54713
-0.381809,-0.0227,2.517,2.5459
-0.37364,-0.0227,2.517,2.54468
-0.36547,-0.0227,2.517,2.5435
-0.357301,-0.0227,2.517,2.54234
-0.349131,-0.0227,2.517,2.5412
-0.340961,-0.0227,2.517,2.54009
-0.332792,-0.0227,2.517,2.53901
-0.324622,-0.0227,2.517,2.53795
-0.316453,-0.0227,2.517,2.53692
-0.308283,-0.0227,2.517,2.53591
-0.300114,-0.0227,2.517,2.53493
-0.291944,-0.0227,2.517,2.53398
-0.283775,-0.0227,2.517,2.53305
-0.275605,-0.0227,2.517,2.53215
-0.267435,-0.0227,2.517,2.53127
-0.259266,-0.0227,2.517,2.53042
-0.251096,-0.0227,2.517,2.5296
-0.24119,-0.0225376,2.499,2.51071
-0.233078,-0.0225376,2.499,2.50995
-0.224967,-0.0225376,2.499,2.50921
-0.216856,-0.0225376,2.499,2.50849
-0.208745,-0.0225376,2.499,2.5078
-0.200634,-0.0225376,2.499,2.50714
-0.192523,-0.0225376,2.499,2.50651
-0.183083,-0.0223753,2.481,2.48785
-0.175031,-0.0223753,2.481,2.48727
-0.166978,-0.0223753,2.481,2.48671
-0.158925,-0.0223753,2.481,2.48619
-0.150872,-0.0223753,2.481,2.48568
-0.14282,-0.0223753,2.481,2.48521
-0.134767,-0.0223753,2.481,2.48476
-0.127634,-0.0225376,2.499,2.50236
-0.119523,-0.0225376,2.499,2.50196
-0.111411,-0.0225376,2.499,2.50158
-0.1033,-0.0225376,2.499,2.50124
-0.0951891,-0.0225376,2.499,2.50091
-0.087078,-0.0225376,2.499,2.50062
-0.0789668,-0.0225376,2.499,2.50035
-0.0708557,-0.0225376,2.499,2.50011
-0.0627446,-0.0225376,2.499,2.49989
-0.0546334,-0.0225376,2.499,2.4997
-0.0465223,-0.0225376,2.499,2.49953
-0.0384112,-0.0225376,2.499,2.4994
-0.0303,-0.0225376,2.499,2.49929
-0.0221889,-0.0225376,2.499,2.4992
-0.0140778,-0.0225376,2.499,2.49914
-0.00596664,-0.0225376,2.499,2.49911
0.00214449,-0.0225376,2.499,2.4991
0.0102556,-0.0225376,2.499,2.49912
0.0183668,-0.0225376,2.499,2.49917
0.0262872,-0.0223753,2.481,2.48124
0.0343399,-0.0223753,2.481,2.48134
0.0423926,-0.0223753,2.481,2.48146
0.0504453,-0.0223753,2.481,2.48161
0.058498,-0.0223753,2.481,2.48179
0.0665507,-0.0223753,2.481,2.48199
0.0746034,-0.0223753,2.481,2.48222
0.0826561,-0.0223753,2.481,2.48248
0.0907089,-0.0223753,2.481,2.48276
0.0987616,-0.0223753,2.481,2.48307
0.107589,-0.0225376,2.499,2.50142
0.1157,-0.0225376,2.499,2.50178
0.123811,-0.0225376,2.499,2.50217
0.131923,-0.0225376,2.499,2.50258
0.141042,-0.0227,2.517,2.52105
0.149212,-0.0227,2.517,2.52152
0.157382,-0.0227,2.517,2.52202
0.166801,-0.0228713,2.536,2.54158
0.175032,-0.0228713,2.536,2.54214
0.183263,-0.0228713,2.536,2.54272
0.191494,-0.0228713,2.536,2.54332
0.199726,-0.0228713,2.536,2.54396
0.207957,-0.0228713,2.536,2.54462
0.216188,-0.0228713,2.536,2.5453
0.226101,-0.0230427,2.555,2.56509
0.234394,-0.0230427,2.555,2.56583
