nan,nan,nan,NaN
nan,nan,nan,NaN
nan,nan,nan,NaN
nan,nan,nan,NaN
nan,nan,nan,NaN
nan,nan,nan,NaN
nan,nan,nan,NaN
nan,nan,nan,NaN
nan,nan,nan,NaN
nan,nan,nan,NaN
-1.28176,-0.972228,2.806,3.23447
-1.27265,-0.972228,2.806,3.23087
-1.26355,-0.972228,2.806,3.22729
-1.25444,-0.972228,2.806,3.22374
-1.23512,-0.964258,2.783,3.19381
-1.22609,-0.964258,2.783,3.19033
-1.21706,-0.964258,2.783,3.18687
-1.20802,-0.964258,2.783,3.18343
-1.18951,-0.956636,2.761,3.15487
-1.18055,-0.956636,2.761,3.1515
-1.16225,-0.949013,2.739,3.12307
-1.13526,-0.934115,2.696,3.0708
-1.12651,-0.934115,2.696,3.06757
-1.10905,-0.926838,2.675,3.0405
-1.07486,-0.905357,2.613,2.96695
-1.05047,-0.891844,2.574,2.91965
-1.04211,-0.891844,2.574,2.91665
-1.02613,-0.885261,2.555,2.89217
-1.01026,-0.878677,2.536,2.86775
-1.00203,-0.878677,2.536,2.86486
-0.986356,-0.872094,2.517,2.84055
-0.971191,-0.865858,2.499,2.81743
-0.96308,-0.865858,2.499,2.81465
-0.941212,-0.853384,2.463,2.77137
-0.933218,-0.853384,2.463,2.76867
-0.925224,-0.853384,2.463,2.76599
-0.917229,-0.853384,2.463,2.76332
-0.909235,-0.853384,2.463,2.76068
-0.901241,-0.853384,2.463,2.75806
-0.899774,-0.859621,2.481,2.77559
-0.891722,-0.859621,2.481,2.77299
-0.883669,-0.859621,2.481,2.77041
-0.875616,-0.859621,2.481,2.76785
-0.861269,-0.853384,2.463,2.74525
-0.853275,-0.853384,2.463,2.74276
-0.845281,-0.853384,2.463,2.74028
-0.837286,-0.853384,2.463,2.73782
-0.829292,-0.853384,2.463,2.73539
-0.821298,-0.853384,2.463,2.73298
-0.813304,-0.853384,2.463,2.73059
-0.805309,-0.853384,2.463,2.72821
-0.791488,-0.847148,2.445,2.70595
-0.783552,-0.847148,2.445,2.70363
-0.770224,-0.841258,2.428,2.68256
-0.757005,-0.835367,2.411,2.66154
-0.74918,-0.835367,2.411,2.65933
-0.741354,-0.835367,2.411,2.65713
-0.728357,-0.829477,2.394,2.63624
-0.720586,-0.829477,2.394,2.63411
-0.712816,-0.829477,2.394,2.63199
-0.700039,-0.823587,2.377,2.61122
-0.692324,-0.823587,2.377,2.60916
-0.684609,-0.823587,2.377,2.60713
-0.676894,-0.823587,2.377,2.60511
-0.669178,-0.823587,2.377,2.60312
-0.661463,-0.823587,2.377,2.60115
-0.653748,-0.823587,2.377,2.59919
-0.650653,-0.829477,2.394,2.61584
-0.647448,-0.835367,2.411,2.63248
-0.639623,-0.835367,2.411,2.63057
-0.631797,-0.835367,2.411,2.62867
-0.628371,-0.841258,2.428,2.64533
-0.620491,-0.841258,2.428,2.64347
-0.61261,-0.841258,2.428,2.64163
-0.608963,-0.847148,2.445,2.65829
-0.605452,-0.853384,2.463,2.67604
-0.597458,-0.853384,2.463,2.67425
-0.593771,-0.859621,2.481,2.692
-0.585719,-0.859621,2.481,2.69024
-0.577666,-0.859621,2.481,2.6885
-0.573746,-0.865858,2.499,2.70627
-0.569709,-0.872094,2.517,2.72404
-0.565778,-0.878677,2.536,2.7429
-0.557547,-0.878677,2.536,2.74121
-0.549316,-0.878677,2.536,2.73955
-0.545139,-0.885261,2.555,2.75842
-0.536846,-0.885261,2.555,2.75679
-0.528553,-0.885261,2.555,2.75519
-0.52026,-0.885261,2.555,2.75361
-0.511967,-0.885261,2.555,2.75206
-0.503674,-0.885261,2.555,2.75053
-0.495381,-0.885261,2.555,2.74902
-0.487088,-0.885261,2.555,2.74754
-0.475235,-0.878677,2.536,2.72566
-0.467004,-0.878677,2.536,2.72424
-0.458772,-0.878677,2.536,2.72284
-0.450541,-0.878677,2.536,2.72146
-0.44231,-0.878677,2.536,2.72011
-0.434079,-0.878677,2.536,2.71879
-0.422657,-0.872094,2.517,2.69712
-0.414487,-0.872094,2.517,2.69586
-0.406318,-0.872094,2.517,2.69461
-0.398148,-0.872094,2.517,2.69339
-0.389979,-0.872094,2.517,2.6922
-0.381809,-0.872094,2.517,2.69103
-0.37364,-0.872094,2.517,2.68988
-0.36547,-0.872094,2.517,2.68876
-0.357301,-0.872094,2.517,2.68766
-0.349131,-0.872094,2.517,2.68658
-0.338523,-0.865858,2.499,2.66633
-0.330412,-0.865858,2.499,2.66531
-0.322301,-0.865858,2.499,2.66432
-0.31419,-0.865858,2.499,2.66335
-0.306079,-0.865858,2.499,2.6624
-0.295821,-0.859621,2.481,2.64231
-0.287769,-0.859621,2.481,2.64142
-0.279716,-0.859621,2.481,2.64056
-0.269692,-0.853384,2.463,2.62057
-0.261698,-0.853384,2.463,2.61976
-0.253704,-0.853384,2.463,2.61897
-0.245709,-0.853384,2.463,2.61821
-0.237715,-0.853384,2.463,2.61747
-0.229721,-0.853384,2.463,2.61675
-0.221726,-0.853384,2.463,2.61607
-0.213732,-0.853384,2.463,2.6154
-0.204234,-0.847148,2.445,2.59565
-0.196298,-0.847148,2.445,2.59504
-0.189749,-0.853384,2.463,2.61355
-0.181755,-0.853384,2.463,2.61298
-0.173761,-0.853384,2.463,2.61244
-0.165766,-0.853384,2.463,2.61192
-0.157772,-0.853384,2.463,2.61142
-0.149778,-0.853384,2.463,2.61095
-0.141784,-0.853384,2.463,2.61051
-0.134767,-0.859621,2.481,2.62916
-0.126714,-0.859621,2.481,2.62876
-0.118662,-0.859621,2.481,2.62838
-0.110609,-0.859621,2.481,2.62803
-0.1033,-0.865858,2.499,2.64677
-0.0951891,-0.865858,2.499,2.64646
-0.087078,-0.865858,2.499,2.64618
-0.0795356,-0.872094,2.517,2.66499
-0.0713661,-0.872094,2.517,2.66476
-0.0631965,-0.872094,2.517,2.66455
-0.055027,-0.872094,2.517,2.66437
-0.0468574,-0.872094,2.517,2.66421
-0.0389799,-0.878677,2.536,2.68419
-0.0307487,-0.878677,2.536,2.68409
-0.0226861,-0.885261,2.555,2.70411
-0.0143932,-0.885261,2.555,2.70406
-0.00610034,-0.885261,2.555,2.70402
0.00219255,-0.885261,2.555,2.70402
0.0104854,-0.885261,2.555,2.70404
0.018918,-0.891844,2.574,2.72419
0.0272725,-0.891844,2.574,2.72426
0.0356271,-0.891844,2.574,2.72436
0.0439817,-0.891844,2.574,2.72448
0.0523362,-0.891844,2.574,2.72463
0.0606908,-0.891844,2.574,2.7248
0.0690454,-0.891844,2.574,2.725
0.0773999,-0.891844,2.574,2.72523
0.0857545,-0.891844,2.574,2.72548
0.0941091,-0.891844,2.574,2.72575
0.101707,-0.885261,2.555,2.70593
0.11,-0.885261,2.555,2.70625
0.118293,-0.885261,2.555,2.7066
0.125645,-0.878677,2.536,2.68685
0.133876,-0.878677,2.536,2.68725
0.141042,-0.872094,2.517,2.66753
0.148145,-0.865858,2.499,2.6489
0.156256,-0.865858,2.499,2.64936
0.164367,-0.865858,2.499,2.64985
0.172478,-0.865858,2.499,2.65037
0.179289,-0.859621,2.481,2.63182
0.187341,-0.859621,2.481,2.63238
0.195394,-0.859621,2.481,2.63296
0.203447,-0.859621,2.481,2.63357
0.2115,-0.859621,2.481,2.63421
0.219552,-0.859621,2.481,2.63487
0.227605,-0.859621,2.481,2.63555
0.235658,-0.859621,2.481,2.63626
0.24371,-0.859621,2.481,2.63699
0.251763,-0.859621,2.481,2.63774
0.259816,-0.859621,2.481,2.63853
0.269812,-0.865858,2.499,2.65848
0.277923,-0.865858,2.499,2.65931
0.286034,-0.865858,2.499,2.66017
0.294145,-0.865858,2.499,2.66106
0.302256,-0.865858,2.499,2.66197
0.312603,-0.872094,2.517,2.68208
0.320773,-0.872094,2.517,2.68305
0.328942,-0.872094,2.517,2.68403
0.339657,-0.878677,2.536,2.70532
0.347888,-0.878677,2.536,2.70636
0.358787,-0.885261,2.555,2.72772
0.36708,-0.885261,2.555,2.72882
0.375373,-0.885261,2.555,2.72995
0.383666,-0.885261,2.555,2.7311
0.391959,-0.885261,2.555,2.73228
0.400252,-0.885261,2.555,2.73348
0.408544,-0.885261,2.555,2.73471
0.416837,-0.885261,2.555,2.73596
0.42513,-0.885261,2.555,2.73723
0.433423,-0.885261,2.555,2.73853
0.441716,-0.885261,2.555,2.73986
0.446662,-0.878677,2.536,2.72082
0.454894,-0.878677,2.536,2.72219
0.463125,-0.878677,2.536,2.72357
0.471356,-0.878677,2.536,2.72499
0.479587,-0.878677,2.536,2.72642
0.491473,-0.885261,2.555,2.74832
0.499766,-0.885261,2.555,2.74981
0.508059,-0.885261,2.555,2.75133
0.516352,-0.885261,2.555,2.75288
0.524645,-0.885261,2.555,2.75444
0.532938,-0.885261,2.555,2.75604
0.541231,-0.885261,2.555,2.75765
0.545437,-0.878677,2.536,2.73877
0.553668,-0.878677,2.536,2.74042
0.5619,-0.878677,2.536,2.7421
0.570131,-0.878677,2.536,2.7438
0.578362,-0.878677,2.536,2.74552
0.586593,-0.878677,2.536,2.74726
0.594824,-0.878677,2.536,2.74903
0.603056,-0.878677,2.536,2.75083
0.611287,-0.878677,2.536,2.75264
0.619518,-0.878677,2.536,2.75448
0.627749,-0.878677,2.536,2.75635
0.635981,-0.878677,2.536,2.75823
0.644212,-0.878677,2.536,2.76014
0.652443,-0.878677,2.536,2.76207
0.660674,-0.878677,2.536,2.76403
0.663894,-0.872094,2.517,2.74529
0.672064,-0.872094,2.517,2.74727
0.680233,-0.872094,2.517,2.74928
0.688403,-0.872094,2.517,2.75132
0.696572,-0.872094,2.517,2.75337
0.699702,-0.865858,2.499,2.73574
0.707813,-0.865858,2.499,2.73783
0.715924,-0.865858,2.499,2.73994
0.724035,-0.865858,2.499,2.74207
0.726873,-0.859621,2.481,2.72445
0.734926,-0.859621,2.481,2.72661
0.742978,-0.859621,2.481,2.7288
0.751031,-0.859621,2.481,2.731
0.759084,-0.859621,2.481,2.73322
0.767137,-0.859621,2.481,2.73547
0.775189,-0.859621,2.481,2.73774
0.783242,-0.859621,2.481,2.74003
0.797036,-0.865858,2.499,2.76224
0.805147,-0.865858,2.499,2.76459
0.813258,-0.865858,2.499,2.76697
0.821369,-0.865858,2.499,2.76936
0.82948,-0.865858,2.499,2.77178
0.837591,-0.865858,2.499,2.77422
0.839611,-0.859621,2.481,2.75668
0.847664,-0.859621,2.481,2.75914
0.855716,-0.859621,2.481,2.76162
0.870036,-0.865858,2.499,2.78418
0.884472,-0.872094,2.517,2.8068
0.892642,-0.872094,2.517,2.80939
0.900811,-0.872094,2.517,2.81199
0.908981,-0.872094,2.517,2.81462
0.91715,-0.872094,2.517,2.81727
0.932305,-0.878677,2.536,2.84123
0.940536,-0.878677,2.536,2.84394
0.948767,-0.878677,2.536,2.84667
nan,nan,nan,NaN
nan,nan,nan,NaN
nan,nan,nan,NaN
nan,nan,nan,NaN
nan,nan,nan,NaN
nan,nan,nan,NaN
nan,nan,nan,NaN
nan,nan,nan,NaN
nan,nan,nan,NaN
nan,nan,nan,NaN
nan,nan,nan,NaN
nan,nan,nan,NaN
nan,nan,nan,NaN
nan,nan,nan,NaN
nan,nan,nan,NaN
nan,nan,nan,NaN
nan,nan,nan,NaN
nan,nan,nan,NaN
nan,nan,nan,NaN
nan,nan,nan,NaN
nan,nan,nan,NaN
nan,nan,nan,NaN
nan,nan,nan,NaN
nan,nan,nan,NaN
nan,nan,nan,NaN
nan,nan,nan,NaN
nan,nan,nan,NaN
nan,nan,nan,NaN
nan,nan,nan,NaN
nan,nan,nan,NaN
nan,nan,nan,NaN
nan,nan,nan,NaN
nan,nan,nan,NaN
nan,nan,nan,NaN
nan,nan,nan,NaN
nan,nan,nan,NaN
nan,nan,nan,NaN
nan,nan,nan,NaN
nan,nan,nan,NaN
nan,nan,nan,NaN
nan,nan,nan,NaN
nan,nan,nan,NaN
nan,nan,nan,NaN
nan,nan,nan,NaN
1.72907,-1.15171,3.324,3.91983
1.73986,-1.15171,3.324,3.9246
1.75065,-1.15171,3.324,3.9294
1.7784,-1.16279,3.356,3.97209
1.82501,-1.18601,3.423,4.05638
1.83612,-1.18601,3.423,4.06139
1.88501,-1.21026,3.493,4.14958
nan,nan,nan,NaN
nan,nan,nan,NaN
1.98,-1.24872,3.604,4.2975
1.9917,-1.24872,3.604,4.3029
2.02452,-1.26189,3.642,4.35376
2.03634,-1.26189,3.642,4.35927
2.04816,-1.26189,3.642,4.3648
2.05998,-1.26189,3.642,4.37036
2.07181,-1.26189,3.642,4.37595
2.08363,-1.26189,3.642,4.38155
2.07358,-1.24872,3.604,4.34141
2.08528,-1.24872,3.604,4.34701
2.09698,-1.24872,3.604,4.35264
2.08644,-1.23555,3.566,4.31233
2.09802,-1.23555,3.566,4.31794
2.0877,-1.22273,3.529,4.27872
2.05692,-1.19813,3.458,4.19812
2.06815,-1.19813,3.458,4.20363
2.05833,-1.18601,3.423,4.16656
2.04888,-1.17423,3.389,4.13062
2.05988,-1.17423,3.389,4.13609
2.05072,-1.16279,3.356,4.10125
2.04195,-1.15171,3.324,4.06755
2.05274,-1.15171,3.324,4.07298
2.0238,-1.12953,3.26,3.9999
1.99631,-1.10839,3.199,3.93032
2.0067,-1.10839,3.199,3.9356
1.98051,-1.0883,3.141,3.86946
1.95458,-1.06855,3.084,3.80437
1.93019,-1.04984,3.03,3.74282
1.94002,-1.04984,3.03,3.7479
1.93248,-1.04048,3.003,3.71956
1.92541,-1.03148,2.977,3.69238
1.93508,-1.03148,2.977,3.69743
1.92775,-1.02247,2.951,3.67016
1.92092,-1.01381,2.926,3.64406
1.93042,-1.01381,2.926,3.64908
1.92334,-1.00514,2.901,3.62289
1.90077,-0.988512,2.853,3.56787
1.91004,-0.988512,2.853,3.57281
1.90315,-0.980197,2.829,3.54768
1.89678,-0.972228,2.806,3.52373
1.90589,-0.972228,2.806,3.52864
-2.24076,-1.10865,3.23,4.08448
-2.23027,-1.10865,3.23,4.07874
-2.21979,-1.10865,3.23,4.07302
-2.20931,-1.10865,3.23,4.06731
-2.19882,-1.10865,3.23,4.06163
-2.23034,-1.12994,3.292,4.13382
-2.21966,-1.12994,3.292,4.12806
-2.23045,-1.14092,3.324,4.1624
-2.21966,-1.14092,3.324,4.15663
-2.20887,-1.14092,3.324,4.15088
-2.19808,-1.14092,3.324,4.14514
-2.18729,-1.14092,3.324,4.13943
-2.1765,-1.14092,3.324,4.13374
-2.18656,-1.1519,3.356,4.16781
-2.17567,-1.1519,3.356,4.16211
-2.16478,-1.1519,3.356,4.15643
-2.15388,-1.1519,3.356,4.15076
-2.14299,-1.1519,3.356,4.14512
-2.1321,-1.1519,3.356,4.1395
-2.1212,-1.1519,3.356,4.1339
-2.13106,-1.16323,3.389,4.16892
-2.12006,-1.16323,3.389,4.1633
-2.13022,-1.1749,3.423,4.19942
-2.11911,-1.1749,3.423,4.1938
-2.108,-1.1749,3.423,4.1882
-2.09689,-1.1749,3.423,4.18262
-2.08578,-1.1749,3.423,4.17706
-2.09589,-1.18691,3.458,4.21417
-2.08466,-1.18691,3.458,4.2086
nan,nan,nan,NaN
nan,nan,nan,NaN
nan,nan,nan,NaN
nan,nan,nan,NaN
nan,nan,nan,NaN
nan,nan,nan,NaN
nan,nan,nan,NaN
nan,nan,nan,NaN
nan,nan,nan,NaN
nan,nan,nan,NaN
nan,nan,nan,NaN
nan,nan,nan,NaN
nan,nan,nan,NaN
nan,nan,nan,NaN
nan,nan,nan,NaN
nan,nan,nan,NaN
nan,nan,nan,NaN
nan,nan,nan,NaN
nan,nan,nan,NaN
nan,nan,nan,NaN
nan,nan,nan,NaN
nan,nan,nan,NaN
nan,nan,nan,NaN
nan,nan,nan,NaN
nan,nan,nan,NaN
nan,nan,nan,NaN
nan,nan,nan,NaN
nan,nan,nan,NaN
nan,nan,nan,NaN
nan,nan,nan,NaN
nan,nan,nan,NaN
nan,nan,nan,NaN
nan,nan,nan,NaN
nan,nan,nan,NaN
nan,nan,nan,NaN
nan,nan,nan,NaN
nan,nan,nan,NaN
nan,nan,nan,NaN
nan,nan,nan,NaN
nan,nan,nan,NaN
nan,nan,nan,NaN
nan,nan,nan,NaN
nan,nan,nan,NaN
nan,nan,nan,NaN
-1.28176,-0.963123,2.806,3.23174
-1.27265,-0.963123,2.806,3.22814
-1.26355,-0.963123,2.806,3.22456
-1.25444,-0.963123,2.806,3.221
-1.23512,-0.955228,2.783,3.19109
-1.22609,-0.955228,2.783,3.18761
-1.21706,-0.955228,2.783,3.18414
-1.20802,-0.955228,2.783,3.1807
-1.18951,-0.947677,2.761,3.15217
-1.18055,-0.947677,2.761,3.1488
-1.16225,-0.940126,2.739,3.12038
-1.13526,-0.925366,2.696,3.06815
-1.12651,-0.925366,2.696,3.06492
-1.10905,-0.918159,2.675,3.03787
-1.07486,-0.896878,2.613,2.96437
-1.05047,-0.883492,2.574,2.91711
-1.04211,-0.883492,2.574,2.91411
-1.02613,-0.87697,2.555,2.88964
-1.01026,-0.870449,2.536,2.86524
-1.00203,-0.870449,2.536,2.86235
-0.986356,-0.863927,2.517,2.83806
-0.971191,-0.857749,2.499,2.81495
-0.96308,-0.857749,2.499,2.81216
-0.941212,-0.845392,2.463,2.76892
-0.933218,-0.845392,2.463,2.76622
-0.925224,-0.845392,2.463,2.76353
-0.917229,-0.845392,2.463,2.76086
-0.909235,-0.845392,2.463,2.75822
-0.901241,-0.845392,2.463,2.75559
-0.899774,-0.851571,2.481,2.77311
-0.891722,-0.851571,2.481,2.77051
-0.883669,-0.851571,2.481,2.76792
-0.875616,-0.851571,2.481,2.76536
-0.861269,-0.845392,2.463,2.74278
-0.853275,-0.845392,2.463,2.74028
-0.845281,-0.845392,2.463,2.7378
-0.837286,-0.845392,2.463,2.73534
-0.829292,-0.845392,2.463,2.73291
-0.821298,-0.845392,2.463,2.73049
-0.813304,-0.845392,2.463,2.7281
-0.805309,-0.845392,2.463,2.72573
-0.791488,-0.839214,2.445,2.70347
-0.783552,-0.839214,2.445,2.70116
-0.770224,-0.833379,2.428,2.6801
-0.757005,-0.827544,2.411,2.6591
-0.74918,-0.827544,2.411,2.65688
-0.736127,-0.821709,2.394,2.63597
-0.728357,-0.821709,2.394,2.63381
-0.720586,-0.821709,2.394,2.63167
-0.707754,-0.815874,2.377,2.61088
-0.700039,-0.815874,2.377,2.6088
-0.692324,-0.815874,2.377,2.60674
-0.684609,-0.815874,2.377,2.6047
-0.676894,-0.815874,2.377,2.60268
-0.669178,-0.815874,2.377,2.60069
-0.661463,-0.815874,2.377,2.59871
-0.653748,-0.815874,2.377,2.59676
-0.650653,-0.821709,2.394,2.61339
-0.642883,-0.821709,2.394,2.61146
-0.635113,-0.821709,2.394,2.60956
-0.631797,-0.827544,2.411,2.6262
-0.623972,-0.827544,2.411,2.62433
-0.620491,-0.833379,2.428,2.64097
-0.61261,-0.833379,2.428,2.63913
-0.608963,-0.839214,2.445,2.65578
-0.605452,-0.845392,2.463,2.67351
-0.597458,-0.845392,2.463,2.67171
-0.589464,-0.845392,2.463,2.66993
-0.585719,-0.851571,2.481,2.68768
-0.577666,-0.851571,2.481,2.68593
-0.573746,-0.857749,2.499,2.70369
-0.565635,-0.857749,2.499,2.70198
-0.561539,-0.863927,2.517,2.71974
-0.55337,-0.863927,2.517,2.71807
-0.549316,-0.870449,2.536,2.73692
-0.541085,-0.870449,2.536,2.73528
-0.532853,-0.870449,2.536,2.73366
-0.524622,-0.870449,2.536,2.73207
-0.516391,-0.870449,2.536,2.7305
-0.50816,-0.870449,2.536,2.72896
-0.499929,-0.870449,2.536,2.72744
-0.491697,-0.870449,2.536,2.72594
-0.483466,-0.870449,2.536,2.72447
-0.471674,-0.863927,2.517,2.70262
-0.463505,-0.863927,2.517,2.7012
-0.455335,-0.863927,2.517,2.69981
-0.447166,-0.863927,2.517,2.69845
-0.438996,-0.863927,2.517,2.69711
-0.430827,-0.863927,2.517,2.69579
-0.422657,-0.863927,2.517,2.69449
-0.414487,-0.863927,2.517,2.69322
-0.406318,-0.863927,2.517,2.69198
-0.398148,-0.863927,2.517,2.69076
-0.38719,-0.857749,2.499,2.67033
-0.379079,-0.857749,2.499,2.66916
-0.37364,-0.863927,2.517,2.68724
-0.36547,-0.863927,2.517,2.68612
-0.357301,-0.863927,2.517,2.68502
-0.349131,-0.863927,2.517,2.68394
-0.338523,-0.857749,2.499,2.66371
-0.330412,-0.857749,2.499,2.66269
-0.322301,-0.857749,2.499,2.66169
-0.31419,-0.857749,2.499,2.66072
-0.303874,-0.851571,2.481,2.64062
-0.295821,-0.851571,2.481,2.63971
-0.287769,-0.851571,2.481,2.63882
-0.279716,-0.851571,2.481,2.63795
-0.269692,-0.845392,2.463,2.61797
-0.261698,-0.845392,2.463,2.61716
-0.253704,-0.845392,2.463,2.61638
-0.245709,-0.845392,2.463,2.61561
-0.237715,-0.845392,2.463,2.61487
-0.228042,-0.839214,2.445,2.59505
-0.220106,-0.839214,2.445,2.59437
-0.21217,-0.839214,2.445,2.59371
-0.204234,-0.839214,2.445,2.59307
-0.196298,-0.839214,2.445,2.59246
-0.189749,-0.845392,2.463,2.61095
-0.181755,-0.845392,2.463,2.61038
-0.173761,-0.845392,2.463,2.60984
-0.165766,-0.845392,2.463,2.60932
-0.157772,-0.845392,2.463,2.60882
-0.149778,-0.845392,2.463,2.60835
-0.141784,-0.845392,2.463,2.6079
-0.133789,-0.845392,2.463,2.60748
-0.125795,-0.845392,2.463,2.60708
-0.118662,-0.851571,2.481,2.62576
-0.110609,-0.851571,2.481,2.62541
-0.102556,-0.851571,2.481,2.62508
-0.0945035,-0.851571,2.481,2.62478
-0.087078,-0.857749,2.499,2.64354
-0.0789668,-0.857749,2.499,2.64329
-0.0708557,-0.857749,2.499,2.64306
-0.0627446,-0.857749,2.499,2.64285
-0.0546334,-0.857749,2.499,2.64267
-0.0465223,-0.857749,2.499,2.64252
-0.0386878,-0.863927,2.517,2.66142
-0.0305183,-0.863927,2.517,2.66131
-0.0225174,-0.870449,2.536,2.68132
-0.0142862,-0.870449,2.536,2.68126
-0.00605498,-0.870449,2.536,2.68123
0.00219255,-0.87697,2.555,2.70132
0.0104854,-0.87697,2.555,2.70134
0.0187783,-0.87697,2.555,2.70138
0.0270712,-0.87697,2.555,2.70145
0.0353641,-0.87697,2.555,2.70155
0.043657,-0.87697,2.555,2.70167
0.0519499,-0.87697,2.555,2.70181
0.0602428,-0.87697,2.555,2.70199
0.0685357,-0.87697,2.555,2.70218
0.0768286,-0.87697,2.555,2.70241
0.0851215,-0.87697,2.555,2.70266
0.0934144,-0.87697,2.555,2.70293
0.100951,-0.870449,2.536,2.68313
0.109182,-0.870449,2.536,2.68345
0.117413,-0.870449,2.536,2.6838
0.124703,-0.863927,2.517,2.66406
0.132873,-0.863927,2.517,2.66445
0.140034,-0.857749,2.499,2.64582
0.148145,-0.857749,2.499,2.64626
0.156256,-0.857749,2.499,2.64672
0.163183,-0.851571,2.481,2.62815
0.171236,-0.851571,2.481,2.62866
0.179289,-0.851571,2.481,2.6292
0.187341,-0.851571,2.481,2.62976
0.195394,-0.851571,2.481,2.63034
0.203447,-0.851571,2.481,2.63096
0.2115,-0.851571,2.481,2.63159
0.219552,-0.851571,2.481,2.63225
0.227605,-0.851571,2.481,2.63293
0.235658,-0.851571,2.481,2.63364
0.24371,-0.851571,2.481,2.63437
0.251763,-0.851571,2.481,2.63513
0.259816,-0.851571,2.481,2.63591
0.269812,-0.857749,2.499,2.65585
0.277923,-0.857749,2.499,2.65669
0.286034,-0.857749,2.499,2.65755
0.294145,-0.857749,2.499,2.65843
0.302256,-0.857749,2.499,2.65934
0.310368,-0.857749,2.499,2.66027
0.320773,-0.863927,2.517,2.6804
0.328942,-0.863927,2.517,2.68139
0.337112,-0.863927,2.517,2.68241
0.345281,-0.863927,2.517,2.68345
0.353451,-0.863927,2.517,2.68451
0.36435,-0.870449,2.536,2.70587
0.372581,-0.870449,2.536,2.70699
0.380813,-0.870449,2.536,2.70813
0.389044,-0.870449,2.536,2.7093
0.397275,-0.870449,2.536,2.7105
0.405506,-0.870449,2.536,2.71172
0.413738,-0.870449,2.536,2.71296
0.421969,-0.870449,2.536,2.71423
0.4302,-0.870449,2.536,2.71552
0.435146,-0.863927,2.517,2.69648
0.443316,-0.863927,2.517,2.69781
0.451486,-0.863927,2.517,2.69917
0.463125,-0.870449,2.536,2.72093
0.471356,-0.870449,2.536,2.72234
0.479587,-0.870449,2.536,2.72378
0.491473,-0.87697,2.555,2.74566
0.499766,-0.87697,2.555,2.74716
0.508059,-0.87697,2.555,2.74868
0.516352,-0.87697,2.555,2.75022
0.524645,-0.87697,2.555,2.75179
0.532938,-0.87697,2.555,2.75338
0.541231,-0.87697,2.555,2.755
0.545437,-0.870449,2.536,2.73614
0.553668,-0.870449,2.536,2.7378
0.5619,-0.870449,2.536,2.73947
0.570131,-0.870449,2.536,2.74117
0.578362,-0.870449,2.536,2.7429
0.586593,-0.870449,2.536,2.74464
0.594824,-0.870449,2.536,2.74641
0.603056,-0.870449,2.536,2.74821
0.611287,-0.870449,2.536,2.75003
0.619518,-0.870449,2.536,2.75187
0.627749,-0.870449,2.536,2.75373
0.635981,-0.870449,2.536,2.75562
0.644212,-0.870449,2.536,2.75753
0.652443,-0.870449,2.536,2.75947
0.660674,-0.870449,2.536,2.76142
0.663894,-0.863927,2.517,2.7427
0.672064,-0.863927,2.517,2.74469
0.680233,-0.863927,2.517,2.7467
0.688403,-0.863927,2.517,2.74874
0.696572,-0.863927,2.517,2.75079
0.699702,-0.857749,2.499,2.73319
0.707813,-0.857749,2.499,2.73528
0.715924,-0.857749,2.499,2.73739
0.724035,-0.857749,2.499,2.73952
0.726873,-0.851571,2.481,2.72193
0.734926,-0.851571,2.481,2.72409
0.742978,-0.851571,2.481,2.72627
0.751031,-0.851571,2.481,2.72848
0.759084,-0.851571,2.481,2.7307
0.767137,-0.851571,2.481,2.73295
0.775189,-0.851571,2.481,2.73522
0.783242,-0.851571,2.481,2.73752
0.797036,-0.857749,2.499,2.75971
0.805147,-0.857749,2.499,2.76206
0.813258,-0.857749,2.499,2.76444
0.821369,-0.857749,2.499,2.76684
0.82948,-0.857749,2.499,2.76925
0.837591,-0.857749,2.499,2.7717
0.839611,-0.851571,2.481,2.75418
0.847664,-0.851571,2.481,2.75664
0.855716,-0.851571,2.481,2.75913
0.870036,-0.857749,2.499,2.78167
nan,nan,nan,NaN
nan,nan,nan,NaN
nan,nan,nan,NaN
nan,nan,nan,NaN
nan,nan,nan,NaN
nan,nan,nan,NaN
nan,nan,nan,NaN
nan,nan,nan,NaN
nan,nan,nan,NaN
nan,nan,nan,NaN
nan,nan,nan,NaN
nan,nan,nan,NaN
nan,nan,nan,NaN
nan,nan,nan,NaN
nan,nan,nan,NaN
nan,nan,nan,NaN
nan,nan,nan,NaN
nan,nan,nan,NaN
nan,nan,nan,NaN
nan,nan,nan,NaN
nan,nan,nan,NaN
nan,nan,nan,NaN
nan,nan,nan,NaN
nan,nan,nan,NaN
nan,nan,nan,NaN
nan,nan,nan,NaN
nan,nan,nan,NaN
nan,nan,nan,NaN
nan,nan,nan,NaN
nan,nan,nan,NaN
nan,nan,nan,NaN
nan,nan,nan,NaN
nan,nan,nan,NaN
nan,nan,nan,NaN
nan,nan,nan,NaN
nan,nan,nan,NaN
nan,nan,nan,NaN
nan,nan,nan,NaN
nan,nan,nan,NaN
nan,nan,nan,NaN
nan,nan,nan,NaN
1.53579,-1.08806,3.17,3.68665
1.54608,-1.08806,3.17,3.69095
1.55636,-1.08806,3.17,3.69527
1.56665,-1.08806,3.17,3.69962
1.57694,-1.08806,3.17,3.70399
1.60175,-1.09801,3.199,3.74231
1.61213,-1.09801,3.199,3.74676
1.62252,-1.09801,3.199,3.75124
1.64872,-1.10865,3.23,3.79214
1.67462,-1.11895,3.26,3.83197
1.6852,-1.11895,3.26,3.83661
1.71243,-1.12994,3.292,3.87897
1.73986,-1.14092,3.324,3.92145
1.75065,-1.14092,3.324,3.92625
1.7784,-1.1519,3.356,3.96892
1.82501,-1.1749,3.423,4.05315
1.83612,-1.1749,3.423,4.05816
1.88501,-1.19893,3.493,4.14629
1.91589,-1.21128,3.529,4.19424
1.94755,-1.22398,3.566,4.24352
1.95913,-1.22398,3.566,4.24884
1.9917,-1.23703,3.604,4.29953
2.02452,-1.25007,3.642,4.35035
2.03634,-1.25007,3.642,4.35586
2.04816,-1.25007,3.642,4.3614
2.05998,-1.25007,3.642,4.36696
2.07181,-1.25007,3.642,4.37255
2.08363,-1.25007,3.642,4.37817
2.07358,-1.23703,3.604,4.33806
2.08528,-1.23703,3.604,4.34367
2.09698,-1.23703,3.604,4.3493
2.08644,-1.22398,3.566,4.30903
2.09802,-1.22398,3.566,4.31465
2.0877,-1.21128,3.529,4.27546
2.05692,-1.18691,3.458,4.19493
2.06815,-1.18691,3.458,4.20045
2.05833,-1.1749,3.423,4.16341
2.04888,-1.16323,3.389,4.12751
2.05988,-1.16323,3.389,4.13298
2.05072,-1.1519,3.356,4.09818
2.04195,-1.14092,3.324,4.06451
2.05274,-1.14092,3.324,4.06994
2.0238,-1.11895,3.26,3.99693
1.99631,-1.09801,3.199,3.9274
2.0067,-1.09801,3.199,3.93269
1.98051,-1.07811,3.141,3.8666
1.95458,-1.05854,3.084,3.80157
1.94739,-1.04928,3.057,3.7734
1.95731,-1.04928,3.057,3.77853
1.94986,-1.04001,3.03,3.75026
1.92541,-1.02182,2.977,3.6897
1.93508,-1.02182,2.977,3.69475
1.92775,-1.01289,2.951,3.6675
1.92092,-1.00431,2.926,3.64143
1.93042,-1.00431,2.926,3.64645
1.92334,-0.99573,2.901,3.62029
1.91676,-0.987492,2.877,3.59531
1.9261,-0.987492,2.877,3.6003
1.9193,-0.979255,2.853,3.57523
1.89678,-0.963123,2.806,3.52123
1.90589,-0.963123,2.806,3.52614
-2.24076,-1.09817,3.23,4.08165
-2.23027,-1.09817,3.23,4.07591
-2.21979,-1.09817,3.23,4.07018
-2.22983,-1.10837,3.26,4.10222
-2.21924,-1.10837,3.26,4.09648
-2.23034,-1.11925,3.292,4.13091
-2.21966,-1.11925,3.292,4.12515
-2.23045,-1.13013,3.324,4.15945
-2.21966,-1.13013,3.324,4.15368
-2.20887,-1.13013,3.324,4.14792
-2.19808,-1.13013,3.324,4.14219
-2.18729,-1.13013,3.324,4.13647
-2.19745,-1.14101,3.356,4.17055
-2.18656,-1.14101,3.356,4.16482
-2.17567,-1.14101,3.356,4.15911
-2.18606,-1.15223,3.389,4.19426
-2.17506,-1.15223,3.389,4.18854
-2.16406,-1.15223,3.389,4.18284
-2.15306,-1.15223,3.389,4.17716
-2.14206,-1.15223,3.389,4.1715
-2.15244,-1.16379,3.423,4.20765
-2.14133,-1.16379,3.423,4.20198
-2.152,-1.17569,3.458,4.23924
-2.14078,-1.17569,3.458,4.23355
-2.12956,-1.17569,3.458,4.22789
-2.13977,-1.18759,3.493,4.26498
-2.12844,-1.18759,3.493,4.2593
-2.13892,-1.19983,3.529,4.29749
-2.12746,-1.19983,3.529,4.2918
nan,nan,nan,NaN
nan,nan,nan,NaN
nan,nan,nan,NaN
nan,nan,nan,NaN
nan,nan,nan,NaN
nan,nan,nan,NaN
nan,nan,nan,NaN
nan,nan,nan,NaN
nan,nan,nan,NaN
nan,nan,nan,NaN
nan,nan,nan,NaN
nan,nan,nan,NaN
nan,nan,nan,NaN
nan,nan,nan,NaN
nan,nan,nan,NaN
nan,nan,nan,NaN
nan,nan,nan,NaN
nan,nan,nan,NaN
nan,nan,nan,NaN
nan,nan,nan,NaN
nan,nan,nan,NaN
nan,nan,nan,NaN
nan,nan,nan,NaN
nan,nan,nan,NaN
nan,nan,nan,NaN
nan,nan,nan,NaN
nan,nan,nan,NaN
nan,nan,nan,NaN
nan,nan,nan,NaN
nan,nan,nan,NaN
nan,nan,nan,NaN
nan,nan,nan,NaN
nan,nan,nan,NaN
nan,nan,nan,NaN
nan,nan,nan,NaN
nan,nan,nan,NaN
nan,nan,nan,NaN
nan,nan,nan,NaN
nan,nan,nan,NaN
nan,nan,nan,NaN
nan,nan,nan,NaN
nan,nan,nan,NaN
nan,nan,nan,NaN
nan,nan,nan,NaN
-1.24111,-0.923758,2.717,3.12662
-1.23229,-0.923758,2.717,3.12313
-1.21401,-0.916618,2.696,3.09555
-1.20526,-0.916618,2.696,3.09213
-1.18719,-0.909479,2.675,3.06467
-1.16926,-0.902339,2.654,3.03728
-1.16064,-0.902339,2.654,3.03398
-1.15203,-0.902339,2.654,3.03069
-1.15246,-0.909479,2.675,3.05138
-1.14378,-0.909479,2.675,3.04812
-1.12619,-0.902339,2.654,3.02096
-1.10873,-0.895199,2.633,2.99389
-1.10018,-0.895199,2.633,2.99073
-1.08334,-0.888399,2.613,2.9649
-1.05882,-0.875139,2.574,2.91761
-1.03496,-0.86222,2.536,2.87156
-1.02673,-0.86222,2.536,2.8686
-1.01087,-0.85576,2.517,2.8442
-0.995525,-0.84964,2.499,2.82099
-0.987414,-0.84964,2.499,2.81813
-0.979303,-0.84964,2.499,2.8153
-0.957201,-0.8374,2.463,2.77197
-0.949206,-0.8374,2.463,2.76922
-0.934334,-0.83128,2.445,2.74628
-0.926398,-0.83128,2.445,2.74359
-0.918462,-0.83128,2.445,2.74092
-0.910526,-0.83128,2.445,2.73827
-0.90259,-0.83128,2.445,2.73564
-0.894654,-0.83128,2.445,2.73303
-0.893246,-0.8374,2.463,2.75055
-0.885252,-0.8374,2.463,2.74796
-0.877258,-0.8374,2.463,2.74539
-0.869264,-0.8374,2.463,2.74285
-0.861269,-0.8374,2.463,2.74033
-0.853275,-0.8374,2.463,2.73783
-0.845281,-0.8374,2.463,2.73534
-0.837286,-0.8374,2.463,2.73288
-0.829292,-0.8374,2.463,2.73045
-0.821298,-0.8374,2.463,2.72803
-0.813304,-0.8374,2.463,2.72563
-0.805309,-0.8374,2.463,2.72326
-0.791488,-0.83128,2.445,2.70102
-0.783552,-0.83128,2.445,2.6987
-0.770224,-0.825501,2.428,2.67766
-0.757005,-0.819721,2.411,2.65667
-0.74918,-0.819721,2.411,2.65446
-0.736127,-0.813941,2.394,2.63356
-0.728357,-0.813941,2.394,2.63139
-0.720586,-0.813941,2.394,2.62925
-0.70299,-0.802721,2.361,2.59092
-0.695327,-0.802721,2.361,2.58885
-0.687664,-0.802721,2.361,2.58681
-0.68,-0.802721,2.361,2.58478
-0.672337,-0.802721,2.361,2.58277
-0.664674,-0.802721,2.361,2.58079
-0.661463,-0.808161,2.377,2.5963
-0.653748,-0.808161,2.377,2.59435
-0.646033,-0.808161,2.377,2.59241
-0.642883,-0.813941,2.394,2.60903
-0.635113,-0.813941,2.394,2.60713
-0.631797,-0.819721,2.411,2.62374
-0.623972,-0.819721,2.411,2.62187
-0.620491,-0.825501,2.428,2.63849
-0.61261,-0.825501,2.428,2.63665
-0.608963,-0.83128,2.445,2.65328
-0.605452,-0.8374,2.463,2.67099
-0.597458,-0.8374,2.463,2.66919
-0.589464,-0.8374,2.463,2.66741
-0.585719,-0.84352,2.481,2.68514
-0.577666,-0.84352,2.481,2.68339
-0.569613,-0.84352,2.481,2.68167
-0.565635,-0.84964,2.499,2.69941
-0.561539,-0.85576,2.517,2.71716
-0.55337,-0.85576,2.517,2.71548
-0.541301,-0.84964,2.499,2.69442
-0.53319,-0.84964,2.499,2.6928
-0.525079,-0.84964,2.499,2.69121
-0.520692,-0.85576,2.517,2.70901
-0.512522,-0.85576,2.517,2.70745
-0.504353,-0.85576,2.517,2.70592
-0.496183,-0.85576,2.517,2.70441
-0.484524,-0.84964,2.499,2.68359
-0.476412,-0.84964,2.499,2.68214
-0.468301,-0.84964,2.499,2.68071
-0.46019,-0.84964,2.499,2.6793
-0.452079,-0.84964,2.499,2.67792
-0.443968,-0.84964,2.499,2.67656
-0.435857,-0.84964,2.499,2.67523
-0.427746,-0.84964,2.499,2.67392
-0.419634,-0.84964,2.499,2.67264
-0.411523,-0.84964,2.499,2.67137
-0.406318,-0.85576,2.517,2.68937
-0.398148,-0.85576,2.517,2.68815
-0.38719,-0.84964,2.499,2.66773
-0.379079,-0.84964,2.499,2.66657
-0.37364,-0.85576,2.517,2.68463
-0.36547,-0.85576,2.517,2.6835
-0.354745,-0.84964,2.499,2.66322
-0.346634,-0.84964,2.499,2.66215
-0.338523,-0.84964,2.499,2.66111
-0.330412,-0.84964,2.499,2.66009
-0.322301,-0.84964,2.499,2.65909
-0.31419,-0.84964,2.499,2.65812
-0.303874,-0.84352,2.481,2.63803
-0.295821,-0.84352,2.481,2.63712
-0.287769,-0.84352,2.481,2.63623
-0.279716,-0.84352,2.481,2.63536
-0.269692,-0.8374,2.463,2.6154
-0.261698,-0.8374,2.463,2.61459
-0.253704,-0.8374,2.463,2.6138
-0.245709,-0.8374,2.463,2.61304
-0.237715,-0.8374,2.463,2.6123
-0.228042,-0.83128,2.445,2.5925
-0.220106,-0.83128,2.445,2.59181
-0.21217,-0.83128,2.445,2.59115
-0.204234,-0.83128,2.445,2.59051
-0.196298,-0.83128,2.445,2.5899
-0.189749,-0.8374,2.463,2.60837
-0.181755,-0.8374,2.463,2.6078
-0.173761,-0.8374,2.463,2.60726
-0.165766,-0.8374,2.463,2.60674
-0.157772,-0.8374,2.463,2.60624
-0.149778,-0.8374,2.463,2.60577
-0.141784,-0.8374,2.463,2.60532
-0.133789,-0.8374,2.463,2.6049
-0.125795,-0.8374,2.463,2.6045
-0.118662,-0.84352,2.481,2.62316
-0.110609,-0.84352,2.481,2.62281
-0.102556,-0.84352,2.481,2.62248
-0.0945035,-0.84352,2.481,2.62218
-0.087078,-0.84964,2.499,2.64092
-0.0789668,-0.84964,2.499,2.64067
-0.0708557,-0.84964,2.499,2.64044
-0.0627446,-0.84964,2.499,2.64023
-0.0546334,-0.84964,2.499,2.64005
-0.0465223,-0.84964,2.499,2.6399
-0.0386878,-0.85576,2.517,2.65878
-0.0305183,-0.85576,2.517,2.65867
-0.0225174,-0.86222,2.536,2.67866
-0.0142862,-0.86222,2.536,2.6786
-0.00605498,-0.86222,2.536,2.67857
0.00219255,-0.86868,2.555,2.69864
0.0104854,-0.86868,2.555,2.69866
0.0187783,-0.86868,2.555,2.6987
0.0270712,-0.86868,2.555,2.69877
0.0353641,-0.86868,2.555,2.69887
0.043657,-0.86868,2.555,2.69899
0.0519499,-0.86868,2.555,2.69913
0.0602428,-0.86868,2.555,2.69931
0.0685357,-0.86868,2.555,2.6995
0.0768286,-0.86868,2.555,2.69973
0.0851215,-0.86868,2.555,2.69998
0.0934144,-0.86868,2.555,2.70025
0.100951,-0.86222,2.536,2.68047
0.109182,-0.86222,2.536,2.68079
0.117413,-0.86222,2.536,2.68114
0.124703,-0.85576,2.517,2.66142
0.132873,-0.85576,2.517,2.66182
0.140034,-0.84964,2.499,2.6432
0.148145,-0.84964,2.499,2.64364
0.156256,-0.84964,2.499,2.64411
0.163183,-0.84352,2.481,2.62555
0.171236,-0.84352,2.481,2.62606
0.179289,-0.84352,2.481,2.6266
0.187341,-0.84352,2.481,2.62716
0.195394,-0.84352,2.481,2.62775
0.203447,-0.84352,2.481,2.62836
0.2115,-0.84352,2.481,2.629
0.219552,-0.84352,2.481,2.62966
0.227605,-0.84352,2.481,2.63034
0.235658,-0.84352,2.481,2.63105
0.24371,-0.84352,2.481,2.63178
0.251763,-0.84352,2.481,2.63254
0.259816,-0.84352,2.481,2.63332
0.269812,-0.84964,2.499,2.65324
0.277923,-0.84964,2.499,2.65408
0.286034,-0.84964,2.499,2.65494
0.294145,-0.84964,2.499,2.65583
0.302256,-0.84964,2.499,2.65674
0.310368,-0.84964,2.499,2.65767
0.320773,-0.85576,2.517,2.67778
0.328942,-0.85576,2.517,2.67877
0.337112,-0.85576,2.517,2.67979
0.345281,-0.85576,2.517,2.68083
0.353451,-0.85576,2.517,2.68189
0.36435,-0.86222,2.536,2.70323
0.372581,-0.86222,2.536,2.70436
0.380813,-0.86222,2.536,2.7055
0.389044,-0.86222,2.536,2.70667
0.397275,-0.86222,2.536,2.70787
0.405506,-0.86222,2.536,2.70909
0.413738,-0.86222,2.536,2.71033
0.421969,-0.86222,2.536,2.7116
0.4302,-0.86222,2.536,2.71289
0.435146,-0.85576,2.517,2.69388
0.443316,-0.85576,2.517,2.69521
0.451486,-0.85576,2.517,2.69656
0.463125,-0.86222,2.536,2.71831
0.471356,-0.86222,2.536,2.71972
0.479587,-0.86222,2.536,2.72116
0.487819,-0.86222,2.536,2.72262
0.49605,-0.86222,2.536,2.72411
0.504281,-0.86222,2.536,2.72562
0.512512,-0.86222,2.536,2.72716
0.520743,-0.86222,2.536,2.72872
0.528975,-0.86222,2.536,2.7303
0.537206,-0.86222,2.536,2.73191
0.545437,-0.86222,2.536,2.73354
0.553668,-0.86222,2.536,2.73519
0.5619,-0.86222,2.536,2.73687
0.570131,-0.86222,2.536,2.73857
0.578362,-0.86222,2.536,2.7403
0.586593,-0.86222,2.536,2.74204
0.594824,-0.86222,2.536,2.74382
0.603056,-0.86222,2.536,2.74561
0.611287,-0.86222,2.536,2.74743
0.619518,-0.86222,2.536,2.74928
0.623046,-0.85576,2.517,2.73053
0.631216,-0.85576,2.517,2.73241
0.644212,-0.86222,2.536,2.75495
0.652443,-0.86222,2.536,2.75688
0.655725,-0.85576,2.517,2.73817
0.663894,-0.85576,2.517,2.74014
0.672064,-0.85576,2.517,2.74213
0.680233,-0.85576,2.517,2.74415
0.68348,-0.84964,2.499,2.72654
0.691591,-0.84964,2.499,2.72859
0.699702,-0.84964,2.499,2.73065
0.702715,-0.84352,2.481,2.71306
0.710768,-0.84352,2.481,2.71516
0.71882,-0.84352,2.481,2.71728
0.726873,-0.84352,2.481,2.71942
0.729594,-0.8374,2.463,2.70184
0.737588,-0.8374,2.463,2.70401
0.745582,-0.8374,2.463,2.7062
0.753577,-0.8374,2.463,2.70841
0.761571,-0.8374,2.463,2.71065
0.769565,-0.8374,2.463,2.7129
0.777559,-0.8374,2.463,2.71518
0.785554,-0.8374,2.463,2.71748
0.793548,-0.8374,2.463,2.7198
0.801542,-0.8374,2.463,2.72215
0.809537,-0.8374,2.463,2.72451
0.817531,-0.8374,2.463,2.7269
0.825525,-0.8374,2.463,2.7293
0.833519,-0.8374,2.463,2.73173
0.841514,-0.8374,2.463,2.73418
0.849508,-0.8374,2.463,2.73665
0.857502,-0.8374,2.463,2.73915
0.865497,-0.8374,2.463,2.74166
0.873491,-0.8374,2.463,2.74419
0.881485,-0.8374,2.463,2.74675
0.889479,-0.8374,2.463,2.74932
0.897474,-0.8374,2.463,2.75192
0.912085,-0.84352,2.481,2.77467
0.920138,-0.84352,2.481,2.77733
0.928191,-0.84352,2.481,2.78
nan,nan,nan,NaN
nan,nan,nan,NaN
nan,nan,nan,NaN
nan,nan,nan,NaN
nan,nan,nan,NaN
nan,nan,nan,NaN
nan,nan,nan,NaN
nan,nan,nan,NaN
nan,nan,nan,NaN
nan,nan,nan,NaN
nan,nan,nan,NaN
nan,nan,nan,NaN
nan,nan,nan,NaN
nan,nan,nan,NaN
nan,nan,nan,NaN
nan,nan,nan,NaN
nan,nan,nan,NaN
nan,nan,nan,NaN
nan,nan,nan,NaN
nan,nan,nan,NaN
nan,nan,nan,NaN
nan,nan,nan,NaN
nan,nan,nan,NaN
nan,nan,nan,NaN
nan,nan,nan,NaN
nan,nan,nan,NaN
nan,nan,nan,NaN
nan,nan,nan,NaN
nan,nan,nan,NaN
nan,nan,nan,NaN
nan,nan,nan,NaN
nan,nan,nan,NaN
nan,nan,nan,NaN
1.50769,-1.05806,3.112,3.61623
1.51779,-1.05806,3.112,3.62046
1.52789,-1.05806,3.112,3.6247
1.53799,-1.05806,3.112,3.62897
1.56252,-1.06791,3.141,3.66712
1.57271,-1.06791,3.141,3.67148
1.58291,-1.06791,3.141,3.67586
1.60781,-1.07777,3.17,3.71424
1.6329,-1.08763,3.199,3.75272
1.65921,-1.09817,3.23,3.79366
1.66969,-1.09817,3.23,3.79826
1.71243,-1.11925,3.292,3.87587
1.73986,-1.13013,3.324,3.91833
1.75065,-1.13013,3.324,3.92313
1.7784,-1.14101,3.356,3.96577
1.82501,-1.16379,3.423,4.04994
1.83612,-1.16379,3.423,4.05496
1.88501,-1.18759,3.493,4.14303
1.91589,-1.19983,3.529,4.19095
1.94755,-1.21241,3.566,4.24019
1.95913,-1.21241,3.566,4.24552
1.9917,-1.22533,3.604,4.29618
2.02452,-1.23825,3.642,4.34697
2.03634,-1.23825,3.642,4.35248
2.04816,-1.23825,3.642,4.35803
2.05998,-1.23825,3.642,4.3636
2.07181,-1.23825,3.642,4.36919
2.08363,-1.23825,3.642,4.37481
2.09545,-1.23825,3.642,4.38045
2.10727,-1.23825,3.642,4.38612
2.09698,-1.22533,3.604,4.34598
2.08644,-1.21241,3.566,4.30576
2.09802,-1.21241,3.566,4.31138
2.0877,-1.19983,3.529,4.27223
2.07774,-1.18759,3.493,4.2342
2.08908,-1.18759,3.493,4.23977
2.05833,-1.16379,3.423,4.16029
2.06944,-1.16379,3.423,4.1658
2.08055,-1.16379,3.423,4.17133
2.07088,-1.15223,3.389,4.1354
2.04195,-1.13013,3.324,4.06149
2.05274,-1.13013,3.324,4.06693
2.0238,-1.10837,3.26,3.99398
1.99631,-1.08763,3.199,3.92451
1.97031,-1.06791,3.141,3.85856
1.98051,-1.06791,3.141,3.86377
1.97232,-1.05806,3.112,3.83329
1.94739,-1.03936,3.057,3.77065
1.95731,-1.03936,3.057,3.77579
1.94986,-1.03018,3.03,3.74755
1.94223,-1.021,3.003,3.71923
1.95198,-1.021,3.003,3.72433
1.94474,-1.01216,2.977,3.69716
1.93733,-1.00332,2.951,3.66992
1.94691,-1.00332,2.951,3.67498
1.93991,-0.994817,2.926,3.64889
1.93275,-0.986317,2.901,3.62273
1.94217,-0.986317,2.901,3.62776
1.93544,-0.978157,2.877,3.60276
1.91233,-0.961837,2.829,3.54759
1.92151,-0.961837,2.829,3.55255
-2.24076,-1.08769,3.23,4.07884
-2.23027,-1.08769,3.23,4.07309
-2.21979,-1.08769,3.23,4.06736
-2.22983,-1.0978,3.26,4.09938
-2.21924,-1.0978,3.26,4.09363
-2.23034,-1.10857,3.292,4.12803
-2.21966,-1.10857,3.292,4.12227
-2.23045,-1.11935,3.324,4.15654
-2.21966,-1.11935,3.324,4.15076
-2.20887,-1.11935,3.324,4.145
-2.19808,-1.11935,3.324,4.13926
-2.18729,-1.11935,3.324,4.13354
-2.19745,-1.13012,3.356,4.16758
-2.18656,-1.13012,3.356,4.16185
-2.17567,-1.13012,3.356,4.15613
-2.18606,-1.14124,3.389,4.19125
-2.17506,-1.14124,3.389,4.18553
-2.16406,-1.14124,3.389,4.17982
-2.15306,-1.14124,3.389,4.17414
-2.14206,-1.14124,3.389,4.16847
-2.15244,-1.15269,3.423,4.2046
-2.14133,-1.15269,3.423,4.19892
-2.152,-1.16447,3.458,4.23614
-2.14078,-1.16447,3.458,4.23045
-2.12956,-1.16447,3.458,4.22478
-2.13977,-1.17626,3.493,4.26184
-2.12844,-1.17626,3.493,4.25616
-2.13892,-1.18838,3.529,4.29431
-2.12746,-1.18838,3.529,4.28861
nan,nan,nan,NaN
nan,nan,nan,NaN
nan,nan,nan,NaN
nan,nan,nan,NaN
nan,nan,nan,NaN
nan,nan,nan,NaN
nan,nan,nan,NaN
nan,nan,nan,NaN
nan,nan,nan,NaN
nan,nan,nan,NaN
nan,nan,nan,NaN
nan,nan,nan,NaN
nan,nan,nan,NaN
nan,nan,nan,NaN
nan,nan,nan,NaN
nan,nan,nan,NaN
nan,nan,nan,NaN
nan,nan,nan,NaN
nan,nan,nan,NaN
nan,nan,nan,NaN
nan,nan,nan,NaN
nan,nan,nan,NaN
nan,nan,nan,NaN
nan,nan,nan,NaN
nan,nan,nan,NaN
nan,nan,nan,NaN
nan,nan,nan,NaN
nan,nan,nan,NaN
nan,nan,nan,NaN
nan,nan,nan,NaN
nan,nan,nan,NaN
nan,nan,nan,NaN
nan,nan,nan,NaN
nan,nan,nan,NaN
nan,nan,nan,NaN
nan,nan,nan,NaN
nan,nan,nan,NaN
nan,nan,nan,NaN
nan,nan,nan,NaN
nan,nan,nan,NaN
nan,nan,nan,NaN
nan,nan,nan,NaN
nan,nan,nan,NaN
nan,nan,nan,NaN
-1.18446,-0.873185,2.593,2.98145
-1.1502,-0.853991,2.536,2.91265
-1.14196,-0.853991,2.536,2.90941
-1.13373,-0.853991,2.536,2.90619
-1.13393,-0.860389,2.555,2.92474
-1.11727,-0.853991,2.536,2.89981
-1.10904,-0.853991,2.536,2.89665
-1.10081,-0.853991,2.536,2.89351
-1.10076,-0.860389,2.555,2.91204
-1.09247,-0.860389,2.555,2.90891
-1.08418,-0.860389,2.555,2.90581
-1.10873,-0.886655,2.633,2.99134
-1.10018,-0.886655,2.633,2.98818
-1.05142,-0.853991,2.536,2.87508
-1.03537,-0.847593,2.517,2.85056
-1.0272,-0.847593,2.517,2.8476
-1.00446,-0.83547,2.481,2.80398
-0.996407,-0.83547,2.481,2.80111
-0.981184,-0.829408,2.463,2.77795
-0.973189,-0.829408,2.463,2.77514
-0.958141,-0.823347,2.445,2.75208
-0.943599,-0.817622,2.428,2.73021
-0.935718,-0.817622,2.428,2.7275
-0.921341,-0.811897,2.411,2.70573
-0.913515,-0.811897,2.411,2.70307
-0.90569,-0.811897,2.411,2.70044
-0.897864,-0.811897,2.411,2.69782
-0.890039,-0.811897,2.411,2.69523
-0.888434,-0.817622,2.428,2.71164
-0.880553,-0.817622,2.428,2.70907
-0.872672,-0.817622,2.428,2.70652
-0.870847,-0.823347,2.445,2.72292
-0.862911,-0.823347,2.445,2.72039
-0.854975,-0.823347,2.445,2.71789
-0.847039,-0.823347,2.445,2.7154
-0.839103,-0.823347,2.445,2.71294
-0.831167,-0.823347,2.445,2.71049
-0.823232,-0.823347,2.445,2.70807
-0.815296,-0.823347,2.445,2.70567
-0.80736,-0.823347,2.445,2.70329
-0.799424,-0.823347,2.445,2.70093
-0.791488,-0.823347,2.445,2.69859
-0.783552,-0.823347,2.445,2.69627
-0.770224,-0.817622,2.428,2.67524
-0.757005,-0.811897,2.411,2.65427
-0.74918,-0.811897,2.411,2.65205
-0.736127,-0.806173,2.394,2.63117
-0.723184,-0.800448,2.377,2.61033
-0.715469,-0.800448,2.377,2.60821
-0.70299,-0.79506,2.361,2.58856
-0.695327,-0.79506,2.361,2.58649
-0.687664,-0.79506,2.361,2.58444
-0.68,-0.79506,2.361,2.58241
-0.672337,-0.79506,2.361,2.5804
-0.664674,-0.79506,2.361,2.57842
-0.657011,-0.79506,2.361,2.57645
-0.649348,-0.79506,2.361,2.57451
-0.646033,-0.800448,2.377,2.59002
-0.642883,-0.806173,2.394,2.60662
-0.635113,-0.806173,2.394,2.60471
-0.627342,-0.806173,2.394,2.60283
-0.623972,-0.811897,2.411,2.61943
-0.620491,-0.817622,2.428,2.63604
-0.61261,-0.817622,2.428,2.63419
-0.608963,-0.823347,2.445,2.6508
-0.605452,-0.829408,2.463,2.66849
-0.597458,-0.829408,2.463,2.66669
-0.589464,-0.829408,2.463,2.66491
-0.585719,-0.83547,2.481,2.68262
-0.577666,-0.83547,2.481,2.68087
-0.569613,-0.83547,2.481,2.67915
-0.565635,-0.841531,2.499,2.69687
-0.561539,-0.847593,2.517,2.7146
-0.55337,-0.847593,2.517,2.71292
-0.541301,-0.841531,2.499,2.69187
-0.53319,-0.841531,2.499,2.69025
-0.525079,-0.841531,2.499,2.68866
-0.520692,-0.847593,2.517,2.70644
-0.512522,-0.847593,2.517,2.70488
-0.504353,-0.847593,2.517,2.70335
-0.496183,-0.847593,2.517,2.70183
-0.484524,-0.841531,2.499,2.68103
-0.476412,-0.841531,2.499,2.67958
-0.468301,-0.841531,2.499,2.67815
-0.46019,-0.841531,2.499,2.67674
-0.452079,-0.841531,2.499,2.67536
-0.443968,-0.841531,2.499,2.674
-0.435857,-0.841531,2.499,2.67267
-0.427746,-0.841531,2.499,2.67136
-0.419634,-0.841531,2.499,2.67007
-0.411523,-0.841531,2.499,2.66881
-0.406318,-0.847593,2.517,2.68678
-0.398148,-0.847593,2.517,2.68556
-0.389979,-0.847593,2.517,2.68436
-0.381809,-0.847593,2.517,2.68318
-0.37364,-0.847593,2.517,2.68203
-0.36547,-0.847593,2.517,2.68091
-0.354745,-0.841531,2.499,2.66064
-0.346634,-0.841531,2.499,2.65957
-0.338523,-0.841531,2.499,2.65853
-0.330412,-0.841531,2.499,2.65751
-0.322301,-0.841531,2.499,2.65651
-0.31419,-0.841531,2.499,2.65554
-0.303874,-0.83547,2.481,2.63547
-0.295821,-0.83547,2.481,2.63456
-0.287769,-0.83547,2.481,2.63366
-0.279716,-0.83547,2.481,2.6328
-0.269692,-0.829408,2.463,2.61286
-0.261698,-0.829408,2.463,2.61204
-0.253704,-0.829408,2.463,2.61125
-0.245709,-0.829408,2.463,2.61049
-0.237715,-0.829408,2.463,2.60975
-0.228042,-0.823347,2.445,2.58997
-0.220106,-0.823347,2.445,2.58928
-0.21217,-0.823347,2.445,2.58862
-0.204234,-0.823347,2.445,2.58798
-0.196298,-0.823347,2.445,2.58737
-0.189749,-0.829408,2.463,2.60582
-0.181755,-0.829408,2.463,2.60525
-0.173761,-0.829408,2.463,2.6047
-0.165766,-0.829408,2.463,2.60418
-0.157772,-0.829408,2.463,2.60369
-0.149778,-0.829408,2.463,2.60321
-0.141784,-0.829408,2.463,2.60277
-0.133789,-0.829408,2.463,2.60234
-0.125795,-0.829408,2.463,2.60194
-0.118662,-0.83547,2.481,2.62058
-0.110609,-0.83547,2.481,2.62023
-0.102556,-0.83547,2.481,2.6199
-0.0945035,-0.83547,2.481,2.6196
-0.0864508,-0.83547,2.481,2.61932
-0.078398,-0.83547,2.481,2.61907
-0.0703453,-0.83547,2.481,2.61884
-0.0627446,-0.841531,2.499,2.63763
-0.0546334,-0.841531,2.499,2.63745
-0.0465223,-0.841531,2.499,2.6373
-0.0384112,-0.841531,2.499,2.63717
-0.0305183,-0.847593,2.517,2.65606
-0.0223487,-0.847593,2.517,2.65597
-0.0141792,-0.847593,2.517,2.65592
-0.00605498,-0.853991,2.536,2.67594
0.00217625,-0.853991,2.536,2.67593
0.0104075,-0.853991,2.536,2.67595
0.0186387,-0.853991,2.536,2.67599
0.0268699,-0.853991,2.536,2.67606
0.0351011,-0.853991,2.536,2.67616
0.0433324,-0.853991,2.536,2.67628
0.0519499,-0.860389,2.555,2.69648
0.0602428,-0.860389,2.555,2.69665
0.0680261,-0.853991,2.536,2.67679
0.0762573,-0.853991,2.536,2.67702
0.0844885,-0.853991,2.536,2.67726
0.0927197,-0.853991,2.536,2.67753
0.100195,-0.847593,2.517,2.65777
0.108364,-0.847593,2.517,2.65809
0.116534,-0.847593,2.517,2.65844
0.124703,-0.847593,2.517,2.65881
0.132873,-0.847593,2.517,2.6592
0.140034,-0.841531,2.499,2.6406
0.147078,-0.83547,2.481,2.62202
0.155131,-0.83547,2.481,2.62249
0.163183,-0.83547,2.481,2.62298
0.171236,-0.83547,2.481,2.62349
0.179289,-0.83547,2.481,2.62403
0.187341,-0.83547,2.481,2.62459
0.195394,-0.83547,2.481,2.62518
0.203447,-0.83547,2.481,2.62579
0.2115,-0.83547,2.481,2.62642
0.219552,-0.83547,2.481,2.62708
0.227605,-0.83547,2.481,2.62777
0.235658,-0.83547,2.481,2.62848
0.24371,-0.83547,2.481,2.62921
0.251763,-0.83547,2.481,2.62997
0.259816,-0.83547,2.481,2.63076
0.269812,-0.841531,2.499,2.65066
0.277923,-0.841531,2.499,2.65149
0.286034,-0.841531,2.499,2.65236
0.294145,-0.841531,2.499,2.65324
0.302256,-0.841531,2.499,2.65415
0.310368,-0.841531,2.499,2.65509
0.320773,-0.847593,2.517,2.67518
0.328942,-0.847593,2.517,2.67617
0.337112,-0.847593,2.517,2.67719
0.345281,-0.847593,2.517,2.67823
0.353451,-0.847593,2.517,2.6793
0.36435,-0.853991,2.536,2.70062
0.372581,-0.853991,2.536,2.70174
0.380813,-0.853991,2.536,2.70289
0.389044,-0.853991,2.536,2.70406
0.397275,-0.853991,2.536,2.70526
0.405506,-0.853991,2.536,2.70648
0.410638,-0.847593,2.517,2.68744
0.418807,-0.847593,2.517,2.6887
0.426977,-0.847593,2.517,2.68998
0.435146,-0.847593,2.517,2.69129
0.443316,-0.847593,2.517,2.69263
0.451486,-0.847593,2.517,2.69398
0.459655,-0.847593,2.517,2.69536
0.467825,-0.847593,2.517,2.69677
0.475994,-0.847593,2.517,2.6982
0.484164,-0.847593,2.517,2.69965
0.492333,-0.847593,2.517,2.70113
0.504281,-0.853991,2.536,2.72303
0.512512,-0.853991,2.536,2.72457
0.520743,-0.853991,2.536,2.72613
0.528975,-0.853991,2.536,2.72771
0.537206,-0.853991,2.536,2.72932
0.545437,-0.853991,2.536,2.73095
0.553668,-0.853991,2.536,2.73261
0.5619,-0.853991,2.536,2.73429
0.570131,-0.853991,2.536,2.73599
0.578362,-0.853991,2.536,2.73772
0.586593,-0.853991,2.536,2.73947
0.594824,-0.853991,2.536,2.74124
0.603056,-0.853991,2.536,2.74304
0.611287,-0.853991,2.536,2.74486
0.619518,-0.853991,2.536,2.74671
0.623046,-0.847593,2.517,2.72798
0.631216,-0.847593,2.517,2.72986
0.644212,-0.853991,2.536,2.75238
0.652443,-0.853991,2.536,2.75432
0.655725,-0.847593,2.517,2.73563
0.663894,-0.847593,2.517,2.7376
0.672064,-0.847593,2.517,2.73959
0.675369,-0.841531,2.499,2.722
0.68348,-0.841531,2.499,2.72403
0.691591,-0.841531,2.499,2.72607
0.694662,-0.83547,2.481,2.70849
0.702715,-0.83547,2.481,2.71057
0.710768,-0.83547,2.481,2.71267
0.713605,-0.829408,2.463,2.69509
0.721599,-0.829408,2.463,2.69722
0.729594,-0.829408,2.463,2.69937
0.737588,-0.829408,2.463,2.70154
0.745582,-0.829408,2.463,2.70373
0.748069,-0.823347,2.445,2.68617
0.756005,-0.823347,2.445,2.6884
0.763941,-0.823347,2.445,2.69064
0.771877,-0.823347,2.445,2.6929
0.779813,-0.823347,2.445,2.69519
0.787749,-0.823347,2.445,2.69749
0.795684,-0.823347,2.445,2.69982
0.809537,-0.829408,2.463,2.72206
0.811556,-0.823347,2.445,2.70454
0.819492,-0.823347,2.445,2.70693
0.827428,-0.823347,2.445,2.70935
0.835364,-0.823347,2.445,2.71178
0.8433,-0.823347,2.445,2.71424
0.851236,-0.823347,2.445,2.71671
0.859171,-0.823347,2.445,2.71921
0.867107,-0.823347,2.445,2.72173
0.875043,-0.823347,2.445,2.72427
0.882979,-0.823347,2.445,2.72683
0.890915,-0.823347,2.445,2.72941
0.898851,-0.823347,2.445,2.73201
0.913462,-0.829408,2.463,2.75476
0.921457,-0.829408,2.463,2.75742
nan,nan,nan,NaN
nan,nan,nan,NaN
nan,nan,nan,NaN
nan,nan,nan,NaN
nan,nan,nan,NaN
nan,nan,nan,NaN
nan,nan,nan,NaN
nan,nan,nan,NaN
nan,nan,nan,NaN
nan,nan,nan,NaN
nan,nan,nan,NaN
nan,nan,nan,NaN
nan,nan,nan,NaN
nan,nan,nan,NaN
nan,nan,nan,NaN
nan,nan,nan,NaN
nan,nan,nan,NaN
nan,nan,nan,NaN
nan,nan,nan,NaN
nan,nan,nan,NaN
nan,nan,nan,NaN
nan,nan,nan,NaN
nan,nan,nan,NaN
nan,nan,nan,NaN
nan,nan,nan,NaN
nan,nan,nan,NaN
nan,nan,nan,NaN
nan,nan,nan,NaN
nan,nan,nan,NaN
nan,nan,nan,NaN
nan,nan,nan,NaN
nan,nan,nan,NaN
nan,nan,nan,NaN
1.50769,-1.04796,3.112,3.61329
1.51779,-1.04796,3.112,3.61752
1.52789,-1.04796,3.112,3.62177
1.53799,-1.04796,3.112,3.62604
1.56252,-1.05772,3.141,3.66417
1.57271,-1.05772,3.141,3.66853
1.58291,-1.05772,3.141,3.67291
1.60781,-1.06749,3.17,3.71126
1.6329,-1.07725,3.199,3.74973
1.65921,-1.08769,3.23,3.79064
1.66969,-1.08769,3.23,3.79524
1.71243,-1.10857,3.292,3.8728
1.73986,-1.11935,3.324,3.91523
1.75065,-1.11935,3.324,3.92004
1.7784,-1.13012,3.356,3.96265
1.82501,-1.15269,3.423,4.04676
1.83612,-1.15269,3.423,4.05178
1.88501,-1.17626,3.493,4.13979
1.91589,-1.18838,3.529,4.18769
1.94755,-1.20084,3.566,4.2369
1.95913,-1.20084,3.566,4.24223
1.9917,-1.21364,3.604,4.29285
2.02452,-1.22643,3.642,4.34361
2.03634,-1.22643,3.642,4.34914
2.04816,-1.22643,3.642,4.35468
2.05998,-1.22643,3.642,4.36026
2.07181,-1.22643,3.642,4.36585
2.08363,-1.22643,3.642,4.37148
2.09545,-1.22643,3.642,4.37712
2.10727,-1.22643,3.642,4.38279
2.09698,-1.21364,3.604,4.3427
2.10868,-1.21364,3.604,4.34836
2.12037,-1.21364,3.604,4.35405
2.10959,-1.20084,3.566,4.31379
2.07774,-1.17626,3.493,4.23103
2.08908,-1.17626,3.493,4.23661
2.07937,-1.16447,3.458,4.19971
2.06944,-1.15269,3.423,4.16271
2.08055,-1.15269,3.423,4.16825
2.07088,-1.14124,3.389,4.13235
2.04195,-1.11935,3.324,4.05851
2.05274,-1.11935,3.324,4.06395
2.04366,-1.10857,3.292,4.03023
2.01566,-1.08769,3.23,3.95965
1.97031,-1.05772,3.141,3.85575
1.98051,-1.05772,3.141,3.86097
1.97232,-1.04796,3.112,3.83051
1.96459,-1.03853,3.084,3.80121
1.9746,-1.03853,3.084,3.80639
1.96723,-1.02944,3.057,3.77823
1.95969,-1.02034,3.03,3.74999
1.96953,-1.02034,3.03,3.75513
