1.00293,-0.0612896,2.428,2.6277
1.01789,-0.0617188,2.445,2.64914
1.02582,-0.0617188,2.445,2.6522
1.03376,-0.0617188,2.445,2.65528
1.07237,-0.0635362,2.517,2.73666
1.09685,-0.0644955,2.555,2.78124
1.10515,-0.0644955,2.555,2.78452
1.14743,-0.0664644,2.633,2.87293
1.18364,-0.0680547,2.696,2.94517
1.23087,-0.0702508,2.783,3.04386
1.2399,-0.0702508,2.783,3.04752
1.28035,-0.0720178,2.853,3.12795
1.3226,-0.0738606,2.926,3.21189
1.3321,-0.0738606,2.926,3.21581
1.3769,-0.0758043,3.003,3.30448
1.41158,-0.0771674,3.057,3.36805
1.42151,-0.0771674,3.057,3.37222
1.41879,-0.0764858,3.03,3.3466
1.42862,-0.0764858,3.03,3.35078
1.43846,-0.0764858,3.03,3.35498
1.44829,-0.0764858,3.03,3.35921
1.44513,-0.0758043,3.003,3.33349
1.45488,-0.0758043,3.003,3.33773
1.46463,-0.0758043,3.003,3.34199
1.48763,-0.0764858,3.03,3.37636
1.49746,-0.0764858,3.03,3.3807
1.5073,-0.0764858,3.03,3.38507
1.51713,-0.0764858,3.03,3.38946
1.52697,-0.0764858,3.03,3.39387
1.5505,-0.0771674,3.057,3.42859
1.56042,-0.0771674,3.057,3.43309
1.58421,-0.0778489,3.084,3.46797
1.62369,-0.0792878,3.141,3.53674
1.63388,-0.0792878,3.141,3.54143
1.67443,-0.0807519,3.199,3.61163
1.70114,-0.0815344,3.23,3.6515
1.71163,-0.0815344,3.23,3.65639
1.73811,-0.0822917,3.26,3.69532
1.74869,-0.0822917,3.26,3.70031
1.77654,-0.0830994,3.292,3.74169
1.78722,-0.0830994,3.292,3.74678
1.79791,-0.0830994,3.292,3.75188
1.80859,-0.0830994,3.292,3.75702
1.80159,-0.0822917,3.26,3.7256
1.7955,-0.0815344,3.23,3.6964
1.80598,-0.0815344,3.23,3.7015
1.79903,-0.0807519,3.199,3.67105
1.79301,-0.0800198,3.17,3.64283
1.8033,-0.0800198,3.17,3.6479
1.797,-0.0792878,3.141,3.61958
1.7744,-0.0778489,3.084,3.55888
1.78441,-0.0778489,3.084,3.56388
1.79442,-0.0778489,3.084,3.5689
1.78863,-0.0771674,3.057,3.54265
1.79855,-0.0771674,3.057,3.54767
1.80848,-0.0771674,3.057,3.55272
1.80234,-0.0764858,3.03,3.52635
1.79602,-0.0758043,3.003,3.49992
1.80577,-0.0758043,3.003,3.50493
1.81552,-0.0758043,3.003,3.50997
1.79366,-0.0744916,2.951,3.45415
1.80324,-0.0744916,2.951,3.45913
1.79746,-0.0738606,2.926,3.43479
1.80695,-0.0738606,2.926,3.43977
1.81645,-0.0738606,2.926,3.44477
1.81035,-0.0732295,2.901,3.42031
1.80471,-0.0726237,2.877,3.39697
1.81405,-0.0726237,2.877,3.40194
1.80817,-0.0720178,2.853,3.3785
1.78749,-0.0708314,2.806,3.32773
1.78187,-0.0702508,2.783,3.30531
1.79091,-0.0702508,2.783,3.31019
1.75725,-0.0685848,2.717,3.23647
1.75242,-0.0680547,2.696,3.21621
1.76117,-0.0680547,2.696,3.22099
1.74235,-0.0669945,2.654,3.17553
1.72392,-0.0659596,2.613,3.13113
1.7324,-0.0659596,2.613,3.13581
1.72755,-0.0654547,2.593,3.11647
1.69781,-0.0640159,2.536,3.05253
1.70604,-0.0640159,2.536,3.05712
1.70143,-0.0635362,2.517,3.03878
1.69737,-0.0630819,2.499,3.0216
-2.04721,-0.0649161,2.951,3.59217
-2.0031,-0.0638162,2.901,3.52595
-1.99369,-0.0638162,2.901,3.52061
-1.98427,-0.0638162,2.901,3.51528
-1.95852,-0.0632883,2.877,3.48094
-1.94918,-0.0632883,2.877,3.47569
-1.92366,-0.0627603,2.853,3.44151
-1.89829,-0.0622324,2.829,3.40744
-1.88911,-0.0622324,2.829,3.40233
-1.86465,-0.0617264,2.806,3.36962
-1.85554,-0.0617264,2.806,3.36459
-1.84643,-0.0617264,2.806,3.35958
-1.83732,-0.0617264,2.806,3.35458
-1.82822,-0.0617264,2.806,3.3496
-1.83402,-0.0622324,2.829,3.37205
-1.82484,-0.0622324,2.829,3.36707
-1.81565,-0.0622324,2.829,3.3621
-1.80647,-0.0622324,2.829,3.35715
-1.79729,-0.0622324,2.829,3.35222
-1.78811,-0.0622324,2.829,3.3473
-1.79402,-0.0627603,2.853,3.37076
-1.79977,-0.0632883,2.877,3.39416
-1.80537,-0.0638162,2.901,3.41749
-1.79595,-0.0638162,2.901,3.41252
-1.80193,-0.0643662,2.926,3.43694
-1.79244,-0.0643662,2.926,3.43197
-1.78294,-0.0643662,2.926,3.42702
-1.78859,-0.0649161,2.951,3.45133
-1.79469,-0.0654881,2.977,3.47674
-1.78503,-0.0654881,2.977,3.47176
-1.77536,-0.0654881,2.977,3.46681
-1.79714,-0.066654,3.03,3.5235
-1.7873,-0.066654,3.03,3.51849
-1.77747,-0.066654,3.03,3.51351
-1.76763,-0.066654,3.03,3.50854
-1.7578,-0.066654,3.03,3.5036
-1.73239,-0.06606,3.003,3.4675
-1.72264,-0.06606,3.003,3.46264
-1.71289,-0.06606,3.003,3.4578
-1.70315,-0.06606,3.003,3.45298
-1.70862,-0.066654,3.03,3.47919
nan,nan,nan,NaN
nan,nan,nan,NaN
nan,nan,nan,NaN
nan,nan,nan,NaN
nan,nan,nan,NaN
nan,nan,nan,NaN
nan,nan,nan,NaN
nan,nan,nan,NaN
nan,nan,nan,NaN
nan,nan,nan,NaN
nan,nan,nan,NaN
nan,nan,nan,NaN
nan,nan,nan,NaN
-1.51702,-0.0643662,2.926,3.29651
-1.50752,-0.0643662,2.926,3.29215
-1.48523,-0.0638162,2.901,3.25972
-1.43918,-0.0622324,2.829,3.17464
-1.43,-0.0622324,2.829,3.17049
-1.42082,-0.0622324,2.829,3.16636
-1.36673,-0.0602525,2.739,3.06165
-1.35784,-0.0602525,2.739,3.05769
-1.30708,-0.0583827,2.654,2.95899
-1.27841,-0.0574808,2.613,2.90954
-1.26993,-0.0574808,2.613,2.90582
-1.24262,-0.0566229,2.574,2.85881
-1.22516,-0.0562049,2.555,2.83411
-1.21686,-0.0562049,2.555,2.83054
-1.19958,-0.0557869,2.536,2.80596
-1.18243,-0.055369,2.517,2.78145
-1.16586,-0.054973,2.499,2.75812
-1.15775,-0.054973,2.499,2.75471
-1.14136,-0.0545771,2.481,2.73149
-1.11686,-0.0537851,2.445,2.68855
-1.10892,-0.0537851,2.445,2.68526
-1.09333,-0.0534112,2.428,2.66335
-1.08545,-0.0534112,2.428,2.66012
-1.07757,-0.0534112,2.428,2.65691
-1.0622,-0.0530372,2.411,2.63515
-1.04694,-0.0526632,2.394,2.61344
-1.03917,-0.0526632,2.394,2.61034
-1.0314,-0.0526632,2.394,2.60726
-1.02363,-0.0526632,2.394,2.60419
-1.01586,-0.0526632,2.394,2.60115
-1.00809,-0.0526632,2.394,2.59812
-1.00032,-0.0526632,2.394,2.59512
-0.992548,-0.0526632,2.394,2.59213
-0.984778,-0.0526632,2.394,2.58917
-0.977007,-0.0526632,2.394,2.58622
-0.969237,-0.0526632,2.394,2.5833
-0.961466,-0.0526632,2.394,2.58039
-0.953696,-0.0526632,2.394,2.57751
-0.945926,-0.0526632,2.394,2.57464
-0.938156,-0.0526632,2.394,2.5718
-0.930385,-0.0526632,2.394,2.56897
-0.922615,-0.0526632,2.394,2.56617
-0.914845,-0.0526632,2.394,2.56339
-0.907074,-0.0526632,2.394,2.56062
-0.899304,-0.0526632,2.394,2.55788
-0.891534,-0.0526632,2.394,2.55516
-0.883763,-0.0526632,2.394,2.55246
-0.875993,-0.0526632,2.394,2.54978
-0.868223,-0.0526632,2.394,2.54712
-0.860452,-0.0526632,2.394,2.54448
-0.852682,-0.0526632,2.394,2.54186
-0.844912,-0.0526632,2.394,2.53927
-0.837141,-0.0526632,2.394,2.53669
-0.829371,-0.0526632,2.394,2.53414
-0.821601,-0.0526632,2.394,2.53161
-0.81383,-0.0526632,2.394,2.5291
-0.80606,-0.0526632,2.394,2.52661
-0.79829,-0.0526632,2.394,2.52414
-0.790519,-0.0526632,2.394,2.52169
-0.788307,-0.0530372,2.411,2.53716
-0.780482,-0.0530372,2.411,2.53474
-0.772656,-0.0530372,2.411,2.53234
-0.764831,-0.0530372,2.411,2.52996
-0.757005,-0.0530372,2.411,2.52761
-0.74918,-0.0530372,2.411,2.52527
-0.741354,-0.0530372,2.411,2.52296
-0.733529,-0.0530372,2.411,2.52067
-0.725703,-0.0530372,2.411,2.51841
-0.717878,-0.0530372,2.411,2.51616
-0.710052,-0.0530372,2.411,2.51394
-0.702227,-0.0530372,2.411,2.51174
-0.694401,-0.0530372,2.411,2.50957
-0.686576,-0.0530372,2.411,2.50741
-0.683536,-0.0534112,2.428,2.52295
-0.675655,-0.0534112,2.428,2.52082
-0.667775,-0.0534112,2.428,2.51872
-0.659894,-0.0534112,2.428,2.51664
-0.652013,-0.0534112,2.428,2.51459
-0.644133,-0.0534112,2.428,2.51256
-0.636252,-0.0534112,2.428,2.51055
-0.628371,-0.0534112,2.428,2.50856
-0.620491,-0.0534112,2.428,2.5066
-0.61261,-0.0534112,2.428,2.50466
-0.604729,-0.0534112,2.428,2.50275
-0.596848,-0.0534112,2.428,2.50085
-0.588968,-0.0534112,2.428,2.49898
-0.581087,-0.0534112,2.428,2.49714
-0.573206,-0.0534112,2.428,2.49532
-0.565326,-0.0534112,2.428,2.49352
-0.557445,-0.0534112,2.428,2.49174
-0.549564,-0.0534112,2.428,2.48999
-0.541684,-0.0534112,2.428,2.48826
-0.533803,-0.0534112,2.428,2.48656
-0.525922,-0.0534112,2.428,2.48488
-0.518042,-0.0534112,2.428,2.48322
-0.510161,-0.0534112,2.428,2.48159
-0.50228,-0.0534112,2.428,2.47998
-0.4944,-0.0534112,2.428,2.4784
-0.489925,-0.0537851,2.445,2.49418
-0.481989,-0.0537851,2.445,2.49264
-0.474054,-0.0537851,2.445,2.49111
-0.466118,-0.0537851,2.445,2.48962
-0.458182,-0.0537851,2.445,2.48814
-0.450246,-0.0537851,2.445,2.48669
-0.445566,-0.0541811,2.463,2.50356
-0.437572,-0.0541811,2.463,2.50215
-0.432717,-0.0545771,2.481,2.51904
-0.424665,-0.0545771,2.481,2.51767
-0.416612,-0.0545771,2.481,2.51633
-0.411523,-0.054973,2.499,2.53325
-0.403412,-0.054973,2.499,2.53195
-0.395301,-0.054973,2.499,2.53067
-0.389979,-0.055369,2.517,2.54763
-0.381809,-0.055369,2.517,2.5464
-0.37364,-0.055369,2.517,2.54518
-0.368229,-0.0557869,2.536,2.5632
-0.359998,-0.0557869,2.536,2.56203
-0.351766,-0.0557869,2.536,2.56089
-0.346109,-0.0562049,2.555,2.57895
-0.337816,-0.0562049,2.555,2.57785
-0.329523,-0.0562049,2.555,2.57678
-0.32123,-0.0562049,2.555,2.57573
-0.312937,-0.0562049,2.555,2.57471
-0.302379,-0.0557869,2.536,2.55457
-0.294148,-0.0557869,2.536,2.55361
-0.285917,-0.0557869,2.536,2.55268
-0.277685,-0.0557869,2.536,2.55177
-0.269454,-0.0557869,2.536,2.55088
-0.259266,-0.055369,2.517,2.53092
-0.251096,-0.055369,2.517,2.5301
-0.242927,-0.055369,2.517,2.5293
-0.233078,-0.054973,2.499,2.51045
-0.224967,-0.054973,2.499,2.50971
-0.216856,-0.054973,2.499,2.50899
-0.208745,-0.054973,2.499,2.50831
-0.200634,-0.054973,2.499,2.50764
-0.192523,-0.054973,2.499,2.50701
-0.184412,-0.054973,2.499,2.5064
-0.1763,-0.054973,2.499,2.50581
-0.168189,-0.054973,2.499,2.50526
-0.160078,-0.054973,2.499,2.50473
-0.151967,-0.054973,2.499,2.50422
-0.144892,-0.055369,2.517,2.52178
-0.136723,-0.055369,2.517,2.52132
-0.128553,-0.055369,2.517,2.52089
-0.120383,-0.055369,2.517,2.52049
-0.112214,-0.055369,2.517,2.52011
-0.104044,-0.055369,2.517,2.51976
-0.0958747,-0.055369,2.517,2.51943
-0.0877052,-0.055369,2.517,2.51914
-0.0795356,-0.055369,2.517,2.51887
-0.0713661,-0.055369,2.517,2.51862
-0.0631965,-0.055369,2.517,2.5184
-0.0546334,-0.054973,2.499,2.5002
-0.0465223,-0.054973,2.499,2.50004
-0.0384112,-0.054973,2.499,2.4999
-0.0303,-0.054973,2.499,2.49979
-0.0221889,-0.054973,2.499,2.4997
-0.0140778,-0.054973,2.499,2.49964
-0.00596664,-0.054973,2.499,2.49961
0.00214449,-0.054973,2.499,2.49961
0.0102556,-0.054973,2.499,2.49963
0.0183668,-0.054973,2.499,2.49967
0.0264779,-0.054973,2.499,2.49974
0.0343399,-0.0545771,2.481,2.48184
0.0423926,-0.0545771,2.481,2.48196
0.0504453,-0.0545771,2.481,2.48211
0.058498,-0.0545771,2.481,2.48229
0.0665507,-0.0545771,2.481,2.48249
0.0746034,-0.0545771,2.481,2.48272
0.0832558,-0.054973,2.499,2.50099
0.091367,-0.054973,2.499,2.50127
0.0994781,-0.054973,2.499,2.50158
0.107589,-0.054973,2.499,2.50192
0.1157,-0.054973,2.499,2.50228
0.123811,-0.054973,2.499,2.50267
0.131923,-0.054973,2.499,2.50308
0.140034,-0.054973,2.499,2.50352
0.148145,-0.054973,2.499,2.50399
0.156256,-0.054973,2.499,2.50448
0.164367,-0.054973,2.499,2.505
0.172478,-0.054973,2.499,2.50555
0.180589,-0.054973,2.499,2.50612
0.188701,-0.054973,2.499,2.50672
0.196812,-0.054973,2.499,2.50734
0.204923,-0.054973,2.499,2.50799
0.214568,-0.055369,2.517,2.52674
0.222738,-0.055369,2.517,2.52744
0.230908,-0.055369,2.517,2.52818
0.239077,-0.055369,2.517,2.52894
0.247247,-0.055369,2.517,2.52972
0.255416,-0.055369,2.517,2.53053
0.263586,-0.055369,2.517,2.53137
0.271755,-0.055369,2.517,2.53223
0.279925,-0.055369,2.517,2.53312
0.288094,-0.055369,2.517,2.53404
0.296264,-0.055369,2.517,2.53498
0.304434,-0.055369,2.517,2.53595
0.312603,-0.055369,2.517,2.53694
0.320773,-0.055369,2.517,2.53796
0.32659,-0.054973,2.499,2.52085
0.334701,-0.054973,2.499,2.52191
0.342812,-0.054973,2.499,2.523
0.350923,-0.054973,2.499,2.52412
0.359034,-0.054973,2.499,2.52526
0.367146,-0.054973,2.499,2.52642
0.372554,-0.0545771,2.481,2.50941
0.380606,-0.0545771,2.481,2.51062
0.388659,-0.0545771,2.481,2.51185
0.396712,-0.0545771,2.481,2.51311
0.404765,-0.0545771,2.481,2.51439
0.415812,-0.054973,2.499,2.53395
0.42087,-0.0545771,2.481,2.51704
0.428923,-0.0545771,2.481,2.5184
0.436975,-0.0545771,2.481,2.51978
0.445028,-0.0545771,2.481,2.52119
0.453081,-0.0545771,2.481,2.52262
0.461134,-0.0545771,2.481,2.52408
0.469186,-0.0545771,2.481,2.52556
0.477239,-0.0545771,2.481,2.52707
0.485292,-0.0545771,2.481,2.52861
0.493344,-0.0545771,2.481,2.53016
0.501397,-0.0545771,2.481,2.53175
0.50945,-0.0545771,2.481,2.53335
0.517502,-0.0545771,2.481,2.53499
0.525555,-0.0545771,2.481,2.53664
0.533608,-0.0545771,2.481,2.53832
0.541661,-0.0545771,2.481,2.54003
0.549713,-0.0545771,2.481,2.54176
0.561813,-0.054973,2.499,2.56196
0.569924,-0.054973,2.499,2.56375
0.578035,-0.054973,2.499,2.56557
0.586146,-0.054973,2.499,2.56741
0.594257,-0.054973,2.499,2.56927
0.602368,-0.054973,2.499,2.57116
0.614877,-0.055369,2.517,2.59161
0.618591,-0.054973,2.499,2.57501
0.626702,-0.054973,2.499,2.57697
0.634813,-0.054973,2.499,2.57896
0.642924,-0.054973,2.499,2.58096
0.651035,-0.054973,2.499,2.583
0.659146,-0.054973,2.499,2.58505
0.672064,-0.055369,2.517,2.60577
0.680233,-0.055369,2.517,2.60789
0.688403,-0.055369,2.517,2.61003
0.696572,-0.055369,2.517,2.6122
0.704742,-0.055369,2.517,2.61439
0.712911,-0.055369,2.517,2.6166
0.721081,-0.055369,2.517,2.61884
0.729251,-0.055369,2.517,2.6211
0.742987,-0.0557869,2.536,2.64319
0.751218,-0.0557869,2.536,2.64551
0.759449,-0.0557869,2.536,2.64786
0.76768,-0.0557869,2.536,2.65023
0.775912,-0.0557869,2.536,2.65263
0.790018,-0.0562049,2.555,2.67494
0.798311,-0.0562049,2.555,2.6774
0.806603,-0.0562049,2.555,2.67989
0.814896,-0.0562049,2.555,2.68239
0.823189,-0.0562049,2.555,2.68493
0.831482,-0.0562049,2.555,2.68748
0.839775,-0.0562049,2.555,2.69006
0.848068,-0.0562049,2.555,2.69266
0.856361,-0.0562049,2.555,2.69528
0.858224,-0.0557869,2.536,2.67786
0.866455,-0.0557869,2.536,2.68051
0.874686,-0.0557869,2.536,2.68319
0.876303,-0.055369,2.517,2.66576
0.884472,-0.055369,2.517,2.66845
0.892642,-0.055369,2.517,2.67117
0.894369,-0.054973,2.499,2.65479
0.90248,-0.054973,2.499,2.65754
0.904033,-0.0545771,2.481,2.64114
0.912085,-0.0545771,2.481,2.64391
0.913462,-0.0541811,2.463,2.62749
0.914722,-0.0537851,2.445,2.61106
0.922658,-0.0537851,2.445,2.61385
0.924124,-0.0534112,2.428,2.59847
0.932004,-0.0534112,2.428,2.60128
0.939885,-0.0534112,2.428,2.60412
0.94113,-0.0530372,2.411,2.58872
0.948955,-0.0530372,2.411,2.59157
0.956781,-0.0530372,2.411,2.59445
0.964606,-0.0530372,2.411,2.59734
0.972432,-0.0530372,2.411,2.60026
0.980257,-0.0530372,2.411,2.6032
0.988083,-0.0530372,2.411,2.60615
1.00293,-0.0534112,2.428,2.62753
1.01081,-0.0534112,2.428,2.63055
1.02582,-0.0537851,2.445,2.65202
1.03376,-0.0537851,2.445,2.6551
1.0647,-0.054973,2.499,2.71691
1.0887,-0.0557869,2.536,2.76038
1.09693,-0.0557869,2.536,2.76363
1.13,-0.0570408,2.593,2.8291
1.1652,-0.0583827,2.654,2.89911
1.20168,-0.0597686,2.717,2.97148
1.21049,-0.0597686,2.717,2.97506
1.24893,-0.0612205,2.783,3.05101
1.28961,-0.0627603,2.853,3.13155
1.29887,-0.0627603,2.853,3.13538
1.35306,-0.0649161,2.951,3.24706
1.37464,-0.0654881,2.977,3.27971
1.3964,-0.06606,3.003,3.31245
1.39397,-0.0654881,2.977,3.28785
1.40363,-0.0654881,2.977,3.29196
1.41329,-0.0654881,2.977,3.29609
1.42296,-0.0654881,2.977,3.30025
1.43262,-0.0654881,2.977,3.30442
1.44228,-0.0654881,2.977,3.30862
1.45195,-0.0654881,2.977,3.31285
1.47437,-0.06606,3.003,3.34606
1.48412,-0.06606,3.003,3.35037
1.49387,-0.06606,3.003,3.3547
1.50361,-0.06606,3.003,3.35905
1.51336,-0.06606,3.003,3.36343
1.5368,-0.066654,3.03,3.3981
1.54664,-0.066654,3.03,3.40256
1.57034,-0.0672479,3.057,3.4374
1.60869,-0.0684578,3.112,3.50387
1.6188,-0.0684578,3.112,3.50852
1.64408,-0.0690957,3.141,3.54593
1.68482,-0.0703716,3.199,3.61624
1.6952,-0.0703716,3.199,3.62109
1.70558,-0.0703716,3.199,3.62596
1.7326,-0.0710536,3.23,3.66604
1.75927,-0.0717135,3.26,3.7051
1.76985,-0.0717135,3.26,3.71014
1.78043,-0.0717135,3.26,3.7152
1.79101,-0.0717135,3.26,3.72028
1.78501,-0.0710536,3.23,3.6911
1.77827,-0.0703716,3.199,3.66071
1.78865,-0.0703716,3.199,3.66576
1.76641,-0.0690957,3.141,3.60429
1.76021,-0.0684578,3.112,3.57597
1.77031,-0.0684578,3.112,3.58095
1.78041,-0.0684578,3.112,3.58596
1.75886,-0.0672479,3.057,3.52752
1.76879,-0.0672479,3.057,3.53247
1.77871,-0.0672479,3.057,3.53745
1.77283,-0.066654,3.03,3.51117
1.76678,-0.06606,3.003,3.48481
1.77653,-0.06606,3.003,3.48976
1.78628,-0.06606,3.003,3.49473
1.78047,-0.0654881,2.977,3.46942
1.79014,-0.0654881,2.977,3.47439
1.7998,-0.0654881,2.977,3.47938
1.79366,-0.0649161,2.951,3.45396
1.80324,-0.0649161,2.951,3.45894
1.79746,-0.0643662,2.926,3.4346
1.80695,-0.0643662,2.926,3.43958
1.81645,-0.0643662,2.926,3.44458
1.81035,-0.0638162,2.901,3.42012
1.80471,-0.0632883,2.877,3.39678
1.81405,-0.0632883,2.877,3.40175
1.80817,-0.0627603,2.853,3.37832
1.78749,-0.0617264,2.806,3.32755
1.76779,-0.0607365,2.761,3.27901
1.77675,-0.0607365,2.761,3.28385
1.75725,-0.0597686,2.717,3.2363
1.75242,-0.0593066,2.696,3.21604
1.76117,-0.0593066,2.696,3.22082
1.74235,-0.0583827,2.654,3.17536
1.72392,-0.0574808,2.613,3.13097
1.7324,-0.0574808,2.613,3.13565
1.71489,-0.0566229,2.574,3.09347
1.69781,-0.0557869,2.536,3.05237
1.70604,-0.0557869,2.536,3.05696
1.70143,-0.055369,2.517,3.03862
1.69737,-0.054973,2.499,3.02144
-2.04721,-0.0553406,2.951,3.59201
-2.0031,-0.0544029,2.901,3.52579
-1.99369,-0.0544029,2.901,3.52045
-1.98427,-0.0544029,2.901,3.51512
-1.95852,-0.0539529,2.877,3.48078
-1.94918,-0.0539529,2.877,3.47553
-1.92366,-0.0535028,2.853,3.44136
-1.89829,-0.0530527,2.829,3.40728
-1.88911,-0.0530527,2.829,3.40218
-1.86465,-0.0526214,2.806,3.36947
-1.85554,-0.0526214,2.806,3.36444
-1.84643,-0.0526214,2.806,3.35942
-1.83732,-0.0526214,2.806,3.35442
-1.82822,-0.0526214,2.806,3.34944
-1.83402,-0.0530527,2.829,3.3719
-1.82484,-0.0530527,2.829,3.36691
-1.81565,-0.0530527,2.829,3.36194
-1.80647,-0.0530527,2.829,3.35699
-1.79729,-0.0530527,2.829,3.35206
-1.78811,-0.0530527,2.829,3.34715
-1.79402,-0.0535028,2.853,3.3706
-1.79977,-0.0539529,2.877,3.394
-1.80537,-0.0544029,2.901,3.41733
-1.79595,-0.0544029,2.901,3.41236
-1.80193,-0.0548718,2.926,3.43678
-1.79244,-0.0548718,2.926,3.43181
-1.78294,-0.0548718,2.926,3.42686
-1.78859,-0.0553406,2.951,3.45116
-1.79469,-0.0558282,2.977,3.47657
-1.78503,-0.0558282,2.977,3.47159
-1.77536,-0.0558282,2.977,3.46664
-1.79714,-0.0568221,3.03,3.52333
-1.7873,-0.0568221,3.03,3.51832
-1.77747,-0.0568221,3.03,3.51333
-1.76763,-0.0568221,3.03,3.50837
-1.7578,-0.0568221,3.03,3.50342
-1.73239,-0.0563158,3.003,3.46733
-1.72264,-0.0563158,3.003,3.46247
-1.71289,-0.0563158,3.003,3.45763
-1.70315,-0.0563158,3.003,3.45281
nan,nan,nan,NaN
nan,nan,nan,NaN
nan,nan,nan,NaN
nan,nan,nan,NaN
nan,nan,nan,NaN
nan,nan,nan,NaN
nan,nan,nan,NaN
nan,nan,nan,NaN
nan,nan,nan,NaN
nan,nan,nan,NaN
nan,nan,nan,NaN
nan,nan,nan,NaN
nan,nan,nan,NaN
nan,nan,nan,NaN
-1.51702,-0.0548718,2.926,3.29634
-1.50752,-0.0548718,2.926,3.29198
-1.48523,-0.0544029,2.901,3.25955
-1.43918,-0.0530527,2.829,3.17448
-1.43,-0.0530527,2.829,3.17032
-1.40927,-0.0526214,2.806,3.14045
-1.36673,-0.0513649,2.739,3.06149
-1.35784,-0.0513649,2.739,3.05753
-1.30708,-0.0497709,2.654,2.95883
-1.27841,-0.049002,2.613,2.90938
-1.26993,-0.049002,2.613,2.90567
-1.24262,-0.0482707,2.574,2.85866
-1.22516,-0.0479144,2.555,2.83396
-1.20781,-0.047558,2.536,2.80934
-1.19958,-0.047558,2.536,2.80581
-1.18243,-0.0472017,2.517,2.7813
-1.16586,-0.0468642,2.499,2.75797
-1.15775,-0.0468642,2.499,2.75456
-1.14136,-0.0465266,2.481,2.73134
-1.11686,-0.0458515,2.445,2.6884
-1.10892,-0.0458515,2.445,2.68511
-1.09333,-0.0455327,2.428,2.6632
-1.08545,-0.0455327,2.428,2.65997
-1.07757,-0.0455327,2.428,2.65677
-1.0622,-0.0452139,2.411,2.635
-1.04694,-0.0448951,2.394,2.6133
-1.03917,-0.0448951,2.394,2.6102
-1.0314,-0.0448951,2.394,2.60711
-1.02363,-0.0448951,2.394,2.60405
-1.01586,-0.0448951,2.394,2.601
-1.00809,-0.0448951,2.394,2.59798
-1.00032,-0.0448951,2.394,2.59497
-0.992548,-0.0448951,2.394,2.59199
-0.984778,-0.0448951,2.394,2.58902
-0.977007,-0.0448951,2.394,2.58608
-0.969237,-0.0448951,2.394,2.58315
-0.961466,-0.0448951,2.394,2.58025
-0.953696,-0.0448951,2.394,2.57736
-0.945926,-0.0448951,2.394,2.5745
-0.938156,-0.0448951,2.394,2.57165
-0.930385,-0.0448951,2.394,2.56883
-0.922615,-0.0448951,2.394,2.56602
-0.914845,-0.0448951,2.394,2.56324
-0.907074,-0.0448951,2.394,2.56048
-0.899304,-0.0448951,2.394,2.55773
-0.891534,-0.0448951,2.394,2.55501
-0.883763,-0.0448951,2.394,2.55231
-0.875993,-0.0448951,2.394,2.54963
-0.868223,-0.0448951,2.394,2.54697
-0.854342,-0.0445763,2.377,2.52627
-0.846627,-0.0445763,2.377,2.52367
-0.838912,-0.0445763,2.377,2.52109
-0.831197,-0.0445763,2.377,2.51853
-0.829371,-0.0448951,2.394,2.53399
-0.821601,-0.0448951,2.394,2.53146
-0.81383,-0.0448951,2.394,2.52895
-0.80606,-0.0448951,2.394,2.52646
-0.79829,-0.0448951,2.394,2.52399
-0.790519,-0.0448951,2.394,2.52154
-0.788307,-0.0452139,2.411,2.537
-0.780482,-0.0452139,2.411,2.53458
-0.772656,-0.0452139,2.411,2.53219
-0.764831,-0.0452139,2.411,2.52981
-0.757005,-0.0452139,2.411,2.52745
-0.74918,-0.0452139,2.411,2.52512
-0.741354,-0.0452139,2.411,2.52281
-0.733529,-0.0452139,2.411,2.52052
-0.725703,-0.0452139,2.411,2.51826
-0.717878,-0.0452139,2.411,2.51601
-0.715059,-0.0455327,2.428,2.53151
-0.707178,-0.0455327,2.428,2.5293
-0.699297,-0.0455327,2.428,2.52711
-0.691417,-0.0455327,2.428,2.52494
-0.683536,-0.0455327,2.428,2.52279
-0.675655,-0.0455327,2.428,2.52067
-0.667775,-0.0455327,2.428,2.51857
-0.659894,-0.0455327,2.428,2.51649
-0.652013,-0.0455327,2.428,2.51443
-0.644133,-0.0455327,2.428,2.5124
-0.640707,-0.0458515,2.445,2.52797
-0.628371,-0.0455327,2.428,2.50841
-0.620491,-0.0455327,2.428,2.50644
-0.61261,-0.0455327,2.428,2.50451
-0.604729,-0.0455327,2.428,2.50259
-0.596848,-0.0455327,2.428,2.5007
-0.588968,-0.0455327,2.428,2.49883
-0.581087,-0.0455327,2.428,2.49698
-0.573206,-0.0455327,2.428,2.49516
-0.565326,-0.0455327,2.428,2.49336
-0.557445,-0.0455327,2.428,2.49159
-0.549564,-0.0455327,2.428,2.48984
-0.541684,-0.0455327,2.428,2.48811
-0.533803,-0.0455327,2.428,2.4864
-0.525922,-0.0455327,2.428,2.48472
-0.518042,-0.0455327,2.428,2.48307
-0.510161,-0.0455327,2.428,2.48144
-0.505797,-0.0458515,2.445,2.49719
-0.497861,-0.0458515,2.445,2.49559
-0.489925,-0.0458515,2.445,2.49402
-0.481989,-0.0458515,2.445,2.49248
-0.474054,-0.0458515,2.445,2.49095
-0.466118,-0.0458515,2.445,2.48946
-0.461555,-0.0461891,2.463,2.5063
-0.453561,-0.0461891,2.463,2.50484
-0.445566,-0.0461891,2.463,2.5034
-0.44077,-0.0465266,2.481,2.52028
-0.432717,-0.0465266,2.481,2.51888
-0.424665,-0.0465266,2.481,2.51751
-0.419634,-0.0468642,2.499,2.53442
-0.411523,-0.0468642,2.499,2.53309
-0.403412,-0.0468642,2.499,2.53179
-0.395301,-0.0468642,2.499,2.53051
-0.389979,-0.0472017,2.517,2.54747
-0.381809,-0.0472017,2.517,2.54623
-0.37364,-0.0472017,2.517,2.54502
-0.368229,-0.047558,2.536,2.56304
-0.359998,-0.047558,2.536,2.56187
-0.351766,-0.047558,2.536,2.56072
-0.346109,-0.0479144,2.555,2.57878
-0.337816,-0.0479144,2.555,2.57768
-0.329523,-0.0479144,2.555,2.57661
-0.32123,-0.0479144,2.555,2.57556
-0.312937,-0.0479144,2.555,2.57454
-0.302379,-0.047558,2.536,2.55441
-0.294148,-0.047558,2.536,2.55344
-0.285917,-0.047558,2.536,2.55251
-0.277685,-0.047558,2.536,2.5516
-0.269454,-0.047558,2.536,2.55072
-0.259266,-0.0472017,2.517,2.53076
-0.251096,-0.0472017,2.517,2.52993
-0.242927,-0.0472017,2.517,2.52914
-0.234757,-0.0472017,2.517,2.52836
-0.226588,-0.0472017,2.517,2.52762
-0.216856,-0.0468642,2.499,2.50883
-0.208745,-0.0468642,2.499,2.50814
-0.200634,-0.0468642,2.499,2.50748
-0.192523,-0.0468642,2.499,2.50684
-0.184412,-0.0468642,2.499,2.50623
-0.1763,-0.0468642,2.499,2.50565
-0.168189,-0.0468642,2.499,2.50509
-0.160078,-0.0468642,2.499,2.50456
-0.153062,-0.0472017,2.517,2.52209
-0.144892,-0.0472017,2.517,2.52161
-0.136723,-0.0472017,2.517,2.52115
-0.128553,-0.0472017,2.517,2.52072
-0.120383,-0.0472017,2.517,2.52032
-0.112214,-0.0472017,2.517,2.51994
-0.104044,-0.0472017,2.517,2.51959
-0.0958747,-0.0472017,2.517,2.51927
-0.0877052,-0.0472017,2.517,2.51897
-0.0795356,-0.0472017,2.517,2.5187
-0.0713661,-0.0472017,2.517,2.51845
-0.0631965,-0.0472017,2.517,2.51824
-0.0546334,-0.0468642,2.499,2.50004
-0.0465223,-0.0468642,2.499,2.49987
-0.0384112,-0.0468642,2.499,2.49973
-0.0303,-0.0468642,2.499,2.49962
-0.0221889,-0.0468642,2.499,2.49954
-0.0140778,-0.0468642,2.499,2.49948
-0.00596664,-0.0468642,2.499,2.49945
0.00214449,-0.0468642,2.499,2.49944
0.0102556,-0.0468642,2.499,2.49946
0.0183668,-0.0468642,2.499,2.49951
0.0264779,-0.0468642,2.499,2.49958
0.0343399,-0.0465266,2.481,2.48167
0.0423926,-0.0465266,2.481,2.4818
0.0504453,-0.0465266,2.481,2.48195
0.058498,-0.0465266,2.481,2.48213
0.0665507,-0.0465266,2.481,2.48233
0.0746034,-0.0465266,2.481,2.48256
0.0832558,-0.0468642,2.499,2.50083
0.091367,-0.0468642,2.499,2.50111
0.0994781,-0.0468642,2.499,2.50142
0.107589,-0.0468642,2.499,2.50175
0.1157,-0.0468642,2.499,2.50212
0.123811,-0.0468642,2.499,2.5025
0.131923,-0.0468642,2.499,2.50292
0.140034,-0.0468642,2.499,2.50336
0.148145,-0.0468642,2.499,2.50383
0.156256,-0.0468642,2.499,2.50432
0.164367,-0.0468642,2.499,2.50484
0.172478,-0.0468642,2.499,2.50538
0.180589,-0.0468642,2.499,2.50595
0.188701,-0.0468642,2.499,2.50655
0.196812,-0.0468642,2.499,2.50718
0.204923,-0.0468642,2.499,2.50783
0.214568,-0.0472017,2.517,2.52657
0.222738,-0.0472017,2.517,2.52728
0.230908,-0.0472017,2.517,2.52801
0.239077,-0.0472017,2.517,2.52877
0.247247,-0.0472017,2.517,2.52956
0.255416,-0.0472017,2.517,2.53037
0.263586,-0.0472017,2.517,2.5312
0.271755,-0.0472017,2.517,2.53207
0.279925,-0.0472017,2.517,2.53296
0.288094,-0.0472017,2.517,2.53387
0.296264,-0.0472017,2.517,2.53482
0.304434,-0.0472017,2.517,2.53578
0.312603,-0.0472017,2.517,2.53678
0.320773,-0.0472017,2.517,2.5378
0.32659,-0.0468642,2.499,2.52069
0.334701,-0.0468642,2.499,2.52175
0.342812,-0.0468642,2.499,2.52284
0.350923,-0.0468642,2.499,2.52395
0.359034,-0.0468642,2.499,2.52509
0.364501,-0.0465266,2.481,2.50806
0.372554,-0.0465266,2.481,2.50925
0.380606,-0.0465266,2.481,2.51046
0.388659,-0.0465266,2.481,2.51169
0.396712,-0.0465266,2.481,2.51295
0.404765,-0.0465266,2.481,2.51423
0.412817,-0.0465266,2.481,2.51554
0.42087,-0.0465266,2.481,2.51687
0.428923,-0.0465266,2.481,2.51823
0.436975,-0.0465266,2.481,2.51962
0.445028,-0.0465266,2.481,2.52103
0.453081,-0.0465266,2.481,2.52246
0.461134,-0.0465266,2.481,2.52392
0.469186,-0.0465266,2.481,2.5254
0.477239,-0.0465266,2.481,2.52691
0.485292,-0.0465266,2.481,2.52845
0.493344,-0.0465266,2.481,2.53
0.501397,-0.0465266,2.481,2.53159
0.50945,-0.0465266,2.481,2.53319
0.517502,-0.0465266,2.481,2.53482
0.525555,-0.0465266,2.481,2.53648
0.533608,-0.0465266,2.481,2.53816
0.541661,-0.0465266,2.481,2.53987
0.549713,-0.0465266,2.481,2.5416
0.561813,-0.0468642,2.499,2.5618
0.569924,-0.0468642,2.499,2.56359
0.578035,-0.0468642,2.499,2.56541
0.586146,-0.0468642,2.499,2.56725
0.594257,-0.0468642,2.499,2.56911
0.602368,-0.0468642,2.499,2.571
0.614877,-0.0472017,2.517,2.59145
0.623046,-0.0472017,2.517,2.5934
0.631216,-0.0472017,2.517,2.59537
0.639385,-0.0472017,2.517,2.59737
0.647555,-0.0472017,2.517,2.59939
0.655725,-0.0472017,2.517,2.60144
0.663894,-0.0472017,2.517,2.60351
0.672064,-0.0472017,2.517,2.60561
0.680233,-0.0472017,2.517,2.60773
0.688403,-0.0472017,2.517,2.60987
0.696572,-0.0472017,2.517,2.61204
0.704742,-0.0472017,2.517,2.61423
0.712911,-0.0472017,2.517,2.61644
0.721081,-0.0472017,2.517,2.61868
0.734755,-0.047558,2.536,2.64072
0.742987,-0.047558,2.536,2.64303
0.751218,-0.047558,2.536,2.64535
0.759449,-0.047558,2.536,2.6477
0.773432,-0.0479144,2.555,2.66993
0.781725,-0.0479144,2.555,2.67234
0.790018,-0.0479144,2.555,2.67478
0.798311,-0.0479144,2.555,2.67724
0.806603,-0.0479144,2.555,2.67973
0.814896,-0.0479144,2.555,2.68223
0.823189,-0.0479144,2.555,2.68476
0.831482,-0.0479144,2.555,2.68732
0.83353,-0.047558,2.536,2.66989
0.841761,-0.047558,2.536,2.67247
0.849993,-0.047558,2.536,2.67508
0.858224,-0.047558,2.536,2.67771
0.866455,-0.047558,2.536,2.68035
0.874686,-0.047558,2.536,2.68303
0.876303,-0.0472017,2.517,2.6656
0.884472,-0.0472017,2.517,2.6683
0.892642,-0.0472017,2.517,2.67102
0.894369,-0.0468642,2.499,2.65464
0.89598,-0.0465266,2.481,2.63824
0.904033,-0.0465266,2.481,2.64099
0.912085,-0.0465266,2.481,2.64375
0.913462,-0.0461891,2.463,2.62734
0.914722,-0.0458515,2.445,2.61091
0.922658,-0.0458515,2.445,2.6137
0.924124,-0.0455327,2.428,2.59832
0.932004,-0.0455327,2.428,2.60113
0.939885,-0.0455327,2.428,2.60397
0.94113,-0.0452139,2.411,2.58857
0.948955,-0.0452139,2.411,2.59142
0.956781,-0.0452139,2.411,2.5943
0.964606,-0.0452139,2.411,2.5972
0.972432,-0.0452139,2.411,2.60011
0.980257,-0.0452139,2.411,2.60305
0.988083,-0.0452139,2.411,2.60601
1.00293,-0.0455327,2.428,2.62738
1.01081,-0.0455327,2.428,2.6304
1.03338,-0.0461891,2.463,2.6714
1.04137,-0.0461891,2.463,2.6745
1.0647,-0.0468642,2.499,2.71676
1.0887,-0.047558,2.536,2.76022
1.09693,-0.047558,2.536,2.76348
1.12172,-0.0482707,2.574,2.80821
1.15598,-0.0493771,2.633,2.87601
1.19239,-0.0505585,2.696,2.94835
1.20114,-0.0505585,2.696,2.9519
1.23906,-0.0517775,2.761,3.02673
1.26836,-0.0526214,2.806,3.0798
1.27747,-0.0526214,2.806,3.08356
1.31913,-0.0539529,2.877,3.16546
1.35109,-0.0548718,2.926,3.22334
1.36059,-0.0548718,2.926,3.22734
1.37009,-0.0548718,2.926,3.23135
1.37959,-0.0548718,2.926,3.23539
1.38908,-0.0548718,2.926,3.23945
1.39858,-0.0548718,2.926,3.24353
1.42011,-0.0553406,2.951,3.27539
1.42969,-0.0553406,2.951,3.27955
1.43926,-0.0553406,2.951,3.28374
1.44884,-0.0553406,2.951,3.28795
1.47127,-0.0558282,2.977,3.32119
1.48093,-0.0558282,2.977,3.32548
1.50361,-0.0563158,3.003,3.35887
1.51336,-0.0563158,3.003,3.36325
1.5368,-0.0568221,3.03,3.39792
1.54664,-0.0568221,3.03,3.40238
1.57034,-0.0573284,3.057,3.43722
1.60869,-0.0583599,3.112,3.50369
1.6188,-0.0583599,3.112,3.50834
1.64408,-0.0589037,3.141,3.54575
1.68482,-0.0599914,3.199,3.61605
1.6952,-0.0599914,3.199,3.6209
1.70558,-0.0599914,3.199,3.62577
1.7326,-0.0605727,3.23,3.66585
1.75927,-0.0611353,3.26,3.70491
1.76985,-0.0611353,3.26,3.70995
1.78043,-0.0611353,3.26,3.71501
1.79101,-0.0611353,3.26,3.72009
1.78501,-0.0605727,3.23,3.69091
1.77827,-0.0599914,3.199,3.66052
1.78865,-0.0599914,3.199,3.66558
1.76641,-0.0589037,3.141,3.6041
1.76021,-0.0583599,3.112,3.57579
1.77031,-0.0583599,3.112,3.58077
1.78041,-0.0583599,3.112,3.58578
1.75886,-0.0573284,3.057,3.52734
1.76879,-0.0573284,3.057,3.5323
1.77871,-0.0573284,3.057,3.53728
1.77283,-0.0568221,3.03,3.51099
1.76678,-0.0563158,3.003,3.48464
1.77653,-0.0563158,3.003,3.48959
1.78628,-0.0563158,3.003,3.49456
1.78047,-0.0558282,2.977,3.46926
1.79014,-0.0558282,2.977,3.47422
1.7998,-0.0558282,2.977,3.47921
1.79366,-0.0553406,2.951,3.45379
1.80324,-0.0553406,2.951,3.45878
1.79746,-0.0548718,2.926,3.43443
1.80695,-0.0548718,2.926,3.43941
1.81645,-0.0548718,2.926,3.44441
1.81035,-0.0544029,2.901,3.41996
1.80471,-0.0539529,2.877,3.39662
1.81405,-0.0539529,2.877,3.40159
1.80817,-0.0535028,2.853,3.37816
1.78749,-0.0526214,2.806,3.32739
1.76779,-0.0517775,2.761,3.27885
1.77675,-0.0517775,2.761,3.28369
1.77148,-0.0513649,2.739,3.26235
1.75242,-0.0505585,2.696,3.21589
1.76117,-0.0505585,2.696,3.22067
1.74235,-0.0497709,2.654,3.17521
1.72392,-0.049002,2.613,3.13082
1.7324,-0.049002,2.613,3.1355
1.71489,-0.0482707,2.574,3.09333
1.69781,-0.047558,2.536,3.05223
1.70604,-0.047558,2.536,3.05682
1.70143,-0.0472017,2.517,3.03848
1.69737,-0.0468642,2.499,3.0213
-2.01252,-0.0449897,2.901,3.53101
-2.0031,-0.0449897,2.901,3.52566
-1.99369,-0.0449897,2.901,3.52031
-1.96786,-0.0446175,2.877,3.48591
-1.94218,-0.0442453,2.853,3.45161
-1.93292,-0.0442453,2.853,3.44641
-1.90748,-0.0438731,2.829,3.41228
-1.88286,-0.0435164,2.806,3.37945
-1.87375,-0.0435164,2.806,3.37439
-1.86465,-0.0435164,2.806,3.36934
-1.85554,-0.0435164,2.806,3.36431
-1.8313,-0.0431597,2.783,3.33176
-1.82226,-0.0431597,2.783,3.3268
-1.81323,-0.0431597,2.783,3.32186
-1.81911,-0.0435164,2.806,3.34435
-1.81,-0.0435164,2.806,3.33941
-1.80089,-0.0435164,2.806,3.33448
-1.79179,-0.0435164,2.806,3.32957
-1.78268,-0.0435164,2.806,3.32468
-1.77357,-0.0435164,2.806,3.3198
-1.77893,-0.0438731,2.829,3.34212
-1.78476,-0.0442453,2.853,3.36555
-1.79043,-0.0446175,2.877,3.38892
-1.78109,-0.0446175,2.877,3.38399
-1.77176,-0.0446175,2.877,3.37909
-1.77712,-0.0449897,2.901,3.40235
-1.7677,-0.0449897,2.901,3.39744
-1.77344,-0.0453774,2.926,3.42179
-1.79469,-0.0461683,2.977,3.47643
-1.78503,-0.0461683,2.977,3.47145
-1.77536,-0.0461683,2.977,3.46649
-1.79714,-0.0469903,3.03,3.52318
-1.7873,-0.0469903,3.03,3.51818
-1.77747,-0.0469903,3.03,3.51319
-1.76763,-0.0469903,3.03,3.50822
-1.7578,-0.0469903,3.03,3.50328
-1.73239,-0.0465715,3.003,3.46718
-1.72264,-0.0465715,3.003,3.46232
-1.71289,-0.0465715,3.003,3.45748
-1.70315,-0.0465715,3.003,3.45266
nan,nan,nan,NaN
-1.59955,-0.0442453,2.853,3.27111
-1.59029,-0.0442453,2.853,3.26659
-1.54224,-0.0431597,2.783,3.18205
-1.52109,-0.0428185,2.761,3.15257
-1.51213,-0.0428185,2.761,3.14825
-1.49119,-0.0424773,2.739,3.11891
-1.4823,-0.0424773,2.739,3.11466
-1.49708,-0.0431597,2.783,3.16041
-1.48804,-0.0431597,2.783,3.15614
-1.49124,-0.0435164,2.806,3.17794
-1.49428,-0.0438731,2.829,3.19969
-1.48509,-0.0438731,2.829,3.19541
-1.50095,-0.0446175,2.877,3.2453
-1.50406,-0.0449897,2.901,3.26803
-1.50752,-0.0453774,2.926,3.29183
-1.49803,-0.0453774,2.926,3.28749
-1.45139,-0.0442453,2.853,3.20127
-1.44213,-0.0442453,2.853,3.19708
-1.40927,-0.0435164,2.806,3.14031
-1.3777,-0.0428185,2.761,3.08594
-1.36874,-0.0428185,2.761,3.08195
-1.32777,-0.0418105,2.696,3.00552
-1.2882,-0.0408334,2.633,2.93152
-1.27965,-0.0408334,2.633,2.92777
-1.25179,-0.0402131,2.593,2.87963
-1.23427,-0.0399185,2.574,2.85491
-1.20781,-0.0393291,2.536,2.80921
-1.19958,-0.0393291,2.536,2.80568
-1.18243,-0.0390345,2.517,2.78118
-1.16586,-0.0387553,2.499,2.75785
-1.15775,-0.0387553,2.499,2.75443
-1.14136,-0.0384762,2.481,2.73122
-1.11686,-0.0379179,2.445,2.68828
-1.10892,-0.0379179,2.445,2.68499
-1.09333,-0.0376542,2.428,2.66308
-1.08545,-0.0376542,2.428,2.65985
-1.07757,-0.0376542,2.428,2.65664
-1.0622,-0.0373906,2.411,2.63488
-1.05437,-0.0373906,2.411,2.63173
-1.03917,-0.037127,2.394,2.61007
-1.0314,-0.037127,2.394,2.60699
-1.02363,-0.037127,2.394,2.60393
-1.01586,-0.037127,2.394,2.60088
-1.00809,-0.037127,2.394,2.59786
-1.00032,-0.037127,2.394,2.59485
-0.992548,-0.037127,2.394,2.59187
-0.984778,-0.037127,2.394,2.5889
-0.977007,-0.037127,2.394,2.58595
-0.969237,-0.037127,2.394,2.58303
-0.961466,-0.037127,2.394,2.58012
-0.953696,-0.037127,2.394,2.57724
-0.945926,-0.037127,2.394,2.57437
-0.938156,-0.037127,2.394,2.57153
-0.930385,-0.037127,2.394,2.5687
-0.922615,-0.037127,2.394,2.5659
-0.914845,-0.037127,2.394,2.56311
-0.907074,-0.037127,2.394,2.56035
-0.899304,-0.037127,2.394,2.55761
-0.891534,-0.037127,2.394,2.55489
-0.883763,-0.037127,2.394,2.55219
-0.869772,-0.0368633,2.377,2.5314
-0.862057,-0.0368633,2.377,2.52876
-0.854342,-0.0368633,2.377,2.52614
-0.846627,-0.0368633,2.377,2.52354
-0.838912,-0.0368633,2.377,2.52096
-0.831197,-0.0368633,2.377,2.51841
-0.829371,-0.037127,2.394,2.53386
-0.821601,-0.037127,2.394,2.53133
-0.81383,-0.037127,2.394,2.52882
-0.80606,-0.037127,2.394,2.52633
-0.79829,-0.037127,2.394,2.52386
-0.790519,-0.037127,2.394,2.52142
-0.788307,-0.0373906,2.411,2.53688
-0.780482,-0.0373906,2.411,2.53446
-0.772656,-0.0373906,2.411,2.53206
-0.764831,-0.0373906,2.411,2.52968
-0.762343,-0.0376542,2.428,2.54515
-0.754462,-0.0376542,2.428,2.5428
-0.746581,-0.0376542,2.428,2.54047
-0.738701,-0.0376542,2.428,2.53817
-0.73082,-0.0376542,2.428,2.53588
-0.722939,-0.0376542,2.428,2.53362
-0.715059,-0.0376542,2.428,2.53139
-0.707178,-0.0376542,2.428,2.52917
-0.699297,-0.0376542,2.428,2.52698
-0.696258,-0.0379179,2.445,2.54249
-0.688322,-0.0379179,2.445,2.54032
-0.680386,-0.0379179,2.445,2.53819
-0.67245,-0.0379179,2.445,2.53607
-0.664514,-0.0379179,2.445,2.53398
-0.656578,-0.0379179,2.445,2.53191
-0.648643,-0.0379179,2.445,2.52986
-0.640707,-0.0379179,2.445,2.52784
-0.632771,-0.0379179,2.445,2.52584
-0.620491,-0.0376542,2.428,2.50631
-0.61261,-0.0376542,2.428,2.50437
-0.604729,-0.0376542,2.428,2.50246
-0.596848,-0.0376542,2.428,2.50057
-0.588968,-0.0376542,2.428,2.4987
-0.581087,-0.0376542,2.428,2.49685
-0.573206,-0.0376542,2.428,2.49503
-0.565326,-0.0376542,2.428,2.49323
-0.557445,-0.0376542,2.428,2.49146
-0.549564,-0.0376542,2.428,2.4897
-0.541684,-0.0376542,2.428,2.48798
-0.533803,-0.0376542,2.428,2.48627
-0.525922,-0.0376542,2.428,2.48459
-0.518042,-0.0376542,2.428,2.48294
-0.513733,-0.0379179,2.445,2.49868
-0.505797,-0.0379179,2.445,2.49706
-0.497861,-0.0379179,2.445,2.49546
-0.489925,-0.0379179,2.445,2.49389
-0.481989,-0.0379179,2.445,2.49234
-0.474054,-0.0379179,2.445,2.49082
-0.469549,-0.038197,2.463,2.50765
-0.461555,-0.038197,2.463,2.50616
-0.453561,-0.038197,2.463,2.5047
-0.445566,-0.038197,2.463,2.50327
-0.44077,-0.0384762,2.481,2.52014
-0.435857,-0.0387553,2.499,2.53702
-0.427746,-0.0387553,2.499,2.53564
-0.419634,-0.0387553,2.499,2.53428
-0.414487,-0.0390345,2.517,2.5512
-0.406318,-0.0390345,2.517,2.54988
-0.398148,-0.0390345,2.517,2.54859
-0.389979,-0.0390345,2.517,2.54733
-0.381809,-0.0390345,2.517,2.54609
-0.37646,-0.0393291,2.536,2.56409
-0.368229,-0.0393291,2.536,2.5629
-0.362695,-0.0396238,2.555,2.58092
-0.354402,-0.0396238,2.555,2.57977
-0.346109,-0.0396238,2.555,2.57864
-0.337816,-0.0396238,2.555,2.57754
-0.329523,-0.0396238,2.555,2.57647
-0.32123,-0.0396238,2.555,2.57542
-0.312937,-0.0396238,2.555,2.5744
-0.302379,-0.0393291,2.536,2.55427
-0.294148,-0.0393291,2.536,2.5533
-0.285917,-0.0393291,2.536,2.55237
-0.277685,-0.0393291,2.536,2.55146
-0.269454,-0.0393291,2.536,2.55058
-0.259266,-0.0390345,2.517,2.53062
-0.251096,-0.0390345,2.517,2.52979
-0.242927,-0.0390345,2.517,2.529
-0.234757,-0.0390345,2.517,2.52823
-0.226588,-0.0390345,2.517,2.52748
-0.216856,-0.0387553,2.499,2.50869
-0.208745,-0.0387553,2.499,2.508
-0.200634,-0.0387553,2.499,2.50734
-0.192523,-0.0387553,2.499,2.5067
-0.184412,-0.0387553,2.499,2.50609
-0.1763,-0.0387553,2.499,2.50551
-0.168189,-0.0387553,2.499,2.50495
-0.160078,-0.0387553,2.499,2.50442
-0.153062,-0.0390345,2.517,2.52195
-0.144892,-0.0390345,2.517,2.52147
-0.136723,-0.0390345,2.517,2.52101
-0.128553,-0.0390345,2.517,2.52058
-0.120383,-0.0390345,2.517,2.52018
-0.112214,-0.0390345,2.517,2.5198
-0.104044,-0.0390345,2.517,2.51945
-0.0958747,-0.0390345,2.517,2.51913
-0.0877052,-0.0390345,2.517,2.51883
-0.0795356,-0.0390345,2.517,2.51856
-0.0713661,-0.0390345,2.517,2.51831
-0.0631965,-0.0390345,2.517,2.5181
-0.0546334,-0.0387553,2.499,2.4999
-0.0465223,-0.0387553,2.499,2.49973
-0.0384112,-0.0387553,2.499,2.4996
-0.0303,-0.0387553,2.499,2.49948
-0.0221889,-0.0387553,2.499,2.4994
-0.0140778,-0.0387553,2.499,2.49934
-0.00596664,-0.0387553,2.499,2.49931
0.00214449,-0.0387553,2.499,2.4993
0.0102556,-0.0387553,2.499,2.49932
0.0183668,-0.0387553,2.499,2.49937
0.0262872,-0.0384762,2.481,2.48144
0.0343399,-0.0384762,2.481,2.48154
0.0423926,-0.0384762,2.481,2.48166
0.0504453,-0.0384762,2.481,2.48181
0.058498,-0.0384762,2.481,2.48199
0.0665507,-0.0384762,2.481,2.48219
0.0746034,-0.0384762,2.481,2.48242
0.0826561,-0.0384762,2.481,2.48267
0.0907089,-0.0384762,2.481,2.48296
0.0987616,-0.0384762,2.481,2.48326
0.107589,-0.0387553,2.499,2.50162
0.1157,-0.0387553,2.499,2.50198
0.123811,-0.0387553,2.499,2.50237
0.131923,-0.0387553,2.499,2.50278
0.140034,-0.0387553,2.499,2.50322
0.148145,-0.0387553,2.499,2.50369
0.156256,-0.0387553,2.499,2.50418
0.165551,-0.0390345,2.517,2.52274
0.173721,-0.0390345,2.517,2.52329
0.18189,-0.0390345,2.517,2.52387
0.19006,-0.0390345,2.517,2.52447
0.198229,-0.0390345,2.517,2.5251
0.206399,-0.0390345,2.517,2.52575
0.214568,-0.0390345,2.517,2.52643
0.222738,-0.0390345,2.517,2.52714
0.230908,-0.0390345,2.517,2.52787
0.239077,-0.0390345,2.517,2.52863
0.247247,-0.0390345,2.517,2.52942
0.255416,-0.0390345,2.517,2.53023
0.263586,-0.0390345,2.517,2.53107
0.271755,-0.0390345,2.517,2.53193
0.279925,-0.0390345,2.517,2.53282
0.288094,-0.0390345,2.517,2.53373
0.296264,-0.0390345,2.517,2.53468
0.304434,-0.0390345,2.517,2.53564
0.312603,-0.0390345,2.517,2.53664
0.320773,-0.0390345,2.517,2.53766
0.32659,-0.0387553,2.499,2.52055
0.334701,-0.0387553,2.499,2.52161
0.342812,-0.0387553,2.499,2.5227
0.350923,-0.0387553,2.499,2.52382
0.359034,-0.0387553,2.499,2.52496
0.364501,-0.0384762,2.481,2.50793
0.372554,-0.0384762,2.481,2.50911
0.380606,-0.0384762,2.481,2.51032
0.388659,-0.0384762,2.481,2.51155
0.396712,-0.0384762,2.481,2.51281
0.404765,-0.0384762,2.481,2.5141
0.412817,-0.0384762,2.481,2.5154
0.42087,-0.0384762,2.481,2.51674
0.428923,-0.0384762,2.481,2.5181
0.436975,-0.0384762,2.481,2.51948
0.445028,-0.0384762,2.481,2.52089
0.453081,-0.0384762,2.481,2.52233
0.461134,-0.0384762,2.481,2.52378
0.469186,-0.0384762,2.481,2.52527
0.477239,-0.0384762,2.481,2.52678
0.485292,-0.0384762,2.481,2.52831
0.493344,-0.0384762,2.481,2.52987
0.501397,-0.0384762,2.481,2.53145
0.50945,-0.0384762,2.481,2.53306
0.521257,-0.0387553,2.499,2.55308
0.529368,-0.0387553,2.499,2.55475
0.537479,-0.0387553,2.499,2.55644
0.54559,-0.0387553,2.499,2.55816
0.553702,-0.0387553,2.499,2.5599
0.561813,-0.0387553,2.499,2.56167
0.569924,-0.0387553,2.499,2.56346
0.578035,-0.0387553,2.499,2.56527
0.586146,-0.0387553,2.499,2.56711
0.598538,-0.0390345,2.517,2.58748
0.606707,-0.0390345,2.517,2.58938
0.614877,-0.0390345,2.517,2.59131
0.623046,-0.0390345,2.517,2.59326
0.631216,-0.0390345,2.517,2.59524
0.639385,-0.0390345,2.517,2.59723
0.647555,-0.0390345,2.517,2.59926
0.655725,-0.0390345,2.517,2.60131
0.663894,-0.0390345,2.517,2.60338
0.672064,-0.0390345,2.517,2.60547
0.680233,-0.0390345,2.517,2.60759
0.688403,-0.0390345,2.517,2.60973
0.70183,-0.0393291,2.536,2.63162
0.710062,-0.0393291,2.536,2.63382
0.718293,-0.0393291,2.536,2.63606
0.726524,-0.0393291,2.536,2.63831
0.734755,-0.0393291,2.536,2.64059
0.742987,-0.0393291,2.536,2.64289
0.751218,-0.0393291,2.536,2.64522
0.759449,-0.0393291,2.536,2.64757
0.76768,-0.0393291,2.536,2.64994
0.775912,-0.0393291,2.536,2.65234
0.790018,-0.0396238,2.555,2.67464
0.798311,-0.0396238,2.555,2.67711
0.806603,-0.0396238,2.555,2.67959
0.814896,-0.0396238,2.555,2.6821
0.823189,-0.0396238,2.555,2.68463
0.831482,-0.0396238,2.555,2.68718
0.83353,-0.0393291,2.536,2.66976
0.841761,-0.0393291,2.536,2.67234
0.849993,-0.0393291,2.536,2.67494
0.858224,-0.0393291,2.536,2.67757
0.866455,-0.0393291,2.536,2.68022
0.874686,-0.0393291,2.536,2.68289
0.876303,-0.0390345,2.517,2.66547
0.884472,-0.0390345,2.517,2.66816
0.892642,-0.0390345,2.517,2.67088
0.894369,-0.0387553,2.499,2.65451
0.89598,-0.0384762,2.481,2.63811
0.904033,-0.0384762,2.481,2.64086
0.912085,-0.0384762,2.481,2.64362
0.913462,-0.038197,2.463,2.62721
0.914722,-0.0379179,2.445,2.61078
0.922658,-0.0379179,2.445,2.61357
0.930594,-0.0379179,2.445,2.61638
0.932004,-0.0376542,2.428,2.60101
0.939885,-0.0376542,2.428,2.60384
0.947766,-0.0376542,2.428,2.6067
0.948955,-0.0373906,2.411,2.5913
0.956781,-0.0373906,2.411,2.59418
0.964606,-0.0373906,2.411,2.59707
0.972432,-0.0373906,2.411,2.59999
0.980257,-0.0373906,2.411,2.60293
0.99505,-0.0376542,2.428,2.62426
1.00293,-0.0376542,2.428,2.62726
1.01081,-0.0376542,2.428,2.63027
1.03338,-0.038197,2.463,2.67127
1.04137,-0.038197,2.463,2.67437
1.0647,-0.0387553,2.499,2.71663
1.0887,-0.0393291,2.536,2.76009
1.09693,-0.0393291,2.536,2.76335
1.12172,-0.0399185,2.574,2.80808
1.15598,-0.0408334,2.633,2.87587
1.19239,-0.0418105,2.696,2.94821
1.20114,-0.0418105,2.696,2.95176
1.23906,-0.0428185,2.761,3.02659
1.26836,-0.0435164,2.806,3.07965
1.27747,-0.0435164,2.806,3.08342
1.31913,-0.0446175,2.877,3.16532
1.35109,-0.0453774,2.926,3.2232
1.36059,-0.0453774,2.926,3.22719
1.37009,-0.0453774,2.926,3.2312
1.37959,-0.0453774,2.926,3.23524
1.38908,-0.0453774,2.926,3.2393
1.39858,-0.0453774,2.926,3.24339
1.42011,-0.0457651,2.951,3.27524
1.42969,-0.0457651,2.951,3.27941
1.43926,-0.0457651,2.951,3.28359
1.44884,-0.0457651,2.951,3.2878
1.47127,-0.0461683,2.977,3.32104
1.468,-0.0457651,2.951,3.29629
1.47758,-0.0457651,2.951,3.30057
1.50026,-0.0461683,2.977,3.33398
1.50992,-0.0461683,2.977,3.33834
1.51958,-0.0461683,2.977,3.34272
1.55647,-0.0469903,3.03,3.40672
1.58026,-0.047409,3.057,3.44162
1.59019,-0.047409,3.057,3.44618
1.6289,-0.0482619,3.112,3.51286
1.65427,-0.0487117,3.141,3.55033
1.66447,-0.0487117,3.141,3.55509
1.69012,-0.0491614,3.17,3.59275
1.71597,-0.0496112,3.199,3.63051
1.72635,-0.0496112,3.199,3.63543
1.73673,-0.0496112,3.199,3.64037
1.74712,-0.0496112,3.199,3.64534
1.7575,-0.0496112,3.199,3.65032
1.75186,-0.0491614,3.17,3.6222
1.74602,-0.0487117,3.141,3.594
1.75622,-0.0487117,3.141,3.59897
1.75011,-0.0482619,3.112,3.57068
1.74437,-0.0478277,3.084,3.54347
1.75438,-0.0478277,3.084,3.54841
1.74894,-0.047409,3.057,3.52226
1.74333,-0.0469903,3.03,3.49604
1.75316,-0.0469903,3.03,3.50096
1.74729,-0.0465715,3.003,3.47465
1.75704,-0.0465715,3.003,3.47956
1.75149,-0.0461683,2.977,3.45433
1.76115,-0.0461683,2.977,3.45923
1.77081,-0.0461683,2.977,3.46416
1.76492,-0.0457651,2.951,3.43882
1.7745,-0.0457651,2.951,3.44374
1.78408,-0.0457651,2.951,3.44869
1.77846,-0.0453774,2.926,3.42439
1.78796,-0.0453774,2.926,3.42933
1.79746,-0.0453774,2.926,3.4343
1.79152,-0.0449897,2.901,3.40989
1.80093,-0.0449897,2.901,3.41485
1.79537,-0.0446175,2.877,3.39153
1.80471,-0.0446175,2.877,3.39648
1.81405,-0.0446175,2.877,3.40145
1.79296,-0.0438731,2.829,3.34961
1.78749,-0.0435164,2.806,3.32726
1.76779,-0.0428185,2.761,3.27872
1.77675,-0.0428185,2.761,3.28356
1.77148,-0.0424773,2.739,3.26222
1.75242,-0.0418105,2.696,3.21577
1.76117,-0.0418105,2.696,3.22054
1.74235,-0.0411591,2.654,3.17509
1.72392,-0.0405233,2.613,3.1307
1.7324,-0.0405233,2.613,3.13538
1.71489,-0.0399185,2.574,3.09321
1.69781,-0.0393291,2.536,3.05211
1.70604,-0.0393291,2.536,3.0567
1.70143,-0.0390345,2.517,3.03837
1.69737,-0.0387553,2.499,3.02119
-2.01252,-0.0355764,2.901,3.53091
-1.98653,-0.0352821,2.877,3.49638
-1.97719,-0.0352821,2.877,3.49108
-1.95144,-0.0349878,2.853,3.45673
-1.92584,-0.0346934,2.829,3.42247
-1.91666,-0.0346934,2.829,3.41731
-1.89197,-0.0344114,2.806,3.38443
-1.86743,-0.0341293,2.783,3.35165
-1.85839,-0.0341293,2.783,3.34662
-1.84936,-0.0341293,2.783,3.34162
-1.82578,-0.0338595,2.761,3.31025
-1.81682,-0.0338595,2.761,3.30531
-1.80786,-0.0338595,2.761,3.3004
-1.7989,-0.0338595,2.761,3.2955
-1.78993,-0.0338595,2.761,3.29061
-1.78097,-0.0338595,2.761,3.28575
-1.77201,-0.0338595,2.761,3.2809
-1.76305,-0.0338595,2.761,3.27607
-1.76807,-0.0341293,2.783,3.29732
-1.75903,-0.0341293,2.783,3.29248
-1.76446,-0.0344114,2.806,3.31484
-1.76974,-0.0346934,2.829,3.33713
-1.7755,-0.0349878,2.853,3.36054
-1.76624,-0.0349878,2.853,3.35566
-1.75698,-0.0349878,2.853,3.35079
-1.76242,-0.0352821,2.877,3.37409
-1.75308,-0.0352821,2.877,3.36922
-1.75829,-0.0355764,2.901,3.39244
-1.76394,-0.035883,2.926,3.41676
-1.75445,-0.035883,2.926,3.41187
-1.75986,-0.0361896,2.951,3.4361
-1.7657,-0.0365084,2.977,3.46144
-1.75604,-0.0365084,2.977,3.45652
-1.73112,-0.0361896,2.951,3.42148
-1.72155,-0.0361896,2.951,3.41664
-1.71197,-0.0361896,2.951,3.41182
-1.68797,-0.035883,2.926,3.37817
-1.66413,-0.0355764,2.901,3.34461
-1.65471,-0.0355764,2.901,3.33993
-1.6453,-0.0355764,2.901,3.33528
nan,nan,nan,NaN
-1.59955,-0.0349878,2.853,3.27099
-1.59029,-0.0349878,2.853,3.26648
-1.54224,-0.0341293,2.783,3.18194
-1.52109,-0.0338595,2.761,3.15246
-1.51213,-0.0338595,2.761,3.14814
-1.49119,-0.0335897,2.739,3.1188
-1.4823,-0.0335897,2.739,3.11456
-1.48524,-0.0338595,2.761,3.13532
-1.47628,-0.0338595,2.761,3.13108
-1.49124,-0.0344114,2.806,3.17783
-1.49428,-0.0346934,2.829,3.19958
-1.48509,-0.0346934,2.829,3.1953
-1.50095,-0.0352821,2.877,3.24519
-1.50406,-0.0355764,2.901,3.26791
-1.50752,-0.035883,2.926,3.29172
-1.49803,-0.035883,2.926,3.28738
-1.4636,-0.0352821,2.877,3.22808
-1.45426,-0.0352821,2.877,3.22386
-1.42082,-0.0346934,2.829,3.16594
-1.38868,-0.0341293,2.783,3.11042
-1.37965,-0.0341293,2.783,3.10639
-1.33811,-0.0333199,2.717,3.02882
-1.29847,-0.0325473,2.654,2.95479
-1.28986,-0.0325473,2.654,2.95102
-1.26145,-0.0320445,2.613,2.90173
-1.24338,-0.0317992,2.593,2.87587
-1.21686,-0.0313332,2.555,2.83015
-1.20857,-0.0313332,2.555,2.8266
-1.19135,-0.0311002,2.536,2.80207
-1.17426,-0.0308672,2.517,2.77761
-1.16609,-0.0308672,2.517,2.77417
-1.14136,-0.0304257,2.481,2.73111
-1.12508,-0.030205,2.463,2.70797
-1.11709,-0.030205,2.463,2.70466
-1.10099,-0.0299843,2.445,2.68162
-1.08545,-0.0297758,2.428,2.65975
-1.07757,-0.0297758,2.428,2.65654
-1.0622,-0.0295673,2.411,2.63478
-1.05437,-0.0295673,2.411,2.63163
-1.03917,-0.0293588,2.394,2.60998
-1.0314,-0.0293588,2.394,2.60689
-1.02363,-0.0293588,2.394,2.60383
-1.01586,-0.0293588,2.394,2.60078
-1.00809,-0.0293588,2.394,2.59776
