0.603056,-0.467232,2.536,2.64826
0.611287,-0.467232,2.536,2.65015
0.619518,-0.467232,2.536,2.65206
0.627749,-0.467232,2.536,2.65399
0.635981,-0.467232,2.536,2.65595
0.639385,-0.463732,2.517,2.63802
0.647555,-0.463732,2.517,2.64001
0.655725,-0.463732,2.517,2.64203
0.663894,-0.463732,2.517,2.64407
0.672064,-0.463732,2.517,2.64613
0.680233,-0.463732,2.517,2.64822
0.688403,-0.463732,2.517,2.65033
0.696572,-0.463732,2.517,2.65246
0.704742,-0.463732,2.517,2.65462
0.707813,-0.460415,2.499,2.6378
0.715924,-0.460415,2.499,2.63999
0.724035,-0.460415,2.499,2.6422
0.732147,-0.460415,2.499,2.64443
0.734926,-0.457099,2.481,2.62763
0.742978,-0.457099,2.481,2.62989
0.751031,-0.457099,2.481,2.63218
0.759084,-0.457099,2.481,2.63448
0.767137,-0.457099,2.481,2.63682
0.775189,-0.457099,2.481,2.63917
0.783242,-0.457099,2.481,2.64155
0.791295,-0.457099,2.481,2.64395
0.799347,-0.457099,2.481,2.64637
0.8074,-0.457099,2.481,2.64881
0.815453,-0.457099,2.481,2.65128
0.823505,-0.457099,2.481,2.65376
0.825525,-0.453783,2.463,2.637
0.833519,-0.453783,2.463,2.63952
0.841514,-0.453783,2.463,2.64205
0.849508,-0.453783,2.463,2.64461
0.857502,-0.453783,2.463,2.64719
0.865497,-0.453783,2.463,2.64979
0.873491,-0.453783,2.463,2.65241
0.875043,-0.450466,2.445,2.63565
0.882979,-0.450466,2.445,2.63829
0.897474,-0.453783,2.463,2.6604
0.905468,-0.453783,2.463,2.66311
0.906787,-0.450466,2.445,2.64636
0.914722,-0.450466,2.445,2.64909
0.922658,-0.450466,2.445,2.65184
0.930594,-0.450466,2.445,2.65461
0.93853,-0.450466,2.445,2.6574
0.946466,-0.450466,2.445,2.66021
0.961428,-0.453783,2.463,2.68265
nan,nan,nan,NaN
nan,nan,nan,NaN
nan,nan,nan,NaN
nan,nan,nan,NaN
nan,nan,nan,NaN
nan,nan,nan,NaN
nan,nan,nan,NaN
nan,nan,nan,NaN
nan,nan,nan,NaN
nan,nan,nan,NaN
nan,nan,nan,NaN
nan,nan,nan,NaN
nan,nan,nan,NaN
nan,nan,nan,NaN
nan,nan,nan,NaN
nan,nan,nan,NaN
nan,nan,nan,NaN
nan,nan,nan,NaN
nan,nan,nan,NaN
1.42998,-0.578697,3.141,3.49937
1.44018,-0.578697,3.141,3.50355
1.46376,-0.58404,3.17,3.54014
1.46057,-0.578697,3.141,3.51198
1.47076,-0.578697,3.141,3.51624
1.49463,-0.58404,3.17,3.55302
1.50492,-0.58404,3.17,3.55736
1.51521,-0.58404,3.17,3.56172
1.5255,-0.58404,3.17,3.56611
1.53579,-0.58404,3.17,3.57052
1.53193,-0.578697,3.141,3.54226
1.54213,-0.578697,3.141,3.54668
1.55232,-0.578697,3.141,3.55112
1.56252,-0.578697,3.141,3.55559
1.57271,-0.578697,3.141,3.56008
1.58291,-0.578697,3.141,3.5646
1.5931,-0.578697,3.141,3.56914
1.6033,-0.578697,3.141,3.5737
1.61349,-0.578697,3.141,3.57828
1.62369,-0.578697,3.141,3.58289
1.63388,-0.578697,3.141,3.58753
1.70636,-0.600622,3.26,3.72827
nan,nan,nan,NaN
nan,nan,nan,NaN
1.84367,-0.637101,3.458,3.97024
1.8549,-0.637101,3.458,3.97546
1.86612,-0.637101,3.458,3.98071
1.91589,-0.650182,3.529,4.06783
1.94755,-0.656999,3.566,4.11594
1.95913,-0.656999,3.566,4.12143
1.9707,-0.656999,3.566,4.12694
2.0034,-0.664,3.604,4.17652
2.0151,-0.664,3.604,4.18214
2.02679,-0.664,3.604,4.18779
2.017,-0.656999,3.566,4.14925
2.02857,-0.656999,3.566,4.15489
2.04015,-0.656999,3.566,4.16055
2.03043,-0.650182,3.529,4.12301
2.04189,-0.650182,3.529,4.12867
2.05334,-0.650182,3.529,4.13434
2.06479,-0.650182,3.529,4.14004
2.07625,-0.650182,3.529,4.14577
2.06641,-0.64355,3.493,4.10917
2.05692,-0.637101,3.458,4.07365
2.04722,-0.630653,3.423,4.03804
2.05833,-0.630653,3.423,4.04368
2.04888,-0.624389,3.389,4.00913
2.03982,-0.618309,3.356,3.97567
2.05072,-0.618309,3.356,3.98127
2.04195,-0.612413,3.324,3.94887
2.01322,-0.600622,3.26,3.87832
2.0238,-0.600622,3.26,3.88383
1.99631,-0.589383,3.199,3.81657
1.95212,-0.573354,3.112,3.71807
1.96222,-0.573354,3.112,3.72338
1.93746,-0.563221,3.057,3.66282
1.91299,-0.553272,3.003,3.60328
1.92273,-0.553272,3.003,3.60847
1.91575,-0.548482,2.977,3.58238
1.89243,-0.539086,2.926,3.5261
1.90192,-0.539086,2.926,3.5312
1.86373,-0.525636,2.853,3.4481
1.84214,-0.516977,2.806,3.39623
1.85125,-0.516977,2.806,3.40118
1.83052,-0.508686,2.761,3.35152
1.82482,-0.504633,2.739,3.32968
1.83371,-0.504633,2.739,3.33456
1.8426,-0.504633,2.739,3.33946
1.83662,-0.50058,2.717,3.31751
1.83118,-0.496711,2.696,3.29672
-2.50021,-0.652306,3.604,4.43457
-2.48851,-0.652306,3.604,4.42798
-2.47682,-0.652306,3.604,4.42142
-2.43913,-0.645428,3.566,4.36833
-2.40237,-0.638731,3.529,4.31662
-2.39091,-0.638731,3.529,4.31025
-2.35518,-0.632216,3.493,4.26
-2.29688,-0.619546,3.423,4.1685
-2.28577,-0.619546,3.423,4.16239
-2.27466,-0.619546,3.423,4.1563
-2.24106,-0.613392,3.389,4.10901
-2.23006,-0.613392,3.389,4.10302
-2.21906,-0.613392,3.389,4.09705
-2.20806,-0.613392,3.389,4.0911
-2.19706,-0.613392,3.389,4.08518
-2.18606,-0.613392,3.389,4.07927
-2.17506,-0.613392,3.389,4.07339
-2.16406,-0.613392,3.389,4.06752
-2.15306,-0.613392,3.389,4.06168
-2.14206,-0.613392,3.389,4.05586
-2.13106,-0.613392,3.389,4.05006
-2.12006,-0.613392,3.389,4.04428
-2.10906,-0.613392,3.389,4.03853
-2.09806,-0.613392,3.389,4.0328
-2.08706,-0.613392,3.389,4.02708
-2.07606,-0.613392,3.389,4.02139
-2.06506,-0.613392,3.389,4.01573
-2.05406,-0.613392,3.389,4.01008
-2.04306,-0.613392,3.389,4.00446
-2.03206,-0.613392,3.389,3.99886
nan,nan,nan,NaN
nan,nan,nan,NaN
nan,nan,nan,NaN
nan,nan,nan,NaN
nan,nan,nan,NaN
nan,nan,nan,NaN
nan,nan,nan,NaN
nan,nan,nan,NaN
nan,nan,nan,NaN
nan,nan,nan,NaN
nan,nan,nan,NaN
nan,nan,nan,NaN
nan,nan,nan,NaN
nan,nan,nan,NaN
nan,nan,nan,NaN
nan,nan,nan,NaN
nan,nan,nan,NaN
nan,nan,nan,NaN
nan,nan,nan,NaN
nan,nan,nan,NaN
nan,nan,nan,NaN
nan,nan,nan,NaN
nan,nan,nan,NaN
nan,nan,nan,NaN
nan,nan,nan,NaN
nan,nan,nan,NaN
nan,nan,nan,NaN
nan,nan,nan,NaN
nan,nan,nan,NaN
nan,nan,nan,NaN
nan,nan,nan,NaN
nan,nan,nan,NaN
nan,nan,nan,NaN
nan,nan,nan,NaN
nan,nan,nan,NaN
-1.12435,-0.421537,2.329,2.62032
-1.11679,-0.421537,2.329,2.61709
-1.10923,-0.421537,2.329,2.61387
-1.10924,-0.424433,2.345,2.62861
-1.10162,-0.424433,2.345,2.6254
-1.09401,-0.424433,2.345,2.62222
-1.0864,-0.424433,2.345,2.61905
-1.07879,-0.424433,2.345,2.6159
-1.07118,-0.424433,2.345,2.61278
-1.06357,-0.424433,2.345,2.60966
-1.05596,-0.424433,2.345,2.60657
-1.0555,-0.427329,2.361,2.62126
-1.04784,-0.427329,2.361,2.61818
-1.04017,-0.427329,2.361,2.61513
-1.03251,-0.427329,2.361,2.61209
-1.02485,-0.427329,2.361,2.60907
-1.01718,-0.427329,2.361,2.60607
-1.01636,-0.430225,2.377,2.62073
-1.01586,-0.433302,2.394,2.63647
-1.00093,-0.430225,2.377,2.61478
-0.993215,-0.430225,2.377,2.61184
-0.992548,-0.433302,2.394,2.62757
-0.984778,-0.433302,2.394,2.62465
-0.977007,-0.433302,2.394,2.62174
-0.969237,-0.433302,2.394,2.61886
-0.961466,-0.433302,2.394,2.61599
-0.953696,-0.433302,2.394,2.61314
-0.945926,-0.433302,2.394,2.61032
-0.938156,-0.433302,2.394,2.60751
-0.930385,-0.433302,2.394,2.60473
-0.922615,-0.433302,2.394,2.60196
-0.914845,-0.433302,2.394,2.59922
-0.907074,-0.433302,2.394,2.59649
-0.899304,-0.433302,2.394,2.59379
-0.891534,-0.433302,2.394,2.5911
-0.883763,-0.433302,2.394,2.58844
-0.875993,-0.433302,2.394,2.5858
-0.874388,-0.436379,2.411,2.60152
-0.866562,-0.436379,2.411,2.5989
-0.858737,-0.436379,2.411,2.5963
-0.850911,-0.436379,2.411,2.59372
-0.843086,-0.436379,2.411,2.59117
-0.83526,-0.436379,2.411,2.58863
-0.827435,-0.436379,2.411,2.58612
-0.819609,-0.436379,2.411,2.58362
-0.811784,-0.436379,2.411,2.58115
-0.803958,-0.436379,2.411,2.5787
-0.796133,-0.436379,2.411,2.57627
-0.788307,-0.436379,2.411,2.57386
-0.780482,-0.436379,2.411,2.57148
-0.772656,-0.436379,2.411,2.56911
-0.764831,-0.436379,2.411,2.56677
-0.757005,-0.436379,2.411,2.56445
-0.74918,-0.436379,2.411,2.56215
-0.741354,-0.436379,2.411,2.55987
-0.733529,-0.436379,2.411,2.55762
-0.73082,-0.439456,2.428,2.5734
-0.722939,-0.439456,2.428,2.57118
-0.715059,-0.439456,2.428,2.56897
-0.707178,-0.439456,2.428,2.56679
-0.699297,-0.439456,2.428,2.56463
-0.691417,-0.439456,2.428,2.56249
-0.67875,-0.436379,2.411,2.54245
-0.670925,-0.436379,2.411,2.54037
-0.663099,-0.436379,2.411,2.53832
-0.655274,-0.436379,2.411,2.53628
-0.647448,-0.436379,2.411,2.53427
-0.644133,-0.439456,2.428,2.55014
-0.636252,-0.439456,2.428,2.54816
-0.628371,-0.439456,2.428,2.5462
-0.620491,-0.439456,2.428,2.54427
-0.616899,-0.442533,2.445,2.56016
-0.608963,-0.442533,2.445,2.55826
-0.601027,-0.442533,2.445,2.55638
-0.593092,-0.442533,2.445,2.55453
-0.585156,-0.442533,2.445,2.5527
-0.57722,-0.442533,2.445,2.55089
-0.569284,-0.442533,2.445,2.54911
-0.561348,-0.442533,2.445,2.54735
-0.553412,-0.442533,2.445,2.54561
-0.545476,-0.442533,2.445,2.5439
-0.53754,-0.442533,2.445,2.54221
-0.529605,-0.442533,2.445,2.54054
-0.521669,-0.442533,2.445,2.5389
-0.513733,-0.442533,2.445,2.53728
-0.505797,-0.442533,2.445,2.53568
-0.497861,-0.442533,2.445,2.53411
-0.489925,-0.442533,2.445,2.53257
-0.481989,-0.442533,2.445,2.53104
-0.474054,-0.442533,2.445,2.52954
-0.466118,-0.442533,2.445,2.52807
-0.458182,-0.442533,2.445,2.52662
-0.450246,-0.442533,2.445,2.52519
-0.439235,-0.439456,2.428,2.50624
-0.431354,-0.439456,2.428,2.50487
-0.423473,-0.439456,2.428,2.50352
-0.415593,-0.439456,2.428,2.5022
-0.407712,-0.439456,2.428,2.50091
-0.399831,-0.439456,2.428,2.49963
-0.391951,-0.439456,2.428,2.49839
-0.38407,-0.439456,2.428,2.49716
-0.376189,-0.439456,2.428,2.49596
-0.368309,-0.439456,2.428,2.49479
-0.360428,-0.439456,2.428,2.49363
-0.352547,-0.439456,2.428,2.49251
-0.344667,-0.439456,2.428,2.49141
-0.336786,-0.439456,2.428,2.49033
-0.328905,-0.439456,2.428,2.48927
-0.318777,-0.436379,2.411,2.47082
-0.310951,-0.436379,2.411,2.46983
-0.303126,-0.436379,2.411,2.46885
-0.2953,-0.436379,2.411,2.4679
-0.287475,-0.436379,2.411,2.46698
-0.281621,-0.439456,2.428,2.48347
-0.27374,-0.439456,2.428,2.48259
-0.263998,-0.436379,2.411,2.46435
-0.256173,-0.436379,2.411,2.46353
-0.250098,-0.439456,2.428,2.48009
-0.242218,-0.439456,2.428,2.47931
-0.234337,-0.439456,2.428,2.47855
-0.226456,-0.439456,2.428,2.47782
-0.218576,-0.439456,2.428,2.47711
-0.210695,-0.439456,2.428,2.47643
-0.202814,-0.439456,2.428,2.47577
-0.194934,-0.439456,2.428,2.47514
-0.188363,-0.442533,2.445,2.49186
-0.180427,-0.442533,2.445,2.49127
-0.173761,-0.445791,2.463,2.50904
-0.165766,-0.445791,2.463,2.5085
-0.157772,-0.445791,2.463,2.50799
-0.149778,-0.445791,2.463,2.5075
-0.141784,-0.445791,2.463,2.50703
-0.134767,-0.449049,2.481,2.52491
-0.126714,-0.449049,2.481,2.52449
-0.118662,-0.449049,2.481,2.5241
-0.110609,-0.449049,2.481,2.52374
-0.102556,-0.449049,2.481,2.5234
-0.0945035,-0.449049,2.481,2.52308
-0.0858236,-0.445791,2.463,2.50449
-0.0778293,-0.445791,2.463,2.50423
-0.069835,-0.445791,2.463,2.50399
-0.0618407,-0.445791,2.463,2.50378
-0.0534529,-0.442533,2.445,2.4853
-0.045517,-0.442533,2.445,2.48514
-0.0375812,-0.442533,2.445,2.48501
-0.0296453,-0.442533,2.445,2.4849
-0.0217094,-0.442533,2.445,2.48482
-0.0137736,-0.442533,2.445,2.48476
-0.00583771,-0.442533,2.445,2.48473
0.00209816,-0.442533,2.445,2.48473
0.010034,-0.442533,2.445,2.48475
0.0178449,-0.439456,2.428,2.46751
0.0257256,-0.439456,2.428,2.46758
0.0336063,-0.439456,2.428,2.46768
0.041487,-0.439456,2.428,2.4678
0.0493677,-0.439456,2.428,2.46794
0.0572484,-0.439456,2.428,2.46811
0.065129,-0.439456,2.428,2.46831
0.0730097,-0.439456,2.428,2.46853
0.0814568,-0.442533,2.445,2.48606
0.0893926,-0.442533,2.445,2.48633
0.0973285,-0.442533,2.445,2.48663
0.105264,-0.442533,2.445,2.48695
0.114034,-0.445791,2.463,2.50561
0.122028,-0.445791,2.463,2.50599
0.130022,-0.445791,2.463,2.50639
0.139025,-0.449049,2.481,2.52514
0.147078,-0.449049,2.481,2.5256
0.155131,-0.449049,2.481,2.52608
0.163183,-0.449049,2.481,2.52659
0.171236,-0.449049,2.481,2.52712
0.179289,-0.449049,2.481,2.52768
0.187341,-0.449049,2.481,2.52826
0.195394,-0.449049,2.481,2.52887
0.203447,-0.449049,2.481,2.52951
0.2115,-0.449049,2.481,2.53017
0.219552,-0.449049,2.481,2.53085
0.227605,-0.449049,2.481,2.53156
0.235658,-0.449049,2.481,2.5323
0.24371,-0.449049,2.481,2.53306
0.251763,-0.449049,2.481,2.53385
0.259816,-0.449049,2.481,2.53466
0.267868,-0.449049,2.481,2.5355
0.275921,-0.449049,2.481,2.53636
0.283974,-0.449049,2.481,2.53725
0.292027,-0.449049,2.481,2.53817
0.300079,-0.449049,2.481,2.5391
0.308132,-0.449049,2.481,2.54007
0.316185,-0.449049,2.481,2.54106
0.32659,-0.452306,2.499,2.56052
0.334701,-0.452306,2.499,2.56156
0.342812,-0.452306,2.499,2.56264
0.350923,-0.452306,2.499,2.56373
0.359034,-0.452306,2.499,2.56486
0.36979,-0.455564,2.517,2.58449
0.37796,-0.455564,2.517,2.58567
0.389044,-0.459003,2.536,2.6064
0.397275,-0.459003,2.536,2.60764
0.405506,-0.459003,2.536,2.60891
0.413738,-0.459003,2.536,2.6102
0.421969,-0.459003,2.536,2.61152
0.4302,-0.459003,2.536,2.61286
0.438431,-0.459003,2.536,2.61423
0.446662,-0.459003,2.536,2.61562
0.454894,-0.459003,2.536,2.61704
0.466595,-0.462442,2.555,2.6381
0.474888,-0.462442,2.555,2.63958
0.48318,-0.462442,2.555,2.64109
0.491473,-0.462442,2.555,2.64262
0.499766,-0.462442,2.555,2.64417
0.508059,-0.462442,2.555,2.64575
0.512512,-0.459003,2.536,2.62767
0.520743,-0.459003,2.536,2.62929
0.528975,-0.459003,2.536,2.63093
0.537206,-0.459003,2.536,2.6326
0.545437,-0.459003,2.536,2.63429
0.553668,-0.459003,2.536,2.63601
0.5619,-0.459003,2.536,2.63775
0.570131,-0.459003,2.536,2.63951
0.578362,-0.459003,2.536,2.6413
0.586593,-0.459003,2.536,2.64312
0.594824,-0.459003,2.536,2.64496
0.603056,-0.459003,2.536,2.64682
0.611287,-0.459003,2.536,2.64871
0.619518,-0.459003,2.536,2.65062
0.627749,-0.459003,2.536,2.65256
0.635981,-0.459003,2.536,2.65452
0.639385,-0.455564,2.517,2.6366
0.647555,-0.455564,2.517,2.63859
0.655725,-0.455564,2.517,2.64061
0.663894,-0.455564,2.517,2.64265
0.672064,-0.455564,2.517,2.64471
0.680233,-0.455564,2.517,2.6468
0.688403,-0.455564,2.517,2.64891
0.691591,-0.452306,2.499,2.63209
0.699702,-0.452306,2.499,2.63423
0.707813,-0.452306,2.499,2.6364
0.715924,-0.452306,2.499,2.63858
0.724035,-0.452306,2.499,2.6408
0.732147,-0.452306,2.499,2.64303
0.734926,-0.449049,2.481,2.62624
0.742978,-0.449049,2.481,2.6285
0.751031,-0.449049,2.481,2.63079
0.759084,-0.449049,2.481,2.6331
0.767137,-0.449049,2.481,2.63543
0.775189,-0.449049,2.481,2.63779
0.783242,-0.449049,2.481,2.64017
0.791295,-0.449049,2.481,2.64257
0.799347,-0.449049,2.481,2.64499
0.8074,-0.449049,2.481,2.64743
0.815453,-0.449049,2.481,2.6499
0.823505,-0.449049,2.481,2.65239
0.825525,-0.445791,2.463,2.63564
0.833519,-0.445791,2.463,2.63815
0.841514,-0.445791,2.463,2.64069
0.849508,-0.445791,2.463,2.64325
0.857502,-0.445791,2.463,2.64583
0.865497,-0.445791,2.463,2.64843
0.873491,-0.445791,2.463,2.65105
0.875043,-0.442533,2.445,2.6343
0.882979,-0.442533,2.445,2.63695
0.897474,-0.445791,2.463,2.65905
0.905468,-0.445791,2.463,2.66176
0.906787,-0.442533,2.445,2.64502
0.914722,-0.442533,2.445,2.64775
0.922658,-0.442533,2.445,2.6505
0.930594,-0.442533,2.445,2.65327
0.93853,-0.442533,2.445,2.65607
0.946466,-0.442533,2.445,2.65888
0.961428,-0.445791,2.463,2.68131
0.969422,-0.445791,2.463,2.68419
0.977417,-0.445791,2.463,2.68709
0.985411,-0.445791,2.463,2.69001
nan,nan,nan,NaN
nan,nan,nan,NaN
nan,nan,nan,NaN
nan,nan,nan,NaN
nan,nan,nan,NaN
nan,nan,nan,NaN
nan,nan,nan,NaN
nan,nan,nan,NaN
nan,nan,nan,NaN
nan,nan,nan,NaN
nan,nan,nan,NaN
nan,nan,nan,NaN
nan,nan,nan,NaN
nan,nan,nan,NaN
1.38401,-0.558189,3.084,3.42609
1.39402,-0.558189,3.084,3.43015
1.40403,-0.558189,3.084,3.43423
1.42688,-0.563256,3.112,3.46955
1.45037,-0.568505,3.141,3.50609
1.46057,-0.568505,3.141,3.51032
1.47076,-0.568505,3.141,3.51457
1.48096,-0.568505,3.141,3.51885
1.49115,-0.568505,3.141,3.52315
1.50135,-0.568505,3.141,3.52748
1.51154,-0.568505,3.141,3.53183
1.52174,-0.568505,3.141,3.53621
1.53193,-0.568505,3.141,3.54061
1.54213,-0.568505,3.141,3.54503
1.55232,-0.568505,3.141,3.54948
1.56252,-0.568505,3.141,3.55395
1.57271,-0.568505,3.141,3.55844
1.58291,-0.568505,3.141,3.56296
1.57839,-0.563256,3.112,3.53456
1.58849,-0.563256,3.112,3.53908
1.61349,-0.568505,3.141,3.57665
1.62369,-0.568505,3.141,3.58126
1.63388,-0.568505,3.141,3.5859
1.69066,-0.584614,3.23,3.69229
nan,nan,nan,NaN
nan,nan,nan,NaN
1.84367,-0.625881,3.458,3.96845
1.8549,-0.625881,3.458,3.97368
1.86612,-0.625881,3.458,3.97893
1.91589,-0.638731,3.529,4.06601
1.94755,-0.645428,3.566,4.11411
1.95913,-0.645428,3.566,4.1196
1.9707,-0.645428,3.566,4.12512
2.0034,-0.652306,3.604,4.17468
2.03634,-0.659184,3.642,4.22438
2.02679,-0.652306,3.604,4.18595
2.017,-0.645428,3.566,4.14743
2.02857,-0.645428,3.566,4.15308
2.04015,-0.645428,3.566,4.15874
2.05172,-0.645428,3.566,4.16443
2.06329,-0.645428,3.566,4.17015
2.07487,-0.645428,3.566,4.17588
2.06479,-0.638731,3.529,4.13826
2.07625,-0.638731,3.529,4.14399
2.0877,-0.638731,3.529,4.14974
2.05692,-0.625881,3.458,4.07191
2.04722,-0.619546,3.423,4.03632
2.05833,-0.619546,3.423,4.04196
2.04888,-0.613392,3.389,4.00743
2.03982,-0.607419,3.356,3.97399
2.05072,-0.607419,3.356,3.97959
2.02229,-0.595836,3.292,3.90921
2.01322,-0.590044,3.26,3.8767
2.0238,-0.590044,3.26,3.8822
1.97821,-0.573754,3.17,3.7804
1.93456,-0.558189,3.084,3.68309
1.94457,-0.558189,3.084,3.68836
1.92035,-0.548415,3.03,3.62897
1.91299,-0.543528,3.003,3.6018
1.92273,-0.543528,3.003,3.60698
1.89902,-0.534116,2.951,3.54964
1.86074,-0.520723,2.877,3.46563
1.87007,-0.520723,2.877,3.47066
1.84806,-0.512035,2.829,3.41771
1.82704,-0.503709,2.783,3.36703
1.83607,-0.503709,2.783,3.37194
1.81593,-0.495745,2.739,3.32348
1.81017,-0.491763,2.717,3.30161
1.81899,-0.491763,2.717,3.30645
1.8278,-0.491763,2.717,3.31131
1.82243,-0.487963,2.696,3.29056
1.81691,-0.484162,2.675,3.26974
-2.55363,-0.654298,3.681,4.52757
-2.54168,-0.654298,3.681,4.52084
-2.47682,-0.640612,3.604,4.41971
-2.43913,-0.633857,3.566,4.36663
-2.42755,-0.633857,3.566,4.36018
-2.41598,-0.633857,3.566,4.35374
-2.37946,-0.62728,3.529,4.30223
-2.32036,-0.61466,3.458,4.20947
-2.30914,-0.61466,3.458,4.20329
-2.27466,-0.608439,3.423,4.15466
-2.26355,-0.608439,3.423,4.14859
-2.25243,-0.608439,3.423,4.14253
-2.24132,-0.608439,3.423,4.1365
-2.23021,-0.608439,3.423,4.13049
-2.2191,-0.608439,3.423,4.12451
-2.18606,-0.602395,3.389,4.07763
-2.17506,-0.602395,3.389,4.07174
-2.16406,-0.602395,3.389,4.06588
-2.15306,-0.602395,3.389,4.06003
-2.14206,-0.602395,3.389,4.05421
-2.13106,-0.602395,3.389,4.04841
-2.12006,-0.602395,3.389,4.04263
-2.10906,-0.602395,3.389,4.03687
-2.09806,-0.602395,3.389,4.03114
-2.08706,-0.602395,3.389,4.02542
-2.07606,-0.602395,3.389,4.01973
-2.06506,-0.602395,3.389,4.01406
-2.05406,-0.602395,3.389,4.00841
-2.04306,-0.602395,3.389,4.00279
-2.03206,-0.602395,3.389,3.99718
nan,nan,nan,NaN
nan,nan,nan,NaN
nan,nan,nan,NaN
nan,nan,nan,NaN
nan,nan,nan,NaN
nan,nan,nan,NaN
nan,nan,nan,NaN
nan,nan,nan,NaN
nan,nan,nan,NaN
nan,nan,nan,NaN
nan,nan,nan,NaN
nan,nan,nan,NaN
nan,nan,nan,NaN
nan,nan,nan,NaN
nan,nan,nan,NaN
nan,nan,nan,NaN
nan,nan,nan,NaN
nan,nan,nan,NaN
nan,nan,nan,NaN
nan,nan,nan,NaN
nan,nan,nan,NaN
nan,nan,nan,NaN
nan,nan,nan,NaN
nan,nan,nan,NaN
nan,nan,nan,NaN
nan,nan,nan,NaN
nan,nan,nan,NaN
nan,nan,nan,NaN
nan,nan,nan,NaN
nan,nan,nan,NaN
nan,nan,nan,NaN
nan,nan,nan,NaN
nan,nan,nan,NaN
nan,nan,nan,NaN
-1.12413,-0.411136,2.313,2.60436
-1.11662,-0.411136,2.313,2.60112
-1.11679,-0.41398,2.329,2.61588
-1.10923,-0.41398,2.329,2.61266
-1.10167,-0.41398,2.329,2.60946
-1.10162,-0.416824,2.345,2.62418
-1.08655,-0.41398,2.329,2.60312
-1.07899,-0.41398,2.329,2.59997
-1.07879,-0.416824,2.345,2.61468
-1.07118,-0.416824,2.345,2.61155
-1.06357,-0.416824,2.345,2.60844
-1.05596,-0.416824,2.345,2.60534
-1.04835,-0.416824,2.345,2.60227
-1.04073,-0.416824,2.345,2.59921
-1.04017,-0.419668,2.361,2.61389
-1.03251,-0.419668,2.361,2.61085
-1.02485,-0.419668,2.361,2.60782
-1.01718,-0.419668,2.361,2.60482
-1.00952,-0.419668,2.361,2.60184
-1.00865,-0.422512,2.377,2.61649
-1.00093,-0.422512,2.377,2.61352
-0.993215,-0.422512,2.377,2.61058
-0.9855,-0.422512,2.377,2.60765
-0.977785,-0.422512,2.377,2.60475
-0.970069,-0.422512,2.377,2.60186
-0.969237,-0.425534,2.394,2.61758
-0.961466,-0.425534,2.394,2.61471
-0.953696,-0.425534,2.394,2.61187
-0.945926,-0.425534,2.394,2.60904
-0.938156,-0.425534,2.394,2.60623
-0.930385,-0.425534,2.394,2.60345
-0.916063,-0.422512,2.377,2.58221
-0.908348,-0.422512,2.377,2.57948
-0.900633,-0.422512,2.377,2.57678
-0.892918,-0.422512,2.377,2.57409
-0.885203,-0.422512,2.377,2.57143
-0.877488,-0.422512,2.377,2.56878
-0.875993,-0.425534,2.394,2.58451
-0.868223,-0.425534,2.394,2.58188
-0.860452,-0.425534,2.394,2.57928
-0.852682,-0.425534,2.394,2.5767
-0.844912,-0.425534,2.394,2.57414
-0.837141,-0.425534,2.394,2.5716
-0.829371,-0.425534,2.394,2.56908
-0.821601,-0.425534,2.394,2.56658
-0.81383,-0.425534,2.394,2.56411
-0.80606,-0.425534,2.394,2.56165
-0.79829,-0.425534,2.394,2.55922
-0.790519,-0.425534,2.394,2.5568
-0.782749,-0.425534,2.394,2.55441
-0.774979,-0.425534,2.394,2.55204
-0.767208,-0.425534,2.394,2.54969
-0.764831,-0.428556,2.411,2.56545
-0.757005,-0.428556,2.411,2.56313
-0.74918,-0.428556,2.411,2.56083
-0.741354,-0.428556,2.411,2.55855
-0.733529,-0.428556,2.411,2.5563
-0.725703,-0.428556,2.411,2.55406
-0.717878,-0.428556,2.411,2.55185
-0.710052,-0.428556,2.411,2.54966
-0.702227,-0.428556,2.411,2.54749
-0.694401,-0.428556,2.411,2.54534
-0.686576,-0.428556,2.411,2.54322
-0.67875,-0.428556,2.411,2.54112
-0.670925,-0.428556,2.411,2.53904
-0.663099,-0.428556,2.411,2.53698
-0.655274,-0.428556,2.411,2.53495
-0.647448,-0.428556,2.411,2.53294
-0.639623,-0.428556,2.411,2.53095
-0.631797,-0.428556,2.411,2.52898
-0.628371,-0.431577,2.428,2.54486
-0.620491,-0.431577,2.428,2.54292
-0.61261,-0.431577,2.428,2.54101
-0.604729,-0.431577,2.428,2.53912
-0.596848,-0.431577,2.428,2.53726
-0.588968,-0.431577,2.428,2.53541
-0.581087,-0.431577,2.428,2.5336
-0.57722,-0.434599,2.445,2.54953
-0.569284,-0.434599,2.445,2.54774
-0.561348,-0.434599,2.445,2.54598
-0.553412,-0.434599,2.445,2.54424
-0.545476,-0.434599,2.445,2.54253
-0.53754,-0.434599,2.445,2.54084
-0.529605,-0.434599,2.445,2.53917
-0.521669,-0.434599,2.445,2.53753
-0.513733,-0.434599,2.445,2.53591
-0.505797,-0.434599,2.445,2.53431
-0.497861,-0.434599,2.445,2.53274
-0.489925,-0.434599,2.445,2.53119
-0.481989,-0.434599,2.445,2.52967
-0.474054,-0.434599,2.445,2.52817
-0.466118,-0.434599,2.445,2.52669
-0.458182,-0.434599,2.445,2.52524
-0.450246,-0.434599,2.445,2.52381
-0.439235,-0.431577,2.428,2.50487
-0.431354,-0.431577,2.428,2.5035
-0.423473,-0.431577,2.428,2.50215
-0.415593,-0.431577,2.428,2.50083
-0.407712,-0.431577,2.428,2.49953
-0.399831,-0.431577,2.428,2.49826
-0.391951,-0.431577,2.428,2.49701
-0.38407,-0.431577,2.428,2.49579
-0.376189,-0.431577,2.428,2.49459
-0.368309,-0.431577,2.428,2.49341
-0.360428,-0.431577,2.428,2.49226
-0.352547,-0.431577,2.428,2.49113
-0.344667,-0.431577,2.428,2.49003
-0.336786,-0.431577,2.428,2.48895
-0.328905,-0.431577,2.428,2.4879
-0.321025,-0.431577,2.428,2.48687
-0.313144,-0.431577,2.428,2.48586
-0.305263,-0.431577,2.428,2.48488
-0.2953,-0.428556,2.411,2.46653
-0.287475,-0.428556,2.411,2.46561
-0.281621,-0.431577,2.428,2.48209
-0.27374,-0.431577,2.428,2.4812
-0.263998,-0.428556,2.411,2.46298
-0.256173,-0.428556,2.411,2.46215
-0.250098,-0.431577,2.428,2.47871
-0.242218,-0.431577,2.428,2.47793
-0.234337,-0.431577,2.428,2.47717
-0.226456,-0.431577,2.428,2.47643
-0.218576,-0.431577,2.428,2.47573
-0.210695,-0.431577,2.428,2.47504
-0.202814,-0.431577,2.428,2.47438
-0.194934,-0.431577,2.428,2.47375
-0.188363,-0.434599,2.445,2.49046
-0.180427,-0.434599,2.445,2.48987
-0.173761,-0.437799,2.463,2.50763
-0.165766,-0.437799,2.463,2.50709
-0.157772,-0.437799,2.463,2.50658
-0.149778,-0.437799,2.463,2.50609
-0.141784,-0.437799,2.463,2.50562
-0.134767,-0.440998,2.481,2.52349
-0.126714,-0.440998,2.481,2.52307
-0.118662,-0.440998,2.481,2.52268
-0.110609,-0.440998,2.481,2.52232
-0.102556,-0.440998,2.481,2.52198
-0.0945035,-0.440998,2.481,2.52166
-0.0858236,-0.437799,2.463,2.50308
-0.0778293,-0.437799,2.463,2.50282
-0.069835,-0.437799,2.463,2.50258
-0.0618407,-0.437799,2.463,2.50237
-0.0534529,-0.434599,2.445,2.4839
-0.045517,-0.434599,2.445,2.48374
-0.0375812,-0.434599,2.445,2.48361
-0.0296453,-0.434599,2.445,2.4835
-0.0217094,-0.434599,2.445,2.48342
-0.0137736,-0.434599,2.445,2.48336
-0.00583771,-0.434599,2.445,2.48333
0.00209816,-0.434599,2.445,2.48333
0.010034,-0.434599,2.445,2.48335
0.0178449,-0.431577,2.428,2.46612
0.0257256,-0.431577,2.428,2.46619
0.0336063,-0.431577,2.428,2.46629
0.041487,-0.431577,2.428,2.46641
0.0493677,-0.431577,2.428,2.46655
0.0572484,-0.431577,2.428,2.46672
0.065129,-0.431577,2.428,2.46692
0.0730097,-0.431577,2.428,2.46714
0.0808904,-0.431577,2.428,2.46738
0.0887711,-0.431577,2.428,2.46766
0.0966518,-0.431577,2.428,2.46795
0.105264,-0.434599,2.445,2.48555
0.1132,-0.434599,2.445,2.4859
0.121136,-0.434599,2.445,2.48628
0.129072,-0.434599,2.445,2.48668
0.138016,-0.437799,2.463,2.50541
0.146011,-0.437799,2.463,2.50586
0.154005,-0.437799,2.463,2.50634
0.161999,-0.437799,2.463,2.50685
0.169994,-0.437799,2.463,2.50738
0.179289,-0.440998,2.481,2.52626
0.187341,-0.440998,2.481,2.52684
0.195394,-0.440998,2.481,2.52745
0.203447,-0.440998,2.481,2.52809
0.2115,-0.440998,2.481,2.52875
0.219552,-0.440998,2.481,2.52944
0.227605,-0.440998,2.481,2.53015
0.235658,-0.440998,2.481,2.53088
0.24371,-0.440998,2.481,2.53165
0.251763,-0.440998,2.481,2.53243
0.259816,-0.440998,2.481,2.53325
0.267868,-0.440998,2.481,2.53409
0.275921,-0.440998,2.481,2.53495
0.283974,-0.440998,2.481,2.53584
0.292027,-0.440998,2.481,2.53675
0.300079,-0.440998,2.481,2.53769
0.308132,-0.440998,2.481,2.53866
0.316185,-0.440998,2.481,2.53965
0.324237,-0.440998,2.481,2.54066
0.33229,-0.440998,2.481,2.5417
0.342812,-0.444198,2.499,2.56122
0.350923,-0.444198,2.499,2.56232
0.359034,-0.444198,2.499,2.56344
0.36979,-0.447397,2.517,2.58306
0.37796,-0.447397,2.517,2.58424
0.386129,-0.447397,2.517,2.58545
0.394299,-0.447397,2.517,2.58668
0.402468,-0.447397,2.517,2.58794
0.413738,-0.450774,2.536,2.60877
0.421969,-0.450774,2.536,2.61009
0.4302,-0.450774,2.536,2.61143
0.438431,-0.450774,2.536,2.6128
0.446662,-0.450774,2.536,2.61419
0.454894,-0.450774,2.536,2.61561
0.463125,-0.450774,2.536,2.61706
0.471356,-0.450774,2.536,2.61852
0.479587,-0.450774,2.536,2.62002
0.487819,-0.450774,2.536,2.62154
0.49605,-0.450774,2.536,2.62308
0.504281,-0.450774,2.536,2.62465
0.512512,-0.450774,2.536,2.62625
0.520743,-0.450774,2.536,2.62786
0.525012,-0.447397,2.517,2.60981
0.533181,-0.447397,2.517,2.61146
0.545437,-0.450774,2.536,2.63287
0.54952,-0.447397,2.517,2.61485
0.55769,-0.447397,2.517,2.61658
0.565859,-0.447397,2.517,2.61833
0.574029,-0.447397,2.517,2.62011
0.582199,-0.447397,2.517,2.62191
0.590368,-0.447397,2.517,2.62374
0.598538,-0.447397,2.517,2.62559
0.606707,-0.447397,2.517,2.62746
0.614877,-0.447397,2.517,2.62936
0.623046,-0.447397,2.517,2.63128
0.631216,-0.447397,2.517,2.63323
0.639385,-0.447397,2.517,2.6352
0.647555,-0.447397,2.517,2.63719
0.655725,-0.447397,2.517,2.63921
0.663894,-0.447397,2.517,2.64125
0.672064,-0.447397,2.517,2.64332
0.680233,-0.447397,2.517,2.64541
0.688403,-0.447397,2.517,2.64752
0.691591,-0.444198,2.499,2.63071
0.699702,-0.444198,2.499,2.63285
0.707813,-0.444198,2.499,2.63502
0.715924,-0.444198,2.499,2.63721
0.724035,-0.444198,2.499,2.63942
0.732147,-0.444198,2.499,2.64166
0.734926,-0.440998,2.481,2.62487
0.742978,-0.440998,2.481,2.62714
0.751031,-0.440998,2.481,2.62943
0.759084,-0.440998,2.481,2.63174
0.767137,-0.440998,2.481,2.63407
0.775189,-0.440998,2.481,2.63643
0.783242,-0.440998,2.481,2.63881
0.791295,-0.440998,2.481,2.64121
0.799347,-0.440998,2.481,2.64363
0.8074,-0.440998,2.481,2.64608
0.815453,-0.440998,2.481,2.64855
0.823505,-0.440998,2.481,2.65104
0.825525,-0.437799,2.463,2.6343
0.833519,-0.437799,2.463,2.63681
0.841514,-0.437799,2.463,2.63935
0.849508,-0.437799,2.463,2.64191
0.857502,-0.437799,2.463,2.64449
0.865497,-0.437799,2.463,2.6471
0.873491,-0.437799,2.463,2.64972
0.881485,-0.437799,2.463,2.65237
0.889479,-0.437799,2.463,2.65504
0.897474,-0.437799,2.463,2.65772
0.905468,-0.437799,2.463,2.66043
0.913462,-0.437799,2.463,2.66317
0.921457,-0.437799,2.463,2.66592
0.922658,-0.434599,2.445,2.64919
0.930594,-0.434599,2.445,2.65196
0.93853,-0.434599,2.445,2.65476
0.946466,-0.434599,2.445,2.65757
0.961428,-0.437799,2.463,2.68
0.969422,-0.437799,2.463,2.68287
0.977417,-0.437799,2.463,2.68577
0.985411,-0.437799,2.463,2.68869
1.00067,-0.440998,2.481,2.7113
nan,nan,nan,NaN
nan,nan,nan,NaN
nan,nan,nan,NaN
nan,nan,nan,NaN
nan,nan,nan,NaN
nan,nan,nan,NaN
nan,nan,nan,NaN
nan,nan,nan,NaN
nan,nan,nan,NaN
nan,nan,nan,NaN
nan,nan,nan,NaN
nan,nan,nan,NaN
nan,nan,nan,NaN
1.38401,-0.548182,3.084,3.42448
1.39402,-0.548182,3.084,3.42854
1.40403,-0.548182,3.084,3.43262
1.41404,-0.548182,3.084,3.43672
1.43698,-0.553158,3.112,3.4721
1.44708,-0.553158,3.112,3.47629
1.45718,-0.553158,3.112,3.4805
1.46728,-0.553158,3.112,3.48475
1.47738,-0.553158,3.112,3.48901
1.48749,-0.553158,3.112,3.4933
1.49759,-0.553158,3.112,3.49761
1.52174,-0.558313,3.141,3.53458
1.53193,-0.558313,3.141,3.53898
1.54213,-0.558313,3.141,3.54341
1.55232,-0.558313,3.141,3.54786
1.56252,-0.558313,3.141,3.55233
1.57271,-0.558313,3.141,3.55683
1.58291,-0.558313,3.141,3.56135
1.57839,-0.553158,3.112,3.53297
1.58849,-0.553158,3.112,3.53749
1.61349,-0.558313,3.141,3.57505
1.62369,-0.558313,3.141,3.57966
1.63388,-0.558313,3.141,3.58429
1.69066,-0.574133,3.23,3.69064
nan,nan,nan,NaN
nan,nan,nan,NaN
1.84367,-0.61466,3.458,3.9667
1.8549,-0.61466,3.458,3.97193
1.86612,-0.61466,3.458,3.97718
1.91589,-0.62728,3.529,4.06423
1.94755,-0.633857,3.566,4.11231
1.98,-0.640612,3.604,4.16168
1.9917,-0.640612,3.604,4.16726
2.02452,-0.647366,3.642,4.21686
2.03634,-0.647366,3.642,4.22255
2.02679,-0.640612,3.604,4.18415
2.03849,-0.640612,3.604,4.18983
2.05019,-0.640612,3.604,4.19553
2.04015,-0.633857,3.566,4.15696
2.05172,-0.633857,3.566,4.16265
2.08528,-0.640612,3.604,4.21279
2.07487,-0.633857,3.566,4.17411
2.08644,-0.633857,3.566,4.17988
2.09802,-0.633857,3.566,4.18567
2.0877,-0.62728,3.529,4.14799
2.05692,-0.61466,3.458,4.0702
2.04722,-0.608439,3.423,4.03463
2.05833,-0.608439,3.423,4.04028
2.04888,-0.602395,3.389,4.00576
2.03982,-0.59653,3.356,3.97234
2.05072,-0.59653,3.356,3.97794
2.02229,-0.585154,3.292,3.9076
2.01322,-0.579466,3.26,3.8751
2.0238,-0.579466,3.26,3.88061
1.97821,-0.563468,3.17,3.77885
1.93456,-0.548182,3.084,3.68159
1.94457,-0.548182,3.084,3.68685
1.92035,-0.538583,3.03,3.6275
1.91299,-0.533784,3.003,3.60034
1.92273,-0.533784,3.003,3.60553
1.89902,-0.524541,2.951,3.54821
1.86074,-0.511387,2.877,3.46424
1.87007,-0.511387,2.877,3.46927
1.84806,-0.502855,2.829,3.41635
1.82704,-0.494679,2.783,3.36569
1.83607,-0.494679,2.783,3.3706
1.81593,-0.486858,2.739,3.32216
1.81017,-0.482947,2.717,3.30031
1.81899,-0.482947,2.717,3.30515
1.8278,-0.482947,2.717,3.31001
1.82243,-0.479214,2.696,3.28927
1.81691,-0.475482,2.675,3.26847
-2.55363,-0.642354,3.681,4.52586
-2.54168,-0.642354,3.681,4.51913
-2.47682,-0.628917,3.604,4.41803
-2.43913,-0.622286,3.566,4.36497
-2.42755,-0.622286,3.566,4.35851
-2.41598,-0.622286,3.566,4.35207
-2.37946,-0.615829,3.529,4.30057
-2.32036,-0.603439,3.458,4.20785
-2.30914,-0.603439,3.458,4.20167
-2.27466,-0.597332,3.423,4.15305
-2.26355,-0.597332,3.423,4.14697
-2.25243,-0.597332,3.423,4.14092
-2.24132,-0.597332,3.423,4.13488
-2.23021,-0.597332,3.423,4.12887
-2.2191,-0.597332,3.423,4.12288
-2.18606,-0.591399,3.389,4.07602
-2.17506,-0.591399,3.389,4.07013
-2.16406,-0.591399,3.389,4.06426
-2.15306,-0.591399,3.389,4.05842
-2.14206,-0.591399,3.389,4.05259
-2.15244,-0.597332,3.423,4.08739
-2.14133,-0.597332,3.423,4.08155
-2.10906,-0.591399,3.389,4.03525
-2.09806,-0.591399,3.389,4.02951
-2.08706,-0.591399,3.389,4.02379
-2.07606,-0.591399,3.389,4.0181
-2.06506,-0.591399,3.389,4.01243
-2.05406,-0.591399,3.389,4.00678
-2.04306,-0.591399,3.389,4.00115
-2.03206,-0.591399,3.389,3.99554
nan,nan,nan,NaN
nan,nan,nan,NaN
nan,nan,nan,NaN
nan,nan,nan,NaN
nan,nan,nan,NaN
nan,nan,nan,NaN
nan,nan,nan,NaN
nan,nan,nan,NaN
nan,nan,nan,NaN
nan,nan,nan,NaN
nan,nan,nan,NaN
nan,nan,nan,NaN
nan,nan,nan,NaN
nan,nan,nan,NaN
nan,nan,nan,NaN
nan,nan,nan,NaN
nan,nan,nan,NaN
nan,nan,nan,NaN
nan,nan,nan,NaN
nan,nan,nan,NaN
nan,nan,nan,NaN
nan,nan,nan,NaN
nan,nan,nan,NaN
nan,nan,nan,NaN
nan,nan,nan,NaN
nan,nan,nan,NaN
nan,nan,nan,NaN
nan,nan,nan,NaN
nan,nan,nan,NaN
nan,nan,nan,NaN
nan,nan,nan,NaN
nan,nan,nan,NaN
nan,nan,nan,NaN
nan,nan,nan,NaN
-1.12413,-0.403631,2.313,2.60318
-1.11662,-0.403631,2.313,2.59995
-1.10911,-0.403631,2.313,2.59673
-1.10161,-0.403631,2.313,2.59354
-1.10167,-0.406423,2.329,2.60827
-1.09411,-0.406423,2.329,2.60509
-1.08655,-0.406423,2.329,2.60192
-1.07899,-0.406423,2.329,2.59878
-1.07143,-0.406423,2.329,2.59565
-1.06387,-0.406423,2.329,2.59254
-1.05631,-0.406423,2.329,2.58944
-1.04875,-0.406423,2.329,2.58637
-1.04835,-0.409215,2.345,2.60106
-1.04073,-0.409215,2.345,2.598
-1.03312,-0.409215,2.345,2.59496
-1.02551,-0.409215,2.345,2.59194
-1.0179,-0.409215,2.345,2.58894
-1.01718,-0.412007,2.361,2.6036
-1.00952,-0.412007,2.361,2.60062
-1.00186,-0.412007,2.361,2.59765
-0.994193,-0.412007,2.361,2.5947
-0.993215,-0.414799,2.377,2.60934
-0.9855,-0.414799,2.377,2.60641
-0.977785,-0.414799,2.377,2.60351
-0.970069,-0.414799,2.377,2.60062
-0.962354,-0.414799,2.377,2.59775
-0.954639,-0.414799,2.377,2.5949
-0.946924,-0.414799,2.377,2.59207
-0.939209,-0.414799,2.377,2.58927
-0.931494,-0.414799,2.377,2.58648
-0.923778,-0.414799,2.377,2.58371
-0.916063,-0.414799,2.377,2.58096
-0.908348,-0.414799,2.377,2.57823
-0.900633,-0.414799,2.377,2.57552
-0.892918,-0.414799,2.377,2.57284
-0.885203,-0.414799,2.377,2.57017
-0.877488,-0.414799,2.377,2.56752
-0.875993,-0.417766,2.394,2.58324
-0.868223,-0.417766,2.394,2.58062
-0.860452,-0.417766,2.394,2.57801
-0.852682,-0.417766,2.394,2.57543
-0.844912,-0.417766,2.394,2.57287
-0.837141,-0.417766,2.394,2.57032
-0.829371,-0.417766,2.394,2.5678
-0.821601,-0.417766,2.394,2.56531
-0.81383,-0.417766,2.394,2.56283
-0.80606,-0.417766,2.394,2.56037
-0.79829,-0.417766,2.394,2.55793
-0.790519,-0.417766,2.394,2.55552
-0.782749,-0.417766,2.394,2.55313
-0.774979,-0.417766,2.394,2.55076
-0.767208,-0.417766,2.394,2.54841
-0.764831,-0.420732,2.411,2.56416
-0.757005,-0.420732,2.411,2.56183
-0.74918,-0.420732,2.411,2.55953
-0.741354,-0.420732,2.411,2.55725
-0.733529,-0.420732,2.411,2.555
-0.725703,-0.420732,2.411,2.55276
-0.717878,-0.420732,2.411,2.55055
-0.710052,-0.420732,2.411,2.54835
-0.702227,-0.420732,2.411,2.54619
-0.694401,-0.420732,2.411,2.54404
-0.686576,-0.420732,2.411,2.54191
-0.67875,-0.420732,2.411,2.53981
-0.670925,-0.420732,2.411,2.53773
-0.663099,-0.420732,2.411,2.53567
-0.655274,-0.420732,2.411,2.53364
-0.647448,-0.420732,2.411,2.53163
-0.639623,-0.420732,2.411,2.52964
-0.631797,-0.420732,2.411,2.52767
-0.628371,-0.423699,2.428,2.54353
-0.620491,-0.423699,2.428,2.5416
-0.61261,-0.423699,2.428,2.53968
-0.604729,-0.423699,2.428,2.53779
-0.596848,-0.423699,2.428,2.53593
-0.588968,-0.423699,2.428,2.53409
-0.581087,-0.423699,2.428,2.53227
-0.57722,-0.426666,2.445,2.54819
-0.569284,-0.426666,2.445,2.5464
-0.561348,-0.426666,2.445,2.54464
-0.553412,-0.426666,2.445,2.5429
-0.545476,-0.426666,2.445,2.54118
-0.53754,-0.426666,2.445,2.53949
-0.529605,-0.426666,2.445,2.53782
-0.521669,-0.426666,2.445,2.53618
-0.513733,-0.426666,2.445,2.53456
-0.505797,-0.426666,2.445,2.53296
-0.497861,-0.426666,2.445,2.53139
-0.489925,-0.426666,2.445,2.52984
-0.481989,-0.426666,2.445,2.52832
-0.474054,-0.426666,2.445,2.52682
-0.466118,-0.426666,2.445,2.52534
-0.458182,-0.426666,2.445,2.52389
-0.450246,-0.426666,2.445,2.52246
-0.439235,-0.423699,2.428,2.50352
-0.431354,-0.423699,2.428,2.50215
-0.423473,-0.423699,2.428,2.50081
-0.415593,-0.423699,2.428,2.49948
-0.407712,-0.423699,2.428,2.49819
-0.399831,-0.423699,2.428,2.49691
-0.391951,-0.423699,2.428,2.49566
-0.38407,-0.423699,2.428,2.49444
-0.376189,-0.423699,2.428,2.49324
-0.368309,-0.423699,2.428,2.49206
-0.360428,-0.423699,2.428,2.49091
-0.352547,-0.423699,2.428,2.48978
-0.342253,-0.420732,2.411,2.47125
-0.334428,-0.420732,2.411,2.47018
-0.326602,-0.420732,2.411,2.46913
-0.318777,-0.420732,2.411,2.46811
-0.310951,-0.420732,2.411,2.46711
-0.303126,-0.420732,2.411,2.46614
-0.2953,-0.420732,2.411,2.46519
-0.287475,-0.420732,2.411,2.46426
-0.279649,-0.420732,2.411,2.46336
-0.271824,-0.420732,2.411,2.46248
-0.263998,-0.420732,2.411,2.46163
-0.256173,-0.420732,2.411,2.4608
-0.248347,-0.420732,2.411,2.46
-0.240522,-0.420732,2.411,2.45922
-0.234337,-0.423699,2.428,2.47581
-0.226456,-0.423699,2.428,2.47507
-0.218576,-0.423699,2.428,2.47436
-0.210695,-0.423699,2.428,2.47368
-0.202814,-0.423699,2.428,2.47302
-0.194934,-0.423699,2.428,2.47239
-0.188363,-0.426666,2.445,2.48909
-0.180427,-0.426666,2.445,2.4885
-0.172491,-0.426666,2.445,2.48794
-0.164555,-0.426666,2.445,2.4874
-0.156619,-0.426666,2.445,2.48689
-0.149778,-0.429807,2.463,2.5047
-0.141784,-0.429807,2.463,2.50424
-0.133789,-0.429807,2.463,2.5038
-0.125795,-0.429807,2.463,2.50338
-0.117801,-0.429807,2.463,2.50299
-0.109806,-0.429807,2.463,2.50263
-0.101812,-0.429807,2.463,2.50229
-0.0938178,-0.429807,2.463,2.50198
-0.0851963,-0.426666,2.445,2.48341
-0.0772605,-0.426666,2.445,2.48315
-0.069835,-0.429807,2.463,2.5012
-0.0618407,-0.429807,2.463,2.50099
-0.0534529,-0.426666,2.445,2.48252
-0.045517,-0.426666,2.445,2.48237
-0.0375812,-0.426666,2.445,2.48223
-0.0294392,-0.423699,2.428,2.46487
-0.0215585,-0.423699,2.428,2.46479
-0.0136778,-0.423699,2.428,2.46473
-0.00579712,-0.423699,2.428,2.4647
0.00208357,-0.423699,2.428,2.46469
0.00996425,-0.423699,2.428,2.46471
0.0178449,-0.423699,2.428,2.46476
0.0257256,-0.423699,2.428,2.46483
0.0336063,-0.423699,2.428,2.46492
0.041487,-0.423699,2.428,2.46504
0.0493677,-0.423699,2.428,2.46519
0.0572484,-0.423699,2.428,2.46536
0.065129,-0.423699,2.428,2.46555
0.0730097,-0.423699,2.428,2.46577
0.0808904,-0.423699,2.428,2.46602
0.0887711,-0.423699,2.428,2.46629
0.0966518,-0.423699,2.428,2.46659
0.105264,-0.426666,2.445,2.48418
0.1132,-0.426666,2.445,2.48453
0.121136,-0.426666,2.445,2.4849
0.129072,-0.426666,2.445,2.4853
0.138016,-0.429807,2.463,2.50403
0.146011,-0.429807,2.463,2.50448
0.154005,-0.429807,2.463,2.50496
0.161999,-0.429807,2.463,2.50546
0.169994,-0.429807,2.463,2.50599
0.177988,-0.429807,2.463,2.50655
0.185982,-0.429807,2.463,2.50713
0.193976,-0.429807,2.463,2.50773
0.201971,-0.429807,2.463,2.50836
0.209965,-0.429807,2.463,2.50902
0.217959,-0.429807,2.463,2.5097
0.225954,-0.429807,2.463,2.51041
0.233948,-0.429807,2.463,2.51114
0.241942,-0.429807,2.463,2.5119
0.249936,-0.429807,2.463,2.51268
0.257931,-0.429807,2.463,2.51349
0.267868,-0.432948,2.481,2.5327
0.275921,-0.432948,2.481,2.53356
0.283974,-0.432948,2.481,2.53445
0.292027,-0.432948,2.481,2.53537
0.300079,-0.432948,2.481,2.53631
0.308132,-0.432948,2.481,2.53727
0.316185,-0.432948,2.481,2.53826
0.324237,-0.432948,2.481,2.53928
0.33229,-0.432948,2.481,2.54032
0.342812,-0.436089,2.499,2.55982
0.350923,-0.436089,2.499,2.56092
0.359034,-0.436089,2.499,2.56205
0.36979,-0.43923,2.517,2.58166
0.37796,-0.43923,2.517,2.58284
0.386129,-0.43923,2.517,2.58405
0.394299,-0.43923,2.517,2.58528
0.402468,-0.43923,2.517,2.58654
0.413738,-0.442546,2.536,2.60736
0.421969,-0.442546,2.536,2.60868
0.4302,-0.442546,2.536,2.61002
0.438431,-0.442546,2.536,2.61139
0.446662,-0.442546,2.536,2.61279
0.454894,-0.442546,2.536,2.61421
0.463125,-0.442546,2.536,2.61565
0.471356,-0.442546,2.536,2.61712
0.475994,-0.43923,2.517,2.599
0.484164,-0.43923,2.517,2.60051
0.492333,-0.43923,2.517,2.60204
0.500503,-0.43923,2.517,2.6036
0.508672,-0.43923,2.517,2.60518
0.516842,-0.43923,2.517,2.60679
0.525012,-0.43923,2.517,2.60842
0.533181,-0.43923,2.517,2.61008
0.541351,-0.43923,2.517,2.61176
0.54952,-0.43923,2.517,2.61346
0.55769,-0.43923,2.517,2.61519
0.565859,-0.43923,2.517,2.61695
0.574029,-0.43923,2.517,2.61873
0.582199,-0.43923,2.517,2.62053
0.590368,-0.43923,2.517,2.62236
0.598538,-0.43923,2.517,2.62421
0.606707,-0.43923,2.517,2.62608
0.614877,-0.43923,2.517,2.62798
0.623046,-0.43923,2.517,2.6299
0.631216,-0.43923,2.517,2.63185
0.639385,-0.43923,2.517,2.63382
0.647555,-0.43923,2.517,2.63582
0.655725,-0.43923,2.517,2.63784
0.663894,-0.43923,2.517,2.63988
0.672064,-0.43923,2.517,2.64195
0.680233,-0.43923,2.517,2.64404
0.68348,-0.436089,2.499,2.62723
0.691591,-0.436089,2.499,2.62935
0.699702,-0.436089,2.499,2.63149
0.707813,-0.436089,2.499,2.63366
0.715924,-0.436089,2.499,2.63585
0.724035,-0.436089,2.499,2.63807
0.732147,-0.436089,2.499,2.64031
0.740258,-0.436089,2.499,2.64257
0.748369,-0.436089,2.499,2.64485
0.75648,-0.436089,2.499,2.64716
0.759084,-0.432948,2.481,2.6304
0.767137,-0.432948,2.481,2.63274
0.775189,-0.432948,2.481,2.63509
0.783242,-0.432948,2.481,2.63748
0.791295,-0.432948,2.481,2.63988
0.799347,-0.432948,2.481,2.6423
0.8074,-0.432948,2.481,2.64475
0.815453,-0.432948,2.481,2.64722
0.823505,-0.432948,2.481,2.64971
0.831558,-0.432948,2.481,2.65222
0.839611,-0.432948,2.481,2.65476
0.847664,-0.432948,2.481,2.65732
0.849508,-0.429807,2.463,2.6406
0.857502,-0.429807,2.463,2.64318
0.865497,-0.429807,2.463,2.64579
0.873491,-0.429807,2.463,2.64841
0.881485,-0.429807,2.463,2.65106
0.889479,-0.429807,2.463,2.65373
0.897474,-0.429807,2.463,2.65642
0.905468,-0.429807,2.463,2.65913
0.913462,-0.429807,2.463,2.66186
0.921457,-0.429807,2.463,2.66462
0.922658,-0.426666,2.445,2.6479
0.930594,-0.426666,2.445,2.65067
0.945439,-0.429807,2.463,2.67301
0.953434,-0.429807,2.463,2.67584
0.961428,-0.429807,2.463,2.6787
0.969422,-0.429807,2.463,2.68158
0.977417,-0.429807,2.463,2.68448
0.985411,-0.429807,2.463,2.6874
1.00067,-0.432948,2.481,2.71001
nan,nan,nan,NaN
nan,nan,nan,NaN
nan,nan,nan,NaN
nan,nan,nan,NaN
nan,nan,nan,NaN
nan,nan,nan,NaN
nan,nan,nan,NaN
nan,nan,nan,NaN
nan,nan,nan,NaN
nan,nan,nan,NaN
nan,nan,nan,NaN
nan,nan,nan,NaN
nan,nan,nan,NaN
1.38401,-0.538174,3.084,3.42289
1.39402,-0.538174,3.084,3.42695
1.40403,-0.538174,3.084,3.43103
1.41404,-0.538174,3.084,3.43514
1.43698,-0.543061,3.112,3.4705
1.44708,-0.543061,3.112,3.4747
1.45718,-0.543061,3.112,3.47891
1.46728,-0.543061,3.112,3.48316
1.47738,-0.543061,3.112,3.48742
1.48749,-0.543061,3.112,3.49171
1.49759,-0.543061,3.112,3.49603
1.52174,-0.548121,3.141,3.53299
1.53193,-0.548121,3.141,3.53739
1.54213,-0.548121,3.141,3.54182
1.55232,-0.548121,3.141,3.54627
1.56252,-0.548121,3.141,3.55074
1.57271,-0.548121,3.141,3.55524
1.58291,-0.548121,3.141,3.55976
1.57839,-0.543061,3.112,3.5314
1.58849,-0.543061,3.112,3.53593
1.61349,-0.548121,3.141,3.57347
1.62369,-0.548121,3.141,3.57808
1.63388,-0.548121,3.141,3.58272
1.69066,-0.563652,3.23,3.68903
nan,nan,nan,NaN
1.8139,-0.597332,3.423,3.91969
1.82501,-0.597332,3.423,3.92484
1.8549,-0.603439,3.458,3.97021
1.86612,-0.603439,3.458,3.97546
1.91589,-0.615829,3.529,4.06248
1.94755,-0.622286,3.566,4.11054
1.98,-0.628917,3.604,4.1599
1.9917,-0.628917,3.604,4.16548
2.02452,-0.635548,3.642,4.21507
2.03634,-0.635548,3.642,4.22076
2.02679,-0.628917,3.604,4.18237
2.03849,-0.628917,3.604,4.18805
2.05019,-0.628917,3.604,4.19376
2.04015,-0.622286,3.566,4.15521
2.05172,-0.622286,3.566,4.16091
2.08528,-0.628917,3.604,4.21103
2.07487,-0.622286,3.566,4.17237
2.08644,-0.622286,3.566,4.17814
2.09802,-0.622286,3.566,4.18393
2.0877,-0.615829,3.529,4.14627
2.05692,-0.603439,3.458,4.06852
2.04722,-0.597332,3.423,4.03297
2.05833,-0.597332,3.423,4.03862
2.04888,-0.591399,3.389,4.00412
2.03982,-0.58564,3.356,3.97072
2.05072,-0.58564,3.356,3.97632
2.02229,-0.574472,3.292,3.90601
2.01322,-0.568887,3.26,3.87354
2.0238,-0.568887,3.26,3.87905
1.97821,-0.553182,3.17,3.77733
1.91762,-0.533463,3.057,3.64789
1.92754,-0.533463,3.057,3.65312
1.90324,-0.52404,3.003,3.59374
1.89642,-0.519502,2.977,3.56775
1.90609,-0.519502,2.977,3.5729
1.86684,-0.50624,2.901,3.48672
1.84521,-0.497864,2.853,3.43399
1.85447,-0.497864,2.853,3.43898
1.83303,-0.489662,2.806,3.38724
1.8126,-0.481809,2.761,3.33778
1.82156,-0.481809,2.761,3.34265
1.80135,-0.474131,2.717,3.2942
1.79618,-0.470466,2.696,3.27353
1.80493,-0.470466,2.696,3.27834
1.81368,-0.470466,2.696,3.28317
1.80823,-0.466802,2.675,3.2624
1.80265,-0.463137,2.654,3.24157
-2.55363,-0.63041,3.681,4.52418
-2.51475,-0.623731,3.642,4.46959
-2.50293,-0.623731,3.642,4.46294
-2.46512,-0.617223,3.604,4.40983
-2.42755,-0.610715,3.566,4.35687
-2.41598,-0.610715,3.566,4.35043
-2.37946,-0.604378,3.529,4.29895
-2.32036,-0.592219,3.458,4.20625
-2.30914,-0.592219,3.458,4.20007
-2.29791,-0.592219,3.458,4.19391
-2.26355,-0.586225,3.423,4.14539
-2.25243,-0.586225,3.423,4.13933
-2.24132,-0.586225,3.423,4.13329
-2.23021,-0.586225,3.423,4.12728
-2.2191,-0.586225,3.423,4.12129
-2.20799,-0.586225,3.423,4.11532
-2.17506,-0.580402,3.389,4.06855
-2.16406,-0.580402,3.389,4.06268
-2.15306,-0.580402,3.389,4.05683
-2.14206,-0.580402,3.389,4.051
-2.15244,-0.586225,3.423,4.08578
-2.14133,-0.586225,3.423,4.07994
-2.10906,-0.580402,3.389,4.03365
-2.09806,-0.580402,3.389,4.02791
-2.08706,-0.580402,3.389,4.02219
-2.07606,-0.580402,3.389,4.01649
-2.06506,-0.580402,3.389,4.01082
-2.05406,-0.580402,3.389,4.00517
-2.04306,-0.580402,3.389,3.99954
-2.03206,-0.580402,3.389,3.99393
nan,nan,nan,NaN
nan,nan,nan,NaN
nan,nan,nan,NaN
nan,nan,nan,NaN
nan,nan,nan,NaN
nan,nan,nan,NaN
nan,nan,nan,NaN
nan,nan,nan,NaN
nan,nan,nan,NaN
nan,nan,nan,NaN
nan,nan,nan,NaN
nan,nan,nan,NaN
nan,nan,nan,NaN
nan,nan,nan,NaN
nan,nan,nan,NaN
nan,nan,nan,NaN
nan,nan,nan,NaN
nan,nan,nan,NaN
nan,nan,nan,NaN
nan,nan,nan,NaN
nan,nan,nan,NaN
nan,nan,nan,NaN
nan,nan,nan,NaN
nan,nan,nan,NaN
nan,nan,nan,NaN
nan,nan,nan,NaN
nan,nan,nan,NaN
nan,nan,nan,NaN
nan,nan,nan,NaN
nan,nan,nan,NaN
nan,nan,nan,NaN
nan,nan,nan,NaN
nan,nan,nan,NaN
nan,nan,nan,NaN
-1.12413,-0.396126,2.313,2.60203
-1.11662,-0.396126,2.313,2.59879
-1.10911,-0.396126,2.313,2.59558
-1.10161,-0.396126,2.313,2.59238
-1.10167,-0.398866,2.329,2.60711
-1.09411,-0.398866,2.329,2.60392
-1.08655,-0.398866,2.329,2.60075
-1.07899,-0.398866,2.329,2.59761
-1.07143,-0.398866,2.329,2.59447
-1.06387,-0.398866,2.329,2.59136
-1.05631,-0.398866,2.329,2.58827
-1.04875,-0.398866,2.329,2.58519
-1.04835,-0.401606,2.345,2.59987
-1.04073,-0.401606,2.345,2.59681
-1.03312,-0.401606,2.345,2.59377
-1.02551,-0.401606,2.345,2.59075
-1.0179,-0.401606,2.345,2.58775
-1.01718,-0.404346,2.361,2.6024
-1.00952,-0.404346,2.361,2.59941
-1.00186,-0.404346,2.361,2.59645
-0.994193,-0.404346,2.361,2.5935
-0.993215,-0.407086,2.377,2.60813
-0.9855,-0.407086,2.377,2.6052
-0.977785,-0.407086,2.377,2.60229
-0.970069,-0.407086,2.377,2.5994
-0.962354,-0.407086,2.377,2.59653
-0.954639,-0.407086,2.377,2.59368
-0.946924,-0.407086,2.377,2.59085
-0.939209,-0.407086,2.377,2.58804
-0.931494,-0.407086,2.377,2.58525
-0.923778,-0.407086,2.377,2.58248
-0.916063,-0.407086,2.377,2.57973
-0.908348,-0.407086,2.377,2.577
-0.900633,-0.407086,2.377,2.57429
-0.892918,-0.407086,2.377,2.5716
-0.885203,-0.407086,2.377,2.56894
-0.877488,-0.407086,2.377,2.56629
-0.869772,-0.407086,2.377,2.56366
-0.862057,-0.407086,2.377,2.56105
-0.854342,-0.407086,2.377,2.55847
-0.846627,-0.407086,2.377,2.5559
-0.844912,-0.409998,2.394,2.57162
-0.837141,-0.409998,2.394,2.56907
-0.829371,-0.409998,2.394,2.56655
-0.821601,-0.409998,2.394,2.56405
-0.81383,-0.409998,2.394,2.56157
-0.80606,-0.409998,2.394,2.55911
-0.79829,-0.409998,2.394,2.55668
-0.790519,-0.409998,2.394,2.55426
-0.782749,-0.409998,2.394,2.55187
-0.774979,-0.409998,2.394,2.5495
-0.767208,-0.409998,2.394,2.54714
-0.759438,-0.409998,2.394,2.54481
-0.751668,-0.409998,2.394,2.54251
-0.743897,-0.409998,2.394,2.54022
-0.736127,-0.409998,2.394,2.53796
-0.728357,-0.409998,2.394,2.53571
-0.720586,-0.409998,2.394,2.53349
-0.712816,-0.409998,2.394,2.53129
-0.705046,-0.409998,2.394,2.52912
-0.697275,-0.409998,2.394,2.52696
-0.694401,-0.412909,2.411,2.54276
-0.686576,-0.412909,2.411,2.54063
-0.67875,-0.412909,2.411,2.53853
-0.670925,-0.412909,2.411,2.53645
-0.663099,-0.412909,2.411,2.53439
-0.655274,-0.412909,2.411,2.53235
-0.647448,-0.412909,2.411,2.53034
-0.639623,-0.412909,2.411,2.52835
-0.631797,-0.412909,2.411,2.52638
-0.628371,-0.41582,2.428,2.54223
-0.620491,-0.41582,2.428,2.5403
-0.61261,-0.41582,2.428,2.53838
-0.604729,-0.41582,2.428,2.53649
-0.596848,-0.41582,2.428,2.53462
-0.588968,-0.41582,2.428,2.53278
-0.581087,-0.41582,2.428,2.53096
-0.57722,-0.418732,2.445,2.54687
-0.569284,-0.418732,2.445,2.54508
-0.561348,-0.418732,2.445,2.54332
-0.553412,-0.418732,2.445,2.54158
-0.545476,-0.418732,2.445,2.53986
-0.53754,-0.418732,2.445,2.53817
-0.529605,-0.418732,2.445,2.5365
-0.521669,-0.418732,2.445,2.53486
-0.513733,-0.418732,2.445,2.53324
-0.505797,-0.418732,2.445,2.53164
-0.497861,-0.418732,2.445,2.53006
-0.489925,-0.418732,2.445,2.52852
-0.481989,-0.418732,2.445,2.52699
