1.95913,-0.182585,3.566,4.07282
1.95025,-0.18069,3.529,4.03608
1.96171,-0.18069,3.529,4.04163
1.97316,-0.18069,3.529,4.0472
1.96437,-0.178847,3.493,4.01146
1.97571,-0.178847,3.493,4.01702
1.98704,-0.178847,3.493,4.02261
1.97836,-0.177055,3.458,3.98786
1.96944,-0.175263,3.423,3.95302
1.96088,-0.173522,3.389,3.91925
1.97188,-0.173522,3.389,3.92476
1.96357,-0.171832,3.356,3.89203
1.95564,-0.170194,3.324,3.86037
1.96643,-0.170194,3.324,3.86585
1.95818,-0.168555,3.292,3.83408
1.93179,-0.165381,3.23,3.76723
1.94227,-0.165381,3.23,3.77262
1.93401,-0.163794,3.199,3.74177
1.9444,-0.163794,3.199,3.74715
nan,nan,nan,NaN
1.89452,-0.157906,3.084,3.62287
1.87118,-0.155141,3.03,3.56459
1.88101,-0.155141,3.03,3.56976
1.85777,-0.152427,2.977,3.51242
1.83545,-0.149816,2.926,3.45728
1.84494,-0.149816,2.926,3.46233
1.8386,-0.148536,2.901,3.43777
1.81743,-0.146078,2.853,3.38585
1.82669,-0.146078,2.853,3.39083
1.82051,-0.144849,2.829,3.36727
1.79994,-0.142494,2.783,3.31741
1.79467,-0.141367,2.761,3.29605
1.80364,-0.141367,2.761,3.30094
1.78371,-0.139115,2.717,3.25316
1.79253,-0.139115,2.717,3.25801
1.80135,-0.139115,2.717,3.26287
1.78218,-0.136964,2.675,3.21723
1.77681,-0.135889,2.654,3.19675
1.78542,-0.135889,2.654,3.20155
1.76632,-0.13379,2.613,3.15683
1.76122,-0.132766,2.593,3.13738
-1.94661,-0.134567,2.806,3.41776
-1.93751,-0.134567,2.806,3.41258
-1.91259,-0.133464,2.783,3.37948
-1.88851,-0.132408,2.761,3.34771
-1.86457,-0.131353,2.739,3.31602
-1.85568,-0.131353,2.739,3.31103
-1.83196,-0.130298,2.717,3.2795
-1.82314,-0.130298,2.717,3.27459
-1.81432,-0.130298,2.717,3.26968
-1.8055,-0.130298,2.717,3.2648
-1.7828,-0.129291,2.696,3.23473
-1.77405,-0.129291,2.696,3.22992
-1.7653,-0.129291,2.696,3.22512
-1.75655,-0.129291,2.696,3.22034
-1.7478,-0.129291,2.696,3.21557
-1.73905,-0.129291,2.696,3.21083
-1.73029,-0.129291,2.696,3.2061
-1.73495,-0.130298,2.717,3.22632
-1.75409,-0.132408,2.761,3.27376
-1.74513,-0.132408,2.761,3.26896
-1.75,-0.133464,2.783,3.2902
-1.75535,-0.134567,2.806,3.31255
-1.74625,-0.134567,2.806,3.30774
-1.76624,-0.13682,2.853,3.35826
-1.77176,-0.137971,2.877,3.38161
-1.76242,-0.137971,2.877,3.37673
-1.75308,-0.137971,2.877,3.37186
-1.75829,-0.139122,2.901,3.3951
-1.74887,-0.139122,2.901,3.39024
-1.73946,-0.139122,2.901,3.38539
-1.73004,-0.139122,2.901,3.38056
-1.72062,-0.139122,2.901,3.37575
-1.71121,-0.139122,2.901,3.37096
-1.70179,-0.139122,2.901,3.36619
-1.69238,-0.139122,2.901,3.36144
-1.68296,-0.139122,2.901,3.35671
-1.67355,-0.139122,2.901,3.352
-1.66413,-0.139122,2.901,3.34731
nan,nan,nan,NaN
nan,nan,nan,NaN
nan,nan,nan,NaN
nan,nan,nan,NaN
nan,nan,nan,NaN
nan,nan,nan,NaN
nan,nan,nan,NaN
nan,nan,nan,NaN
nan,nan,nan,NaN
nan,nan,nan,NaN
nan,nan,nan,NaN
nan,nan,nan,NaN
nan,nan,nan,NaN
nan,nan,nan,NaN
nan,nan,nan,NaN
nan,nan,nan,NaN
nan,nan,nan,NaN
nan,nan,nan,NaN
nan,nan,nan,NaN
nan,nan,nan,NaN
nan,nan,nan,NaN
nan,nan,nan,NaN
-1.29387,-0.124352,2.593,2.90056
-1.28546,-0.124352,2.593,2.89681
-1.24897,-0.121618,2.536,2.82949
-1.23144,-0.120707,2.517,2.80469
-1.22327,-0.120707,2.517,2.80112
-1.20641,-0.119844,2.499,2.77755
-1.1983,-0.119844,2.499,2.77404
-1.19019,-0.119844,2.499,2.77055
-1.17357,-0.118981,2.481,2.74714
-1.15706,-0.118117,2.463,2.7238
-1.14906,-0.118117,2.463,2.72042
-1.13273,-0.117254,2.445,2.69719
-1.11697,-0.116439,2.428,2.67514
-1.10909,-0.116439,2.428,2.67186
-1.10121,-0.116439,2.428,2.6686
-1.08568,-0.115624,2.411,2.64669
-1.07025,-0.114808,2.394,2.62485
-1.06248,-0.114808,2.394,2.62169
-1.05471,-0.114808,2.394,2.61856
-1.03951,-0.113993,2.377,2.59686
-1.03179,-0.113993,2.377,2.59378
-1.02408,-0.113993,2.377,2.59072
-1.00952,-0.113226,2.361,2.57027
-1.00186,-0.113226,2.361,2.56727
-0.994193,-0.113226,2.361,2.56429
-0.986529,-0.113226,2.361,2.56132
-0.978866,-0.113226,2.361,2.55838
-0.971203,-0.113226,2.361,2.55546
-0.95701,-0.112458,2.345,2.53526
-0.949399,-0.112458,2.345,2.5324
-0.941787,-0.112458,2.345,2.52955
-0.934176,-0.112458,2.345,2.52673
-0.920243,-0.111691,2.329,2.5067
-0.912683,-0.111691,2.329,2.50394
-0.905124,-0.111691,2.329,2.50119
-0.897565,-0.111691,2.329,2.49847
-0.890005,-0.111691,2.329,2.49576
-0.882446,-0.111691,2.329,2.49308
-0.874887,-0.111691,2.329,2.49041
-0.867327,-0.111691,2.329,2.48776
-0.859768,-0.111691,2.329,2.48514
-0.852209,-0.111691,2.329,2.48253
-0.850452,-0.112458,2.345,2.49699
-0.842841,-0.112458,2.345,2.4944
-0.835229,-0.112458,2.345,2.49184
-0.833265,-0.113226,2.361,2.50629
-0.825602,-0.113226,2.361,2.50375
-0.817938,-0.113226,2.361,2.50123
-0.810275,-0.113226,2.361,2.49874
-0.802612,-0.113226,2.361,2.49626
-0.800336,-0.113993,2.377,2.51071
-0.792621,-0.113993,2.377,2.50826
-0.784906,-0.113993,2.377,2.50583
-0.777191,-0.113993,2.377,2.50343
-0.769475,-0.113993,2.377,2.50104
-0.76176,-0.113993,2.377,2.49868
-0.759438,-0.114808,2.394,2.51419
-0.751668,-0.114808,2.394,2.51186
-0.743897,-0.114808,2.394,2.50954
-0.736127,-0.114808,2.394,2.50725
-0.728357,-0.114808,2.394,2.50498
-0.720586,-0.114808,2.394,2.50273
-0.712816,-0.114808,2.394,2.5005
-0.705046,-0.114808,2.394,2.4983
-0.697275,-0.114808,2.394,2.49612
-0.689505,-0.114808,2.394,2.49396
-0.686576,-0.115624,2.411,2.50952
-0.67875,-0.115624,2.411,2.50739
-0.670925,-0.115624,2.411,2.50528
-0.663099,-0.115624,2.411,2.5032
-0.655274,-0.115624,2.411,2.50113
-0.647448,-0.115624,2.411,2.4991
-0.639623,-0.115624,2.411,2.49708
-0.631797,-0.115624,2.411,2.49509
-0.623972,-0.115624,2.411,2.49312
-0.620491,-0.116439,2.428,2.50874
-0.61261,-0.116439,2.428,2.5068
-0.604729,-0.116439,2.428,2.50488
-0.596848,-0.116439,2.428,2.50299
-0.588968,-0.116439,2.428,2.50113
-0.585156,-0.117254,2.445,2.51678
-0.57722,-0.117254,2.445,2.51495
-0.569284,-0.117254,2.445,2.51314
-0.561348,-0.117254,2.445,2.51135
-0.553412,-0.117254,2.445,2.50959
-0.545476,-0.117254,2.445,2.50785
-0.541498,-0.118117,2.463,2.52459
-0.533504,-0.118117,2.463,2.52288
-0.525509,-0.118117,2.463,2.52121
-0.521297,-0.118981,2.481,2.53797
-0.513244,-0.118981,2.481,2.53632
-0.505192,-0.118981,2.481,2.53471
-0.497139,-0.118981,2.481,2.53311
-0.489086,-0.118981,2.481,2.53155
-0.481034,-0.118981,2.481,2.53
-0.472981,-0.118981,2.481,2.52848
-0.464928,-0.118981,2.481,2.52699
-0.456875,-0.118981,2.481,2.52552
-0.448823,-0.118981,2.481,2.52408
-0.44077,-0.118981,2.481,2.52266
-0.432717,-0.118981,2.481,2.52126
-0.424665,-0.118981,2.481,2.51989
-0.419634,-0.119844,2.499,2.53682
-0.411523,-0.119844,2.499,2.53549
-0.403412,-0.119844,2.499,2.53419
-0.395301,-0.119844,2.499,2.53291
-0.38719,-0.119844,2.499,2.53166
-0.379079,-0.119844,2.499,2.53043
-0.370968,-0.119844,2.499,2.52923
-0.362857,-0.119844,2.499,2.52805
-0.35219,-0.118981,2.481,2.5087
-0.344137,-0.118981,2.481,2.50758
-0.336085,-0.118981,2.481,2.50649
-0.328032,-0.118981,2.481,2.50542
-0.319979,-0.118981,2.481,2.50438
-0.309664,-0.118117,2.463,2.4852
-0.301669,-0.118117,2.463,2.48422
-0.293675,-0.118117,2.463,2.48326
-0.285681,-0.118117,2.463,2.48232
-0.277686,-0.118117,2.463,2.48142
-0.269692,-0.118117,2.463,2.48054
-0.259785,-0.117254,2.445,2.46156
-0.251849,-0.117254,2.445,2.46073
-0.243914,-0.117254,2.445,2.45993
-0.235978,-0.117254,2.445,2.45916
-0.228042,-0.117254,2.445,2.45841
-0.220106,-0.117254,2.445,2.45769
-0.21217,-0.117254,2.445,2.45699
-0.204234,-0.117254,2.445,2.45632
-0.196298,-0.117254,2.445,2.45567
-0.188363,-0.117254,2.445,2.45505
-0.180427,-0.117254,2.445,2.45445
-0.172491,-0.117254,2.445,2.45388
-0.164555,-0.117254,2.445,2.45334
-0.156619,-0.117254,2.445,2.45282
-0.149778,-0.118117,2.463,2.47038
-0.141784,-0.118117,2.463,2.4699
-0.133789,-0.118117,2.463,2.46946
-0.125795,-0.118117,2.463,2.46904
-0.117801,-0.118117,2.463,2.46864
-0.109806,-0.118117,2.463,2.46827
-0.101812,-0.118117,2.463,2.46793
-0.0938178,-0.118117,2.463,2.46761
-0.0858236,-0.118117,2.463,2.46732
-0.0778293,-0.118117,2.463,2.46706
-0.069835,-0.118117,2.463,2.46682
-0.0618407,-0.118117,2.463,2.46661
-0.0534529,-0.117254,2.445,2.44839
-0.045517,-0.117254,2.445,2.44823
-0.0375812,-0.117254,2.445,2.4481
-0.0294392,-0.116439,2.428,2.43097
-0.0215585,-0.116439,2.428,2.43089
-0.0136778,-0.116439,2.428,2.43083
-0.00579712,-0.116439,2.428,2.4308
0.00208357,-0.116439,2.428,2.43079
0.00996425,-0.116439,2.428,2.43081
0.01772,-0.115624,2.411,2.41384
0.0255455,-0.115624,2.411,2.41391
0.033371,-0.115624,2.411,2.414
0.0411965,-0.115624,2.411,2.41412
0.049022,-0.115624,2.411,2.41427
0.0568475,-0.115624,2.411,2.41444
0.064673,-0.115624,2.411,2.41464
0.0724985,-0.115624,2.411,2.41486
0.0803241,-0.115624,2.411,2.41511
0.0887711,-0.116439,2.428,2.43241
0.0966518,-0.116439,2.428,2.43271
0.104532,-0.116439,2.428,2.43304
0.112413,-0.116439,2.428,2.43339
0.120294,-0.116439,2.428,2.43377
0.129072,-0.117254,2.445,2.45121
0.137008,-0.117254,2.445,2.45164
0.146011,-0.118117,2.463,2.47015
0.15288,-0.117254,2.445,2.45258
0.160815,-0.117254,2.445,2.45309
0.169994,-0.118117,2.463,2.47168
0.177988,-0.118117,2.463,2.47225
0.185982,-0.118117,2.463,2.47283
0.193976,-0.118117,2.463,2.47345
0.201971,-0.118117,2.463,2.47409
0.2115,-0.118981,2.481,2.49284
0.219552,-0.118981,2.481,2.49354
0.227605,-0.118981,2.481,2.49426
0.235658,-0.118981,2.481,2.49501
0.245479,-0.119844,2.499,2.51389
0.25359,-0.119844,2.499,2.51469
0.261701,-0.119844,2.499,2.51552
0.269812,-0.119844,2.499,2.51638
0.277923,-0.119844,2.499,2.51726
0.286034,-0.119844,2.499,2.51817
0.294145,-0.119844,2.499,2.5191
0.302256,-0.119844,2.499,2.52006
0.310368,-0.119844,2.499,2.52105
0.318479,-0.119844,2.499,2.52206
0.32659,-0.119844,2.499,2.5231
0.334701,-0.119844,2.499,2.52416
0.342812,-0.119844,2.499,2.52525
0.350923,-0.119844,2.499,2.52636
0.359034,-0.119844,2.499,2.5275
0.367146,-0.119844,2.499,2.52867
0.375257,-0.119844,2.499,2.52986
0.383368,-0.119844,2.499,2.53107
0.388659,-0.118981,2.481,2.51408
0.396712,-0.118981,2.481,2.51533
0.404765,-0.118981,2.481,2.51662
0.412817,-0.118981,2.481,2.51792
0.417816,-0.118117,2.463,2.50098
0.425811,-0.118117,2.463,2.50233
0.433805,-0.118117,2.463,2.5037
0.441799,-0.118117,2.463,2.5051
0.449794,-0.118117,2.463,2.50652
0.457788,-0.118117,2.463,2.50797
0.465782,-0.118117,2.463,2.50944
0.473776,-0.118117,2.463,2.51093
0.481771,-0.118117,2.463,2.51245
0.489765,-0.118117,2.463,2.514
0.497759,-0.118117,2.463,2.51557
0.505754,-0.118117,2.463,2.51716
0.513748,-0.118117,2.463,2.51878
0.521742,-0.118117,2.463,2.52042
0.529737,-0.118117,2.463,2.52209
0.541661,-0.118981,2.481,2.54223
0.545725,-0.118117,2.463,2.5255
0.553719,-0.118117,2.463,2.52724
0.565819,-0.118981,2.481,2.54748
0.573871,-0.118981,2.481,2.54928
0.581924,-0.118981,2.481,2.55111
0.589977,-0.118981,2.481,2.55296
0.593691,-0.118117,2.463,2.53629
0.601685,-0.118117,2.463,2.53818
0.609679,-0.118117,2.463,2.54008
0.617674,-0.118117,2.463,2.54202
0.625668,-0.118117,2.463,2.54397
0.633662,-0.118117,2.463,2.54595
0.641657,-0.118117,2.463,2.54795
0.649651,-0.118117,2.463,2.54997
0.652839,-0.117254,2.445,2.53337
0.660775,-0.117254,2.445,2.53543
0.668711,-0.117254,2.445,2.53751
0.676647,-0.117254,2.445,2.53961
0.684582,-0.117254,2.445,2.54174
0.692518,-0.117254,2.445,2.54389
0.700454,-0.117254,2.445,2.54606
0.70839,-0.117254,2.445,2.54825
0.721599,-0.118117,2.463,2.56925
0.729594,-0.118117,2.463,2.5715
0.737588,-0.118117,2.463,2.57378
0.745582,-0.118117,2.463,2.57608
0.753577,-0.118117,2.463,2.57841
0.761571,-0.118117,2.463,2.58076
0.775189,-0.118981,2.481,2.60201
0.783242,-0.118981,2.481,2.60442
0.791295,-0.118981,2.481,2.60685
0.799347,-0.118981,2.481,2.60931
0.8074,-0.118981,2.481,2.61178
0.815453,-0.118981,2.481,2.61428
0.823505,-0.118981,2.481,2.61681
0.831558,-0.118981,2.481,2.61935
0.839611,-0.118981,2.481,2.62192
0.847664,-0.118981,2.481,2.62451
0.855716,-0.118981,2.481,2.62712
0.863769,-0.118981,2.481,2.62976
0.871822,-0.118981,2.481,2.63241
0.879874,-0.118981,2.481,2.63509
0.881485,-0.118117,2.463,2.61865
0.889479,-0.118117,2.463,2.62135
0.897474,-0.118117,2.463,2.62408
0.898851,-0.117254,2.445,2.60762
0.900482,-0.116439,2.428,2.59222
0.908362,-0.116439,2.428,2.59497
0.916243,-0.116439,2.428,2.59774
0.917653,-0.115624,2.411,2.58232
0.918953,-0.114808,2.394,2.56688
0.926724,-0.114808,2.394,2.56968
0.927858,-0.113993,2.377,2.55422
0.929276,-0.113226,2.361,2.53982
0.936939,-0.113226,2.361,2.54264
0.944602,-0.113226,2.361,2.54547
0.958719,-0.113993,2.377,2.56559
0.966434,-0.113993,2.377,2.56849
0.974149,-0.113993,2.377,2.5714
0.988886,-0.114808,2.394,2.59274
1.01081,-0.116439,2.428,2.63258
1.03338,-0.118117,2.463,2.67361
1.04137,-0.118117,2.463,2.67671
1.07237,-0.120707,2.517,2.73858
1.11317,-0.124352,2.593,2.82458
1.12158,-0.124352,2.593,2.82791
1.17489,-0.129291,2.696,2.94372
1.22183,-0.133464,2.783,3.04233
1.26183,-0.13682,2.853,3.12258
1.27109,-0.13682,2.853,3.12634
1.31311,-0.140321,2.926,3.2102
1.34566,-0.142767,2.977,3.27012
1.35532,-0.142767,2.977,3.27411
1.38928,-0.145309,3.03,3.33648
1.42405,-0.147898,3.084,3.40013
1.43406,-0.147898,3.084,3.40433
1.44407,-0.147898,3.084,3.40856
1.45408,-0.147898,3.084,3.41281
1.46409,-0.147898,3.084,3.41709
1.4612,-0.146604,3.057,3.39144
1.47112,-0.146604,3.057,3.39572
1.48104,-0.146604,3.057,3.40003
1.49096,-0.146604,3.057,3.40437
1.48763,-0.145309,3.03,3.37862
1.49746,-0.145309,3.03,3.38296
1.5073,-0.145309,3.03,3.38732
1.51713,-0.145309,3.03,3.39171
1.52697,-0.145309,3.03,3.39612
1.52311,-0.144014,3.003,3.37025
1.53285,-0.144014,3.003,3.37467
1.58421,-0.147898,3.084,3.47025
1.63868,-0.152023,3.17,3.57173
1.64897,-0.152023,3.17,3.57646
1.70636,-0.156339,3.26,3.6829
1.7338,-0.157873,3.292,3.72401
1.74448,-0.157873,3.292,3.729
1.78929,-0.160943,3.356,3.8066
1.83612,-0.164156,3.423,3.88783
1.86612,-0.165834,3.458,3.9329
1.87734,-0.165834,3.458,3.93823
1.90768,-0.167513,3.493,3.98351
1.91902,-0.167513,3.493,3.98895
1.91102,-0.165834,3.458,3.9544
1.92224,-0.165834,3.458,3.95983
1.93346,-0.165834,3.458,3.96529
1.94469,-0.165834,3.458,3.97078
1.95591,-0.165834,3.458,3.97629
1.96713,-0.165834,3.458,3.98182
1.95833,-0.164156,3.423,3.94702
1.94988,-0.162525,3.389,3.91328
1.94179,-0.160943,3.356,3.88062
1.95268,-0.160943,3.356,3.88608
1.94485,-0.159408,3.324,3.85446
1.93681,-0.157873,3.292,3.82275
1.9475,-0.157873,3.292,3.82818
1.9213,-0.1549,3.23,3.76142
1.91325,-0.153413,3.199,3.73064
1.92363,-0.153413,3.199,3.73597
1.89895,-0.150632,3.141,3.6735
1.89152,-0.149241,3.112,3.64481
1.90162,-0.149241,3.112,3.65006
1.87793,-0.146604,3.057,3.59073
1.85451,-0.144014,3.003,3.53241
1.86425,-0.144014,3.003,3.53754
1.84155,-0.14152,2.951,3.48134
1.83545,-0.140321,2.926,3.45688
1.84494,-0.140321,2.926,3.46193
1.82338,-0.137971,2.877,3.40894
1.80215,-0.135669,2.829,3.35699
1.81133,-0.135669,2.829,3.36193
1.80571,-0.134567,2.806,3.33951
1.78571,-0.132408,2.761,3.29081
1.78037,-0.131353,2.739,3.26942
1.78926,-0.131353,2.739,3.27427
1.78371,-0.130298,2.717,3.2528
1.77867,-0.129291,2.696,3.23246
1.78743,-0.129291,2.696,3.23729
1.78218,-0.128284,2.675,3.21687
1.76275,-0.12627,2.633,3.17111
1.77129,-0.12627,2.633,3.17586
1.7528,-0.124352,2.593,3.13232
1.74831,-0.123441,2.574,3.11405
-1.94661,-0.125461,2.806,3.41741
-1.92163,-0.124433,2.783,3.38426
-1.91259,-0.124433,2.783,3.37914
-1.88851,-0.123449,2.761,3.34736
-1.8496,-0.121482,2.717,3.28905
-1.84078,-0.121482,2.717,3.2841
-1.83196,-0.121482,2.717,3.27917
-1.82314,-0.121482,2.717,3.27425
-1.81432,-0.121482,2.717,3.26934
-1.8055,-0.121482,2.717,3.26446
-1.7828,-0.120543,2.696,3.2344
-1.77405,-0.120543,2.696,3.22958
-1.7653,-0.120543,2.696,3.22478
-1.75655,-0.120543,2.696,3.22
-1.7478,-0.120543,2.696,3.21524
-1.75259,-0.121482,2.717,3.23549
-1.74377,-0.121482,2.717,3.23073
nan,nan,nan,NaN
nan,nan,nan,NaN
-1.77357,-0.125461,2.806,3.32189
-1.76446,-0.125461,2.806,3.31703
-1.76974,-0.12649,2.829,3.33935
-1.76056,-0.12649,2.829,3.33449
-1.76624,-0.127563,2.853,3.3579
-1.77176,-0.128636,2.877,3.38124
-1.77712,-0.129709,2.901,3.40452
-1.7677,-0.129709,2.901,3.39962
-1.75829,-0.129709,2.901,3.39473
-1.74887,-0.129709,2.901,3.38986
-1.73946,-0.129709,2.901,3.38502
-1.74495,-0.130827,2.926,3.40932
-1.73545,-0.130827,2.926,3.40447
-1.72596,-0.130827,2.926,3.39963
-1.71646,-0.130827,2.926,3.39482
-1.70696,-0.130827,2.926,3.39003
-1.69746,-0.130827,2.926,3.38526
-1.68797,-0.130827,2.926,3.38051
-1.67847,-0.130827,2.926,3.37577
nan,nan,nan,NaN
nan,nan,nan,NaN
nan,nan,nan,NaN
nan,nan,nan,NaN
nan,nan,nan,NaN
nan,nan,nan,NaN
nan,nan,nan,NaN
nan,nan,nan,NaN
nan,nan,nan,NaN
nan,nan,nan,NaN
nan,nan,nan,NaN
nan,nan,nan,NaN
nan,nan,nan,NaN
nan,nan,nan,NaN
nan,nan,nan,NaN
nan,nan,nan,NaN
nan,nan,nan,NaN
nan,nan,nan,NaN
nan,nan,nan,NaN
nan,nan,nan,NaN
nan,nan,nan,NaN
-1.34347,-0.119604,2.675,2.99581
-1.29387,-0.115938,2.593,2.90021
-1.28546,-0.115938,2.593,2.89646
-1.25833,-0.114239,2.555,2.85034
-1.24074,-0.113389,2.536,2.82552
-1.23251,-0.113389,2.536,2.82192
-1.22428,-0.113389,2.536,2.81833
-1.20693,-0.11254,2.517,2.79368
-1.19876,-0.11254,2.517,2.79016
-1.18208,-0.111735,2.499,2.76673
-1.16551,-0.11093,2.481,2.74337
-1.14906,-0.110125,2.463,2.72008
-1.14107,-0.110125,2.463,2.71671
-1.12479,-0.109321,2.445,2.69354
-1.10909,-0.10856,2.428,2.67153
-1.10121,-0.10856,2.428,2.66827
-1.09333,-0.10856,2.428,2.66502
-1.07785,-0.1078,2.411,2.64316
-1.07003,-0.1078,2.411,2.63998
-1.05471,-0.10704,2.394,2.61823
-1.03951,-0.10628,2.377,2.59654
-1.03179,-0.10628,2.377,2.59346
-1.02408,-0.10628,2.377,2.5904
-1.01636,-0.10628,2.377,2.58736
-1.00865,-0.10628,2.377,2.58434
-1.00093,-0.10628,2.377,2.58133
-0.986529,-0.105565,2.361,2.561
-0.978866,-0.105565,2.361,2.55805
-0.971203,-0.105565,2.361,2.55513
-0.96354,-0.105565,2.361,2.55223
-0.949399,-0.104849,2.345,2.53207
-0.941787,-0.104849,2.345,2.52923
-0.934176,-0.104849,2.345,2.5264
-0.926565,-0.104849,2.345,2.5236
-0.918953,-0.104849,2.345,2.52081
-0.911342,-0.104849,2.345,2.51805
-0.897565,-0.104134,2.329,2.49814
-0.890005,-0.104134,2.329,2.49543
-0.882446,-0.104134,2.329,2.49275
-0.874887,-0.104134,2.329,2.49008
-0.867327,-0.104134,2.329,2.48744
-0.865674,-0.104849,2.345,2.50188
-0.858063,-0.104849,2.345,2.49926
-0.850452,-0.104849,2.345,2.49666
-0.842841,-0.104849,2.345,2.49407
-0.835229,-0.104849,2.345,2.49151
-0.833265,-0.105565,2.361,2.50595
-0.825602,-0.105565,2.361,2.50341
-0.817938,-0.105565,2.361,2.5009
-0.810275,-0.105565,2.361,2.4984
-0.802612,-0.105565,2.361,2.49593
-0.800336,-0.10628,2.377,2.51037
-0.792621,-0.10628,2.377,2.50792
-0.784906,-0.10628,2.377,2.50549
-0.777191,-0.10628,2.377,2.50309
-0.769475,-0.10628,2.377,2.5007
-0.767208,-0.10704,2.394,2.51621
-0.759438,-0.10704,2.394,2.51385
-0.751668,-0.10704,2.394,2.51151
-0.743897,-0.10704,2.394,2.5092
-0.736127,-0.10704,2.394,2.50691
-0.728357,-0.10704,2.394,2.50464
-0.720586,-0.10704,2.394,2.50239
-0.712816,-0.10704,2.394,2.50016
-0.705046,-0.10704,2.394,2.49796
-0.697275,-0.10704,2.394,2.49577
-0.694401,-0.1078,2.411,2.51132
-0.686576,-0.1078,2.411,2.50917
-0.67875,-0.1078,2.411,2.50704
-0.670925,-0.1078,2.411,2.50493
-0.663099,-0.1078,2.411,2.50285
-0.655274,-0.1078,2.411,2.50078
-0.647448,-0.1078,2.411,2.49875
-0.639623,-0.1078,2.411,2.49673
-0.631797,-0.1078,2.411,2.49474
-0.623972,-0.1078,2.411,2.49277
-0.620491,-0.10856,2.428,2.50838
-0.61261,-0.10856,2.428,2.50644
-0.604729,-0.10856,2.428,2.50453
-0.596848,-0.10856,2.428,2.50264
-0.588968,-0.10856,2.428,2.50077
-0.585156,-0.109321,2.445,2.51642
-0.57722,-0.109321,2.445,2.51459
-0.569284,-0.109321,2.445,2.51278
-0.561348,-0.109321,2.445,2.51099
-0.553412,-0.109321,2.445,2.50923
-0.545476,-0.109321,2.445,2.50749
-0.541498,-0.110125,2.463,2.52423
-0.533504,-0.110125,2.463,2.52252
-0.525509,-0.110125,2.463,2.52084
-0.521297,-0.11093,2.481,2.5376
-0.513244,-0.11093,2.481,2.53596
-0.505192,-0.11093,2.481,2.53434
-0.497139,-0.11093,2.481,2.53275
-0.489086,-0.11093,2.481,2.53118
-0.481034,-0.11093,2.481,2.52964
-0.472981,-0.11093,2.481,2.52812
-0.464928,-0.11093,2.481,2.52662
-0.456875,-0.11093,2.481,2.52515
-0.448823,-0.11093,2.481,2.52371
-0.44077,-0.11093,2.481,2.52229
-0.432717,-0.11093,2.481,2.5209
-0.424665,-0.11093,2.481,2.51953
-0.419634,-0.111735,2.499,2.53645
-0.411523,-0.111735,2.499,2.53512
-0.403412,-0.111735,2.499,2.53382
-0.395301,-0.111735,2.499,2.53254
-0.38719,-0.111735,2.499,2.53128
-0.379079,-0.111735,2.499,2.53006
-0.370968,-0.111735,2.499,2.52885
-0.362857,-0.111735,2.499,2.52768
-0.35219,-0.11093,2.481,2.50833
-0.344137,-0.11093,2.481,2.50721
-0.336085,-0.11093,2.481,2.50612
-0.328032,-0.11093,2.481,2.50505
-0.319979,-0.11093,2.481,2.50401
-0.309664,-0.110125,2.463,2.48483
-0.301669,-0.110125,2.463,2.48385
-0.293675,-0.110125,2.463,2.48289
-0.285681,-0.110125,2.463,2.48196
-0.277686,-0.110125,2.463,2.48105
-0.269692,-0.110125,2.463,2.48017
-0.259785,-0.109321,2.445,2.46119
-0.251849,-0.109321,2.445,2.46037
-0.243914,-0.109321,2.445,2.45957
-0.235978,-0.109321,2.445,2.45879
-0.228042,-0.109321,2.445,2.45804
-0.220106,-0.109321,2.445,2.45732
-0.21217,-0.109321,2.445,2.45662
-0.204234,-0.109321,2.445,2.45595
-0.196298,-0.109321,2.445,2.4553
-0.188363,-0.109321,2.445,2.45468
-0.180427,-0.109321,2.445,2.45408
-0.173761,-0.110125,2.463,2.47158
-0.165766,-0.110125,2.463,2.47103
-0.157772,-0.110125,2.463,2.4705
-0.149778,-0.110125,2.463,2.47001
-0.141784,-0.110125,2.463,2.46953
-0.133789,-0.110125,2.463,2.46909
-0.125795,-0.110125,2.463,2.46867
-0.117801,-0.110125,2.463,2.46827
-0.109806,-0.110125,2.463,2.4679
-0.101812,-0.110125,2.463,2.46756
-0.0938178,-0.110125,2.463,2.46725
-0.0858236,-0.110125,2.463,2.46695
-0.0778293,-0.110125,2.463,2.46669
-0.069835,-0.110125,2.463,2.46645
-0.0618407,-0.110125,2.463,2.46624
-0.0534529,-0.109321,2.445,2.44803
-0.045517,-0.109321,2.445,2.44787
-0.0375812,-0.109321,2.445,2.44773
-0.0294392,-0.10856,2.428,2.4306
-0.0215585,-0.10856,2.428,2.43052
-0.0136778,-0.10856,2.428,2.43046
-0.00579712,-0.10856,2.428,2.43043
0.00208357,-0.10856,2.428,2.43043
0.00996425,-0.10856,2.428,2.43045
0.01772,-0.1078,2.411,2.41347
0.0255455,-0.1078,2.411,2.41354
0.033371,-0.1078,2.411,2.41364
0.0411965,-0.1078,2.411,2.41376
0.049022,-0.1078,2.411,2.41391
0.0568475,-0.1078,2.411,2.41408
0.064673,-0.1078,2.411,2.41428
0.0724985,-0.1078,2.411,2.4145
0.0803241,-0.1078,2.411,2.41475
0.0887711,-0.10856,2.428,2.43205
0.0966518,-0.10856,2.428,2.43235
0.104532,-0.10856,2.428,2.43267
0.112413,-0.10856,2.428,2.43302
0.120294,-0.10856,2.428,2.4334
0.128175,-0.10856,2.428,2.4338
0.137008,-0.109321,2.445,2.45127
0.144944,-0.109321,2.445,2.45173
0.15288,-0.109321,2.445,2.45221
0.160815,-0.109321,2.445,2.45272
0.168751,-0.109321,2.445,2.45325
0.176687,-0.109321,2.445,2.45381
0.185982,-0.110125,2.463,2.47247
0.193976,-0.110125,2.463,2.47308
0.201971,-0.110125,2.463,2.47372
0.209965,-0.110125,2.463,2.47439
0.219552,-0.11093,2.481,2.49316
0.227605,-0.11093,2.481,2.49389
0.235658,-0.11093,2.481,2.49463
0.24371,-0.11093,2.481,2.49541
0.25359,-0.111735,2.499,2.51432
0.261701,-0.111735,2.499,2.51515
0.269812,-0.111735,2.499,2.51601
0.277923,-0.111735,2.499,2.51689
0.286034,-0.111735,2.499,2.5178
0.294145,-0.111735,2.499,2.51873
0.302256,-0.111735,2.499,2.51969
0.310368,-0.111735,2.499,2.52068
0.318479,-0.111735,2.499,2.52169
0.32659,-0.111735,2.499,2.52273
0.334701,-0.111735,2.499,2.52379
0.342812,-0.111735,2.499,2.52488
0.350923,-0.111735,2.499,2.52599
0.359034,-0.111735,2.499,2.52713
0.367146,-0.111735,2.499,2.5283
0.375257,-0.111735,2.499,2.52949
0.383368,-0.111735,2.499,2.5307
0.388659,-0.11093,2.481,2.51371
0.396712,-0.11093,2.481,2.51496
0.404765,-0.11093,2.481,2.51625
0.412817,-0.11093,2.481,2.51756
0.417816,-0.110125,2.463,2.50061
0.425811,-0.110125,2.463,2.50196
0.433805,-0.110125,2.463,2.50333
0.441799,-0.110125,2.463,2.50473
0.449794,-0.110125,2.463,2.50615
0.457788,-0.110125,2.463,2.5076
0.465782,-0.110125,2.463,2.50907
0.473776,-0.110125,2.463,2.51057
0.481771,-0.110125,2.463,2.51209
0.489765,-0.110125,2.463,2.51364
0.497759,-0.110125,2.463,2.51521
0.505754,-0.110125,2.463,2.5168
0.513748,-0.110125,2.463,2.51842
0.521742,-0.110125,2.463,2.52006
0.529737,-0.110125,2.463,2.52173
0.541661,-0.11093,2.481,2.54186
0.549713,-0.11093,2.481,2.54359
0.557766,-0.11093,2.481,2.54534
0.565819,-0.11093,2.481,2.54712
0.573871,-0.11093,2.481,2.54892
0.581924,-0.11093,2.481,2.55075
0.589977,-0.11093,2.481,2.55259
0.59803,-0.11093,2.481,2.55447
0.606082,-0.11093,2.481,2.55637
0.614135,-0.11093,2.481,2.55829
0.622188,-0.11093,2.481,2.56023
0.625668,-0.110125,2.463,2.54361
0.633662,-0.110125,2.463,2.54559
0.641657,-0.110125,2.463,2.54759
0.649651,-0.110125,2.463,2.54962
0.657645,-0.110125,2.463,2.55166
0.665639,-0.110125,2.463,2.55374
0.673634,-0.110125,2.463,2.55583
0.681628,-0.110125,2.463,2.55795
0.689622,-0.110125,2.463,2.56009
0.697617,-0.110125,2.463,2.56226
0.705611,-0.110125,2.463,2.56445
0.713605,-0.110125,2.463,2.56666
0.721599,-0.110125,2.463,2.56889
0.729594,-0.110125,2.463,2.57115
0.737588,-0.110125,2.463,2.57343
0.745582,-0.110125,2.463,2.57573
0.753577,-0.110125,2.463,2.57806
0.761571,-0.110125,2.463,2.5804
0.775189,-0.11093,2.481,2.60165
0.783242,-0.11093,2.481,2.60406
0.791295,-0.11093,2.481,2.60649
0.799347,-0.11093,2.481,2.60895
0.8074,-0.11093,2.481,2.61143
0.815453,-0.11093,2.481,2.61393
0.823505,-0.11093,2.481,2.61645
0.831558,-0.11093,2.481,2.619
0.839611,-0.11093,2.481,2.62157
0.847664,-0.11093,2.481,2.62416
0.855716,-0.11093,2.481,2.62677
0.863769,-0.11093,2.481,2.6294
0.871822,-0.11093,2.481,2.63206
0.879874,-0.11093,2.481,2.63474
0.881485,-0.110125,2.463,2.6183
0.889479,-0.110125,2.463,2.62101
0.897474,-0.110125,2.463,2.62373
0.898851,-0.109321,2.445,2.60728
0.900482,-0.10856,2.428,2.59188
0.908362,-0.10856,2.428,2.59463
0.916243,-0.10856,2.428,2.5974
0.917653,-0.1078,2.411,2.58198
0.918953,-0.10704,2.394,2.56655
0.926724,-0.10704,2.394,2.56934
0.927858,-0.10628,2.377,2.55389
0.929276,-0.105565,2.361,2.53949
0.936939,-0.105565,2.361,2.54231
0.944602,-0.105565,2.361,2.54514
0.958719,-0.10628,2.377,2.56526
0.966434,-0.10628,2.377,2.56815
0.974149,-0.10628,2.377,2.57107
0.988886,-0.10704,2.394,2.59241
1.01081,-0.10856,2.428,2.63224
1.03338,-0.110125,2.463,2.67327
1.04137,-0.110125,2.463,2.67637
1.07237,-0.11254,2.517,2.73824
1.11317,-0.115938,2.593,2.82422
1.12158,-0.115938,2.593,2.82755
1.17489,-0.120543,2.696,2.94335
1.22183,-0.124433,2.783,3.04195
1.25121,-0.12649,2.829,3.09593
1.26039,-0.12649,2.829,3.09965
1.30189,-0.129709,2.901,3.18238
1.3226,-0.130827,2.926,3.2137
1.3321,-0.130827,2.926,3.21762
1.35306,-0.131945,2.951,3.24909
1.36264,-0.131945,2.951,3.25309
1.37222,-0.131945,2.951,3.25711
1.37009,-0.130827,2.926,3.23353
1.37959,-0.130827,2.926,3.23757
1.38908,-0.130827,2.926,3.24163
1.38663,-0.129709,2.901,3.21798
1.39605,-0.129709,2.901,3.22204
1.41757,-0.130827,2.926,3.25394
1.42707,-0.130827,2.926,3.25809
1.43657,-0.130827,2.926,3.26226
1.44607,-0.130827,2.926,3.26645
1.45556,-0.130827,2.926,3.27067
1.46506,-0.130827,2.926,3.2749
1.48716,-0.131945,2.951,3.30718
1.49673,-0.131945,2.951,3.3115
1.50631,-0.131945,2.951,3.31584
1.57034,-0.136684,3.057,3.43946
1.60869,-0.139143,3.112,3.50597
1.6188,-0.139143,3.112,3.51061
1.67443,-0.143033,3.199,3.61356
1.70114,-0.144419,3.23,3.65344
1.71163,-0.144419,3.23,3.65834
1.75517,-0.147191,3.292,3.73357
1.80018,-0.150053,3.356,3.81129
1.82888,-0.151529,3.389,3.85397
1.83988,-0.151529,3.389,3.8592
1.86945,-0.153049,3.423,3.90323
1.88056,-0.153049,3.423,3.90856
1.89167,-0.153049,3.423,3.91392
1.90278,-0.153049,3.423,3.9193
1.91389,-0.153049,3.423,3.92471
1.925,-0.153049,3.423,3.93014
1.91688,-0.151529,3.389,3.8965
1.92788,-0.151529,3.389,3.90192
1.93888,-0.151529,3.389,3.90737
1.9309,-0.150053,3.356,3.87474
1.92327,-0.148622,3.324,3.84318
1.93406,-0.148622,3.324,3.84859
1.92613,-0.147191,3.292,3.81692
1.91799,-0.145761,3.26,3.78517
1.92857,-0.145761,3.26,3.79054
1.9213,-0.144419,3.23,3.76101
1.8959,-0.141737,3.17,3.69641
1.90619,-0.141737,3.17,3.7017
1.88142,-0.139143,3.112,3.63918
1.8745,-0.137891,3.084,3.61162
1.88451,-0.137891,3.084,3.61683
1.87793,-0.136684,3.057,3.59034
1.85451,-0.13427,3.003,3.53203
1.86425,-0.13427,3.003,3.53716
1.82595,-0.130827,2.926,3.45147
1.81976,-0.129709,2.901,3.42698
1.82918,-0.129709,2.901,3.43199
1.82338,-0.128636,2.877,3.40858
1.80215,-0.12649,2.829,3.35663
1.81133,-0.12649,2.829,3.36157
1.79091,-0.124433,2.783,3.31179
1.77148,-0.122466,2.739,3.26424
1.76607,-0.121482,2.717,3.24282
1.77489,-0.121482,2.717,3.24763
1.76992,-0.120543,2.696,3.22732
1.76482,-0.119604,2.675,3.20695
1.7735,-0.119604,2.675,3.21173
1.76819,-0.118665,2.654,3.19129
1.74936,-0.116832,2.613,3.14669
1.75784,-0.116832,2.613,3.15142
1.7528,-0.115938,2.593,3.132
1.73541,-0.114239,2.555,3.09075
-1.94661,-0.116356,2.806,3.41709
-1.92163,-0.115403,2.783,3.38394
-1.91259,-0.115403,2.783,3.37882
-1.88851,-0.11449,2.761,3.34704
-1.8496,-0.112666,2.717,3.28874
-1.84078,-0.112666,2.717,3.28379
-1.8178,-0.111795,2.696,3.25351
-1.80905,-0.111795,2.696,3.24863
-1.8003,-0.111795,2.696,3.24376
-1.79155,-0.111795,2.696,3.23891
-1.7828,-0.111795,2.696,3.23408
-1.77405,-0.111795,2.696,3.22927
-1.7653,-0.111795,2.696,3.22447
-1.75655,-0.111795,2.696,3.21968
nan,nan,nan,NaN
nan,nan,nan,NaN
nan,nan,nan,NaN
nan,nan,nan,NaN
nan,nan,nan,NaN
nan,nan,nan,NaN
-1.79402,-0.118305,2.853,3.37225
-1.78476,-0.118305,2.853,3.36734
-1.7755,-0.118305,2.853,3.36244
-1.76624,-0.118305,2.853,3.35756
-1.77176,-0.119301,2.877,3.3809
-1.77712,-0.120296,2.901,3.40418
-1.7677,-0.120296,2.901,3.39927
-1.75829,-0.120296,2.901,3.39439
-1.76394,-0.121333,2.926,3.41873
-1.75445,-0.121333,2.926,3.41384
-1.75986,-0.122369,2.951,3.43809
-1.75028,-0.122369,2.951,3.4332
-1.7407,-0.122369,2.951,3.42833
-1.73112,-0.122369,2.951,3.42347
-1.72155,-0.122369,2.951,3.41864
-1.71197,-0.122369,2.951,3.41383
-1.70239,-0.122369,2.951,3.40903
-1.70773,-0.123447,2.977,3.43425
nan,nan,nan,NaN
nan,nan,nan,NaN
nan,nan,nan,NaN
nan,nan,nan,NaN
nan,nan,nan,NaN
nan,nan,nan,NaN
nan,nan,nan,NaN
nan,nan,nan,NaN
nan,nan,nan,NaN
nan,nan,nan,NaN
nan,nan,nan,NaN
nan,nan,nan,NaN
nan,nan,nan,NaN
nan,nan,nan,NaN
nan,nan,nan,NaN
nan,nan,nan,NaN
nan,nan,nan,NaN
nan,nan,nan,NaN
nan,nan,nan,NaN
nan,nan,nan,NaN
nan,nan,nan,NaN
-1.34347,-0.110924,2.675,2.99547
-1.30385,-0.108353,2.613,2.92225
-1.29537,-0.108353,2.613,2.91848
-1.26769,-0.106736,2.574,2.87122
-1.25003,-0.105948,2.555,2.84637
-1.24174,-0.105948,2.555,2.84274
-1.22428,-0.10516,2.536,2.81801
-1.20693,-0.104373,2.517,2.79336
-1.19876,-0.104373,2.517,2.78984
-1.18208,-0.103626,2.499,2.76642
-1.16551,-0.10288,2.481,2.74306
-1.14906,-0.102133,2.463,2.71977
-1.14107,-0.102133,2.463,2.7164
-1.12479,-0.101387,2.445,2.69323
-1.10909,-0.100682,2.428,2.67122
-1.10121,-0.100682,2.428,2.66796
-1.09333,-0.100682,2.428,2.66471
-1.07785,-0.099977,2.411,2.64285
-1.07003,-0.099977,2.411,2.63967
-1.05471,-0.0992721,2.394,2.61792
-1.03951,-0.0985671,2.377,2.59623
-1.03179,-0.0985671,2.377,2.59315
-1.02408,-0.0985671,2.377,2.59009
-1.01636,-0.0985671,2.377,2.58705
-1.00865,-0.0985671,2.377,2.58403
-1.00093,-0.0985671,2.377,2.58103
-0.986529,-0.0979037,2.361,2.56069
-0.978866,-0.0979037,2.361,2.55775
-0.971203,-0.0979037,2.361,2.55483
-0.96354,-0.0979037,2.361,2.55192
-0.949399,-0.0972402,2.345,2.53177
-0.941787,-0.0972402,2.345,2.52892
-0.934176,-0.0972402,2.345,2.5261
-0.926565,-0.0972402,2.345,2.52329
-0.918953,-0.0972402,2.345,2.52051
-0.911342,-0.0972402,2.345,2.51774
-0.897565,-0.0965767,2.329,2.49784
-0.890005,-0.0965767,2.329,2.49513
-0.882446,-0.0965767,2.329,2.49244
-0.874887,-0.0965767,2.329,2.48978
-0.867327,-0.0965767,2.329,2.48713
-0.865674,-0.0972402,2.345,2.50157
-0.858063,-0.0972402,2.345,2.49895
-0.850452,-0.0972402,2.345,2.49635
-0.842841,-0.0972402,2.345,2.49376
-0.835229,-0.0972402,2.345,2.4912
-0.833265,-0.0979037,2.361,2.50564
-0.825602,-0.0979037,2.361,2.5031
-0.817938,-0.0979037,2.361,2.50059
-0.810275,-0.0979037,2.361,2.49809
-0.802612,-0.0979037,2.361,2.49561
-0.800336,-0.0985671,2.377,2.51006
-0.792621,-0.0985671,2.377,2.50761
-0.784906,-0.0985671,2.377,2.50518
-0.777191,-0.0985671,2.377,2.50277
-0.769475,-0.0985671,2.377,2.50039
-0.767208,-0.0992721,2.394,2.51589
-0.759438,-0.0992721,2.394,2.51353
-0.751668,-0.0992721,2.394,2.51119
-0.743897,-0.0992721,2.394,2.50888
-0.736127,-0.0992721,2.394,2.50659
-0.728357,-0.0992721,2.394,2.50432
-0.720586,-0.0992721,2.394,2.50207
-0.712816,-0.0992721,2.394,2.49984
-0.705046,-0.0992721,2.394,2.49764
-0.697275,-0.0992721,2.394,2.49545
-0.694401,-0.099977,2.411,2.511
-0.686576,-0.099977,2.411,2.50884
-0.67875,-0.099977,2.411,2.50671
-0.670925,-0.099977,2.411,2.50461
-0.663099,-0.099977,2.411,2.50252
-0.655274,-0.099977,2.411,2.50046
-0.647448,-0.099977,2.411,2.49842
-0.639623,-0.099977,2.411,2.4964
-0.631797,-0.099977,2.411,2.49441
-0.623972,-0.099977,2.411,2.49244
-0.620491,-0.100682,2.428,2.50805
-0.61261,-0.100682,2.428,2.50611
-0.604729,-0.100682,2.428,2.5042
-0.596848,-0.100682,2.428,2.50231
-0.593092,-0.101387,2.445,2.51795
-0.585156,-0.101387,2.445,2.51609
-0.57722,-0.101387,2.445,2.51426
-0.569284,-0.101387,2.445,2.51245
-0.565481,-0.102133,2.463,2.52914
-0.557486,-0.102133,2.463,2.52737
-0.549492,-0.102133,2.463,2.52562
-0.541498,-0.102133,2.463,2.52389
-0.533504,-0.102133,2.463,2.52219
-0.525509,-0.102133,2.463,2.52051
-0.521297,-0.10288,2.481,2.53726
-0.513244,-0.10288,2.481,2.53562
-0.505192,-0.10288,2.481,2.534
-0.497139,-0.10288,2.481,2.53241
-0.492635,-0.103626,2.499,2.5492
-0.481034,-0.10288,2.481,2.5293
-0.472981,-0.10288,2.481,2.52778
-0.468301,-0.103626,2.499,2.54461
-0.46019,-0.103626,2.499,2.54313
-0.452079,-0.103626,2.499,2.54168
-0.443968,-0.103626,2.499,2.54025
-0.435857,-0.103626,2.499,2.53884
-0.427746,-0.103626,2.499,2.53746
-0.419634,-0.103626,2.499,2.53611
-0.411523,-0.103626,2.499,2.53478
-0.403412,-0.103626,2.499,2.53347
-0.395301,-0.103626,2.499,2.53219
-0.38719,-0.103626,2.499,2.53094
-0.379079,-0.103626,2.499,2.52971
-0.370968,-0.103626,2.499,2.52851
-0.362857,-0.103626,2.499,2.52733
-0.354745,-0.103626,2.499,2.52618
-0.346634,-0.103626,2.499,2.52505
-0.336085,-0.10288,2.481,2.50577
-0.328032,-0.10288,2.481,2.50471
-0.319979,-0.10288,2.481,2.50366
-0.311927,-0.10288,2.481,2.50265
-0.303874,-0.10288,2.481,2.50166
-0.293675,-0.102133,2.463,2.48255
-0.285681,-0.102133,2.463,2.48162
-0.277686,-0.102133,2.463,2.48071
-0.269692,-0.102133,2.463,2.47983
-0.261698,-0.102133,2.463,2.47897
-0.253704,-0.102133,2.463,2.47814
-0.243914,-0.101387,2.445,2.45923
-0.235978,-0.101387,2.445,2.45845
-0.228042,-0.101387,2.445,2.4577
-0.220106,-0.101387,2.445,2.45698
-0.21217,-0.101387,2.445,2.45628
-0.204234,-0.101387,2.445,2.45561
-0.196298,-0.101387,2.445,2.45496
-0.188363,-0.101387,2.445,2.45434
-0.181755,-0.102133,2.463,2.47181
-0.173761,-0.102133,2.463,2.47123
-0.165766,-0.102133,2.463,2.47068
-0.157772,-0.102133,2.463,2.47016
-0.149778,-0.102133,2.463,2.46966
-0.141784,-0.102133,2.463,2.46919
-0.133789,-0.102133,2.463,2.46874
-0.125795,-0.102133,2.463,2.46832
-0.117801,-0.102133,2.463,2.46793
-0.109806,-0.102133,2.463,2.46756
-0.102556,-0.10288,2.481,2.48525
-0.0945035,-0.10288,2.481,2.48493
-0.0864508,-0.10288,2.481,2.48464
-0.0778293,-0.102133,2.463,2.46635
-0.069835,-0.102133,2.463,2.46611
-0.0618407,-0.102133,2.463,2.46589
-0.0538464,-0.102133,2.463,2.4657
-0.045517,-0.101387,2.445,2.44752
-0.0375812,-0.101387,2.445,2.44739
-0.0296453,-0.101387,2.445,2.44728
-0.0215585,-0.100682,2.428,2.43018
-0.0136778,-0.100682,2.428,2.43013
-0.00579712,-0.100682,2.428,2.43009
0.00208357,-0.100682,2.428,2.43009
0.00996425,-0.100682,2.428,2.43011
0.01772,-0.099977,2.411,2.41314
0.0255455,-0.099977,2.411,2.41321
0.033371,-0.099977,2.411,2.4133
0.0411965,-0.099977,2.411,2.41342
0.049022,-0.099977,2.411,2.41357
0.0568475,-0.099977,2.411,2.41374
0.064673,-0.099977,2.411,2.41394
0.0724985,-0.099977,2.411,2.41416
0.0803241,-0.099977,2.411,2.41441
0.0887711,-0.100682,2.428,2.43171
0.0966518,-0.100682,2.428,2.43201
0.104532,-0.100682,2.428,2.43233
0.112413,-0.100682,2.428,2.43269
0.120294,-0.100682,2.428,2.43306
0.128175,-0.100682,2.428,2.43346
0.137008,-0.101387,2.445,2.45093
0.144944,-0.101387,2.445,2.45139
0.15288,-0.101387,2.445,2.45187
0.160815,-0.101387,2.445,2.45238
0.168751,-0.101387,2.445,2.45291
0.176687,-0.101387,2.445,2.45347
0.185982,-0.102133,2.463,2.47212
0.193976,-0.102133,2.463,2.47274
0.201971,-0.102133,2.463,2.47338
0.209965,-0.102133,2.463,2.47404
0.219552,-0.10288,2.481,2.49282
0.227605,-0.10288,2.481,2.49354
0.235658,-0.10288,2.481,2.49429
0.24371,-0.10288,2.481,2.49506
0.25359,-0.103626,2.499,2.51397
0.261701,-0.103626,2.499,2.5148
0.269812,-0.103626,2.499,2.51566
0.277923,-0.103626,2.499,2.51654
0.286034,-0.103626,2.499,2.51745
0.294145,-0.103626,2.499,2.51838
0.302256,-0.103626,2.499,2.51934
0.310368,-0.103626,2.499,2.52033
0.318479,-0.103626,2.499,2.52134
0.32659,-0.103626,2.499,2.52238
0.334701,-0.103626,2.499,2.52344
0.342812,-0.103626,2.499,2.52453
0.350923,-0.103626,2.499,2.52565
0.359034,-0.103626,2.499,2.52679
0.367146,-0.103626,2.499,2.52795
0.375257,-0.103626,2.499,2.52914
0.383368,-0.103626,2.499,2.53036
0.388659,-0.10288,2.481,2.51336
0.396712,-0.10288,2.481,2.51462
0.404765,-0.10288,2.481,2.51591
0.412817,-0.10288,2.481,2.51721
0.417816,-0.102133,2.463,2.50027
0.425811,-0.102133,2.463,2.50162
0.433805,-0.102133,2.463,2.503
0.441799,-0.102133,2.463,2.50439
0.449794,-0.102133,2.463,2.50582
0.457788,-0.102133,2.463,2.50726
0.465782,-0.102133,2.463,2.50874
0.473776,-0.102133,2.463,2.51023
0.481771,-0.102133,2.463,2.51175
0.489765,-0.102133,2.463,2.5133
0.497759,-0.102133,2.463,2.51487
0.505754,-0.102133,2.463,2.51646
0.513748,-0.102133,2.463,2.51808
0.521742,-0.102133,2.463,2.51973
0.529737,-0.102133,2.463,2.52139
0.541661,-0.10288,2.481,2.54152
0.549713,-0.10288,2.481,2.54325
0.557766,-0.10288,2.481,2.545
0.565819,-0.10288,2.481,2.54678
0.573871,-0.10288,2.481,2.54858
0.581924,-0.10288,2.481,2.55041
0.589977,-0.10288,2.481,2.55226
0.59803,-0.10288,2.481,2.55413
0.606082,-0.10288,2.481,2.55603
0.614135,-0.10288,2.481,2.55795
0.622188,-0.10288,2.481,2.5599
0.625668,-0.102133,2.463,2.54328
0.633662,-0.102133,2.463,2.54526
0.641657,-0.102133,2.463,2.54726
0.649651,-0.102133,2.463,2.54928
0.657645,-0.102133,2.463,2.55133
0.665639,-0.102133,2.463,2.5534
0.673634,-0.102133,2.463,2.5555
0.681628,-0.102133,2.463,2.55762
0.689622,-0.102133,2.463,2.55976
0.697617,-0.102133,2.463,2.56193
0.705611,-0.102133,2.463,2.56412
0.713605,-0.102133,2.463,2.56633
0.721599,-0.102133,2.463,2.56856
0.729594,-0.102133,2.463,2.57082
0.737588,-0.102133,2.463,2.5731
0.745582,-0.102133,2.463,2.5754
0.753577,-0.102133,2.463,2.57773
0.761571,-0.102133,2.463,2.58008
0.775189,-0.10288,2.481,2.60132
0.777559,-0.102133,2.463,2.58484
0.785554,-0.102133,2.463,2.58726
0.799347,-0.10288,2.481,2.60862
0.8074,-0.10288,2.481,2.6111
0.815453,-0.10288,2.481,2.6136
0.823505,-0.10288,2.481,2.61612
0.831558,-0.10288,2.481,2.61867
0.839611,-0.10288,2.481,2.62124
0.847664,-0.10288,2.481,2.62383
0.855716,-0.10288,2.481,2.62644
0.863769,-0.10288,2.481,2.62908
0.871822,-0.10288,2.481,2.63173
0.879874,-0.10288,2.481,2.63441
0.881485,-0.102133,2.463,2.61798
0.889479,-0.102133,2.463,2.62068
0.897474,-0.102133,2.463,2.62341
0.898851,-0.101387,2.445,2.60696
0.906787,-0.101387,2.445,2.60971
0.908362,-0.100682,2.428,2.59431
0.916243,-0.100682,2.428,2.59708
0.917653,-0.099977,2.411,2.58167
0.925479,-0.099977,2.411,2.58446
0.933304,-0.099977,2.411,2.58727
0.934494,-0.0992721,2.394,2.57184
0.935573,-0.0985671,2.377,2.55639
0.943288,-0.0985671,2.377,2.55923
0.951003,-0.0985671,2.377,2.56208
0.965575,-0.0992721,2.394,2.5833
0.973346,-0.0992721,2.394,2.58621
0.981116,-0.0992721,2.394,2.58915
0.995908,-0.099977,2.411,2.61051
1.01789,-0.101387,2.445,2.65036
1.04093,-0.10288,2.481,2.69249
1.04898,-0.10288,2.481,2.69561
1.08047,-0.10516,2.536,2.75858
1.12175,-0.108353,2.613,2.84567
1.13024,-0.108353,2.613,2.84902
1.17489,-0.111795,2.696,2.943
1.22183,-0.115403,2.783,3.04159
1.25121,-0.11731,2.829,3.09557
1.26039,-0.11731,2.829,3.09929
1.29112,-0.119301,2.877,3.15568
1.3113,-0.120296,2.901,3.18587
1.32072,-0.120296,2.901,3.18976
1.3416,-0.121333,2.926,3.22119
1.36264,-0.122369,2.951,3.25272
1.37222,-0.122369,2.951,3.25674
1.37009,-0.121333,2.926,3.23316
1.37959,-0.121333,2.926,3.2372
1.38908,-0.121333,2.926,3.24126
1.38663,-0.120296,2.901,3.21761
1.39605,-0.120296,2.901,3.22168
1.40546,-0.120296,2.901,3.22577
1.41488,-0.120296,2.901,3.22988
1.43657,-0.121333,2.926,3.26189
1.44607,-0.121333,2.926,3.26608
1.45556,-0.121333,2.926,3.2703
1.46506,-0.121333,2.926,3.27454
1.48716,-0.122369,2.951,3.30681
1.49673,-0.122369,2.951,3.31113
1.50631,-0.122369,2.951,3.31547
1.55647,-0.125645,3.03,3.40871
1.59422,-0.127884,3.084,3.47404
1.60423,-0.127884,3.084,3.47864
1.64408,-0.130248,3.141,3.54765
1.68482,-0.132653,3.199,3.61798
1.6952,-0.132653,3.199,3.62283
1.72211,-0.133939,3.23,3.66286
1.76585,-0.136509,3.292,3.7382
1.79381,-0.137836,3.324,3.77965
1.8046,-0.137836,3.324,3.78478
1.83286,-0.139163,3.356,3.82642
1.86188,-0.140532,3.389,3.86933
1.87288,-0.140532,3.389,3.87463
1.86554,-0.139163,3.356,3.84218
1.87643,-0.139163,3.356,3.84748
1.88732,-0.139163,3.356,3.8528
1.89822,-0.139163,3.356,3.85815
1.90911,-0.139163,3.356,3.86352
1.92,-0.139163,3.356,3.86892
1.91248,-0.137836,3.324,3.83739
1.90476,-0.136509,3.292,3.80579
1.91544,-0.136509,3.292,3.81114
1.9074,-0.135182,3.26,3.77943
1.91799,-0.135182,3.26,3.78478
1.92857,-0.135182,3.26,3.79015
1.9213,-0.133939,3.23,3.76062
1.8959,-0.13145,3.17,3.69603
1.90619,-0.13145,3.17,3.70132
1.88142,-0.129045,3.112,3.63881
1.8745,-0.127884,3.084,3.61125
1.88451,-0.127884,3.084,3.61646
1.87793,-0.126765,3.057,3.58998
1.85451,-0.124525,3.003,3.53167
1.86425,-0.124525,3.003,3.5368
1.82595,-0.121333,2.926,3.45113
1.81976,-0.120296,2.901,3.42663
1.82918,-0.120296,2.901,3.43164
1.82338,-0.119301,2.877,3.40824
1.80215,-0.11731,2.829,3.3563
1.81133,-0.11731,2.829,3.36124
1.79091,-0.115403,2.783,3.31146
1.77148,-0.113578,2.739,3.26392
1.76607,-0.112666,2.717,3.2425
1.77489,-0.112666,2.717,3.24731
1.76992,-0.111795,2.696,3.227
1.76482,-0.110924,2.675,3.20664
1.7735,-0.110924,2.675,3.21142
1.76819,-0.110053,2.654,3.19098
1.74936,-0.108353,2.613,3.14639
1.75784,-0.108353,2.613,3.15111
1.7528,-0.107524,2.593,3.1317
1.73541,-0.105948,2.555,3.09045
-1.94661,-0.107251,2.806,3.41679
-1.92163,-0.106372,2.783,3.38364
-1.91259,-0.106372,2.783,3.37852
-1.88851,-0.105531,2.761,3.34675
-1.8496,-0.10385,2.717,3.28845
-1.84078,-0.10385,2.717,3.28349
-1.8178,-0.103047,2.696,3.25322
-1.80905,-0.103047,2.696,3.24834
-1.8003,-0.103047,2.696,3.24347
-1.79155,-0.103047,2.696,3.23862
-1.7828,-0.103047,2.696,3.23379
-1.77405,-0.103047,2.696,3.22897
-1.7653,-0.103047,2.696,3.22418
-1.75655,-0.103047,2.696,3.21939
-1.76141,-0.10385,2.717,3.23967
nan,nan,nan,NaN
nan,nan,nan,NaN
nan,nan,nan,NaN
nan,nan,nan,NaN
nan,nan,nan,NaN
-1.79402,-0.109048,2.853,3.37194
-1.78476,-0.109048,2.853,3.36703
-1.7755,-0.109048,2.853,3.36213
-1.76624,-0.109048,2.853,3.35724
-1.77176,-0.109965,2.877,3.38058
-1.77712,-0.110883,2.901,3.40386
-1.7677,-0.110883,2.901,3.39895
-1.75829,-0.110883,2.901,3.39406
-1.76394,-0.111838,2.926,3.4184
-1.75445,-0.111838,2.926,3.41351
-1.75986,-0.112794,2.951,3.43777
-1.75028,-0.112794,2.951,3.43287
-1.7407,-0.112794,2.951,3.428
-1.73112,-0.112794,2.951,3.42314
-1.72155,-0.112794,2.951,3.41831
-1.71197,-0.112794,2.951,3.4135
-1.70239,-0.112794,2.951,3.4087
-1.70773,-0.113787,2.977,3.43392
-1.69806,-0.113787,2.977,3.42912
-1.6884,-0.113787,2.977,3.42435
nan,nan,nan,NaN
nan,nan,nan,NaN
nan,nan,nan,NaN
nan,nan,nan,NaN
nan,nan,nan,NaN
nan,nan,nan,NaN
nan,nan,nan,NaN
nan,nan,nan,NaN
nan,nan,nan,NaN
nan,nan,nan,NaN
nan,nan,nan,NaN
nan,nan,nan,NaN
nan,nan,nan,NaN
nan,nan,nan,NaN
nan,nan,nan,NaN
nan,nan,nan,NaN
nan,nan,nan,NaN
nan,nan,nan,NaN
nan,nan,nan,NaN
-1.34347,-0.102244,2.675,2.99516
-1.30385,-0.0998746,2.613,2.92195
-1.29537,-0.0998746,2.613,2.91817
-1.26769,-0.0983839,2.574,2.87092
-1.25003,-0.0976577,2.555,2.84608
-1.24174,-0.0976577,2.555,2.84244
-1.22428,-0.0969315,2.536,2.81772
-1.21605,-0.0969315,2.536,2.81415
-1.20781,-0.0969315,2.536,2.81061
-1.1906,-0.0962052,2.517,2.78605
-1.17397,-0.0955173,2.499,2.76267
-1.15746,-0.0948293,2.481,2.73936
-1.14941,-0.0948293,2.481,2.73596
-1.13308,-0.0941413,2.463,2.71276
-1.11686,-0.0934533,2.445,2.68963
-1.10892,-0.0934533,2.445,2.68635
-1.09333,-0.0928035,2.428,2.66443
-1.07785,-0.0921537,2.411,2.64257
-1.07003,-0.0921537,2.411,2.63939
-1.0622,-0.0921537,2.411,2.63622
-1.04694,-0.0915039,2.394,2.61452
-1.03917,-0.0915039,2.394,2.61141
-1.0314,-0.0915039,2.394,2.60833
-1.01636,-0.0908541,2.377,2.58677
-1.00865,-0.0908541,2.377,2.58375
-1.00093,-0.0908541,2.377,2.58074
-0.993215,-0.0908541,2.377,2.57776
-0.978866,-0.0902426,2.361,2.55747
-0.971203,-0.0902426,2.361,2.55454
-0.96354,-0.0902426,2.361,2.55164
-0.955876,-0.0902426,2.361,2.54876
-0.948213,-0.0902426,2.361,2.54589
-0.934176,-0.089631,2.345,2.52582
-0.926565,-0.089631,2.345,2.52301
-0.918953,-0.089631,2.345,2.52023
-0.911342,-0.089631,2.345,2.51746
-0.903731,-0.089631,2.345,2.51471
-0.89612,-0.089631,2.345,2.51199
-0.888508,-0.089631,2.345,2.50928
-0.880897,-0.089631,2.345,2.5066
-0.873286,-0.089631,2.345,2.50393
-0.865674,-0.089631,2.345,2.50129
-0.858063,-0.089631,2.345,2.49867
-0.850452,-0.089631,2.345,2.49606
-0.848591,-0.0902426,2.361,2.51049
-0.840928,-0.0902426,2.361,2.50791
-0.833265,-0.0902426,2.361,2.50535
-0.825602,-0.0902426,2.361,2.50282
-0.817938,-0.0902426,2.361,2.5003
-0.810275,-0.0902426,2.361,2.4978
-0.802612,-0.0902426,2.361,2.49533
-0.800336,-0.0908541,2.377,2.50977
-0.792621,-0.0908541,2.377,2.50732
-0.784906,-0.0908541,2.377,2.50489
-0.782749,-0.0915039,2.394,2.52038
-0.774979,-0.0915039,2.394,2.51798
-0.767208,-0.0915039,2.394,2.51559
-0.759438,-0.0915039,2.394,2.51324
-0.751668,-0.0915039,2.394,2.5109
-0.743897,-0.0915039,2.394,2.50858
-0.736127,-0.0915039,2.394,2.50629
-0.728357,-0.0915039,2.394,2.50402
-0.720586,-0.0915039,2.394,2.50177
-0.717878,-0.0921537,2.411,2.51729
-0.710052,-0.0921537,2.411,2.51507
-0.702227,-0.0921537,2.411,2.51287
-0.694401,-0.0921537,2.411,2.5107
-0.686576,-0.0921537,2.411,2.50855
-0.67875,-0.0921537,2.411,2.50641
-0.670925,-0.0921537,2.411,2.50431
-0.663099,-0.0921537,2.411,2.50222
-0.655274,-0.0921537,2.411,2.50016
-0.647448,-0.0921537,2.411,2.49812
-0.644133,-0.0928035,2.428,2.5137
-0.636252,-0.0928035,2.428,2.5117
-0.628371,-0.0928035,2.428,2.50971
-0.620491,-0.0928035,2.428,2.50775
-0.61261,-0.0928035,2.428,2.50581
-0.604729,-0.0928035,2.428,2.5039
-0.596848,-0.0928035,2.428,2.502
-0.593092,-0.0934533,2.445,2.51764
-0.585156,-0.0934533,2.445,2.51578
-0.57722,-0.0934533,2.445,2.51395
-0.573475,-0.0941413,2.463,2.53063
-0.565481,-0.0941413,2.463,2.52883
-0.557486,-0.0941413,2.463,2.52706
-0.549492,-0.0941413,2.463,2.52531
-0.545455,-0.0948293,2.481,2.54202
-0.537403,-0.0948293,2.481,2.54031
-0.52935,-0.0948293,2.481,2.53861
-0.521297,-0.0948293,2.481,2.53695
-0.516968,-0.0955173,2.499,2.5537
-0.508857,-0.0955173,2.499,2.55207
-0.500746,-0.0955173,2.499,2.55046
-0.492635,-0.0955173,2.499,2.54888
-0.484524,-0.0955173,2.499,2.54733
-0.476412,-0.0955173,2.499,2.5458
-0.468301,-0.0955173,2.499,2.54429
-0.46019,-0.0955173,2.499,2.54281
-0.452079,-0.0955173,2.499,2.54136
-0.443968,-0.0955173,2.499,2.53993
-0.435857,-0.0955173,2.499,2.53852
-0.427746,-0.0955173,2.499,2.53714
-0.419634,-0.0955173,2.499,2.53579
-0.411523,-0.0955173,2.499,2.53446
-0.403412,-0.0955173,2.499,2.53315
-0.395301,-0.0955173,2.499,2.53187
-0.389979,-0.0962052,2.517,2.54885
-0.381809,-0.0962052,2.517,2.54761
-0.37364,-0.0962052,2.517,2.5464
-0.36547,-0.0962052,2.517,2.54521
-0.354745,-0.0955173,2.499,2.52586
-0.346634,-0.0955173,2.499,2.52473
-0.338523,-0.0955173,2.499,2.52363
-0.330412,-0.0955173,2.499,2.52256
-0.319979,-0.0948293,2.481,2.50335
-0.311927,-0.0948293,2.481,2.50233
-0.303874,-0.0948293,2.481,2.50134
-0.295821,-0.0948293,2.481,2.50037
-0.285681,-0.0941413,2.463,2.4813
-0.277686,-0.0941413,2.463,2.48039
-0.269692,-0.0941413,2.463,2.47951
-0.261698,-0.0941413,2.463,2.47865
-0.253704,-0.0941413,2.463,2.47782
-0.245709,-0.0941413,2.463,2.47702
-0.235978,-0.0934533,2.445,2.45814
-0.228042,-0.0934533,2.445,2.45739
-0.221726,-0.0941413,2.463,2.47475
-0.213732,-0.0941413,2.463,2.47405
-0.205738,-0.0941413,2.463,2.47337
-0.197744,-0.0941413,2.463,2.47272
-0.189749,-0.0941413,2.463,2.47209
-0.183083,-0.0948293,2.481,2.48955
-0.175031,-0.0948293,2.481,2.48897
-0.166978,-0.0948293,2.481,2.48842
