-0.640707,-0.164856,2.445,2.53292
-0.632771,-0.164856,2.445,2.53093
-0.624835,-0.164856,2.445,2.52896
-0.616899,-0.164856,2.445,2.52701
-0.608963,-0.164856,2.445,2.52508
-0.601027,-0.164856,2.445,2.52318
-0.597458,-0.16607,2.463,2.53986
-0.589464,-0.16607,2.463,2.53799
-0.581469,-0.16607,2.463,2.53615
-0.573475,-0.16607,2.463,2.53433
-0.565481,-0.16607,2.463,2.53253
-0.557486,-0.16607,2.463,2.53076
-0.553508,-0.167283,2.481,2.54749
-0.545455,-0.167283,2.481,2.54575
-0.537403,-0.167283,2.481,2.54404
-0.52935,-0.167283,2.481,2.54235
-0.521297,-0.167283,2.481,2.54069
-0.513244,-0.167283,2.481,2.53905
-0.505192,-0.167283,2.481,2.53743
-0.500746,-0.168497,2.499,2.55424
-0.492635,-0.168497,2.499,2.55266
-0.484524,-0.168497,2.499,2.55111
-0.476412,-0.168497,2.499,2.54958
-0.468301,-0.168497,2.499,2.54808
-0.46019,-0.168497,2.499,2.5466
-0.452079,-0.168497,2.499,2.54515
-0.443968,-0.168497,2.499,2.54372
-0.435857,-0.168497,2.499,2.54231
-0.427746,-0.168497,2.499,2.54094
-0.419634,-0.168497,2.499,2.53958
-0.411523,-0.168497,2.499,2.53826
-0.403412,-0.168497,2.499,2.53695
-0.395301,-0.168497,2.499,2.53568
-0.389979,-0.169711,2.517,2.55268
-0.379079,-0.168497,2.499,2.5332
-0.370968,-0.168497,2.499,2.532
-0.362857,-0.168497,2.499,2.53082
-0.354745,-0.168497,2.499,2.52967
-0.346634,-0.168497,2.499,2.52855
-0.336085,-0.167283,2.481,2.50924
-0.328032,-0.167283,2.481,2.50818
-0.319979,-0.167283,2.481,2.50714
-0.311927,-0.167283,2.481,2.50612
-0.303874,-0.167283,2.481,2.50513
-0.293675,-0.16607,2.463,2.486
-0.285681,-0.16607,2.463,2.48507
-0.277686,-0.16607,2.463,2.48416
-0.269692,-0.16607,2.463,2.48328
-0.261698,-0.16607,2.463,2.48242
-0.253704,-0.16607,2.463,2.4816
-0.243914,-0.164856,2.445,2.46266
-0.235978,-0.164856,2.445,2.46189
-0.228042,-0.164856,2.445,2.46114
-0.220106,-0.164856,2.445,2.46042
-0.210695,-0.16371,2.428,2.44262
-0.202814,-0.16371,2.428,2.44195
-0.194934,-0.16371,2.428,2.44131
-0.187053,-0.16371,2.428,2.44069
-0.180427,-0.164856,2.445,2.45718
-0.172491,-0.164856,2.445,2.45661
-0.164555,-0.164856,2.445,2.45607
-0.156619,-0.164856,2.445,2.45555
-0.148683,-0.164856,2.445,2.45506
-0.140747,-0.164856,2.445,2.45459
-0.132812,-0.164856,2.445,2.45415
-0.124876,-0.164856,2.445,2.45373
-0.11694,-0.164856,2.445,2.45334
-0.109004,-0.164856,2.445,2.45297
-0.101068,-0.164856,2.445,2.45263
-0.0938178,-0.16607,2.463,2.47037
-0.0858236,-0.16607,2.463,2.47008
-0.0778293,-0.16607,2.463,2.46982
-0.0703453,-0.167283,2.481,2.48763
-0.0622926,-0.167283,2.481,2.48741
-0.0538464,-0.16607,2.463,2.46918
-0.0458521,-0.16607,2.463,2.46902
-0.0378578,-0.16607,2.463,2.46888
-0.0298635,-0.16607,2.463,2.46877
-0.0220291,-0.167283,2.481,2.48673
-0.0139764,-0.167283,2.481,2.48667
-0.00588068,-0.16607,2.463,2.4686
0.0021136,-0.16607,2.463,2.46859
0.0101818,-0.167283,2.481,2.48665
0.0181022,-0.16607,2.463,2.46866
0.0260965,-0.16607,2.463,2.46873
0.0340907,-0.16607,2.463,2.46883
0.042085,-0.16607,2.463,2.46895
0.0500793,-0.16607,2.463,2.4691
0.0580736,-0.16607,2.463,2.46928
0.0660679,-0.16607,2.463,2.46948
0.0740622,-0.16607,2.463,2.4697
0.0820565,-0.16607,2.463,2.46996
0.0900507,-0.16607,2.463,2.47023
0.0973285,-0.164856,2.445,2.45248
0.105264,-0.164856,2.445,2.45281
0.1132,-0.164856,2.445,2.45316
0.121136,-0.164856,2.445,2.45354
0.130022,-0.16607,2.463,2.47201
0.137008,-0.164856,2.445,2.45438
0.144944,-0.164856,2.445,2.45483
0.15288,-0.164856,2.445,2.45532
0.161999,-0.16607,2.463,2.4739
0.169994,-0.16607,2.463,2.47444
0.177988,-0.16607,2.463,2.475
0.185982,-0.16607,2.463,2.47559
0.193976,-0.16607,2.463,2.4762
0.201971,-0.16607,2.463,2.47684
0.209965,-0.16607,2.463,2.47751
0.217959,-0.16607,2.463,2.4782
0.225954,-0.16607,2.463,2.47891
0.233948,-0.16607,2.463,2.47965
0.241942,-0.16607,2.463,2.48042
0.249936,-0.16607,2.463,2.48121
0.257931,-0.16607,2.463,2.48203
0.267868,-0.167283,2.481,2.50102
0.275921,-0.167283,2.481,2.50189
0.283974,-0.167283,2.481,2.5028
0.292027,-0.167283,2.481,2.50372
0.300079,-0.167283,2.481,2.50467
0.308132,-0.167283,2.481,2.50565
0.316185,-0.167283,2.481,2.50665
0.32659,-0.168497,2.499,2.52588
0.334701,-0.168497,2.499,2.52694
0.342812,-0.168497,2.499,2.52803
0.350923,-0.168497,2.499,2.52914
0.359034,-0.168497,2.499,2.53028
0.367146,-0.168497,2.499,2.53144
0.375257,-0.168497,2.499,2.53263
0.383368,-0.168497,2.499,2.53384
0.391479,-0.168497,2.499,2.53508
0.396712,-0.167283,2.481,2.51808
0.404765,-0.167283,2.481,2.51936
0.412817,-0.167283,2.481,2.52067
0.42087,-0.167283,2.481,2.522
0.428923,-0.167283,2.481,2.52336
0.436975,-0.167283,2.481,2.52474
0.441799,-0.16607,2.463,2.50781
0.449794,-0.16607,2.463,2.50924
0.457788,-0.16607,2.463,2.51068
0.465782,-0.16607,2.463,2.51215
0.473776,-0.16607,2.463,2.51365
0.481771,-0.16607,2.463,2.51516
0.486186,-0.164856,2.445,2.49832
0.494122,-0.164856,2.445,2.49987
0.502058,-0.164856,2.445,2.50145
0.509993,-0.164856,2.445,2.50306
0.517929,-0.164856,2.445,2.50469
0.525865,-0.164856,2.445,2.50634
0.533801,-0.164856,2.445,2.50802
0.541737,-0.164856,2.445,2.50972
0.549673,-0.164856,2.445,2.51144
0.557609,-0.164856,2.445,2.51319
0.565544,-0.164856,2.445,2.51496
0.577702,-0.16607,2.463,2.53529
0.585697,-0.16607,2.463,2.53712
0.593691,-0.16607,2.463,2.53898
0.601685,-0.16607,2.463,2.54086
0.609679,-0.16607,2.463,2.54277
0.617674,-0.16607,2.463,2.54469
0.625668,-0.16607,2.463,2.54665
0.633662,-0.16607,2.463,2.54862
0.641657,-0.16607,2.463,2.55062
0.649651,-0.16607,2.463,2.55264
0.657645,-0.16607,2.463,2.55469
0.665639,-0.16607,2.463,2.55676
0.673634,-0.16607,2.463,2.55885
0.681628,-0.16607,2.463,2.56097
0.689622,-0.16607,2.463,2.56311
0.697617,-0.16607,2.463,2.56527
0.710768,-0.167283,2.481,2.58622
0.71882,-0.167283,2.481,2.58845
0.726873,-0.167283,2.481,2.59069
0.734926,-0.167283,2.481,2.59296
0.742978,-0.167283,2.481,2.59526
0.751031,-0.167283,2.481,2.59757
0.759084,-0.167283,2.481,2.59991
0.767137,-0.167283,2.481,2.60228
0.775189,-0.167283,2.481,2.60466
0.783242,-0.167283,2.481,2.60707
0.791295,-0.167283,2.481,2.6095
0.799347,-0.167283,2.481,2.61195
0.8074,-0.167283,2.481,2.61443
0.815453,-0.167283,2.481,2.61693
0.82948,-0.168497,2.499,2.63845
0.837591,-0.168497,2.499,2.64101
0.845702,-0.168497,2.499,2.6436
0.853814,-0.168497,2.499,2.6462
0.861925,-0.168497,2.499,2.64883
0.870036,-0.168497,2.499,2.65148
0.884472,-0.169711,2.517,2.67327
0.892642,-0.169711,2.517,2.67599
0.900811,-0.169711,2.517,2.67872
0.908981,-0.169711,2.517,2.68148
0.91715,-0.169711,2.517,2.68426
0.92532,-0.169711,2.517,2.68706
0.926814,-0.168497,2.499,2.67065
0.934925,-0.168497,2.499,2.67348
0.943036,-0.168497,2.499,2.67632
0.951147,-0.168497,2.499,2.67919
0.952349,-0.167283,2.481,2.66276
0.960401,-0.167283,2.481,2.66566
0.961428,-0.16607,2.463,2.64921
0.969422,-0.16607,2.463,2.65212
0.977417,-0.16607,2.463,2.65505
0.985411,-0.16607,2.463,2.658
nan,nan,nan,NaN
nan,nan,nan,NaN
0.99505,-0.16371,2.428,2.62909
0.995908,-0.162563,2.411,2.61365
1.00373,-0.162563,2.411,2.61664
nan,nan,nan,NaN
nan,nan,nan,NaN
nan,nan,nan,NaN
nan,nan,nan,NaN
nan,nan,nan,NaN
nan,nan,nan,NaN
nan,nan,nan,NaN
nan,nan,nan,NaN
nan,nan,nan,NaN
nan,nan,nan,NaN
nan,nan,nan,NaN
nan,nan,nan,NaN
nan,nan,nan,NaN
1.64662,-0.24044,3.566,3.93516
1.65819,-0.24044,3.566,3.94002
1.66977,-0.24044,3.566,3.94491
1.69926,-0.243002,3.604,3.99191
1.729,-0.245564,3.642,4.03905
1.72265,-0.243002,3.604,4.00192
1.73435,-0.243002,3.604,4.00697
1.76446,-0.245564,3.642,4.05435
1.77628,-0.245564,3.642,4.05951
1.76944,-0.243002,3.604,4.02229
1.78114,-0.243002,3.604,4.02745
1.79284,-0.243002,3.604,4.03263
1.78551,-0.24044,3.566,3.99527
1.79708,-0.24044,3.566,4.00046
nan,nan,nan,NaN
nan,nan,nan,NaN
nan,nan,nan,NaN
nan,nan,nan,NaN
nan,nan,nan,NaN
nan,nan,nan,NaN
nan,nan,nan,NaN
nan,nan,nan,NaN
nan,nan,nan,NaN
1.99597,-0.250891,3.721,4.22998
2.00805,-0.250891,3.721,4.23569
2.02013,-0.250891,3.721,4.24143
2.0322,-0.250891,3.721,4.24719
2.04428,-0.250891,3.721,4.25298
2.05636,-0.250891,3.721,4.2588
2.0462,-0.248194,3.681,4.2188
2.05815,-0.248194,3.681,4.22461
2.04816,-0.245564,3.642,4.18562
2.05998,-0.245564,3.642,4.19142
2.07181,-0.245564,3.642,4.19724
2.06189,-0.243002,3.604,4.15924
2.05172,-0.24044,3.566,4.12113
2.06329,-0.24044,3.566,4.12691
2.07487,-0.24044,3.566,4.1327
2.06479,-0.237945,3.529,4.09559
2.05507,-0.235518,3.493,4.05954
2.06641,-0.235518,3.493,4.06529
2.03611,-0.230798,3.423,3.98948
2.02688,-0.228506,3.389,3.95548
2.03788,-0.228506,3.389,3.96112
2.00958,-0.224123,3.324,3.89071
1.98147,-0.219808,3.26,3.82128
1.99205,-0.219808,3.26,3.82677
1.96516,-0.215695,3.199,3.76058
1.95764,-0.21374,3.17,3.73188
1.96793,-0.21374,3.17,3.73729
1.92455,-0.207941,3.084,3.64118
1.91762,-0.20612,3.057,3.61455
1.92754,-0.20612,3.057,3.61983
1.90324,-0.202479,3.003,3.56109
1.91299,-0.202479,3.003,3.5663
1.90609,-0.200726,2.977,3.54062
1.91575,-0.200726,2.977,3.54583
1.89243,-0.197288,2.926,3.49023
1.88567,-0.195602,2.901,3.46552
1.89509,-0.195602,2.901,3.47065
1.88875,-0.193984,2.877,3.44705
1.88225,-0.192366,2.853,3.42338
1.89151,-0.192366,2.853,3.42848
1.90077,-0.192366,2.853,3.43359
1.89397,-0.190747,2.829,3.4098
1.90315,-0.190747,2.829,3.41491
1.88124,-0.187646,2.783,3.36442
1.87533,-0.186162,2.761,3.34285
-1.94661,-0.180092,2.806,3.41985
-1.93751,-0.180092,2.806,3.41467
-1.91259,-0.178615,2.783,3.38157
-1.88851,-0.177203,2.761,3.34978
-1.86457,-0.175791,2.739,3.31808
-1.85568,-0.175791,2.739,3.31309
-1.84679,-0.175791,2.739,3.30812
-1.8379,-0.175791,2.739,3.30317
-1.82901,-0.175791,2.739,3.29823
-1.82012,-0.175791,2.739,3.29331
-1.82578,-0.177203,2.761,3.31482
-1.8313,-0.178615,2.783,3.33626
-1.82226,-0.178615,2.783,3.33131
-1.81323,-0.178615,2.783,3.32638
-1.81911,-0.180092,2.806,3.34891
-1.82484,-0.181568,2.829,3.37139
-1.81565,-0.181568,2.829,3.36642
-1.8218,-0.183108,2.853,3.39
-1.84303,-0.186189,2.901,3.44198
-1.83362,-0.186189,2.901,3.43695
-1.85564,-0.189398,2.951,3.49109
-1.84606,-0.189398,2.951,3.486
-1.85267,-0.191066,2.977,3.51161
-1.843,-0.191066,2.977,3.50652
-1.83334,-0.191066,2.977,3.50145
-1.8396,-0.192735,3.003,3.52694
-1.82986,-0.192735,3.003,3.52187
-1.82011,-0.192735,3.003,3.51681
-1.81036,-0.192735,3.003,3.51178
-1.80062,-0.192735,3.003,3.50676
-1.77536,-0.191066,2.977,3.47145
-1.7657,-0.191066,2.977,3.46652
-1.75604,-0.191066,2.977,3.46161
nan,nan,nan,NaN
nan,nan,nan,NaN
nan,nan,nan,NaN
nan,nan,nan,NaN
nan,nan,nan,NaN
nan,nan,nan,NaN
nan,nan,nan,NaN
nan,nan,nan,NaN
nan,nan,nan,NaN
nan,nan,nan,NaN
nan,nan,nan,NaN
nan,nan,nan,NaN
nan,nan,nan,NaN
nan,nan,nan,NaN
nan,nan,nan,NaN
nan,nan,nan,NaN
nan,nan,nan,NaN
nan,nan,nan,NaN
nan,nan,nan,NaN
nan,nan,nan,NaN
nan,nan,nan,NaN
nan,nan,nan,NaN
nan,nan,nan,NaN
nan,nan,nan,NaN
nan,nan,nan,NaN
nan,nan,nan,NaN
nan,nan,nan,NaN
nan,nan,nan,NaN
nan,nan,nan,NaN
nan,nan,nan,NaN
nan,nan,nan,NaN
nan,nan,nan,NaN
-1.18035,-0.156922,2.445,2.71953
-1.17241,-0.156922,2.445,2.7161
-1.16447,-0.156922,2.445,2.71268
-1.1485,-0.155831,2.428,2.69045
-1.14062,-0.155831,2.428,2.68709
-1.13274,-0.155831,2.428,2.68376
-1.11698,-0.15474,2.411,2.66167
-1.10915,-0.15474,2.411,2.6584
-1.09356,-0.153649,2.394,2.63642
-1.08579,-0.153649,2.394,2.63321
-1.07802,-0.153649,2.394,2.63001
-1.06265,-0.152558,2.377,2.60819
-1.05494,-0.152558,2.377,2.60505
-1.04722,-0.152558,2.377,2.60194
-1.03951,-0.152558,2.377,2.59884
-1.03179,-0.152558,2.377,2.59576
-1.02408,-0.152558,2.377,2.59271
-1.01636,-0.152558,2.377,2.58967
-1.00865,-0.152558,2.377,2.58665
-1.00093,-0.152558,2.377,2.58365
-0.993215,-0.152558,2.377,2.58067
-0.992548,-0.153649,2.394,2.59615
-0.984778,-0.153649,2.394,2.59319
-0.977007,-0.153649,2.394,2.59025
-0.969237,-0.153649,2.394,2.58733
-0.961466,-0.153649,2.394,2.58443
-0.953696,-0.153649,2.394,2.58155
-0.945926,-0.153649,2.394,2.57869
-0.938156,-0.153649,2.394,2.57585
-0.930385,-0.153649,2.394,2.57303
-0.922615,-0.153649,2.394,2.57023
-0.914845,-0.153649,2.394,2.56745
-0.907074,-0.153649,2.394,2.56469
-0.899304,-0.153649,2.394,2.56195
-0.891534,-0.153649,2.394,2.55923
-0.883763,-0.153649,2.394,2.55654
-0.869772,-0.152558,2.377,2.53573
-0.862057,-0.152558,2.377,2.53309
-0.854342,-0.152558,2.377,2.53047
-0.846627,-0.152558,2.377,2.52788
-0.838912,-0.152558,2.377,2.52531
-0.831197,-0.152558,2.377,2.52275
-0.823481,-0.152558,2.377,2.52022
-0.815766,-0.152558,2.377,2.51771
-0.808051,-0.152558,2.377,2.51522
-0.800336,-0.152558,2.377,2.51276
-0.792621,-0.152558,2.377,2.51031
-0.784906,-0.152558,2.377,2.50788
-0.777191,-0.152558,2.377,2.50548
-0.769475,-0.152558,2.377,2.5031
-0.76176,-0.152558,2.377,2.50074
-0.754045,-0.152558,2.377,2.4984
-0.74633,-0.152558,2.377,2.49608
-0.738615,-0.152558,2.377,2.49378
-0.736127,-0.153649,2.394,2.50933
-0.728357,-0.153649,2.394,2.50706
-0.720586,-0.153649,2.394,2.50481
-0.712816,-0.153649,2.394,2.50259
-0.710052,-0.15474,2.411,2.51814
-0.702227,-0.15474,2.411,2.51595
-0.694401,-0.15474,2.411,2.51377
-0.686576,-0.15474,2.411,2.51162
-0.67875,-0.15474,2.411,2.5095
-0.675655,-0.155831,2.428,2.52507
-0.667775,-0.155831,2.428,2.52297
-0.664514,-0.156922,2.445,2.53855
-0.656578,-0.156922,2.445,2.53648
-0.648643,-0.156922,2.445,2.53444
-0.640707,-0.156922,2.445,2.53242
-0.632771,-0.156922,2.445,2.53042
-0.624835,-0.156922,2.445,2.52845
-0.616899,-0.156922,2.445,2.5265
-0.608963,-0.156922,2.445,2.52458
-0.601027,-0.156922,2.445,2.52267
-0.593092,-0.156922,2.445,2.5208
-0.589464,-0.158078,2.463,2.53748
-0.581469,-0.158078,2.463,2.53564
-0.573475,-0.158078,2.463,2.53382
-0.565481,-0.158078,2.463,2.53202
-0.557486,-0.158078,2.463,2.53025
-0.549492,-0.158078,2.463,2.5285
-0.545455,-0.159233,2.481,2.54524
-0.537403,-0.159233,2.481,2.54352
-0.52935,-0.159233,2.481,2.54184
-0.521297,-0.159233,2.481,2.54017
-0.513244,-0.159233,2.481,2.53853
-0.505192,-0.159233,2.481,2.53691
-0.497139,-0.159233,2.481,2.53532
-0.492635,-0.160388,2.499,2.55214
-0.484524,-0.160388,2.499,2.55059
-0.476412,-0.160388,2.499,2.54906
-0.468301,-0.160388,2.499,2.54755
-0.46019,-0.160388,2.499,2.54608
-0.452079,-0.160388,2.499,2.54462
-0.443968,-0.160388,2.499,2.54319
-0.435857,-0.160388,2.499,2.54179
-0.427746,-0.160388,2.499,2.54041
-0.419634,-0.160388,2.499,2.53906
-0.411523,-0.160388,2.499,2.53773
-0.403412,-0.160388,2.499,2.53643
-0.395301,-0.160388,2.499,2.53515
-0.389979,-0.161543,2.517,2.55215
-0.379079,-0.160388,2.499,2.53267
-0.370968,-0.160388,2.499,2.53147
-0.362857,-0.160388,2.499,2.53029
-0.354745,-0.160388,2.499,2.52914
-0.346634,-0.160388,2.499,2.52802
-0.336085,-0.159233,2.481,2.50872
-0.328032,-0.159233,2.481,2.50765
-0.319979,-0.159233,2.481,2.50661
-0.311927,-0.159233,2.481,2.5056
-0.303874,-0.159233,2.481,2.50461
-0.293675,-0.158078,2.463,2.48548
-0.285681,-0.158078,2.463,2.48455
-0.277686,-0.158078,2.463,2.48364
-0.269692,-0.158078,2.463,2.48276
-0.261698,-0.158078,2.463,2.4819
-0.253704,-0.158078,2.463,2.48107
-0.243914,-0.156922,2.445,2.46214
-0.235978,-0.156922,2.445,2.46137
-0.228042,-0.156922,2.445,2.46062
-0.220106,-0.156922,2.445,2.4599
-0.210695,-0.155831,2.428,2.4421
-0.202814,-0.155831,2.428,2.44143
-0.196298,-0.156922,2.445,2.45788
-0.188363,-0.156922,2.445,2.45726
-0.180427,-0.156922,2.445,2.45667
-0.172491,-0.156922,2.445,2.4561
-0.164555,-0.156922,2.445,2.45555
-0.156619,-0.156922,2.445,2.45503
-0.148683,-0.156922,2.445,2.45454
-0.140747,-0.156922,2.445,2.45407
-0.132812,-0.156922,2.445,2.45363
-0.124876,-0.156922,2.445,2.45321
-0.11694,-0.156922,2.445,2.45282
-0.109004,-0.156922,2.445,2.45245
-0.101068,-0.156922,2.445,2.45211
-0.0931322,-0.156922,2.445,2.4518
-0.0851963,-0.156922,2.445,2.45151
-0.0778293,-0.158078,2.463,2.46929
-0.069835,-0.158078,2.463,2.46906
-0.0618407,-0.158078,2.463,2.46884
-0.0538464,-0.158078,2.463,2.46865
-0.0458521,-0.158078,2.463,2.46849
-0.0378578,-0.158078,2.463,2.46836
-0.0298635,-0.158078,2.463,2.46825
-0.0218693,-0.158078,2.463,2.46816
-0.013875,-0.158078,2.463,2.46811
-0.00588068,-0.158078,2.463,2.46807
0.00209816,-0.156922,2.445,2.45003
0.010034,-0.156922,2.445,2.45005
0.0179699,-0.156922,2.445,2.4501
0.0259057,-0.156922,2.445,2.45017
0.0338416,-0.156922,2.445,2.45026
0.0417775,-0.156922,2.445,2.45039
0.0497133,-0.156922,2.445,2.45054
0.0576492,-0.156922,2.445,2.45071
0.0655851,-0.156922,2.445,2.45091
0.0735209,-0.156922,2.445,2.45113
0.0808904,-0.155831,2.428,2.43434
0.0887711,-0.155831,2.428,2.43461
0.0966518,-0.155831,2.428,2.43491
0.105264,-0.156922,2.445,2.45229
0.1132,-0.156922,2.445,2.45264
0.121136,-0.156922,2.445,2.45302
0.130022,-0.158078,2.463,2.47149
0.137008,-0.156922,2.445,2.45386
0.144944,-0.156922,2.445,2.45431
0.15288,-0.156922,2.445,2.4548
0.161999,-0.158078,2.463,2.47338
0.169994,-0.158078,2.463,2.47392
0.177988,-0.158078,2.463,2.47448
0.185982,-0.158078,2.463,2.47506
0.193976,-0.158078,2.463,2.47568
0.201971,-0.158078,2.463,2.47632
0.209965,-0.158078,2.463,2.47698
0.217959,-0.158078,2.463,2.47767
0.225954,-0.158078,2.463,2.47839
0.233948,-0.158078,2.463,2.47913
0.241942,-0.158078,2.463,2.4799
0.249936,-0.158078,2.463,2.48069
0.257931,-0.158078,2.463,2.48151
0.267868,-0.159233,2.481,2.50049
0.275921,-0.159233,2.481,2.50137
0.283974,-0.159233,2.481,2.50227
0.292027,-0.159233,2.481,2.5032
0.300079,-0.159233,2.481,2.50415
0.308132,-0.159233,2.481,2.50513
0.316185,-0.159233,2.481,2.50613
0.32659,-0.160388,2.499,2.52535
0.334701,-0.160388,2.499,2.52641
0.342812,-0.160388,2.499,2.5275
0.350923,-0.160388,2.499,2.52861
0.359034,-0.160388,2.499,2.52975
0.367146,-0.160388,2.499,2.53091
0.375257,-0.160388,2.499,2.5321
0.383368,-0.160388,2.499,2.53332
0.391479,-0.160388,2.499,2.53456
0.396712,-0.159233,2.481,2.51756
0.404765,-0.159233,2.481,2.51884
0.412817,-0.159233,2.481,2.52015
0.42087,-0.159233,2.481,2.52148
0.428923,-0.159233,2.481,2.52283
0.436975,-0.159233,2.481,2.52422
0.441799,-0.158078,2.463,2.5073
0.449794,-0.158078,2.463,2.50872
0.457788,-0.158078,2.463,2.51016
0.465782,-0.158078,2.463,2.51164
0.473776,-0.158078,2.463,2.51313
0.481771,-0.158078,2.463,2.51465
0.486186,-0.156922,2.445,2.4978
0.494122,-0.156922,2.445,2.49936
0.502058,-0.156922,2.445,2.50094
0.509993,-0.156922,2.445,2.50255
0.517929,-0.156922,2.445,2.50418
0.525865,-0.156922,2.445,2.50583
0.533801,-0.156922,2.445,2.50751
0.541737,-0.156922,2.445,2.50921
0.549673,-0.156922,2.445,2.51093
0.561714,-0.158078,2.463,2.53118
0.569708,-0.158078,2.463,2.53297
0.577702,-0.158078,2.463,2.53478
0.585697,-0.158078,2.463,2.53661
0.593691,-0.158078,2.463,2.53847
0.601685,-0.158078,2.463,2.54035
0.609679,-0.158078,2.463,2.54226
0.617674,-0.158078,2.463,2.54419
0.625668,-0.158078,2.463,2.54614
0.633662,-0.158078,2.463,2.54811
0.641657,-0.158078,2.463,2.55011
0.649651,-0.158078,2.463,2.55214
0.657645,-0.158078,2.463,2.55418
0.665639,-0.158078,2.463,2.55625
0.673634,-0.158078,2.463,2.55835
0.681628,-0.158078,2.463,2.56046
0.689622,-0.158078,2.463,2.5626
0.697617,-0.158078,2.463,2.56477
0.710768,-0.159233,2.481,2.58571
0.71882,-0.159233,2.481,2.58794
0.726873,-0.159233,2.481,2.59019
0.734926,-0.159233,2.481,2.59246
0.742978,-0.159233,2.481,2.59475
0.751031,-0.159233,2.481,2.59707
0.759084,-0.159233,2.481,2.59941
0.767137,-0.159233,2.481,2.60177
0.775189,-0.159233,2.481,2.60416
0.783242,-0.159233,2.481,2.60657
0.791295,-0.159233,2.481,2.609
0.799347,-0.159233,2.481,2.61145
0.8074,-0.159233,2.481,2.61393
0.815453,-0.159233,2.481,2.61643
0.82948,-0.160388,2.499,2.63795
0.837591,-0.160388,2.499,2.64051
0.845702,-0.160388,2.499,2.64309
0.853814,-0.160388,2.499,2.6457
0.861925,-0.160388,2.499,2.64833
0.870036,-0.160388,2.499,2.65098
0.884472,-0.161543,2.517,2.67277
0.892642,-0.161543,2.517,2.67548
0.900811,-0.161543,2.517,2.67822
0.908981,-0.161543,2.517,2.68098
0.91715,-0.161543,2.517,2.68376
0.918703,-0.160388,2.499,2.66735
0.926814,-0.160388,2.499,2.67015
0.934925,-0.160388,2.499,2.67298
0.943036,-0.160388,2.499,2.67583
0.951147,-0.160388,2.499,2.67869
0.952349,-0.159233,2.481,2.66227
0.960401,-0.159233,2.481,2.66516
0.961428,-0.158078,2.463,2.64872
0.969422,-0.158078,2.463,2.65163
0.977417,-0.158078,2.463,2.65456
0.985411,-0.158078,2.463,2.65752
0.979289,-0.155831,2.428,2.62268
0.987169,-0.155831,2.428,2.62564
0.99505,-0.155831,2.428,2.62861
0.995908,-0.15474,2.411,2.61318
1.00373,-0.15474,2.411,2.61617
nan,nan,nan,NaN
nan,nan,nan,NaN
nan,nan,nan,NaN
nan,nan,nan,NaN
nan,nan,nan,NaN
nan,nan,nan,NaN
nan,nan,nan,NaN
nan,nan,nan,NaN
nan,nan,nan,NaN
nan,nan,nan,NaN
nan,nan,nan,NaN
nan,nan,nan,NaN
nan,nan,nan,NaN
1.64662,-0.228869,3.566,3.93447
1.65819,-0.228869,3.566,3.93933
1.66977,-0.228869,3.566,3.94422
1.69926,-0.231308,3.604,3.99121
1.729,-0.233747,3.642,4.03834
1.72265,-0.231308,3.604,4.00123
1.73435,-0.231308,3.604,4.00628
1.76446,-0.233747,3.642,4.05365
1.68654,-0.221937,3.458,3.85376
1.69776,-0.221937,3.458,3.85868
1.78114,-0.231308,3.604,4.02676
1.79284,-0.231308,3.604,4.03195
1.78551,-0.228869,3.566,3.99459
1.79708,-0.228869,3.566,3.99978
nan,nan,nan,NaN
nan,nan,nan,NaN
nan,nan,nan,NaN
nan,nan,nan,NaN
nan,nan,nan,NaN
nan,nan,nan,NaN
nan,nan,nan,NaN
nan,nan,nan,NaN
1.92151,-0.231308,3.604,4.09079
1.93321,-0.231308,3.604,4.09629
1.96542,-0.233747,3.642,4.14508
1.97724,-0.233747,3.642,4.15069
1.98906,-0.233747,3.642,4.15634
2.00088,-0.233747,3.642,4.16201
2.0127,-0.233747,3.642,4.16771
2.02452,-0.233747,3.642,4.17343
2.03634,-0.233747,3.642,4.17917
2.02679,-0.231308,3.604,4.14128
2.03849,-0.231308,3.604,4.14702
2.05019,-0.231308,3.604,4.15278
2.04015,-0.228869,3.566,4.11472
2.03043,-0.226494,3.529,4.07772
2.04189,-0.226494,3.529,4.08344
2.05334,-0.226494,3.529,4.08917
2.04373,-0.224184,3.493,4.05316
2.03448,-0.221937,3.458,4.01822
2.0457,-0.221937,3.458,4.02392
2.01588,-0.217509,3.389,3.94923
2.00714,-0.215391,3.356,3.91635
2.01804,-0.215391,3.356,3.92194
1.99024,-0.211283,3.292,3.85265
1.98147,-0.20923,3.26,3.82068
1.99205,-0.20923,3.26,3.82618
1.96516,-0.205315,3.199,3.76
1.93973,-0.201592,3.141,3.69717
1.94992,-0.201592,3.141,3.70253
1.92455,-0.197934,3.084,3.64062
1.91762,-0.196201,3.057,3.614
1.92754,-0.196201,3.057,3.61928
1.90324,-0.192735,3.003,3.56054
1.89642,-0.191066,2.977,3.53489
1.88944,-0.189398,2.951,3.50917
1.89902,-0.189398,2.951,3.51433
1.87626,-0.186189,2.901,3.45989
1.87007,-0.184648,2.877,3.43634
1.87941,-0.184648,2.877,3.44143
1.87299,-0.183108,2.853,3.41778
1.86642,-0.181568,2.829,3.39407
1.8756,-0.181568,2.829,3.39913
1.88479,-0.181568,2.829,3.40421
1.87857,-0.180092,2.806,3.38158
1.88768,-0.180092,2.806,3.38665
1.86637,-0.177203,2.761,3.33734
1.87533,-0.177203,2.761,3.34236
-1.96257,-0.172388,2.829,3.44741
-1.95339,-0.172388,2.829,3.44219
-1.9284,-0.170987,2.806,3.40905
-1.90356,-0.169585,2.783,3.376
-1.87955,-0.168244,2.761,3.34427
-1.87059,-0.168244,2.761,3.33924
-1.84679,-0.166904,2.739,3.30766
-1.8379,-0.166904,2.739,3.30271
-1.82901,-0.166904,2.739,3.29777
-1.82012,-0.166904,2.739,3.29284
-1.82578,-0.168244,2.761,3.31435
-1.8313,-0.169585,2.783,3.33579
-1.82226,-0.169585,2.783,3.33084
-1.82822,-0.170987,2.806,3.35339
-1.81911,-0.170987,2.806,3.34844
-1.82484,-0.172388,2.829,3.3709
-1.81565,-0.172388,2.829,3.36594
-1.8218,-0.173851,2.853,3.38951
-1.84303,-0.176775,2.901,3.44148
-1.83362,-0.176775,2.901,3.43645
-1.85564,-0.179822,2.951,3.49058
-1.84606,-0.179822,2.951,3.4855
-1.85267,-0.181407,2.977,3.5111
-1.843,-0.181407,2.977,3.50601
-1.83334,-0.181407,2.977,3.50094
-1.8396,-0.182991,3.003,3.52642
-1.82986,-0.182991,3.003,3.52135
-1.82011,-0.182991,3.003,3.51629
-1.81036,-0.182991,3.003,3.51126
-1.80062,-0.182991,3.003,3.50624
-1.77536,-0.181407,2.977,3.47093
-1.7657,-0.181407,2.977,3.466
-1.75604,-0.181407,2.977,3.46109
nan,nan,nan,NaN
nan,nan,nan,NaN
nan,nan,nan,NaN
nan,nan,nan,NaN
nan,nan,nan,NaN
nan,nan,nan,NaN
nan,nan,nan,NaN
nan,nan,nan,NaN
nan,nan,nan,NaN
nan,nan,nan,NaN
nan,nan,nan,NaN
nan,nan,nan,NaN
nan,nan,nan,NaN
nan,nan,nan,NaN
nan,nan,nan,NaN
nan,nan,nan,NaN
nan,nan,nan,NaN
nan,nan,nan,NaN
nan,nan,nan,NaN
nan,nan,nan,NaN
nan,nan,nan,NaN
nan,nan,nan,NaN
nan,nan,nan,NaN
nan,nan,nan,NaN
nan,nan,nan,NaN
nan,nan,nan,NaN
nan,nan,nan,NaN
nan,nan,nan,NaN
nan,nan,nan,NaN
nan,nan,nan,NaN
-1.21383,-0.151182,2.481,2.76615
-1.20578,-0.151182,2.481,2.76263
-1.18035,-0.148989,2.445,2.71909
-1.17241,-0.148989,2.445,2.71565
-1.16447,-0.148989,2.445,2.71224
-1.1485,-0.147953,2.428,2.69
-1.14062,-0.147953,2.428,2.68665
-1.13274,-0.147953,2.428,2.68331
-1.11698,-0.146917,2.411,2.66123
-1.10915,-0.146917,2.411,2.65796
-1.09356,-0.145881,2.394,2.63598
-1.08579,-0.145881,2.394,2.63277
-1.07802,-0.145881,2.394,2.62957
-1.06265,-0.144845,2.377,2.60775
-1.05494,-0.144845,2.377,2.60461
-1.04722,-0.144845,2.377,2.6015
-1.03951,-0.144845,2.377,2.5984
-1.03179,-0.144845,2.377,2.59532
-1.02408,-0.144845,2.377,2.59227
-1.01636,-0.144845,2.377,2.58923
-1.00865,-0.144845,2.377,2.58621
-1.00093,-0.144845,2.377,2.58321
-0.993215,-0.144845,2.377,2.58023
-0.992548,-0.145881,2.394,2.5957
-0.984778,-0.145881,2.394,2.59274
-0.977007,-0.145881,2.394,2.5898
-0.969237,-0.145881,2.394,2.58688
-0.961466,-0.145881,2.394,2.58398
-0.953696,-0.145881,2.394,2.5811
-0.945926,-0.145881,2.394,2.57823
-0.938156,-0.145881,2.394,2.57539
-0.930385,-0.145881,2.394,2.57257
-0.922615,-0.145881,2.394,2.56977
-0.914845,-0.145881,2.394,2.56699
-0.907074,-0.145881,2.394,2.56423
-0.899304,-0.145881,2.394,2.5615
-0.891534,-0.145881,2.394,2.55878
-0.883763,-0.145881,2.394,2.55608
-0.869772,-0.144845,2.377,2.53527
-0.862057,-0.144845,2.377,2.53264
-0.854342,-0.144845,2.377,2.53002
-0.846627,-0.144845,2.377,2.52743
-0.838912,-0.144845,2.377,2.52485
-0.825602,-0.14387,2.361,2.50532
-0.817938,-0.14387,2.361,2.50281
-0.810275,-0.14387,2.361,2.50031
-0.802612,-0.14387,2.361,2.49784
-0.794949,-0.14387,2.361,2.49539
-0.787286,-0.14387,2.361,2.49296
-0.779622,-0.14387,2.361,2.49055
-0.777191,-0.144845,2.377,2.50502
-0.769475,-0.144845,2.377,2.50264
-0.76176,-0.144845,2.377,2.50028
-0.754045,-0.144845,2.377,2.49794
-0.74633,-0.144845,2.377,2.49562
-0.738615,-0.144845,2.377,2.49332
-0.736127,-0.145881,2.394,2.50886
-0.728357,-0.145881,2.394,2.5066
-0.720586,-0.145881,2.394,2.50435
-0.712816,-0.145881,2.394,2.50212
-0.710052,-0.146917,2.411,2.51767
-0.702227,-0.146917,2.411,2.51548
-0.694401,-0.146917,2.411,2.5133
-0.686576,-0.146917,2.411,2.51115
-0.67875,-0.146917,2.411,2.50903
-0.675655,-0.147953,2.428,2.5246
-0.667775,-0.147953,2.428,2.5225
-0.659894,-0.147953,2.428,2.52042
-0.652013,-0.147953,2.428,2.51837
-0.644133,-0.147953,2.428,2.51634
-0.636252,-0.147953,2.428,2.51434
-0.628371,-0.147953,2.428,2.51235
-0.620491,-0.147953,2.428,2.5104
-0.616899,-0.148989,2.445,2.52602
-0.608963,-0.148989,2.445,2.5241
-0.601027,-0.148989,2.445,2.52219
-0.593092,-0.148989,2.445,2.52031
-0.585156,-0.148989,2.445,2.51846
-0.57722,-0.148989,2.445,2.51663
-0.573475,-0.150085,2.463,2.53333
-0.565481,-0.150085,2.463,2.53153
-0.557486,-0.150085,2.463,2.52976
-0.549492,-0.150085,2.463,2.52801
-0.541498,-0.150085,2.463,2.52628
-0.533504,-0.150085,2.463,2.52458
-0.525509,-0.150085,2.463,2.52291
-0.521297,-0.151182,2.481,2.53968
-0.513244,-0.151182,2.481,2.53804
-0.505192,-0.151182,2.481,2.53642
-0.497139,-0.151182,2.481,2.53483
-0.489086,-0.151182,2.481,2.53326
-0.481034,-0.151182,2.481,2.53172
-0.472981,-0.151182,2.481,2.5302
-0.464928,-0.151182,2.481,2.52871
-0.456875,-0.151182,2.481,2.52724
-0.448823,-0.151182,2.481,2.5258
-0.443968,-0.152279,2.499,2.5427
-0.435857,-0.152279,2.499,2.54129
-0.427746,-0.152279,2.499,2.53991
-0.419634,-0.152279,2.499,2.53856
-0.411523,-0.152279,2.499,2.53723
-0.403412,-0.152279,2.499,2.53593
-0.395301,-0.152279,2.499,2.53465
-0.389979,-0.153376,2.517,2.55165
-0.379079,-0.152279,2.499,2.53217
-0.370968,-0.152279,2.499,2.53097
-0.36547,-0.153376,2.517,2.54802
-0.354745,-0.152279,2.499,2.52864
-0.346634,-0.152279,2.499,2.52752
-0.338523,-0.152279,2.499,2.52642
-0.330412,-0.152279,2.499,2.52534
-0.319979,-0.151182,2.481,2.50611
-0.311927,-0.151182,2.481,2.5051
-0.303874,-0.151182,2.481,2.50411
-0.295821,-0.151182,2.481,2.50314
-0.287769,-0.151182,2.481,2.5022
-0.279716,-0.151182,2.481,2.50129
-0.269692,-0.150085,2.463,2.48226
-0.261698,-0.150085,2.463,2.48141
-0.253704,-0.150085,2.463,2.48058
-0.243914,-0.148989,2.445,2.46165
-0.235978,-0.148989,2.445,2.46088
-0.228042,-0.148989,2.445,2.46013
-0.220106,-0.148989,2.445,2.4594
-0.21217,-0.148989,2.445,2.45871
-0.204234,-0.148989,2.445,2.45803
-0.196298,-0.148989,2.445,2.45739
-0.188363,-0.148989,2.445,2.45677
-0.180427,-0.148989,2.445,2.45617
-0.172491,-0.148989,2.445,2.4556
-0.164555,-0.148989,2.445,2.45506
-0.156619,-0.148989,2.445,2.45454
-0.148683,-0.148989,2.445,2.45404
-0.140747,-0.148989,2.445,2.45358
-0.132812,-0.148989,2.445,2.45313
-0.124876,-0.148989,2.445,2.45272
-0.11694,-0.148989,2.445,2.45233
-0.109004,-0.148989,2.445,2.45196
-0.101068,-0.148989,2.445,2.45162
-0.0931322,-0.148989,2.445,2.45131
-0.0851963,-0.148989,2.445,2.45102
-0.0778293,-0.150085,2.463,2.4688
-0.069835,-0.150085,2.463,2.46856
-0.0618407,-0.150085,2.463,2.46834
-0.0538464,-0.150085,2.463,2.46816
-0.0458521,-0.150085,2.463,2.46799
-0.0378578,-0.150085,2.463,2.46786
-0.0298635,-0.150085,2.463,2.46775
-0.0218693,-0.150085,2.463,2.46767
-0.013875,-0.150085,2.463,2.46761
-0.00588068,-0.150085,2.463,2.46758
0.00209816,-0.148989,2.445,2.44954
0.010034,-0.148989,2.445,2.44956
0.0179699,-0.148989,2.445,2.4496
0.0259057,-0.148989,2.445,2.44967
0.0338416,-0.148989,2.445,2.44977
0.0417775,-0.148989,2.445,2.44989
0.0497133,-0.148989,2.445,2.45004
0.0576492,-0.148989,2.445,2.45021
0.0655851,-0.148989,2.445,2.45041
0.0735209,-0.148989,2.445,2.45064
0.0808904,-0.147953,2.428,2.43385
0.0887711,-0.147953,2.428,2.43412
0.0966518,-0.147953,2.428,2.43442
0.105264,-0.148989,2.445,2.4518
0.1132,-0.148989,2.445,2.45215
0.121136,-0.148989,2.445,2.45253
0.128175,-0.147953,2.428,2.43588
0.136055,-0.147953,2.428,2.43631
0.144944,-0.148989,2.445,2.45382
0.15288,-0.148989,2.445,2.4543
0.160815,-0.148989,2.445,2.45481
0.168751,-0.148989,2.445,2.45534
0.176687,-0.148989,2.445,2.4559
0.184623,-0.148989,2.445,2.45648
0.192559,-0.148989,2.445,2.45709
0.200495,-0.148989,2.445,2.45773
0.208431,-0.148989,2.445,2.45839
0.217959,-0.150085,2.463,2.47718
0.224302,-0.148989,2.445,2.45978
0.232238,-0.148989,2.445,2.46052
0.240174,-0.148989,2.445,2.46128
0.249936,-0.150085,2.463,2.48019
0.257931,-0.150085,2.463,2.48101
0.265925,-0.150085,2.463,2.48186
0.273919,-0.150085,2.463,2.48273
0.281914,-0.150085,2.463,2.48362
0.289908,-0.150085,2.463,2.48454
0.297902,-0.150085,2.463,2.48549
0.305896,-0.150085,2.463,2.48646
0.313891,-0.150085,2.463,2.48745
0.324237,-0.151182,2.481,2.50666
0.33229,-0.151182,2.481,2.50771
0.340343,-0.151182,2.481,2.50879
0.348396,-0.151182,2.481,2.5099
0.356448,-0.151182,2.481,2.51103
0.364501,-0.151182,2.481,2.51219
0.372554,-0.151182,2.481,2.51337
0.380606,-0.151182,2.481,2.51457
0.388659,-0.151182,2.481,2.5158
0.396712,-0.151182,2.481,2.51706
0.404765,-0.151182,2.481,2.51834
0.412817,-0.151182,2.481,2.51965
0.42087,-0.151182,2.481,2.52098
0.428923,-0.151182,2.481,2.52234
0.436975,-0.151182,2.481,2.52372
0.441799,-0.150085,2.463,2.50681
0.446507,-0.148989,2.445,2.4899
0.454442,-0.148989,2.445,2.49133
0.462378,-0.148989,2.445,2.49279
0.470314,-0.148989,2.445,2.49428
0.47825,-0.148989,2.445,2.49579
0.486186,-0.148989,2.445,2.49732
0.494122,-0.148989,2.445,2.49888
0.502058,-0.148989,2.445,2.50046
0.509993,-0.148989,2.445,2.50206
0.517929,-0.148989,2.445,2.50369
0.525865,-0.148989,2.445,2.50535
0.533801,-0.148989,2.445,2.50702
0.541737,-0.148989,2.445,2.50873
0.549673,-0.148989,2.445,2.51045
0.557609,-0.148989,2.445,2.5122
0.565544,-0.148989,2.445,2.51397
0.57348,-0.148989,2.445,2.51577
0.585697,-0.150085,2.463,2.53613
0.593691,-0.150085,2.463,2.53798
0.601685,-0.150085,2.463,2.53987
0.609679,-0.150085,2.463,2.54177
0.617674,-0.150085,2.463,2.5437
0.625668,-0.150085,2.463,2.54565
0.633662,-0.150085,2.463,2.54763
0.641657,-0.150085,2.463,2.54963
0.649651,-0.150085,2.463,2.55165
0.657645,-0.150085,2.463,2.5537
0.665639,-0.150085,2.463,2.55577
0.673634,-0.150085,2.463,2.55787
0.681628,-0.150085,2.463,2.55998
0.689622,-0.150085,2.463,2.56212
0.697617,-0.150085,2.463,2.56429
0.705611,-0.150085,2.463,2.56647
0.713605,-0.150085,2.463,2.56868
0.721599,-0.150085,2.463,2.57091
0.729594,-0.150085,2.463,2.57317
0.737588,-0.150085,2.463,2.57545
0.751031,-0.151182,2.481,2.59659
0.759084,-0.151182,2.481,2.59893
0.767137,-0.151182,2.481,2.60129
0.775189,-0.151182,2.481,2.60368
0.783242,-0.151182,2.481,2.60609
0.791295,-0.151182,2.481,2.60852
0.799347,-0.151182,2.481,2.61097
0.8074,-0.151182,2.481,2.61345
0.821369,-0.152279,2.499,2.63493
0.82948,-0.152279,2.499,2.63747
0.837591,-0.152279,2.499,2.64003
0.845702,-0.152279,2.499,2.64261
0.853814,-0.152279,2.499,2.64522
0.868133,-0.153376,2.517,2.66692
0.876303,-0.153376,2.517,2.66959
0.878147,-0.152279,2.499,2.65317
0.886258,-0.152279,2.499,2.65587
0.894369,-0.152279,2.499,2.65859
0.908981,-0.153376,2.517,2.6805
0.91715,-0.153376,2.517,2.68328
0.918703,-0.152279,2.499,2.66687
0.926814,-0.152279,2.499,2.66968
0.928191,-0.151182,2.481,2.65325
0.936243,-0.151182,2.481,2.65608
0.944296,-0.151182,2.481,2.65893
0.945439,-0.150085,2.463,2.64249
0.953434,-0.150085,2.463,2.64536
0.961428,-0.150085,2.463,2.64825
0.962338,-0.148989,2.445,2.63179
0.970273,-0.148989,2.445,2.6347
0.978209,-0.148989,2.445,2.63763
0.979289,-0.147953,2.428,2.62223
0.987169,-0.147953,2.428,2.62518
0.99505,-0.147953,2.428,2.62816
1.00293,-0.147953,2.428,2.63115
1.01081,-0.147953,2.428,2.63416
nan,nan,nan,NaN
nan,nan,nan,NaN
nan,nan,nan,NaN
nan,nan,nan,NaN
nan,nan,nan,NaN
nan,nan,nan,NaN
nan,nan,nan,NaN
nan,nan,nan,NaN
nan,nan,nan,NaN
nan,nan,nan,NaN
nan,nan,nan,NaN
nan,nan,nan,NaN
nan,nan,nan,NaN
nan,nan,nan,NaN
nan,nan,nan,NaN
nan,nan,nan,NaN
nan,nan,nan,NaN
nan,nan,nan,NaN
nan,nan,nan,NaN
nan,nan,nan,NaN
nan,nan,nan,NaN
1.68654,-0.210717,3.458,3.85313
1.69776,-0.210717,3.458,3.85805
nan,nan,nan,NaN
nan,nan,nan,NaN
nan,nan,nan,NaN
nan,nan,nan,NaN
nan,nan,nan,NaN
nan,nan,nan,NaN
nan,nan,nan,NaN
nan,nan,nan,NaN
nan,nan,nan,NaN
nan,nan,nan,NaN
nan,nan,nan,NaN
nan,nan,nan,NaN
1.92151,-0.219614,3.604,4.09014
1.93321,-0.219614,3.604,4.09565
1.96542,-0.221929,3.642,4.14443
1.97724,-0.221929,3.642,4.15005
1.98906,-0.221929,3.642,4.15569
2.00088,-0.221929,3.642,4.16136
2.0127,-0.221929,3.642,4.16706
2.02452,-0.221929,3.642,4.17278
2.03634,-0.221929,3.642,4.17853
2.02679,-0.219614,3.604,4.14064
2.03849,-0.219614,3.604,4.14638
2.05019,-0.219614,3.604,4.15215
2.04015,-0.217298,3.566,4.11409
2.03043,-0.215043,3.529,4.0771
2.04189,-0.215043,3.529,4.08282
2.05334,-0.215043,3.529,4.08856
2.04373,-0.21285,3.493,4.05255
2.03448,-0.210717,3.458,4.01762
2.0457,-0.210717,3.458,4.02331
2.01588,-0.206512,3.389,3.94864
2.00714,-0.204501,3.356,3.91576
2.01804,-0.204501,3.356,3.92136
1.99024,-0.200601,3.292,3.85208
1.98147,-0.198652,3.26,3.82012
1.99205,-0.198652,3.26,3.82562
1.96516,-0.194934,3.199,3.75945
1.93973,-0.1914,3.141,3.69663
1.94992,-0.1914,3.141,3.70199
1.92455,-0.187927,3.084,3.64009
1.91762,-0.186281,3.057,3.61348
1.92754,-0.186281,3.057,3.61875
1.90324,-0.182991,3.003,3.56003
1.89642,-0.181407,2.977,3.53438
1.88944,-0.179822,2.951,3.50866
1.89902,-0.179822,2.951,3.51383
1.87626,-0.176775,2.901,3.45939
1.87007,-0.175313,2.877,3.43585
1.87941,-0.175313,2.877,3.44094
1.87299,-0.173851,2.853,3.4173
1.86642,-0.172388,2.829,3.39359
1.8756,-0.172388,2.829,3.39865
1.88479,-0.172388,2.829,3.40373
1.87857,-0.170987,2.806,3.38111
1.88768,-0.170987,2.806,3.38618
1.86637,-0.168244,2.761,3.33688
1.86038,-0.166904,2.739,3.31527
-1.96257,-0.163208,2.829,3.44696
-1.95339,-0.163208,2.829,3.44174
-1.9284,-0.161882,2.806,3.4086
-1.90356,-0.160555,2.783,3.37556
-1.87955,-0.159285,2.761,3.34383
-1.87059,-0.159285,2.761,3.3388
-1.84679,-0.158016,2.739,3.30722
-1.8379,-0.158016,2.739,3.30227
-1.82901,-0.158016,2.739,3.29733
-1.82012,-0.158016,2.739,3.29241
-1.82578,-0.159285,2.761,3.31391
-1.81682,-0.159285,2.761,3.30898
-1.80786,-0.159285,2.761,3.30406
-1.81323,-0.160555,2.783,3.32546
-1.81911,-0.161882,2.806,3.34798
-1.81,-0.161882,2.806,3.34304
-1.80089,-0.161882,2.806,3.33812
-1.80647,-0.163208,2.829,3.36054
-1.82778,-0.165978,2.877,3.41255
-1.81845,-0.165978,2.877,3.40755
-1.83992,-0.168804,2.926,3.46053
-1.83042,-0.168804,2.926,3.45549
-1.83648,-0.170247,2.951,3.47995
-1.82691,-0.170247,2.951,3.47491
-1.83334,-0.171747,2.977,3.50045
-1.8396,-0.173247,3.003,3.52593
-1.82986,-0.173247,3.003,3.52085
-1.82011,-0.173247,3.003,3.5158
-1.81036,-0.173247,3.003,3.51076
-1.80062,-0.173247,3.003,3.50574
-1.77536,-0.171747,2.977,3.47044
-1.7657,-0.171747,2.977,3.46551
-1.75604,-0.171747,2.977,3.46059
nan,nan,nan,NaN
nan,nan,nan,NaN
nan,nan,nan,NaN
nan,nan,nan,NaN
nan,nan,nan,NaN
nan,nan,nan,NaN
nan,nan,nan,NaN
nan,nan,nan,NaN
nan,nan,nan,NaN
nan,nan,nan,NaN
nan,nan,nan,NaN
nan,nan,nan,NaN
nan,nan,nan,NaN
nan,nan,nan,NaN
nan,nan,nan,NaN
nan,nan,nan,NaN
nan,nan,nan,NaN
nan,nan,nan,NaN
nan,nan,nan,NaN
nan,nan,nan,NaN
nan,nan,nan,NaN
nan,nan,nan,NaN
nan,nan,nan,NaN
nan,nan,nan,NaN
nan,nan,nan,NaN
nan,nan,nan,NaN
nan,nan,nan,NaN
nan,nan,nan,NaN
nan,nan,nan,NaN
nan,nan,nan,NaN
-1.21383,-0.143132,2.481,2.76572
-1.20578,-0.143132,2.481,2.7622
-1.19772,-0.143132,2.481,2.75869
-1.18104,-0.142093,2.463,2.73522
-1.17305,-0.142093,2.463,2.73178
-1.15654,-0.141055,2.445,2.70841
-1.1486,-0.141055,2.445,2.70503
-1.14067,-0.141055,2.445,2.70167
-1.12485,-0.140074,2.428,2.67957
-1.10915,-0.139094,2.411,2.65753
-1.10133,-0.139094,2.411,2.65428
-1.0935,-0.139094,2.411,2.65104
-1.07802,-0.138113,2.394,2.62915
-1.07025,-0.138113,2.394,2.62598
-1.06248,-0.138113,2.394,2.62282
-1.04722,-0.137132,2.377,2.60108
-1.03951,-0.137132,2.377,2.59798
-1.03179,-0.137132,2.377,2.5949
-1.02408,-0.137132,2.377,2.59185
-1.01636,-0.137132,2.377,2.58881
-1.00865,-0.137132,2.377,2.58579
-1.00093,-0.137132,2.377,2.58279
-0.993215,-0.137132,2.377,2.57981
-0.992548,-0.138113,2.394,2.59528
-0.984778,-0.138113,2.394,2.59232
-0.977007,-0.138113,2.394,2.58937
-0.969237,-0.138113,2.394,2.58645
-0.961466,-0.138113,2.394,2.58355
-0.953696,-0.138113,2.394,2.58067
-0.952643,-0.139094,2.411,2.59611
-0.944817,-0.139094,2.411,2.59325
-0.936992,-0.139094,2.411,2.59041
-0.922615,-0.138113,2.394,2.56934
-0.914845,-0.138113,2.394,2.56656
-0.907074,-0.138113,2.394,2.5638
-0.899304,-0.138113,2.394,2.56107
-0.891534,-0.138113,2.394,2.55835
-0.883763,-0.138113,2.394,2.55565
-0.875993,-0.138113,2.394,2.55297
-0.862057,-0.137132,2.377,2.53221
-0.854342,-0.137132,2.377,2.52959
-0.846627,-0.137132,2.377,2.527
-0.838912,-0.137132,2.377,2.52442
-0.825602,-0.136209,2.361,2.50489
-0.817938,-0.136209,2.361,2.50238
-0.810275,-0.136209,2.361,2.49988
-0.802612,-0.136209,2.361,2.49741
-0.794949,-0.136209,2.361,2.49496
-0.787286,-0.136209,2.361,2.49253
-0.779622,-0.136209,2.361,2.49012
-0.777191,-0.137132,2.377,2.50459
-0.769475,-0.137132,2.377,2.5022
-0.76176,-0.137132,2.377,2.49984
-0.754045,-0.137132,2.377,2.4975
-0.74633,-0.137132,2.377,2.49518
-0.738615,-0.137132,2.377,2.49289
-0.736127,-0.138113,2.394,2.50842
-0.728357,-0.138113,2.394,2.50616
-0.720586,-0.138113,2.394,2.50391
-0.712816,-0.138113,2.394,2.50168
-0.710052,-0.139094,2.411,2.51723
-0.702227,-0.139094,2.411,2.51503
-0.694401,-0.139094,2.411,2.51286
-0.686576,-0.139094,2.411,2.51071
-0.67875,-0.139094,2.411,2.50858
-0.675655,-0.140074,2.428,2.52415
-0.667775,-0.140074,2.428,2.52205
-0.659894,-0.140074,2.428,2.51997
-0.652013,-0.140074,2.428,2.51792
-0.644133,-0.140074,2.428,2.51589
-0.636252,-0.140074,2.428,2.51389
-0.628371,-0.140074,2.428,2.5119
-0.620491,-0.140074,2.428,2.50994
-0.616899,-0.141055,2.445,2.52557
-0.608963,-0.141055,2.445,2.52364
-0.601027,-0.141055,2.445,2.52174
-0.593092,-0.141055,2.445,2.51986
-0.585156,-0.141055,2.445,2.518
-0.57722,-0.141055,2.445,2.51617
-0.573475,-0.142093,2.463,2.53287
-0.565481,-0.142093,2.463,2.53107
-0.557486,-0.142093,2.463,2.5293
-0.549492,-0.142093,2.463,2.52755
-0.541498,-0.142093,2.463,2.52582
-0.533504,-0.142093,2.463,2.52412
-0.525509,-0.142093,2.463,2.52244
-0.521297,-0.143132,2.481,2.53921
-0.513244,-0.143132,2.481,2.53757
-0.505192,-0.143132,2.481,2.53595
-0.497139,-0.143132,2.481,2.53436
-0.489086,-0.143132,2.481,2.5328
-0.481034,-0.143132,2.481,2.53125
-0.472981,-0.143132,2.481,2.52974
-0.464928,-0.143132,2.481,2.52824
-0.456875,-0.143132,2.481,2.52677
-0.448823,-0.143132,2.481,2.52533
-0.443968,-0.14417,2.499,2.54222
-0.435857,-0.14417,2.499,2.54082
-0.427746,-0.14417,2.499,2.53944
-0.419634,-0.14417,2.499,2.53809
-0.411523,-0.14417,2.499,2.53676
-0.403412,-0.14417,2.499,2.53545
-0.395301,-0.14417,2.499,2.53418
-0.389979,-0.145209,2.517,2.55117
-0.379079,-0.14417,2.499,2.5317
-0.370968,-0.14417,2.499,2.53049
-0.36547,-0.145209,2.517,2.54754
-0.354745,-0.14417,2.499,2.52817
-0.346634,-0.14417,2.499,2.52704
-0.338523,-0.14417,2.499,2.52594
-0.330412,-0.14417,2.499,2.52487
-0.319979,-0.143132,2.481,2.50564
-0.311927,-0.143132,2.481,2.50463
-0.303874,-0.143132,2.481,2.50364
-0.295821,-0.143132,2.481,2.50267
-0.287769,-0.143132,2.481,2.50173
-0.279716,-0.143132,2.481,2.50082
-0.269692,-0.142093,2.463,2.48179
-0.261698,-0.142093,2.463,2.48094
-0.253704,-0.142093,2.463,2.48011
-0.243914,-0.141055,2.445,2.46118
-0.235978,-0.141055,2.445,2.46041
-0.228042,-0.141055,2.445,2.45966
-0.220106,-0.141055,2.445,2.45894
-0.21217,-0.141055,2.445,2.45824
-0.204234,-0.141055,2.445,2.45757
-0.196298,-0.141055,2.445,2.45692
-0.188363,-0.141055,2.445,2.4563
-0.180427,-0.141055,2.445,2.4557
-0.172491,-0.141055,2.445,2.45513
-0.164555,-0.141055,2.445,2.45459
-0.156619,-0.141055,2.445,2.45407
-0.148683,-0.141055,2.445,2.45357
-0.140747,-0.141055,2.445,2.45311
-0.132812,-0.141055,2.445,2.45266
-0.124876,-0.141055,2.445,2.45225
-0.11694,-0.141055,2.445,2.45186
-0.109004,-0.141055,2.445,2.45149
-0.101068,-0.141055,2.445,2.45115
-0.0931322,-0.141055,2.445,2.45084
-0.0851963,-0.141055,2.445,2.45055
-0.0772605,-0.141055,2.445,2.45028
-0.0693246,-0.141055,2.445,2.45005
-0.0613887,-0.141055,2.445,2.44983
-0.0534529,-0.141055,2.445,2.44965
-0.045517,-0.141055,2.445,2.44949
-0.0375812,-0.141055,2.445,2.44935
-0.0296453,-0.141055,2.445,2.44924
-0.0217094,-0.141055,2.445,2.44916
-0.0137736,-0.141055,2.445,2.4491
-0.00583771,-0.141055,2.445,2.44907
0.00209816,-0.141055,2.445,2.44907
0.010034,-0.141055,2.445,2.44909
0.0179699,-0.141055,2.445,2.44913
0.0257256,-0.140074,2.428,2.43217
0.0336063,-0.140074,2.428,2.43227
0.041487,-0.140074,2.428,2.43239
0.0493677,-0.140074,2.428,2.43254
0.0572484,-0.140074,2.428,2.43271
0.0655851,-0.141055,2.445,2.44994
0.0730097,-0.140074,2.428,2.43313
0.0808904,-0.140074,2.428,2.43338
0.0887711,-0.140074,2.428,2.43366
0.0966518,-0.140074,2.428,2.43396
0.104532,-0.140074,2.428,2.43428
0.112413,-0.140074,2.428,2.43463
0.120294,-0.140074,2.428,2.43501
0.127277,-0.139094,2.411,2.41836
0.135103,-0.139094,2.411,2.41878
0.142928,-0.139094,2.411,2.41923
0.150754,-0.139094,2.411,2.41971
0.159697,-0.140074,2.428,2.43727
0.167578,-0.140074,2.428,2.4378
0.175459,-0.140074,2.428,2.43836
0.183339,-0.140074,2.428,2.43894
0.192559,-0.141055,2.445,2.45662
0.200495,-0.141055,2.445,2.45726
0.208431,-0.141055,2.445,2.45792
0.216366,-0.141055,2.445,2.4586
0.224302,-0.141055,2.445,2.45932
0.232238,-0.141055,2.445,2.46005
0.240174,-0.141055,2.445,2.46081
0.24811,-0.141055,2.445,2.4616
0.256046,-0.141055,2.445,2.46241
0.263982,-0.141055,2.445,2.46325
0.273919,-0.142093,2.463,2.48226
0.281914,-0.142093,2.463,2.48315
0.289908,-0.142093,2.463,2.48407
0.297902,-0.142093,2.463,2.48502
0.305896,-0.142093,2.463,2.48599
0.313891,-0.142093,2.463,2.48698
0.324237,-0.143132,2.481,2.50619
0.33229,-0.143132,2.481,2.50724
0.340343,-0.143132,2.481,2.50832
0.348396,-0.143132,2.481,2.50943
0.356448,-0.143132,2.481,2.51056
0.364501,-0.143132,2.481,2.51171
0.372554,-0.143132,2.481,2.5129
0.380606,-0.143132,2.481,2.5141
0.388659,-0.143132,2.481,2.51533
0.396712,-0.143132,2.481,2.51659
0.404765,-0.143132,2.481,2.51787
0.412817,-0.143132,2.481,2.51918
0.417816,-0.142093,2.463,2.50223
0.425811,-0.142093,2.463,2.50357
0.433805,-0.142093,2.463,2.50494
0.441799,-0.142093,2.463,2.50634
0.446507,-0.141055,2.445,2.48944
0.454442,-0.141055,2.445,2.49087
0.462378,-0.141055,2.445,2.49233
0.470314,-0.141055,2.445,2.49382
0.47825,-0.141055,2.445,2.49532
0.482805,-0.140074,2.428,2.4795
0.490686,-0.140074,2.428,2.48104
0.498567,-0.140074,2.428,2.48261
0.506447,-0.140074,2.428,2.48421
0.514328,-0.140074,2.428,2.48583
0.525865,-0.141055,2.445,2.50489
0.533801,-0.141055,2.445,2.50656
0.541737,-0.141055,2.445,2.50827
0.549673,-0.141055,2.445,2.50999
0.557609,-0.141055,2.445,2.51174
0.565544,-0.141055,2.445,2.51352
0.57348,-0.141055,2.445,2.51531
0.585697,-0.142093,2.463,2.53567
0.593691,-0.142093,2.463,2.53752
0.601685,-0.142093,2.463,2.53941
0.609679,-0.142093,2.463,2.54131
0.617674,-0.142093,2.463,2.54324
0.625668,-0.142093,2.463,2.5452
0.633662,-0.142093,2.463,2.54717
0.641657,-0.142093,2.463,2.54917
0.649651,-0.142093,2.463,2.5512
0.657645,-0.142093,2.463,2.55324
0.665639,-0.142093,2.463,2.55532
0.673634,-0.142093,2.463,2.55741
0.681628,-0.142093,2.463,2.55953
0.689622,-0.142093,2.463,2.56167
0.697617,-0.142093,2.463,2.56383
0.705611,-0.142093,2.463,2.56602
0.713605,-0.142093,2.463,2.56823
0.721599,-0.142093,2.463,2.57046
0.729594,-0.142093,2.463,2.57272
0.737588,-0.142093,2.463,2.57499
0.751031,-0.143132,2.481,2.59613
0.759084,-0.143132,2.481,2.59847
0.767137,-0.143132,2.481,2.60084
0.775189,-0.143132,2.481,2.60322
0.783242,-0.143132,2.481,2.60563
0.791295,-0.143132,2.481,2.60806
0.799347,-0.143132,2.481,2.61052
0.8074,-0.143132,2.481,2.613
0.821369,-0.14417,2.499,2.63447
0.82948,-0.14417,2.499,2.63701
0.837591,-0.14417,2.499,2.63957
0.845702,-0.14417,2.499,2.64216
0.853814,-0.14417,2.499,2.64477
0.868133,-0.145209,2.517,2.66646
0.876303,-0.145209,2.517,2.66914
0.878147,-0.14417,2.499,2.65272
0.886258,-0.14417,2.499,2.65542
0.894369,-0.14417,2.499,2.65814
0.908981,-0.145209,2.517,2.68004
0.91715,-0.145209,2.517,2.68282
0.918703,-0.14417,2.499,2.66642
0.926814,-0.14417,2.499,2.66923
0.928191,-0.143132,2.481,2.65281
0.936243,-0.143132,2.481,2.65564
0.944296,-0.143132,2.481,2.65849
0.945439,-0.142093,2.463,2.64205
0.953434,-0.142093,2.463,2.64492
0.961428,-0.142093,2.463,2.64781
0.962338,-0.141055,2.445,2.63135
0.970273,-0.141055,2.445,2.63427
0.978209,-0.141055,2.445,2.6372
nan,nan,nan,NaN
nan,nan,nan,NaN
0.99505,-0.140074,2.428,2.62772
1.00293,-0.140074,2.428,2.63072
nan,nan,nan,NaN
nan,nan,nan,NaN
nan,nan,nan,NaN
nan,nan,nan,NaN
nan,nan,nan,NaN
nan,nan,nan,NaN
nan,nan,nan,NaN
nan,nan,nan,NaN
nan,nan,nan,NaN
nan,nan,nan,NaN
nan,nan,nan,NaN
nan,nan,nan,NaN
nan,nan,nan,NaN
nan,nan,nan,NaN
nan,nan,nan,NaN
nan,nan,nan,NaN
nan,nan,nan,NaN
nan,nan,nan,NaN
nan,nan,nan,NaN
nan,nan,nan,NaN
nan,nan,nan,NaN
nan,nan,nan,NaN
1.68654,-0.199496,3.458,3.85253
1.69776,-0.199496,3.458,3.85746
nan,nan,nan,NaN
nan,nan,nan,NaN
nan,nan,nan,NaN
nan,nan,nan,NaN
nan,nan,nan,NaN
nan,nan,nan,NaN
nan,nan,nan,NaN
nan,nan,nan,NaN
nan,nan,nan,NaN
nan,nan,nan,NaN
nan,nan,nan,NaN
nan,nan,nan,NaN
1.88153,-0.203592,3.529,4.00443
1.89298,-0.203592,3.529,4.00982
1.9244,-0.205727,3.566,4.05734
1.93598,-0.205727,3.566,4.06284
1.9683,-0.207919,3.604,4.11172
1.98,-0.207919,3.604,4.11734
1.9917,-0.207919,3.604,4.12297
2.0034,-0.207919,3.604,4.12864
2.0151,-0.207919,3.604,4.13433
2.00542,-0.205727,3.566,4.09639
2.017,-0.205727,3.566,4.10207
2.02857,-0.205727,3.566,4.10777
2.01898,-0.203592,3.529,4.07082
2.03043,-0.203592,3.529,4.07651
2.02106,-0.201515,3.493,4.04059
2.03239,-0.201515,3.493,4.04627
2.04373,-0.201515,3.493,4.05197
2.01389,-0.197477,3.423,3.97639
2.025,-0.197477,3.423,3.98203
2.01588,-0.195516,3.389,3.94808
1.98801,-0.191766,3.324,3.87788
1.99879,-0.191766,3.324,3.88342
1.99024,-0.189919,3.292,3.85154
1.96324,-0.186343,3.23,3.78443
1.97372,-0.186343,3.23,3.78988
1.96516,-0.184554,3.199,3.75893
1.93973,-0.181208,3.141,3.69611
1.94992,-0.181208,3.141,3.70147
1.92455,-0.17792,3.084,3.63959
1.91762,-0.176362,3.057,3.61298
1.92754,-0.176362,3.057,3.61826
1.90324,-0.173247,3.003,3.55954
1.89642,-0.171747,2.977,3.5339
1.88944,-0.170247,2.951,3.50819
1.89902,-0.170247,2.951,3.51335
1.87626,-0.167362,2.901,3.45892
1.87007,-0.165978,2.877,3.43538
1.87941,-0.165978,2.877,3.44047
1.87299,-0.164593,2.853,3.41684
1.86642,-0.163208,2.829,3.39314
1.8756,-0.163208,2.829,3.3982
1.86946,-0.161882,2.806,3.37561
1.86317,-0.160555,2.783,3.35295
1.8722,-0.160555,2.783,3.35798
1.85149,-0.158016,2.739,3.30985
