-1.36738,-0.85928,2.654,3.10674
-1.35877,-0.85928,2.654,3.10296
-1.33947,-0.852481,2.633,3.07467
-1.32082,-0.846005,2.613,3.04763
-1.31234,-0.846005,2.613,3.04396
-1.28439,-0.833378,2.574,2.99494
-1.26662,-0.827227,2.555,2.96929
-1.25833,-0.827227,2.555,2.96576
-1.25003,-0.827227,2.555,2.96225
nan,nan,nan,NaN
-1.22428,-0.821075,2.536,2.93331
-1.1983,-0.809096,2.499,2.88714
-1.18162,-0.803268,2.481,2.86301
-1.17357,-0.803268,2.481,2.8597
-1.16551,-0.803268,2.481,2.8564
-1.15746,-0.803268,2.481,2.85312
nan,nan,nan,NaN
nan,nan,nan,NaN
nan,nan,nan,NaN
nan,nan,nan,NaN
nan,nan,nan,NaN
nan,nan,nan,NaN
nan,nan,nan,NaN
nan,nan,nan,NaN
nan,nan,nan,NaN
-1.10081,-0.821075,2.536,2.88396
-1.09258,-0.821075,2.536,2.88083
-1.10059,-0.833378,2.574,2.92084
-1.08418,-0.827227,2.555,2.89616
-1.07588,-0.827227,2.555,2.89307
-1.06759,-0.827227,2.555,2.89
-1.0593,-0.827227,2.555,2.88694
-1.05882,-0.833378,2.574,2.90536
-1.05047,-0.833378,2.574,2.90232
-1.04211,-0.833378,2.574,2.89931
-1.03376,-0.833378,2.574,2.89632
-1.0254,-0.833378,2.574,2.89335
-1.02456,-0.83953,2.593,2.91173
-1.01614,-0.83953,2.593,2.90878
-1.0155,-0.846005,2.613,2.92826
-1.00701,-0.846005,2.613,2.92533
-0.998533,-0.846005,2.613,2.92242
-0.99763,-0.852481,2.633,2.94188
-0.996973,-0.85928,2.654,2.96244
-0.996179,-0.866079,2.675,2.98297
-0.987496,-0.866079,2.675,2.98008
-0.986498,-0.872878,2.696,3.00059
-0.985364,-0.879677,2.717,3.02107
-0.976545,-0.879677,2.717,3.01821
-0.967726,-0.879677,2.717,3.01536
-0.958908,-0.879677,2.717,3.01254
-0.950089,-0.879677,2.717,3.00975
-0.94127,-0.879677,2.717,3.00698
-0.932451,-0.879677,2.717,3.00423
-0.923633,-0.879677,2.717,3.0015
-0.914814,-0.879677,2.717,2.9988
-0.898993,-0.872878,2.696,2.97296
-0.890242,-0.872878,2.696,2.97033
-0.874625,-0.866079,2.675,2.9446
-0.859145,-0.85928,2.654,2.91894
-0.850531,-0.85928,2.654,2.91642
-0.835255,-0.852481,2.633,2.89086
-0.826709,-0.852481,2.633,2.8884
-0.811948,-0.846005,2.613,2.86405
-0.803467,-0.846005,2.613,2.86165
-0.794986,-0.846005,2.613,2.85928
-0.780485,-0.83953,2.593,2.83507
-0.772068,-0.83953,2.593,2.83276
-0.763652,-0.83953,2.593,2.83048
-0.755236,-0.83953,2.593,2.82822
-0.74682,-0.83953,2.593,2.82599
-0.738403,-0.83953,2.593,2.82377
-0.735618,-0.846005,2.613,2.84335
-0.727137,-0.846005,2.613,2.84117
-0.718655,-0.846005,2.613,2.83901
-0.710174,-0.846005,2.613,2.83687
-0.701693,-0.846005,2.613,2.83476
-0.698518,-0.852481,2.633,2.85435
-0.684731,-0.846005,2.613,2.83061
-0.67625,-0.846005,2.613,2.82857
-0.667768,-0.846005,2.613,2.82655
-0.659287,-0.846005,2.613,2.82456
-0.645825,-0.83953,2.593,2.80099
-0.637409,-0.83953,2.593,2.79906
-0.628992,-0.83953,2.593,2.79716
-0.616029,-0.833378,2.574,2.7748
-0.603189,-0.827227,2.555,2.75248
-0.594896,-0.827227,2.555,2.75068
-0.582241,-0.821075,2.536,2.72845
-0.57401,-0.821075,2.536,2.72671
-0.565778,-0.821075,2.536,2.72499
-0.557547,-0.821075,2.536,2.72329
-0.5452,-0.814924,2.517,2.70123
-0.537031,-0.814924,2.517,2.69959
-0.525079,-0.809096,2.499,2.67868
-0.516968,-0.809096,2.499,2.67711
-0.512522,-0.814924,2.517,2.69482
-0.504353,-0.814924,2.517,2.69328
-0.496183,-0.814924,2.517,2.69176
-0.484524,-0.809096,2.499,2.67103
-0.476412,-0.809096,2.499,2.66957
-0.468301,-0.809096,2.499,2.66813
-0.463505,-0.814924,2.517,2.68593
-0.455335,-0.814924,2.517,2.68453
-0.447166,-0.814924,2.517,2.68316
-0.44231,-0.821075,2.536,2.70205
-0.437331,-0.827227,2.555,2.72095
-0.429038,-0.827227,2.555,2.71963
-0.420745,-0.827227,2.555,2.71834
-0.415519,-0.833378,2.574,2.73727
-0.407165,-0.833378,2.574,2.73602
-0.39881,-0.833378,2.574,2.73478
-0.393338,-0.83953,2.593,2.75376
-0.384922,-0.83953,2.593,2.75257
-0.376505,-0.83953,2.593,2.7514
-0.368089,-0.83953,2.593,2.75026
-0.359673,-0.83953,2.593,2.74915
-0.348683,-0.833378,2.574,2.72793
-0.340328,-0.833378,2.574,2.72687
-0.331974,-0.833378,2.574,2.72584
-0.32123,-0.827227,2.555,2.70472
-0.312937,-0.827227,2.555,2.70375
-0.304645,-0.827227,2.555,2.7028
-0.296352,-0.827227,2.555,2.70188
-0.285917,-0.821075,2.536,2.6809
-0.277685,-0.821075,2.536,2.68003
-0.269454,-0.821075,2.536,2.67919
-0.261223,-0.821075,2.536,2.67838
-0.252992,-0.821075,2.536,2.67759
-0.244761,-0.821075,2.536,2.67682
-0.236529,-0.821075,2.536,2.67608
-0.228298,-0.821075,2.536,2.67537
-0.220067,-0.821075,2.536,2.67468
-0.211836,-0.821075,2.536,2.67401
-0.203604,-0.821075,2.536,2.67337
-0.195373,-0.821075,2.536,2.67276
-0.187142,-0.821075,2.536,2.67217
-0.178911,-0.821075,2.536,2.6716
-0.170679,-0.821075,2.536,2.67107
-0.162448,-0.821075,2.536,2.67055
-0.154217,-0.821075,2.536,2.67006
-0.145986,-0.821075,2.536,2.6696
-0.137755,-0.821075,2.536,2.66916
-0.129523,-0.821075,2.536,2.66875
-0.121292,-0.821075,2.536,2.66837
-0.113061,-0.821075,2.536,2.668
-0.10483,-0.821075,2.536,2.66767
-0.0965985,-0.821075,2.536,2.66736
-0.0883672,-0.821075,2.536,2.66707
-0.080136,-0.821075,2.536,2.66681
-0.0719048,-0.821075,2.536,2.66658
-0.0641506,-0.827227,2.555,2.68634
-0.0558577,-0.827227,2.555,2.68616
-0.0475648,-0.827227,2.555,2.686
-0.0392719,-0.827227,2.555,2.68587
-0.030979,-0.827227,2.555,2.68576
-0.0228548,-0.833378,2.574,2.70565
-0.0145003,-0.833378,2.574,2.70559
-0.00614571,-0.833378,2.574,2.70556
0.00220886,-0.833378,2.574,2.70555
0.0105634,-0.833378,2.574,2.70557
0.0190576,-0.83953,2.593,2.72559
0.0274739,-0.83953,2.593,2.72566
0.0358901,-0.83953,2.593,2.72576
0.0443063,-0.83953,2.593,2.72588
0.0527226,-0.83953,2.593,2.72603
0.0611388,-0.83953,2.593,2.72621
0.069555,-0.83953,2.593,2.72641
0.0779713,-0.83953,2.593,2.72664
0.0863875,-0.83953,2.593,2.72689
0.0948037,-0.83953,2.593,2.72717
0.10322,-0.83953,2.593,2.72747
0.111636,-0.83953,2.593,2.72781
0.120052,-0.83953,2.593,2.72816
0.12946,-0.846005,2.613,2.74959
0.137941,-0.846005,2.613,2.75
0.146422,-0.846005,2.613,2.75044
0.154903,-0.846005,2.613,2.75091
0.163384,-0.846005,2.613,2.7514
0.171865,-0.846005,2.613,2.75191
0.180346,-0.846005,2.613,2.75246
0.188828,-0.846005,2.613,2.75303
0.198819,-0.852481,2.633,2.7747
0.207365,-0.852481,2.633,2.77532
0.215911,-0.852481,2.633,2.77597
0.224457,-0.852481,2.633,2.77665
0.231233,-0.846005,2.613,2.75626
0.239715,-0.846005,2.613,2.75698
0.246296,-0.83953,2.593,2.73663
0.254712,-0.83953,2.593,2.7374
0.263128,-0.83953,2.593,2.73819
0.271545,-0.83953,2.593,2.73901
0.279961,-0.83953,2.593,2.73986
0.286264,-0.833378,2.574,2.72065
0.294619,-0.833378,2.574,2.72154
0.30521,-0.83953,2.593,2.74256
0.311328,-0.833378,2.574,2.7234
0.319682,-0.833378,2.574,2.72437
0.328037,-0.833378,2.574,2.72536
0.336391,-0.833378,2.574,2.72638
0.344746,-0.833378,2.574,2.72742
0.353101,-0.833378,2.574,2.72849
0.361455,-0.833378,2.574,2.72959
0.36981,-0.833378,2.574,2.73071
0.378164,-0.833378,2.574,2.73185
0.386519,-0.833378,2.574,2.73302
0.394873,-0.833378,2.574,2.73421
0.406204,-0.83953,2.593,2.75562
0.414621,-0.83953,2.593,2.75688
0.423037,-0.83953,2.593,2.75816
0.434781,-0.846005,2.613,2.78074
0.443262,-0.846005,2.613,2.78208
0.455201,-0.852481,2.633,2.80475
0.463747,-0.852481,2.633,2.80615
0.472293,-0.852481,2.633,2.80757
0.480839,-0.852481,2.633,2.80902
0.489385,-0.852481,2.633,2.8105
0.501903,-0.85928,2.654,2.83443
0.510517,-0.85928,2.654,2.83597
0.519131,-0.85928,2.654,2.83753
0.523569,-0.852481,2.633,2.81665
0.532115,-0.852481,2.633,2.81825
0.540662,-0.852481,2.633,2.81988
0.549208,-0.852481,2.633,2.82153
0.54928,-0.83953,2.593,2.78032
0.557697,-0.83953,2.593,2.78199
0.566113,-0.83953,2.593,2.78369
0.570319,-0.833378,2.574,2.76501
0.578674,-0.833378,2.574,2.76674
0.587028,-0.833378,2.574,2.7685
0.586593,-0.821075,2.536,2.72939
0.594824,-0.821075,2.536,2.73117
0.603056,-0.821075,2.536,2.73297
0.606707,-0.814924,2.517,2.71431
0.614877,-0.814924,2.517,2.71615
0.618591,-0.809096,2.499,2.69857
0.626702,-0.809096,2.499,2.70044
0.634813,-0.809096,2.499,2.70234
0.642924,-0.809096,2.499,2.70425
0.651035,-0.809096,2.499,2.70619
0.659146,-0.809096,2.499,2.70816
0.667257,-0.809096,2.499,2.71014
0.670504,-0.803268,2.481,2.69262
0.678557,-0.803268,2.481,2.69463
0.686609,-0.803268,2.481,2.69667
0.694662,-0.803268,2.481,2.69873
0.702715,-0.803268,2.481,2.70082
0.710768,-0.803268,2.481,2.70292
0.71882,-0.803268,2.481,2.70505
0.726873,-0.803268,2.481,2.7072
0.729594,-0.79744,2.463,2.68972
0.737588,-0.79744,2.463,2.6919
0.745582,-0.79744,2.463,2.6941
0.753577,-0.79744,2.463,2.69632
0.761571,-0.79744,2.463,2.69857
0.769565,-0.79744,2.463,2.70084
0.783242,-0.803268,2.481,2.72288
0.791295,-0.803268,2.481,2.72521
0.799347,-0.803268,2.481,2.72756
0.8074,-0.803268,2.481,2.72993
0.815453,-0.803268,2.481,2.73232
0.823505,-0.803268,2.481,2.73473
0.831558,-0.803268,2.481,2.73717
0.839611,-0.803268,2.481,2.73963
0.847664,-0.803268,2.481,2.7421
0.855716,-0.803268,2.481,2.7446
0.863769,-0.803268,2.481,2.74713
0.871822,-0.803268,2.481,2.74967
0.879874,-0.803268,2.481,2.75223
0.894369,-0.809096,2.499,2.7748
0.90248,-0.809096,2.499,2.77743
0.910591,-0.809096,2.499,2.78007
0.918703,-0.809096,2.499,2.78274
0.926814,-0.809096,2.499,2.78543
nan,nan,nan,NaN
nan,nan,nan,NaN
nan,nan,nan,NaN
nan,nan,nan,NaN
nan,nan,nan,NaN
nan,nan,nan,NaN
nan,nan,nan,NaN
nan,nan,nan,NaN
nan,nan,nan,NaN
nan,nan,nan,NaN
nan,nan,nan,NaN
nan,nan,nan,NaN
nan,nan,nan,NaN
nan,nan,nan,NaN
nan,nan,nan,NaN
nan,nan,nan,NaN
nan,nan,nan,NaN
nan,nan,nan,NaN
nan,nan,nan,NaN
nan,nan,nan,NaN
nan,nan,nan,NaN
nan,nan,nan,NaN
nan,nan,nan,NaN
nan,nan,nan,NaN
1.41979,-1.01695,3.141,3.59387
1.42998,-1.01695,3.141,3.59791
1.44018,-1.01695,3.141,3.60197
1.45037,-1.01695,3.141,3.60606
1.46057,-1.01695,3.141,3.61017
1.47076,-1.01695,3.141,3.61431
1.48096,-1.01695,3.141,3.61847
1.49115,-1.01695,3.141,3.62265
1.50135,-1.01695,3.141,3.62686
1.51154,-1.01695,3.141,3.63109
1.52174,-1.01695,3.141,3.63535
1.53193,-1.01695,3.141,3.63963
1.54213,-1.01695,3.141,3.64393
1.55232,-1.01695,3.141,3.64826
1.56252,-1.01695,3.141,3.65261
1.57271,-1.01695,3.141,3.65698
1.58291,-1.01695,3.141,3.66138
1.5931,-1.01695,3.141,3.66579
1.6181,-1.02634,3.17,3.70412
1.64328,-1.03573,3.199,3.74256
1.65367,-1.03573,3.199,3.74713
1.68018,-1.04577,3.23,3.78808
1.70636,-1.05548,3.26,3.82797
1.71694,-1.05548,3.26,3.83269
1.72753,-1.05548,3.26,3.83745
1.77223,-1.0762,3.324,3.91765
1.78302,-1.0762,3.324,3.92254
1.81108,-1.08656,3.356,3.96527
1.87734,-1.11959,3.458,4.09092
1.90768,-1.13092,3.493,4.13755
1.91902,-1.13092,3.493,4.14279
1.95025,-1.14258,3.529,4.1908
1.96171,-1.14258,3.529,4.19614
1.97316,-1.14258,3.529,4.20151
1.98461,-1.14258,3.529,4.2069
1.99607,-1.14258,3.529,4.21232
2.00752,-1.14258,3.529,4.21776
2.04015,-1.15456,3.566,4.2675
2.05172,-1.15456,3.566,4.27305
2.06329,-1.15456,3.566,4.27861
2.05334,-1.14258,3.529,4.23976
2.06479,-1.14258,3.529,4.24532
2.07625,-1.14258,3.529,4.2509
2.06641,-1.13092,3.493,4.21308
2.03611,-1.10826,3.423,4.13411
2.04722,-1.10826,3.423,4.1396
2.03788,-1.09725,3.389,4.10393
2.02893,-1.08656,3.356,4.06939
2.03982,-1.08656,3.356,4.07483
2.01161,-1.06584,3.292,4.00248
2.00264,-1.05548,3.26,3.9689
2.01322,-1.05548,3.26,3.97425
1.98593,-1.03573,3.199,3.90516
1.96012,-1.01695,3.141,3.83955
1.97031,-1.01695,3.141,3.84476
1.94457,-0.9985,3.084,3.78013
1.92035,-0.981017,3.03,3.71901
1.91299,-0.972275,3.003,3.69091
1.92273,-0.972275,3.003,3.69598
1.93248,-0.972275,3.003,3.70106
1.92541,-0.963857,2.977,3.67407
1.93508,-0.963857,2.977,3.67914
1.92775,-0.955439,2.951,3.65205
1.92092,-0.947345,2.926,3.62614
1.93042,-0.947345,2.926,3.63118
1.92334,-0.93925,2.901,3.60517
1.93275,-0.93925,2.901,3.6102
1.94217,-0.93925,2.901,3.61525
1.93544,-0.93148,2.877,3.59036
1.92856,-0.92371,2.853,3.56541
1.93782,-0.92371,2.853,3.57043
-2.39893,-1.10837,3.458,4.35214
-2.36354,-1.09715,3.423,4.30197
-2.32906,-1.08625,3.389,4.25321
-2.31806,-1.08625,3.389,4.2472
-2.30706,-1.08625,3.389,4.2412
-2.2737,-1.07568,3.356,4.19399
-2.26281,-1.07568,3.356,4.18809
-2.25192,-1.07568,3.356,4.18222
-2.21966,-1.06542,3.324,4.13654
-2.20887,-1.06542,3.324,4.13076
-2.19808,-1.06542,3.324,4.125
-2.18729,-1.06542,3.324,4.11926
-2.1765,-1.06542,3.324,4.11354
-2.16571,-1.06542,3.324,4.10785
-2.15492,-1.06542,3.324,4.10217
-2.14413,-1.06542,3.324,4.09651
-2.15388,-1.07568,3.356,4.13026
-2.14299,-1.07568,3.356,4.12459
-2.11177,-1.06542,3.324,4.07966
-2.10098,-1.06542,3.324,4.07409
-2.11031,-1.07568,3.356,4.1077
-2.09942,-1.07568,3.356,4.10212
-2.08853,-1.07568,3.356,4.09655
-2.07763,-1.07568,3.356,4.09101
-2.06674,-1.07568,3.356,4.08549
-2.05585,-1.07568,3.356,4.07999
-2.04496,-1.07568,3.356,4.07451
-2.03406,-1.07568,3.356,4.06906
-2.02317,-1.07568,3.356,4.06362
nan,nan,nan,NaN
nan,nan,nan,NaN
nan,nan,nan,NaN
nan,nan,nan,NaN
nan,nan,nan,NaN
nan,nan,nan,NaN
nan,nan,nan,NaN
nan,nan,nan,NaN
nan,nan,nan,NaN
nan,nan,nan,NaN
nan,nan,nan,NaN
nan,nan,nan,NaN
nan,nan,nan,NaN
nan,nan,nan,NaN
nan,nan,nan,NaN
nan,nan,nan,NaN
nan,nan,nan,NaN
nan,nan,nan,NaN
nan,nan,nan,NaN
nan,nan,nan,NaN
nan,nan,nan,NaN
nan,nan,nan,NaN
nan,nan,nan,NaN
nan,nan,nan,NaN
nan,nan,nan,NaN
-1.40866,-0.870861,2.717,3.18195
-1.38902,-0.86413,2.696,3.15349
-1.38027,-0.86413,2.696,3.14965
-1.37152,-0.86413,2.696,3.14582
-1.34154,-0.850668,2.654,3.09307
-1.33293,-0.850668,2.654,3.08934
-1.30385,-0.837527,2.613,3.03797
-1.28546,-0.831116,2.593,3.01111
-1.27704,-0.831116,2.593,3.00753
-1.26863,-0.831116,2.593,3.00397
nan,nan,nan,NaN
-1.22428,-0.812846,2.536,2.93102
-1.21605,-0.812846,2.536,2.92759
-1.19876,-0.806756,2.517,2.90227
-1.17357,-0.795217,2.481,2.85745
-1.16551,-0.795217,2.481,2.85415
-1.15746,-0.795217,2.481,2.85087
nan,nan,nan,NaN
nan,nan,nan,NaN
nan,nan,nan,NaN
nan,nan,nan,NaN
nan,nan,nan,NaN
nan,nan,nan,NaN
nan,nan,nan,NaN
nan,nan,nan,NaN
nan,nan,nan,NaN
nan,nan,nan,NaN
nan,nan,nan,NaN
nan,nan,nan,NaN
-1.08418,-0.818936,2.555,2.89381
-1.07588,-0.818936,2.555,2.89071
-1.06759,-0.818936,2.555,2.88763
-1.0593,-0.818936,2.555,2.88458
-1.05882,-0.825026,2.574,2.90297
-1.05047,-0.825026,2.574,2.89994
-1.04211,-0.825026,2.574,2.89692
-1.03376,-0.825026,2.574,2.89392
-1.0254,-0.825026,2.574,2.89095
-1.02456,-0.831116,2.593,2.90932
-1.01614,-0.831116,2.593,2.90636
-1.0155,-0.837527,2.613,2.92582
-1.00701,-0.837527,2.613,2.92289
-0.998533,-0.837527,2.613,2.91998
-0.99763,-0.843937,2.633,2.93942
-0.996973,-0.850668,2.654,2.95995
-0.988358,-0.850668,2.654,2.95706
-0.979744,-0.850668,2.654,2.95419
-0.978814,-0.857399,2.675,2.9747
-0.985364,-0.870861,2.717,3.01851
-0.976545,-0.870861,2.717,3.01565
-0.960247,-0.86413,2.696,2.98952
-0.951496,-0.86413,2.696,2.98672
-0.942746,-0.86413,2.696,2.98394
-0.933995,-0.86413,2.696,2.98119
-0.932451,-0.870861,2.717,3.00166
-0.923633,-0.870861,2.717,2.99893
-0.907743,-0.86413,2.696,2.97307
-0.89199,-0.857399,2.675,2.94727
-0.883308,-0.857399,2.675,2.94465
-0.867759,-0.850668,2.654,2.91897
-0.852347,-0.843937,2.633,2.89334
-0.843801,-0.843937,2.633,2.89083
-0.82891,-0.837527,2.613,2.86641
-0.820429,-0.837527,2.613,2.86397
-0.811948,-0.837527,2.613,2.86155
-0.803467,-0.837527,2.613,2.85916
-0.788901,-0.831116,2.593,2.83492
-0.780485,-0.831116,2.593,2.83259
-0.772068,-0.831116,2.593,2.83028
-0.763652,-0.831116,2.593,2.828
-0.755236,-0.831116,2.593,2.82574
-0.74682,-0.831116,2.593,2.8235
-0.738403,-0.831116,2.593,2.82128
-0.729987,-0.831116,2.593,2.81909
-0.721571,-0.831116,2.593,2.81693
-0.713155,-0.831116,2.593,2.81478
-0.710174,-0.837527,2.613,2.83435
-0.701693,-0.837527,2.613,2.83224
-0.693212,-0.837527,2.613,2.83015
-0.67949,-0.831116,2.593,2.80644
-0.671074,-0.831116,2.593,2.80441
-0.662657,-0.831116,2.593,2.80241
-0.654241,-0.831116,2.593,2.80043
-0.645825,-0.831116,2.593,2.79848
-0.637409,-0.831116,2.593,2.79655
-0.628992,-0.831116,2.593,2.79464
-0.616029,-0.825026,2.574,2.7723
-0.603189,-0.818936,2.555,2.75
-0.594896,-0.818936,2.555,2.7482
-0.582241,-0.812846,2.536,2.72599
-0.569709,-0.806756,2.517,2.70383
-0.561539,-0.806756,2.517,2.70212
-0.55337,-0.806756,2.517,2.70044
-0.5452,-0.806756,2.517,2.69878
-0.537031,-0.806756,2.517,2.69714
-0.525079,-0.800987,2.499,2.67625
-0.516968,-0.800987,2.499,2.67467
-0.512522,-0.806756,2.517,2.69236
-0.504353,-0.806756,2.517,2.69082
-0.492635,-0.800987,2.499,2.67007
-0.484524,-0.800987,2.499,2.66858
-0.476412,-0.800987,2.499,2.66712
-0.468301,-0.800987,2.499,2.66569
-0.46019,-0.800987,2.499,2.66427
-0.452079,-0.800987,2.499,2.66288
-0.443968,-0.800987,2.499,2.66152
-0.438996,-0.806756,2.517,2.67934
-0.434079,-0.812846,2.536,2.69823
-0.425848,-0.812846,2.536,2.69692
-0.420745,-0.818936,2.555,2.71583
-0.412452,-0.818936,2.555,2.71455
-0.404159,-0.818936,2.555,2.71331
-0.395866,-0.818936,2.555,2.71208
-0.390456,-0.825026,2.574,2.73104
-0.382101,-0.825026,2.574,2.72986
-0.373747,-0.825026,2.574,2.72871
-0.368089,-0.831116,2.593,2.74771
-0.359673,-0.831116,2.593,2.74659
-0.348683,-0.825026,2.574,2.72539
-0.340328,-0.825026,2.574,2.72433
-0.331974,-0.825026,2.574,2.7233
-0.32123,-0.818936,2.555,2.7022
-0.312937,-0.818936,2.555,2.70122
-0.304645,-0.818936,2.555,2.70028
-0.296352,-0.818936,2.555,2.69935
-0.288059,-0.818936,2.555,2.69846
-0.279766,-0.818936,2.555,2.69758
-0.271473,-0.818936,2.555,2.69673
-0.26318,-0.818936,2.555,2.69591
-0.254887,-0.818936,2.555,2.69512
-0.246594,-0.818936,2.555,2.69434
-0.238301,-0.818936,2.555,2.6936
-0.230009,-0.818936,2.555,2.69288
-0.221716,-0.818936,2.555,2.69218
-0.213423,-0.818936,2.555,2.69151
-0.20513,-0.818936,2.555,2.69087
-0.196837,-0.818936,2.555,2.69025
-0.188544,-0.818936,2.555,2.68965
-0.180251,-0.818936,2.555,2.68908
-0.171958,-0.818936,2.555,2.68854
-0.163665,-0.818936,2.555,2.68802
-0.155372,-0.818936,2.555,2.68753
-0.145986,-0.812846,2.536,2.66708
-0.137755,-0.812846,2.536,2.66664
-0.129523,-0.812846,2.536,2.66623
-0.121292,-0.812846,2.536,2.66584
-0.113061,-0.812846,2.536,2.66548
-0.10483,-0.812846,2.536,2.66515
-0.0965985,-0.812846,2.536,2.66483
-0.0883672,-0.812846,2.536,2.66455
-0.080136,-0.812846,2.536,2.66429
-0.0719048,-0.812846,2.536,2.66405
-0.0641506,-0.818936,2.555,2.6838
-0.0558577,-0.818936,2.555,2.68362
-0.0475648,-0.818936,2.555,2.68346
-0.0392719,-0.818936,2.555,2.68332
-0.030979,-0.818936,2.555,2.68321
-0.0228548,-0.825026,2.574,2.70308
-0.0145003,-0.825026,2.574,2.70303
-0.00614571,-0.825026,2.574,2.703
0.00220886,-0.825026,2.574,2.70299
0.0105634,-0.825026,2.574,2.70301
0.018918,-0.825026,2.574,2.70305
0.0272725,-0.825026,2.574,2.70313
0.0356271,-0.825026,2.574,2.70322
0.0439817,-0.825026,2.574,2.70335
0.0527226,-0.831116,2.593,2.72345
0.0611388,-0.831116,2.593,2.72363
0.069555,-0.831116,2.593,2.72383
0.0779713,-0.831116,2.593,2.72406
0.0863875,-0.831116,2.593,2.72431
0.0948037,-0.831116,2.593,2.72459
0.10322,-0.831116,2.593,2.7249
0.112497,-0.837527,2.613,2.74625
0.120978,-0.837527,2.613,2.74661
0.12946,-0.837527,2.613,2.74699
0.137941,-0.837527,2.613,2.74741
0.146422,-0.837527,2.613,2.74785
0.154903,-0.837527,2.613,2.74831
0.163384,-0.837527,2.613,2.7488
0.171865,-0.837527,2.613,2.74932
0.180346,-0.837527,2.613,2.74986
0.188828,-0.837527,2.613,2.75043
0.198819,-0.843937,2.633,2.77208
0.207365,-0.843937,2.633,2.77271
0.215911,-0.843937,2.633,2.77336
0.224457,-0.843937,2.633,2.77404
0.233003,-0.843937,2.633,2.77474
0.239715,-0.837527,2.613,2.75439
0.248196,-0.837527,2.613,2.75514
0.256677,-0.837527,2.613,2.75592
0.265158,-0.837527,2.613,2.75672
0.271545,-0.831116,2.593,2.73645
0.279961,-0.831116,2.593,2.73729
0.288377,-0.831116,2.593,2.73817
0.296793,-0.831116,2.593,2.73907
0.30521,-0.831116,2.593,2.73999
0.313626,-0.831116,2.593,2.74094
0.319682,-0.825026,2.574,2.72183
0.328037,-0.825026,2.574,2.72282
0.336391,-0.825026,2.574,2.72384
0.344746,-0.825026,2.574,2.72488
0.353101,-0.825026,2.574,2.72595
0.361455,-0.825026,2.574,2.72705
0.36981,-0.825026,2.574,2.72817
0.378164,-0.825026,2.574,2.72931
0.386519,-0.825026,2.574,2.73048
0.394873,-0.825026,2.574,2.73168
0.406204,-0.831116,2.593,2.75307
0.414621,-0.831116,2.593,2.75433
0.423037,-0.831116,2.593,2.75561
0.434781,-0.837527,2.613,2.77817
0.443262,-0.837527,2.613,2.77951
0.455201,-0.843937,2.633,2.80216
0.463747,-0.843937,2.633,2.80357
0.472293,-0.843937,2.633,2.80499
0.484674,-0.850668,2.654,2.82883
0.493288,-0.850668,2.654,2.83032
0.501903,-0.850668,2.654,2.83183
0.514556,-0.857399,2.675,2.85579
0.523239,-0.857399,2.675,2.85737
0.527745,-0.850668,2.654,2.83652
0.536359,-0.850668,2.654,2.83814
0.544974,-0.850668,2.654,2.83978
0.549208,-0.843937,2.633,2.81896
0.557754,-0.843937,2.633,2.82064
0.5663,-0.843937,2.633,2.82234
0.570479,-0.837527,2.613,2.80262
0.570319,-0.825026,2.574,2.7625
0.578674,-0.825026,2.574,2.76424
0.587028,-0.825026,2.574,2.766
0.590988,-0.818936,2.555,2.74735
0.599281,-0.818936,2.555,2.74915
0.603056,-0.812846,2.536,2.73051
0.606707,-0.806756,2.517,2.71187
0.614877,-0.806756,2.517,2.71371
0.618591,-0.800987,2.499,2.69615
0.626702,-0.800987,2.499,2.69802
0.634813,-0.800987,2.499,2.69992
0.642924,-0.800987,2.499,2.70184
0.651035,-0.800987,2.499,2.70378
0.659146,-0.800987,2.499,2.70574
0.667257,-0.800987,2.499,2.70773
0.675369,-0.800987,2.499,2.70974
0.678557,-0.795217,2.481,2.69224
0.686609,-0.795217,2.481,2.69428
0.694662,-0.795217,2.481,2.69635
0.702715,-0.795217,2.481,2.69843
0.710768,-0.795217,2.481,2.70054
0.71882,-0.795217,2.481,2.70267
0.726873,-0.795217,2.481,2.70482
0.729594,-0.789448,2.463,2.68736
0.737588,-0.789448,2.463,2.68954
0.745582,-0.789448,2.463,2.69174
0.753577,-0.789448,2.463,2.69397
0.761571,-0.789448,2.463,2.69622
0.769565,-0.789448,2.463,2.69849
0.777559,-0.789448,2.463,2.70078
0.785554,-0.789448,2.463,2.70309
0.793548,-0.789448,2.463,2.70542
0.801542,-0.789448,2.463,2.70778
0.809537,-0.789448,2.463,2.71016
0.817531,-0.789448,2.463,2.71255
0.825525,-0.789448,2.463,2.71497
0.833519,-0.789448,2.463,2.71742
0.847664,-0.795217,2.481,2.73976
0.855716,-0.795217,2.481,2.74226
0.863769,-0.795217,2.481,2.74478
0.871822,-0.795217,2.481,2.74733
0.879874,-0.795217,2.481,2.74989
0.894369,-0.800987,2.499,2.77245
0.90248,-0.800987,2.499,2.77508
0.910591,-0.800987,2.499,2.77773
0.918703,-0.800987,2.499,2.78039
0.926814,-0.800987,2.499,2.78309
nan,nan,nan,NaN
nan,nan,nan,NaN
nan,nan,nan,NaN
nan,nan,nan,NaN
nan,nan,nan,NaN
nan,nan,nan,NaN
nan,nan,nan,NaN
nan,nan,nan,NaN
nan,nan,nan,NaN
nan,nan,nan,NaN
nan,nan,nan,NaN
nan,nan,nan,NaN
nan,nan,nan,NaN
nan,nan,nan,NaN
nan,nan,nan,NaN
nan,nan,nan,NaN
nan,nan,nan,NaN
nan,nan,nan,NaN
nan,nan,nan,NaN
nan,nan,nan,NaN
nan,nan,nan,NaN
nan,nan,nan,NaN
1.3994,-1.00676,3.141,3.58298
1.40959,-1.00676,3.141,3.58698
1.41979,-1.00676,3.141,3.591
1.42998,-1.00676,3.141,3.59504
1.44018,-1.00676,3.141,3.59911
1.45037,-1.00676,3.141,3.6032
1.46057,-1.00676,3.141,3.60731
1.47076,-1.00676,3.141,3.61145
1.48096,-1.00676,3.141,3.61562
1.49115,-1.00676,3.141,3.6198
1.50135,-1.00676,3.141,3.62402
1.51154,-1.00676,3.141,3.62825
1.52174,-1.00676,3.141,3.63251
1.51779,-0.997468,3.112,3.60322
1.52789,-0.997468,3.112,3.60748
1.53799,-0.997468,3.112,3.61177
1.54809,-0.997468,3.112,3.61608
1.55819,-0.997468,3.112,3.62042
1.56829,-0.997468,3.112,3.62478
1.5931,-1.00676,3.141,3.66298
1.6033,-1.00676,3.141,3.66743
1.62839,-1.01606,3.17,3.7058
1.63868,-1.01606,3.17,3.71033
1.66405,-1.02535,3.199,3.74887
1.67443,-1.02535,3.199,3.75349
1.68482,-1.02535,3.199,3.75813
1.71163,-1.03529,3.23,3.79926
1.75517,-1.05516,3.292,3.87701
1.76585,-1.05516,3.292,3.88186
1.81108,-1.07568,3.356,3.9623
1.87734,-1.10837,3.458,4.08787
1.88857,-1.10837,3.458,4.09303
1.89979,-1.10837,3.458,4.09823
1.93036,-1.11959,3.493,4.14497
1.96171,-1.13113,3.529,4.19304
1.97316,-1.13113,3.529,4.19841
1.98461,-1.13113,3.529,4.20381
1.99607,-1.13113,3.529,4.20923
2.00752,-1.13113,3.529,4.21467
2.04015,-1.14298,3.566,4.26438
2.05172,-1.14298,3.566,4.26993
2.06329,-1.14298,3.566,4.27551
2.05334,-1.13113,3.529,4.23668
2.06479,-1.13113,3.529,4.24225
2.07625,-1.13113,3.529,4.24783
2.06641,-1.11959,3.493,4.21005
2.03611,-1.09715,3.423,4.13115
2.04722,-1.09715,3.423,4.13664
2.03788,-1.08625,3.389,4.101
2.02893,-1.07568,3.356,4.06649
2.03982,-1.07568,3.356,4.07194
2.01161,-1.05516,3.292,3.99965
2.00264,-1.0449,3.26,3.9661
2.01322,-1.0449,3.26,3.97146
1.98593,-1.02535,3.199,3.90242
1.96012,-1.00676,3.141,3.83686
1.93456,-0.988493,3.084,3.77236
1.94457,-0.988493,3.084,3.7775
1.95458,-0.988493,3.084,3.78266
1.93019,-0.971185,3.03,3.72152
1.94002,-0.971185,3.03,3.72663
1.93248,-0.96253,3.003,3.69851
1.92541,-0.954197,2.977,3.67154
1.93508,-0.954197,2.977,3.67662
1.92775,-0.945863,2.951,3.64956
1.92092,-0.93785,2.926,3.62367
1.93042,-0.93785,2.926,3.62871
1.92334,-0.929837,2.901,3.60273
1.93275,-0.929837,2.901,3.60776
1.94217,-0.929837,2.901,3.61281
1.93544,-0.922145,2.877,3.58795
1.91233,-0.906759,2.829,3.53305
1.92151,-0.906759,2.829,3.53803
-2.39893,-1.09715,3.458,4.34929
-2.36354,-1.08604,3.423,4.29915
-2.32906,-1.07526,3.389,4.25041
-2.31806,-1.07526,3.389,4.2444
-2.30706,-1.07526,3.389,4.2384
-2.2737,-1.06479,3.356,4.19121
-2.26281,-1.06479,3.356,4.18531
-2.25192,-1.06479,3.356,4.17943
-2.21966,-1.05463,3.324,4.13378
-2.20887,-1.05463,3.324,4.12799
-2.19808,-1.05463,3.324,4.12223
-2.18729,-1.05463,3.324,4.11649
-2.1765,-1.05463,3.324,4.11076
-2.16571,-1.05463,3.324,4.10506
-2.15492,-1.05463,3.324,4.09938
-2.14413,-1.05463,3.324,4.09372
-2.15388,-1.06479,3.356,4.12743
-2.14299,-1.06479,3.356,4.12176
-2.11177,-1.05463,3.324,4.07686
-2.10098,-1.05463,3.324,4.07128
-2.09019,-1.05463,3.324,4.06573
-2.0794,-1.05463,3.324,4.06019
-2.06861,-1.05463,3.324,4.05467
-2.05782,-1.05463,3.324,4.04918
-2.04703,-1.05463,3.324,4.04371
-2.03625,-1.05463,3.324,4.03826
-2.02546,-1.05463,3.324,4.03283
-2.01467,-1.05463,3.324,4.02742
-2.00388,-1.05463,3.324,4.02203
nan,nan,nan,NaN
nan,nan,nan,NaN
nan,nan,nan,NaN
nan,nan,nan,NaN
nan,nan,nan,NaN
nan,nan,nan,NaN
nan,nan,nan,NaN
nan,nan,nan,NaN
nan,nan,nan,NaN
nan,nan,nan,NaN
nan,nan,nan,NaN
nan,nan,nan,NaN
nan,nan,nan,NaN
nan,nan,nan,NaN
nan,nan,nan,NaN
nan,nan,nan,NaN
nan,nan,nan,NaN
nan,nan,nan,NaN
nan,nan,nan,NaN
nan,nan,nan,NaN
nan,nan,nan,NaN
nan,nan,nan,NaN
nan,nan,nan,NaN
-1.4494,-0.876005,2.761,3.23902
-1.44044,-0.876005,2.761,3.23502
-1.40866,-0.862045,2.717,3.17955
-1.38902,-0.855382,2.696,3.15111
-1.38027,-0.855382,2.696,3.14726
-1.37152,-0.855382,2.696,3.14343
-1.34154,-0.842056,2.654,3.09071
-1.33293,-0.842056,2.654,3.08698
-1.30385,-0.829048,2.613,3.03564
-1.28546,-0.822702,2.593,3.0088
-1.27704,-0.822702,2.593,3.00522
-1.26863,-0.822702,2.593,3.00165
nan,nan,nan,NaN
-1.22428,-0.804617,2.536,2.92875
-1.21605,-0.804617,2.536,2.92532
-1.19876,-0.798589,2.517,2.90001
-1.16505,-0.781456,2.463,2.8345
-1.15706,-0.781456,2.463,2.83122
-1.14906,-0.781456,2.463,2.82797
nan,nan,nan,NaN
nan,nan,nan,NaN
nan,nan,nan,NaN
nan,nan,nan,NaN
nan,nan,nan,NaN
nan,nan,nan,NaN
nan,nan,nan,NaN
nan,nan,nan,NaN
nan,nan,nan,NaN
nan,nan,nan,NaN
-1.07664,-0.792878,2.499,2.83422
-1.06853,-0.792878,2.499,2.83115
-1.06041,-0.792878,2.499,2.8281
-1.06788,-0.804617,2.536,2.86689
-1.05965,-0.804617,2.536,2.86384
-1.05142,-0.804617,2.536,2.8608
-1.05101,-0.810646,2.555,2.8792
-1.05047,-0.816674,2.574,2.89757
-1.04211,-0.816674,2.574,2.89455
-1.03376,-0.816674,2.574,2.89155
-1.0254,-0.816674,2.574,2.88858
-1.01705,-0.816674,2.574,2.88562
-1.00869,-0.816674,2.574,2.88269
-1.00772,-0.822702,2.593,2.90103
-0.999307,-0.822702,2.593,2.89812
-0.99089,-0.822702,2.593,2.89523
-0.990052,-0.829048,2.613,2.91467
-0.989084,-0.835393,2.633,2.93409
-0.988358,-0.842056,2.654,2.95459
-0.979744,-0.842056,2.654,2.95172
-0.978814,-0.848719,2.675,2.97221
-0.977748,-0.855382,2.696,2.99267
-0.968997,-0.855382,2.696,2.98982
-0.960247,-0.855382,2.696,2.987
-0.951496,-0.855382,2.696,2.9842
-0.942746,-0.855382,2.696,2.98142
-0.933995,-0.855382,2.696,2.97866
-0.925244,-0.855382,2.696,2.97593
-0.916494,-0.855382,2.696,2.97322
-0.907743,-0.855382,2.696,2.97054
-0.89199,-0.848719,2.675,2.94476
-0.883308,-0.848719,2.675,2.94214
-0.867759,-0.842056,2.654,2.91647
-0.852347,-0.835393,2.633,2.89086
-0.843801,-0.835393,2.633,2.88835
-0.82891,-0.829048,2.613,2.86395
-0.820429,-0.829048,2.613,2.8615
-0.805733,-0.822702,2.593,2.8372
-0.797317,-0.822702,2.593,2.83482
-0.788901,-0.822702,2.593,2.83246
-0.780485,-0.822702,2.593,2.83013
-0.772068,-0.822702,2.593,2.82782
-0.763652,-0.822702,2.593,2.82554
-0.755236,-0.822702,2.593,2.82327
-0.74682,-0.822702,2.593,2.82103
-0.738403,-0.822702,2.593,2.81882
-0.729987,-0.822702,2.593,2.81662
-0.721571,-0.822702,2.593,2.81445
-0.713155,-0.822702,2.593,2.81231
-0.704738,-0.822702,2.593,2.81019
-0.696322,-0.822702,2.593,2.80809
-0.687906,-0.822702,2.593,2.80601
-0.67949,-0.822702,2.593,2.80396
-0.671074,-0.822702,2.593,2.80193
-0.662657,-0.822702,2.593,2.79993
-0.654241,-0.822702,2.593,2.79795
-0.641093,-0.816674,2.574,2.77551
-0.632738,-0.816674,2.574,2.77359
-0.624384,-0.816674,2.574,2.77169
-0.616029,-0.816674,2.574,2.76982
-0.598703,-0.804617,2.536,2.72711
-0.590472,-0.804617,2.536,2.72532
-0.582241,-0.804617,2.536,2.72355
-0.569709,-0.798589,2.517,2.70141
-0.561539,-0.798589,2.517,2.6997
-0.55337,-0.798589,2.517,2.69801
-0.541301,-0.792878,2.499,2.67706
-0.53319,-0.792878,2.499,2.67543
-0.525079,-0.792878,2.499,2.67383
-0.516968,-0.792878,2.499,2.67225
-0.508857,-0.792878,2.499,2.67069
-0.500746,-0.792878,2.499,2.66916
-0.492635,-0.792878,2.499,2.66765
-0.484524,-0.792878,2.499,2.66616
-0.476412,-0.792878,2.499,2.6647
-0.468301,-0.792878,2.499,2.66326
-0.46019,-0.792878,2.499,2.66185
-0.452079,-0.792878,2.499,2.66046
-0.443968,-0.792878,2.499,2.65909
-0.438996,-0.798589,2.517,2.67689
-0.434079,-0.804617,2.536,2.69576
-0.425848,-0.804617,2.536,2.69445
-0.420745,-0.810646,2.555,2.71334
-0.412452,-0.810646,2.555,2.71206
-0.404159,-0.810646,2.555,2.71081
-0.395866,-0.810646,2.555,2.70959
-0.390456,-0.816674,2.574,2.72853
-0.382101,-0.816674,2.574,2.72735
-0.373747,-0.816674,2.574,2.72619
-0.368089,-0.822702,2.593,2.74517
-0.359673,-0.822702,2.593,2.74406
-0.351257,-0.822702,2.593,2.74297
-0.340328,-0.816674,2.574,2.72181
-0.331974,-0.816674,2.574,2.72078
-0.323619,-0.816674,2.574,2.71977
-0.315265,-0.816674,2.574,2.71879
-0.30691,-0.816674,2.574,2.71783
-0.298555,-0.816674,2.574,2.7169
-0.288059,-0.810646,2.555,2.69595
-0.279766,-0.810646,2.555,2.69508
-0.271473,-0.810646,2.555,2.69423
-0.26318,-0.810646,2.555,2.69341
-0.254887,-0.810646,2.555,2.69261
-0.246594,-0.810646,2.555,2.69184
-0.238301,-0.810646,2.555,2.69109
-0.230009,-0.810646,2.555,2.69037
-0.221716,-0.810646,2.555,2.68967
-0.213423,-0.810646,2.555,2.689
-0.20513,-0.810646,2.555,2.68835
-0.196837,-0.810646,2.555,2.68773
-0.188544,-0.810646,2.555,2.68714
-0.180251,-0.810646,2.555,2.68657
-0.171958,-0.810646,2.555,2.68603
-0.163665,-0.810646,2.555,2.68551
-0.155372,-0.810646,2.555,2.68502
-0.14708,-0.810646,2.555,2.68455
-0.137755,-0.804617,2.536,2.66415
-0.129523,-0.804617,2.536,2.66373
-0.121292,-0.804617,2.536,2.66335
-0.113061,-0.804617,2.536,2.66298
-0.10483,-0.804617,2.536,2.66265
-0.0965985,-0.804617,2.536,2.66234
-0.0883672,-0.804617,2.536,2.66205
-0.080136,-0.804617,2.536,2.66179
-0.0719048,-0.804617,2.536,2.66156
-0.0641506,-0.810646,2.555,2.68128
-0.0558577,-0.810646,2.555,2.6811
-0.0475648,-0.810646,2.555,2.68094
-0.0392719,-0.810646,2.555,2.6808
-0.0312094,-0.816674,2.574,2.70063
-0.0228548,-0.816674,2.574,2.70055
-0.0145003,-0.816674,2.574,2.70049
-0.00614571,-0.816674,2.574,2.70046
0.00220886,-0.816674,2.574,2.70045
0.0105634,-0.816674,2.574,2.70047
0.018918,-0.816674,2.574,2.70052
0.0272725,-0.816674,2.574,2.70059
0.0356271,-0.816674,2.574,2.70069
0.0439817,-0.816674,2.574,2.70081
0.0527226,-0.822702,2.593,2.72089
0.0611388,-0.822702,2.593,2.72107
0.069555,-0.822702,2.593,2.72127
0.0779713,-0.822702,2.593,2.7215
0.0863875,-0.822702,2.593,2.72176
0.0948037,-0.822702,2.593,2.72204
0.104016,-0.829048,2.613,2.74334
0.112497,-0.829048,2.613,2.74367
0.120978,-0.829048,2.613,2.74403
0.12946,-0.829048,2.613,2.74442
0.137941,-0.829048,2.613,2.74483
0.146422,-0.829048,2.613,2.74527
0.154903,-0.829048,2.613,2.74574
0.163384,-0.829048,2.613,2.74623
0.173181,-0.835393,2.633,2.76777
0.180346,-0.829048,2.613,2.74729
0.188828,-0.829048,2.613,2.74786
0.198819,-0.835393,2.633,2.76949
0.207365,-0.835393,2.633,2.77012
0.215911,-0.835393,2.633,2.77077
0.224457,-0.835393,2.633,2.77145
0.233003,-0.835393,2.633,2.77216
0.239715,-0.829048,2.613,2.75183
0.248196,-0.829048,2.613,2.75258
0.256677,-0.829048,2.613,2.75336
0.265158,-0.829048,2.613,2.75416
0.271545,-0.822702,2.593,2.7339
0.279961,-0.822702,2.593,2.73475
0.288377,-0.822702,2.593,2.73563
0.296793,-0.822702,2.593,2.73653
0.30521,-0.822702,2.593,2.73745
0.311328,-0.816674,2.574,2.71834
0.319682,-0.816674,2.574,2.71931
0.328037,-0.816674,2.574,2.7203
0.336391,-0.816674,2.574,2.72132
0.344746,-0.816674,2.574,2.72237
0.353101,-0.816674,2.574,2.72344
0.361455,-0.816674,2.574,2.72453
0.36981,-0.816674,2.574,2.72565
0.378164,-0.816674,2.574,2.7268
0.386519,-0.816674,2.574,2.72797
0.394873,-0.816674,2.574,2.72917
0.406204,-0.822702,2.593,2.75054
0.414621,-0.822702,2.593,2.7518
0.423037,-0.822702,2.593,2.75308
0.434781,-0.829048,2.613,2.77563
0.443262,-0.829048,2.613,2.77697
0.455201,-0.835393,2.633,2.7996
0.463747,-0.835393,2.633,2.80101
0.472293,-0.835393,2.633,2.80243
0.484674,-0.842056,2.654,2.82625
0.493288,-0.842056,2.654,2.82774
0.501903,-0.842056,2.654,2.82925
0.514556,-0.848719,2.675,2.85319
0.523239,-0.848719,2.675,2.85477
0.527745,-0.842056,2.654,2.83395
0.536359,-0.842056,2.654,2.83557
0.544974,-0.842056,2.654,2.83721
0.549208,-0.835393,2.633,2.81642
0.557754,-0.835393,2.633,2.8181
0.5663,-0.835393,2.633,2.8198
0.570479,-0.829048,2.613,2.8001
0.570319,-0.816674,2.574,2.76002
0.578674,-0.816674,2.574,2.76176
0.587028,-0.816674,2.574,2.76352
0.590988,-0.810646,2.555,2.74489
0.599281,-0.810646,2.555,2.74669
0.603056,-0.804617,2.536,2.72807
0.606707,-0.798589,2.517,2.70945
0.614877,-0.798589,2.517,2.71129
0.614135,-0.787167,2.481,2.67435
0.622188,-0.787167,2.481,2.67621
0.63024,-0.787167,2.481,2.6781
0.642924,-0.792878,2.499,2.69945
0.651035,-0.792878,2.499,2.70139
0.659146,-0.792878,2.499,2.70336
0.667257,-0.792878,2.499,2.70534
0.675369,-0.792878,2.499,2.70736
0.678557,-0.787167,2.481,2.68988
0.686609,-0.787167,2.481,2.69192
0.694662,-0.787167,2.481,2.69398
0.702715,-0.787167,2.481,2.69607
0.710768,-0.787167,2.481,2.69818
0.71882,-0.787167,2.481,2.70031
0.726873,-0.787167,2.481,2.70247
0.729594,-0.781456,2.463,2.68502
0.737588,-0.781456,2.463,2.68721
0.745582,-0.781456,2.463,2.68941
0.753577,-0.781456,2.463,2.69164
0.761571,-0.781456,2.463,2.69389
0.769565,-0.781456,2.463,2.69616
0.777559,-0.781456,2.463,2.69845
0.785554,-0.781456,2.463,2.70077
0.793548,-0.781456,2.463,2.7031
0.801542,-0.781456,2.463,2.70546
0.809537,-0.781456,2.463,2.70784
0.817531,-0.781456,2.463,2.71024
0.825525,-0.781456,2.463,2.71266
0.833519,-0.781456,2.463,2.71511
0.847664,-0.787167,2.481,2.73743
0.855716,-0.787167,2.481,2.73994
0.863769,-0.787167,2.481,2.74246
0.871822,-0.787167,2.481,2.74501
0.879874,-0.787167,2.481,2.74758
0.887927,-0.787167,2.481,2.75017
0.89598,-0.787167,2.481,2.75278
0.904033,-0.787167,2.481,2.75541
0.918703,-0.792878,2.499,2.77807
nan,nan,nan,NaN
nan,nan,nan,NaN
nan,nan,nan,NaN
nan,nan,nan,NaN
nan,nan,nan,NaN
nan,nan,nan,NaN
nan,nan,nan,NaN
nan,nan,nan,NaN
nan,nan,nan,NaN
nan,nan,nan,NaN
nan,nan,nan,NaN
nan,nan,nan,NaN
nan,nan,nan,NaN
nan,nan,nan,NaN
nan,nan,nan,NaN
nan,nan,nan,NaN
nan,nan,nan,NaN
nan,nan,nan,NaN
nan,nan,nan,NaN
nan,nan,nan,NaN
nan,nan,nan,NaN
nan,nan,nan,NaN
nan,nan,nan,NaN
1.3994,-0.996571,3.141,3.58013
1.40959,-0.996571,3.141,3.58413
1.40668,-0.98737,3.112,3.55502
1.41678,-0.98737,3.112,3.55903
1.42688,-0.98737,3.112,3.56307
1.43698,-0.98737,3.112,3.56712
1.44708,-0.98737,3.112,3.5712
1.47076,-0.996571,3.141,3.60863
1.48096,-0.996571,3.141,3.61279
1.49115,-0.996571,3.141,3.61698
1.50135,-0.996571,3.141,3.6212
nan,nan,nan,NaN
nan,nan,nan,NaN
1.51779,-0.98737,3.112,3.60043
1.52789,-0.98737,3.112,3.6047
1.53799,-0.98737,3.112,3.609
1.54809,-0.98737,3.112,3.61331
1.55819,-0.98737,3.112,3.61765
1.56829,-0.98737,3.112,3.62201
1.5931,-0.996571,3.141,3.66019
1.6033,-0.996571,3.141,3.66464
1.61349,-0.996571,3.141,3.66911
1.62369,-0.996571,3.141,3.67361
1.64897,-1.00577,3.17,3.71208
1.65925,-1.00577,3.17,3.71667
1.66954,-1.00577,3.17,3.72127
1.6952,-1.01497,3.199,3.75998
1.73811,-1.03433,3.26,3.83646
1.74869,-1.03433,3.26,3.84127
nan,nan,nan,NaN
1.87734,-1.09715,3.458,4.08484
1.88857,-1.09715,3.458,4.09001
1.89979,-1.09715,3.458,4.09521
1.93036,-1.10825,3.493,4.14193
1.96171,-1.11967,3.529,4.18996
1.97316,-1.11967,3.529,4.19534
1.98461,-1.11967,3.529,4.20074
1.99607,-1.11967,3.529,4.20616
2.00752,-1.11967,3.529,4.21161
2.04015,-1.13141,3.566,4.2613
2.05172,-1.13141,3.566,4.26685
2.06329,-1.13141,3.566,4.27243
2.05334,-1.11967,3.529,4.23364
2.06479,-1.11967,3.529,4.23921
2.07625,-1.11967,3.529,4.2448
2.06641,-1.10825,3.493,4.20705
2.03611,-1.08604,3.423,4.12821
2.04722,-1.08604,3.423,4.1337
2.03788,-1.07526,3.389,4.0981
2.02893,-1.06479,3.356,4.06363
2.03982,-1.06479,3.356,4.06908
2.01161,-1.04448,3.292,3.99684
2.00264,-1.03433,3.26,3.96333
2.01322,-1.03433,3.26,3.96869
1.98593,-1.01497,3.199,3.8997
1.96012,-0.996571,3.141,3.8342
1.93456,-0.978486,3.084,3.76975
1.94457,-0.978486,3.084,3.77489
1.95458,-0.978486,3.084,3.78006
1.93019,-0.961353,3.03,3.71897
1.94002,-0.961353,3.03,3.72408
1.93248,-0.952786,3.003,3.69598
1.92541,-0.944537,2.977,3.66905
1.93508,-0.944537,2.977,3.67413
1.92775,-0.936288,2.951,3.64709
1.92092,-0.928356,2.926,3.62122
1.93042,-0.928356,2.926,3.62627
1.92334,-0.920424,2.901,3.60031
1.93275,-0.920424,2.901,3.60535
1.94217,-0.920424,2.901,3.6104
1.93544,-0.912809,2.877,3.58557
1.91233,-0.89758,2.829,3.53071
1.92151,-0.89758,2.829,3.53569
-2.37465,-1.07494,3.423,4.30248
-2.34006,-1.06426,3.389,4.25369
-2.32906,-1.06426,3.389,4.24765
-2.31806,-1.06426,3.389,4.24162
-2.30706,-1.06426,3.389,4.23562
-2.2737,-1.0539,3.356,4.18846
-2.24123,-1.04385,3.324,4.14267
-2.23045,-1.04385,3.324,4.13684
-2.21966,-1.04385,3.324,4.13104
-2.20887,-1.04385,3.324,4.12525
-2.19808,-1.04385,3.324,4.11948
-2.18729,-1.04385,3.324,4.11374
-2.15555,-1.0338,3.292,4.06846
-2.14486,-1.0338,3.292,4.06281
-2.13418,-1.0338,3.292,4.05718
-2.12349,-1.0338,3.292,4.05157
-2.13335,-1.04385,3.324,4.08531
-2.12256,-1.04385,3.324,4.07969
-2.11177,-1.04385,3.324,4.07408
-2.10098,-1.04385,3.324,4.0685
-2.09019,-1.04385,3.324,4.06294
-2.05938,-1.0338,3.292,4.01834
-2.0487,-1.0338,3.292,4.01288
-2.03801,-1.0338,3.292,4.00743
-2.02733,-1.0338,3.292,4.00201
-2.01664,-1.0338,3.292,3.9966
-2.00596,-1.0338,3.292,3.99122
-2.01467,-1.04385,3.324,4.02461
-2.00388,-1.04385,3.324,4.01922
nan,nan,nan,NaN
nan,nan,nan,NaN
nan,nan,nan,NaN
nan,nan,nan,NaN
nan,nan,nan,NaN
nan,nan,nan,NaN
nan,nan,nan,NaN
nan,nan,nan,NaN
nan,nan,nan,NaN
nan,nan,nan,NaN
nan,nan,nan,NaN
nan,nan,nan,NaN
nan,nan,nan,NaN
nan,nan,nan,NaN
nan,nan,nan,NaN
nan,nan,nan,NaN
nan,nan,nan,NaN
nan,nan,nan,NaN
nan,nan,nan,NaN
nan,nan,nan,NaN
nan,nan,nan,NaN
nan,nan,nan,NaN
nan,nan,nan,NaN
-1.4494,-0.867046,2.761,3.23661
-1.44044,-0.867046,2.761,3.23261
-1.43147,-0.867046,2.761,3.22862
-1.41118,-0.860137,2.739,3.19897
-1.40229,-0.860137,2.739,3.19505
-1.38221,-0.853228,2.717,3.16553
-1.36277,-0.846634,2.696,3.13725
-1.35402,-0.846634,2.696,3.13346
-1.32431,-0.833444,2.654,3.08093
-1.30529,-0.82685,2.633,3.05289
-1.29674,-0.82685,2.633,3.04925
-1.26863,-0.814288,2.593,2.99935
-1.25098,-0.808322,2.574,2.97385
-1.22428,-0.796388,2.536,2.9265
-1.21605,-0.796388,2.536,2.92306
-1.19876,-0.790422,2.517,2.89777
-1.16505,-0.773464,2.463,2.83231
-1.15706,-0.773464,2.463,2.82903
-1.14906,-0.773464,2.463,2.82577
nan,nan,nan,NaN
nan,nan,nan,NaN
nan,nan,nan,NaN
nan,nan,nan,NaN
nan,nan,nan,NaN
nan,nan,nan,NaN
nan,nan,nan,NaN
nan,nan,nan,NaN
nan,nan,nan,NaN
nan,nan,nan,NaN
-1.07664,-0.784769,2.499,2.83196
-1.06853,-0.784769,2.499,2.82889
-1.06041,-0.784769,2.499,2.82583
-1.05988,-0.790422,2.517,2.84313
-1.05965,-0.796388,2.536,2.86154
-1.05142,-0.796388,2.536,2.8585
-1.04319,-0.796388,2.536,2.85548
-1.04271,-0.802355,2.555,2.87386
-1.03442,-0.802355,2.555,2.87086
-1.02613,-0.802355,2.555,2.86788
-1.01783,-0.802355,2.555,2.86492
-1.00954,-0.802355,2.555,2.86199
-1.00125,-0.802355,2.555,2.85907
-0.992955,-0.802355,2.555,2.85618
-0.984662,-0.802355,2.555,2.85331
-0.976369,-0.802355,2.555,2.85046
-0.975275,-0.808322,2.574,2.8688
-0.966921,-0.808322,2.574,2.86597
-0.958566,-0.808322,2.574,2.86316
-0.950212,-0.808322,2.574,2.86038
-0.948809,-0.814288,2.593,2.87871
-0.9549,-0.82685,2.633,2.92031
-0.946354,-0.82685,2.633,2.91753
-0.937808,-0.82685,2.633,2.91476
-0.929262,-0.82685,2.633,2.91203
-0.920716,-0.82685,2.633,2.90931
-0.919445,-0.833444,2.654,2.9298
-0.925244,-0.846634,2.696,2.97343
-0.916494,-0.846634,2.696,2.97072
-0.907743,-0.846634,2.696,2.96803
-0.89199,-0.840039,2.675,2.94227
-0.883308,-0.840039,2.675,2.93965
-0.867759,-0.833444,2.654,2.91399
-0.852347,-0.82685,2.633,2.8884
-0.843801,-0.82685,2.633,2.88589
-0.82891,-0.820569,2.613,2.8615
-0.820429,-0.820569,2.613,2.85906
-0.805733,-0.814288,2.593,2.83477
-0.797317,-0.814288,2.593,2.83239
-0.788901,-0.814288,2.593,2.83003
-0.780485,-0.814288,2.593,2.8277
-0.772068,-0.814288,2.593,2.82539
-0.763652,-0.814288,2.593,2.8231
-0.755236,-0.814288,2.593,2.82083
-0.74682,-0.814288,2.593,2.81859
-0.738403,-0.814288,2.593,2.81637
-0.729987,-0.814288,2.593,2.81418
-0.721571,-0.814288,2.593,2.81201
-0.713155,-0.814288,2.593,2.80986
-0.704738,-0.814288,2.593,2.80773
-0.696322,-0.814288,2.593,2.80563
-0.687906,-0.814288,2.593,2.80356
-0.67949,-0.814288,2.593,2.8015
-0.671074,-0.814288,2.593,2.79947
-0.662657,-0.814288,2.593,2.79747
-0.654241,-0.814288,2.593,2.79549
-0.641093,-0.808322,2.574,2.77306
-0.632738,-0.808322,2.574,2.77114
-0.624384,-0.808322,2.574,2.76924
-0.616029,-0.808322,2.574,2.76737
-0.598703,-0.796388,2.536,2.7247
-0.590472,-0.796388,2.536,2.7229
-0.582241,-0.796388,2.536,2.72113
-0.57401,-0.796388,2.536,2.71938
-0.565778,-0.796388,2.536,2.71765
-0.55337,-0.790422,2.517,2.6956
-0.541301,-0.784769,2.499,2.67467
-0.53319,-0.784769,2.499,2.67304
-0.525079,-0.784769,2.499,2.67144
-0.516968,-0.784769,2.499,2.66985
-0.508857,-0.784769,2.499,2.6683
-0.500746,-0.784769,2.499,2.66676
-0.492635,-0.784769,2.499,2.66525
-0.484524,-0.784769,2.499,2.66376
-0.476412,-0.784769,2.499,2.6623
-0.468301,-0.784769,2.499,2.66086
-0.46019,-0.784769,2.499,2.65944
-0.455335,-0.790422,2.517,2.6772
-0.447166,-0.790422,2.517,2.67582
-0.438996,-0.790422,2.517,2.67447
-0.434079,-0.796388,2.536,2.69332
-0.425848,-0.796388,2.536,2.692
-0.420745,-0.802355,2.555,2.71087
-0.412452,-0.802355,2.555,2.7096
-0.404159,-0.802355,2.555,2.70835
-0.395866,-0.802355,2.555,2.70712
-0.390456,-0.808322,2.574,2.72604
-0.384922,-0.814288,2.593,2.74497
-0.376505,-0.814288,2.593,2.74381
-0.368089,-0.814288,2.593,2.74266
-0.359673,-0.814288,2.593,2.74155
-0.351257,-0.814288,2.593,2.74046
-0.340328,-0.808322,2.574,2.71932
-0.331974,-0.808322,2.574,2.71828
-0.323619,-0.808322,2.574,2.71728
-0.315265,-0.808322,2.574,2.71629
-0.30691,-0.808322,2.574,2.71534
-0.298555,-0.808322,2.574,2.71441
-0.288059,-0.802355,2.555,2.69347
-0.279766,-0.802355,2.555,2.6926
-0.271473,-0.802355,2.555,2.69175
-0.26318,-0.802355,2.555,2.69092
-0.254887,-0.802355,2.555,2.69012
-0.246594,-0.802355,2.555,2.68935
-0.238301,-0.802355,2.555,2.6886
-0.230009,-0.802355,2.555,2.68788
-0.221716,-0.802355,2.555,2.68718
-0.213423,-0.802355,2.555,2.68651
-0.20513,-0.802355,2.555,2.68587
-0.196837,-0.802355,2.555,2.68525
-0.188544,-0.802355,2.555,2.68465
-0.180251,-0.802355,2.555,2.68408
-0.171958,-0.802355,2.555,2.68354
-0.163665,-0.802355,2.555,2.68302
-0.155372,-0.802355,2.555,2.68252
-0.14708,-0.802355,2.555,2.68206
-0.137755,-0.796388,2.536,2.66167
-0.129523,-0.796388,2.536,2.66126
-0.121292,-0.796388,2.536,2.66087
-0.113061,-0.796388,2.536,2.66051
-0.10483,-0.796388,2.536,2.66017
-0.0965985,-0.796388,2.536,2.65986
-0.0883672,-0.796388,2.536,2.65957
-0.080136,-0.796388,2.536,2.65931
-0.0719048,-0.796388,2.536,2.65908
-0.0636736,-0.796388,2.536,2.65887
-0.0558577,-0.802355,2.555,2.6786
-0.0475648,-0.802355,2.555,2.67844
-0.0392719,-0.802355,2.555,2.67831
-0.0312094,-0.808322,2.574,2.69812
-0.0228548,-0.808322,2.574,2.69803
-0.0145003,-0.808322,2.574,2.69798
-0.00614571,-0.808322,2.574,2.69794
0.00220886,-0.808322,2.574,2.69794
0.0105634,-0.808322,2.574,2.69796
0.018918,-0.808322,2.574,2.698
0.0272725,-0.808322,2.574,2.69807
0.0356271,-0.808322,2.574,2.69817
0.0439817,-0.808322,2.574,2.69829
0.0527226,-0.814288,2.593,2.71836
0.0611388,-0.814288,2.593,2.71854
0.069555,-0.814288,2.593,2.71874
0.0779713,-0.814288,2.593,2.71897
0.0863875,-0.814288,2.593,2.71922
0.0948037,-0.814288,2.593,2.7195
0.10322,-0.814288,2.593,2.71981
0.111636,-0.814288,2.593,2.72014
0.120052,-0.814288,2.593,2.7205
0.12946,-0.820569,2.613,2.74187
0.137941,-0.820569,2.613,2.74229
0.146422,-0.820569,2.613,2.74273
0.154903,-0.820569,2.613,2.74319
0.163384,-0.820569,2.613,2.74368
0.173181,-0.82685,2.633,2.76521
0.180346,-0.820569,2.613,2.74475
0.188828,-0.820569,2.613,2.74532
0.198819,-0.82685,2.633,2.76693
0.207365,-0.82685,2.633,2.76756
0.215911,-0.82685,2.633,2.76821
0.224457,-0.82685,2.633,2.76889
0.233003,-0.82685,2.633,2.7696
0.239715,-0.820569,2.613,2.74928
0.248196,-0.820569,2.613,2.75004
0.256677,-0.820569,2.613,2.75082
0.265158,-0.820569,2.613,2.75162
0.273639,-0.820569,2.613,2.75245
0.28212,-0.820569,2.613,2.75331
0.290601,-0.820569,2.613,2.75419
0.296793,-0.814288,2.593,2.73401
0.30521,-0.814288,2.593,2.73493
0.311328,-0.808322,2.574,2.71584
0.319682,-0.808322,2.574,2.71681
0.328037,-0.808322,2.574,2.71781
0.336391,-0.808322,2.574,2.71883
0.344746,-0.808322,2.574,2.71987
0.353101,-0.808322,2.574,2.72094
0.361455,-0.808322,2.574,2.72204
0.36981,-0.808322,2.574,2.72316
0.378164,-0.808322,2.574,2.72431
0.389372,-0.814288,2.593,2.7456
0.397788,-0.814288,2.593,2.74681
0.406204,-0.814288,2.593,2.74804
0.417819,-0.820569,2.613,2.7705
0.4263,-0.820569,2.613,2.77179
0.434781,-0.820569,2.613,2.77311
0.443262,-0.820569,2.613,2.77445
0.455201,-0.82685,2.633,2.79707
0.463747,-0.82685,2.633,2.79847
0.47606,-0.833444,2.654,2.82223
0.484674,-0.833444,2.654,2.8237
0.493288,-0.833444,2.654,2.82519
0.505874,-0.840039,2.675,2.84907
0.514556,-0.840039,2.675,2.85062
0.523239,-0.840039,2.675,2.8522
0.531921,-0.840039,2.675,2.85381
0.540603,-0.840039,2.675,2.85544
0.549286,-0.840039,2.675,2.8571
0.553588,-0.833444,2.654,2.83634
0.557754,-0.82685,2.633,2.81557
0.5663,-0.82685,2.633,2.81728
0.570479,-0.820569,2.613,2.7976
0.574529,-0.814288,2.593,2.77791
0.582945,-0.814288,2.593,2.77967
0.587028,-0.808322,2.574,2.76106
0.590988,-0.802355,2.555,2.74246
0.599281,-0.802355,2.555,2.74426
0.603056,-0.796388,2.536,2.72566
0.606707,-0.790422,2.517,2.70706
0.614877,-0.790422,2.517,2.7089
0.614135,-0.779117,2.481,2.67199
0.622188,-0.779117,2.481,2.67386
0.63024,-0.779117,2.481,2.67574
0.642924,-0.784769,2.499,2.69708
0.651035,-0.784769,2.499,2.69902
0.659146,-0.784769,2.499,2.70099
0.667257,-0.784769,2.499,2.70298
0.675369,-0.784769,2.499,2.70499
0.68348,-0.784769,2.499,2.70703
0.691591,-0.784769,2.499,2.70909
0.694662,-0.779117,2.481,2.69164
0.702715,-0.779117,2.481,2.69373
0.710768,-0.779117,2.481,2.69584
0.71882,-0.779117,2.481,2.69798
0.726873,-0.779117,2.481,2.70013
0.734926,-0.779117,2.481,2.70231
0.742978,-0.779117,2.481,2.70451
0.751031,-0.779117,2.481,2.70674
0.759084,-0.779117,2.481,2.70898
0.767137,-0.779117,2.481,2.71125
0.775189,-0.779117,2.481,2.71354
0.783242,-0.779117,2.481,2.71585
0.791295,-0.779117,2.481,2.71819
0.799347,-0.779117,2.481,2.72054
0.8074,-0.779117,2.481,2.72292
0.815453,-0.779117,2.481,2.72532
0.817531,-0.773464,2.463,2.70795
0.825525,-0.773464,2.463,2.71037
0.833519,-0.773464,2.463,2.71282
0.847664,-0.779117,2.481,2.73513
0.849508,-0.773464,2.463,2.71777
0.857502,-0.773464,2.463,2.72028
0.865497,-0.773464,2.463,2.72281
0.873491,-0.773464,2.463,2.72536
0.881485,-0.773464,2.463,2.72794
0.89598,-0.779117,2.481,2.75048
0.904033,-0.779117,2.481,2.75312
nan,nan,nan,NaN
nan,nan,nan,NaN
nan,nan,nan,NaN
nan,nan,nan,NaN
nan,nan,nan,NaN
nan,nan,nan,NaN
nan,nan,nan,NaN
nan,nan,nan,NaN
nan,nan,nan,NaN
nan,nan,nan,NaN
nan,nan,nan,NaN
nan,nan,nan,NaN
nan,nan,nan,NaN
nan,nan,nan,NaN
nan,nan,nan,NaN
nan,nan,nan,NaN
nan,nan,nan,NaN
nan,nan,nan,NaN
nan,nan,nan,NaN
nan,nan,nan,NaN
nan,nan,nan,NaN
nan,nan,nan,NaN
nan,nan,nan,NaN
nan,nan,nan,NaN
nan,nan,nan,NaN
nan,nan,nan,NaN
1.40668,-0.977272,3.112,3.55223
1.41678,-0.977272,3.112,3.55624
1.42688,-0.977272,3.112,3.56028
