2.00092,-0.200601,3.292,3.85762
2.01161,-0.200601,3.292,3.86317
1.98421,-0.196823,3.23,3.79588
1.95764,-0.193167,3.17,3.73076
1.96793,-0.193167,3.17,3.73617
1.94202,-0.189633,3.112,3.67314
1.90068,-0.184636,3.03,3.58156
1.91052,-0.184636,3.03,3.58679
1.90324,-0.182991,3.003,3.56003
1.87986,-0.179822,2.951,3.50352
1.88944,-0.179822,2.951,3.50866
1.83595,-0.173851,2.853,3.39714
1.81482,-0.170987,2.806,3.34611
1.80897,-0.169585,2.783,3.32359
1.81801,-0.169585,2.783,3.32851
1.79815,-0.166904,2.739,3.28075
1.77867,-0.164284,2.696,3.23405
1.78743,-0.164284,2.696,3.23887
1.78218,-0.163004,2.675,3.21844
1.76275,-0.160445,2.633,3.17265
1.77129,-0.160445,2.633,3.17741
1.76632,-0.159226,2.613,3.15801
1.74831,-0.156849,2.574,3.11555
-2.08328,-0.173247,3.003,3.65897
-2.02036,-0.168804,2.926,3.55975
-2.01087,-0.168804,2.926,3.55437
-1.98427,-0.167362,2.901,3.51868
-1.95852,-0.165978,2.877,3.48432
-1.94918,-0.165978,2.877,3.47908
-1.92366,-0.164593,2.853,3.44488
-1.89829,-0.163208,2.829,3.41078
-1.88911,-0.163208,2.829,3.40568
-1.86465,-0.161882,2.806,3.37294
-1.84033,-0.160555,2.783,3.34031
-1.8313,-0.160555,2.783,3.33534
-1.82226,-0.160555,2.783,3.33039
-1.81323,-0.160555,2.783,3.32546
-1.8042,-0.160555,2.783,3.32054
-1.81,-0.161882,2.806,3.34304
-1.80089,-0.161882,2.806,3.33812
-1.79179,-0.161882,2.806,3.33322
-1.79729,-0.163208,2.829,3.35561
-1.78811,-0.163208,2.829,3.3507
-1.79402,-0.164593,2.853,3.3742
-1.78476,-0.164593,2.853,3.36928
-1.7755,-0.164593,2.853,3.36439
-1.78109,-0.165978,2.877,3.38777
-1.78654,-0.167362,2.901,3.41109
-1.77712,-0.167362,2.901,3.40617
-1.7677,-0.167362,2.901,3.40126
-1.75829,-0.167362,2.901,3.39638
-1.74887,-0.167362,2.901,3.39151
-1.73946,-0.167362,2.901,3.38667
-1.73004,-0.167362,2.901,3.38184
-1.72062,-0.167362,2.901,3.37703
-1.71121,-0.167362,2.901,3.37225
-1.70179,-0.167362,2.901,3.36748
nan,nan,nan,NaN
nan,nan,nan,NaN
nan,nan,nan,NaN
nan,nan,nan,NaN
nan,nan,nan,NaN
nan,nan,nan,NaN
nan,nan,nan,NaN
nan,nan,nan,NaN
nan,nan,nan,NaN
nan,nan,nan,NaN
nan,nan,nan,NaN
nan,nan,nan,NaN
nan,nan,nan,NaN
nan,nan,nan,NaN
nan,nan,nan,NaN
nan,nan,nan,NaN
nan,nan,nan,NaN
nan,nan,nan,NaN
nan,nan,nan,NaN
nan,nan,nan,NaN
nan,nan,nan,NaN
nan,nan,nan,NaN
nan,nan,nan,NaN
nan,nan,nan,NaN
nan,nan,nan,NaN
nan,nan,nan,NaN
nan,nan,nan,NaN
nan,nan,nan,NaN
nan,nan,nan,NaN
-1.1879,-0.140074,2.428,2.70664
-1.18002,-0.140074,2.428,2.70319
-1.16393,-0.139094,2.411,2.68086
-1.15611,-0.139094,2.411,2.67747
-1.14828,-0.139094,2.411,2.6741
-1.14046,-0.139094,2.411,2.67075
-1.13263,-0.139094,2.411,2.66742
-1.1248,-0.139094,2.411,2.6641
-1.11698,-0.139094,2.411,2.66081
-1.10133,-0.138113,2.394,2.6388
-1.09356,-0.138113,2.394,2.63556
-1.08579,-0.138113,2.394,2.63235
-1.07802,-0.138113,2.394,2.62915
-1.07025,-0.138113,2.394,2.62598
-1.06248,-0.138113,2.394,2.62282
-1.05471,-0.138113,2.394,2.61968
-1.04694,-0.138113,2.394,2.61656
-1.03917,-0.138113,2.394,2.61346
-1.0314,-0.138113,2.394,2.61038
-1.02363,-0.138113,2.394,2.60732
-1.01586,-0.138113,2.394,2.60428
-1.01525,-0.139094,2.411,2.61973
-1.00742,-0.139094,2.411,2.61671
-0.999596,-0.139094,2.411,2.61371
-0.99177,-0.139094,2.411,2.61072
-0.983945,-0.139094,2.411,2.60776
-0.976119,-0.139094,2.411,2.60482
-0.975121,-0.140074,2.428,2.62024
-0.967241,-0.140074,2.428,2.61732
-0.95936,-0.140074,2.428,2.61442
-0.951479,-0.140074,2.428,2.61154
-0.943599,-0.140074,2.428,2.60867
-0.935718,-0.140074,2.428,2.60583
-0.927837,-0.140074,2.428,2.60302
-0.919957,-0.140074,2.428,2.60022
-0.90569,-0.139094,2.411,2.57925
-0.897864,-0.139094,2.411,2.57651
-0.890039,-0.139094,2.411,2.5738
-0.882213,-0.139094,2.411,2.5711
-0.874388,-0.139094,2.411,2.56843
-0.866562,-0.139094,2.411,2.56577
-0.858737,-0.139094,2.411,2.56314
-0.850911,-0.139094,2.411,2.56053
-0.837141,-0.138113,2.394,2.5399
-0.829371,-0.138113,2.394,2.53735
-0.821601,-0.138113,2.394,2.53483
-0.819609,-0.139094,2.411,2.5503
-0.811784,-0.139094,2.411,2.5478
-0.803958,-0.139094,2.411,2.54531
-0.796133,-0.139094,2.411,2.54285
-0.788307,-0.139094,2.411,2.54041
-0.780482,-0.139094,2.411,2.538
-0.772656,-0.139094,2.411,2.5356
-0.764831,-0.139094,2.411,2.53323
-0.762343,-0.140074,2.428,2.54872
-0.754462,-0.140074,2.428,2.54637
-0.746581,-0.140074,2.428,2.54405
-0.738701,-0.140074,2.428,2.54175
-0.73082,-0.140074,2.428,2.53947
-0.722939,-0.140074,2.428,2.53721
-0.715059,-0.140074,2.428,2.53498
-0.707178,-0.140074,2.428,2.53277
-0.699297,-0.140074,2.428,2.53058
-0.691417,-0.140074,2.428,2.52841
-0.683536,-0.140074,2.428,2.52627
-0.675655,-0.140074,2.428,2.52415
-0.667775,-0.140074,2.428,2.52205
-0.659894,-0.140074,2.428,2.51997
-0.652013,-0.140074,2.428,2.51792
-0.644133,-0.140074,2.428,2.51589
-0.636252,-0.140074,2.428,2.51389
-0.628371,-0.140074,2.428,2.5119
-0.620491,-0.140074,2.428,2.50994
-0.61261,-0.140074,2.428,2.50801
-0.604729,-0.140074,2.428,2.50609
-0.596848,-0.140074,2.428,2.5042
-0.588968,-0.140074,2.428,2.50234
-0.581087,-0.140074,2.428,2.50049
-0.573206,-0.140074,2.428,2.49867
-0.565326,-0.140074,2.428,2.49688
-0.561348,-0.141055,2.445,2.51258
-0.553412,-0.141055,2.445,2.51081
-0.545476,-0.141055,2.445,2.50908
-0.53754,-0.141055,2.445,2.50736
-0.529605,-0.141055,2.445,2.50567
-0.525509,-0.142093,2.463,2.52244
-0.517515,-0.142093,2.463,2.52079
-0.509521,-0.142093,2.463,2.51916
-0.501526,-0.142093,2.463,2.51756
-0.493532,-0.142093,2.463,2.51598
-0.489086,-0.143132,2.481,2.5328
-0.481034,-0.143132,2.481,2.53125
-0.472981,-0.143132,2.481,2.52974
-0.468301,-0.14417,2.499,2.54658
-0.46019,-0.14417,2.499,2.54511
-0.452079,-0.14417,2.499,2.54365
-0.443968,-0.14417,2.499,2.54222
-0.438996,-0.145209,2.517,2.55912
-0.430827,-0.145209,2.517,2.55773
-0.422657,-0.145209,2.517,2.55637
-0.414487,-0.145209,2.517,2.55503
-0.406318,-0.145209,2.517,2.55372
-0.398148,-0.145209,2.517,2.55243
-0.389979,-0.145209,2.517,2.55117
-0.381809,-0.145209,2.517,2.54993
-0.37364,-0.145209,2.517,2.54872
-0.36547,-0.145209,2.517,2.54754
-0.357301,-0.145209,2.517,2.54638
-0.349131,-0.145209,2.517,2.54524
-0.338523,-0.14417,2.499,2.52594
-0.330412,-0.14417,2.499,2.52487
-0.319979,-0.143132,2.481,2.50564
-0.311927,-0.143132,2.481,2.50463
-0.306079,-0.14417,2.499,2.5218
-0.295821,-0.143132,2.481,2.50267
-0.287769,-0.143132,2.481,2.50173
-0.279716,-0.143132,2.481,2.50082
-0.269692,-0.142093,2.463,2.48179
-0.261698,-0.142093,2.463,2.48094
-0.253704,-0.142093,2.463,2.48011
-0.245709,-0.142093,2.463,2.4793
-0.237715,-0.142093,2.463,2.47852
-0.229721,-0.142093,2.463,2.47777
-0.221726,-0.142093,2.463,2.47704
-0.213732,-0.142093,2.463,2.47634
-0.205738,-0.142093,2.463,2.47566
-0.197744,-0.142093,2.463,2.47501
-0.189749,-0.142093,2.463,2.47438
-0.183083,-0.143132,2.481,2.49186
-0.175031,-0.143132,2.481,2.49128
-0.166978,-0.143132,2.481,2.49073
-0.158925,-0.143132,2.481,2.4902
-0.150872,-0.143132,2.481,2.4897
-0.14282,-0.143132,2.481,2.48923
-0.134767,-0.143132,2.481,2.48878
-0.127634,-0.14417,2.499,2.50641
-0.120383,-0.145209,2.517,2.52406
-0.112214,-0.145209,2.517,2.52368
-0.104044,-0.145209,2.517,2.52333
-0.0958747,-0.145209,2.517,2.52301
-0.0877052,-0.145209,2.517,2.52271
-0.0795356,-0.145209,2.517,2.52244
-0.0719048,-0.146305,2.536,2.54123
-0.0636736,-0.146305,2.536,2.54101
-0.0554423,-0.146305,2.536,2.54082
-0.0468574,-0.145209,2.517,2.52162
-0.0386878,-0.145209,2.517,2.52148
-0.0305183,-0.145209,2.517,2.52137
-0.0221889,-0.14417,2.499,2.50325
-0.0140778,-0.14417,2.499,2.50319
-0.00596664,-0.14417,2.499,2.50316
0.00212905,-0.143132,2.481,2.48513
0.0101818,-0.143132,2.481,2.48515
0.0181022,-0.142093,2.463,2.46716
0.0259057,-0.141055,2.445,2.4492
0.0338416,-0.141055,2.445,2.4493
0.0417775,-0.141055,2.445,2.44942
0.0497133,-0.141055,2.445,2.44957
0.0572484,-0.140074,2.428,2.43271
0.065129,-0.140074,2.428,2.43291
0.0730097,-0.140074,2.428,2.43313
0.0803241,-0.139094,2.411,2.41634
0.0881496,-0.139094,2.411,2.41662
0.0959751,-0.139094,2.411,2.41692
0.103801,-0.139094,2.411,2.41724
0.112413,-0.140074,2.428,2.43463
0.120294,-0.140074,2.428,2.43501
0.128175,-0.140074,2.428,2.43541
0.136055,-0.140074,2.428,2.43584
0.144944,-0.141055,2.445,2.45335
0.15288,-0.141055,2.445,2.45383
0.160815,-0.141055,2.445,2.45434
0.168751,-0.141055,2.445,2.45487
0.176687,-0.141055,2.445,2.45543
0.184623,-0.141055,2.445,2.45601
0.193976,-0.142093,2.463,2.47471
0.201971,-0.142093,2.463,2.47535
0.209965,-0.142093,2.463,2.47601
0.219552,-0.143132,2.481,2.49481
0.227605,-0.143132,2.481,2.49553
0.235658,-0.143132,2.481,2.49627
0.24371,-0.143132,2.481,2.49705
0.251763,-0.143132,2.481,2.49785
0.259816,-0.143132,2.481,2.49867
0.267868,-0.143132,2.481,2.49952
0.275921,-0.143132,2.481,2.5004
0.283974,-0.143132,2.481,2.5013
0.292027,-0.143132,2.481,2.50222
0.300079,-0.143132,2.481,2.50318
0.308132,-0.143132,2.481,2.50416
0.316185,-0.143132,2.481,2.50516
0.324237,-0.143132,2.481,2.50619
0.33229,-0.143132,2.481,2.50724
0.340343,-0.143132,2.481,2.50832
0.348396,-0.143132,2.481,2.50943
0.356448,-0.143132,2.481,2.51056
0.364501,-0.143132,2.481,2.51171
0.372554,-0.143132,2.481,2.5129
0.380606,-0.143132,2.481,2.5141
0.388659,-0.143132,2.481,2.51533
0.396712,-0.143132,2.481,2.51659
0.404765,-0.143132,2.481,2.51787
0.412817,-0.143132,2.481,2.51918
0.42087,-0.143132,2.481,2.52051
0.428923,-0.143132,2.481,2.52187
0.436975,-0.143132,2.481,2.52325
0.445028,-0.143132,2.481,2.52466
0.453081,-0.143132,2.481,2.52609
0.461134,-0.143132,2.481,2.52755
0.469186,-0.143132,2.481,2.52903
0.477239,-0.143132,2.481,2.53053
0.485292,-0.143132,2.481,2.53207
0.493344,-0.143132,2.481,2.53362
0.501397,-0.143132,2.481,2.5352
0.50945,-0.143132,2.481,2.53681
0.517502,-0.143132,2.481,2.53844
0.525555,-0.143132,2.481,2.54009
0.533608,-0.143132,2.481,2.54177
0.541661,-0.143132,2.481,2.54347
0.549713,-0.143132,2.481,2.5452
0.557766,-0.143132,2.481,2.54695
0.565819,-0.143132,2.481,2.54873
0.573871,-0.143132,2.481,2.55052
0.586146,-0.14417,2.499,2.57087
0.594257,-0.14417,2.499,2.57273
0.602368,-0.14417,2.499,2.57461
0.610479,-0.14417,2.499,2.57652
0.618591,-0.14417,2.499,2.57846
0.626702,-0.14417,2.499,2.58042
0.634813,-0.14417,2.499,2.5824
0.642924,-0.14417,2.499,2.5844
0.651035,-0.14417,2.499,2.58643
0.659146,-0.14417,2.499,2.58849
0.667257,-0.14417,2.499,2.59056
0.675369,-0.14417,2.499,2.59266
0.68348,-0.14417,2.499,2.59479
0.691591,-0.14417,2.499,2.59694
0.704742,-0.145209,2.517,2.61783
0.712911,-0.145209,2.517,2.62004
0.721081,-0.145209,2.517,2.62228
0.729251,-0.145209,2.517,2.62453
0.73742,-0.145209,2.517,2.62682
0.74559,-0.145209,2.517,2.62912
0.753759,-0.145209,2.517,2.63145
0.761929,-0.145209,2.517,2.6338
0.770098,-0.145209,2.517,2.63618
0.778268,-0.145209,2.517,2.63857
0.786437,-0.145209,2.517,2.641
0.794607,-0.145209,2.517,2.64344
0.802777,-0.145209,2.517,2.64591
0.810946,-0.145209,2.517,2.6484
0.813258,-0.14417,2.499,2.63195
0.821369,-0.14417,2.499,2.63447
0.82948,-0.14417,2.499,2.63701
0.837591,-0.14417,2.499,2.63957
0.845702,-0.14417,2.499,2.64216
0.853814,-0.14417,2.499,2.64477
0.861925,-0.14417,2.499,2.6474
0.863769,-0.143132,2.481,2.63096
0.865497,-0.142093,2.463,2.61451
0.873491,-0.142093,2.463,2.61716
0.875043,-0.141055,2.445,2.6007
0.882979,-0.141055,2.445,2.60338
0.890915,-0.141055,2.445,2.60608
0.892601,-0.140074,2.428,2.59066
0.894177,-0.139094,2.411,2.57523
0.895642,-0.138113,2.394,2.55978
0.903413,-0.138113,2.394,2.56251
0.904712,-0.137132,2.377,2.54705
0.906286,-0.136209,2.361,2.53263
0.913949,-0.136209,2.361,2.53539
0.915367,-0.135286,2.345,2.52096
0.922978,-0.135286,2.345,2.52373
0.930589,-0.135286,2.345,2.52652
0.938201,-0.135286,2.345,2.52934
nan,nan,nan,NaN
nan,nan,nan,NaN
0.954477,-0.134363,2.329,2.52058
0.962037,-0.134363,2.329,2.52345
nan,nan,nan,NaN
nan,nan,nan,NaN
nan,nan,nan,NaN
nan,nan,nan,NaN
nan,nan,nan,NaN
nan,nan,nan,NaN
nan,nan,nan,NaN
nan,nan,nan,NaN
nan,nan,nan,NaN
nan,nan,nan,NaN
nan,nan,nan,NaN
nan,nan,nan,NaN
nan,nan,nan,NaN
nan,nan,nan,NaN
nan,nan,nan,NaN
nan,nan,nan,NaN
nan,nan,nan,NaN
nan,nan,nan,NaN
nan,nan,nan,NaN
nan,nan,nan,NaN
nan,nan,nan,NaN
nan,nan,nan,NaN
nan,nan,nan,NaN
nan,nan,nan,NaN
nan,nan,nan,NaN
nan,nan,nan,NaN
nan,nan,nan,NaN
nan,nan,nan,NaN
nan,nan,nan,NaN
nan,nan,nan,NaN
nan,nan,nan,NaN
nan,nan,nan,NaN
nan,nan,nan,NaN
nan,nan,nan,NaN
1.98133,-0.217034,3.762,4.2574
1.99354,-0.217034,3.762,4.26309
1.96257,-0.212361,3.681,4.1769
1.97451,-0.212361,3.681,4.18253
2.00805,-0.214669,3.721,4.2337
2.02013,-0.214669,3.721,4.23944
2.0322,-0.214669,3.721,4.24521
2.04428,-0.214669,3.721,4.251
2.05636,-0.214669,3.721,4.25682
2.0462,-0.212361,3.681,4.21685
2.05815,-0.212361,3.681,4.22266
2.04816,-0.210111,3.642,4.18369
2.05998,-0.210111,3.642,4.18949
2.05019,-0.207919,3.604,4.15154
2.06189,-0.207919,3.604,4.15733
2.05172,-0.205727,3.566,4.11925
2.04189,-0.203592,3.529,4.08223
2.05334,-0.203592,3.529,4.08797
2.04373,-0.201515,3.493,4.05197
2.03448,-0.199496,3.458,4.01705
2.0457,-0.199496,3.458,4.02274
2.03611,-0.197477,3.423,3.98769
2.02688,-0.195516,3.389,3.95371
2.03788,-0.195516,3.389,3.95936
2.00958,-0.191766,3.324,3.88898
1.98147,-0.188073,3.26,3.81958
1.99205,-0.188073,3.26,3.82508
1.96516,-0.184554,3.199,3.75893
1.93973,-0.181208,3.141,3.69611
1.94992,-0.181208,3.141,3.70147
1.94202,-0.179535,3.112,3.67263
1.90068,-0.174804,3.03,3.58107
1.91052,-0.174804,3.03,3.5863
1.90324,-0.173247,3.003,3.55954
1.86394,-0.168804,2.926,3.47336
1.87343,-0.168804,2.926,3.47847
1.83595,-0.164593,2.853,3.39668
1.81482,-0.161882,2.806,3.34565
1.79467,-0.159285,2.761,3.29687
1.80364,-0.159285,2.761,3.30176
1.78371,-0.156747,2.717,3.25396
1.76482,-0.154324,2.675,3.20843
1.7735,-0.154324,2.675,3.21322
1.76819,-0.153112,2.654,3.19275
1.74936,-0.150747,2.613,3.14813
1.75784,-0.150747,2.613,3.15286
1.7528,-0.149593,2.593,3.13342
1.74831,-0.148497,2.574,3.11514
-2.06524,-0.162087,2.977,3.62685
-2.03763,-0.160671,2.951,3.58973
-2.02805,-0.160671,2.951,3.5843
-1.98427,-0.157949,2.901,3.51825
-1.95852,-0.156642,2.877,3.48389
-1.94918,-0.156642,2.877,3.47864
-1.92366,-0.155336,2.853,3.44445
-1.89829,-0.154029,2.829,3.41035
-1.88911,-0.154029,2.829,3.40525
-1.87993,-0.154029,2.829,3.40016
-1.84033,-0.151524,2.783,3.33989
-1.8313,-0.151524,2.783,3.33492
-1.82226,-0.151524,2.783,3.32997
-1.81323,-0.151524,2.783,3.32503
-1.8042,-0.151524,2.783,3.32012
-1.81,-0.152777,2.806,3.34262
-1.80089,-0.152777,2.806,3.33769
-1.79179,-0.152777,2.806,3.33279
-1.78268,-0.152777,2.806,3.3279
-1.77357,-0.152777,2.806,3.32303
-1.77893,-0.154029,2.829,3.34538
-1.76974,-0.154029,2.829,3.3405
-1.76056,-0.154029,2.829,3.33565
-1.76624,-0.155336,2.853,3.35907
-1.77176,-0.156642,2.877,3.38242
-1.76242,-0.156642,2.877,3.37754
-1.75308,-0.156642,2.877,3.37268
-1.74374,-0.156642,2.877,3.36783
-1.7344,-0.156642,2.877,3.36301
-1.72507,-0.156642,2.877,3.3582
-1.71573,-0.156642,2.877,3.35341
-1.70639,-0.156642,2.877,3.34865
-1.69705,-0.156642,2.877,3.3439
-1.68771,-0.156642,2.877,3.33917
-1.67838,-0.156642,2.877,3.33446
nan,nan,nan,NaN
nan,nan,nan,NaN
nan,nan,nan,NaN
nan,nan,nan,NaN
nan,nan,nan,NaN
nan,nan,nan,NaN
nan,nan,nan,NaN
nan,nan,nan,NaN
nan,nan,nan,NaN
nan,nan,nan,NaN
nan,nan,nan,NaN
nan,nan,nan,NaN
nan,nan,nan,NaN
nan,nan,nan,NaN
nan,nan,nan,NaN
nan,nan,nan,NaN
nan,nan,nan,NaN
nan,nan,nan,NaN
nan,nan,nan,NaN
nan,nan,nan,NaN
nan,nan,nan,NaN
nan,nan,nan,NaN
nan,nan,nan,NaN
nan,nan,nan,NaN
nan,nan,nan,NaN
nan,nan,nan,NaN
nan,nan,nan,NaN
nan,nan,nan,NaN
-1.1879,-0.132196,2.428,2.70625
-1.18002,-0.132196,2.428,2.7028
-1.17214,-0.132196,2.428,2.69936
-1.16426,-0.132196,2.428,2.69595
-1.15638,-0.132196,2.428,2.69256
-1.14046,-0.13127,2.411,2.67035
-1.13263,-0.13127,2.411,2.66702
-1.1248,-0.13127,2.411,2.66371
-1.11698,-0.13127,2.411,2.66041
-1.10133,-0.130345,2.394,2.6384
-1.09356,-0.130345,2.394,2.63517
-1.08579,-0.130345,2.394,2.63195
-1.07802,-0.130345,2.394,2.62876
-1.07025,-0.130345,2.394,2.62558
-1.06248,-0.130345,2.394,2.62242
-1.05471,-0.130345,2.394,2.61928
-1.04694,-0.130345,2.394,2.61616
-1.03917,-0.130345,2.394,2.61306
-1.0314,-0.130345,2.394,2.60998
-1.02363,-0.130345,2.394,2.60692
-1.01586,-0.130345,2.394,2.60388
-1.01525,-0.13127,2.411,2.61933
-1.00742,-0.13127,2.411,2.6163
-0.999596,-0.13127,2.411,2.6133
-0.99177,-0.13127,2.411,2.61032
-0.983945,-0.13127,2.411,2.60736
-0.976119,-0.13127,2.411,2.60441
-0.975121,-0.132196,2.428,2.61983
-0.967241,-0.132196,2.428,2.61691
-0.95936,-0.132196,2.428,2.61401
-0.951479,-0.132196,2.428,2.61112
-0.943599,-0.132196,2.428,2.60826
-0.935718,-0.132196,2.428,2.60542
-0.927837,-0.132196,2.428,2.6026
-0.919957,-0.132196,2.428,2.5998
-0.912076,-0.132196,2.428,2.59703
-0.897864,-0.13127,2.411,2.5761
-0.890039,-0.13127,2.411,2.57339
-0.882213,-0.13127,2.411,2.57069
-0.874388,-0.13127,2.411,2.56802
-0.866562,-0.13127,2.411,2.56536
-0.858737,-0.13127,2.411,2.56273
-0.850911,-0.13127,2.411,2.56012
-0.843086,-0.13127,2.411,2.55753
-0.83526,-0.13127,2.411,2.55496
-0.827435,-0.13127,2.411,2.55241
-0.819609,-0.13127,2.411,2.54988
-0.811784,-0.13127,2.411,2.54738
-0.803958,-0.13127,2.411,2.5449
-0.796133,-0.13127,2.411,2.54244
-0.788307,-0.13127,2.411,2.54
-0.780482,-0.13127,2.411,2.53758
-0.772656,-0.13127,2.411,2.53518
-0.764831,-0.13127,2.411,2.53281
-0.762343,-0.132196,2.428,2.5483
-0.754462,-0.132196,2.428,2.54595
-0.746581,-0.132196,2.428,2.54363
-0.738701,-0.132196,2.428,2.54133
-0.73082,-0.132196,2.428,2.53905
-0.722939,-0.132196,2.428,2.53679
-0.715059,-0.132196,2.428,2.53456
-0.707178,-0.132196,2.428,2.53234
-0.699297,-0.132196,2.428,2.53015
-0.691417,-0.132196,2.428,2.52799
-0.683536,-0.132196,2.428,2.52584
-0.675655,-0.132196,2.428,2.52372
-0.667775,-0.132196,2.428,2.52162
-0.659894,-0.132196,2.428,2.51955
-0.652013,-0.132196,2.428,2.5175
-0.644133,-0.132196,2.428,2.51547
-0.636252,-0.132196,2.428,2.51346
-0.628371,-0.132196,2.428,2.51148
-0.620491,-0.132196,2.428,2.50952
-0.61261,-0.132196,2.428,2.50758
-0.604729,-0.132196,2.428,2.50567
-0.596848,-0.132196,2.428,2.50377
-0.588968,-0.132196,2.428,2.50191
-0.581087,-0.132196,2.428,2.50006
-0.573206,-0.132196,2.428,2.49824
-0.565326,-0.132196,2.428,2.49645
-0.561348,-0.133121,2.445,2.51214
-0.553412,-0.133121,2.445,2.51038
-0.545476,-0.133121,2.445,2.50864
-0.53754,-0.133121,2.445,2.50693
-0.529605,-0.133121,2.445,2.50524
-0.525509,-0.134101,2.463,2.52201
-0.517515,-0.134101,2.463,2.52035
-0.509521,-0.134101,2.463,2.51872
-0.501526,-0.134101,2.463,2.51712
-0.493532,-0.134101,2.463,2.51554
-0.489086,-0.135081,2.481,2.53235
-0.481034,-0.135081,2.481,2.53081
-0.472981,-0.135081,2.481,2.52929
-0.468301,-0.136061,2.499,2.54614
-0.46019,-0.136061,2.499,2.54466
-0.452079,-0.136061,2.499,2.5432
-0.443968,-0.136061,2.499,2.54178
-0.438996,-0.137042,2.517,2.55867
-0.430827,-0.137042,2.517,2.55728
-0.422657,-0.137042,2.517,2.55592
-0.414487,-0.137042,2.517,2.55458
-0.406318,-0.137042,2.517,2.55327
-0.398148,-0.137042,2.517,2.55198
-0.389979,-0.137042,2.517,2.55072
-0.381809,-0.137042,2.517,2.54948
-0.37364,-0.137042,2.517,2.54827
-0.36547,-0.137042,2.517,2.54708
-0.354745,-0.136061,2.499,2.52772
-0.346634,-0.136061,2.499,2.52659
-0.338523,-0.136061,2.499,2.52549
-0.330412,-0.136061,2.499,2.52442
-0.319979,-0.135081,2.481,2.50519
-0.311927,-0.135081,2.481,2.50418
-0.303874,-0.135081,2.481,2.50319
-0.293675,-0.134101,2.463,2.48407
-0.285681,-0.134101,2.463,2.48314
-0.279716,-0.135081,2.481,2.50037
-0.269692,-0.134101,2.463,2.48135
-0.261698,-0.134101,2.463,2.48049
-0.253704,-0.134101,2.463,2.47966
-0.243914,-0.133121,2.445,2.46074
-0.235978,-0.133121,2.445,2.45997
-0.228042,-0.133121,2.445,2.45922
-0.220106,-0.133121,2.445,2.45849
-0.21217,-0.133121,2.445,2.4578
-0.204234,-0.133121,2.445,2.45712
-0.196298,-0.133121,2.445,2.45648
-0.188363,-0.133121,2.445,2.45586
-0.181755,-0.134101,2.463,2.47334
-0.173761,-0.134101,2.463,2.47276
-0.165766,-0.134101,2.463,2.47221
-0.158925,-0.135081,2.481,2.48975
-0.150872,-0.135081,2.481,2.48925
-0.14282,-0.135081,2.481,2.48878
-0.134767,-0.135081,2.481,2.48833
-0.126714,-0.135081,2.481,2.4879
-0.119523,-0.136061,2.499,2.50555
-0.111411,-0.136061,2.499,2.50518
-0.1033,-0.136061,2.499,2.50483
-0.0958747,-0.137042,2.517,2.52255
-0.0877052,-0.137042,2.517,2.52225
-0.0795356,-0.137042,2.517,2.52198
-0.0719048,-0.138076,2.536,2.54077
-0.0636736,-0.138076,2.536,2.54055
-0.055027,-0.137042,2.517,2.52133
-0.0468574,-0.137042,2.517,2.52116
-0.0386878,-0.137042,2.517,2.52102
-0.0305183,-0.137042,2.517,2.52091
-0.0221889,-0.136061,2.499,2.5028
-0.0140778,-0.136061,2.499,2.50274
-0.00592366,-0.135081,2.481,2.48468
0.00212905,-0.135081,2.481,2.48468
0.0101818,-0.135081,2.481,2.4847
0.0181022,-0.134101,2.463,2.46671
0.0259057,-0.133121,2.445,2.44876
0.0338416,-0.133121,2.445,2.44886
0.0417775,-0.133121,2.445,2.44898
0.0493677,-0.132196,2.428,2.4321
0.0572484,-0.132196,2.428,2.43227
0.065129,-0.132196,2.428,2.43247
0.0730097,-0.132196,2.428,2.43269
0.0803241,-0.13127,2.411,2.41591
0.0881496,-0.13127,2.411,2.41618
0.0959751,-0.13127,2.411,2.41648
0.103801,-0.13127,2.411,2.4168
0.112413,-0.132196,2.428,2.43419
0.120294,-0.132196,2.428,2.43457
0.128175,-0.132196,2.428,2.43497
0.136055,-0.132196,2.428,2.4354
0.143936,-0.132196,2.428,2.43585
0.151817,-0.132196,2.428,2.43633
0.159697,-0.132196,2.428,2.43683
0.168751,-0.133121,2.445,2.45443
0.176687,-0.133121,2.445,2.45499
0.184623,-0.133121,2.445,2.45557
0.192559,-0.133121,2.445,2.45618
0.200495,-0.133121,2.445,2.45682
0.209965,-0.134101,2.463,2.47557
0.217959,-0.134101,2.463,2.47626
0.225954,-0.134101,2.463,2.47698
0.233948,-0.134101,2.463,2.47772
0.241942,-0.134101,2.463,2.47849
0.251763,-0.135081,2.481,2.4974
0.259816,-0.135081,2.481,2.49822
0.267868,-0.135081,2.481,2.49907
0.275921,-0.135081,2.481,2.49995
0.283974,-0.135081,2.481,2.50085
0.292027,-0.135081,2.481,2.50178
0.300079,-0.135081,2.481,2.50273
0.308132,-0.135081,2.481,2.50371
0.316185,-0.135081,2.481,2.50471
0.324237,-0.135081,2.481,2.50574
0.33229,-0.135081,2.481,2.5068
0.340343,-0.135081,2.481,2.50788
0.348396,-0.135081,2.481,2.50898
0.356448,-0.135081,2.481,2.51011
0.364501,-0.135081,2.481,2.51127
0.372554,-0.135081,2.481,2.51245
0.380606,-0.135081,2.481,2.51366
0.388659,-0.135081,2.481,2.51489
0.396712,-0.135081,2.481,2.51615
0.404765,-0.135081,2.481,2.51743
0.412817,-0.135081,2.481,2.51874
0.42087,-0.135081,2.481,2.52007
0.428923,-0.135081,2.481,2.52143
0.436975,-0.135081,2.481,2.52281
0.445028,-0.135081,2.481,2.52421
0.453081,-0.135081,2.481,2.52565
0.461134,-0.135081,2.481,2.5271
0.469186,-0.135081,2.481,2.52859
0.477239,-0.135081,2.481,2.53009
0.485292,-0.135081,2.481,2.53162
0.493344,-0.135081,2.481,2.53318
0.501397,-0.135081,2.481,2.53476
0.50945,-0.135081,2.481,2.53637
0.517502,-0.135081,2.481,2.53799
0.525555,-0.135081,2.481,2.53965
0.533608,-0.135081,2.481,2.54133
0.541661,-0.135081,2.481,2.54303
0.549713,-0.135081,2.481,2.54476
0.557766,-0.135081,2.481,2.54651
0.565819,-0.135081,2.481,2.54829
0.573871,-0.135081,2.481,2.55009
0.586146,-0.136061,2.499,2.57042
0.594257,-0.136061,2.499,2.57229
0.602368,-0.136061,2.499,2.57417
0.610479,-0.136061,2.499,2.57608
0.618591,-0.136061,2.499,2.57802
0.626702,-0.136061,2.499,2.57997
0.634813,-0.136061,2.499,2.58196
0.642924,-0.136061,2.499,2.58396
0.651035,-0.136061,2.499,2.58599
0.659146,-0.136061,2.499,2.58805
0.667257,-0.136061,2.499,2.59012
0.675369,-0.136061,2.499,2.59223
0.68348,-0.136061,2.499,2.59435
0.691591,-0.136061,2.499,2.5965
0.704742,-0.137042,2.517,2.61739
0.712911,-0.137042,2.517,2.6196
0.721081,-0.137042,2.517,2.62184
0.724035,-0.136061,2.499,2.60533
0.732147,-0.136061,2.499,2.6076
0.740258,-0.136061,2.499,2.60988
0.753759,-0.137042,2.517,2.63101
0.761929,-0.137042,2.517,2.63336
0.770098,-0.137042,2.517,2.63574
0.772702,-0.136061,2.499,2.61927
0.780813,-0.136061,2.499,2.62168
0.788924,-0.136061,2.499,2.6241
0.802777,-0.137042,2.517,2.64547
0.810946,-0.137042,2.517,2.64796
0.813258,-0.136061,2.499,2.63152
0.821369,-0.136061,2.499,2.63404
0.82948,-0.136061,2.499,2.63658
0.837591,-0.136061,2.499,2.63914
0.845702,-0.136061,2.499,2.64173
0.853814,-0.136061,2.499,2.64434
0.861925,-0.136061,2.499,2.64697
0.863769,-0.135081,2.481,2.63053
0.865497,-0.134101,2.463,2.61408
0.873491,-0.134101,2.463,2.61674
0.875043,-0.133121,2.445,2.60028
0.882979,-0.133121,2.445,2.60296
0.890915,-0.133121,2.445,2.60566
0.892601,-0.132196,2.428,2.59025
0.894177,-0.13127,2.411,2.57482
0.895642,-0.130345,2.394,2.55938
0.903413,-0.130345,2.394,2.5621
0.904712,-0.129419,2.377,2.54664
0.906286,-0.128548,2.361,2.53223
0.913949,-0.128548,2.361,2.53499
0.915367,-0.127677,2.345,2.52056
0.922978,-0.127677,2.345,2.52333
0.930589,-0.127677,2.345,2.52613
0.938201,-0.127677,2.345,2.52894
0.939359,-0.126806,2.329,2.5145
0.946918,-0.126806,2.329,2.51733
0.954477,-0.126806,2.329,2.52019
0.962037,-0.126806,2.329,2.52306
0.976257,-0.127677,2.345,2.54331
0.983868,-0.127677,2.345,2.54624
0.998245,-0.128548,2.361,2.56658
nan,nan,nan,NaN
nan,nan,nan,NaN
nan,nan,nan,NaN
nan,nan,nan,NaN
nan,nan,nan,NaN
nan,nan,nan,NaN
nan,nan,nan,NaN
nan,nan,nan,NaN
nan,nan,nan,NaN
nan,nan,nan,NaN
nan,nan,nan,NaN
nan,nan,nan,NaN
nan,nan,nan,NaN
nan,nan,nan,NaN
nan,nan,nan,NaN
nan,nan,nan,NaN
nan,nan,nan,NaN
nan,nan,nan,NaN
nan,nan,nan,NaN
nan,nan,nan,NaN
nan,nan,nan,NaN
nan,nan,nan,NaN
nan,nan,nan,NaN
nan,nan,nan,NaN
nan,nan,nan,NaN
nan,nan,nan,NaN
nan,nan,nan,NaN
nan,nan,nan,NaN
nan,nan,nan,NaN
1.74572,-0.182722,3.356,3.7873
1.75661,-0.182722,3.356,3.79234
1.82122,-0.188276,3.458,3.91281
1.83245,-0.188276,3.458,3.91805
1.86233,-0.190181,3.493,3.96302
1.91283,-0.194156,3.566,4.05129
1.94491,-0.196225,3.604,4.1
1.95661,-0.196225,3.604,4.10556
1.9683,-0.196225,3.604,4.11115
2.00088,-0.198294,3.642,4.16017
2.0127,-0.198294,3.642,4.16587
2.0034,-0.196225,3.604,4.12807
2.0151,-0.196225,3.604,4.13375
2.00542,-0.194156,3.566,4.09582
2.017,-0.194156,3.566,4.1015
2.02857,-0.194156,3.566,4.10721
2.01898,-0.192141,3.529,4.07026
2.03043,-0.192141,3.529,4.07596
2.02106,-0.190181,3.493,4.04004
2.03239,-0.190181,3.493,4.04572
2.02325,-0.188276,3.458,4.01083
2.01389,-0.18637,3.423,3.97585
2.025,-0.18637,3.423,3.98149
2.01588,-0.184519,3.389,3.94755
1.98801,-0.18098,3.324,3.87736
1.99879,-0.18098,3.324,3.8829
1.97089,-0.177495,3.26,3.8136
1.9444,-0.174174,3.199,3.74761
1.95478,-0.174174,3.199,3.75301
1.92953,-0.171016,3.141,3.69029
1.90453,-0.167913,3.084,3.62856
1.91454,-0.167913,3.084,3.63383
1.9077,-0.166443,3.057,3.60725
1.90068,-0.164973,3.03,3.5806
1.91052,-0.164973,3.03,3.58583
1.87028,-0.160671,2.951,3.49745
1.84801,-0.157949,2.901,3.44324
1.85743,-0.157949,2.901,3.4483
1.82051,-0.154029,2.829,3.36767
1.79994,-0.151524,2.783,3.31781
1.78037,-0.149129,2.739,3.27018
1.78926,-0.149129,2.739,3.27503
1.78371,-0.147931,2.717,3.25355
1.76482,-0.145644,2.675,3.20803
1.7735,-0.145644,2.675,3.21281
1.76819,-0.144501,2.654,3.19235
1.74936,-0.142268,2.613,3.14774
1.75784,-0.142268,2.613,3.15246
1.73996,-0.140145,2.574,3.11008
1.73541,-0.13911,2.555,3.09177
-2.06524,-0.152427,2.977,3.62643
-2.03763,-0.151096,2.951,3.58931
-2.02805,-0.151096,2.951,3.58388
-2.00137,-0.149816,2.926,3.54816
-1.97485,-0.148536,2.901,3.51254
-1.96544,-0.148536,2.901,3.50725
-1.93984,-0.147307,2.877,3.47301
-1.89829,-0.144849,2.829,3.40995
-1.88911,-0.144849,2.829,3.40484
-1.87993,-0.144849,2.829,3.39976
-1.85554,-0.143672,2.806,3.36709
-1.84643,-0.143672,2.806,3.36208
-1.83732,-0.143672,2.806,3.35709
-1.81323,-0.142494,2.783,3.32464
-1.8042,-0.142494,2.783,3.31972
-1.81,-0.143672,2.806,3.34221
-1.80089,-0.143672,2.806,3.33729
-1.79179,-0.143672,2.806,3.33238
-1.78268,-0.143672,2.806,3.32749
-1.77357,-0.143672,2.806,3.32262
-1.77893,-0.144849,2.829,3.34497
-1.76974,-0.144849,2.829,3.34009
-1.76056,-0.144849,2.829,3.33524
-1.76624,-0.146078,2.853,3.35865
-1.77176,-0.147307,2.877,3.382
-1.76242,-0.147307,2.877,3.37712
-1.75308,-0.147307,2.877,3.37226
-1.74374,-0.147307,2.877,3.36741
-1.7344,-0.147307,2.877,3.36259
-1.72507,-0.147307,2.877,3.35778
-1.71573,-0.147307,2.877,3.35299
-1.70639,-0.147307,2.877,3.34822
-1.69705,-0.147307,2.877,3.34347
-1.68771,-0.147307,2.877,3.33874
-1.67838,-0.147307,2.877,3.33403
nan,nan,nan,NaN
nan,nan,nan,NaN
nan,nan,nan,NaN
nan,nan,nan,NaN
nan,nan,nan,NaN
nan,nan,nan,NaN
nan,nan,nan,NaN
nan,nan,nan,NaN
nan,nan,nan,NaN
nan,nan,nan,NaN
nan,nan,nan,NaN
nan,nan,nan,NaN
nan,nan,nan,NaN
nan,nan,nan,NaN
nan,nan,nan,NaN
nan,nan,nan,NaN
nan,nan,nan,NaN
nan,nan,nan,NaN
nan,nan,nan,NaN
nan,nan,nan,NaN
nan,nan,nan,NaN
nan,nan,nan,NaN
nan,nan,nan,NaN
nan,nan,nan,NaN
nan,nan,nan,NaN
nan,nan,nan,NaN
nan,nan,nan,NaN
-1.21302,-0.126109,2.463,2.7484
-1.1879,-0.124317,2.428,2.70587
-1.18002,-0.124317,2.428,2.70242
-1.17214,-0.124317,2.428,2.69899
-1.16426,-0.124317,2.428,2.69558
-1.15638,-0.124317,2.428,2.69218
-1.14046,-0.123447,2.411,2.66998
-1.13263,-0.123447,2.411,2.66665
-1.1248,-0.123447,2.411,2.66333
-1.11698,-0.123447,2.411,2.66004
-1.10133,-0.122576,2.394,2.63803
-1.09356,-0.122576,2.394,2.63479
-1.08579,-0.122576,2.394,2.63158
-1.07802,-0.122576,2.394,2.62838
-1.07025,-0.122576,2.394,2.6252
-1.06248,-0.122576,2.394,2.62205
-1.05471,-0.122576,2.394,2.61891
-1.04694,-0.122576,2.394,2.61579
-1.03917,-0.122576,2.394,2.61269
-1.0314,-0.122576,2.394,2.60961
-1.02363,-0.122576,2.394,2.60655
-1.01586,-0.122576,2.394,2.6035
-1.01525,-0.123447,2.411,2.61895
-1.00742,-0.123447,2.411,2.61592
-0.999596,-0.123447,2.411,2.61292
-0.99177,-0.123447,2.411,2.60994
-0.983945,-0.123447,2.411,2.60697
-0.976119,-0.123447,2.411,2.60403
-0.968294,-0.123447,2.411,2.60111
-0.960468,-0.123447,2.411,2.5982
-0.952643,-0.123447,2.411,2.59532
-0.944817,-0.123447,2.411,2.59246
-0.943599,-0.124317,2.428,2.60788
-0.935718,-0.124317,2.428,2.60504
-0.927837,-0.124317,2.428,2.60221
-0.919957,-0.124317,2.428,2.59942
-0.912076,-0.124317,2.428,2.59664
-0.897864,-0.123447,2.411,2.57572
-0.890039,-0.123447,2.411,2.573
-0.882213,-0.123447,2.411,2.5703
-0.874388,-0.123447,2.411,2.56763
-0.866562,-0.123447,2.411,2.56497
-0.858737,-0.123447,2.411,2.56234
-0.850911,-0.123447,2.411,2.55973
-0.843086,-0.123447,2.411,2.55714
-0.83526,-0.123447,2.411,2.55457
-0.827435,-0.123447,2.411,2.55202
-0.819609,-0.123447,2.411,2.54949
-0.811784,-0.123447,2.411,2.54699
-0.803958,-0.123447,2.411,2.54451
-0.796133,-0.123447,2.411,2.54204
-0.788307,-0.123447,2.411,2.5396
-0.780482,-0.123447,2.411,2.53719
-0.772656,-0.123447,2.411,2.53479
-0.764831,-0.123447,2.411,2.53242
-0.762343,-0.124317,2.428,2.5479
-0.754462,-0.124317,2.428,2.54556
-0.746581,-0.124317,2.428,2.54323
-0.738701,-0.124317,2.428,2.54093
-0.73082,-0.124317,2.428,2.53865
-0.722939,-0.124317,2.428,2.53639
-0.715059,-0.124317,2.428,2.53416
-0.707178,-0.124317,2.428,2.53194
-0.699297,-0.124317,2.428,2.52975
-0.691417,-0.124317,2.428,2.52759
-0.683536,-0.124317,2.428,2.52544
-0.675655,-0.124317,2.428,2.52332
-0.667775,-0.124317,2.428,2.52122
-0.659894,-0.124317,2.428,2.51915
-0.652013,-0.124317,2.428,2.51709
-0.644133,-0.124317,2.428,2.51506
-0.636252,-0.124317,2.428,2.51306
-0.628371,-0.124317,2.428,2.51107
-0.620491,-0.124317,2.428,2.50911
-0.61261,-0.124317,2.428,2.50718
-0.604729,-0.124317,2.428,2.50526
-0.596848,-0.124317,2.428,2.50337
-0.588968,-0.124317,2.428,2.5015
-0.581087,-0.124317,2.428,2.49966
-0.573206,-0.124317,2.428,2.49784
-0.565326,-0.124317,2.428,2.49604
-0.561348,-0.125188,2.445,2.51173
-0.553412,-0.125188,2.445,2.50997
-0.545476,-0.125188,2.445,2.50823
-0.541498,-0.126109,2.463,2.52497
-0.533504,-0.126109,2.463,2.52327
-0.525509,-0.126109,2.463,2.52159
-0.517515,-0.126109,2.463,2.51994
-0.509521,-0.126109,2.463,2.51831
-0.501526,-0.126109,2.463,2.5167
-0.497139,-0.127031,2.481,2.5335
-0.489086,-0.127031,2.481,2.53194
-0.481034,-0.127031,2.481,2.53039
-0.476412,-0.127953,2.499,2.54722
-0.468301,-0.127953,2.499,2.54572
-0.46019,-0.127953,2.499,2.54424
-0.452079,-0.127953,2.499,2.54278
-0.447166,-0.128874,2.517,2.55966
-0.438996,-0.128874,2.517,2.55824
-0.430827,-0.128874,2.517,2.55686
-0.422657,-0.128874,2.517,2.55549
-0.414487,-0.128874,2.517,2.55415
-0.406318,-0.128874,2.517,2.55284
-0.398148,-0.128874,2.517,2.55155
-0.389979,-0.128874,2.517,2.55029
-0.381809,-0.128874,2.517,2.54905
-0.37364,-0.128874,2.517,2.54784
-0.36547,-0.128874,2.517,2.54666
-0.354745,-0.127953,2.499,2.52729
-0.346634,-0.127953,2.499,2.52617
-0.336085,-0.127031,2.481,2.50688
-0.328032,-0.127031,2.481,2.50581
-0.319979,-0.127031,2.481,2.50477
-0.311927,-0.127031,2.481,2.50376
-0.303874,-0.127031,2.481,2.50277
-0.293675,-0.126109,2.463,2.48365
-0.285681,-0.126109,2.463,2.48272
-0.277686,-0.126109,2.463,2.48181
-0.269692,-0.126109,2.463,2.48093
-0.259785,-0.125188,2.445,2.46195
-0.251849,-0.125188,2.445,2.46112
-0.243914,-0.125188,2.445,2.46032
-0.235978,-0.125188,2.445,2.45955
-0.228042,-0.125188,2.445,2.4588
-0.220106,-0.125188,2.445,2.45808
-0.21217,-0.125188,2.445,2.45738
-0.204234,-0.125188,2.445,2.45671
-0.196298,-0.125188,2.445,2.45606
-0.188363,-0.125188,2.445,2.45544
-0.181755,-0.126109,2.463,2.47291
-0.173761,-0.126109,2.463,2.47234
-0.165766,-0.126109,2.463,2.47179
-0.158925,-0.127031,2.481,2.48933
-0.150872,-0.127031,2.481,2.48883
-0.14282,-0.127031,2.481,2.48835
-0.134767,-0.127031,2.481,2.4879
-0.126714,-0.127031,2.481,2.48748
-0.119523,-0.127953,2.499,2.50513
-0.111411,-0.127953,2.499,2.50475
-0.1033,-0.127953,2.499,2.50441
-0.0958747,-0.128874,2.517,2.52212
-0.0877052,-0.128874,2.517,2.52182
-0.0795356,-0.128874,2.517,2.52155
-0.0719048,-0.129847,2.536,2.54034
-0.0636736,-0.129847,2.536,2.54012
-0.055027,-0.128874,2.517,2.5209
-0.0468574,-0.128874,2.517,2.52073
-0.0386878,-0.128874,2.517,2.52059
-0.0305183,-0.128874,2.517,2.52048
-0.0221889,-0.127953,2.499,2.50237
-0.0140778,-0.127953,2.499,2.50231
-0.00592366,-0.127031,2.481,2.48426
0.00212905,-0.127031,2.481,2.48425
0.0101818,-0.127031,2.481,2.48427
0.0181022,-0.126109,2.463,2.46629
0.0259057,-0.125188,2.445,2.44834
0.0338416,-0.125188,2.445,2.44844
0.0417775,-0.125188,2.445,2.44856
0.0493677,-0.124317,2.428,2.43168
0.0572484,-0.124317,2.428,2.43185
0.065129,-0.124317,2.428,2.43205
0.0730097,-0.124317,2.428,2.43228
0.0808904,-0.124317,2.428,2.43253
0.0887711,-0.124317,2.428,2.4328
0.0966518,-0.124317,2.428,2.4331
0.104532,-0.124317,2.428,2.43343
0.112413,-0.124317,2.428,2.43378
0.120294,-0.124317,2.428,2.43415
0.128175,-0.124317,2.428,2.43456
0.136055,-0.124317,2.428,2.43498
0.143936,-0.124317,2.428,2.43544
0.151817,-0.124317,2.428,2.43592
0.159697,-0.124317,2.428,2.43642
0.168751,-0.125188,2.445,2.45401
0.176687,-0.125188,2.445,2.45457
0.184623,-0.125188,2.445,2.45515
0.192559,-0.125188,2.445,2.45576
0.200495,-0.125188,2.445,2.4564
0.209965,-0.126109,2.463,2.47515
0.217959,-0.126109,2.463,2.47584
0.225954,-0.126109,2.463,2.47656
0.233948,-0.126109,2.463,2.4773
0.241942,-0.126109,2.463,2.47807
0.249936,-0.126109,2.463,2.47886
0.257931,-0.126109,2.463,2.47968
0.265925,-0.126109,2.463,2.48052
0.273919,-0.126109,2.463,2.48139
0.281914,-0.126109,2.463,2.48229
0.289908,-0.126109,2.463,2.48321
0.297902,-0.126109,2.463,2.48415
0.305896,-0.126109,2.463,2.48512
0.313891,-0.126109,2.463,2.48612
0.321885,-0.126109,2.463,2.48714
0.329879,-0.126109,2.463,2.48819
0.337874,-0.126109,2.463,2.48926
0.345868,-0.126109,2.463,2.49036
0.356448,-0.127031,2.481,2.50969
0.364501,-0.127031,2.481,2.51085
0.372554,-0.127031,2.481,2.51203
0.380606,-0.127031,2.481,2.51324
0.388659,-0.127031,2.481,2.51447
0.393834,-0.126109,2.463,2.49747
0.401828,-0.126109,2.463,2.49875
0.409822,-0.126109,2.463,2.50005
0.42087,-0.127031,2.481,2.51965
0.428923,-0.127031,2.481,2.52101
0.436975,-0.127031,2.481,2.52239
0.445028,-0.127031,2.481,2.5238
0.453081,-0.127031,2.481,2.52523
0.461134,-0.127031,2.481,2.52669
0.469186,-0.127031,2.481,2.52817
0.477239,-0.127031,2.481,2.52968
0.485292,-0.127031,2.481,2.53121
0.493344,-0.127031,2.481,2.53276
0.501397,-0.127031,2.481,2.53434
0.50945,-0.127031,2.481,2.53595
0.517502,-0.127031,2.481,2.53758
0.525555,-0.127031,2.481,2.53923
0.533608,-0.127031,2.481,2.54091
0.541661,-0.127031,2.481,2.54262
0.549713,-0.127031,2.481,2.54434
0.557766,-0.127031,2.481,2.5461
0.565819,-0.127031,2.481,2.54787
0.573871,-0.127031,2.481,2.54967
0.581924,-0.127031,2.481,2.5515
0.589977,-0.127031,2.481,2.55335
0.59803,-0.127031,2.481,2.55522
0.606082,-0.127031,2.481,2.55711
0.614135,-0.127031,2.481,2.55904
0.626702,-0.127953,2.499,2.57956
0.634813,-0.127953,2.499,2.58154
0.642924,-0.127953,2.499,2.58355
0.651035,-0.127953,2.499,2.58558
0.659146,-0.127953,2.499,2.58763
0.667257,-0.127953,2.499,2.58971
0.675369,-0.127953,2.499,2.59181
0.68348,-0.127953,2.499,2.59394
0.691591,-0.127953,2.499,2.59609
0.699702,-0.127953,2.499,2.59826
0.707813,-0.127953,2.499,2.60046
0.715924,-0.127953,2.499,2.60268
0.724035,-0.127953,2.499,2.60492
0.732147,-0.127953,2.499,2.60718
0.740258,-0.127953,2.499,2.60947
0.748369,-0.127953,2.499,2.61179
0.75648,-0.127953,2.499,2.61412
0.764591,-0.127953,2.499,2.61648
0.772702,-0.127953,2.499,2.61886
0.780813,-0.127953,2.499,2.62127
0.788924,-0.127953,2.499,2.62369
0.797036,-0.127953,2.499,2.62615
0.805147,-0.127953,2.499,2.62862
0.813258,-0.127953,2.499,2.63111
0.821369,-0.127953,2.499,2.63363
0.82948,-0.127953,2.499,2.63617
0.837591,-0.127953,2.499,2.63874
0.845702,-0.127953,2.499,2.64132
0.847664,-0.127031,2.481,2.62489
0.855716,-0.127031,2.481,2.6275
0.863769,-0.127031,2.481,2.63013
0.865497,-0.126109,2.463,2.61369
0.873491,-0.126109,2.463,2.61634
0.881485,-0.126109,2.463,2.61902
0.882979,-0.125188,2.445,2.60257
0.890915,-0.125188,2.445,2.60527
0.892601,-0.124317,2.428,2.58986
0.894177,-0.123447,2.411,2.57443
0.895642,-0.122576,2.394,2.55899
0.903413,-0.122576,2.394,2.56172
0.911183,-0.122576,2.394,2.56447
0.912428,-0.121706,2.377,2.54901
0.920143,-0.121706,2.377,2.55178
0.921612,-0.120887,2.361,2.53738
0.929276,-0.120887,2.361,2.54017
0.936939,-0.120887,2.361,2.54299
0.938201,-0.120068,2.345,2.52857
0.939359,-0.119248,2.329,2.51413
0.946918,-0.119248,2.329,2.51697
0.954477,-0.119248,2.329,2.51982
0.968646,-0.120068,2.345,2.54002
0.976257,-0.120068,2.345,2.54294
0.983868,-0.120068,2.345,2.54587
0.998245,-0.120887,2.361,2.56621
1.02721,-0.123447,2.411,2.62361
1.04963,-0.125188,2.445,2.66372
1.05757,-0.125188,2.445,2.66686
1.08904,-0.127953,2.499,2.72899
1.13008,-0.131793,2.574,2.81423
1.13843,-0.131793,2.574,2.8176
1.18243,-0.135889,2.654,2.90866
1.20989,-0.138039,2.696,2.95826
1.23808,-0.140241,2.739,3.00909
1.24697,-0.140241,2.739,3.01276
1.27603,-0.142494,2.783,3.06491
1.29568,-0.143672,2.806,3.09404
1.30479,-0.143672,2.806,3.09786
1.33591,-0.146078,2.853,3.15366
1.34517,-0.146078,2.853,3.1576
1.35443,-0.146078,2.853,3.16155
1.36369,-0.146078,2.853,3.16553
1.3614,-0.144849,2.829,3.14287
1.37058,-0.144849,2.829,3.14686
1.37976,-0.144849,2.829,3.15087
1.41251,-0.147307,2.877,3.20843
1.43371,-0.148536,2.901,3.23935
1.44313,-0.148536,2.901,3.24353
1.46506,-0.149816,2.926,3.27572
1.50026,-0.152427,2.977,3.33715
1.50992,-0.152427,2.977,3.3415
1.51958,-0.152427,2.977,3.34588
1.57034,-0.156523,3.057,3.44031
1.63868,-0.162309,3.17,3.57219
1.64897,-0.162309,3.17,3.57692
1.70636,-0.166917,3.26,3.68336
1.7675,-0.171832,3.356,3.79689
1.7784,-0.171832,3.356,3.80197
1.82501,-0.175263,3.423,3.88308
1.8549,-0.177055,3.458,3.92807
1.94491,-0.18453,3.604,4.09946
1.95661,-0.18453,3.604,4.10502
1.9683,-0.18453,3.604,4.11061
2.00088,-0.186476,3.642,4.15962
2.0127,-0.186476,3.642,4.16532
2.0034,-0.18453,3.604,4.12753
2.0151,-0.18453,3.604,4.13322
2.00542,-0.182585,3.566,4.09529
2.017,-0.182585,3.566,4.10097
2.02857,-0.182585,3.566,4.10668
2.01898,-0.18069,3.529,4.06974
2.03043,-0.18069,3.529,4.07543
2.02106,-0.178847,3.493,4.03952
2.03239,-0.178847,3.493,4.0452
2.02325,-0.177055,3.458,4.01032
2.01389,-0.175263,3.423,3.97535
2.025,-0.175263,3.423,3.98099
2.01588,-0.173522,3.389,3.94705
1.98801,-0.170194,3.324,3.87687
1.99879,-0.170194,3.324,3.88241
1.97089,-0.166917,3.26,3.81312
1.9444,-0.163794,3.199,3.74715
1.95478,-0.163794,3.199,3.75254
1.92953,-0.160824,3.141,3.68983
1.90453,-0.157906,3.084,3.62811
1.91454,-0.157906,3.084,3.63338
1.9077,-0.156523,3.057,3.60681
1.91762,-0.156523,3.057,3.61207
nan,nan,nan,NaN
1.87028,-0.151096,2.951,3.49703
1.84801,-0.148536,2.901,3.44282
1.85743,-0.148536,2.901,3.44788
1.82051,-0.144849,2.829,3.36727
1.79994,-0.142494,2.783,3.31741
1.78037,-0.140241,2.739,3.26979
1.78926,-0.140241,2.739,3.27464
1.78371,-0.139115,2.717,3.25316
1.76482,-0.136964,2.675,3.20764
1.7735,-0.136964,2.675,3.21243
1.76819,-0.135889,2.654,3.19197
1.74936,-0.13379,2.613,3.14737
1.75784,-0.13379,2.613,3.15209
1.73996,-0.131793,2.574,3.10971
1.73541,-0.13082,2.555,3.0914
-2.06524,-0.142767,2.977,3.62604
-2.03763,-0.14152,2.951,3.58892
-2.02805,-0.14152,2.951,3.58349
-1.98427,-0.139122,2.901,3.51745
-1.97485,-0.139122,2.901,3.51215
-1.96544,-0.139122,2.901,3.50687
-1.92366,-0.13682,2.853,3.44366
-1.89829,-0.135669,2.829,3.40957
-1.88911,-0.135669,2.829,3.40447
-1.87993,-0.135669,2.829,3.39938
-1.85554,-0.134567,2.806,3.36671
-1.84643,-0.134567,2.806,3.3617
-1.83732,-0.134567,2.806,3.35671
-1.81323,-0.133464,2.783,3.32426
-1.8042,-0.133464,2.783,3.31934
-1.79516,-0.133464,2.783,3.31444
-1.78613,-0.133464,2.783,3.30956
-1.79179,-0.134567,2.806,3.332
-1.78268,-0.134567,2.806,3.32711
-1.77357,-0.134567,2.806,3.32224
-1.77893,-0.135669,2.829,3.34458
-1.76974,-0.135669,2.829,3.33971
-1.76056,-0.135669,2.829,3.33485
-1.76624,-0.13682,2.853,3.35826
-1.75698,-0.13682,2.853,3.3534
-1.76242,-0.137971,2.877,3.37673
-1.75308,-0.137971,2.877,3.37186
-1.74374,-0.137971,2.877,3.36702
-1.7344,-0.137971,2.877,3.36219
-1.72507,-0.137971,2.877,3.35738
-1.71573,-0.137971,2.877,3.35259
-1.70639,-0.137971,2.877,3.34783
-1.69705,-0.137971,2.877,3.34308
-1.68771,-0.137971,2.877,3.33834
-1.66438,-0.13682,2.853,3.30582
-1.65511,-0.13682,2.853,3.30117
-1.64585,-0.13682,2.853,3.29654
nan,nan,nan,NaN
nan,nan,nan,NaN
nan,nan,nan,NaN
nan,nan,nan,NaN
nan,nan,nan,NaN
nan,nan,nan,NaN
nan,nan,nan,NaN
nan,nan,nan,NaN
nan,nan,nan,NaN
nan,nan,nan,NaN
nan,nan,nan,NaN
nan,nan,nan,NaN
nan,nan,nan,NaN
nan,nan,nan,NaN
nan,nan,nan,NaN
nan,nan,nan,NaN
nan,nan,nan,NaN
nan,nan,nan,NaN
nan,nan,nan,NaN
nan,nan,nan,NaN
nan,nan,nan,NaN
nan,nan,nan,NaN
nan,nan,nan,NaN
-1.24697,-0.119844,2.499,2.79541
-1.23886,-0.119844,2.499,2.7918
-1.21302,-0.118117,2.463,2.74804
-1.19622,-0.117254,2.445,2.72447
-1.18828,-0.117254,2.445,2.72099
-1.17214,-0.116439,2.428,2.69864
-1.16426,-0.116439,2.428,2.69523
-1.15638,-0.116439,2.428,2.69183
-1.1485,-0.116439,2.428,2.68845
-1.13263,-0.115624,2.411,2.6663
-1.1248,-0.115624,2.411,2.66298
-1.11698,-0.115624,2.411,2.65969
-1.10133,-0.114808,2.394,2.63768
-1.09356,-0.114808,2.394,2.63444
-1.08579,-0.114808,2.394,2.63123
-1.07802,-0.114808,2.394,2.62803
-1.07025,-0.114808,2.394,2.62485
-1.06248,-0.114808,2.394,2.62169
-1.05471,-0.114808,2.394,2.61856
-1.04694,-0.114808,2.394,2.61544
-1.03917,-0.114808,2.394,2.61233
-1.0314,-0.114808,2.394,2.60925
-1.02363,-0.114808,2.394,2.60619
-1.01586,-0.114808,2.394,2.60315
-1.00809,-0.114808,2.394,2.60013
-1.00032,-0.114808,2.394,2.59712
-0.992548,-0.114808,2.394,2.59414
-0.984778,-0.114808,2.394,2.59118
-0.977007,-0.114808,2.394,2.58823
-0.976119,-0.115624,2.411,2.60367
-0.968294,-0.115624,2.411,2.60075
-0.960468,-0.115624,2.411,2.59784
-0.952643,-0.115624,2.411,2.59496
-0.944817,-0.115624,2.411,2.5921
-0.936992,-0.115624,2.411,2.58926
-0.929166,-0.115624,2.411,2.58643
-0.921341,-0.115624,2.411,2.58363
-0.913515,-0.115624,2.411,2.58085
-0.90569,-0.115624,2.411,2.57809
-0.897864,-0.115624,2.411,2.57535
-0.890039,-0.115624,2.411,2.57264
-0.882213,-0.115624,2.411,2.56994
-0.874388,-0.115624,2.411,2.56726
-0.866562,-0.115624,2.411,2.56461
-0.858737,-0.115624,2.411,2.56198
-0.850911,-0.115624,2.411,2.55936
-0.843086,-0.115624,2.411,2.55677
-0.83526,-0.115624,2.411,2.5542
-0.827435,-0.115624,2.411,2.55165
-0.819609,-0.115624,2.411,2.54913
-0.811784,-0.115624,2.411,2.54662
-0.803958,-0.115624,2.411,2.54414
-0.796133,-0.115624,2.411,2.54168
-0.788307,-0.115624,2.411,2.53924
-0.780482,-0.115624,2.411,2.53682
-0.772656,-0.115624,2.411,2.53442
-0.764831,-0.115624,2.411,2.53205
-0.762343,-0.116439,2.428,2.54753
-0.754462,-0.116439,2.428,2.54518
-0.746581,-0.116439,2.428,2.54286
-0.738701,-0.116439,2.428,2.54056
-0.73082,-0.116439,2.428,2.53828
-0.722939,-0.116439,2.428,2.53602
-0.715059,-0.116439,2.428,2.53378
-0.707178,-0.116439,2.428,2.53157
-0.699297,-0.116439,2.428,2.52938
-0.691417,-0.116439,2.428,2.52721
-0.683536,-0.116439,2.428,2.52507
-0.675655,-0.116439,2.428,2.52295
-0.667775,-0.116439,2.428,2.52085
-0.659894,-0.116439,2.428,2.51877
-0.652013,-0.116439,2.428,2.51672
-0.644133,-0.116439,2.428,2.51469
-0.636252,-0.116439,2.428,2.51268
-0.628371,-0.116439,2.428,2.5107
-0.620491,-0.116439,2.428,2.50874
-0.61261,-0.116439,2.428,2.5068
-0.604729,-0.116439,2.428,2.50488
-0.596848,-0.116439,2.428,2.50299
-0.593092,-0.117254,2.445,2.51864
-0.585156,-0.117254,2.445,2.51678
-0.57722,-0.117254,2.445,2.51495
-0.569284,-0.117254,2.445,2.51314
-0.561348,-0.117254,2.445,2.51135
-0.553412,-0.117254,2.445,2.50959
-0.545476,-0.117254,2.445,2.50785
-0.541498,-0.118117,2.463,2.52459
-0.533504,-0.118117,2.463,2.52288
-0.525509,-0.118117,2.463,2.52121
-0.517515,-0.118117,2.463,2.51955
-0.513244,-0.118981,2.481,2.53632
-0.505192,-0.118981,2.481,2.53471
-0.497139,-0.118981,2.481,2.53311
-0.489086,-0.118981,2.481,2.53155
-0.481034,-0.118981,2.481,2.53
-0.476412,-0.119844,2.499,2.54683
-0.468301,-0.119844,2.499,2.54532
-0.46019,-0.119844,2.499,2.54384
-0.455335,-0.120707,2.517,2.5607
-0.447166,-0.120707,2.517,2.55926
-0.438996,-0.120707,2.517,2.55785
-0.430827,-0.120707,2.517,2.55646
-0.422657,-0.120707,2.517,2.55509
-0.414487,-0.120707,2.517,2.55375
-0.406318,-0.120707,2.517,2.55244
-0.398148,-0.120707,2.517,2.55115
-0.389979,-0.120707,2.517,2.54989
-0.381809,-0.120707,2.517,2.54865
-0.37364,-0.120707,2.517,2.54744
-0.36547,-0.120707,2.517,2.54626
-0.354745,-0.119844,2.499,2.5269
-0.346634,-0.119844,2.499,2.52577
-0.336085,-0.118981,2.481,2.50649
-0.328032,-0.118981,2.481,2.50542
-0.319979,-0.118981,2.481,2.50438
-0.311927,-0.118981,2.481,2.50336
-0.303874,-0.118981,2.481,2.50237
-0.293675,-0.118117,2.463,2.48326
-0.285681,-0.118117,2.463,2.48232
-0.277686,-0.118117,2.463,2.48142
-0.269692,-0.118117,2.463,2.48054
-0.259785,-0.117254,2.445,2.46156
-0.251849,-0.117254,2.445,2.46073
-0.243914,-0.117254,2.445,2.45993
-0.235978,-0.117254,2.445,2.45916
-0.228042,-0.117254,2.445,2.45841
-0.220106,-0.117254,2.445,2.45769
-0.21217,-0.117254,2.445,2.45699
-0.204234,-0.117254,2.445,2.45632
-0.196298,-0.117254,2.445,2.45567
-0.188363,-0.117254,2.445,2.45505
-0.181755,-0.118117,2.463,2.47252
-0.173761,-0.118117,2.463,2.47195
-0.165766,-0.118117,2.463,2.4714
-0.158925,-0.118981,2.481,2.48893
-0.150872,-0.118981,2.481,2.48843
-0.14282,-0.118981,2.481,2.48795
-0.134767,-0.118981,2.481,2.4875
-0.126714,-0.118981,2.481,2.48708
-0.119523,-0.119844,2.499,2.50473
-0.111411,-0.119844,2.499,2.50435
-0.1033,-0.119844,2.499,2.504
-0.0958747,-0.120707,2.517,2.52172
-0.0877052,-0.120707,2.517,2.52142
-0.0795356,-0.120707,2.517,2.52115
-0.0713661,-0.120707,2.517,2.5209
-0.0631965,-0.120707,2.517,2.52069
-0.055027,-0.120707,2.517,2.52049
-0.0468574,-0.120707,2.517,2.52033
-0.0386878,-0.120707,2.517,2.52019
-0.0303,-0.119844,2.499,2.50206
-0.0221889,-0.119844,2.499,2.50197
-0.0140778,-0.119844,2.499,2.50191
-0.00592366,-0.118981,2.481,2.48386
0.00212905,-0.118981,2.481,2.48385
0.0101818,-0.118981,2.481,2.48387
0.0181022,-0.118117,2.463,2.4659
0.0259057,-0.117254,2.445,2.44795
0.0338416,-0.117254,2.445,2.44804
0.0417775,-0.117254,2.445,2.44817
0.0493677,-0.116439,2.428,2.43129
0.0572484,-0.116439,2.428,2.43146
0.065129,-0.116439,2.428,2.43166
0.0730097,-0.116439,2.428,2.43189
0.0808904,-0.116439,2.428,2.43214
0.0887711,-0.116439,2.428,2.43241
0.0959751,-0.115624,2.411,2.41568
0.103801,-0.115624,2.411,2.416
0.112413,-0.116439,2.428,2.43339
0.120294,-0.116439,2.428,2.43377
0.128175,-0.116439,2.428,2.43417
0.136055,-0.116439,2.428,2.4346
0.143936,-0.116439,2.428,2.43505
0.151817,-0.116439,2.428,2.43553
0.159697,-0.116439,2.428,2.43603
0.167578,-0.116439,2.428,2.43656
0.175459,-0.116439,2.428,2.43711
0.183339,-0.116439,2.428,2.43769
0.192559,-0.117254,2.445,2.45537
0.200495,-0.117254,2.445,2.45601
0.208431,-0.117254,2.445,2.45667
0.216366,-0.117254,2.445,2.45735
0.224302,-0.117254,2.445,2.45807
0.233948,-0.118117,2.463,2.4769
0.241942,-0.118117,2.463,2.47767
0.249936,-0.118117,2.463,2.47847
0.257931,-0.118117,2.463,2.47928
