0.237962,0.640847,2.345,2.44261
0.245574,0.640847,2.345,2.44336
0.253185,0.640847,2.345,2.44414
0.260796,0.640847,2.345,2.44494
0.268407,0.640847,2.345,2.44576
0.276019,0.640847,2.345,2.44661
0.281695,0.636474,2.329,2.43078
0.289254,0.636474,2.329,2.43167
0.296813,0.636474,2.329,2.43258
0.304373,0.636474,2.329,2.43351
0.309789,0.632102,2.313,2.41775
0.317297,0.632102,2.313,2.41872
0.324804,0.632102,2.313,2.41971
0.332312,0.632102,2.313,2.42073
0.34452,0.640847,2.345,2.45528
0.352132,0.640847,2.345,2.45636
0.359743,0.640847,2.345,2.45746
0.369861,0.645219,2.361,2.47536
0.377524,0.645219,2.361,2.47652
0.385187,0.645219,2.361,2.4777
0.395513,0.649592,2.377,2.4957
0.406112,0.654237,2.394,2.51479
0.413882,0.654237,2.394,2.51606
0.424646,0.658883,2.411,2.53523
0.432472,0.658883,2.411,2.53655
0.440297,0.658883,2.411,2.53789
0.448123,0.658883,2.411,2.53926
0.455948,0.658883,2.411,2.54066
0.463774,0.658883,2.411,2.54207
0.471599,0.658883,2.411,2.54351
0.476045,0.654237,2.394,2.52703
0.483815,0.654237,2.394,2.52851
0.491585,0.654237,2.394,2.53
0.49581,0.649592,2.377,2.51355
0.503525,0.649592,2.377,2.51508
0.51124,0.649592,2.377,2.51664
0.515462,0.645219,2.361,2.50127
0.523125,0.645219,2.361,2.50286
0.530788,0.645219,2.361,2.50447
0.534802,0.640847,2.345,2.48912
0.542414,0.640847,2.345,2.49077
0.550025,0.640847,2.345,2.49244
0.557636,0.640847,2.345,2.49413
0.565248,0.640847,2.345,2.49584
0.572859,0.640847,2.345,2.49757
0.58047,0.640847,2.345,2.49933
0.584069,0.636474,2.329,2.48404
0.591628,0.636474,2.329,2.48583
0.599188,0.636474,2.329,2.48764
0.610915,0.640847,2.345,2.50658
0.618527,0.640847,2.345,2.50844
0.626138,0.640847,2.345,2.51033
0.633749,0.640847,2.345,2.51224
0.645737,0.645219,2.361,2.53132
0.6534,0.645219,2.361,2.53329
0.661063,0.645219,2.361,2.53528
0.673258,0.649592,2.377,2.55448
0.680973,0.649592,2.377,2.55653
0.688688,0.649592,2.377,2.55859
0.691716,0.645219,2.361,2.54344
0.699379,0.645219,2.361,2.54554
0.707042,0.645219,2.361,2.54765
0.705019,0.636474,2.329,2.51523
0.712578,0.636474,2.329,2.51736
0.71519,0.632102,2.313,2.5022
0.718011,0.628002,2.298,2.48812
0.72547,0.628002,2.298,2.49028
0.727825,0.62363,2.282,2.47511
0.720734,0.611332,2.237,2.42845
0.727994,0.611332,2.237,2.43061
0.730654,0.607506,2.223,2.41757
0.728243,0.599581,2.194,2.38819
0.730672,0.595755,2.18,2.37512
0.737748,0.595755,2.18,2.37731
0.740382,0.592202,2.167,2.36532
0.742587,0.588376,2.153,2.35224
0.749575,0.588376,2.153,2.35445
0.747075,0.580998,2.126,2.32713
0.749365,0.577445,2.113,2.31512
0.756223,0.577445,2.113,2.31734
0.758387,0.573892,2.1,2.30532
0.760466,0.57034,2.087,2.29329
0.76724,0.57034,2.087,2.29554
0.774014,0.57034,2.087,2.29782
0.780788,0.57034,2.087,2.30011
0.787561,0.57034,2.087,2.30241
0.794335,0.57034,2.087,2.30474
0.801109,0.57034,2.087,2.30708
0.807883,0.57034,2.087,2.30944
0.814657,0.57034,2.087,2.31182
0.821431,0.57034,2.087,2.31422
0.833364,0.573892,2.1,2.33106
0.845381,0.577445,2.113,2.34795
0.852239,0.577445,2.113,2.35043
0.859097,0.577445,2.113,2.35293
0.865956,0.577445,2.113,2.35544
0.872814,0.577445,2.113,2.35797
0.885084,0.580998,2.126,2.37504
0.897859,0.584824,2.14,2.39328
0.904805,0.584824,2.14,2.39589
0.91175,0.584824,2.14,2.39852
0.918696,0.584824,2.14,2.40117
0.925642,0.584824,2.14,2.40384
0.932588,0.584824,2.14,2.40652
0.939534,0.584824,2.14,2.40922
0.94648,0.584824,2.14,2.41194
0.953426,0.584824,2.14,2.41467
0.966206,0.588376,2.153,2.43211
0.973194,0.588376,2.153,2.43489
0.980182,0.588376,2.153,2.43769
0.993589,0.592202,2.167,2.45638
1.00062,0.592202,2.167,2.45924
1.00766,0.592202,2.167,2.46211
1.01469,0.592202,2.167,2.46499
1.02172,0.592202,2.167,2.4679
1.03493,0.595755,2.18,2.48564
1.042,0.595755,2.18,2.48859
1.05582,0.599581,2.194,2.50757
1.06294,0.599581,2.194,2.51057
1.07006,0.599581,2.194,2.5136
1.07718,0.599581,2.194,2.51663
1.0843,0.599581,2.194,2.51969
1.09142,0.599581,2.194,2.52276
1.09854,0.599581,2.194,2.52585
1.10567,0.599581,2.194,2.52896
1.12039,0.60368,2.209,2.54939
1.12756,0.60368,2.209,2.55255
1.14193,0.607506,2.223,2.57192
1.15638,0.611332,2.237,2.59135
1.16364,0.611332,2.237,2.5946
1.17875,0.615431,2.252,2.61528
1.18606,0.615431,2.252,2.61859
1.19337,0.615431,2.252,2.62191
1.20068,0.615431,2.252,2.62524
1.21604,0.619531,2.267,2.6461
1.22339,0.619531,2.267,2.64949
1.23075,0.619531,2.267,2.6529
1.23811,0.619531,2.267,2.65632
1.24547,0.619531,2.267,2.65976
1.25283,0.619531,2.267,2.66321
1.26018,0.619531,2.267,2.66668
1.26754,0.619531,2.267,2.67016
1.2749,0.619531,2.267,2.67366
1.28226,0.619531,2.267,2.67718
1.28962,0.619531,2.267,2.68071
1.29697,0.619531,2.267,2.68426
1.2957,0.615431,2.252,2.67004
1.30301,0.615431,2.252,2.67359
1.31032,0.615431,2.252,2.67716
1.31763,0.615431,2.252,2.68075
1.32494,0.615431,2.252,2.68435
1.33225,0.615431,2.252,2.68796
1.33956,0.615431,2.252,2.69159
1.3379,0.611332,2.237,2.67729
1.34516,0.611332,2.237,2.68092
1.35242,0.611332,2.237,2.68457
1.35968,0.611332,2.237,2.68824
1.37611,0.615431,2.252,2.70997
1.38342,0.615431,2.252,2.71369
1.39072,0.615431,2.252,2.71742
1.40735,0.619531,2.267,2.73929
1.4147,0.619531,2.267,2.74308
1.41265,0.615431,2.252,2.72871
1.41996,0.615431,2.252,2.7325
1.42727,0.615431,2.252,2.73631
1.43458,0.615431,2.252,2.74012
1.44189,0.615431,2.252,2.74396
1.4492,0.615431,2.252,2.74781
1.45651,0.615431,2.252,2.75167
1.46382,0.615431,2.252,2.75554
1.47113,0.615431,2.252,2.75943
1.47844,0.615431,2.252,2.76334
1.48575,0.615431,2.252,2.76726
1.49306,0.615431,2.252,2.77119
1.50037,0.615431,2.252,2.77513
1.50768,0.615431,2.252,2.77909
1.51499,0.615431,2.252,2.78306
1.52229,0.615431,2.252,2.78705
1.51942,0.611332,2.237,2.77246
-1.70866,0.681086,2.463,3.07405
-1.70067,0.681086,2.463,3.06961
-1.69268,0.681086,2.463,3.06519
-1.68468,0.681086,2.463,3.06078
-1.67669,0.681086,2.463,3.05639
-1.66869,0.681086,2.463,3.05201
-1.67283,0.686063,2.481,3.06992
-1.66478,0.686063,2.481,3.06554
-1.65673,0.686063,2.481,3.06118
-1.64868,0.686063,2.481,3.05682
-1.64062,0.686063,2.481,3.05249
-1.63257,0.686063,2.481,3.04817
-1.6363,0.691041,2.499,3.06595
-1.63992,0.696018,2.517,3.08368
-1.63175,0.696018,2.517,3.07934
-1.62358,0.696018,2.517,3.07502
-1.60386,0.691041,2.499,3.04875
-1.59575,0.691041,2.499,3.0445
-1.58764,0.691041,2.499,3.04025
-1.56815,0.686063,2.481,3.01416
-1.5601,0.686063,2.481,3.00997
-1.55204,0.686063,2.481,3.00581
-1.54399,0.686063,2.481,3.00166
-1.53594,0.686063,2.481,2.99752
-1.5168,0.681086,2.463,2.97169
-1.50881,0.681086,2.463,2.96762
-1.50081,0.681086,2.463,2.96356
-1.49282,0.681086,2.463,2.95952
-1.48482,0.681086,2.463,2.95549
-1.46604,0.676108,2.445,2.92992
-1.4581,0.676108,2.445,2.92595
-1.45016,0.676108,2.445,2.92201
-1.4322,0.671407,2.428,2.89779
-1.42432,0.671407,2.428,2.8939
-1.41644,0.671407,2.428,2.89003
-1.3987,0.666707,2.411,2.86597
-1.39087,0.666707,2.411,2.86216
-1.38305,0.666707,2.411,2.85836
-1.36552,0.662006,2.394,2.83446
-1.35775,0.662006,2.394,2.83072
-1.35957,0.666707,2.411,2.84708
-1.35174,0.666707,2.411,2.84335
-1.33444,0.662006,2.394,2.81961
-1.32667,0.662006,2.394,2.81594
-1.3189,0.662006,2.394,2.81229
-1.31113,0.662006,2.394,2.80866
-1.30336,0.662006,2.394,2.80504
-1.29559,0.662006,2.394,2.80144
-1.28782,0.662006,2.394,2.79785
-1.28005,0.662006,2.394,2.79428
-1.26325,0.657305,2.377,2.77091
-1.25553,0.657305,2.377,2.76741
-1.24781,0.657305,2.377,2.76391
-1.2401,0.657305,2.377,2.76044
-1.23238,0.657305,2.377,2.75698
-1.21643,0.65288,2.361,2.73501
-1.20876,0.65288,2.361,2.73161
-1.2011,0.65288,2.361,2.72823
-1.19344,0.65288,2.361,2.72486
-1.18577,0.65288,2.361,2.72151
-1.17811,0.65288,2.361,2.71818
-1.17045,0.65288,2.361,2.71487
-1.16278,0.65288,2.361,2.71158
-1.16295,0.657305,2.377,2.72665
-1.15523,0.657305,2.377,2.72337
-1.14752,0.657305,2.377,2.72011
-1.14795,0.662006,2.394,2.73629
-1.14018,0.662006,2.394,2.73304
-1.13241,0.662006,2.394,2.72981
-1.12464,0.662006,2.394,2.72659
-1.11687,0.662006,2.394,2.7234
-1.1091,0.662006,2.394,2.72022
-1.10133,0.662006,2.394,2.71706
-1.09356,0.662006,2.394,2.71392
-1.07808,0.657305,2.377,2.69155
-1.06316,0.65288,2.361,2.67037
-1.0555,0.65288,2.361,2.66733
-1.04784,0.65288,2.361,2.66431
-1.03312,0.648456,2.345,2.64327
-1.02551,0.648456,2.345,2.6403
-1.0179,0.648456,2.345,2.63735
-1.0034,0.644031,2.329,2.61645
-0.995836,0.644031,2.329,2.61356
-0.988277,0.644031,2.329,2.61069
-0.980718,0.644031,2.329,2.60784
-0.973158,0.644031,2.329,2.60501
-0.965599,0.644031,2.329,2.60219
-0.95804,0.644031,2.329,2.5994
-0.95048,0.644031,2.329,2.59662
-0.942921,0.644031,2.329,2.59386
-0.935362,0.644031,2.329,2.59112
-0.927802,0.644031,2.329,2.5884
-0.926565,0.648456,2.345,2.60347
-0.918953,0.648456,2.345,2.60077
-0.911342,0.648456,2.345,2.59809
-0.909897,0.65288,2.361,2.61314
-0.902234,0.65288,2.361,2.61048
-0.894571,0.65288,2.361,2.60784
-0.886907,0.65288,2.361,2.60522
-0.879244,0.65288,2.361,2.60262
-0.871581,0.65288,2.361,2.60004
-0.863918,0.65288,2.361,2.59748
-0.856255,0.65288,2.361,2.59495
-0.848591,0.65288,2.361,2.59243
-0.840928,0.65288,2.361,2.58993
-0.838912,0.657305,2.377,2.60499
-0.831197,0.657305,2.377,2.60251
-0.823481,0.657305,2.377,2.60006
-0.815766,0.657305,2.377,2.59762
-0.808051,0.657305,2.377,2.59521
-0.800336,0.657305,2.377,2.59282
-0.792621,0.657305,2.377,2.59045
-0.790519,0.662006,2.394,2.60661
-0.782749,0.662006,2.394,2.60426
-0.780482,0.666707,2.411,2.62041
-0.772656,0.666707,2.411,2.61809
-0.764831,0.666707,2.411,2.6158
-0.757005,0.666707,2.411,2.61352
-0.754462,0.671407,2.428,2.62967
-0.746581,0.671407,2.428,2.62742
-0.738701,0.671407,2.428,2.6252
-0.73082,0.671407,2.428,2.62299
-0.722939,0.671407,2.428,2.6208
-0.715059,0.671407,2.428,2.61864
-0.707178,0.671407,2.428,2.6165
-0.699297,0.671407,2.428,2.61438
-0.691417,0.671407,2.428,2.61228
-0.67875,0.666707,2.411,2.59193
-0.670925,0.666707,2.411,2.5899
-0.663099,0.666707,2.411,2.58788
-0.655274,0.666707,2.411,2.58589
-0.647448,0.666707,2.411,2.58391
-0.644133,0.671407,2.428,2.60017
-0.636252,0.671407,2.428,2.59823
-0.628371,0.671407,2.428,2.59631
-0.624835,0.676108,2.445,2.61258
-0.616899,0.676108,2.445,2.61069
-0.604729,0.671407,2.428,2.59069
-0.596848,0.671407,2.428,2.58886
-0.584844,0.666707,2.411,2.56894
-0.577019,0.666707,2.411,2.56717
-0.569193,0.666707,2.411,2.56542
-0.561368,0.666707,2.411,2.5637
-0.549639,0.662006,2.394,2.54393
-0.538021,0.657305,2.377,2.52421
-0.530306,0.657305,2.377,2.52258
-0.522591,0.657305,2.377,2.52097
-0.514875,0.657305,2.377,2.51938
-0.50716,0.657305,2.377,2.51781
-0.496083,0.65288,2.361,2.49933
-0.48842,0.65288,2.361,2.49782
-0.480757,0.65288,2.361,2.49634
-0.473094,0.65288,2.361,2.49487
-0.46543,0.65288,2.361,2.49343
-0.457767,0.65288,2.361,2.49201
-0.450104,0.65288,2.361,2.49062
-0.439442,0.648456,2.345,2.47237
-0.431831,0.648456,2.345,2.47103
-0.42422,0.648456,2.345,2.46971
-0.416608,0.648456,2.345,2.46842
-0.408997,0.648456,2.345,2.46714
-0.401386,0.648456,2.345,2.46589
-0.393775,0.648456,2.345,2.46467
-0.388798,0.65288,2.361,2.48027
-0.381135,0.65288,2.361,2.47908
-0.373472,0.65288,2.361,2.47791
-0.368287,0.657305,2.377,2.49355
-0.360572,0.657305,2.377,2.49243
-0.352857,0.657305,2.377,2.49132
-0.342819,0.65288,2.361,2.47348
-0.335156,0.65288,2.361,2.47243
-0.327492,0.65288,2.361,2.4714
-0.319829,0.65288,2.361,2.4704
-0.31005,0.648456,2.345,2.45268
-0.302439,0.648456,2.345,2.45173
-0.294828,0.648456,2.345,2.4508
-0.285257,0.644031,2.329,2.43318
-0.277698,0.644031,2.329,2.43231
-0.270138,0.644031,2.329,2.43146
-0.260775,0.639607,2.313,2.41393
-0.253268,0.639607,2.313,2.41313
-0.24576,0.639607,2.313,2.41236
-0.236708,0.635459,2.298,2.39596
-0.229249,0.635459,2.298,2.39524
-0.22179,0.635459,2.298,2.39454
-0.214331,0.635459,2.298,2.39386
-0.206873,0.635459,2.298,2.3932
-0.199414,0.635459,2.298,2.39257
-0.191955,0.635459,2.298,2.39196
-0.183212,0.631034,2.282,2.37472
-0.175805,0.631034,2.282,2.37416
-0.168398,0.631034,2.282,2.37362
-0.160991,0.631034,2.282,2.37311
-0.154661,0.635459,2.298,2.38925
-0.147203,0.635459,2.298,2.38878
-0.139744,0.635459,2.298,2.38833
-0.132285,0.635459,2.298,2.38791
-0.124827,0.635459,2.298,2.38751
-0.117368,0.635459,2.298,2.38713
-0.109909,0.635459,2.298,2.38677
-0.10245,0.635459,2.298,2.38644
-0.0949916,0.635459,2.298,2.38613
-0.0875328,0.635459,2.298,2.38585
-0.0800741,0.635459,2.298,2.38559
-0.0726154,0.635459,2.298,2.38535
-0.0651566,0.635459,2.298,2.38513
-0.0580745,0.639607,2.313,2.40051
-0.0505671,0.639607,2.313,2.40034
-0.0430597,0.639607,2.313,2.40019
-0.0357982,0.644031,2.329,2.41667
-0.0282388,0.644031,2.329,2.41657
-0.0206795,0.644031,2.329,2.41649
-0.0131201,0.644031,2.329,2.41644
-0.00556075,0.644031,2.329,2.41641
0.00199861,0.644031,2.329,2.41641
0.00955797,0.644031,2.329,2.41642
0.0171173,0.644031,2.329,2.41647
0.0248462,0.648456,2.345,2.43313
0.0324575,0.648456,2.345,2.43322
0.0400688,0.648456,2.345,2.43334
0.0476801,0.648456,2.345,2.43347
0.0552914,0.648456,2.345,2.43363
0.0629026,0.648456,2.345,2.43382
0.0705139,0.648456,2.345,2.43403
0.0781252,0.648456,2.345,2.43426
0.0857365,0.648456,2.345,2.43452
0.0933478,0.648456,2.345,2.4348
0.100959,0.648456,2.345,2.4351
0.10857,0.648456,2.345,2.43543
0.116182,0.648456,2.345,2.43578
0.123793,0.648456,2.345,2.43615
0.131404,0.648456,2.345,2.43655
0.139016,0.648456,2.345,2.43697
0.147627,0.65288,2.361,2.45405
0.154238,0.648456,2.345,2.43789
0.161849,0.648456,2.345,2.43838
0.169461,0.648456,2.345,2.4389
0.177072,0.648456,2.345,2.43944
0.184683,0.648456,2.345,2.44001
0.193607,0.65288,2.361,2.45725
0.20127,0.65288,2.361,2.45786
0.208933,0.65288,2.361,2.4585
0.216596,0.65288,2.361,2.45916
0.224259,0.65288,2.361,2.45985
0.230351,0.648456,2.345,2.44389
0.237962,0.648456,2.345,2.44462
0.245574,0.648456,2.345,2.44537
0.253185,0.648456,2.345,2.44614
0.260796,0.648456,2.345,2.44694
0.268407,0.648456,2.345,2.44777
0.276019,0.648456,2.345,2.44861
0.281695,0.644031,2.329,2.43277
0.289254,0.644031,2.329,2.43366
0.296813,0.644031,2.329,2.43457
0.304373,0.644031,2.329,2.4355
0.309789,0.639607,2.313,2.41972
0.317297,0.639607,2.313,2.42069
0.324804,0.639607,2.313,2.42169
0.332312,0.639607,2.313,2.4227
0.339819,0.639607,2.313,2.42375
0.347326,0.639607,2.313,2.42481
0.354834,0.639607,2.313,2.4259
0.362341,0.639607,2.313,2.42701
0.369849,0.639607,2.313,2.42814
0.377356,0.639607,2.313,2.42929
0.387526,0.644031,2.329,2.44728
0.400513,0.65288,2.361,2.48213
0.408177,0.65288,2.361,2.48338
0.418658,0.657305,2.377,2.50149
0.426373,0.657305,2.377,2.50279
0.434088,0.657305,2.377,2.50412
0.441803,0.657305,2.377,2.50547
0.449519,0.657305,2.377,2.50684
0.457234,0.657305,2.377,2.50823
0.464949,0.657305,2.377,2.50965
0.472664,0.657305,2.377,2.51109
0.480379,0.657305,2.377,2.51256
0.488094,0.657305,2.377,2.51404
0.49581,0.657305,2.377,2.51555
0.503525,0.657305,2.377,2.51708
0.507799,0.65288,2.361,2.50169
0.511969,0.648456,2.345,2.48629
0.51958,0.648456,2.345,2.48787
0.527191,0.648456,2.345,2.48947
0.534802,0.648456,2.345,2.49109
0.542414,0.648456,2.345,2.49274
0.550025,0.648456,2.345,2.4944
0.553832,0.644031,2.329,2.47906
0.561391,0.644031,2.329,2.48076
0.56895,0.644031,2.329,2.48248
0.57651,0.644031,2.329,2.48423
0.584069,0.644031,2.329,2.48599
0.591628,0.644031,2.329,2.48778
0.599188,0.644031,2.329,2.48959
0.606747,0.644031,2.329,2.49142
0.614306,0.644031,2.329,2.49327
0.621866,0.644031,2.329,2.49514
0.629425,0.644031,2.329,2.49704
0.641361,0.648456,2.345,2.51612
0.648972,0.648456,2.345,2.51807
0.656583,0.648456,2.345,2.52004
0.668726,0.65288,2.361,2.53925
0.676389,0.65288,2.361,2.54127
0.684053,0.65288,2.361,2.54332
0.687028,0.648456,2.345,2.52815
0.69464,0.648456,2.345,2.53023
0.692668,0.639607,2.313,2.49777
0.695635,0.635459,2.298,2.48365
0.703093,0.635459,2.298,2.48575
0.705605,0.631034,2.282,2.47055
0.708325,0.626887,2.267,2.45642
0.715683,0.626887,2.267,2.45855
0.709008,0.614719,2.223,2.41294
0.706879,0.6067,2.194,2.38357
0.714001,0.6067,2.194,2.38569
0.71652,0.602829,2.18,2.37259
0.719281,0.599234,2.167,2.36058
0.721622,0.595363,2.153,2.34747
0.72861,0.595363,2.153,2.34963
0.731157,0.591768,2.14,2.3376
0.733274,0.587896,2.126,2.32448
0.740175,0.587896,2.126,2.32666
0.737939,0.580707,2.1,2.30039
0.740144,0.577112,2.087,2.28833
0.746918,0.577112,2.087,2.29053
0.753692,0.577112,2.087,2.29274
0.756093,0.573793,2.075,2.28178
0.762828,0.573793,2.075,2.28403
0.769563,0.573793,2.075,2.28628
0.776298,0.573793,2.075,2.28856
0.783033,0.573793,2.075,2.29085
0.789768,0.573793,2.075,2.29316
0.796503,0.573793,2.075,2.29549
0.803238,0.573793,2.075,2.29784
0.809973,0.573793,2.075,2.3002
0.816708,0.573793,2.075,2.30258
0.823443,0.573793,2.075,2.30498
0.834979,0.577112,2.087,2.32074
0.841753,0.577112,2.087,2.32318
0.848526,0.577112,2.087,2.32564
0.860628,0.580707,2.1,2.34263
0.867444,0.580707,2.1,2.34514
0.879672,0.584301,2.113,2.3622
0.886531,0.584301,2.113,2.36477
0.893389,0.584301,2.113,2.36734
0.905786,0.587896,2.126,2.38452
0.912686,0.587896,2.126,2.38715
0.919587,0.587896,2.126,2.3898
0.926487,0.587896,2.126,2.39246
0.933388,0.587896,2.126,2.39514
0.940288,0.587896,2.126,2.39784
0.947189,0.587896,2.126,2.40056
0.960372,0.591768,2.14,2.41911
0.967318,0.591768,2.14,2.42188
0.96789,0.587896,2.126,2.4088
0.97479,0.587896,2.126,2.41158
0.988155,0.591768,2.14,2.43028
0.995101,0.591768,2.14,2.43311
1.00205,0.591768,2.14,2.43596
1.01512,0.595363,2.153,2.45364
1.02211,0.595363,2.153,2.45654
1.0291,0.595363,2.153,2.45945
1.04282,0.599234,2.167,2.4784
1.04986,0.599234,2.167,2.48136
1.05689,0.599234,2.167,2.48435
1.06392,0.599234,2.167,2.48735
1.07096,0.599234,2.167,2.49037
1.07799,0.599234,2.167,2.4934
1.09153,0.602829,2.18,2.51142
1.09861,0.602829,2.18,2.51451
1.10569,0.602829,2.18,2.51761
1.11276,0.602829,2.18,2.52072
1.12703,0.6067,2.194,2.54006
1.1419,0.610848,2.209,2.56062
1.14907,0.610848,2.209,2.56382
1.17875,0.622739,2.252,2.61701
1.18606,0.622739,2.252,2.62031
1.19337,0.622739,2.252,2.62363
1.20068,0.622739,2.252,2.62696
1.21604,0.626887,2.267,2.64783
1.22339,0.626887,2.267,2.65122
1.23075,0.626887,2.267,2.65462
1.23811,0.626887,2.267,2.65804
1.24547,0.626887,2.267,2.66148
1.25283,0.626887,2.267,2.66493
1.26018,0.626887,2.267,2.6684
1.26754,0.626887,2.267,2.67188
1.2749,0.626887,2.267,2.67538
1.28226,0.626887,2.267,2.67889
1.28962,0.626887,2.267,2.68242
1.29697,0.626887,2.267,2.68597
1.2957,0.622739,2.252,2.67173
1.30301,0.622739,2.252,2.67528
1.31032,0.622739,2.252,2.67885
1.31763,0.622739,2.252,2.68244
1.32494,0.622739,2.252,2.68603
1.33225,0.622739,2.252,2.68965
1.33956,0.622739,2.252,2.69327
1.3379,0.618591,2.237,2.67895
1.34516,0.618591,2.237,2.68259
1.35242,0.618591,2.237,2.68624
1.35968,0.618591,2.237,2.6899
1.37611,0.622739,2.252,2.71164
1.38342,0.622739,2.252,2.71535
1.39072,0.622739,2.252,2.71908
1.40735,0.626887,2.267,2.74097
1.4147,0.626887,2.267,2.74475
1.41265,0.622739,2.252,2.73037
1.41996,0.622739,2.252,2.73415
1.42727,0.622739,2.252,2.73796
1.43458,0.622739,2.252,2.74178
1.44189,0.622739,2.252,2.74561
1.4492,0.622739,2.252,2.74945
1.45651,0.622739,2.252,2.75331
1.46382,0.622739,2.252,2.75719
1.47113,0.622739,2.252,2.76107
1.47844,0.622739,2.252,2.76498
1.48575,0.622739,2.252,2.76889
1.49306,0.622739,2.252,2.77282
1.50037,0.622739,2.252,2.77676
1.50768,0.622739,2.252,2.78072
1.52508,0.626887,2.267,2.80324
1.52229,0.622739,2.252,2.78867
1.5296,0.622739,2.252,2.79267
-1.70866,0.689078,2.463,3.07583
-1.70067,0.689078,2.463,3.0714
-1.69268,0.689078,2.463,3.06698
-1.68468,0.689078,2.463,3.06257
-1.67669,0.689078,2.463,3.05818
-1.68089,0.694114,2.481,3.07612
-1.67283,0.694114,2.481,3.07173
-1.66478,0.694114,2.481,3.06735
-1.65673,0.694114,2.481,3.06299
-1.64868,0.694114,2.481,3.05864
-1.64062,0.694114,2.481,3.05431
-1.63257,0.694114,2.481,3.04999
-1.64809,0.704186,2.517,3.08988
-1.63992,0.704186,2.517,3.08553
-1.63175,0.704186,2.517,3.0812
-1.62358,0.704186,2.517,3.07688
-1.60386,0.69915,2.499,3.0506
-1.59575,0.69915,2.499,3.04635
-1.58764,0.69915,2.499,3.04211
-1.57953,0.69915,2.499,3.03788
-1.57142,0.69915,2.499,3.03367
-1.5633,0.69915,2.499,3.02948
-1.54399,0.694114,2.481,3.00351
-1.53594,0.694114,2.481,2.99938
-1.5168,0.689078,2.463,2.97353
-1.50881,0.689078,2.463,2.96946
-1.50081,0.689078,2.463,2.96541
-1.49282,0.689078,2.463,2.96137
-1.48482,0.689078,2.463,2.95735
-1.46604,0.684042,2.445,2.93176
-1.4581,0.684042,2.445,2.9278
-1.45016,0.684042,2.445,2.92385
-1.4322,0.679286,2.428,2.89962
-1.42432,0.679286,2.428,2.89574
-1.41644,0.679286,2.428,2.89187
-1.3987,0.67453,2.411,2.8678
-1.39087,0.67453,2.411,2.86399
-1.38305,0.67453,2.411,2.8602
-1.36552,0.669774,2.394,2.83628
-1.35775,0.669774,2.394,2.83255
-1.34998,0.669774,2.394,2.82883
-1.34221,0.669774,2.394,2.82513
-1.32497,0.665018,2.377,2.80141
-1.31725,0.665018,2.377,2.79777
-1.30954,0.665018,2.377,2.79415
-1.30182,0.665018,2.377,2.79054
-1.29411,0.665018,2.377,2.78695
-1.28639,0.665018,2.377,2.78338
-1.27868,0.665018,2.377,2.77982
-1.27096,0.665018,2.377,2.77628
-1.26325,0.665018,2.377,2.77275
-1.25553,0.665018,2.377,2.76925
-1.24781,0.665018,2.377,2.76576
-1.2401,0.665018,2.377,2.76229
-1.23238,0.665018,2.377,2.75883
-1.21643,0.660541,2.361,2.73685
-1.20876,0.660541,2.361,2.73345
-1.2011,0.660541,2.361,2.73007
-1.19344,0.660541,2.361,2.72671
-1.18577,0.660541,2.361,2.72336
-1.17811,0.660541,2.361,2.72003
-1.17045,0.660541,2.361,2.71672
-1.16278,0.660541,2.361,2.71343
-1.16295,0.665018,2.377,2.72852
-1.15523,0.665018,2.377,2.72524
-1.14752,0.665018,2.377,2.72198
-1.1398,0.665018,2.377,2.71874
-1.13209,0.665018,2.377,2.71551
-1.12437,0.665018,2.377,2.7123
-1.11666,0.665018,2.377,2.70911
-1.10894,0.665018,2.377,2.70594
-1.1091,0.669774,2.394,2.72212
-1.10133,0.669774,2.394,2.71896
-1.0858,0.665018,2.377,2.69654
-1.07082,0.660541,2.361,2.67531
-1.06316,0.660541,2.361,2.67226
-1.0555,0.660541,2.361,2.66922
-1.04073,0.656065,2.345,2.64813
-1.02607,0.651588,2.329,2.6271
-1.01851,0.651588,2.329,2.62415
-1.01096,0.651588,2.329,2.62123
-0.996502,0.647112,2.313,2.60033
-0.988995,0.647112,2.313,2.59747
-0.981488,0.647112,2.313,2.59462
-0.97398,0.647112,2.313,2.59179
-0.966473,0.647112,2.313,2.58898
-0.958965,0.647112,2.313,2.58618
-0.951458,0.647112,2.313,2.58341
-0.943951,0.647112,2.313,2.58065
-0.936443,0.647112,2.313,2.57792
-0.928936,0.647112,2.313,2.5752
-0.927802,0.651588,2.329,2.59029
-0.920243,0.651588,2.329,2.5876
-0.912683,0.651588,2.329,2.58492
-0.905124,0.651588,2.329,2.58226
-0.903731,0.656065,2.345,2.59734
-0.902234,0.660541,2.361,2.61241
-0.894571,0.660541,2.361,2.60977
-0.886907,0.660541,2.361,2.60715
-0.879244,0.660541,2.361,2.60455
-0.871581,0.660541,2.361,2.60198
-0.858063,0.656065,2.345,2.58181
-0.850452,0.656065,2.345,2.57929
-0.83709,0.651588,2.329,2.5592
-0.829531,0.651588,2.329,2.55674
-0.827618,0.656065,2.345,2.57185
-0.820007,0.656065,2.345,2.56941
-0.812395,0.656065,2.345,2.56699
-0.810275,0.660541,2.361,2.58209
-0.802612,0.660541,2.361,2.57969
-0.794949,0.660541,2.361,2.57732
-0.787286,0.660541,2.361,2.57497
-0.784906,0.665018,2.377,2.59007
-0.777191,0.665018,2.377,2.58774
-0.769475,0.665018,2.377,2.58543
-0.767208,0.669774,2.394,2.60162
-0.759438,0.669774,2.394,2.59934
-0.757005,0.67453,2.411,2.61552
-0.74918,0.67453,2.411,2.61327
-0.741354,0.67453,2.411,2.61104
-0.733529,0.67453,2.411,2.60883
-0.725703,0.67453,2.411,2.60664
-0.722939,0.679286,2.428,2.62283
-0.715059,0.679286,2.428,2.62067
-0.707178,0.679286,2.428,2.61853
-0.699297,0.679286,2.428,2.61642
-0.686576,0.67453,2.411,2.59602
-0.67875,0.67453,2.411,2.59396
-0.670925,0.67453,2.411,2.59192
-0.663099,0.67453,2.411,2.58991
-0.655274,0.67453,2.411,2.58791
-0.647448,0.67453,2.411,2.58594
-0.639623,0.67453,2.411,2.58399
-0.631797,0.67453,2.411,2.58207
-0.623972,0.67453,2.411,2.58017
-0.616146,0.67453,2.411,2.57828
-0.608321,0.67453,2.411,2.57642
-0.596261,0.669774,2.394,2.55644
-0.588491,0.669774,2.394,2.55463
-0.576597,0.665018,2.377,2.53473
-0.568881,0.665018,2.377,2.53298
-0.561166,0.665018,2.377,2.53126
-0.553451,0.665018,2.377,2.52956
-0.542063,0.660541,2.361,2.51087
-0.534399,0.660541,2.361,2.50923
-0.526736,0.660541,2.361,2.50761
-0.515555,0.656065,2.345,2.48902
-0.507944,0.656065,2.345,2.48746
-0.500333,0.656065,2.345,2.48592
-0.492721,0.656065,2.345,2.4844
-0.48511,0.656065,2.345,2.4829
-0.477499,0.656065,2.345,2.48142
-0.469887,0.656065,2.345,2.47997
-0.462276,0.656065,2.345,2.47854
-0.454665,0.656065,2.345,2.47713
-0.450104,0.660541,2.361,2.49264
-0.439442,0.656065,2.345,2.47438
-0.431831,0.656065,2.345,2.47304
-0.42422,0.656065,2.345,2.47172
-0.416608,0.656065,2.345,2.47043
-0.408997,0.656065,2.345,2.46915
-0.401386,0.656065,2.345,2.46791
-0.393775,0.656065,2.345,2.46668
-0.388798,0.660541,2.361,2.4823
-0.381135,0.660541,2.361,2.48111
-0.373472,0.660541,2.361,2.47994
-0.368287,0.665018,2.377,2.4956
-0.360572,0.665018,2.377,2.49447
-0.352857,0.665018,2.377,2.49337
-0.342819,0.660541,2.361,2.47551
-0.335156,0.660541,2.361,2.47446
-0.327492,0.660541,2.361,2.47344
-0.319829,0.660541,2.361,2.47243
-0.31005,0.656065,2.345,2.45471
-0.302439,0.656065,2.345,2.45376
-0.294828,0.656065,2.345,2.45283
-0.285257,0.651588,2.329,2.4352
-0.277698,0.651588,2.329,2.43432
-0.270138,0.651588,2.329,2.43347
-0.260775,0.647112,2.313,2.41593
-0.253268,0.647112,2.313,2.41513
-0.24576,0.647112,2.313,2.41436
-0.236708,0.642916,2.298,2.39795
-0.229249,0.642916,2.298,2.39723
-0.22179,0.642916,2.298,2.39653
-0.214331,0.642916,2.298,2.39585
-0.206873,0.642916,2.298,2.39519
-0.199414,0.642916,2.298,2.39456
-0.191955,0.642916,2.298,2.39395
-0.183212,0.638439,2.282,2.3767
-0.175805,0.638439,2.282,2.37614
-0.168398,0.638439,2.282,2.3756
-0.160991,0.638439,2.282,2.37509
-0.154661,0.642916,2.298,2.39125
-0.147203,0.642916,2.298,2.39078
-0.139744,0.642916,2.298,2.39033
-0.132285,0.642916,2.298,2.3899
-0.124827,0.642916,2.298,2.3895
-0.117368,0.642916,2.298,2.38913
-0.109909,0.642916,2.298,2.38877
-0.10245,0.642916,2.298,2.38844
-0.0949916,0.642916,2.298,2.38813
-0.0875328,0.642916,2.298,2.38785
-0.0800741,0.642916,2.298,2.38758
-0.0726154,0.642916,2.298,2.38735
-0.0651566,0.642916,2.298,2.38713
-0.0576979,0.642916,2.298,2.38694
-0.0502392,0.642916,2.298,2.38677
-0.0427804,0.642916,2.298,2.38662
-0.0353217,0.642916,2.298,2.3865
-0.0280448,0.647112,2.313,2.40198
-0.0205374,0.647112,2.313,2.4019
-0.01303,0.647112,2.313,2.40185
-0.00556075,0.651588,2.329,2.41844
0.00199861,0.651588,2.329,2.41843
0.0094923,0.647112,2.313,2.40184
0.0169997,0.647112,2.313,2.40188
0.0246767,0.651588,2.329,2.41856
0.0320146,0.647112,2.313,2.40203
0.039522,0.647112,2.313,2.40214
0.0470294,0.647112,2.313,2.40228
0.0545368,0.647112,2.313,2.40244
0.0620443,0.647112,2.313,2.40262
0.0695517,0.647112,2.313,2.40282
0.0770591,0.647112,2.313,2.40305
0.0845665,0.647112,2.313,2.40331
0.0914769,0.642916,2.298,2.38799
0.0989356,0.642916,2.298,2.38829
0.106394,0.642916,2.298,2.38861
0.113853,0.642916,2.298,2.38896
0.121312,0.642916,2.298,2.38932
0.128771,0.642916,2.298,2.38971
0.136229,0.642916,2.298,2.39013
0.143688,0.642916,2.298,2.39056
0.151147,0.642916,2.298,2.39102
0.157501,0.638439,2.282,2.37485
0.164908,0.638439,2.282,2.37536
0.172315,0.638439,2.282,2.37588
0.180982,0.642916,2.298,2.39309
0.18844,0.642916,2.298,2.39367
0.197178,0.647112,2.313,2.4099
0.204685,0.647112,2.313,2.41052
0.212193,0.647112,2.313,2.41117
0.2197,0.647112,2.313,2.41184
0.227208,0.647112,2.313,2.41254
0.236339,0.651588,2.329,2.42995
0.243898,0.651588,2.329,2.4307
0.251457,0.651588,2.329,2.43147
0.259017,0.651588,2.329,2.43226
0.266576,0.651588,2.329,2.43308
0.272252,0.647112,2.313,2.4172
0.27601,0.638439,2.282,2.38565
0.283417,0.638439,2.282,2.38652
0.290824,0.638439,2.282,2.38741
0.29627,0.634243,2.267,2.37262
0.303628,0.634243,2.267,2.37355
0.313044,0.638439,2.282,2.39021
0.318345,0.634243,2.267,2.37548
0.325703,0.634243,2.267,2.37648
0.333061,0.634243,2.267,2.3775
0.340419,0.634243,2.267,2.37854
0.347777,0.634243,2.267,2.3796
0.355135,0.634243,2.267,2.38069
0.362493,0.634243,2.267,2.3818
0.372299,0.638439,2.282,2.39869
0.382368,0.642916,2.298,2.41668
0.392371,0.647112,2.313,2.43366
0.399878,0.647112,2.313,2.43488
0.410204,0.651588,2.329,2.45297
0.420633,0.656065,2.345,2.47111
0.428244,0.656065,2.345,2.47242
0.435856,0.656065,2.345,2.47375
0.443467,0.656065,2.345,2.4751
0.451078,0.656065,2.345,2.47647
0.461819,0.660541,2.361,2.49478
0.466301,0.656065,2.345,2.47929
0.473912,0.656065,2.345,2.48073
0.481523,0.656065,2.345,2.4822
0.489135,0.656065,2.345,2.48369
0.496746,0.656065,2.345,2.4852
0.500916,0.651588,2.329,2.46976
0.504982,0.647112,2.313,2.45433
0.51249,0.647112,2.313,2.45588
0.519997,0.647112,2.313,2.45746
0.527505,0.647112,2.313,2.45906
0.535012,0.647112,2.313,2.46068
0.542519,0.647112,2.313,2.46233
0.550027,0.647112,2.313,2.46399
0.557534,0.647112,2.313,2.46568
0.565042,0.647112,2.313,2.46739
0.572549,0.647112,2.313,2.46912
0.576295,0.642916,2.298,2.45484
0.583754,0.642916,2.298,2.45661
0.591212,0.642916,2.298,2.45839
0.598671,0.642916,2.298,2.46019
0.610086,0.647112,2.313,2.47809
0.617594,0.647112,2.313,2.47995
0.625101,0.647112,2.313,2.48183
0.632608,0.647112,2.313,2.48373
0.640116,0.647112,2.313,2.48565
0.647623,0.647112,2.313,2.4876
0.655131,0.647112,2.313,2.48956
0.662638,0.647112,2.313,2.49155
0.670146,0.647112,2.313,2.49356
0.673258,0.642916,2.298,2.4794
0.680717,0.642916,2.298,2.48144
0.683384,0.638439,2.282,2.4662
0.686251,0.634243,2.267,2.45204
0.693609,0.634243,2.267,2.45411
0.696329,0.630046,2.252,2.43995
0.694577,0.621933,2.223,2.41059
0.701792,0.621933,2.223,2.41268
0.699758,0.613819,2.194,2.38329
0.69818,0.606265,2.167,2.35604
0.705214,0.606265,2.167,2.35813
0.707646,0.602349,2.153,2.34499
0.705672,0.594795,2.126,2.31768
0.712573,0.594795,2.126,2.31979
0.719473,0.594795,2.126,2.32192
0.721932,0.591158,2.113,2.30985
0.724306,0.587521,2.1,2.29778
0.731122,0.587521,2.1,2.29994
0.737939,0.587521,2.1,2.30212
0.740144,0.583884,2.087,2.29004
0.746918,0.583884,2.087,2.29224
0.753692,0.583884,2.087,2.29446
0.756093,0.580526,2.075,2.28349
0.762828,0.580526,2.075,2.28573
0.769563,0.580526,2.075,2.28798
0.776298,0.580526,2.075,2.29026
0.783033,0.580526,2.075,2.29255
0.789768,0.580526,2.075,2.29486
0.796503,0.580526,2.075,2.29718
0.803238,0.580526,2.075,2.29953
0.809973,0.580526,2.075,2.30189
0.816708,0.580526,2.075,2.30427
0.823443,0.580526,2.075,2.30666
0.834979,0.583884,2.087,2.32243
0.841753,0.583884,2.087,2.32487
0.848526,0.583884,2.087,2.32733
0.860628,0.587521,2.1,2.34433
0.867444,0.587521,2.1,2.34684
0.879672,0.591158,2.113,2.36391
0.886531,0.591158,2.113,2.36647
0.893389,0.591158,2.113,2.36905
0.905786,0.594795,2.126,2.38623
0.912686,0.594795,2.126,2.38886
0.919587,0.594795,2.126,2.39151
0.926487,0.594795,2.126,2.39417
0.933388,0.594795,2.126,2.39685
0.940288,0.594795,2.126,2.39954
0.947189,0.594795,2.126,2.40225
0.960372,0.598712,2.14,2.42082
0.967318,0.598712,2.14,2.42358
0.96789,0.594795,2.126,2.41049
0.97479,0.594795,2.126,2.41327
0.988155,0.598712,2.14,2.43198
0.995101,0.598712,2.14,2.43481
1.00205,0.598712,2.14,2.43765
1.01512,0.602349,2.153,2.45534
1.02211,0.602349,2.153,2.45824
1.0291,0.602349,2.153,2.46115
1.04282,0.606265,2.167,2.48011
1.04986,0.606265,2.167,2.48307
1.05689,0.606265,2.167,2.48605
1.06392,0.606265,2.167,2.48905
1.07096,0.606265,2.167,2.49207
1.07799,0.606265,2.167,2.4951
1.09153,0.609903,2.18,2.51313
1.09861,0.609903,2.18,2.51621
1.10569,0.609903,2.18,2.51931
1.11276,0.609903,2.18,2.52242
1.12703,0.613819,2.194,2.54177
1.1419,0.618016,2.209,2.56234
1.14907,0.618016,2.209,2.56554
1.16357,0.621933,2.223,2.58504
1.17816,0.62585,2.237,2.6046
1.18542,0.62585,2.237,2.60789
1.19268,0.62585,2.237,2.6112
1.20799,0.630046,2.252,2.63205
1.2153,0.630046,2.252,2.63542
1.22261,0.630046,2.252,2.63879
1.22992,0.630046,2.252,2.64219
1.23723,0.630046,2.252,2.6456
1.24454,0.630046,2.252,2.64902
1.25185,0.630046,2.252,2.65247
1.25916,0.630046,2.252,2.65592
1.26646,0.630046,2.252,2.6594
1.27377,0.630046,2.252,2.66289
1.28108,0.630046,2.252,2.66639
1.28839,0.630046,2.252,2.66991
1.2957,0.630046,2.252,2.67344
1.30301,0.630046,2.252,2.67699
1.30159,0.62585,2.237,2.66271
1.30885,0.62585,2.237,2.66626
1.31611,0.62585,2.237,2.66983
1.32338,0.62585,2.237,2.67342
1.33064,0.62585,2.237,2.67702
1.32952,0.621933,2.223,2.66386
1.33674,0.621933,2.223,2.66747
1.34395,0.621933,2.223,2.67109
1.35117,0.621933,2.223,2.67473
1.35839,0.621933,2.223,2.67838
1.3656,0.621933,2.223,2.68205
1.37282,0.621933,2.223,2.68573
1.38872,0.62585,2.237,2.70636
1.39598,0.62585,2.237,2.7101
1.40324,0.62585,2.237,2.71384
1.40168,0.621933,2.223,2.7006
1.40889,0.621933,2.223,2.70435
1.41611,0.621933,2.223,2.70812
1.42332,0.621933,2.223,2.7119
1.43955,0.62585,2.237,2.73279
1.44681,0.62585,2.237,2.73662
1.45407,0.62585,2.237,2.74047
1.46133,0.62585,2.237,2.74433
1.46859,0.62585,2.237,2.7482
1.47585,0.62585,2.237,2.75209
1.48311,0.62585,2.237,2.75599
1.49037,0.62585,2.237,2.7599
1.50768,0.630046,2.252,2.78236
1.51499,0.630046,2.252,2.78633
1.52229,0.630046,2.252,2.79031
1.5296,0.630046,2.252,2.79431
-1.70866,0.69707,2.463,3.07763
-1.70067,0.69707,2.463,3.0732
-1.69268,0.69707,2.463,3.06878
-1.68468,0.69707,2.463,3.06438
-1.67669,0.69707,2.463,3.05999
-1.66869,0.69707,2.463,3.05562
-1.67283,0.702164,2.481,3.07356
-1.66478,0.702164,2.481,3.06918
-1.65673,0.702164,2.481,3.06482
-1.64868,0.702164,2.481,3.06048
-1.64062,0.702164,2.481,3.05615
-1.63257,0.702164,2.481,3.05183
-1.64809,0.712353,2.517,3.09175
-1.63992,0.712353,2.517,3.08741
-1.63175,0.712353,2.517,3.08307
-1.62358,0.712353,2.517,3.07876
-1.60386,0.707259,2.499,3.05247
-1.59575,0.707259,2.499,3.04822
-1.58764,0.707259,2.499,3.04398
-1.57953,0.707259,2.499,3.03976
-1.57142,0.707259,2.499,3.03555
-1.5633,0.707259,2.499,3.03136
-1.54399,0.702164,2.481,3.00538
-1.53594,0.702164,2.481,3.00125
-1.5168,0.69707,2.463,2.97539
-1.50881,0.69707,2.463,2.97133
-1.50081,0.69707,2.463,2.96727
-1.49282,0.69707,2.463,2.96324
-1.48482,0.69707,2.463,2.95922
-1.46604,0.691976,2.445,2.93362
-1.4581,0.691976,2.445,2.92966
-1.45016,0.691976,2.445,2.92572
-1.4322,0.687164,2.428,2.90148
-1.42432,0.687164,2.428,2.8976
-1.41644,0.687164,2.428,2.89373
-1.3987,0.682353,2.411,2.86965
-1.39087,0.682353,2.411,2.86584
-1.37329,0.677542,2.394,2.84187
-1.35583,0.672731,2.377,2.81797
-1.34811,0.672731,2.377,2.81427
-1.3404,0.672731,2.377,2.81058
-1.33268,0.672731,2.377,2.80691
-1.32497,0.672731,2.377,2.80325
-1.31725,0.672731,2.377,2.79962
-1.30954,0.672731,2.377,2.79599
-1.30182,0.672731,2.377,2.79239
-1.29411,0.672731,2.377,2.7888
-1.27773,0.668202,2.361,2.76648
-1.27007,0.668202,2.361,2.76295
-1.26241,0.668202,2.361,2.75944
-1.25474,0.668202,2.361,2.75594
-1.25553,0.672731,2.377,2.77111
-1.24781,0.672731,2.377,2.76762
-1.2401,0.672731,2.377,2.76415
-1.22409,0.668202,2.361,2.74212
-1.21643,0.668202,2.361,2.73871
-1.20876,0.668202,2.361,2.73531
-1.2011,0.668202,2.361,2.73193
-1.19344,0.668202,2.361,2.72857
-1.18577,0.668202,2.361,2.72523
-1.17811,0.668202,2.361,2.7219
-1.17045,0.668202,2.361,2.7186
-1.16278,0.668202,2.361,2.7153
-1.15512,0.668202,2.361,2.71203
-1.14746,0.668202,2.361,2.70878
-1.13979,0.668202,2.361,2.70554
-1.13213,0.668202,2.361,2.70232
-1.12447,0.668202,2.361,2.69912
-1.1168,0.668202,2.361,2.69594
-1.10914,0.668202,2.361,2.69277
-1.10148,0.668202,2.361,2.68962
-1.09381,0.668202,2.361,2.68649
-1.08615,0.668202,2.361,2.68338
-1.07849,0.668202,2.361,2.68029
-1.06357,0.663674,2.345,2.65907
-1.04875,0.659146,2.329,2.63791
-1.04119,0.659146,2.329,2.63492
-1.02653,0.654617,2.313,2.61386
-1.01902,0.654617,2.313,2.61092
-1.01152,0.654617,2.313,2.608
-0.997499,0.650372,2.298,2.5882
-0.99004,0.650372,2.298,2.58534
-0.982581,0.650372,2.298,2.58249
-0.975123,0.650372,2.298,2.57966
-0.960926,0.645844,2.282,2.55891
-0.95352,0.645844,2.282,2.55614
-0.946113,0.645844,2.282,2.55338
-0.938706,0.645844,2.282,2.55065
-0.937829,0.650372,2.298,2.5658
-0.93037,0.650372,2.298,2.56308
-0.922911,0.650372,2.298,2.56038
-0.921428,0.654617,2.313,2.5744
-0.913921,0.654617,2.313,2.57172
-0.906413,0.654617,2.313,2.56906
-0.898906,0.654617,2.313,2.56642
-0.897565,0.659146,2.329,2.58154
-0.890005,0.659146,2.329,2.57892
-0.882446,0.659146,2.329,2.57632
-0.874887,0.659146,2.329,2.57374
-0.867327,0.659146,2.329,2.57118
-0.853861,0.654617,2.313,2.55099
-0.846354,0.654617,2.313,2.54849
-0.838847,0.654617,2.313,2.54601
-0.831339,0.654617,2.313,2.54354
-0.823832,0.654617,2.313,2.5411
-0.827618,0.663674,2.345,2.5738
-0.820007,0.663674,2.345,2.57136
-0.812395,0.663674,2.345,2.56894
-0.810275,0.668202,2.361,2.58406
-0.802612,0.668202,2.361,2.58167
-0.794949,0.668202,2.361,2.57929
-0.787286,0.668202,2.361,2.57694
-0.784906,0.672731,2.377,2.59206
-0.777191,0.672731,2.377,2.58973
-0.769475,0.672731,2.377,2.58743
-0.767208,0.677542,2.394,2.60363
-0.759438,0.677542,2.394,2.60135
-0.757005,0.682353,2.411,2.61755
-0.74918,0.682353,2.411,2.6153
-0.741354,0.682353,2.411,2.61307
-0.733529,0.682353,2.411,2.61086
-0.725703,0.682353,2.411,2.60867
-0.722939,0.687164,2.428,2.62489
-0.715059,0.687164,2.428,2.62273
-0.707178,0.687164,2.428,2.62059
-0.699297,0.687164,2.428,2.61847
-0.686576,0.682353,2.411,2.59806
-0.67875,0.682353,2.411,2.596
-0.670925,0.682353,2.411,2.59397
-0.663099,0.682353,2.411,2.59195
-0.655274,0.682353,2.411,2.58996
-0.647448,0.682353,2.411,2.58799
-0.639623,0.682353,2.411,2.58605
-0.631797,0.682353,2.411,2.58412
-0.623972,0.682353,2.411,2.58222
-0.616146,0.682353,2.411,2.58034
-0.608321,0.682353,2.411,2.57848
-0.596261,0.677542,2.394,2.55848
-0.588491,0.677542,2.394,2.55668
-0.576597,0.672731,2.377,2.53676
-0.568881,0.672731,2.377,2.53502
-0.561166,0.672731,2.377,2.5333
-0.553451,0.672731,2.377,2.5316
-0.542063,0.668202,2.361,2.5129
-0.534399,0.668202,2.361,2.51125
-0.526736,0.668202,2.361,2.50963
-0.515555,0.663674,2.345,2.49104
-0.507944,0.663674,2.345,2.48948
-0.500333,0.663674,2.345,2.48794
-0.492721,0.663674,2.345,2.48642
-0.48511,0.663674,2.345,2.48492
-0.477499,0.663674,2.345,2.48344
-0.469887,0.663674,2.345,2.48199
-0.462276,0.663674,2.345,2.48056
-0.454665,0.663674,2.345,2.47915
-0.447054,0.663674,2.345,2.47777
-0.436444,0.659146,2.329,2.45951
-0.425938,0.654617,2.313,2.44129
-0.418431,0.654617,2.313,2.44
-0.410923,0.654617,2.313,2.43872
-0.406207,0.659146,2.329,2.45433
-0.398647,0.659146,2.329,2.45309
-0.388401,0.654617,2.313,2.43503
-0.380894,0.654617,2.313,2.43384
-0.373386,0.654617,2.313,2.43268
-0.365879,0.654617,2.313,2.43153
-0.36085,0.659146,2.329,2.44723
-0.353291,0.659146,2.329,2.44613
-0.345732,0.659146,2.329,2.44504
-0.338172,0.659146,2.329,2.44399
-0.332884,0.663674,2.345,2.45974
-0.325273,0.663674,2.345,2.45872
-0.313327,0.654617,2.313,2.42418
-0.305819,0.654617,2.313,2.42322
-0.298312,0.654617,2.313,2.42229
-0.290805,0.654617,2.313,2.42138
-0.28146,0.650372,2.298,2.40479
-0.274001,0.650372,2.298,2.40393
-0.266543,0.650372,2.298,2.40309
-0.25728,0.645844,2.282,2.38555
-0.248231,0.641599,2.267,2.36908
-0.240873,0.641599,2.267,2.36832
-0.233514,0.641599,2.267,2.36759
-0.22466,0.637353,2.252,2.35121
-0.21735,0.637353,2.252,2.35052
-0.210041,0.637353,2.252,2.34986
-0.202732,0.637353,2.252,2.34922
-0.195422,0.637353,2.252,2.3486
-0.188113,0.637353,2.252,2.348
-0.180803,0.637353,2.252,2.34743
-0.173494,0.637353,2.252,2.34688
-0.166184,0.637353,2.252,2.34635
-0.158875,0.637353,2.252,2.34584
-0.151566,0.637353,2.252,2.34536
-0.144256,0.637353,2.252,2.3449
-0.136947,0.637353,2.252,2.34446
-0.129637,0.637353,2.252,2.34404
-0.123143,0.641599,2.267,2.35926
-0.115784,0.641599,2.267,2.35889
-0.108426,0.641599,2.267,2.35854
-0.101068,0.641599,2.267,2.35821
-0.0937101,0.641599,2.267,2.35791
-0.086352,0.641599,2.267,2.35763
-0.0795166,0.645844,2.282,2.37296
-0.0721098,0.645844,2.282,2.37273
-0.064703,0.645844,2.282,2.37251
-0.0572962,0.645844,2.282,2.37232
-0.0502392,0.650372,2.298,2.38879
-0.0427804,0.650372,2.298,2.38864
-0.0353217,0.650372,2.298,2.38852
-0.0278629,0.650372,2.298,2.38842
-0.0204042,0.650372,2.298,2.38835
-0.01303,0.654617,2.313,2.40389
-0.00552254,0.654617,2.313,2.40386
0.00198488,0.654617,2.313,2.40385
0.00943075,0.650372,2.298,2.38828
0.0168895,0.650372,2.298,2.38832
0.0243482,0.650372,2.298,2.38838
0.031807,0.650372,2.298,2.38847
0.0389923,0.645844,2.282,2.37195
0.0463991,0.645844,2.282,2.37209
0.0534522,0.641599,2.267,2.35665
0.0608104,0.641599,2.267,2.35683
0.0686195,0.645844,2.282,2.37262
0.0750269,0.637353,2.252,2.34166
0.0823363,0.637353,2.252,2.3419
0.0896457,0.637353,2.252,2.34217
0.0969552,0.637353,2.252,2.34246
0.10357,0.633108,2.237,2.32717
0.110831,0.633108,2.237,2.3275
0.118092,0.633108,2.237,2.32786
0.125352,0.633108,2.237,2.32824
0.132613,0.633108,2.237,2.32864
0.139874,0.633108,2.237,2.32907
0.147135,0.633108,2.237,2.32952
0.154395,0.633108,2.237,2.32999
0.161656,0.633108,2.237,2.33048
0.168917,0.633108,2.237,2.33099
0.176178,0.633108,2.237,2.33153
0.183438,0.633108,2.237,2.33209
0.190699,0.633108,2.237,2.33267
0.19796,0.633108,2.237,2.33328
0.205221,0.633108,2.237,2.3339
0.212481,0.633108,2.237,2.33455
0.219742,0.633108,2.237,2.33523
0.228525,0.637353,2.252,2.35158
0.235834,0.637353,2.252,2.35231
0.243144,0.637353,2.252,2.35305
0.250453,0.637353,2.252,2.35382
0.257763,0.637353,2.252,2.35461
0.263307,0.633108,2.237,2.33973
0.270567,0.633108,2.237,2.34056
0.277828,0.633108,2.237,2.34141
0.285089,0.633108,2.237,2.34228
0.29052,0.629146,2.223,2.32851
0.297735,0.629146,2.223,2.32942
0.304951,0.629146,2.223,2.33035
0.3102,0.625184,2.209,2.31663
0.31737,0.625184,2.209,2.3176
0.32454,0.625184,2.209,2.31859
0.331709,0.625184,2.209,2.31961
0.338879,0.625184,2.209,2.32064
0.348242,0.629146,2.223,2.33641
0.355458,0.629146,2.223,2.3375
0.362673,0.629146,2.223,2.33861
0.372218,0.633108,2.237,2.35447
0.382023,0.637353,2.252,2.37143
0.389332,0.637353,2.252,2.37262
0.399284,0.641599,2.267,2.38964
0.409333,0.645844,2.282,2.4067
0.416739,0.645844,2.282,2.40797
0.42712,0.650372,2.298,2.42615
0.443467,0.663674,2.345,2.47713
0.451078,0.663674,2.345,2.4785
0.461819,0.668202,2.361,2.49682
0.466301,0.663674,2.345,2.48132
0.473912,0.663674,2.345,2.48276
0.481523,0.663674,2.345,2.48422
0.489135,0.663674,2.345,2.48571
0.496746,0.663674,2.345,2.48722
0.500916,0.659146,2.329,2.47177
0.504982,0.654617,2.313,2.45632
0.51249,0.654617,2.313,2.45787
0.519997,0.654617,2.313,2.45945
0.527505,0.654617,2.313,2.46105
0.535012,0.654617,2.313,2.46267
0.542519,0.654617,2.313,2.46431
0.550027,0.654617,2.313,2.46597
0.557534,0.654617,2.313,2.46766
0.565042,0.654617,2.313,2.46937
0.572549,0.654617,2.313,2.47109
0.576295,0.650372,2.298,2.45681
0.583754,0.650372,2.298,2.45857
0.591212,0.650372,2.298,2.46035
0.598671,0.650372,2.298,2.46215
0.610086,0.654617,2.313,2.48006
0.617594,0.654617,2.313,2.48192
0.625101,0.654617,2.313,2.4838
0.632608,0.654617,2.313,2.4857
0.640116,0.654617,2.313,2.48762
0.647623,0.654617,2.313,2.48956
0.655131,0.654617,2.313,2.49152
0.662638,0.654617,2.313,2.49351
0.670146,0.654617,2.313,2.49551
0.673258,0.650372,2.298,2.48134
0.680717,0.650372,2.298,2.48338
0.683384,0.645844,2.282,2.46813
0.686251,0.641599,2.267,2.45395
0.693609,0.641599,2.267,2.45602
0.696329,0.637353,2.252,2.44184
0.694577,0.629146,2.223,2.41247
0.701792,0.629146,2.223,2.41455
0.699758,0.620938,2.194,2.38513
0.69818,0.613297,2.167,2.35785
0.705214,0.613297,2.167,2.35995
0.707646,0.609335,2.153,2.3468
0.705672,0.601693,2.126,2.31946
0.712573,0.601693,2.126,2.32157
0.719473,0.601693,2.126,2.32369
0.721932,0.598014,2.113,2.31162
0.724306,0.594335,2.1,2.29953
0.731122,0.594335,2.1,2.30169
0.729154,0.587259,2.075,2.27644
0.731278,0.58358,2.062,2.26433
0.737971,0.58358,2.062,2.2665
0.744664,0.58358,2.062,2.26869
0.751356,0.58358,2.062,2.27089
0.758049,0.58358,2.062,2.27311
0.764742,0.58358,2.062,2.27535
0.766945,0.580184,2.05,2.26436
0.773599,0.580184,2.05,2.26662
0.780253,0.580184,2.05,2.2689
0.786907,0.580184,2.05,2.2712
0.798206,0.58358,2.062,2.28682
0.804898,0.58358,2.062,2.28916
0.811591,0.58358,2.062,2.29153
0.818284,0.58358,2.062,2.2939
0.824977,0.58358,2.062,2.2963
0.831669,0.58358,2.062,2.29871
0.838362,0.58358,2.062,2.30114
0.850382,0.587259,2.075,2.31811
0.857117,0.587259,2.075,2.32059
0.868848,0.590656,2.087,2.33652
0.875622,0.590656,2.087,2.33905
0.882396,0.590656,2.087,2.34159
0.894708,0.594335,2.1,2.35876
0.901524,0.594335,2.1,2.36135
0.908341,0.594335,2.1,2.36396
0.915157,0.594335,2.1,2.36659
0.921973,0.594335,2.1,2.36923
0.928789,0.594335,2.1,2.37189
0.935605,0.594335,2.1,2.37457
0.948255,0.598014,2.113,2.39198
0.955113,0.598014,2.113,2.39471
0.961972,0.598014,2.113,2.39745
0.96883,0.598014,2.113,2.40021
0.975688,0.598014,2.113,2.40299
0.982546,0.598014,2.113,2.40578
0.995492,0.601693,2.126,2.42341
1.00239,0.601693,2.126,2.42625
1.00929,0.601693,2.126,2.42911
1.01619,0.601693,2.126,2.43199
1.03609,0.609335,2.153,2.4658
1.04307,0.609335,2.153,2.46875
1.04372,0.605656,2.14,2.45678
1.05067,0.605656,2.14,2.45974
1.05761,0.605656,2.14,2.46272
1.06456,0.605656,2.14,2.46571
1.07802,0.609335,2.153,2.48371
1.085,0.609335,2.153,2.48675
1.09909,0.613297,2.167,2.506
1.10613,0.613297,2.167,2.50909
1.11984,0.616976,2.18,2.52727
1.13415,0.620938,2.194,2.54666
1.14127,0.620938,2.194,2.54984
1.15624,0.625184,2.209,2.57049
1.16341,0.625184,2.209,2.57373
1.17058,0.625184,2.209,2.57698
1.18522,0.629146,2.223,2.59659
1.19243,0.629146,2.223,2.59989
1.19965,0.629146,2.223,2.60321
1.21446,0.633108,2.237,2.62296
1.22173,0.633108,2.237,2.62633
1.22899,0.633108,2.237,2.62971
1.23625,0.633108,2.237,2.63312
1.24351,0.633108,2.237,2.63653
1.25077,0.633108,2.237,2.63997
1.25803,0.633108,2.237,2.64341
1.26529,0.633108,2.237,2.64688
1.27255,0.633108,2.237,2.65035
1.27981,0.633108,2.237,2.65385
1.27902,0.629146,2.223,2.64073
1.28623,0.629146,2.223,2.64423
1.29345,0.629146,2.223,2.64775
1.30066,0.629146,2.223,2.65128
1.29964,0.625184,2.209,2.63811
1.30681,0.625184,2.209,2.64165
1.31398,0.625184,2.209,2.6452
1.31218,0.620938,2.194,2.63078
1.3193,0.620938,2.194,2.63434
1.32642,0.620938,2.194,2.63792
1.33354,0.620938,2.194,2.6415
1.34066,0.620938,2.194,2.64511
1.33919,0.616976,2.18,2.63182
1.34626,0.616976,2.18,2.63543
1.36203,0.620938,2.194,2.656
1.36915,0.620938,2.194,2.65966
1.36749,0.616976,2.18,2.64633
1.37456,0.616976,2.18,2.65
1.38164,0.616976,2.18,2.65367
1.38872,0.616976,2.18,2.65737
1.40475,0.620938,2.194,2.67816
1.42153,0.625184,2.209,2.70024
1.4287,0.625184,2.209,2.70402
1.43587,0.625184,2.209,2.70781
1.44304,0.625184,2.209,2.71162
1.45021,0.625184,2.209,2.71544
1.46661,0.629146,2.223,2.73651
1.47383,0.629146,2.223,2.74039
1.48105,0.629146,2.223,2.74428
1.49763,0.633108,2.237,2.76548
1.51499,0.637353,2.252,2.78799
1.52229,0.637353,2.252,2.79197
1.5296,0.637353,2.252,2.79596
-1.69618,0.699909,2.445,3.05695
-1.68824,0.699909,2.445,3.05255
-1.6803,0.699909,2.445,3.04817
-1.68468,0.705062,2.463,3.06621
-1.67669,0.705062,2.463,3.06182
-1.66869,0.705062,2.463,3.05745
-1.67283,0.710215,2.481,3.07541
-1.66478,0.710215,2.481,3.07104
-1.65673,0.710215,2.481,3.06668
-1.64868,0.710215,2.481,3.06234
-1.64062,0.710215,2.481,3.05801
-1.63257,0.710215,2.481,3.0537
-1.6363,0.715367,2.499,3.07152
-1.63992,0.72052,2.517,3.0893
-1.63175,0.72052,2.517,3.08497
-1.61197,0.715367,2.499,3.05863
-1.60386,0.715367,2.499,3.05436
-1.59575,0.715367,2.499,3.05011
-1.58764,0.715367,2.499,3.04587
-1.57953,0.715367,2.499,3.04165
-1.57142,0.715367,2.499,3.03745
-1.5633,0.715367,2.499,3.03326
-1.55519,0.715367,2.499,3.02909
-1.54708,0.715367,2.499,3.02493
-1.5168,0.705062,2.463,2.97727
-1.50881,0.705062,2.463,2.97321
-1.50081,0.705062,2.463,2.96916
-1.49282,0.705062,2.463,2.96513
-1.48482,0.705062,2.463,2.96111
-1.46604,0.699909,2.445,2.9355
-1.4581,0.699909,2.445,2.93155
-1.45016,0.699909,2.445,2.92761
-1.4322,0.695043,2.428,2.90335
-1.42432,0.695043,2.428,2.89948
-1.40652,0.690176,2.411,2.87534
-1.38883,0.68531,2.394,2.85127
-1.38106,0.68531,2.394,2.84749
-1.37329,0.68531,2.394,2.84373
-1.3467,0.675863,2.361,2.80084
-1.33904,0.675863,2.361,2.79717
-1.33137,0.675863,2.361,2.7935
-1.32371,0.675863,2.361,2.78986
-1.31605,0.675863,2.361,2.78623
-1.30838,0.675863,2.361,2.78262
-1.30072,0.675863,2.361,2.77903
-1.29306,0.675863,2.361,2.77545
-1.29411,0.680443,2.377,2.79067
-1.27773,0.675863,2.361,2.76834
-1.27007,0.675863,2.361,2.76481
-1.26241,0.675863,2.361,2.7613
-1.25474,0.675863,2.361,2.75781
-1.25553,0.680443,2.377,2.77299
-1.24781,0.680443,2.377,2.76951
-1.2401,0.680443,2.377,2.76604
-1.22409,0.675863,2.361,2.74399
-1.21643,0.675863,2.361,2.74058
-1.20876,0.675863,2.361,2.73719
-1.2011,0.675863,2.361,2.73382
