0.222738,-0.34939,2.517,2.55088
0.230908,-0.34939,2.517,2.5516
0.240882,-0.352028,2.536,2.57162
0.249113,-0.352028,2.536,2.57241
0.257344,-0.352028,2.536,2.57322
0.263586,-0.34939,2.517,2.55477
0.271755,-0.34939,2.517,2.55562
0.279925,-0.34939,2.517,2.55651
0.288094,-0.34939,2.517,2.55741
0.296264,-0.34939,2.517,2.55835
0.304434,-0.34939,2.517,2.55931
0.310368,-0.346891,2.499,2.54198
0.318479,-0.346891,2.499,2.54298
0.32659,-0.346891,2.499,2.54401
0.334701,-0.346891,2.499,2.54507
0.342812,-0.346891,2.499,2.54615
0.350923,-0.346891,2.499,2.54725
0.359034,-0.346891,2.499,2.54838
0.367146,-0.346891,2.499,2.54954
0.375257,-0.346891,2.499,2.55072
0.383368,-0.346891,2.499,2.55192
0.391479,-0.346891,2.499,2.55315
0.396712,-0.344393,2.481,2.53601
0.404765,-0.344393,2.481,2.53728
0.412817,-0.344393,2.481,2.53858
0.42087,-0.344393,2.481,2.5399
0.432035,-0.346891,2.499,2.55969
0.440146,-0.346891,2.499,2.56107
0.445028,-0.344393,2.481,2.54402
0.453081,-0.344393,2.481,2.54544
0.461134,-0.344393,2.481,2.54688
0.469186,-0.344393,2.481,2.54835
0.477239,-0.344393,2.481,2.54985
0.488812,-0.346891,2.499,2.56988
0.496924,-0.346891,2.499,2.57143
0.505035,-0.346891,2.499,2.57301
0.513146,-0.346891,2.499,2.57462
0.521257,-0.346891,2.499,2.57625
0.529368,-0.346891,2.499,2.5779
0.537479,-0.346891,2.499,2.57958
0.541661,-0.344393,2.481,2.56269
0.549713,-0.344393,2.481,2.5644
0.557766,-0.344393,2.481,2.56614
0.565819,-0.344393,2.481,2.5679
0.573871,-0.344393,2.481,2.56969
0.581924,-0.344393,2.481,2.5715
0.589977,-0.344393,2.481,2.57333
0.59803,-0.344393,2.481,2.57519
0.610479,-0.346891,2.499,2.59577
0.618591,-0.346891,2.499,2.59769
0.626702,-0.346891,2.499,2.59963
0.634813,-0.346891,2.499,2.6016
0.642924,-0.346891,2.499,2.60359
0.651035,-0.346891,2.499,2.60561
0.659146,-0.346891,2.499,2.60764
0.667257,-0.346891,2.499,2.60971
0.675369,-0.346891,2.499,2.61179
0.68348,-0.346891,2.499,2.6139
0.686609,-0.344393,2.481,2.59719
0.694662,-0.344393,2.481,2.59933
0.702715,-0.344393,2.481,2.6015
0.710768,-0.344393,2.481,2.60368
0.71882,-0.344393,2.481,2.60589
0.726873,-0.344393,2.481,2.60812
0.734926,-0.344393,2.481,2.61038
0.748369,-0.346891,2.499,2.63161
0.75648,-0.346891,2.499,2.63393
0.764591,-0.346891,2.499,2.63627
0.772702,-0.346891,2.499,2.63864
0.780813,-0.346891,2.499,2.64102
0.788924,-0.346891,2.499,2.64343
0.797036,-0.346891,2.499,2.64586
0.805147,-0.346891,2.499,2.64832
0.813258,-0.346891,2.499,2.6508
0.821369,-0.346891,2.499,2.6533
0.82948,-0.346891,2.499,2.65582
0.837591,-0.346891,2.499,2.65836
0.839611,-0.344393,2.481,2.64176
0.847664,-0.344393,2.481,2.64433
0.855716,-0.344393,2.481,2.64693
0.857502,-0.341894,2.463,2.63032
0.865497,-0.341894,2.463,2.63293
0.873491,-0.341894,2.463,2.63557
0.881485,-0.341894,2.463,2.63823
0.882979,-0.339396,2.445,2.62162
0.890915,-0.339396,2.445,2.6243
0.898851,-0.339396,2.445,2.627
0.900482,-0.337036,2.428,2.61145
0.908362,-0.337036,2.428,2.61417
0.916243,-0.337036,2.428,2.61692
0.924124,-0.337036,2.428,2.61969
0.932004,-0.337036,2.428,2.62248
0.933304,-0.334676,2.411,2.60691
0.94113,-0.334676,2.411,2.60972
0.942264,-0.332316,2.394,2.59413
0.950035,-0.332316,2.394,2.59697
0.957805,-0.332316,2.394,2.59982
0.965575,-0.332316,2.394,2.60269
0.973346,-0.332316,2.394,2.60558
0.981116,-0.332316,2.394,2.6085
0.995908,-0.334676,2.411,2.62997
nan,nan,nan,NaN
nan,nan,nan,NaN
nan,nan,nan,NaN
nan,nan,nan,NaN
nan,nan,nan,NaN
nan,nan,nan,NaN
nan,nan,nan,NaN
nan,nan,nan,NaN
nan,nan,nan,NaN
nan,nan,nan,NaN
nan,nan,nan,NaN
nan,nan,nan,NaN
nan,nan,nan,NaN
nan,nan,nan,NaN
nan,nan,nan,NaN
nan,nan,nan,NaN
1.49792,-0.44406,3.199,3.56013
1.5083,-0.44406,3.199,3.56452
1.47738,-0.431983,3.112,3.47186
1.48749,-0.431983,3.112,3.47617
1.5255,-0.440034,3.17,3.54537
1.56485,-0.448363,3.23,3.617
1.57534,-0.448363,3.23,3.62155
1.61626,-0.45697,3.292,3.69573
1.62695,-0.45697,3.292,3.70041
1.62171,-0.452528,3.26,3.66911
1.63229,-0.452528,3.26,3.67379
1.659,-0.45697,3.292,3.71462
1.66969,-0.45697,3.292,3.7194
1.69671,-0.461412,3.324,3.76041
1.74088,-0.470434,3.389,3.83892
1.75188,-0.470434,3.389,3.84392
1.76288,-0.470434,3.389,3.84895
1.77388,-0.470434,3.389,3.854
1.78488,-0.470434,3.389,3.85907
1.79588,-0.470434,3.389,3.86417
1.80688,-0.470434,3.389,3.8693
1.83612,-0.475154,3.423,3.91332
1.84723,-0.475154,3.423,3.91854
1.87734,-0.480012,3.458,3.96391
1.90768,-0.484871,3.493,4.00941
1.91902,-0.484871,3.493,4.01482
1.93036,-0.484871,3.493,4.02025
1.94169,-0.484871,3.493,4.02571
1.97316,-0.489868,3.529,4.07274
1.98461,-0.489868,3.529,4.0783
1.99607,-0.489868,3.529,4.08388
2.02857,-0.495004,3.566,4.13237
2.04015,-0.495004,3.566,4.13806
2.05172,-0.495004,3.566,4.14378
2.06329,-0.495004,3.566,4.14953
2.07487,-0.495004,3.566,4.15529
2.08644,-0.495004,3.566,4.16109
2.07625,-0.489868,3.529,4.12367
2.0877,-0.489868,3.529,4.12945
2.07774,-0.484871,3.493,4.09306
2.04722,-0.475154,3.423,4.01669
2.05833,-0.475154,3.423,4.02236
2.04888,-0.470434,3.389,3.98805
2.03982,-0.465853,3.356,3.95482
2.05072,-0.465853,3.356,3.96045
2.02229,-0.45697,3.292,3.89047
1.99469,-0.448363,3.23,3.82266
2.00517,-0.448363,3.23,3.82814
1.97821,-0.440034,3.17,3.76243
1.93456,-0.428097,3.084,3.66563
1.94457,-0.428097,3.084,3.67092
1.93746,-0.424349,3.057,3.64405
1.91299,-0.416853,3.003,3.58487
1.92273,-0.416853,3.003,3.59008
1.91575,-0.413244,2.977,3.56418
1.89243,-0.406164,2.926,3.50824
1.90192,-0.406164,2.926,3.51337
1.89509,-0.402694,2.901,3.48846
1.87299,-0.396031,2.853,3.43578
1.85125,-0.389507,2.806,3.38415
1.86035,-0.389507,2.806,3.38914
1.85414,-0.386314,2.783,3.36633
1.83371,-0.380206,2.739,3.31801
1.8426,-0.380206,2.739,3.32293
1.83662,-0.377153,2.717,3.30114
1.83118,-0.374237,2.696,3.2805
-2.35106,-0.459438,3.389,4.15017
-2.34006,-0.459438,3.389,4.14395
-2.32906,-0.459438,3.389,4.13774
-2.31806,-0.459438,3.389,4.13156
-2.30706,-0.459438,3.389,4.1254
-2.29606,-0.459438,3.389,4.11926
-2.26281,-0.454964,3.356,4.07309
-2.25192,-0.454964,3.356,4.06705
-2.24102,-0.454964,3.356,4.06102
-2.23013,-0.454964,3.356,4.05502
-2.21924,-0.454964,3.356,4.04904
-2.23006,-0.459438,3.389,4.08284
-2.21906,-0.459438,3.389,4.07684
-2.20806,-0.459438,3.389,4.07087
-2.2191,-0.464047,3.423,4.10569
-2.20799,-0.464047,3.423,4.0997
-2.19688,-0.464047,3.423,4.09372
-2.18577,-0.464047,3.423,4.08777
-2.1969,-0.468792,3.458,4.12358
-2.18568,-0.468792,3.458,4.11761
-2.17445,-0.468792,3.458,4.11166
-2.18512,-0.473537,3.493,4.14729
-2.152,-0.468792,3.458,4.09984
-2.11911,-0.464047,3.423,4.05252
-2.108,-0.464047,3.423,4.04672
-2.09689,-0.464047,3.423,4.04094
-2.08578,-0.464047,3.423,4.03519
-2.05406,-0.459438,3.389,3.98943
-2.04306,-0.459438,3.389,3.98378
-2.03206,-0.459438,3.389,3.97815
-2.02106,-0.459438,3.389,3.97254
nan,nan,nan,NaN
nan,nan,nan,NaN
nan,nan,nan,NaN
nan,nan,nan,NaN
nan,nan,nan,NaN
nan,nan,nan,NaN
nan,nan,nan,NaN
nan,nan,nan,NaN
nan,nan,nan,NaN
nan,nan,nan,NaN
nan,nan,nan,NaN
nan,nan,nan,NaN
nan,nan,nan,NaN
nan,nan,nan,NaN
nan,nan,nan,NaN
nan,nan,nan,NaN
nan,nan,nan,NaN
nan,nan,nan,NaN
nan,nan,nan,NaN
nan,nan,nan,NaN
nan,nan,nan,NaN
nan,nan,nan,NaN
nan,nan,nan,NaN
nan,nan,nan,NaN
nan,nan,nan,NaN
nan,nan,nan,NaN
nan,nan,nan,NaN
nan,nan,nan,NaN
nan,nan,nan,NaN
nan,nan,nan,NaN
nan,nan,nan,NaN
-1.14702,-0.315736,2.329,2.61526
-1.13946,-0.315736,2.329,2.61195
-1.1319,-0.315736,2.329,2.60867
-1.12435,-0.315736,2.329,2.6054
-1.11679,-0.315736,2.329,2.60214
-1.10923,-0.315736,2.329,2.59891
-1.10167,-0.315736,2.329,2.59569
-1.10162,-0.317905,2.345,2.6103
-1.09401,-0.317905,2.345,2.6071
-1.07899,-0.315736,2.329,2.58615
-1.07143,-0.315736,2.329,2.583
-1.06387,-0.315736,2.329,2.57987
-1.05631,-0.315736,2.329,2.57677
-1.04875,-0.315736,2.329,2.57368
-1.04119,-0.315736,2.329,2.57061
-1.03363,-0.315736,2.329,2.56755
-1.02607,-0.315736,2.329,2.56452
-1.01851,-0.315736,2.329,2.5615
-1.01096,-0.315736,2.329,2.55851
-1.0034,-0.315736,2.329,2.55553
-0.995836,-0.315736,2.329,2.55257
-0.988277,-0.315736,2.329,2.54963
-0.980718,-0.315736,2.329,2.54671
-0.973158,-0.315736,2.329,2.54381
-0.972232,-0.317905,2.345,2.55838
-0.964621,-0.317905,2.345,2.5555
-0.95701,-0.317905,2.345,2.55264
-0.949399,-0.317905,2.345,2.54979
-0.941787,-0.317905,2.345,2.54697
-0.934176,-0.317905,2.345,2.54416
-0.926565,-0.317905,2.345,2.54138
-0.918953,-0.317905,2.345,2.53861
-0.911342,-0.317905,2.345,2.53587
-0.909897,-0.320074,2.361,2.55043
-0.902234,-0.320074,2.361,2.5477
-0.894571,-0.320074,2.361,2.545
-0.886907,-0.320074,2.361,2.54232
-0.885203,-0.322243,2.377,2.55686
-0.883763,-0.324548,2.394,2.57247
-0.875993,-0.324548,2.394,2.56981
-0.868223,-0.324548,2.394,2.56717
-0.866562,-0.326853,2.411,2.58277
-0.858737,-0.326853,2.411,2.58015
-0.850911,-0.326853,2.411,2.57756
-0.843086,-0.326853,2.411,2.57499
-0.83526,-0.326853,2.411,2.57243
-0.827435,-0.326853,2.411,2.5699
-0.825388,-0.329157,2.428,2.5855
-0.817508,-0.329157,2.428,2.58299
-0.809627,-0.329157,2.428,2.58051
-0.801746,-0.329157,2.428,2.57805
-0.799424,-0.331462,2.445,2.59364
-0.791488,-0.331462,2.445,2.59121
-0.783552,-0.331462,2.445,2.58879
-0.775616,-0.331462,2.445,2.5864
-0.767681,-0.331462,2.445,2.58403
-0.765338,-0.333902,2.463,2.60069
-0.757344,-0.333902,2.463,2.59835
-0.749349,-0.333902,2.463,2.59603
-0.741355,-0.333902,2.463,2.59374
-0.733361,-0.333902,2.463,2.59146
-0.725366,-0.333902,2.463,2.58921
-0.717372,-0.333902,2.463,2.58698
-0.714562,-0.336342,2.481,2.60367
-0.706509,-0.336342,2.481,2.60147
-0.698457,-0.336342,2.481,2.59929
-0.690404,-0.336342,2.481,2.59714
-0.682351,-0.336342,2.481,2.59501
-0.674299,-0.336342,2.481,2.59291
-0.666246,-0.336342,2.481,2.59082
-0.662968,-0.338783,2.499,2.60755
-0.654857,-0.338783,2.499,2.6055
-0.646746,-0.338783,2.499,2.60347
-0.634035,-0.336342,2.481,2.58273
-0.625982,-0.336342,2.481,2.58076
-0.61793,-0.336342,2.481,2.57882
-0.614302,-0.338783,2.499,2.5956
-0.606191,-0.338783,2.499,2.59369
-0.598079,-0.338783,2.499,2.59181
-0.589968,-0.338783,2.499,2.58995
-0.581857,-0.338783,2.499,2.58811
-0.577879,-0.341223,2.517,2.60493
-0.569709,-0.341223,2.517,2.60313
-0.561539,-0.341223,2.517,2.60136
-0.55337,-0.341223,2.517,2.5996
-0.5452,-0.341223,2.517,2.59788
-0.537031,-0.341223,2.517,2.59618
-0.528861,-0.341223,2.517,2.5945
-0.520692,-0.341223,2.517,2.59284
-0.508857,-0.338783,2.499,2.57269
-0.500746,-0.338783,2.499,2.57109
-0.492635,-0.338783,2.499,2.56953
-0.484524,-0.338783,2.499,2.56798
-0.476412,-0.338783,2.499,2.56647
-0.468301,-0.338783,2.499,2.56497
-0.456875,-0.336342,2.481,2.54504
-0.448823,-0.336342,2.481,2.54361
-0.44077,-0.336342,2.481,2.5422
-0.432717,-0.336342,2.481,2.54081
-0.424665,-0.336342,2.481,2.53945
-0.416612,-0.336342,2.481,2.53812
-0.408559,-0.336342,2.481,2.53681
-0.400506,-0.336342,2.481,2.53553
-0.392454,-0.336342,2.481,2.53427
-0.384401,-0.336342,2.481,2.53303
-0.376348,-0.336342,2.481,2.53182
-0.365624,-0.333902,2.463,2.51228
-0.357629,-0.333902,2.463,2.51113
-0.349635,-0.333902,2.463,2.51
-0.341641,-0.333902,2.463,2.5089
-0.333646,-0.333902,2.463,2.50782
-0.325652,-0.333902,2.463,2.50677
-0.317658,-0.333902,2.463,2.50575
-0.309664,-0.333902,2.463,2.50475
-0.301669,-0.333902,2.463,2.50377
-0.293675,-0.333902,2.463,2.50282
-0.285681,-0.333902,2.463,2.50189
-0.277686,-0.333902,2.463,2.50099
-0.269692,-0.333902,2.463,2.50012
-0.259785,-0.331462,2.445,2.481
-0.251849,-0.331462,2.445,2.48019
-0.243914,-0.331462,2.445,2.47939
-0.235978,-0.331462,2.445,2.47862
-0.228042,-0.331462,2.445,2.47788
-0.220106,-0.331462,2.445,2.47716
-0.21217,-0.331462,2.445,2.47647
-0.205738,-0.333902,2.463,2.49403
-0.197744,-0.333902,2.463,2.49338
-0.189749,-0.333902,2.463,2.49276
-0.181755,-0.333902,2.463,2.49217
-0.175031,-0.336342,2.481,2.50981
-0.166978,-0.336342,2.481,2.50926
-0.158925,-0.336342,2.481,2.50873
-0.150872,-0.336342,2.481,2.50824
-0.14282,-0.336342,2.481,2.50777
-0.133789,-0.333902,2.463,2.48913
-0.125795,-0.333902,2.463,2.48871
-0.117801,-0.333902,2.463,2.48832
-0.110609,-0.336342,2.481,2.50614
-0.102556,-0.336342,2.481,2.50579
-0.0945035,-0.336342,2.481,2.50548
-0.0864508,-0.336342,2.481,2.50519
-0.0789668,-0.338783,2.499,2.5231
-0.0708557,-0.338783,2.499,2.52285
-0.0627446,-0.338783,2.499,2.52264
-0.0546334,-0.338783,2.499,2.52245
-0.0468574,-0.341223,2.517,2.54046
-0.0386878,-0.341223,2.517,2.54032
-0.0305183,-0.341223,2.517,2.54021
-0.0223487,-0.341223,2.517,2.54012
-0.0142862,-0.343799,2.536,2.55924
-0.00605498,-0.343799,2.536,2.55921
0.00215994,-0.341223,2.517,2.54003
0.0103295,-0.341223,2.517,2.54005
0.0184991,-0.341223,2.517,2.54009
0.0266686,-0.341223,2.517,2.54016
0.0348382,-0.341223,2.517,2.54026
0.0430077,-0.341223,2.517,2.54039
0.0508113,-0.338783,2.499,2.52237
0.0589224,-0.338783,2.499,2.52255
0.0670336,-0.338783,2.499,2.52275
0.075686,-0.341223,2.517,2.54115
0.0838555,-0.341223,2.517,2.54141
0.0920251,-0.341223,2.517,2.54169
0.100195,-0.341223,2.517,2.542
0.108364,-0.341223,2.517,2.54233
0.116534,-0.341223,2.517,2.5427
0.124703,-0.341223,2.517,2.54308
0.132873,-0.341223,2.517,2.5435
0.141042,-0.341223,2.517,2.54394
0.148145,-0.338783,2.499,2.52621
0.156256,-0.338783,2.499,2.5267
0.164367,-0.338783,2.499,2.52721
0.172478,-0.338783,2.499,2.52775
0.180589,-0.338783,2.499,2.52832
0.19006,-0.341223,2.517,2.54713
0.198229,-0.341223,2.517,2.54775
0.206399,-0.341223,2.517,2.5484
0.214568,-0.341223,2.517,2.54907
0.222738,-0.341223,2.517,2.54977
0.230908,-0.341223,2.517,2.5505
0.240882,-0.343799,2.536,2.57051
0.249113,-0.343799,2.536,2.57129
0.255416,-0.341223,2.517,2.55283
0.263586,-0.341223,2.517,2.55366
0.271755,-0.341223,2.517,2.55452
0.279925,-0.341223,2.517,2.5554
0.288094,-0.341223,2.517,2.55631
0.296264,-0.341223,2.517,2.55724
0.304434,-0.341223,2.517,2.5582
0.310368,-0.338783,2.499,2.54089
0.318479,-0.338783,2.499,2.54189
0.32659,-0.338783,2.499,2.54292
0.334701,-0.338783,2.499,2.54397
0.342812,-0.338783,2.499,2.54505
0.350923,-0.338783,2.499,2.54616
0.359034,-0.338783,2.499,2.54729
0.367146,-0.338783,2.499,2.54844
0.375257,-0.338783,2.499,2.54963
0.383368,-0.338783,2.499,2.55083
0.391479,-0.338783,2.499,2.55206
0.396712,-0.336342,2.481,2.53493
0.404765,-0.336342,2.481,2.5362
0.412817,-0.336342,2.481,2.5375
0.42087,-0.336342,2.481,2.53882
0.428923,-0.336342,2.481,2.54017
0.436975,-0.336342,2.481,2.54154
0.445028,-0.336342,2.481,2.54294
0.453081,-0.336342,2.481,2.54436
0.461134,-0.336342,2.481,2.54581
0.469186,-0.336342,2.481,2.54728
0.477239,-0.336342,2.481,2.54877
0.485292,-0.336342,2.481,2.55029
0.493344,-0.336342,2.481,2.55184
0.505035,-0.338783,2.499,2.57193
0.513146,-0.338783,2.499,2.57354
0.521257,-0.338783,2.499,2.57517
0.525555,-0.336342,2.481,2.55826
0.533608,-0.336342,2.481,2.55993
0.541661,-0.336342,2.481,2.56162
0.549713,-0.336342,2.481,2.56333
0.557766,-0.336342,2.481,2.56507
0.565819,-0.336342,2.481,2.56683
0.573871,-0.336342,2.481,2.56862
0.581924,-0.336342,2.481,2.57043
0.589977,-0.336342,2.481,2.57227
0.59803,-0.336342,2.481,2.57413
0.610479,-0.338783,2.499,2.5947
0.618591,-0.338783,2.499,2.59662
0.626702,-0.338783,2.499,2.59856
0.634813,-0.338783,2.499,2.60053
0.642924,-0.338783,2.499,2.60252
0.651035,-0.338783,2.499,2.60454
0.659146,-0.338783,2.499,2.60658
0.667257,-0.338783,2.499,2.60864
0.675369,-0.338783,2.499,2.61073
0.68348,-0.338783,2.499,2.61284
0.686609,-0.336342,2.481,2.59614
0.694662,-0.336342,2.481,2.59828
0.702715,-0.336342,2.481,2.60044
0.710768,-0.336342,2.481,2.60263
0.71882,-0.336342,2.481,2.60484
0.726873,-0.336342,2.481,2.60707
0.734926,-0.336342,2.481,2.60933
0.748369,-0.338783,2.499,2.63056
0.75648,-0.338783,2.499,2.63288
0.764591,-0.338783,2.499,2.63522
0.772702,-0.338783,2.499,2.63758
0.780813,-0.338783,2.499,2.63997
0.788924,-0.338783,2.499,2.64238
0.797036,-0.338783,2.499,2.64481
0.805147,-0.338783,2.499,2.64727
0.813258,-0.338783,2.499,2.64975
0.821369,-0.338783,2.499,2.65225
0.82948,-0.338783,2.499,2.65477
0.831558,-0.336342,2.481,2.63818
0.839611,-0.336342,2.481,2.64073
0.841514,-0.333902,2.463,2.62412
0.849508,-0.333902,2.463,2.62669
0.857502,-0.333902,2.463,2.62929
0.859171,-0.331462,2.445,2.61267
0.867107,-0.331462,2.445,2.61529
0.875043,-0.331462,2.445,2.61794
0.882979,-0.331462,2.445,2.6206
0.890915,-0.331462,2.445,2.62328
0.892601,-0.329157,2.428,2.60773
0.900482,-0.329157,2.428,2.61044
0.908362,-0.329157,2.428,2.61317
0.916243,-0.329157,2.428,2.61592
0.917653,-0.326853,2.411,2.60035
0.925479,-0.326853,2.411,2.60313
0.933304,-0.326853,2.411,2.60592
0.934494,-0.324548,2.394,2.59034
0.942264,-0.324548,2.394,2.59315
0.950035,-0.324548,2.394,2.59598
0.957805,-0.324548,2.394,2.59884
0.965575,-0.324548,2.394,2.60171
0.973346,-0.324548,2.394,2.60461
0.981116,-0.324548,2.394,2.60752
nan,nan,nan,NaN
nan,nan,nan,NaN
nan,nan,nan,NaN
nan,nan,nan,NaN
nan,nan,nan,NaN
nan,nan,nan,NaN
nan,nan,nan,NaN
nan,nan,nan,NaN
nan,nan,nan,NaN
nan,nan,nan,NaN
nan,nan,nan,NaN
nan,nan,nan,NaN
nan,nan,nan,NaN
nan,nan,nan,NaN
nan,nan,nan,NaN
nan,nan,nan,NaN
nan,nan,nan,NaN
1.49792,-0.43368,3.199,3.55885
1.5083,-0.43368,3.199,3.56324
1.5334,-0.437882,3.23,3.60222
1.54389,-0.437882,3.23,3.60669
1.58421,-0.446288,3.292,3.68051
1.65836,-0.464047,3.423,3.83176
1.66947,-0.464047,3.423,3.83659
1.69776,-0.468792,3.458,3.88071
1.70899,-0.468792,3.458,3.88564
1.72021,-0.468792,3.458,3.89059
1.73143,-0.468792,3.458,3.89556
1.74266,-0.468792,3.458,3.90056
1.75388,-0.468792,3.458,3.90559
1.76511,-0.468792,3.458,3.91064
1.79431,-0.473537,3.493,3.95535
1.80565,-0.473537,3.493,3.96051
1.79878,-0.468792,3.458,3.92596
1.79168,-0.464047,3.423,3.89132
1.80279,-0.464047,3.423,3.89645
1.79588,-0.459438,3.389,3.86285
1.80688,-0.459438,3.389,3.86798
1.83612,-0.464047,3.423,3.91198
1.84723,-0.464047,3.423,3.91721
1.87734,-0.468792,3.458,3.96257
1.90768,-0.473537,3.493,4.00806
1.91902,-0.473537,3.493,4.01347
1.93036,-0.473537,3.493,4.0189
1.94169,-0.473537,3.493,4.02436
1.97316,-0.478417,3.529,4.07137
1.98461,-0.478417,3.529,4.07694
1.99607,-0.478417,3.529,4.08253
2.02857,-0.483433,3.566,4.131
2.04015,-0.483433,3.566,4.1367
2.05172,-0.483433,3.566,4.14242
2.06329,-0.483433,3.566,4.14816
2.07487,-0.483433,3.566,4.15393
2.08644,-0.483433,3.566,4.15972
2.07625,-0.478417,3.529,4.12232
2.0877,-0.478417,3.529,4.1281
2.07774,-0.473537,3.493,4.09174
2.04722,-0.464047,3.423,4.01539
2.05833,-0.464047,3.423,4.02107
2.04888,-0.459438,3.389,3.98677
2.03982,-0.454964,3.356,3.95356
2.05072,-0.454964,3.356,3.95919
2.02229,-0.446288,3.292,3.88923
1.99469,-0.437882,3.23,3.82144
2.00517,-0.437882,3.23,3.82693
1.97821,-0.429748,3.17,3.76124
1.95212,-0.421885,3.112,3.69774
1.96222,-0.421885,3.112,3.70309
1.93746,-0.414429,3.057,3.64291
1.93019,-0.410769,3.03,3.61597
1.94002,-0.410769,3.03,3.62123
1.91575,-0.403584,2.977,3.56308
1.9086,-0.400059,2.951,3.53712
1.91817,-0.400059,2.951,3.54229
1.89509,-0.393281,2.901,3.48738
1.88875,-0.390027,2.877,3.46361
1.86642,-0.38352,2.829,3.41084
1.8756,-0.38352,2.829,3.41588
1.85414,-0.377284,2.783,3.3653
1.84844,-0.374301,2.761,3.34365
1.8574,-0.374301,2.761,3.34861
1.85149,-0.371319,2.739,3.32686
1.83118,-0.365489,2.696,3.27951
-2.35106,-0.448441,3.389,4.14896
-2.34006,-0.448441,3.389,4.14274
-2.32906,-0.448441,3.389,4.13654
-2.31806,-0.448441,3.389,4.13035
-2.30706,-0.448441,3.389,4.12419
-2.29606,-0.448441,3.389,4.11805
-2.26281,-0.444074,3.356,4.07189
-2.25192,-0.444074,3.356,4.06584
-2.24102,-0.444074,3.356,4.05982
-2.23013,-0.444074,3.356,4.05382
-2.21924,-0.444074,3.356,4.04783
-2.23006,-0.448441,3.389,4.08162
-2.21906,-0.448441,3.389,4.07562
-2.20806,-0.448441,3.389,4.06964
-2.2191,-0.45294,3.423,4.10445
-2.20799,-0.45294,3.423,4.09845
-2.19688,-0.45294,3.423,4.09248
-2.18577,-0.45294,3.423,4.08653
-2.1969,-0.457571,3.458,4.12232
-2.18568,-0.457571,3.458,4.11635
-2.17445,-0.457571,3.458,4.1104
-2.18512,-0.462202,3.493,4.14602
-2.152,-0.457571,3.458,4.09857
-2.11911,-0.45294,3.423,4.05126
-2.108,-0.45294,3.423,4.04546
-2.09689,-0.45294,3.423,4.03968
-2.08578,-0.45294,3.423,4.03393
-2.05406,-0.448441,3.389,3.98818
-2.04306,-0.448441,3.389,3.98253
-2.03206,-0.448441,3.389,3.9769
-2.02106,-0.448441,3.389,3.97129
nan,nan,nan,NaN
nan,nan,nan,NaN
nan,nan,nan,NaN
nan,nan,nan,NaN
nan,nan,nan,NaN
nan,nan,nan,NaN
nan,nan,nan,NaN
nan,nan,nan,NaN
nan,nan,nan,NaN
nan,nan,nan,NaN
nan,nan,nan,NaN
nan,nan,nan,NaN
nan,nan,nan,NaN
nan,nan,nan,NaN
nan,nan,nan,NaN
nan,nan,nan,NaN
nan,nan,nan,NaN
nan,nan,nan,NaN
nan,nan,nan,NaN
nan,nan,nan,NaN
nan,nan,nan,NaN
nan,nan,nan,NaN
nan,nan,nan,NaN
nan,nan,nan,NaN
nan,nan,nan,NaN
nan,nan,nan,NaN
nan,nan,nan,NaN
nan,nan,nan,NaN
nan,nan,nan,NaN
nan,nan,nan,NaN
nan,nan,nan,NaN
-1.16278,-0.312413,2.361,2.65028
-1.15512,-0.312413,2.361,2.64693
-1.14746,-0.312413,2.361,2.64359
-1.13979,-0.312413,2.361,2.64028
-1.13213,-0.312413,2.361,2.63698
-1.12447,-0.312413,2.361,2.6337
-1.1168,-0.312413,2.361,2.63043
-1.10914,-0.312413,2.361,2.62719
-1.10148,-0.312413,2.361,2.62396
-1.0864,-0.310296,2.345,2.60299
-1.07879,-0.310296,2.345,2.59983
-1.07118,-0.310296,2.345,2.59668
-1.06357,-0.310296,2.345,2.59355
-1.05596,-0.310296,2.345,2.59044
-1.04835,-0.310296,2.345,2.58734
-1.04073,-0.310296,2.345,2.58427
-1.03312,-0.310296,2.345,2.58121
-1.01851,-0.308179,2.329,2.56058
-1.01096,-0.308179,2.329,2.55759
-1.0034,-0.308179,2.329,2.55461
-0.995836,-0.308179,2.329,2.55165
-0.988277,-0.308179,2.329,2.54871
-0.980718,-0.308179,2.329,2.54579
-0.979844,-0.310296,2.345,2.56035
-0.972232,-0.310296,2.345,2.55745
-0.964621,-0.310296,2.345,2.55457
-0.95701,-0.310296,2.345,2.5517
-0.949399,-0.310296,2.345,2.54886
-0.941787,-0.310296,2.345,2.54603
-0.934176,-0.310296,2.345,2.54323
-0.926565,-0.310296,2.345,2.54044
-0.918953,-0.310296,2.345,2.53767
-0.911342,-0.310296,2.345,2.53493
-0.909897,-0.312413,2.361,2.54948
-0.902234,-0.312413,2.361,2.54675
-0.894571,-0.312413,2.361,2.54405
-0.886907,-0.312413,2.361,2.54136
-0.885203,-0.31453,2.377,2.5559
-0.883763,-0.31678,2.394,2.5715
-0.875993,-0.31678,2.394,2.56884
-0.868223,-0.31678,2.394,2.5662
-0.866562,-0.319029,2.411,2.58179
-0.858737,-0.319029,2.411,2.57917
-0.850911,-0.319029,2.411,2.57658
-0.84903,-0.321279,2.428,2.59215
-0.84115,-0.321279,2.428,2.58958
-0.833269,-0.321279,2.428,2.58703
-0.825388,-0.321279,2.428,2.58451
-0.823232,-0.323528,2.445,2.60008
-0.815296,-0.323528,2.445,2.59758
-0.80736,-0.323528,2.445,2.5951
-0.799424,-0.323528,2.445,2.59264
-0.791488,-0.323528,2.445,2.5902
-0.789321,-0.32591,2.463,2.60684
-0.781326,-0.32591,2.463,2.60443
-0.773332,-0.32591,2.463,2.60204
-0.770931,-0.328292,2.481,2.61868
-0.762878,-0.328292,2.481,2.61632
-0.754826,-0.328292,2.481,2.61398
-0.746773,-0.328292,2.481,2.61167
-0.73872,-0.328292,2.481,2.60938
-0.730668,-0.328292,2.481,2.60711
-0.722615,-0.328292,2.481,2.60486
-0.714562,-0.328292,2.481,2.60264
-0.706509,-0.328292,2.481,2.60044
-0.698457,-0.328292,2.481,2.59826
-0.690404,-0.328292,2.481,2.59611
-0.687302,-0.330674,2.499,2.6128
-0.679191,-0.330674,2.499,2.61068
-0.67108,-0.330674,2.499,2.60858
-0.662968,-0.330674,2.499,2.60651
-0.654857,-0.330674,2.499,2.60445
-0.646746,-0.330674,2.499,2.60243
-0.638635,-0.330674,2.499,2.60042
-0.630524,-0.330674,2.499,2.59844
-0.622413,-0.330674,2.499,2.59649
-0.614302,-0.330674,2.499,2.59455
-0.606191,-0.330674,2.499,2.59265
-0.598079,-0.330674,2.499,2.59076
-0.589968,-0.330674,2.499,2.5889
-0.586048,-0.333056,2.517,2.6057
-0.577879,-0.333056,2.517,2.60387
-0.569709,-0.333056,2.517,2.60207
-0.561539,-0.333056,2.517,2.6003
-0.55337,-0.333056,2.517,2.59854
-0.5452,-0.333056,2.517,2.59682
-0.537031,-0.333056,2.517,2.59511
-0.528861,-0.333056,2.517,2.59344
-0.520692,-0.333056,2.517,2.59178
-0.508857,-0.330674,2.499,2.57163
-0.500746,-0.330674,2.499,2.57004
-0.492635,-0.330674,2.499,2.56847
-0.484524,-0.330674,2.499,2.56693
-0.476412,-0.330674,2.499,2.56541
-0.468301,-0.330674,2.499,2.56391
-0.456875,-0.328292,2.481,2.54399
-0.448823,-0.328292,2.481,2.54255
-0.44077,-0.328292,2.481,2.54114
-0.432717,-0.328292,2.481,2.53976
-0.424665,-0.328292,2.481,2.5384
-0.416612,-0.328292,2.481,2.53707
-0.408559,-0.328292,2.481,2.53576
-0.400506,-0.328292,2.481,2.53447
-0.392454,-0.328292,2.481,2.53321
-0.384401,-0.328292,2.481,2.53198
-0.376348,-0.328292,2.481,2.53077
-0.365624,-0.32591,2.463,2.51123
-0.357629,-0.32591,2.463,2.51008
-0.349635,-0.32591,2.463,2.50895
-0.341641,-0.32591,2.463,2.50785
-0.333646,-0.32591,2.463,2.50677
-0.325652,-0.32591,2.463,2.50572
-0.317658,-0.32591,2.463,2.50469
-0.309664,-0.32591,2.463,2.50369
-0.301669,-0.32591,2.463,2.50272
-0.291529,-0.323528,2.445,2.48348
-0.283593,-0.323528,2.445,2.48256
-0.275657,-0.323528,2.445,2.48167
-0.267721,-0.323528,2.445,2.4808
-0.259785,-0.323528,2.445,2.47996
-0.251849,-0.323528,2.445,2.47914
-0.243914,-0.323528,2.445,2.47834
-0.235978,-0.323528,2.445,2.47758
-0.228042,-0.323528,2.445,2.47683
-0.220106,-0.323528,2.445,2.47611
-0.21217,-0.323528,2.445,2.47542
-0.204234,-0.323528,2.445,2.47475
-0.196298,-0.323528,2.445,2.47411
-0.188363,-0.323528,2.445,2.47349
-0.181755,-0.32591,2.463,2.49111
-0.173761,-0.32591,2.463,2.49054
-0.165766,-0.32591,2.463,2.48999
-0.157772,-0.32591,2.463,2.48947
-0.149778,-0.32591,2.463,2.48898
-0.141784,-0.32591,2.463,2.48851
-0.133789,-0.32591,2.463,2.48807
-0.125795,-0.32591,2.463,2.48765
-0.117801,-0.32591,2.463,2.48726
-0.110609,-0.328292,2.481,2.50507
-0.102556,-0.328292,2.481,2.50473
-0.0945035,-0.328292,2.481,2.50441
-0.0864508,-0.328292,2.481,2.50412
-0.0789668,-0.330674,2.499,2.52202
-0.0708557,-0.330674,2.499,2.52178
-0.0627446,-0.330674,2.499,2.52156
-0.0546334,-0.330674,2.499,2.52137
-0.0468574,-0.333056,2.517,2.53937
-0.0386878,-0.333056,2.517,2.53923
-0.0305183,-0.333056,2.517,2.53912
-0.0223487,-0.333056,2.517,2.53904
-0.0142862,-0.33557,2.536,2.55815
-0.00605498,-0.33557,2.536,2.55811
0.00215994,-0.333056,2.517,2.53894
0.0103295,-0.333056,2.517,2.53896
0.0184991,-0.333056,2.517,2.53901
0.0266686,-0.333056,2.517,2.53908
0.0348382,-0.333056,2.517,2.53918
0.0430077,-0.333056,2.517,2.5393
0.0508113,-0.330674,2.499,2.5213
0.0589224,-0.330674,2.499,2.52147
0.0670336,-0.330674,2.499,2.52167
0.075686,-0.333056,2.517,2.54007
0.0838555,-0.333056,2.517,2.54032
0.0920251,-0.333056,2.517,2.54061
0.100195,-0.333056,2.517,2.54092
0.108364,-0.333056,2.517,2.54125
0.116534,-0.333056,2.517,2.54161
0.124703,-0.333056,2.517,2.542
0.131923,-0.330674,2.499,2.52423
0.140034,-0.330674,2.499,2.52467
0.148145,-0.330674,2.499,2.52513
0.156256,-0.330674,2.499,2.52562
0.164367,-0.330674,2.499,2.52614
0.172478,-0.330674,2.499,2.52668
0.180589,-0.330674,2.499,2.52724
0.19006,-0.333056,2.517,2.54604
0.198229,-0.333056,2.517,2.54667
0.206399,-0.333056,2.517,2.54732
0.214568,-0.333056,2.517,2.54799
0.222738,-0.333056,2.517,2.54869
0.230908,-0.333056,2.517,2.54942
0.239077,-0.333056,2.517,2.55017
0.249113,-0.33557,2.536,2.57021
0.255416,-0.333056,2.517,2.55175
0.263586,-0.333056,2.517,2.55259
0.271755,-0.333056,2.517,2.55344
0.282038,-0.33557,2.536,2.57361
0.290269,-0.33557,2.536,2.57452
0.296264,-0.333056,2.517,2.55617
0.304434,-0.333056,2.517,2.55713
0.312603,-0.333056,2.517,2.55811
0.318479,-0.330674,2.499,2.54082
0.32659,-0.330674,2.499,2.54185
0.334701,-0.330674,2.499,2.54291
0.342812,-0.330674,2.499,2.54399
0.350923,-0.330674,2.499,2.54509
0.359034,-0.330674,2.499,2.54622
0.367146,-0.330674,2.499,2.54738
0.375257,-0.330674,2.499,2.54856
0.383368,-0.330674,2.499,2.54977
0.391479,-0.330674,2.499,2.551
0.396712,-0.328292,2.481,2.53387
0.404765,-0.328292,2.481,2.53515
0.412817,-0.328292,2.481,2.53645
0.42087,-0.328292,2.481,2.53777
0.428923,-0.328292,2.481,2.53912
0.436975,-0.328292,2.481,2.54049
0.445028,-0.328292,2.481,2.54189
0.453081,-0.328292,2.481,2.54331
0.461134,-0.328292,2.481,2.54476
0.469186,-0.328292,2.481,2.54623
0.477239,-0.328292,2.481,2.54772
0.485292,-0.328292,2.481,2.54924
0.493344,-0.328292,2.481,2.55079
0.505035,-0.330674,2.499,2.57088
0.513146,-0.330674,2.499,2.57248
0.517502,-0.328292,2.481,2.55557
0.525555,-0.328292,2.481,2.55721
0.533608,-0.328292,2.481,2.55888
0.541661,-0.328292,2.481,2.56057
0.549713,-0.328292,2.481,2.56229
0.557766,-0.328292,2.481,2.56403
0.565819,-0.328292,2.481,2.56579
0.573871,-0.328292,2.481,2.56758
0.581924,-0.328292,2.481,2.56939
0.589977,-0.328292,2.481,2.57123
0.59803,-0.328292,2.481,2.57309
0.610479,-0.330674,2.499,2.59365
0.618591,-0.330674,2.499,2.59557
0.626702,-0.330674,2.499,2.59752
0.634813,-0.330674,2.499,2.59949
0.642924,-0.330674,2.499,2.60148
0.651035,-0.330674,2.499,2.6035
0.659146,-0.330674,2.499,2.60554
0.667257,-0.330674,2.499,2.6076
0.675369,-0.330674,2.499,2.60969
0.68348,-0.330674,2.499,2.6118
0.686609,-0.328292,2.481,2.5951
0.694662,-0.328292,2.481,2.59725
0.702715,-0.328292,2.481,2.59941
0.710768,-0.328292,2.481,2.6016
0.71882,-0.328292,2.481,2.60381
0.726873,-0.328292,2.481,2.60605
0.734926,-0.328292,2.481,2.6083
0.748369,-0.330674,2.499,2.62952
0.75648,-0.330674,2.499,2.63184
0.764591,-0.330674,2.499,2.63419
0.772702,-0.330674,2.499,2.63655
0.780813,-0.330674,2.499,2.63894
0.788924,-0.330674,2.499,2.64135
0.797036,-0.330674,2.499,2.64379
0.805147,-0.330674,2.499,2.64624
0.813258,-0.330674,2.499,2.64872
0.821369,-0.330674,2.499,2.65122
0.82948,-0.330674,2.499,2.65375
0.831558,-0.328292,2.481,2.63716
0.839611,-0.328292,2.481,2.63971
0.841514,-0.32591,2.463,2.62311
0.849508,-0.32591,2.463,2.62569
0.857502,-0.32591,2.463,2.62829
0.859171,-0.323528,2.445,2.61168
0.867107,-0.323528,2.445,2.6143
0.875043,-0.323528,2.445,2.61694
0.882979,-0.323528,2.445,2.61961
0.890915,-0.323528,2.445,2.62229
0.892601,-0.321279,2.428,2.60675
0.900482,-0.321279,2.428,2.60946
0.908362,-0.321279,2.428,2.61219
0.916243,-0.321279,2.428,2.61494
0.917653,-0.319029,2.411,2.59938
0.925479,-0.319029,2.411,2.60216
0.933304,-0.319029,2.411,2.60495
0.934494,-0.31678,2.394,2.58938
0.942264,-0.31678,2.394,2.59219
0.956781,-0.319029,2.411,2.61345
0.957805,-0.31678,2.394,2.59788
0.965575,-0.31678,2.394,2.60075
nan,nan,nan,NaN
nan,nan,nan,NaN
nan,nan,nan,NaN
nan,nan,nan,NaN
nan,nan,nan,NaN
nan,nan,nan,NaN
nan,nan,nan,NaN
nan,nan,nan,NaN
nan,nan,nan,NaN
nan,nan,nan,NaN
nan,nan,nan,NaN
nan,nan,nan,NaN
nan,nan,nan,NaN
nan,nan,nan,NaN
nan,nan,nan,NaN
nan,nan,nan,NaN
nan,nan,nan,NaN
nan,nan,nan,NaN
nan,nan,nan,NaN
1.52648,-0.431371,3.26,3.62544
1.53706,-0.431371,3.26,3.62991
1.56284,-0.435606,3.292,3.67008
1.57352,-0.435606,3.292,3.67464
1.63089,-0.448441,3.389,3.78764
nan,nan,nan,NaN
nan,nan,nan,NaN
nan,nan,nan,NaN
nan,nan,nan,NaN
1.77394,-0.471862,3.566,4.01072
1.78551,-0.471862,3.566,4.01585
1.79708,-0.471862,3.566,4.02101
1.80866,-0.471862,3.566,4.0262
1.78297,-0.462202,3.493,3.94888
1.79431,-0.462202,3.493,3.95401
1.80565,-0.462202,3.493,3.95917
1.79878,-0.457571,3.458,3.92463
1.79168,-0.45294,3.423,3.89001
1.80279,-0.45294,3.423,3.89514
1.79588,-0.448441,3.389,3.86156
1.80688,-0.448441,3.389,3.86668
1.83612,-0.45294,3.423,3.91068
1.84723,-0.45294,3.423,3.91591
1.87734,-0.457571,3.458,3.96126
1.90768,-0.462202,3.493,4.00674
1.91902,-0.462202,3.493,4.01215
1.93036,-0.462202,3.493,4.01758
1.94169,-0.462202,3.493,4.02304
1.97316,-0.466966,3.529,4.07004
1.98461,-0.466966,3.529,4.07561
1.99607,-0.466966,3.529,4.0812
2.02857,-0.471862,3.566,4.12966
2.04015,-0.471862,3.566,4.13536
2.05172,-0.471862,3.566,4.14108
2.06329,-0.471862,3.566,4.14683
2.07487,-0.471862,3.566,4.1526
2.06479,-0.466966,3.529,4.11525
2.07625,-0.466966,3.529,4.12101
2.0877,-0.466966,3.529,4.12679
2.05692,-0.457571,3.458,4.04945
2.04722,-0.45294,3.423,4.01412
2.05833,-0.45294,3.423,4.0198
2.04888,-0.448441,3.389,3.98552
2.02037,-0.43984,3.324,3.91463
2.03116,-0.43984,3.324,3.92021
2.02229,-0.435606,3.292,3.88802
1.99469,-0.427402,3.23,3.82026
2.00517,-0.427402,3.23,3.82574
1.97821,-0.419462,3.17,3.76008
1.95212,-0.411787,3.112,3.69661
1.96222,-0.411787,3.112,3.70195
1.93746,-0.40451,3.057,3.64179
1.93019,-0.400937,3.03,3.61487
1.94002,-0.400937,3.03,3.62013
1.91575,-0.393924,2.977,3.56199
1.9086,-0.390484,2.951,3.53605
1.90192,-0.387176,2.926,3.51122
1.89509,-0.383867,2.901,3.48633
1.88875,-0.380692,2.877,3.46258
1.86642,-0.37434,2.829,3.40982
1.8756,-0.37434,2.829,3.41486
1.85414,-0.368253,2.783,3.3643
1.84844,-0.365342,2.761,3.34265
1.8574,-0.365342,2.761,3.34762
1.85149,-0.362431,2.739,3.32588
1.83118,-0.356741,2.696,3.27855
-2.35106,-0.437444,3.389,4.14779
-2.34006,-0.437444,3.389,4.14156
-2.32906,-0.437444,3.389,4.13536
-2.31806,-0.437444,3.389,4.12917
-2.30706,-0.437444,3.389,4.12301
-2.29606,-0.437444,3.389,4.11686
-2.28506,-0.437444,3.389,4.11074
-2.25192,-0.433184,3.356,4.06467
-2.24102,-0.433184,3.356,4.05864
-2.23013,-0.433184,3.356,4.05264
-2.24106,-0.437444,3.389,4.08645
-2.23006,-0.437444,3.389,4.08042
-2.24132,-0.441833,3.423,4.1153
-2.23021,-0.441833,3.423,4.10926
-2.2191,-0.441833,3.423,4.10324
-2.23057,-0.44635,3.458,4.13913
-2.21935,-0.44635,3.458,4.1331
-2.20812,-0.44635,3.458,4.12708
-2.21914,-0.450868,3.493,4.1628
-2.2078,-0.450868,3.493,4.15677
-2.19646,-0.450868,3.493,4.15076
-2.20764,-0.455515,3.529,4.18748
-2.19619,-0.455515,3.529,4.18146
-2.14078,-0.44635,3.458,4.09145
-2.12956,-0.44635,3.458,4.08559
-2.11833,-0.44635,3.458,4.07975
-2.10711,-0.44635,3.458,4.07393
-2.07467,-0.441833,3.423,4.02696
-2.06356,-0.441833,3.423,4.02125
-2.05245,-0.441833,3.423,4.01556
-2.04134,-0.441833,3.423,4.00989
nan,nan,nan,NaN
nan,nan,nan,NaN
nan,nan,nan,NaN
nan,nan,nan,NaN
nan,nan,nan,NaN
nan,nan,nan,NaN
nan,nan,nan,NaN
nan,nan,nan,NaN
nan,nan,nan,NaN
nan,nan,nan,NaN
nan,nan,nan,NaN
nan,nan,nan,NaN
nan,nan,nan,NaN
nan,nan,nan,NaN
nan,nan,nan,NaN
nan,nan,nan,NaN
nan,nan,nan,NaN
nan,nan,nan,NaN
nan,nan,nan,NaN
nan,nan,nan,NaN
nan,nan,nan,NaN
nan,nan,nan,NaN
nan,nan,nan,NaN
nan,nan,nan,NaN
nan,nan,nan,NaN
nan,nan,nan,NaN
nan,nan,nan,NaN
nan,nan,nan,NaN
nan,nan,nan,NaN
nan,nan,nan,NaN
nan,nan,nan,NaN
-1.17066,-0.306818,2.377,2.66734
-1.16295,-0.306818,2.377,2.66397
-1.15523,-0.306818,2.377,2.66061
-1.14752,-0.306818,2.377,2.65727
-1.1398,-0.306818,2.377,2.65394
-1.13209,-0.306818,2.377,2.65064
-1.12437,-0.306818,2.377,2.64735
-1.11666,-0.306818,2.377,2.64409
-1.10894,-0.306818,2.377,2.64084
-1.09381,-0.304752,2.361,2.61985
-1.08615,-0.304752,2.361,2.61666
-1.07849,-0.304752,2.361,2.61349
-1.07082,-0.304752,2.361,2.61034
-1.06316,-0.304752,2.361,2.6072
-1.0555,-0.304752,2.361,2.60409
-1.04784,-0.304752,2.361,2.60099
-1.03312,-0.302687,2.345,2.58031
-1.02551,-0.302687,2.345,2.57727
-1.0179,-0.302687,2.345,2.57425
-1.01029,-0.302687,2.345,2.57125
-1.00268,-0.302687,2.345,2.56827
-0.995066,-0.302687,2.345,2.56531
-0.987455,-0.302687,2.345,2.56236
-0.979844,-0.302687,2.345,2.55944
-0.972232,-0.302687,2.345,2.55654
-0.964621,-0.302687,2.345,2.55365
-0.95701,-0.302687,2.345,2.55079
-0.949399,-0.302687,2.345,2.54794
-0.941787,-0.302687,2.345,2.54511
-0.934176,-0.302687,2.345,2.54231
-0.926565,-0.302687,2.345,2.53952
-0.918953,-0.302687,2.345,2.53675
-0.911342,-0.302687,2.345,2.53401
-0.909897,-0.304752,2.361,2.54855
-0.902234,-0.304752,2.361,2.54582
-0.894571,-0.304752,2.361,2.54312
-0.886907,-0.304752,2.361,2.54043
-0.885203,-0.306818,2.377,2.55497
-0.883763,-0.309012,2.394,2.57056
-0.875993,-0.309012,2.394,2.5679
-0.868223,-0.309012,2.394,2.56526
-0.866562,-0.311206,2.411,2.58083
-0.858737,-0.311206,2.411,2.57822
-0.856911,-0.3134,2.428,2.59378
-0.84903,-0.3134,2.428,2.59119
-0.84115,-0.3134,2.428,2.58862
-0.833269,-0.3134,2.428,2.58607
-0.825388,-0.3134,2.428,2.58354
-0.823232,-0.315595,2.445,2.5991
-0.815296,-0.315595,2.445,2.5966
-0.80736,-0.315595,2.445,2.59412
-0.799424,-0.315595,2.445,2.59166
-0.791488,-0.315595,2.445,2.58922
-0.789321,-0.317918,2.463,2.60585
-0.781326,-0.317918,2.463,2.60344
-0.773332,-0.317918,2.463,2.60105
-0.770931,-0.320242,2.481,2.61768
-0.762878,-0.320242,2.481,2.61532
-0.754826,-0.320242,2.481,2.61298
-0.746773,-0.320242,2.481,2.61067
-0.73872,-0.320242,2.481,2.60838
-0.730668,-0.320242,2.481,2.60611
-0.722615,-0.320242,2.481,2.60386
-0.714562,-0.320242,2.481,2.60164
-0.706509,-0.320242,2.481,2.59944
-0.698457,-0.320242,2.481,2.59726
-0.690404,-0.320242,2.481,2.59511
-0.687302,-0.322565,2.499,2.61179
-0.679191,-0.322565,2.499,2.60966
-0.67108,-0.322565,2.499,2.60757
-0.662968,-0.322565,2.499,2.60549
-0.654857,-0.322565,2.499,2.60344
-0.646746,-0.322565,2.499,2.60141
-0.638635,-0.322565,2.499,2.5994
-0.630524,-0.322565,2.499,2.59742
-0.622413,-0.322565,2.499,2.59547
-0.614302,-0.322565,2.499,2.59353
-0.606191,-0.322565,2.499,2.59162
-0.598079,-0.322565,2.499,2.58974
-0.589968,-0.322565,2.499,2.58788
-0.586048,-0.324888,2.517,2.60467
-0.577879,-0.324888,2.517,2.60284
-0.569709,-0.324888,2.517,2.60104
-0.561539,-0.324888,2.517,2.59926
-0.55337,-0.324888,2.517,2.59751
-0.5452,-0.324888,2.517,2.59578
-0.537031,-0.324888,2.517,2.59408
-0.528861,-0.324888,2.517,2.5924
-0.520692,-0.324888,2.517,2.59075
-0.508857,-0.322565,2.499,2.5706
-0.500746,-0.322565,2.499,2.56901
-0.492635,-0.322565,2.499,2.56744
-0.484524,-0.322565,2.499,2.56589
-0.472981,-0.320242,2.481,2.5459
-0.464928,-0.320242,2.481,2.54442
-0.456875,-0.320242,2.481,2.54296
-0.448823,-0.320242,2.481,2.54153
-0.44077,-0.320242,2.481,2.54012
-0.432717,-0.320242,2.481,2.53873
-0.424665,-0.320242,2.481,2.53737
-0.416612,-0.320242,2.481,2.53604
-0.405595,-0.317918,2.463,2.51634
-0.397601,-0.317918,2.463,2.51506
-0.389606,-0.317918,2.463,2.51381
-0.381612,-0.317918,2.463,2.51258
-0.373618,-0.317918,2.463,2.51138
-0.365624,-0.317918,2.463,2.5102
-0.357629,-0.317918,2.463,2.50905
-0.349635,-0.317918,2.463,2.50792
-0.339144,-0.315595,2.445,2.4885
-0.331208,-0.315595,2.445,2.48743
-0.323272,-0.315595,2.445,2.48639
-0.315336,-0.315595,2.445,2.48537
-0.3074,-0.315595,2.445,2.48438
-0.299465,-0.315595,2.445,2.48341
-0.291529,-0.315595,2.445,2.48246
-0.281621,-0.3134,2.428,2.46429
-0.27374,-0.3134,2.428,2.4634
-0.26586,-0.3134,2.428,2.46254
-0.257979,-0.3134,2.428,2.4617
-0.250098,-0.3134,2.428,2.46088
-0.242218,-0.3134,2.428,2.4601
-0.234337,-0.3134,2.428,2.45933
-0.226456,-0.3134,2.428,2.45859
-0.218576,-0.3134,2.428,2.45788
-0.21217,-0.315595,2.445,2.4744
-0.204234,-0.315595,2.445,2.47373
-0.196298,-0.315595,2.445,2.47309
-0.188363,-0.315595,2.445,2.47247
-0.180427,-0.315595,2.445,2.47188
-0.173761,-0.317918,2.463,2.4895
-0.165766,-0.317918,2.463,2.48896
-0.157772,-0.317918,2.463,2.48844
-0.149778,-0.317918,2.463,2.48795
-0.141784,-0.317918,2.463,2.48748
-0.133789,-0.317918,2.463,2.48703
-0.125795,-0.317918,2.463,2.48662
-0.117801,-0.317918,2.463,2.48623
-0.110609,-0.320242,2.481,2.50403
-0.102556,-0.320242,2.481,2.50368
-0.0945035,-0.320242,2.481,2.50337
-0.0864508,-0.320242,2.481,2.50308
-0.0789668,-0.322565,2.499,2.52097
-0.0708557,-0.322565,2.499,2.52073
-0.0627446,-0.322565,2.499,2.52051
-0.055027,-0.324888,2.517,2.53848
-0.0468574,-0.324888,2.517,2.53831
-0.0386878,-0.324888,2.517,2.53818
-0.0305183,-0.324888,2.517,2.53806
-0.0223487,-0.324888,2.517,2.53798
-0.0141792,-0.324888,2.517,2.53792
-0.00600962,-0.324888,2.517,2.53789
0.00215994,-0.324888,2.517,2.53788
0.0103295,-0.324888,2.517,2.5379
0.0184991,-0.324888,2.517,2.53795
0.0266686,-0.324888,2.517,2.53802
0.0348382,-0.324888,2.517,2.53812
0.0430077,-0.324888,2.517,2.53825
0.0508113,-0.322565,2.499,2.52024
0.0589224,-0.322565,2.499,2.52042
0.0675164,-0.324888,2.517,2.53878
0.075686,-0.324888,2.517,2.53901
0.0832558,-0.322565,2.499,2.52111
0.091367,-0.322565,2.499,2.52139
0.0994781,-0.322565,2.499,2.52169
0.107589,-0.322565,2.499,2.52203
0.1157,-0.322565,2.499,2.52239
0.123811,-0.322565,2.499,2.52277
0.131923,-0.322565,2.499,2.52318
0.140034,-0.322565,2.499,2.52362
0.148145,-0.322565,2.499,2.52408
0.156256,-0.322565,2.499,2.52457
0.164367,-0.322565,2.499,2.52509
0.172478,-0.322565,2.499,2.52563
0.180589,-0.322565,2.499,2.5262
0.188701,-0.322565,2.499,2.52679
0.196812,-0.322565,2.499,2.52741
0.204923,-0.322565,2.499,2.52805
0.214568,-0.324888,2.517,2.54694
0.222738,-0.324888,2.517,2.54764
0.230908,-0.324888,2.517,2.54836
0.239077,-0.324888,2.517,2.54912
0.247247,-0.324888,2.517,2.5499
0.255416,-0.324888,2.517,2.5507
0.265575,-0.327341,2.536,2.57079
0.273807,-0.327341,2.536,2.57166
0.282038,-0.327341,2.536,2.57255
0.290269,-0.327341,2.536,2.57346
0.296264,-0.324888,2.517,2.55512
0.304434,-0.324888,2.517,2.55608
0.312603,-0.324888,2.517,2.55706
0.320773,-0.324888,2.517,2.55807
0.328942,-0.324888,2.517,2.55911
0.337112,-0.324888,2.517,2.56017
0.345281,-0.324888,2.517,2.56126
0.353451,-0.324888,2.517,2.56238
0.359034,-0.322565,2.499,2.54518
0.367146,-0.322565,2.499,2.54634
0.375257,-0.322565,2.499,2.54752
0.383368,-0.322565,2.499,2.54873
0.391479,-0.322565,2.499,2.54996
0.39959,-0.322565,2.499,2.55122
0.407701,-0.322565,2.499,2.5525
0.415812,-0.322565,2.499,2.55381
0.423923,-0.322565,2.499,2.55514
0.432035,-0.322565,2.499,2.5565
0.440146,-0.322565,2.499,2.55789
0.445028,-0.320242,2.481,2.54086
0.453081,-0.320242,2.481,2.54228
0.461134,-0.320242,2.481,2.54373
0.469186,-0.320242,2.481,2.5452
0.477239,-0.320242,2.481,2.5467
0.488812,-0.322565,2.499,2.56671
0.496924,-0.322565,2.499,2.56826
0.505035,-0.322565,2.499,2.56985
0.513146,-0.322565,2.499,2.57145
0.517502,-0.320242,2.481,2.55455
0.525555,-0.320242,2.481,2.55619
0.533608,-0.320242,2.481,2.55786
0.541661,-0.320242,2.481,2.55955
0.553702,-0.322565,2.499,2.57985
0.557766,-0.320242,2.481,2.56301
0.565819,-0.320242,2.481,2.56477
0.573871,-0.320242,2.481,2.56656
0.581924,-0.320242,2.481,2.56838
0.589977,-0.320242,2.481,2.57021
0.59803,-0.320242,2.481,2.57207
0.610479,-0.322565,2.499,2.59263
0.618591,-0.322565,2.499,2.59455
0.626702,-0.322565,2.499,2.5965
0.634813,-0.322565,2.499,2.59847
0.642924,-0.322565,2.499,2.60046
0.651035,-0.322565,2.499,2.60248
0.659146,-0.322565,2.499,2.60452
0.667257,-0.322565,2.499,2.60658
0.675369,-0.322565,2.499,2.60867
0.68348,-0.322565,2.499,2.61078
0.686609,-0.320242,2.481,2.5941
0.694662,-0.320242,2.481,2.59624
0.702715,-0.320242,2.481,2.59841
0.710768,-0.320242,2.481,2.6006
0.71882,-0.320242,2.481,2.60281
0.726873,-0.320242,2.481,2.60505
0.734926,-0.320242,2.481,2.6073
0.748369,-0.322565,2.499,2.62852
0.75648,-0.322565,2.499,2.63084
0.764591,-0.322565,2.499,2.63318
0.767137,-0.320242,2.481,2.61657
0.775189,-0.320242,2.481,2.61894
0.783242,-0.320242,2.481,2.62133
0.791295,-0.320242,2.481,2.62375
0.799347,-0.320242,2.481,2.62619
0.8074,-0.320242,2.481,2.62865
0.815453,-0.320242,2.481,2.63114
0.823505,-0.320242,2.481,2.63364
0.831558,-0.320242,2.481,2.63617
0.833519,-0.317918,2.463,2.61958
0.841514,-0.317918,2.463,2.62213
0.849508,-0.317918,2.463,2.62471
0.851236,-0.315595,2.445,2.60811
0.859171,-0.315595,2.445,2.61071
0.867107,-0.315595,2.445,2.61333
0.875043,-0.315595,2.445,2.61598
0.87684,-0.3134,2.428,2.60043
0.88472,-0.3134,2.428,2.6031
0.892601,-0.3134,2.428,2.60579
0.894177,-0.311206,2.411,2.59024
0.902002,-0.311206,2.411,2.59295
0.909828,-0.311206,2.411,2.59568
0.917653,-0.311206,2.411,2.59843
0.925479,-0.311206,2.411,2.60121
0.933304,-0.311206,2.411,2.604
0.934494,-0.309012,2.394,2.58844
0.942264,-0.309012,2.394,2.59125
0.956781,-0.311206,2.411,2.61251
0.957805,-0.309012,2.394,2.59694
0.965575,-0.309012,2.394,2.59982
nan,nan,nan,NaN
nan,nan,nan,NaN
nan,nan,nan,NaN
nan,nan,nan,NaN
nan,nan,nan,NaN
nan,nan,nan,NaN
nan,nan,nan,NaN
nan,nan,nan,NaN
nan,nan,nan,NaN
nan,nan,nan,NaN
nan,nan,nan,NaN
nan,nan,nan,NaN
nan,nan,nan,NaN
nan,nan,nan,NaN
nan,nan,nan,NaN
nan,nan,nan,NaN
nan,nan,nan,NaN
nan,nan,nan,NaN
nan,nan,nan,NaN
1.52648,-0.420793,3.26,3.6242
1.53706,-0.420793,3.26,3.62867
1.56284,-0.424924,3.292,3.66883
1.57352,-0.424924,3.292,3.67339
1.63089,-0.437444,3.389,3.78635
nan,nan,nan,NaN
nan,nan,nan,NaN
nan,nan,nan,NaN
1.85923,-0.48559,3.762,4.22435
1.77394,-0.460291,3.566,4.00937
1.78551,-0.460291,3.566,4.01451
1.79708,-0.460291,3.566,4.01967
1.80866,-0.460291,3.566,4.02486
1.82023,-0.460291,3.566,4.03007
1.83181,-0.460291,3.566,4.03531
1.84338,-0.460291,3.566,4.04058
1.83571,-0.455515,3.529,4.00389
1.82832,-0.450868,3.493,3.96826
1.83966,-0.450868,3.493,3.9735
1.8139,-0.441833,3.423,3.89902
1.82501,-0.441833,3.423,3.9042
1.8549,-0.44635,3.458,3.94938
1.86612,-0.44635,3.458,3.95467
1.87734,-0.44635,3.458,3.95998
1.90768,-0.450868,3.493,4.00544
1.91902,-0.450868,3.493,4.01086
1.93036,-0.450868,3.493,4.01629
1.94169,-0.450868,3.493,4.02175
1.97316,-0.455515,3.529,4.06875
1.98461,-0.455515,3.529,4.07431
1.99607,-0.455515,3.529,4.07991
2.00752,-0.455515,3.529,4.08552
2.01898,-0.455515,3.529,4.09116
2.05172,-0.460291,3.566,4.13978
2.06329,-0.460291,3.566,4.14553
2.07487,-0.460291,3.566,4.1513
2.06479,-0.455515,3.529,4.11397
2.05507,-0.450868,3.493,4.0777
2.06641,-0.450868,3.493,4.08343
2.05692,-0.44635,3.458,4.0482
2.04722,-0.441833,3.423,4.01288
2.05833,-0.441833,3.423,4.01856
2.02893,-0.433184,3.356,3.9455
2.02037,-0.429054,3.324,3.91343
2.03116,-0.429054,3.324,3.91902
2.00264,-0.420793,3.26,3.84905
1.99469,-0.416921,3.23,3.8191
2.00517,-0.416921,3.23,3.82458
1.97821,-0.409176,3.17,3.75894
1.97031,-0.405433,3.141,3.72993
1.98051,-0.405433,3.141,3.73533
1.95458,-0.398075,3.084,3.67286
1.93019,-0.391105,3.03,3.61379
1.94002,-0.391105,3.03,3.61905
1.93248,-0.38762,3.003,3.59204
1.9086,-0.380908,2.951,3.535
1.90192,-0.377681,2.926,3.51019
1.91142,-0.377681,2.926,3.51535
1.90451,-0.374454,2.901,3.49044
1.86642,-0.365161,2.829,3.40883
1.8756,-0.365161,2.829,3.41386
1.86946,-0.362192,2.806,3.39112
1.84844,-0.356383,2.761,3.34169
1.8574,-0.356383,2.761,3.34665
1.85149,-0.353544,2.739,3.32493
1.83118,-0.347993,2.696,3.27761
-2.35106,-0.426447,3.389,4.14665
-2.34006,-0.426447,3.389,4.14042
-2.32906,-0.426447,3.389,4.13421
-2.31806,-0.426447,3.389,4.12802
-2.30706,-0.426447,3.389,4.12186
-2.29606,-0.426447,3.389,4.11571
-2.28506,-0.426447,3.389,4.10958
-2.27406,-0.426447,3.389,4.10348
-2.26306,-0.426447,3.389,4.09739
-2.25206,-0.426447,3.389,4.09133
-2.24106,-0.426447,3.389,4.08528
-2.25243,-0.430726,3.423,4.12018
-2.24132,-0.430726,3.423,4.11412
-2.23021,-0.430726,3.423,4.10808
-2.24179,-0.43513,3.458,4.144
-2.23057,-0.43513,3.458,4.13794
-2.21935,-0.43513,3.458,4.1319
-2.23047,-0.439534,3.493,4.16764
-2.21914,-0.439534,3.493,4.16159
-2.2078,-0.439534,3.493,4.15555
-2.2191,-0.444064,3.529,4.19231
-2.20764,-0.444064,3.529,4.18625
-2.19619,-0.444064,3.529,4.18023
-2.16245,-0.439534,3.493,4.13164
-2.12956,-0.43513,3.458,4.08437
-2.11833,-0.43513,3.458,4.07853
-2.10711,-0.43513,3.458,4.07272
-2.07467,-0.430726,3.423,4.02576
-2.06356,-0.430726,3.423,4.02004
-2.05245,-0.430726,3.423,4.01435
-2.04134,-0.430726,3.423,4.00868
nan,nan,nan,NaN
nan,nan,nan,NaN
nan,nan,nan,NaN
nan,nan,nan,NaN
nan,nan,nan,NaN
nan,nan,nan,NaN
nan,nan,nan,NaN
nan,nan,nan,NaN
nan,nan,nan,NaN
nan,nan,nan,NaN
nan,nan,nan,NaN
nan,nan,nan,NaN
nan,nan,nan,NaN
nan,nan,nan,NaN
nan,nan,nan,NaN
nan,nan,nan,NaN
nan,nan,nan,NaN
nan,nan,nan,NaN
nan,nan,nan,NaN
nan,nan,nan,NaN
nan,nan,nan,NaN
nan,nan,nan,NaN
nan,nan,nan,NaN
nan,nan,nan,NaN
nan,nan,nan,NaN
nan,nan,nan,NaN
nan,nan,nan,NaN
nan,nan,nan,NaN
nan,nan,nan,NaN
nan,nan,nan,NaN
nan,nan,nan,NaN
-1.17066,-0.299105,2.377,2.66647
-1.16295,-0.299105,2.377,2.66309
-1.15523,-0.299105,2.377,2.65973
-1.14752,-0.299105,2.377,2.65639
-1.1398,-0.299105,2.377,2.65306
-1.13209,-0.299105,2.377,2.64976
-1.12437,-0.299105,2.377,2.64647
-1.11666,-0.299105,2.377,2.6432
-1.10894,-0.299105,2.377,2.63995
-1.09381,-0.297091,2.361,2.61897
-1.08615,-0.297091,2.361,2.61578
-1.07849,-0.297091,2.361,2.61261
-1.07082,-0.297091,2.361,2.60945
-1.06316,-0.297091,2.361,2.60632
-1.0555,-0.297091,2.361,2.6032
-1.04784,-0.297091,2.361,2.6001
-1.03312,-0.295078,2.345,2.57943
-1.02551,-0.295078,2.345,2.57639
-1.0179,-0.295078,2.345,2.57337
-1.01029,-0.295078,2.345,2.57037
-1.00268,-0.295078,2.345,2.56738
-0.995066,-0.295078,2.345,2.56442
-0.987455,-0.295078,2.345,2.56148
-0.979844,-0.295078,2.345,2.55855
-0.972232,-0.295078,2.345,2.55565
-0.964621,-0.295078,2.345,2.55276
-0.95701,-0.295078,2.345,2.5499
-0.949399,-0.295078,2.345,2.54705
-0.941787,-0.295078,2.345,2.54422
-0.934176,-0.295078,2.345,2.54141
-0.926565,-0.295078,2.345,2.53863
-0.918953,-0.295078,2.345,2.53586
-0.911342,-0.295078,2.345,2.53311
-0.909897,-0.297091,2.361,2.54765
-0.902234,-0.297091,2.361,2.54492
-0.894571,-0.297091,2.361,2.54221
-0.886907,-0.297091,2.361,2.53953
-0.885203,-0.299105,2.377,2.55405
-0.883763,-0.301244,2.394,2.56963
-0.875993,-0.301244,2.394,2.56697
-0.868223,-0.301244,2.394,2.56433
-0.866562,-0.303383,2.411,2.5799
-0.858737,-0.303383,2.411,2.57728
-0.856911,-0.305522,2.428,2.59284
-0.84903,-0.305522,2.428,2.59025
-0.84115,-0.305522,2.428,2.58767
-0.839103,-0.307661,2.445,2.60322
