0.672064,-0.0717035,2.517,2.60617
0.680233,-0.0717035,2.517,2.60828
0.688403,-0.0717035,2.517,2.61043
0.696572,-0.0717035,2.517,2.61259
0.710062,-0.0722448,2.536,2.63452
0.718293,-0.0722448,2.536,2.63675
0.726524,-0.0722448,2.536,2.63901
0.734755,-0.0722448,2.536,2.64128
0.742987,-0.0722448,2.536,2.64359
0.751218,-0.0722448,2.536,2.64591
0.759449,-0.0722448,2.536,2.64826
0.76768,-0.0722448,2.536,2.65063
0.775912,-0.0722448,2.536,2.65303
0.784143,-0.0722448,2.536,2.65545
0.792374,-0.0722448,2.536,2.65789
0.800605,-0.0722448,2.536,2.66035
0.808836,-0.0722448,2.536,2.66284
0.817068,-0.0722448,2.536,2.66535
0.831482,-0.072786,2.555,2.68788
0.839775,-0.072786,2.555,2.69045
0.848068,-0.072786,2.555,2.69305
0.856361,-0.072786,2.555,2.69568
0.858224,-0.0722448,2.536,2.67826
0.866455,-0.0722448,2.536,2.68091
0.874686,-0.0722448,2.536,2.68358
0.876303,-0.0717035,2.517,2.66615
0.884472,-0.0717035,2.517,2.66884
0.892642,-0.0717035,2.517,2.67156
0.894369,-0.0711907,2.499,2.65518
0.90248,-0.0711907,2.499,2.65792
0.904033,-0.0706779,2.481,2.64152
0.912085,-0.0706779,2.481,2.64429
0.920138,-0.0706779,2.481,2.64708
0.921457,-0.0701652,2.463,2.63066
0.929451,-0.0701652,2.463,2.63347
0.930594,-0.0696524,2.445,2.61704
0.932004,-0.0691681,2.428,2.60165
0.939885,-0.0691681,2.428,2.60449
0.947766,-0.0691681,2.428,2.60734
0.948955,-0.0686838,2.411,2.59194
0.956781,-0.0686838,2.411,2.59482
0.964606,-0.0686838,2.411,2.59771
0.972432,-0.0686838,2.411,2.60063
0.980257,-0.0686838,2.411,2.60356
0.988083,-0.0686838,2.411,2.60652
1.00293,-0.0691681,2.428,2.6279
1.01081,-0.0691681,2.428,2.63091
1.02582,-0.0696524,2.445,2.65239
1.03376,-0.0696524,2.445,2.65547
1.05703,-0.0706779,2.481,2.69772
1.08054,-0.0717035,2.517,2.74007
1.08871,-0.0717035,2.517,2.74331
1.11344,-0.072786,2.555,2.78802
1.1472,-0.0744383,2.613,2.85471
1.16452,-0.0750081,2.633,2.88001
1.17307,-0.0750081,2.633,2.88347
1.22919,-0.0780278,2.739,3.00318
1.25796,-0.0792812,2.783,3.05514
1.267,-0.0792812,2.783,3.05887
1.30813,-0.0812754,2.853,3.13965
1.33955,-0.0826428,2.901,3.19641
1.34897,-0.0826428,2.901,3.20037
1.37009,-0.0833549,2.926,3.23196
1.37959,-0.0833549,2.926,3.236
1.40095,-0.0840671,2.951,3.26774
1.41053,-0.0840671,2.951,3.27186
1.42011,-0.0840671,2.951,3.276
1.42969,-0.0840671,2.951,3.28016
1.43926,-0.0840671,2.951,3.28435
1.46161,-0.0848078,2.977,3.31753
1.47127,-0.0848078,2.977,3.3218
1.48093,-0.0848078,2.977,3.32609
1.4906,-0.0848078,2.977,3.33041
1.51336,-0.0855485,3.003,3.36387
1.52311,-0.0855485,3.003,3.36826
1.53285,-0.0855485,3.003,3.37268
1.57034,-0.0870868,3.057,3.43785
1.60869,-0.0886537,3.112,3.50433
1.6188,-0.0886537,3.112,3.50897
1.6289,-0.0886537,3.112,3.51365
1.65427,-0.0894798,3.141,3.55113
1.66447,-0.0894798,3.141,3.55589
1.67466,-0.0894798,3.141,3.56067
1.71597,-0.0911321,3.199,3.63131
1.72635,-0.0911321,3.199,3.63623
1.73673,-0.0911321,3.199,3.64117
1.76405,-0.0920152,3.23,3.68147
1.77453,-0.0920152,3.23,3.68651
1.78501,-0.0920152,3.23,3.69156
1.7955,-0.0920152,3.23,3.69664
1.80598,-0.0920152,3.23,3.70175
1.81647,-0.0920152,3.23,3.70687
1.82695,-0.0920152,3.23,3.71202
1.83743,-0.0920152,3.23,3.71719
1.84792,-0.0920152,3.23,3.72239
1.84056,-0.0911321,3.199,3.69183
1.85095,-0.0911321,3.199,3.69701
1.84446,-0.0903059,3.17,3.66866
1.85475,-0.0903059,3.17,3.67385
1.84797,-0.0894798,3.141,3.64539
1.85817,-0.0894798,3.141,3.65057
1.86836,-0.0894798,3.141,3.65577
1.86121,-0.0886537,3.112,3.62719
1.87131,-0.0886537,3.112,3.63239
1.86449,-0.087856,3.084,3.60487
1.85809,-0.0870868,3.057,3.57845
1.86801,-0.0870868,3.057,3.58361
1.86134,-0.0863177,3.03,3.5571
1.85451,-0.0855485,3.003,3.53051
1.86425,-0.0855485,3.003,3.53564
1.85777,-0.0848078,2.977,3.51014
1.85113,-0.0840671,2.951,3.48456
1.86071,-0.0840671,2.951,3.48966
1.8386,-0.0826428,2.901,3.43556
1.83272,-0.0819591,2.877,3.41214
1.7966,-0.0799364,2.806,3.33284
1.80571,-0.0799364,2.806,3.33776
1.78571,-0.0786545,2.761,3.28908
1.78037,-0.0780278,2.739,3.26771
1.78926,-0.0780278,2.739,3.27256
1.75614,-0.0762045,2.675,3.20085
1.75097,-0.0756063,2.654,3.18046
1.75958,-0.0756063,2.654,3.18521
1.74088,-0.0744383,2.613,3.1407
1.72325,-0.0733273,2.574,3.09846
1.7316,-0.0733273,2.574,3.10311
1.71427,-0.0722448,2.536,3.0619
1.7096,-0.0717035,2.517,3.04354
-1.93066,-0.0702508,2.783,3.38784
-1.92163,-0.0702508,2.783,3.3827
-1.91259,-0.0702508,2.783,3.37758
-1.88851,-0.0696955,2.761,3.34581
-1.86457,-0.0691401,2.739,3.31414
-1.85568,-0.0691401,2.739,3.30915
-1.83196,-0.0685848,2.717,3.27763
-1.82314,-0.0685848,2.717,3.27271
-1.81432,-0.0685848,2.717,3.26781
-1.8055,-0.0685848,2.717,3.26292
-1.79668,-0.0685848,2.717,3.25805
-1.78787,-0.0685848,2.717,3.25319
-1.77905,-0.0685848,2.717,3.24835
-1.77023,-0.0685848,2.717,3.24353
-1.76141,-0.0685848,2.717,3.23873
-1.75259,-0.0685848,2.717,3.23394
-1.74377,-0.0685848,2.717,3.22917
-1.73495,-0.0685848,2.717,3.22442
-1.75409,-0.0696955,2.761,3.27182
-1.74513,-0.0696955,2.761,3.26702
-1.75,-0.0702508,2.783,3.28824
-1.75535,-0.0708314,2.806,3.31058
-1.76056,-0.071412,2.829,3.33285
-1.75138,-0.071412,2.829,3.32801
-1.77176,-0.0726237,2.877,3.37957
-1.77712,-0.0732295,2.901,3.40284
-1.7677,-0.0732295,2.901,3.39793
-1.77344,-0.0738606,2.926,3.42228
-1.77902,-0.0744916,2.951,3.44657
-1.76944,-0.0744916,2.951,3.44164
-1.77536,-0.0751479,2.977,3.467
-1.78112,-0.0758043,3.003,3.4923
-1.77138,-0.0758043,3.003,3.48734
-1.76163,-0.0758043,3.003,3.4824
-1.75188,-0.0758043,3.003,3.47748
-1.7578,-0.0764858,3.03,3.5038
-1.73239,-0.0758043,3.003,3.4677
-1.70773,-0.0751479,2.977,3.43286
-1.69806,-0.0751479,2.977,3.42806
-1.6884,-0.0751479,2.977,3.42328
nan,nan,nan,NaN
nan,nan,nan,NaN
nan,nan,nan,NaN
nan,nan,nan,NaN
nan,nan,nan,NaN
nan,nan,nan,NaN
nan,nan,nan,NaN
nan,nan,nan,NaN
nan,nan,nan,NaN
nan,nan,nan,NaN
nan,nan,nan,NaN
nan,nan,nan,NaN
nan,nan,nan,NaN
nan,nan,nan,NaN
nan,nan,nan,NaN
nan,nan,nan,NaN
nan,nan,nan,NaN
nan,nan,nan,NaN
nan,nan,nan,NaN
nan,nan,nan,NaN
nan,nan,nan,NaN
nan,nan,nan,NaN
-1.27704,-0.0654547,2.593,2.89115
-1.25003,-0.0644955,2.555,2.84513
-1.24174,-0.0644955,2.555,2.8415
-1.22428,-0.0640159,2.536,2.81678
-1.20693,-0.0635362,2.517,2.79214
-1.19876,-0.0635362,2.517,2.78861
-1.18208,-0.0630819,2.499,2.76519
-1.16551,-0.0626275,2.481,2.74184
-1.14906,-0.0621731,2.463,2.71856
-1.14107,-0.0621731,2.463,2.71519
-1.12479,-0.0617188,2.445,2.69202
-1.10909,-0.0612896,2.428,2.67002
-1.10121,-0.0612896,2.428,2.66676
-1.08568,-0.0608605,2.411,2.64487
-1.07785,-0.0608605,2.411,2.64166
-1.07003,-0.0608605,2.411,2.63848
-1.05471,-0.0604314,2.394,2.61673
-1.04694,-0.0604314,2.394,2.61361
-1.03917,-0.0604314,2.394,2.61051
-1.0314,-0.0604314,2.394,2.60743
-1.02363,-0.0604314,2.394,2.60436
-1.00865,-0.0600022,2.377,2.58285
-1.00093,-0.0600022,2.377,2.57984
-0.993215,-0.0600022,2.377,2.57686
-0.9855,-0.0600022,2.377,2.5739
-0.977785,-0.0600022,2.377,2.57095
-0.970069,-0.0600022,2.377,2.56803
-0.962354,-0.0600022,2.377,2.56512
-0.954639,-0.0600022,2.377,2.56224
-0.946924,-0.0600022,2.377,2.55937
-0.939209,-0.0600022,2.377,2.55653
-0.931494,-0.0600022,2.377,2.55371
-0.923778,-0.0600022,2.377,2.5509
-0.916063,-0.0600022,2.377,2.54812
-0.908348,-0.0600022,2.377,2.54535
-0.900633,-0.0600022,2.377,2.54261
-0.892918,-0.0600022,2.377,2.53989
-0.879244,-0.0595984,2.361,2.52011
-0.871581,-0.0595984,2.361,2.51744
-0.863918,-0.0595984,2.361,2.5148
-0.856255,-0.0595984,2.361,2.51218
-0.848591,-0.0595984,2.361,2.50958
-0.840928,-0.0595984,2.361,2.507
-0.833265,-0.0595984,2.361,2.50444
-0.825602,-0.0595984,2.361,2.5019
-0.823481,-0.0600022,2.377,2.51632
-0.815766,-0.0600022,2.377,2.5138
-0.808051,-0.0600022,2.377,2.51131
-0.800336,-0.0600022,2.377,2.50884
-0.792621,-0.0600022,2.377,2.50639
-0.784906,-0.0600022,2.377,2.50396
-0.777191,-0.0600022,2.377,2.50155
-0.769475,-0.0600022,2.377,2.49916
-0.767208,-0.0604314,2.394,2.51466
-0.759438,-0.0604314,2.394,2.5123
-0.751668,-0.0604314,2.394,2.50996
-0.743897,-0.0604314,2.394,2.50764
-0.736127,-0.0604314,2.394,2.50535
-0.728357,-0.0604314,2.394,2.50308
-0.720586,-0.0604314,2.394,2.50083
-0.717878,-0.0608605,2.411,2.51634
-0.710052,-0.0608605,2.411,2.51412
-0.702227,-0.0608605,2.411,2.51192
-0.694401,-0.0608605,2.411,2.50974
-0.686576,-0.0608605,2.411,2.50759
-0.67875,-0.0608605,2.411,2.50546
-0.670925,-0.0608605,2.411,2.50335
-0.663099,-0.0608605,2.411,2.50126
-0.659894,-0.0612896,2.428,2.51682
-0.652013,-0.0612896,2.428,2.51477
-0.644133,-0.0612896,2.428,2.51274
-0.640707,-0.0617188,2.445,2.52831
-0.628371,-0.0612896,2.428,2.50874
-0.620491,-0.0612896,2.428,2.50678
-0.616899,-0.0617188,2.445,2.52238
-0.608963,-0.0617188,2.445,2.52045
-0.601027,-0.0617188,2.445,2.51855
-0.593092,-0.0617188,2.445,2.51666
-0.585156,-0.0617188,2.445,2.5148
-0.57722,-0.0617188,2.445,2.51297
-0.573475,-0.0621731,2.463,2.52965
-0.565481,-0.0621731,2.463,2.52785
-0.557486,-0.0621731,2.463,2.52607
-0.549492,-0.0621731,2.463,2.52432
-0.541498,-0.0621731,2.463,2.52259
-0.533504,-0.0621731,2.463,2.52088
-0.525509,-0.0621731,2.463,2.51921
-0.517515,-0.0621731,2.463,2.51755
-0.509521,-0.0621731,2.463,2.51592
-0.501526,-0.0621731,2.463,2.51431
-0.493532,-0.0621731,2.463,2.51273
-0.489086,-0.0626275,2.481,2.52952
-0.481034,-0.0626275,2.481,2.52798
-0.472981,-0.0626275,2.481,2.52646
-0.464928,-0.0626275,2.481,2.52496
-0.456875,-0.0626275,2.481,2.52349
-0.448823,-0.0626275,2.481,2.52205
-0.44077,-0.0626275,2.481,2.52063
-0.432717,-0.0626275,2.481,2.51923
-0.424665,-0.0626275,2.481,2.51786
-0.416612,-0.0626275,2.481,2.51652
-0.411523,-0.0630819,2.499,2.53344
-0.403412,-0.0630819,2.499,2.53214
-0.395301,-0.0630819,2.499,2.53086
-0.38719,-0.0630819,2.499,2.5296
-0.379079,-0.0630819,2.499,2.52838
-0.370968,-0.0630819,2.499,2.52717
-0.362857,-0.0630819,2.499,2.52599
-0.354745,-0.0630819,2.499,2.52484
-0.346634,-0.0630819,2.499,2.52371
-0.340961,-0.0635362,2.517,2.54078
-0.332792,-0.0635362,2.517,2.5397
-0.324622,-0.0635362,2.517,2.53864
-0.316453,-0.0635362,2.517,2.53761
-0.308283,-0.0635362,2.517,2.53661
-0.297967,-0.0630819,2.499,2.51749
-0.289856,-0.0630819,2.499,2.51654
-0.281745,-0.0630819,2.499,2.51562
-0.273634,-0.0630819,2.499,2.51473
-0.265523,-0.0630819,2.499,2.51386
-0.257412,-0.0630819,2.499,2.51301
-0.249301,-0.0630819,2.499,2.5122
-0.239452,-0.0626275,2.481,2.49332
-0.2314,-0.0626275,2.481,2.49255
-0.223347,-0.0626275,2.481,2.49182
-0.215294,-0.0626275,2.481,2.49111
-0.207241,-0.0626275,2.481,2.49043
-0.199189,-0.0626275,2.481,2.48977
-0.191136,-0.0626275,2.481,2.48914
-0.183083,-0.0626275,2.481,2.48853
-0.175031,-0.0626275,2.481,2.48795
-0.166978,-0.0626275,2.481,2.4874
-0.160078,-0.0630819,2.499,2.50492
-0.151967,-0.0630819,2.499,2.50441
-0.143856,-0.0630819,2.499,2.50393
-0.135745,-0.0630819,2.499,2.50348
-0.127634,-0.0630819,2.499,2.50305
-0.120383,-0.0635362,2.517,2.52068
-0.112214,-0.0635362,2.517,2.5203
-0.104044,-0.0635362,2.517,2.51995
-0.0958747,-0.0635362,2.517,2.51963
-0.0877052,-0.0635362,2.517,2.51933
-0.0795356,-0.0635362,2.517,2.51906
-0.0713661,-0.0635362,2.517,2.51881
-0.0631965,-0.0635362,2.517,2.51859
-0.055027,-0.0635362,2.517,2.5184
-0.0468574,-0.0635362,2.517,2.51824
-0.0386878,-0.0635362,2.517,2.5181
-0.0305183,-0.0635362,2.517,2.51799
-0.0223487,-0.0635362,2.517,2.5179
-0.0141792,-0.0635362,2.517,2.51784
-0.00596664,-0.0630819,2.499,2.4998
0.00214449,-0.0630819,2.499,2.4998
0.0102556,-0.0630819,2.499,2.49982
0.0183668,-0.0630819,2.499,2.49986
0.0262872,-0.0626275,2.481,2.48193
0.0343399,-0.0626275,2.481,2.48203
0.0423926,-0.0626275,2.481,2.48215
0.0500793,-0.0621731,2.463,2.46429
0.0580736,-0.0621731,2.463,2.46447
0.0660679,-0.0621731,2.463,2.46467
0.0740622,-0.0621731,2.463,2.4649
0.0820565,-0.0621731,2.463,2.46515
0.0900507,-0.0621731,2.463,2.46543
0.098045,-0.0621731,2.463,2.46573
0.106039,-0.0621731,2.463,2.46607
0.114034,-0.0621731,2.463,2.46642
0.122028,-0.0621731,2.463,2.4668
0.130022,-0.0621731,2.463,2.46721
0.139025,-0.0626275,2.481,2.48568
0.147078,-0.0626275,2.481,2.48614
0.155131,-0.0626275,2.481,2.48663
0.163183,-0.0626275,2.481,2.48715
0.171236,-0.0626275,2.481,2.48769
0.179289,-0.0626275,2.481,2.48826
0.188701,-0.0630819,2.499,2.50691
0.198229,-0.0635362,2.517,2.52559
0.206399,-0.0635362,2.517,2.52625
0.214568,-0.0635362,2.517,2.52693
0.224419,-0.0640159,2.536,2.54672
0.232651,-0.0640159,2.536,2.54745
0.240882,-0.0640159,2.536,2.54822
0.249113,-0.0640159,2.536,2.54901
0.257344,-0.0640159,2.536,2.54983
0.265575,-0.0640159,2.536,2.55067
0.273807,-0.0640159,2.536,2.55154
0.282038,-0.0640159,2.536,2.55244
0.290269,-0.0640159,2.536,2.55336
0.2985,-0.0640159,2.536,2.55431
0.306732,-0.0640159,2.536,2.55528
0.312603,-0.0635362,2.517,2.53713
0.320773,-0.0635362,2.517,2.53815
0.328942,-0.0635362,2.517,2.5392
0.337112,-0.0635362,2.517,2.54027
0.345281,-0.0635362,2.517,2.54137
0.353451,-0.0635362,2.517,2.54249
0.36162,-0.0635362,2.517,2.54364
0.36979,-0.0635362,2.517,2.54481
0.37796,-0.0635362,2.517,2.54601
0.386129,-0.0635362,2.517,2.54724
0.394299,-0.0635362,2.517,2.54849
0.402468,-0.0635362,2.517,2.54977
0.410638,-0.0635362,2.517,2.55107
0.418807,-0.0635362,2.517,2.5524
0.426977,-0.0635362,2.517,2.55375
0.435146,-0.0635362,2.517,2.55513
0.443316,-0.0635362,2.517,2.55653
0.451486,-0.0635362,2.517,2.55796
0.456368,-0.0630819,2.499,2.54111
0.464479,-0.0630819,2.499,2.54258
0.47259,-0.0630819,2.499,2.54408
0.484164,-0.0635362,2.517,2.56393
0.492333,-0.0635362,2.517,2.56549
0.500503,-0.0635362,2.517,2.56707
0.508672,-0.0635362,2.517,2.56867
0.516842,-0.0635362,2.517,2.5703
0.525012,-0.0635362,2.517,2.57196
0.533181,-0.0635362,2.517,2.57364
0.541351,-0.0635362,2.517,2.57534
0.54952,-0.0635362,2.517,2.57707
0.55769,-0.0635362,2.517,2.57883
0.565859,-0.0635362,2.517,2.58061
0.574029,-0.0635362,2.517,2.58241
0.582199,-0.0635362,2.517,2.58424
0.590368,-0.0635362,2.517,2.58609
0.598538,-0.0635362,2.517,2.58797
0.606707,-0.0635362,2.517,2.58987
0.614877,-0.0635362,2.517,2.59179
0.623046,-0.0635362,2.517,2.59374
0.631216,-0.0635362,2.517,2.59572
0.639385,-0.0635362,2.517,2.59772
0.647555,-0.0635362,2.517,2.59974
0.655725,-0.0635362,2.517,2.60179
0.663894,-0.0635362,2.517,2.60386
0.677137,-0.0640159,2.536,2.62563
0.685368,-0.0640159,2.536,2.62776
0.693599,-0.0640159,2.536,2.62992
0.70183,-0.0640159,2.536,2.6321
0.710062,-0.0640159,2.536,2.63431
0.718293,-0.0640159,2.536,2.63654
0.726524,-0.0640159,2.536,2.63879
0.734755,-0.0640159,2.536,2.64107
0.742987,-0.0640159,2.536,2.64337
0.751218,-0.0640159,2.536,2.6457
0.759449,-0.0640159,2.536,2.64805
0.76768,-0.0640159,2.536,2.65042
0.775912,-0.0640159,2.536,2.65282
0.784143,-0.0640159,2.536,2.65524
0.798311,-0.0644955,2.555,2.67759
0.800605,-0.0640159,2.536,2.66014
0.808836,-0.0640159,2.536,2.66263
0.817068,-0.0640159,2.536,2.66514
0.831482,-0.0644955,2.555,2.68767
0.839775,-0.0644955,2.555,2.69024
0.848068,-0.0644955,2.555,2.69284
0.856361,-0.0644955,2.555,2.69547
0.858224,-0.0640159,2.536,2.67805
0.866455,-0.0640159,2.536,2.6807
0.874686,-0.0640159,2.536,2.68337
0.876303,-0.0635362,2.517,2.66594
0.884472,-0.0635362,2.517,2.66864
0.892642,-0.0635362,2.517,2.67135
0.894369,-0.0630819,2.499,2.65497
0.90248,-0.0630819,2.499,2.65772
0.904033,-0.0626275,2.481,2.64132
0.912085,-0.0626275,2.481,2.64408
0.920138,-0.0626275,2.481,2.64687
0.921457,-0.0621731,2.463,2.63046
0.929451,-0.0621731,2.463,2.63327
0.930594,-0.0617188,2.445,2.61684
0.932004,-0.0612896,2.428,2.60146
0.939885,-0.0612896,2.428,2.60429
0.947766,-0.0612896,2.428,2.60714
0.948955,-0.0608605,2.411,2.59174
0.956781,-0.0608605,2.411,2.59462
0.964606,-0.0608605,2.411,2.59752
0.972432,-0.0608605,2.411,2.60043
0.980257,-0.0608605,2.411,2.60337
0.988083,-0.0608605,2.411,2.60633
1.00293,-0.0612896,2.428,2.6277
1.01081,-0.0612896,2.428,2.63072
1.02582,-0.0617188,2.445,2.6522
1.03376,-0.0617188,2.445,2.65528
1.05703,-0.0626275,2.481,2.69752
1.08054,-0.0635362,2.517,2.73987
1.08871,-0.0635362,2.517,2.7431
1.11344,-0.0644955,2.555,2.78782
1.1472,-0.0659596,2.613,2.8545
1.16452,-0.0664644,2.633,2.8798
1.17307,-0.0664644,2.633,2.88326
1.20989,-0.0680547,2.696,2.95582
1.23808,-0.0691401,2.739,3.00662
1.24697,-0.0691401,2.739,3.01029
1.28658,-0.0708314,2.806,3.08771
1.32847,-0.0726237,2.877,3.16974
1.33781,-0.0726237,2.877,3.17366
1.35838,-0.0732295,2.901,3.20412
1.3678,-0.0732295,2.901,3.20812
1.37721,-0.0732295,2.901,3.21215
1.38663,-0.0732295,2.901,3.21619
1.39605,-0.0732295,2.901,3.22027
1.41757,-0.0738606,2.926,3.25215
1.42707,-0.0738606,2.926,3.2563
1.44884,-0.0744916,2.951,3.28833
1.45842,-0.0744916,2.951,3.29256
1.468,-0.0744916,2.951,3.29681
1.4906,-0.0751479,2.977,3.33017
1.50026,-0.0751479,2.977,3.33451
1.52311,-0.0758043,3.003,3.36803
1.53285,-0.0758043,3.003,3.37245
1.55647,-0.0764858,3.03,3.40725
1.58026,-0.0771674,3.057,3.44216
1.59019,-0.0771674,3.057,3.44672
1.61424,-0.0778489,3.084,3.48179
1.62425,-0.0778489,3.084,3.48645
1.63426,-0.0778489,3.084,3.49112
1.6592,-0.0785557,3.112,3.52756
1.68485,-0.0792878,3.141,3.56524
1.69505,-0.0792878,3.141,3.57006
1.72099,-0.0800198,3.17,3.60792
1.74712,-0.0807519,3.199,3.64589
1.77453,-0.0815344,3.23,3.68626
1.76788,-0.0807519,3.199,3.65589
1.77827,-0.0807519,3.199,3.66092
1.80598,-0.0815344,3.23,3.7015
1.79903,-0.0807519,3.199,3.67105
1.80941,-0.0807519,3.199,3.67615
1.8198,-0.0807519,3.199,3.68128
1.83018,-0.0807519,3.199,3.68642
1.84056,-0.0807519,3.199,3.69159
1.85095,-0.0807519,3.199,3.69677
1.84446,-0.0800198,3.17,3.66842
1.85475,-0.0800198,3.17,3.67361
1.84797,-0.0792878,3.141,3.64516
1.85817,-0.0792878,3.141,3.65034
1.85111,-0.0785557,3.112,3.62179
1.86121,-0.0785557,3.112,3.62696
1.87131,-0.0785557,3.112,3.63215
1.86449,-0.0778489,3.084,3.60464
1.85809,-0.0771674,3.057,3.57822
1.86801,-0.0771674,3.057,3.58339
1.86134,-0.0764858,3.03,3.55687
1.85451,-0.0758043,3.003,3.53029
1.86425,-0.0758043,3.003,3.53542
1.85777,-0.0751479,2.977,3.50992
1.85113,-0.0744916,2.951,3.48434
1.86071,-0.0744916,2.951,3.48944
1.8386,-0.0732295,2.901,3.43535
1.83272,-0.0726237,2.877,3.41193
1.7966,-0.0708314,2.806,3.33263
1.80571,-0.0708314,2.806,3.33755
1.78571,-0.0696955,2.761,3.28888
1.78037,-0.0691401,2.739,3.26751
1.78926,-0.0691401,2.739,3.27236
1.75614,-0.0675246,2.675,3.20066
1.75097,-0.0669945,2.654,3.18026
1.75958,-0.0669945,2.654,3.18502
1.74088,-0.0659596,2.613,3.14051
1.72325,-0.0649751,2.574,3.09827
1.7316,-0.0649751,2.574,3.10293
1.71427,-0.0640159,2.536,3.06172
1.7096,-0.0635362,2.517,3.04336
-1.93066,-0.0612205,2.783,3.38767
-1.90643,-0.0607365,2.761,3.35579
-1.89747,-0.0607365,2.761,3.3507
-1.87346,-0.0602525,2.739,3.31898
-1.8496,-0.0597686,2.717,3.28735
-1.84078,-0.0597686,2.717,3.2824
-1.8178,-0.0593066,2.696,3.25213
-1.80905,-0.0593066,2.696,3.24724
-1.8003,-0.0593066,2.696,3.24238
-1.79155,-0.0593066,2.696,3.23753
-1.7828,-0.0593066,2.696,3.23269
-1.77405,-0.0593066,2.696,3.22788
-1.77905,-0.0597686,2.717,3.24818
-1.77023,-0.0597686,2.717,3.24336
-1.7478,-0.0593066,2.696,3.21352
-1.73905,-0.0593066,2.696,3.20877
-1.73029,-0.0593066,2.696,3.20404
-1.73495,-0.0597686,2.717,3.22424
-1.74011,-0.0602525,2.739,3.24557
-1.73122,-0.0602525,2.739,3.24081
-1.73617,-0.0607365,2.761,3.26207
-1.74097,-0.0612205,2.783,3.28326
-1.76056,-0.0622324,2.829,3.33267
-1.75138,-0.0622324,2.829,3.32783
-1.75698,-0.0627603,2.853,3.3512
-1.76242,-0.0632883,2.877,3.3745
-1.75308,-0.0632883,2.877,3.36963
-1.75829,-0.0638162,2.901,3.39285
-1.76394,-0.0643662,2.926,3.41718
-1.75445,-0.0643662,2.926,3.41229
-1.77536,-0.0654881,2.977,3.46681
-1.7657,-0.0654881,2.977,3.46187
-1.75604,-0.0654881,2.977,3.45695
-1.74638,-0.0654881,2.977,3.45205
-1.75188,-0.06606,3.003,3.47728
-1.7578,-0.066654,3.03,3.5036
-1.73239,-0.06606,3.003,3.4675
-1.70773,-0.0654881,2.977,3.43266
-1.69806,-0.0654881,2.977,3.42786
-1.6884,-0.0654881,2.977,3.42309
nan,nan,nan,NaN
nan,nan,nan,NaN
nan,nan,nan,NaN
nan,nan,nan,NaN
nan,nan,nan,NaN
nan,nan,nan,NaN
nan,nan,nan,NaN
nan,nan,nan,NaN
nan,nan,nan,NaN
nan,nan,nan,NaN
nan,nan,nan,NaN
nan,nan,nan,NaN
nan,nan,nan,NaN
nan,nan,nan,NaN
nan,nan,nan,NaN
nan,nan,nan,NaN
nan,nan,nan,NaN
nan,nan,nan,NaN
nan,nan,nan,NaN
nan,nan,nan,NaN
nan,nan,nan,NaN
nan,nan,nan,NaN
-1.27704,-0.0570408,2.593,2.89098
-1.25003,-0.0562049,2.555,2.84496
-1.24174,-0.0562049,2.555,2.84132
-1.22428,-0.0557869,2.536,2.8166
-1.20693,-0.055369,2.517,2.79196
-1.19876,-0.055369,2.517,2.78844
-1.18208,-0.054973,2.499,2.76502
-1.16551,-0.0545771,2.481,2.74167
-1.14906,-0.0541811,2.463,2.71839
-1.14107,-0.0541811,2.463,2.71502
-1.12479,-0.0537851,2.445,2.69185
-1.10909,-0.0534112,2.428,2.66985
-1.10121,-0.0534112,2.428,2.66659
-1.08568,-0.0530372,2.411,2.6447
-1.07785,-0.0530372,2.411,2.6415
-1.07003,-0.0530372,2.411,2.63831
-1.05471,-0.0526632,2.394,2.61657
-1.04694,-0.0526632,2.394,2.61344
-1.03917,-0.0526632,2.394,2.61034
-1.0314,-0.0526632,2.394,2.60726
-1.02363,-0.0526632,2.394,2.60419
-1.01586,-0.0526632,2.394,2.60115
-1.00809,-0.0526632,2.394,2.59812
-1.00032,-0.0526632,2.394,2.59512
-0.992548,-0.0526632,2.394,2.59213
-0.984778,-0.0526632,2.394,2.58917
-0.977007,-0.0526632,2.394,2.58622
-0.969237,-0.0526632,2.394,2.5833
-0.961466,-0.0526632,2.394,2.58039
-0.953696,-0.0526632,2.394,2.57751
-0.939209,-0.0522893,2.377,2.55636
-0.931494,-0.0522893,2.377,2.55354
-0.923778,-0.0522893,2.377,2.55073
-0.916063,-0.0522893,2.377,2.54795
-0.908348,-0.0522893,2.377,2.54518
-0.900633,-0.0522893,2.377,2.54244
-0.892918,-0.0522893,2.377,2.53972
-0.879244,-0.0519373,2.361,2.51994
-0.871581,-0.0519373,2.361,2.51727
-0.863918,-0.0519373,2.361,2.51463
-0.856255,-0.0519373,2.361,2.51201
-0.848591,-0.0519373,2.361,2.50941
-0.840928,-0.0519373,2.361,2.50683
-0.833265,-0.0519373,2.361,2.50427
-0.825602,-0.0519373,2.361,2.50173
-0.823481,-0.0522893,2.377,2.51614
-0.815766,-0.0522893,2.377,2.51363
-0.808051,-0.0522893,2.377,2.51114
-0.800336,-0.0522893,2.377,2.50867
-0.792621,-0.0522893,2.377,2.50621
-0.784906,-0.0522893,2.377,2.50379
-0.777191,-0.0522893,2.377,2.50138
-0.769475,-0.0522893,2.377,2.49899
-0.767208,-0.0526632,2.394,2.51448
-0.759438,-0.0526632,2.394,2.51212
-0.751668,-0.0526632,2.394,2.50978
-0.743897,-0.0526632,2.394,2.50747
-0.736127,-0.0526632,2.394,2.50517
-0.728357,-0.0526632,2.394,2.5029
-0.720586,-0.0526632,2.394,2.50065
-0.717878,-0.0530372,2.411,2.51616
-0.710052,-0.0530372,2.411,2.51394
-0.702227,-0.0530372,2.411,2.51174
-0.694401,-0.0530372,2.411,2.50957
-0.686576,-0.0530372,2.411,2.50741
-0.67875,-0.0530372,2.411,2.50528
-0.670925,-0.0530372,2.411,2.50317
-0.663099,-0.0530372,2.411,2.50109
-0.659894,-0.0534112,2.428,2.51664
-0.652013,-0.0534112,2.428,2.51459
-0.644133,-0.0534112,2.428,2.51256
-0.640707,-0.0537851,2.445,2.52813
-0.628371,-0.0534112,2.428,2.50856
-0.620491,-0.0534112,2.428,2.5066
-0.616899,-0.0537851,2.445,2.5222
-0.608963,-0.0537851,2.445,2.52027
-0.601027,-0.0537851,2.445,2.51836
-0.593092,-0.0537851,2.445,2.51648
-0.585156,-0.0537851,2.445,2.51462
-0.57722,-0.0537851,2.445,2.51279
-0.573475,-0.0541811,2.463,2.52946
-0.565481,-0.0541811,2.463,2.52766
-0.557486,-0.0541811,2.463,2.52589
-0.549492,-0.0541811,2.463,2.52413
-0.541498,-0.0541811,2.463,2.5224
-0.533504,-0.0541811,2.463,2.5207
-0.525509,-0.0541811,2.463,2.51902
-0.517515,-0.0541811,2.463,2.51736
-0.509521,-0.0541811,2.463,2.51573
-0.501526,-0.0541811,2.463,2.51413
-0.493532,-0.0541811,2.463,2.51254
-0.489086,-0.0545771,2.481,2.52934
-0.481034,-0.0545771,2.481,2.52779
-0.472981,-0.0545771,2.481,2.52627
-0.464928,-0.0545771,2.481,2.52478
-0.456875,-0.0545771,2.481,2.52331
-0.448823,-0.0545771,2.481,2.52186
-0.44077,-0.0545771,2.481,2.52044
-0.432717,-0.0545771,2.481,2.51904
-0.424665,-0.0545771,2.481,2.51767
-0.419634,-0.054973,2.499,2.53458
-0.411523,-0.054973,2.499,2.53325
-0.403412,-0.054973,2.499,2.53195
-0.395301,-0.054973,2.499,2.53067
-0.38719,-0.054973,2.499,2.52941
-0.379079,-0.054973,2.499,2.52819
-0.370968,-0.054973,2.499,2.52698
-0.362857,-0.054973,2.499,2.5258
-0.357301,-0.055369,2.517,2.54284
-0.349131,-0.055369,2.517,2.5417
-0.340961,-0.055369,2.517,2.54059
-0.332792,-0.055369,2.517,2.53951
-0.324622,-0.055369,2.517,2.53845
-0.316453,-0.055369,2.517,2.53742
-0.308283,-0.055369,2.517,2.53641
-0.300114,-0.055369,2.517,2.53543
-0.291944,-0.055369,2.517,2.53448
-0.283775,-0.055369,2.517,2.53355
-0.275605,-0.055369,2.517,2.53265
-0.267435,-0.055369,2.517,2.53177
-0.257412,-0.054973,2.499,2.51282
-0.249301,-0.054973,2.499,2.51201
-0.239452,-0.0545771,2.481,2.49313
-0.2314,-0.0545771,2.481,2.49237
-0.223347,-0.0545771,2.481,2.49163
-0.215294,-0.0545771,2.481,2.49092
-0.207241,-0.0545771,2.481,2.49024
-0.200634,-0.054973,2.499,2.50764
-0.192523,-0.054973,2.499,2.50701
-0.184412,-0.054973,2.499,2.5064
-0.1763,-0.054973,2.499,2.50581
-0.168189,-0.054973,2.499,2.50526
-0.160078,-0.054973,2.499,2.50473
-0.151967,-0.054973,2.499,2.50422
-0.143856,-0.054973,2.499,2.50374
-0.135745,-0.054973,2.499,2.50329
-0.127634,-0.054973,2.499,2.50286
-0.120383,-0.055369,2.517,2.52049
-0.112214,-0.055369,2.517,2.52011
-0.104044,-0.055369,2.517,2.51976
-0.0958747,-0.055369,2.517,2.51943
-0.0877052,-0.055369,2.517,2.51914
-0.0795356,-0.055369,2.517,2.51887
-0.0713661,-0.055369,2.517,2.51862
-0.0631965,-0.055369,2.517,2.5184
-0.055027,-0.055369,2.517,2.51821
-0.0468574,-0.055369,2.517,2.51805
-0.0386878,-0.055369,2.517,2.51791
-0.0305183,-0.055369,2.517,2.51779
-0.0223487,-0.055369,2.517,2.51771
-0.0141792,-0.055369,2.517,2.51765
-0.00600962,-0.055369,2.517,2.51762
0.00214449,-0.054973,2.499,2.49961
0.0102556,-0.054973,2.499,2.49963
0.0183668,-0.054973,2.499,2.49967
0.0262872,-0.0545771,2.481,2.48174
0.0343399,-0.0545771,2.481,2.48184
0.0423926,-0.0545771,2.481,2.48196
0.0504453,-0.0545771,2.481,2.48211
0.058498,-0.0545771,2.481,2.48229
0.0665507,-0.0545771,2.481,2.48249
0.0740622,-0.0541811,2.463,2.46471
0.0820565,-0.0541811,2.463,2.46496
0.0900507,-0.0541811,2.463,2.46524
0.098045,-0.0541811,2.463,2.46555
0.106039,-0.0541811,2.463,2.46588
0.114034,-0.0541811,2.463,2.46623
0.12292,-0.0545771,2.481,2.48464
0.130972,-0.0545771,2.481,2.48505
0.139025,-0.0545771,2.481,2.48549
0.147078,-0.0545771,2.481,2.48595
0.155131,-0.0545771,2.481,2.48644
0.164367,-0.054973,2.499,2.505
0.172478,-0.054973,2.499,2.50555
0.180589,-0.054973,2.499,2.50612
0.188701,-0.054973,2.499,2.50672
0.198229,-0.055369,2.517,2.5254
0.206399,-0.055369,2.517,2.52606
0.214568,-0.055369,2.517,2.52674
0.224419,-0.0557869,2.536,2.54652
0.232651,-0.0557869,2.536,2.54726
0.240882,-0.0557869,2.536,2.54803
0.249113,-0.0557869,2.536,2.54882
0.257344,-0.0557869,2.536,2.54963
0.265575,-0.0557869,2.536,2.55048
0.273807,-0.0557869,2.536,2.55135
0.282038,-0.0557869,2.536,2.55224
0.290269,-0.0557869,2.536,2.55317
0.2985,-0.0557869,2.536,2.55412
0.306732,-0.0557869,2.536,2.55509
0.314963,-0.0557869,2.536,2.55609
0.323194,-0.0557869,2.536,2.55712
0.331425,-0.0557869,2.536,2.55817
0.339657,-0.0557869,2.536,2.55925
0.345281,-0.055369,2.517,2.54118
0.353451,-0.055369,2.517,2.5423
0.36162,-0.055369,2.517,2.54345
0.36979,-0.055369,2.517,2.54462
0.37796,-0.055369,2.517,2.54582
0.386129,-0.055369,2.517,2.54705
0.394299,-0.055369,2.517,2.5483
0.402468,-0.055369,2.517,2.54958
0.410638,-0.055369,2.517,2.55088
0.418807,-0.055369,2.517,2.55221
0.426977,-0.055369,2.517,2.55356
0.435146,-0.055369,2.517,2.55494
0.443316,-0.055369,2.517,2.55634
0.451486,-0.055369,2.517,2.55777
0.456368,-0.054973,2.499,2.54092
0.464479,-0.054973,2.499,2.54239
0.47259,-0.054973,2.499,2.54389
0.484164,-0.055369,2.517,2.56374
0.492333,-0.055369,2.517,2.5653
0.500503,-0.055369,2.517,2.56688
0.508672,-0.055369,2.517,2.56848
0.516842,-0.055369,2.517,2.57011
0.525012,-0.055369,2.517,2.57177
0.533181,-0.055369,2.517,2.57345
0.541351,-0.055369,2.517,2.57515
0.54952,-0.055369,2.517,2.57688
0.55769,-0.055369,2.517,2.57864
0.565859,-0.055369,2.517,2.58042
0.574029,-0.055369,2.517,2.58222
0.582199,-0.055369,2.517,2.58405
0.590368,-0.055369,2.517,2.5859
0.598538,-0.055369,2.517,2.58778
0.606707,-0.055369,2.517,2.58968
0.619518,-0.0557869,2.536,2.61117
0.623046,-0.055369,2.517,2.59356
0.631216,-0.055369,2.517,2.59553
0.639385,-0.055369,2.517,2.59753
0.647555,-0.055369,2.517,2.59955
0.655725,-0.055369,2.517,2.6016
0.663894,-0.055369,2.517,2.60367
0.677137,-0.0557869,2.536,2.62544
0.685368,-0.0557869,2.536,2.62757
0.693599,-0.0557869,2.536,2.62973
0.70183,-0.0557869,2.536,2.63191
0.710062,-0.0557869,2.536,2.63412
0.718293,-0.0557869,2.536,2.63635
0.726524,-0.0557869,2.536,2.63861
0.734755,-0.0557869,2.536,2.64089
0.742987,-0.0557869,2.536,2.64319
0.751218,-0.0557869,2.536,2.64551
0.759449,-0.0557869,2.536,2.64786
0.76768,-0.0557869,2.536,2.65023
0.775912,-0.0557869,2.536,2.65263
0.784143,-0.0557869,2.536,2.65505
0.798311,-0.0562049,2.555,2.6774
0.800605,-0.0557869,2.536,2.65996
0.808836,-0.0557869,2.536,2.66245
0.817068,-0.0557869,2.536,2.66496
0.825299,-0.0557869,2.536,2.66749
0.83353,-0.0557869,2.536,2.67005
0.841761,-0.0557869,2.536,2.67263
0.849993,-0.0557869,2.536,2.67524
0.858224,-0.0557869,2.536,2.67786
0.866455,-0.0557869,2.536,2.68051
0.874686,-0.0557869,2.536,2.68319
0.876303,-0.055369,2.517,2.66576
0.878147,-0.054973,2.499,2.64937
0.886258,-0.054973,2.499,2.65207
0.894369,-0.054973,2.499,2.65479
0.89598,-0.0545771,2.481,2.63839
0.904033,-0.0545771,2.481,2.64114
0.912085,-0.0545771,2.481,2.64391
0.913462,-0.0541811,2.463,2.62749
0.921457,-0.0541811,2.463,2.63028
0.929451,-0.0541811,2.463,2.63309
0.930594,-0.0537851,2.445,2.61666
0.932004,-0.0534112,2.428,2.60128
0.939885,-0.0534112,2.428,2.60412
0.947766,-0.0534112,2.428,2.60697
0.948955,-0.0530372,2.411,2.59157
0.956781,-0.0530372,2.411,2.59445
0.964606,-0.0530372,2.411,2.59734
0.972432,-0.0530372,2.411,2.60026
0.980257,-0.0530372,2.411,2.6032
0.988083,-0.0530372,2.411,2.60615
1.00293,-0.0534112,2.428,2.62753
1.01081,-0.0534112,2.428,2.63055
1.02582,-0.0537851,2.445,2.65202
1.03376,-0.0537851,2.445,2.6551
1.04937,-0.0541811,2.463,2.67777
1.07281,-0.054973,2.499,2.7201
1.08093,-0.054973,2.499,2.72331
1.10516,-0.0557869,2.536,2.76691
1.13008,-0.0566229,2.574,2.81172
1.15568,-0.0574808,2.613,2.85774
1.16416,-0.0574808,2.613,2.86118
1.20046,-0.0588447,2.675,2.93261
1.21864,-0.0593066,2.696,2.95923
1.22739,-0.0593066,2.696,2.96284
1.27603,-0.0612205,2.783,3.0622
1.3063,-0.0622324,2.829,3.11666
1.31549,-0.0622324,2.829,3.12052
1.33591,-0.0627603,2.853,3.1509
1.35648,-0.0632883,2.877,3.18138
1.36582,-0.0632883,2.877,3.18537
1.37516,-0.0632883,2.877,3.18939
1.3845,-0.0632883,2.877,3.19343
1.40546,-0.0638162,2.901,3.22416
1.41488,-0.0638162,2.901,3.22827
1.43657,-0.0643662,2.926,3.26027
1.45842,-0.0649161,2.951,3.29236
1.468,-0.0649161,2.951,3.29661
1.47758,-0.0649161,2.951,3.30089
1.48716,-0.0649161,2.951,3.30519
1.50992,-0.0654881,2.977,3.33866
1.51958,-0.0654881,2.977,3.34305
1.5426,-0.06606,3.003,3.37668
1.56631,-0.066654,3.03,3.41155
1.57614,-0.066654,3.03,3.41607
1.60011,-0.0672479,3.057,3.4511
1.62425,-0.0678419,3.084,3.48624
1.63426,-0.0678419,3.084,3.49091
1.64427,-0.0678419,3.084,3.49561
1.68485,-0.0690957,3.141,3.56502
1.69505,-0.0690957,3.141,3.56985
1.72099,-0.0697337,3.17,3.60771
1.73128,-0.0697337,3.17,3.61263
1.77453,-0.0710536,3.23,3.68604
1.76788,-0.0703716,3.199,3.65568
1.77827,-0.0703716,3.199,3.66071
1.78865,-0.0703716,3.199,3.66576
1.79903,-0.0703716,3.199,3.67084
1.80941,-0.0703716,3.199,3.67594
1.8198,-0.0703716,3.199,3.68106
1.83018,-0.0703716,3.199,3.68621
1.84056,-0.0703716,3.199,3.69137
1.85095,-0.0703716,3.199,3.69656
1.84446,-0.0697337,3.17,3.66821
1.85475,-0.0697337,3.17,3.6734
1.84797,-0.0690957,3.141,3.64495
1.85817,-0.0690957,3.141,3.65013
1.85111,-0.0684578,3.112,3.62158
1.86121,-0.0684578,3.112,3.62675
1.87131,-0.0684578,3.112,3.63195
1.86449,-0.0678419,3.084,3.60444
1.85809,-0.0672479,3.057,3.57802
1.86801,-0.0672479,3.057,3.58319
1.86134,-0.066654,3.03,3.55668
1.85451,-0.06606,3.003,3.53009
1.86425,-0.06606,3.003,3.53522
1.85777,-0.0654881,2.977,3.50972
1.85113,-0.0649161,2.951,3.48415
1.86071,-0.0649161,2.951,3.48925
1.8386,-0.0638162,2.901,3.43516
1.83272,-0.0632883,2.877,3.41175
1.81133,-0.0622324,2.829,3.35977
1.82051,-0.0622324,2.829,3.36472
1.79994,-0.0612205,2.783,3.31491
1.78037,-0.0602525,2.739,3.26734
1.78926,-0.0602525,2.739,3.27219
1.76992,-0.0593066,2.696,3.22561
1.75097,-0.0583827,2.654,3.18009
1.75958,-0.0583827,2.654,3.18485
1.74088,-0.0574808,2.613,3.14034
1.72325,-0.0566229,2.574,3.09811
1.7316,-0.0566229,2.574,3.10276
1.71427,-0.0557869,2.536,3.06156
1.7096,-0.055369,2.517,3.0432
-1.93066,-0.0521901,2.783,3.38751
-1.90643,-0.0517775,2.761,3.35564
-1.89747,-0.0517775,2.761,3.35055
-1.87346,-0.0513649,2.739,3.31883
-1.8496,-0.0509524,2.717,3.2872
-1.84078,-0.0509524,2.717,3.28225
-1.8178,-0.0505585,2.696,3.25198
-1.80905,-0.0505585,2.696,3.2471
-1.8003,-0.0505585,2.696,3.24223
-1.79155,-0.0505585,2.696,3.23738
-1.7828,-0.0505585,2.696,3.23254
-1.77405,-0.0505585,2.696,3.22773
-1.77905,-0.0509524,2.717,3.24803
-1.77023,-0.0509524,2.717,3.24321
-1.7478,-0.0505585,2.696,3.21337
-1.73905,-0.0505585,2.696,3.20862
-1.73029,-0.0505585,2.696,3.20389
-1.73495,-0.0509524,2.717,3.22409
-1.74011,-0.0513649,2.739,3.24542
-1.73122,-0.0513649,2.739,3.24066
-1.73617,-0.0517775,2.761,3.26191
-1.74097,-0.0521901,2.783,3.28311
-1.76056,-0.0530527,2.829,3.33251
-1.75138,-0.0530527,2.829,3.32767
-1.75698,-0.0535028,2.853,3.35104
-1.76242,-0.0539529,2.877,3.37434
-1.75308,-0.0539529,2.877,3.36947
-1.75829,-0.0544029,2.901,3.39269
-1.76394,-0.0548718,2.926,3.41701
-1.75445,-0.0548718,2.926,3.41212
-1.77536,-0.0558282,2.977,3.46664
-1.7657,-0.0558282,2.977,3.4617
-1.75604,-0.0558282,2.977,3.45678
-1.74638,-0.0558282,2.977,3.45188
nan,nan,nan,NaN
nan,nan,nan,NaN
nan,nan,nan,NaN
nan,nan,nan,NaN
nan,nan,nan,NaN
nan,nan,nan,NaN
nan,nan,nan,NaN
nan,nan,nan,NaN
nan,nan,nan,NaN
nan,nan,nan,NaN
nan,nan,nan,NaN
nan,nan,nan,NaN
nan,nan,nan,NaN
nan,nan,nan,NaN
nan,nan,nan,NaN
nan,nan,nan,NaN
nan,nan,nan,NaN
nan,nan,nan,NaN
nan,nan,nan,NaN
nan,nan,nan,NaN
nan,nan,nan,NaN
nan,nan,nan,NaN
-1.40229,-0.0513649,2.739,3.07753
-1.37152,-0.0505585,2.696,3.02523
-1.36277,-0.0505585,2.696,3.02128
-1.33293,-0.0497709,2.654,2.97033
-1.31383,-0.0493771,2.633,2.94301
-1.30529,-0.0493771,2.633,2.9392
-1.26769,-0.0482707,2.574,2.86964
-1.24074,-0.047558,2.536,2.82365
-1.23251,-0.047558,2.536,2.82004
-1.2151,-0.0472017,2.517,2.79535
-1.1983,-0.0468642,2.499,2.77185
-1.19019,-0.0468642,2.499,2.76835
-1.18208,-0.0468642,2.499,2.76487
-1.16551,-0.0465266,2.481,2.74152
-1.14906,-0.0461891,2.463,2.71824
-1.14107,-0.0461891,2.463,2.71487
-1.12479,-0.0458515,2.445,2.69171
-1.10909,-0.0455327,2.428,2.66971
-1.10121,-0.0455327,2.428,2.66644
-1.08568,-0.0452139,2.411,2.64455
-1.07785,-0.0452139,2.411,2.64135
-1.07003,-0.0452139,2.411,2.63817
-1.05471,-0.0448951,2.394,2.61642
-1.04694,-0.0448951,2.394,2.6133
-1.03917,-0.0448951,2.394,2.6102
-1.0314,-0.0448951,2.394,2.60711
-1.02363,-0.0448951,2.394,2.60405
-1.01586,-0.0448951,2.394,2.601
-1.00809,-0.0448951,2.394,2.59798
-1.00032,-0.0448951,2.394,2.59497
-0.992548,-0.0448951,2.394,2.59199
-0.984778,-0.0448951,2.394,2.58902
-0.977007,-0.0448951,2.394,2.58608
-0.969237,-0.0448951,2.394,2.58315
-0.961466,-0.0448951,2.394,2.58025
-0.953696,-0.0448951,2.394,2.57736
-0.939209,-0.0445763,2.377,2.55621
-0.931494,-0.0445763,2.377,2.55339
-0.923778,-0.0445763,2.377,2.55058
-0.916063,-0.0445763,2.377,2.5478
-0.908348,-0.0445763,2.377,2.54504
-0.900633,-0.0445763,2.377,2.54229
-0.892918,-0.0445763,2.377,2.53957
-0.885203,-0.0445763,2.377,2.53687
-0.877488,-0.0445763,2.377,2.53419
-0.869772,-0.0445763,2.377,2.53153
-0.862057,-0.0445763,2.377,2.52888
-0.854342,-0.0445763,2.377,2.52627
-0.846627,-0.0445763,2.377,2.52367
-0.838912,-0.0445763,2.377,2.52109
-0.831197,-0.0445763,2.377,2.51853
-0.823481,-0.0445763,2.377,2.516
-0.815766,-0.0445763,2.377,2.51348
-0.808051,-0.0445763,2.377,2.51099
-0.800336,-0.0445763,2.377,2.50852
-0.792621,-0.0445763,2.377,2.50607
-0.784906,-0.0445763,2.377,2.50364
-0.782749,-0.0448951,2.394,2.51912
-0.774979,-0.0448951,2.394,2.51671
-0.767208,-0.0448951,2.394,2.51433
-0.759438,-0.0448951,2.394,2.51197
-0.757005,-0.0452139,2.411,2.52745
-0.74918,-0.0452139,2.411,2.52512
-0.741354,-0.0452139,2.411,2.52281
-0.733529,-0.0452139,2.411,2.52052
-0.725703,-0.0452139,2.411,2.51826
-0.717878,-0.0452139,2.411,2.51601
-0.710052,-0.0452139,2.411,2.51379
-0.702227,-0.0452139,2.411,2.51159
-0.699297,-0.0455327,2.428,2.52711
-0.691417,-0.0455327,2.428,2.52494
-0.683536,-0.0455327,2.428,2.52279
-0.675655,-0.0455327,2.428,2.52067
-0.667775,-0.0455327,2.428,2.51857
-0.659894,-0.0455327,2.428,2.51649
-0.652013,-0.0455327,2.428,2.51443
-0.648643,-0.0458515,2.445,2.52999
-0.640707,-0.0458515,2.445,2.52797
-0.632771,-0.0458515,2.445,2.52597
-0.624835,-0.0458515,2.445,2.52399
-0.616899,-0.0458515,2.445,2.52204
-0.608963,-0.0458515,2.445,2.52011
-0.601027,-0.0458515,2.445,2.51821
-0.593092,-0.0458515,2.445,2.51632
-0.585156,-0.0458515,2.445,2.51447
-0.57722,-0.0458515,2.445,2.51263
-0.573475,-0.0461891,2.463,2.5293
-0.565481,-0.0461891,2.463,2.5275
-0.557486,-0.0461891,2.463,2.52573
-0.549492,-0.0461891,2.463,2.52397
-0.545455,-0.0465266,2.481,2.54068
-0.537403,-0.0465266,2.481,2.53896
-0.52935,-0.0465266,2.481,2.53727
-0.517515,-0.0461891,2.463,2.51721
-0.509521,-0.0461891,2.463,2.51557
-0.501526,-0.0461891,2.463,2.51397
-0.497139,-0.0465266,2.481,2.53075
-0.489086,-0.0465266,2.481,2.52918
-0.481034,-0.0465266,2.481,2.52763
-0.472981,-0.0465266,2.481,2.52611
-0.468301,-0.0468642,2.499,2.54293
-0.46019,-0.0468642,2.499,2.54145
-0.452079,-0.0468642,2.499,2.53999
-0.443968,-0.0468642,2.499,2.53856
-0.435857,-0.0468642,2.499,2.53716
-0.427746,-0.0468642,2.499,2.53578
-0.419634,-0.0468642,2.499,2.53442
-0.411523,-0.0468642,2.499,2.53309
-0.403412,-0.0468642,2.499,2.53179
-0.395301,-0.0468642,2.499,2.53051
-0.38719,-0.0468642,2.499,2.52925
-0.379079,-0.0468642,2.499,2.52802
-0.37364,-0.0472017,2.517,2.54502
-0.36547,-0.0472017,2.517,2.54383
-0.357301,-0.0472017,2.517,2.54267
-0.349131,-0.0472017,2.517,2.54154
-0.340961,-0.0472017,2.517,2.54043
-0.332792,-0.0472017,2.517,2.53934
-0.324622,-0.0472017,2.517,2.53829
-0.316453,-0.0472017,2.517,2.53725
-0.308283,-0.0472017,2.517,2.53625
-0.300114,-0.0472017,2.517,2.53527
-0.291944,-0.0472017,2.517,2.53431
-0.283775,-0.0472017,2.517,2.53339
-0.275605,-0.0472017,2.517,2.53248
-0.267435,-0.0472017,2.517,2.53161
-0.257412,-0.0468642,2.499,2.51266
-0.249301,-0.0468642,2.499,2.51184
-0.24119,-0.0468642,2.499,2.51105
-0.233078,-0.0468642,2.499,2.51028
-0.224967,-0.0468642,2.499,2.50954
-0.216856,-0.0468642,2.499,2.50883
-0.208745,-0.0468642,2.499,2.50814
-0.200634,-0.0468642,2.499,2.50748
-0.192523,-0.0468642,2.499,2.50684
-0.184412,-0.0468642,2.499,2.50623
-0.1763,-0.0468642,2.499,2.50565
-0.168189,-0.0468642,2.499,2.50509
-0.160078,-0.0468642,2.499,2.50456
-0.151967,-0.0468642,2.499,2.50406
-0.143856,-0.0468642,2.499,2.50358
-0.135745,-0.0468642,2.499,2.50312
-0.128553,-0.0472017,2.517,2.52072
-0.120383,-0.0472017,2.517,2.52032
-0.112214,-0.0472017,2.517,2.51994
-0.104044,-0.0472017,2.517,2.51959
-0.0958747,-0.0472017,2.517,2.51927
-0.0877052,-0.0472017,2.517,2.51897
-0.0795356,-0.0472017,2.517,2.5187
-0.0713661,-0.0472017,2.517,2.51845
-0.0631965,-0.0472017,2.517,2.51824
-0.055027,-0.0472017,2.517,2.51804
-0.0468574,-0.0472017,2.517,2.51788
-0.0386878,-0.0472017,2.517,2.51774
-0.0305183,-0.0472017,2.517,2.51763
-0.0223487,-0.0472017,2.517,2.51754
-0.0141792,-0.0472017,2.517,2.51748
-0.00600962,-0.0472017,2.517,2.51745
0.00214449,-0.0468642,2.499,2.49944
0.0102556,-0.0468642,2.499,2.49946
0.0183668,-0.0468642,2.499,2.49951
0.0262872,-0.0465266,2.481,2.48158
0.0343399,-0.0465266,2.481,2.48167
0.0423926,-0.0465266,2.481,2.4818
0.0504453,-0.0465266,2.481,2.48195
0.058498,-0.0465266,2.481,2.48213
0.0665507,-0.0465266,2.481,2.48233
0.0746034,-0.0465266,2.481,2.48256
0.0820565,-0.0461891,2.463,2.4648
0.0900507,-0.0461891,2.463,2.46508
0.098045,-0.0461891,2.463,2.46538
0.106039,-0.0461891,2.463,2.46571
0.114034,-0.0461891,2.463,2.46607
0.12292,-0.0465266,2.481,2.48448
0.130972,-0.0465266,2.481,2.48489
0.139025,-0.0465266,2.481,2.48533
0.148145,-0.0468642,2.499,2.50383
0.156256,-0.0468642,2.499,2.50432
0.164367,-0.0468642,2.499,2.50484
0.172478,-0.0468642,2.499,2.50538
0.180589,-0.0468642,2.499,2.50595
0.188701,-0.0468642,2.499,2.50655
0.198229,-0.0472017,2.517,2.52524
0.206399,-0.0472017,2.517,2.52589
0.214568,-0.0472017,2.517,2.52657
0.224419,-0.047558,2.536,2.54635
0.232651,-0.047558,2.536,2.54709
0.240882,-0.047558,2.536,2.54786
0.249113,-0.047558,2.536,2.54865
0.257344,-0.047558,2.536,2.54947
0.265575,-0.047558,2.536,2.55031
0.273807,-0.047558,2.536,2.55118
0.282038,-0.047558,2.536,2.55208
0.290269,-0.047558,2.536,2.553
0.2985,-0.047558,2.536,2.55395
0.306732,-0.047558,2.536,2.55492
0.314963,-0.047558,2.536,2.55593
0.323194,-0.047558,2.536,2.55695
0.331425,-0.047558,2.536,2.55801
0.339657,-0.047558,2.536,2.55909
0.345281,-0.0472017,2.517,2.54101
0.353451,-0.0472017,2.517,2.54213
0.36162,-0.0472017,2.517,2.54328
0.36979,-0.0472017,2.517,2.54446
0.37796,-0.0472017,2.517,2.54566
0.386129,-0.0472017,2.517,2.54688
0.394299,-0.0472017,2.517,2.54813
0.402468,-0.0472017,2.517,2.54941
0.410638,-0.0472017,2.517,2.55071
0.418807,-0.0472017,2.517,2.55204
0.426977,-0.0472017,2.517,2.5534
0.435146,-0.0472017,2.517,2.55477
0.443316,-0.0472017,2.517,2.55618
0.451486,-0.0472017,2.517,2.55761
0.456368,-0.0468642,2.499,2.54076
0.464479,-0.0468642,2.499,2.54223
0.47259,-0.0468642,2.499,2.54373
0.484164,-0.0472017,2.517,2.56358
0.492333,-0.0472017,2.517,2.56513
0.500503,-0.0472017,2.517,2.56671
0.508672,-0.0472017,2.517,2.56832
0.516842,-0.0472017,2.517,2.56995
0.525012,-0.0472017,2.517,2.57161
0.533181,-0.0472017,2.517,2.57329
0.541351,-0.0472017,2.517,2.57499
0.54952,-0.0472017,2.517,2.57672
0.55769,-0.0472017,2.517,2.57848
0.565859,-0.0472017,2.517,2.58025
0.574029,-0.0472017,2.517,2.58206
0.582199,-0.0472017,2.517,2.58389
0.590368,-0.0472017,2.517,2.58574
0.598538,-0.0472017,2.517,2.58762
0.606707,-0.0472017,2.517,2.58952
0.619518,-0.047558,2.536,2.61101
0.627749,-0.047558,2.536,2.61297
0.635981,-0.047558,2.536,2.61496
0.644212,-0.047558,2.536,2.61698
0.652443,-0.047558,2.536,2.61901
0.660674,-0.047558,2.536,2.62108
0.668906,-0.047558,2.536,2.62316
0.677137,-0.047558,2.536,2.62528
0.685368,-0.047558,2.536,2.62741
0.693599,-0.047558,2.536,2.62957
0.70183,-0.047558,2.536,2.63175
0.710062,-0.047558,2.536,2.63396
0.718293,-0.047558,2.536,2.63619
0.726524,-0.047558,2.536,2.63845
0.734755,-0.047558,2.536,2.64072
0.742987,-0.047558,2.536,2.64303
0.751218,-0.047558,2.536,2.64535
0.759449,-0.047558,2.536,2.6477
0.76768,-0.047558,2.536,2.65007
0.775912,-0.047558,2.536,2.65247
0.784143,-0.047558,2.536,2.65489
0.792374,-0.047558,2.536,2.65733
0.800605,-0.047558,2.536,2.6598
0.808836,-0.047558,2.536,2.66229
0.817068,-0.047558,2.536,2.6648
0.825299,-0.047558,2.536,2.66734
0.83353,-0.047558,2.536,2.66989
0.841761,-0.047558,2.536,2.67247
0.849993,-0.047558,2.536,2.67508
0.858224,-0.047558,2.536,2.67771
0.859963,-0.0472017,2.517,2.66027
0.868133,-0.0472017,2.517,2.66293
0.876303,-0.0472017,2.517,2.6656
0.878147,-0.0468642,2.499,2.64921
0.886258,-0.0468642,2.499,2.65191
0.887927,-0.0465266,2.481,2.63552
0.89598,-0.0465266,2.481,2.63824
0.897474,-0.0461891,2.463,2.62182
0.905468,-0.0461891,2.463,2.62457
0.913462,-0.0461891,2.463,2.62734
0.914722,-0.0458515,2.445,2.61091
0.922658,-0.0458515,2.445,2.6137
0.924124,-0.0455327,2.428,2.59832
0.932004,-0.0455327,2.428,2.60113
0.939885,-0.0455327,2.428,2.60397
0.94113,-0.0452139,2.411,2.58857
0.948955,-0.0452139,2.411,2.59142
0.956781,-0.0452139,2.411,2.5943
0.964606,-0.0452139,2.411,2.5972
0.972432,-0.0452139,2.411,2.60011
0.980257,-0.0452139,2.411,2.60305
0.988083,-0.0452139,2.411,2.60601
0.995908,-0.0452139,2.411,2.60898
1.01081,-0.0455327,2.428,2.6304
1.01869,-0.0455327,2.428,2.63344
1.02657,-0.0455327,2.428,2.6365
1.04937,-0.0461891,2.463,2.67762
1.07281,-0.0468642,2.499,2.71995
1.08093,-0.0468642,2.499,2.72316
1.09688,-0.0472017,2.517,2.74603
1.12173,-0.0479144,2.555,2.79081
1.14683,-0.048627,2.593,2.83571
1.15525,-0.048627,2.593,2.83912
1.18162,-0.0493771,2.633,2.88641
1.20915,-0.0501647,2.675,2.93601
1.21783,-0.0501647,2.675,2.9396
1.25586,-0.0513649,2.739,3.01363
1.29568,-0.0526214,2.806,3.09115
1.30479,-0.0526214,2.806,3.09498
1.32467,-0.0530527,2.829,3.12423
1.34517,-0.0535028,2.853,3.15467
1.35443,-0.0535028,2.853,3.15863
1.36369,-0.0535028,2.853,3.16261
1.3845,-0.0539529,2.877,3.19325
1.40546,-0.0544029,2.901,3.22399
1.41488,-0.0544029,2.901,3.2281
1.43657,-0.0548718,2.926,3.26009
1.44607,-0.0548718,2.926,3.26429
1.45556,-0.0548718,2.926,3.26851
1.47758,-0.0553406,2.951,3.30071
1.48716,-0.0553406,2.951,3.30501
1.50992,-0.0558282,2.977,3.33849
1.51958,-0.0558282,2.977,3.34287
1.5426,-0.0563158,3.003,3.37651
1.56631,-0.0568221,3.03,3.41137
1.57614,-0.0568221,3.03,3.4159
1.60011,-0.0573284,3.057,3.45092
1.62425,-0.0578348,3.084,3.48606
1.63426,-0.0578348,3.084,3.49073
1.64427,-0.0578348,3.084,3.49543
1.68485,-0.0589037,3.141,3.56484
1.7107,-0.0594476,3.17,3.60263
1.72099,-0.0594476,3.17,3.60753
1.73128,-0.0594476,3.17,3.61244
1.77453,-0.0605727,3.23,3.68586
1.76788,-0.0599914,3.199,3.65549
1.77827,-0.0599914,3.199,3.66052
1.78865,-0.0599914,3.199,3.66558
1.79903,-0.0599914,3.199,3.67066
1.80941,-0.0599914,3.199,3.67576
1.8198,-0.0599914,3.199,3.68088
1.83018,-0.0599914,3.199,3.68602
1.84056,-0.0599914,3.199,3.69119
1.85095,-0.0599914,3.199,3.69638
1.86133,-0.0599914,3.199,3.70159
1.85475,-0.0594476,3.17,3.67322
1.84797,-0.0589037,3.141,3.64477
1.85817,-0.0589037,3.141,3.64995
1.86836,-0.0589037,3.141,3.65515
1.86121,-0.0583599,3.112,3.62658
1.87131,-0.0583599,3.112,3.63177
1.86449,-0.0578348,3.084,3.60426
1.85809,-0.0573284,3.057,3.57785
1.86801,-0.0573284,3.057,3.58301
1.86134,-0.0568221,3.03,3.55651
1.85451,-0.0563158,3.003,3.52993
1.86425,-0.0563158,3.003,3.53506
1.85777,-0.0558282,2.977,3.50955
1.85113,-0.0553406,2.951,3.48398
1.86071,-0.0553406,2.951,3.48908
1.85444,-0.0548718,2.926,3.4646
1.83272,-0.0539529,2.877,3.41158
1.81133,-0.0530527,2.829,3.35961
1.82051,-0.0530527,2.829,3.36457
1.79994,-0.0521901,2.783,3.31475
1.78037,-0.0513649,2.739,3.26718
1.78926,-0.0513649,2.739,3.27204
1.76992,-0.0505585,2.696,3.22546
1.75097,-0.0497709,2.654,3.17995
1.75958,-0.0497709,2.654,3.1847
1.74088,-0.049002,2.613,3.1402
1.72325,-0.0482707,2.574,3.09797
1.7316,-0.0482707,2.574,3.10262
1.72711,-0.0479144,2.555,3.08436
1.7096,-0.0472017,2.517,3.04306
-1.93066,-0.0431597,2.783,3.38739
-1.89124,-0.0424773,2.739,3.32877
-1.88235,-0.0424773,2.739,3.32373
-1.85842,-0.0421361,2.717,3.29205
-1.8353,-0.0418105,2.696,3.26167
-1.82655,-0.0418105,2.696,3.25675
-1.8178,-0.0418105,2.696,3.25186
-1.79496,-0.0414848,2.675,3.22168
-1.78628,-0.0414848,2.675,3.21685
-1.77759,-0.0414848,2.675,3.21204
-1.76891,-0.0414848,2.675,3.20724
-1.76023,-0.0414848,2.675,3.20246
-1.7653,-0.0418105,2.696,3.2228
-1.75655,-0.0418105,2.696,3.21801
-1.7478,-0.0418105,2.696,3.21325
-1.73905,-0.0418105,2.696,3.2085
-1.73029,-0.0418105,2.696,3.20376
-1.73495,-0.0421361,2.717,3.22396
-1.72614,-0.0421361,2.717,3.21922
-1.71732,-0.0421361,2.717,3.2145
-1.73617,-0.0428185,2.761,3.26178
-1.7272,-0.0428185,2.761,3.25702
-1.74625,-0.0435164,2.806,3.30529
-1.73714,-0.0435164,2.806,3.30048
-1.7422,-0.0438731,2.829,3.32271
-1.76242,-0.0446175,2.877,3.3742
-1.75308,-0.0446175,2.877,3.36933
-1.75829,-0.0449897,2.901,3.39255
-1.76394,-0.0453774,2.926,3.41687
-1.75445,-0.0453774,2.926,3.41198
-1.77536,-0.0461683,2.977,3.46649
-1.7657,-0.0461683,2.977,3.46156
-1.75604,-0.0461683,2.977,3.45664
-1.74638,-0.0461683,2.977,3.45174
nan,nan,nan,NaN
nan,nan,nan,NaN
nan,nan,nan,NaN
nan,nan,nan,NaN
nan,nan,nan,NaN
nan,nan,nan,NaN
nan,nan,nan,NaN
nan,nan,nan,NaN
nan,nan,nan,NaN
nan,nan,nan,NaN
nan,nan,nan,NaN
nan,nan,nan,NaN
nan,nan,nan,NaN
nan,nan,nan,NaN
nan,nan,nan,NaN
nan,nan,nan,NaN
-1.45563,-0.0424773,2.739,3.10206
-1.44674,-0.0424773,2.739,3.0979
-1.43785,-0.0424773,2.739,3.09376
-1.42896,-0.0424773,2.739,3.08964
-1.42007,-0.0424773,2.739,3.08553
-1.42251,-0.0428185,2.761,3.1062
-1.40229,-0.0424773,2.739,3.07739
-1.37152,-0.0418105,2.696,3.0251
-1.36277,-0.0418105,2.696,3.02114
-1.33293,-0.0411591,2.654,2.9702
-1.31383,-0.0408334,2.633,2.94288
-1.30529,-0.0408334,2.633,2.93907
-1.26769,-0.0399185,2.574,2.86951
-1.24074,-0.0393291,2.536,2.82352
-1.23251,-0.0393291,2.536,2.81991
