-2.15388,-0.422295,3.356,4.01002
-2.14299,-0.422295,3.356,4.00418
-2.1321,-0.422295,3.356,3.99836
-2.1212,-0.422295,3.356,3.99257
-2.11031,-0.422295,3.356,3.98679
-2.12006,-0.426447,3.389,4.02018
-2.10906,-0.426447,3.389,4.01439
-2.09806,-0.426447,3.389,4.00862
-2.06674,-0.422295,3.356,3.9639
-2.05585,-0.422295,3.356,3.95823
-2.04496,-0.422295,3.356,3.95258
-2.03406,-0.422295,3.356,3.94696
-2.04306,-0.426447,3.389,3.98011
-2.03206,-0.426447,3.389,3.97448
-2.02106,-0.426447,3.389,3.96886
nan,nan,nan,NaN
nan,nan,nan,NaN
nan,nan,nan,NaN
nan,nan,nan,NaN
nan,nan,nan,NaN
nan,nan,nan,NaN
nan,nan,nan,NaN
nan,nan,nan,NaN
nan,nan,nan,NaN
nan,nan,nan,NaN
nan,nan,nan,NaN
nan,nan,nan,NaN
nan,nan,nan,NaN
nan,nan,nan,NaN
nan,nan,nan,NaN
nan,nan,nan,NaN
nan,nan,nan,NaN
nan,nan,nan,NaN
nan,nan,nan,NaN
nan,nan,nan,NaN
nan,nan,nan,NaN
nan,nan,nan,NaN
nan,nan,nan,NaN
nan,nan,nan,NaN
nan,nan,nan,NaN
nan,nan,nan,NaN
nan,nan,nan,NaN
nan,nan,nan,NaN
nan,nan,nan,NaN
nan,nan,nan,NaN
nan,nan,nan,NaN
-1.21302,-0.309926,2.463,2.76294
-1.20502,-0.309926,2.463,2.75944
-1.19703,-0.309926,2.463,2.75596
-1.18904,-0.309926,2.463,2.75249
-1.18104,-0.309926,2.463,2.74905
-1.17305,-0.309926,2.463,2.74563
-1.15654,-0.307661,2.445,2.72218
-1.1486,-0.307661,2.445,2.71882
-1.14067,-0.307661,2.445,2.71547
-1.13273,-0.307661,2.445,2.71215
-1.12479,-0.307661,2.445,2.70885
-1.11686,-0.307661,2.445,2.70556
-1.10892,-0.307661,2.445,2.70229
-1.10099,-0.307661,2.445,2.69905
-1.08545,-0.305522,2.428,2.67708
-1.07757,-0.305522,2.428,2.67389
-1.06969,-0.305522,2.428,2.67072
-1.06181,-0.305522,2.428,2.66758
-1.05393,-0.305522,2.428,2.66445
-1.04605,-0.305522,2.428,2.66134
-1.03817,-0.305522,2.428,2.65825
-1.03029,-0.305522,2.428,2.65519
-1.02241,-0.305522,2.428,2.65214
-1.01452,-0.305522,2.428,2.64911
-1.00664,-0.305522,2.428,2.6461
-0.99177,-0.303383,2.411,2.62461
-0.983945,-0.303383,2.411,2.62166
-0.976119,-0.303383,2.411,2.61873
-0.968294,-0.303383,2.411,2.61583
-0.960468,-0.303383,2.411,2.61294
-0.945926,-0.301244,2.394,2.59167
-0.938156,-0.301244,2.394,2.58885
-0.930385,-0.301244,2.394,2.58604
-0.916063,-0.299105,2.377,2.56491
-0.908348,-0.299105,2.377,2.56217
-0.900633,-0.299105,2.377,2.55944
-0.892918,-0.299105,2.377,2.55674
-0.885203,-0.299105,2.377,2.55405
-0.877488,-0.299105,2.377,2.55139
-0.869772,-0.299105,2.377,2.54874
-0.862057,-0.299105,2.377,2.54612
-0.854342,-0.299105,2.377,2.54352
-0.846627,-0.299105,2.377,2.54094
-0.838912,-0.299105,2.377,2.53838
-0.831197,-0.299105,2.377,2.53584
-0.823481,-0.299105,2.377,2.53332
-0.815766,-0.299105,2.377,2.53082
-0.808051,-0.299105,2.377,2.52835
-0.800336,-0.299105,2.377,2.52589
-0.792621,-0.299105,2.377,2.52346
-0.790519,-0.301244,2.394,2.53908
-0.782749,-0.301244,2.394,2.53667
-0.774979,-0.301244,2.394,2.53428
-0.767208,-0.301244,2.394,2.53191
-0.759438,-0.301244,2.394,2.52957
-0.751668,-0.301244,2.394,2.52725
-0.74918,-0.303383,2.411,2.54288
-0.741354,-0.303383,2.411,2.54058
-0.733529,-0.303383,2.411,2.53831
-0.725703,-0.303383,2.411,2.53606
-0.717878,-0.303383,2.411,2.53383
-0.715059,-0.305522,2.428,2.54948
-0.707178,-0.305522,2.428,2.54728
-0.699297,-0.305522,2.428,2.5451
-0.691417,-0.305522,2.428,2.54295
-0.683536,-0.305522,2.428,2.54082
-0.675655,-0.305522,2.428,2.53871
-0.667775,-0.305522,2.428,2.53662
-0.659894,-0.305522,2.428,2.53456
-0.652013,-0.305522,2.428,2.53252
-0.648643,-0.307661,2.445,2.54822
-0.640707,-0.307661,2.445,2.54621
-0.632771,-0.307661,2.445,2.54422
-0.624835,-0.307661,2.445,2.54226
-0.621441,-0.309926,2.463,2.55903
-0.613446,-0.309926,2.463,2.5571
-0.605452,-0.309926,2.463,2.55519
-0.597458,-0.309926,2.463,2.55331
-0.589464,-0.309926,2.463,2.55145
-0.581469,-0.309926,2.463,2.54961
-0.573475,-0.309926,2.463,2.5478
-0.565481,-0.309926,2.463,2.54601
-0.557486,-0.309926,2.463,2.54425
-0.553508,-0.312191,2.481,2.56109
-0.549413,-0.314456,2.499,2.57793
-0.541301,-0.314456,2.499,2.57622
-0.53319,-0.314456,2.499,2.57452
-0.525079,-0.314456,2.499,2.57286
-0.513244,-0.312191,2.481,2.55269
-0.505192,-0.312191,2.481,2.55109
-0.497139,-0.312191,2.481,2.5495
-0.492635,-0.314456,2.499,2.56643
-0.484524,-0.314456,2.499,2.56489
-0.476412,-0.314456,2.499,2.56337
-0.468301,-0.314456,2.499,2.56187
-0.46019,-0.314456,2.499,2.5604
-0.452079,-0.314456,2.499,2.55896
-0.443968,-0.314456,2.499,2.55754
-0.432717,-0.312191,2.481,2.53773
-0.424665,-0.312191,2.481,2.53637
-0.416612,-0.312191,2.481,2.53503
-0.408559,-0.312191,2.481,2.53372
-0.400506,-0.312191,2.481,2.53244
-0.392454,-0.312191,2.481,2.53117
-0.384401,-0.312191,2.481,2.52994
-0.373618,-0.309926,2.463,2.51038
-0.365624,-0.309926,2.463,2.5092
-0.357629,-0.309926,2.463,2.50805
-0.349635,-0.309926,2.463,2.50692
-0.341641,-0.309926,2.463,2.50582
-0.333646,-0.309926,2.463,2.50474
-0.325652,-0.309926,2.463,2.50369
-0.315336,-0.307661,2.445,2.48437
-0.3074,-0.307661,2.445,2.48338
-0.299465,-0.307661,2.445,2.48241
-0.291529,-0.307661,2.445,2.48147
-0.283593,-0.307661,2.445,2.48055
-0.275657,-0.307661,2.445,2.47965
-0.267721,-0.307661,2.445,2.47878
-0.259785,-0.307661,2.445,2.47794
-0.251849,-0.307661,2.445,2.47712
-0.243914,-0.307661,2.445,2.47632
-0.237715,-0.309926,2.463,2.49378
-0.229721,-0.309926,2.463,2.49303
-0.221726,-0.309926,2.463,2.49231
-0.215294,-0.312191,2.481,2.50982
-0.208745,-0.314456,2.499,2.52734
-0.200634,-0.314456,2.499,2.52669
-0.192523,-0.314456,2.499,2.52605
-0.184412,-0.314456,2.499,2.52545
-0.1763,-0.314456,2.499,2.52487
-0.168189,-0.314456,2.499,2.52432
-0.160078,-0.314456,2.499,2.52379
-0.151967,-0.314456,2.499,2.52329
-0.143856,-0.314456,2.499,2.52281
-0.135745,-0.314456,2.499,2.52236
-0.127634,-0.314456,2.499,2.52194
-0.119523,-0.314456,2.499,2.52154
-0.111411,-0.314456,2.499,2.52117
-0.102556,-0.312191,2.481,2.50267
-0.0945035,-0.312191,2.481,2.50235
-0.0864508,-0.312191,2.481,2.50206
-0.078398,-0.312191,2.481,2.50179
-0.0703453,-0.312191,2.481,2.50155
-0.0622926,-0.312191,2.481,2.50134
-0.0538464,-0.309926,2.463,2.48301
-0.0458521,-0.309926,2.463,2.48285
-0.0378578,-0.309926,2.463,2.48271
-0.0298635,-0.309926,2.463,2.4826
-0.0218693,-0.309926,2.463,2.48252
-0.013875,-0.309926,2.463,2.48246
-0.00588068,-0.309926,2.463,2.48243
0.0021136,-0.309926,2.463,2.48242
0.0101079,-0.309926,2.463,2.48244
0.0181022,-0.309926,2.463,2.48249
0.0260965,-0.309926,2.463,2.48256
0.0340907,-0.309926,2.463,2.48266
0.042085,-0.309926,2.463,2.48278
0.0500793,-0.309926,2.463,2.48293
0.058498,-0.312191,2.481,2.50125
0.0665507,-0.312191,2.481,2.50145
0.0751447,-0.314456,2.499,2.51983
0.0832558,-0.314456,2.499,2.52008
0.0920251,-0.316721,2.517,2.53852
0.100195,-0.316721,2.517,2.53883
0.108364,-0.316721,2.517,2.53916
0.116534,-0.316721,2.517,2.53952
0.124703,-0.316721,2.517,2.53991
0.132873,-0.316721,2.517,2.54033
0.141042,-0.316721,2.517,2.54077
0.149212,-0.316721,2.517,2.54123
0.15857,-0.319112,2.536,2.56091
0.166801,-0.319112,2.536,2.56144
0.175032,-0.319112,2.536,2.56198
0.183263,-0.319112,2.536,2.56256
0.191494,-0.319112,2.536,2.56316
0.199726,-0.319112,2.536,2.56379
0.207957,-0.319112,2.536,2.56444
0.216188,-0.319112,2.536,2.56512
0.224419,-0.319112,2.536,2.56583
0.232651,-0.319112,2.536,2.56656
0.240882,-0.319112,2.536,2.56732
0.249113,-0.319112,2.536,2.56811
0.255416,-0.316721,2.517,2.54967
0.263586,-0.316721,2.517,2.55051
0.271755,-0.316721,2.517,2.55136
0.279925,-0.316721,2.517,2.55225
0.286034,-0.314456,2.499,2.5349
0.294145,-0.314456,2.499,2.53582
0.302256,-0.314456,2.499,2.53678
0.310368,-0.314456,2.499,2.53776
0.318479,-0.314456,2.499,2.53876
0.32659,-0.314456,2.499,2.53979
0.33229,-0.312191,2.481,2.52255
0.340343,-0.312191,2.481,2.52362
0.348396,-0.312191,2.481,2.52472
0.356448,-0.312191,2.481,2.52584
0.364501,-0.312191,2.481,2.52699
0.372554,-0.312191,2.481,2.52817
0.380606,-0.312191,2.481,2.52936
0.388659,-0.312191,2.481,2.53059
0.396712,-0.312191,2.481,2.53184
0.404765,-0.312191,2.481,2.53311
0.412817,-0.312191,2.481,2.53441
0.42087,-0.312191,2.481,2.53574
0.428923,-0.312191,2.481,2.53709
0.436975,-0.312191,2.481,2.53846
0.445028,-0.312191,2.481,2.53986
0.453081,-0.312191,2.481,2.54128
0.461134,-0.312191,2.481,2.54273
0.469186,-0.312191,2.481,2.5442
0.477239,-0.312191,2.481,2.5457
0.485292,-0.312191,2.481,2.54722
0.493344,-0.312191,2.481,2.54877
0.501397,-0.312191,2.481,2.55034
0.50945,-0.312191,2.481,2.55193
0.517502,-0.312191,2.481,2.55355
0.525555,-0.312191,2.481,2.5552
0.533608,-0.312191,2.481,2.55687
0.541661,-0.312191,2.481,2.55856
0.549713,-0.312191,2.481,2.56028
0.557766,-0.312191,2.481,2.56202
0.565819,-0.312191,2.481,2.56378
0.573871,-0.312191,2.481,2.56557
0.581924,-0.312191,2.481,2.56738
0.589977,-0.312191,2.481,2.56922
0.59803,-0.312191,2.481,2.57108
0.606082,-0.312191,2.481,2.57297
0.614135,-0.312191,2.481,2.57488
0.622188,-0.312191,2.481,2.57681
0.63024,-0.312191,2.481,2.57876
0.638293,-0.312191,2.481,2.58074
0.646346,-0.312191,2.481,2.58275
0.654399,-0.312191,2.481,2.58478
0.662451,-0.312191,2.481,2.58683
0.670504,-0.312191,2.481,2.5889
0.673634,-0.309926,2.463,2.5722
0.681628,-0.309926,2.463,2.5743
0.689622,-0.309926,2.463,2.57643
0.697617,-0.309926,2.463,2.57858
0.705611,-0.309926,2.463,2.58076
0.713605,-0.309926,2.463,2.58295
0.721599,-0.309926,2.463,2.58517
0.724262,-0.307661,2.445,2.56851
0.732198,-0.307661,2.445,2.57076
0.740133,-0.307661,2.445,2.57303
0.748069,-0.307661,2.445,2.57532
0.761571,-0.309926,2.463,2.59662
0.769565,-0.309926,2.463,2.59897
0.777559,-0.309926,2.463,2.60135
0.785554,-0.309926,2.463,2.60375
0.793548,-0.309926,2.463,2.60617
0.801542,-0.309926,2.463,2.60862
0.809537,-0.309926,2.463,2.61109
0.817531,-0.309926,2.463,2.61358
0.825525,-0.309926,2.463,2.61609
0.833519,-0.309926,2.463,2.61862
0.841514,-0.309926,2.463,2.62118
0.849508,-0.309926,2.463,2.62375
0.857502,-0.309926,2.463,2.62635
0.865497,-0.309926,2.463,2.62897
0.879874,-0.312191,2.481,2.65085
0.881485,-0.309926,2.463,2.63428
0.889479,-0.309926,2.463,2.63697
0.897474,-0.309926,2.463,2.63967
0.905468,-0.309926,2.463,2.6424
0.913462,-0.309926,2.463,2.64515
0.921457,-0.309926,2.463,2.64792
0.929451,-0.309926,2.463,2.65072
0.937445,-0.309926,2.463,2.65353
0.945439,-0.309926,2.463,2.65637
0.953434,-0.309926,2.463,2.65922
0.961428,-0.309926,2.463,2.6621
0.969422,-0.309926,2.463,2.665
0.977417,-0.309926,2.463,2.66791
0.985411,-0.309926,2.463,2.67085
0.993405,-0.309926,2.463,2.67381
1.0014,-0.309926,2.463,2.67679
1.00939,-0.309926,2.463,2.67979
1.01739,-0.309926,2.463,2.68282
1.02538,-0.309926,2.463,2.68586
1.03338,-0.309926,2.463,2.68892
nan,nan,nan,NaN
nan,nan,nan,NaN
nan,nan,nan,NaN
nan,nan,nan,NaN
nan,nan,nan,NaN
nan,nan,nan,NaN
nan,nan,nan,NaN
nan,nan,nan,NaN
nan,nan,nan,NaN
nan,nan,nan,NaN
nan,nan,nan,NaN
nan,nan,nan,NaN
nan,nan,nan,NaN
nan,nan,nan,NaN
nan,nan,nan,NaN
nan,nan,nan,NaN
nan,nan,nan,NaN
nan,nan,nan,NaN
nan,nan,nan,NaN
nan,nan,nan,NaN
nan,nan,nan,NaN
nan,nan,nan,NaN
nan,nan,nan,NaN
nan,nan,nan,NaN
nan,nan,nan,NaN
nan,nan,nan,NaN
nan,nan,nan,NaN
nan,nan,nan,NaN
nan,nan,nan,NaN
nan,nan,nan,NaN
nan,nan,nan,NaN
nan,nan,nan,NaN
nan,nan,nan,NaN
nan,nan,nan,NaN
1.92151,-0.453501,3.604,4.10934
1.93321,-0.453501,3.604,4.11483
1.94491,-0.453501,3.604,4.12033
1.97724,-0.458283,3.642,4.16937
1.98906,-0.458283,3.642,4.17499
2.00088,-0.458283,3.642,4.18063
2.0127,-0.458283,3.642,4.18631
2.02452,-0.458283,3.642,4.192
2.03634,-0.458283,3.642,4.19772
2.04816,-0.458283,3.642,4.20347
2.05998,-0.458283,3.642,4.20924
2.07181,-0.458283,3.642,4.21504
2.08363,-0.458283,3.642,4.22086
2.09545,-0.458283,3.642,4.22671
2.10727,-0.458283,3.642,4.23258
2.09698,-0.453501,3.604,4.19426
2.08644,-0.44872,3.566,4.15583
2.05507,-0.439534,3.493,4.07646
2.06641,-0.439534,3.493,4.08219
2.05692,-0.43513,3.458,4.04698
2.04722,-0.430726,3.423,4.01168
2.05833,-0.430726,3.423,4.01736
2.02893,-0.422295,3.356,3.94432
2.00092,-0.414242,3.292,3.8746
2.01161,-0.414242,3.292,3.88013
1.98421,-0.40644,3.23,3.8125
1.95764,-0.39889,3.17,3.74705
1.96793,-0.39889,3.17,3.75243
1.96012,-0.395241,3.141,3.72346
1.93456,-0.388068,3.084,3.66117
1.94457,-0.388068,3.084,3.66647
1.92035,-0.381273,3.03,3.6075
1.89642,-0.374604,2.977,3.54955
1.90609,-0.374604,2.977,3.55472
1.89902,-0.371333,2.951,3.52882
1.89243,-0.368187,2.926,3.50404
1.88567,-0.365041,2.901,3.4792
1.89509,-0.365041,2.901,3.48431
1.88875,-0.362021,2.877,3.46057
1.86642,-0.355981,2.829,3.40786
1.8756,-0.355981,2.829,3.41289
1.86946,-0.353087,2.806,3.39016
1.86317,-0.350193,2.783,3.36736
1.8722,-0.350193,2.783,3.37237
1.85149,-0.344656,2.739,3.32399
1.84544,-0.341888,2.717,3.30222
-2.35106,-0.415451,3.389,4.14553
-2.34006,-0.415451,3.389,4.1393
-2.32906,-0.415451,3.389,4.13309
-2.31806,-0.415451,3.389,4.1269
-2.30706,-0.415451,3.389,4.12073
-2.29606,-0.415451,3.389,4.11459
-2.26281,-0.411405,3.356,4.06845
-2.25192,-0.411405,3.356,4.0624
-2.24102,-0.411405,3.356,4.05638
-2.23013,-0.411405,3.356,4.05037
-2.19808,-0.407482,3.324,4.00582
-2.18729,-0.407482,3.324,3.99991
-2.1765,-0.407482,3.324,3.99402
-2.16571,-0.407482,3.324,3.98815
-2.15492,-0.407482,3.324,3.9823
-2.14413,-0.407482,3.324,3.97647
-2.13335,-0.407482,3.324,3.97067
-2.12256,-0.407482,3.324,3.96488
-2.11177,-0.407482,3.324,3.95911
-2.10098,-0.407482,3.324,3.95337
-2.09019,-0.407482,3.324,3.94765
-2.09942,-0.411405,3.356,3.97989
-2.10906,-0.415451,3.389,4.01324
-2.07763,-0.411405,3.356,3.96844
-2.06674,-0.411405,3.356,3.96275
-2.05585,-0.411405,3.356,3.95708
-2.04496,-0.411405,3.356,3.95143
-2.03406,-0.411405,3.356,3.94581
-2.02317,-0.411405,3.356,3.9402
-2.01228,-0.411405,3.356,3.93462
-2.02106,-0.415451,3.389,3.9677
nan,nan,nan,NaN
nan,nan,nan,NaN
nan,nan,nan,NaN
nan,nan,nan,NaN
nan,nan,nan,NaN
nan,nan,nan,NaN
nan,nan,nan,NaN
nan,nan,nan,NaN
nan,nan,nan,NaN
nan,nan,nan,NaN
nan,nan,nan,NaN
nan,nan,nan,NaN
nan,nan,nan,NaN
nan,nan,nan,NaN
nan,nan,nan,NaN
nan,nan,nan,NaN
nan,nan,nan,NaN
nan,nan,nan,NaN
nan,nan,nan,NaN
nan,nan,nan,NaN
nan,nan,nan,NaN
nan,nan,nan,NaN
nan,nan,nan,NaN
nan,nan,nan,NaN
nan,nan,nan,NaN
nan,nan,nan,NaN
nan,nan,nan,NaN
nan,nan,nan,NaN
nan,nan,nan,NaN
nan,nan,nan,NaN
nan,nan,nan,NaN
-1.20415,-0.299727,2.445,2.74187
-1.19622,-0.299727,2.445,2.73839
-1.18828,-0.299727,2.445,2.73494
-1.18035,-0.299727,2.445,2.7315
-1.17241,-0.299727,2.445,2.72808
-1.16447,-0.299727,2.445,2.72468
-1.15654,-0.299727,2.445,2.72129
-1.14062,-0.297644,2.428,2.69903
-1.13274,-0.297644,2.428,2.69571
-1.12485,-0.297644,2.428,2.69241
-1.11697,-0.297644,2.428,2.68913
-1.10909,-0.297644,2.428,2.68586
-1.10121,-0.297644,2.428,2.68262
-1.09333,-0.297644,2.428,2.67939
-1.08545,-0.297644,2.428,2.67619
-1.07757,-0.297644,2.428,2.673
-1.0622,-0.29556,2.411,2.65114
-1.05437,-0.29556,2.411,2.64801
-1.04655,-0.29556,2.411,2.64491
-1.03872,-0.29556,2.411,2.64182
-1.0309,-0.29556,2.411,2.63875
-1.02307,-0.29556,2.411,2.63571
-1.01525,-0.29556,2.411,2.63268
-1.00742,-0.29556,2.411,2.62967
-0.999596,-0.29556,2.411,2.62668
-0.99177,-0.29556,2.411,2.62372
-0.983945,-0.29556,2.411,2.62077
-0.969237,-0.293476,2.394,2.59938
-0.961466,-0.293476,2.394,2.59649
-0.953696,-0.293476,2.394,2.59363
-0.945926,-0.293476,2.394,2.59078
-0.938156,-0.293476,2.394,2.58795
-0.923778,-0.291392,2.377,2.56679
-0.916063,-0.291392,2.377,2.56402
-0.908348,-0.291392,2.377,2.56128
-0.900633,-0.291392,2.377,2.55855
-0.892918,-0.291392,2.377,2.55584
-0.885203,-0.291392,2.377,2.55316
-0.877488,-0.291392,2.377,2.55049
-0.869772,-0.291392,2.377,2.54785
-0.862057,-0.291392,2.377,2.54523
-0.854342,-0.291392,2.377,2.54262
-0.846627,-0.291392,2.377,2.54004
-0.838912,-0.291392,2.377,2.53748
-0.831197,-0.291392,2.377,2.53494
-0.823481,-0.291392,2.377,2.53242
-0.815766,-0.291392,2.377,2.52992
-0.808051,-0.291392,2.377,2.52745
-0.800336,-0.291392,2.377,2.52499
-0.792621,-0.291392,2.377,2.52256
-0.784906,-0.291392,2.377,2.52014
-0.777191,-0.291392,2.377,2.51775
-0.769475,-0.291392,2.377,2.51538
-0.767208,-0.293476,2.394,2.531
-0.759438,-0.293476,2.394,2.52866
-0.751668,-0.293476,2.394,2.52634
-0.743897,-0.293476,2.394,2.52403
-0.736127,-0.293476,2.394,2.52175
-0.728357,-0.293476,2.394,2.5195
-0.725703,-0.29556,2.411,2.53514
-0.717878,-0.29556,2.411,2.53291
-0.710052,-0.29556,2.411,2.5307
-0.702227,-0.29556,2.411,2.52852
-0.694401,-0.29556,2.411,2.52636
-0.691417,-0.297644,2.428,2.54201
-0.683536,-0.297644,2.428,2.53988
-0.675655,-0.297644,2.428,2.53777
-0.667775,-0.297644,2.428,2.53569
-0.659894,-0.297644,2.428,2.53362
-0.652013,-0.297644,2.428,2.53158
-0.648643,-0.299727,2.445,2.54727
-0.640707,-0.299727,2.445,2.54526
-0.632771,-0.299727,2.445,2.54328
-0.624835,-0.299727,2.445,2.54131
-0.621441,-0.301934,2.463,2.55807
-0.613446,-0.301934,2.463,2.55614
-0.605452,-0.301934,2.463,2.55423
-0.597458,-0.301934,2.463,2.55235
-0.589464,-0.301934,2.463,2.55049
-0.581469,-0.301934,2.463,2.54865
-0.573475,-0.301934,2.463,2.54684
-0.565481,-0.301934,2.463,2.54505
-0.557486,-0.301934,2.463,2.54329
-0.553508,-0.304141,2.481,2.56012
-0.549413,-0.306347,2.499,2.57696
-0.541301,-0.306347,2.499,2.57524
-0.53319,-0.306347,2.499,2.57355
-0.525079,-0.306347,2.499,2.57188
-0.513244,-0.304141,2.481,2.55172
-0.505192,-0.304141,2.481,2.55011
-0.497139,-0.304141,2.481,2.54853
-0.492635,-0.306347,2.499,2.56545
-0.484524,-0.306347,2.499,2.56391
-0.476412,-0.306347,2.499,2.56239
-0.468301,-0.306347,2.499,2.56089
-0.46019,-0.306347,2.499,2.55942
-0.452079,-0.306347,2.499,2.55797
-0.443968,-0.306347,2.499,2.55655
-0.432717,-0.304141,2.481,2.53675
-0.424665,-0.304141,2.481,2.53539
-0.416612,-0.304141,2.481,2.53405
-0.408559,-0.304141,2.481,2.53274
-0.400506,-0.304141,2.481,2.53146
-0.392454,-0.304141,2.481,2.53019
-0.384401,-0.304141,2.481,2.52896
-0.373618,-0.301934,2.463,2.50941
-0.365624,-0.301934,2.463,2.50823
-0.357629,-0.301934,2.463,2.50708
-0.349635,-0.301934,2.463,2.50595
-0.341641,-0.301934,2.463,2.50485
-0.333646,-0.301934,2.463,2.50377
-0.325652,-0.301934,2.463,2.50272
-0.315336,-0.299727,2.445,2.4834
-0.3074,-0.299727,2.445,2.48241
-0.299465,-0.299727,2.445,2.48144
-0.291529,-0.299727,2.445,2.48049
-0.283593,-0.299727,2.445,2.47957
-0.275657,-0.299727,2.445,2.47868
-0.267721,-0.299727,2.445,2.47781
-0.259785,-0.299727,2.445,2.47696
-0.251849,-0.299727,2.445,2.47614
-0.243914,-0.299727,2.445,2.47535
-0.237715,-0.301934,2.463,2.4928
-0.229721,-0.301934,2.463,2.49205
-0.221726,-0.301934,2.463,2.49132
-0.215294,-0.304141,2.481,2.50883
-0.207241,-0.304141,2.481,2.50815
-0.199189,-0.304141,2.481,2.5075
-0.191136,-0.304141,2.481,2.50687
-0.183083,-0.304141,2.481,2.50627
-0.175031,-0.304141,2.481,2.50569
-0.166978,-0.304141,2.481,2.50514
-0.160078,-0.306347,2.499,2.52279
-0.151967,-0.306347,2.499,2.52229
-0.143856,-0.306347,2.499,2.52181
-0.134767,-0.304141,2.481,2.5032
-0.126714,-0.304141,2.481,2.50278
-0.118662,-0.304141,2.481,2.50239
-0.110609,-0.304141,2.481,2.50202
-0.102556,-0.304141,2.481,2.50168
-0.0945035,-0.304141,2.481,2.50136
-0.0858236,-0.301934,2.463,2.48292
-0.0778293,-0.301934,2.463,2.48266
-0.069835,-0.301934,2.463,2.48242
-0.0618407,-0.301934,2.463,2.48221
-0.0538464,-0.301934,2.463,2.48202
-0.0458521,-0.301934,2.463,2.48186
-0.0378578,-0.301934,2.463,2.48173
-0.0298635,-0.301934,2.463,2.48162
-0.0218693,-0.301934,2.463,2.48153
-0.013875,-0.301934,2.463,2.48148
-0.00583771,-0.299727,2.445,2.46331
0.00209816,-0.299727,2.445,2.4633
0.010034,-0.299727,2.445,2.46332
0.0179699,-0.299727,2.445,2.46337
0.0260965,-0.301934,2.463,2.48158
0.0340907,-0.301934,2.463,2.48167
0.042085,-0.301934,2.463,2.48179
0.0500793,-0.301934,2.463,2.48194
0.0580736,-0.301934,2.463,2.48212
0.0660679,-0.301934,2.463,2.48232
0.0740622,-0.301934,2.463,2.48254
0.0826561,-0.304141,2.481,2.50094
0.091367,-0.306347,2.499,2.51936
0.0987616,-0.304141,2.481,2.50152
0.106814,-0.304141,2.481,2.50185
0.1157,-0.306347,2.499,2.52036
0.123811,-0.306347,2.499,2.52075
0.131923,-0.306347,2.499,2.52116
0.140034,-0.306347,2.499,2.5216
0.148145,-0.306347,2.499,2.52206
0.156256,-0.306347,2.499,2.52255
0.164367,-0.306347,2.499,2.52307
0.172478,-0.306347,2.499,2.52361
0.180589,-0.306347,2.499,2.52418
0.188701,-0.306347,2.499,2.52477
0.198229,-0.308554,2.517,2.54358
0.206399,-0.308554,2.517,2.54423
0.214568,-0.308554,2.517,2.5449
0.222738,-0.308554,2.517,2.54561
0.230908,-0.308554,2.517,2.54633
0.237367,-0.306347,2.499,2.52887
0.245479,-0.306347,2.499,2.52965
0.25359,-0.306347,2.499,2.53045
0.261701,-0.306347,2.499,2.53127
0.267868,-0.304141,2.481,2.51388
0.275921,-0.304141,2.481,2.51476
0.283974,-0.304141,2.481,2.51565
0.292027,-0.304141,2.481,2.51657
0.300079,-0.304141,2.481,2.51752
0.308132,-0.304141,2.481,2.51849
0.316185,-0.304141,2.481,2.51949
0.324237,-0.304141,2.481,2.52051
0.329879,-0.301934,2.463,2.50327
0.337874,-0.301934,2.463,2.50433
0.345868,-0.301934,2.463,2.50543
0.353862,-0.301934,2.463,2.50654
0.361856,-0.301934,2.463,2.50768
0.369851,-0.301934,2.463,2.50885
0.377845,-0.301934,2.463,2.51004
0.385839,-0.301934,2.463,2.51126
0.393834,-0.301934,2.463,2.5125
0.401828,-0.301934,2.463,2.51376
0.409822,-0.301934,2.463,2.51505
0.417816,-0.301934,2.463,2.51637
0.425811,-0.301934,2.463,2.51771
0.433805,-0.301934,2.463,2.51907
0.445028,-0.304141,2.481,2.53888
0.453081,-0.304141,2.481,2.5403
0.461134,-0.304141,2.481,2.54175
0.469186,-0.304141,2.481,2.54323
0.477239,-0.304141,2.481,2.54472
0.485292,-0.304141,2.481,2.54625
0.489765,-0.301934,2.463,2.52931
0.497759,-0.301934,2.463,2.53087
0.505754,-0.301934,2.463,2.53245
0.513748,-0.301934,2.463,2.53406
0.525555,-0.304141,2.481,2.55423
0.533608,-0.304141,2.481,2.5559
0.541661,-0.304141,2.481,2.55759
0.549713,-0.304141,2.481,2.55931
0.557766,-0.304141,2.481,2.56105
0.565819,-0.304141,2.481,2.56281
0.573871,-0.304141,2.481,2.5646
0.581924,-0.304141,2.481,2.56642
0.589977,-0.304141,2.481,2.56826
0.59803,-0.304141,2.481,2.57012
0.606082,-0.304141,2.481,2.572
0.614135,-0.304141,2.481,2.57391
0.617674,-0.301934,2.463,2.55716
0.625668,-0.301934,2.463,2.5591
0.633662,-0.301934,2.463,2.56107
0.641657,-0.301934,2.463,2.56306
0.649651,-0.301934,2.463,2.56507
0.657645,-0.301934,2.463,2.56711
0.665639,-0.301934,2.463,2.56916
0.673634,-0.301934,2.463,2.57125
0.676647,-0.299727,2.445,2.55455
0.684582,-0.299727,2.445,2.55666
0.692518,-0.299727,2.445,2.5588
0.700454,-0.299727,2.445,2.56096
0.70839,-0.299727,2.445,2.56314
0.716326,-0.299727,2.445,2.56534
0.724262,-0.299727,2.445,2.56757
0.732198,-0.299727,2.445,2.56982
0.740133,-0.299727,2.445,2.57209
0.748069,-0.299727,2.445,2.57439
0.756005,-0.299727,2.445,2.5767
0.763941,-0.299727,2.445,2.57904
0.771877,-0.299727,2.445,2.58141
0.779813,-0.299727,2.445,2.58379
0.787749,-0.299727,2.445,2.5862
0.795684,-0.299727,2.445,2.58862
0.80362,-0.299727,2.445,2.59107
0.811556,-0.299727,2.445,2.59355
0.819492,-0.299727,2.445,2.59604
0.827428,-0.299727,2.445,2.59856
0.841514,-0.301934,2.463,2.62024
0.849508,-0.301934,2.463,2.62282
0.857502,-0.301934,2.463,2.62542
0.865497,-0.301934,2.463,2.62804
0.873491,-0.301934,2.463,2.63069
0.881485,-0.301934,2.463,2.63335
0.889479,-0.301934,2.463,2.63604
0.897474,-0.301934,2.463,2.63875
0.905468,-0.301934,2.463,2.64148
0.913462,-0.301934,2.463,2.64423
0.921457,-0.301934,2.463,2.647
0.929451,-0.301934,2.463,2.64979
0.937445,-0.301934,2.463,2.65261
0.945439,-0.301934,2.463,2.65545
0.953434,-0.301934,2.463,2.6583
0.961428,-0.301934,2.463,2.66118
0.969422,-0.301934,2.463,2.66408
0.977417,-0.301934,2.463,2.667
0.985411,-0.301934,2.463,2.66994
0.993405,-0.301934,2.463,2.6729
1.0014,-0.301934,2.463,2.67588
1.00939,-0.301934,2.463,2.67888
1.01739,-0.301934,2.463,2.6819
nan,nan,nan,NaN
nan,nan,nan,NaN
nan,nan,nan,NaN
nan,nan,nan,NaN
nan,nan,nan,NaN
nan,nan,nan,NaN
nan,nan,nan,NaN
nan,nan,nan,NaN
nan,nan,nan,NaN
nan,nan,nan,NaN
nan,nan,nan,NaN
nan,nan,nan,NaN
nan,nan,nan,NaN
nan,nan,nan,NaN
nan,nan,nan,NaN
nan,nan,nan,NaN
nan,nan,nan,NaN
nan,nan,nan,NaN
nan,nan,nan,NaN
nan,nan,nan,NaN
nan,nan,nan,NaN
nan,nan,nan,NaN
nan,nan,nan,NaN
nan,nan,nan,NaN
nan,nan,nan,NaN
nan,nan,nan,NaN
nan,nan,nan,NaN
nan,nan,nan,NaN
nan,nan,nan,NaN
nan,nan,nan,NaN
nan,nan,nan,NaN
nan,nan,nan,NaN
nan,nan,nan,NaN
nan,nan,nan,NaN
nan,nan,nan,NaN
nan,nan,nan,NaN
1.92151,-0.441807,3.604,4.10807
1.93321,-0.441807,3.604,4.11355
1.96542,-0.446465,3.642,4.16249
1.97724,-0.446465,3.642,4.16809
1.98906,-0.446465,3.642,4.17371
2.00088,-0.446465,3.642,4.17936
2.0127,-0.446465,3.642,4.18503
2.02452,-0.446465,3.642,4.19073
2.03634,-0.446465,3.642,4.19645
2.04816,-0.446465,3.642,4.2022
2.05998,-0.446465,3.642,4.20797
2.07181,-0.446465,3.642,4.21377
2.08363,-0.446465,3.642,4.2196
2.09545,-0.446465,3.642,4.22545
2.10727,-0.446465,3.642,4.23132
2.07487,-0.437149,3.566,4.1488
2.06479,-0.432613,3.529,4.11149
2.05507,-0.4282,3.493,4.07526
2.06641,-0.4282,3.493,4.08099
2.03611,-0.419619,3.423,4.00484
2.02688,-0.415451,3.389,3.97066
2.03788,-0.415451,3.389,3.97629
2.00958,-0.407482,3.324,3.90557
1.98147,-0.399637,3.26,3.83582
1.99205,-0.399637,3.26,3.8413
1.98421,-0.395959,3.23,3.8114
1.95764,-0.388604,3.17,3.74597
1.96793,-0.388604,3.17,3.75135
1.94202,-0.381494,3.112,3.68802
1.91762,-0.374751,3.057,3.62808
1.92754,-0.374751,3.057,3.63333
1.90324,-0.368132,3.003,3.57433
1.89642,-0.364944,2.977,3.54854
1.90609,-0.364944,2.977,3.55371
1.89902,-0.361757,2.951,3.52782
1.87626,-0.355628,2.901,3.47313
1.88567,-0.355628,2.901,3.47822
1.89509,-0.355628,2.901,3.48334
1.87299,-0.349743,2.853,3.43075
1.86642,-0.346801,2.829,3.40691
1.8756,-0.346801,2.829,3.41195
1.86946,-0.343982,2.806,3.38923
1.84844,-0.338465,2.761,3.33982
1.8574,-0.338465,2.761,3.34479
1.85149,-0.335768,2.739,3.32308
1.84544,-0.333071,2.717,3.30132
-2.30597,-0.396696,3.324,4.06495
-2.29518,-0.396696,3.324,4.05884
-2.28439,-0.396696,3.324,4.05275
-2.2736,-0.396696,3.324,4.04668
-2.26281,-0.396696,3.324,4.04063
-2.25202,-0.396696,3.324,4.03459
-2.21966,-0.392878,3.292,3.9898
-2.20897,-0.392878,3.292,3.98386
-2.21966,-0.396696,3.324,4.01662
-2.20887,-0.396696,3.324,4.01067
-2.17692,-0.392878,3.292,3.96618
-2.16623,-0.392878,3.292,3.96033
-2.15555,-0.392878,3.292,3.95449
-2.14486,-0.392878,3.292,3.94868
-2.13418,-0.392878,3.292,3.94288
-2.12349,-0.392878,3.292,3.93711
-2.11281,-0.392878,3.292,3.93136
-2.10212,-0.392878,3.292,3.92563
-2.09144,-0.392878,3.292,3.91991
-2.08075,-0.392878,3.292,3.91422
-2.07007,-0.392878,3.292,3.90855
-2.0794,-0.396696,3.324,3.94084
-2.06861,-0.396696,3.324,3.93516
-2.05782,-0.396696,3.324,3.9295
-2.04703,-0.396696,3.324,3.92386
-2.03625,-0.396696,3.324,3.91824
-2.02546,-0.396696,3.324,3.91265
-2.01467,-0.396696,3.324,3.90707
-2.00388,-0.396696,3.324,3.90152
-1.99309,-0.396696,3.324,3.89599
-2.00138,-0.400515,3.356,3.92794
nan,nan,nan,NaN
nan,nan,nan,NaN
nan,nan,nan,NaN
nan,nan,nan,NaN
nan,nan,nan,NaN
nan,nan,nan,NaN
nan,nan,nan,NaN
nan,nan,nan,NaN
nan,nan,nan,NaN
nan,nan,nan,NaN
nan,nan,nan,NaN
nan,nan,nan,NaN
nan,nan,nan,NaN
nan,nan,nan,NaN
nan,nan,nan,NaN
nan,nan,nan,NaN
nan,nan,nan,NaN
nan,nan,nan,NaN
nan,nan,nan,NaN
nan,nan,nan,NaN
nan,nan,nan,NaN
nan,nan,nan,NaN
nan,nan,nan,NaN
nan,nan,nan,NaN
nan,nan,nan,NaN
nan,nan,nan,NaN
nan,nan,nan,NaN
nan,nan,nan,NaN
nan,nan,nan,NaN
nan,nan,nan,NaN
nan,nan,nan,NaN
-1.20415,-0.291794,2.445,2.74101
-1.19622,-0.291794,2.445,2.73754
-1.18002,-0.289765,2.428,2.71507
-1.17214,-0.289765,2.428,2.71165
-1.17241,-0.291794,2.445,2.72722
-1.16447,-0.291794,2.445,2.72381
-1.15654,-0.291794,2.445,2.72043
-1.14062,-0.289765,2.428,2.69818
-1.13274,-0.289765,2.428,2.69485
-1.12485,-0.289765,2.428,2.69155
-1.11697,-0.289765,2.428,2.68827
-1.10909,-0.289765,2.428,2.685
-1.10121,-0.289765,2.428,2.68176
-1.09333,-0.289765,2.428,2.67853
-1.08545,-0.289765,2.428,2.67532
-1.07757,-0.289765,2.428,2.67214
-1.0622,-0.287736,2.411,2.65028
-1.05437,-0.287736,2.411,2.64715
-1.04655,-0.287736,2.411,2.64405
-1.03872,-0.287736,2.411,2.64096
-1.0309,-0.287736,2.411,2.63789
-1.02307,-0.287736,2.411,2.63484
-1.01525,-0.287736,2.411,2.63181
-1.00742,-0.287736,2.411,2.6288
-0.999596,-0.287736,2.411,2.62582
-0.99177,-0.287736,2.411,2.62285
-0.983945,-0.287736,2.411,2.6199
-0.969237,-0.285707,2.394,2.59852
-0.961466,-0.285707,2.394,2.59563
-0.953696,-0.285707,2.394,2.59276
-0.945926,-0.285707,2.394,2.58991
-0.938156,-0.285707,2.394,2.58708
-0.923778,-0.283679,2.377,2.56592
-0.916063,-0.283679,2.377,2.56316
-0.908348,-0.283679,2.377,2.56041
-0.900633,-0.283679,2.377,2.55768
-0.892918,-0.283679,2.377,2.55498
-0.885203,-0.283679,2.377,2.55229
-0.877488,-0.283679,2.377,2.54962
-0.869772,-0.283679,2.377,2.54698
-0.862057,-0.283679,2.377,2.54436
-0.854342,-0.283679,2.377,2.54175
-0.846627,-0.283679,2.377,2.53917
-0.838912,-0.283679,2.377,2.53661
-0.831197,-0.283679,2.377,2.53407
-0.823481,-0.283679,2.377,2.53155
-0.815766,-0.283679,2.377,2.52905
-0.808051,-0.283679,2.377,2.52657
-0.800336,-0.283679,2.377,2.52411
-0.792621,-0.283679,2.377,2.52168
-0.784906,-0.283679,2.377,2.51926
-0.777191,-0.283679,2.377,2.51687
-0.769475,-0.283679,2.377,2.5145
-0.767208,-0.285707,2.394,2.53011
-0.759438,-0.285707,2.394,2.52777
-0.751668,-0.285707,2.394,2.52544
-0.743897,-0.285707,2.394,2.52314
-0.736127,-0.285707,2.394,2.52086
-0.728357,-0.285707,2.394,2.5186
-0.725703,-0.287736,2.411,2.53424
-0.717878,-0.287736,2.411,2.53201
-0.710052,-0.287736,2.411,2.5298
-0.702227,-0.287736,2.411,2.52761
-0.694401,-0.287736,2.411,2.52545
-0.691417,-0.289765,2.428,2.5411
-0.683536,-0.289765,2.428,2.53897
-0.675655,-0.289765,2.428,2.53686
-0.667775,-0.289765,2.428,2.53477
-0.659894,-0.289765,2.428,2.53271
-0.652013,-0.289765,2.428,2.53067
-0.648643,-0.291794,2.445,2.54635
-0.640707,-0.291794,2.445,2.54434
-0.632771,-0.291794,2.445,2.54236
-0.624835,-0.291794,2.445,2.54039
-0.616899,-0.291794,2.445,2.53845
-0.608963,-0.291794,2.445,2.53653
-0.605452,-0.293942,2.463,2.5533
-0.597458,-0.293942,2.463,2.55142
-0.589464,-0.293942,2.463,2.54956
-0.581469,-0.293942,2.463,2.54772
-0.573475,-0.293942,2.463,2.54591
-0.565481,-0.293942,2.463,2.54412
-0.557486,-0.293942,2.463,2.54235
-0.553508,-0.29609,2.481,2.55918
-0.545455,-0.29609,2.481,2.55745
-0.537403,-0.29609,2.481,2.55575
-0.52935,-0.29609,2.481,2.55406
-0.521297,-0.29609,2.481,2.55241
-0.513244,-0.29609,2.481,2.55077
-0.505192,-0.29609,2.481,2.54917
-0.497139,-0.29609,2.481,2.54758
-0.489086,-0.29609,2.481,2.54602
-0.481034,-0.29609,2.481,2.54449
-0.472981,-0.29609,2.481,2.54298
-0.464928,-0.29609,2.481,2.54149
-0.456875,-0.29609,2.481,2.54003
-0.448823,-0.29609,2.481,2.5386
-0.44077,-0.29609,2.481,2.53719
-0.432717,-0.29609,2.481,2.5358
-0.421584,-0.293942,2.463,2.51605
-0.413589,-0.293942,2.463,2.51472
-0.405595,-0.293942,2.463,2.51342
-0.397601,-0.293942,2.463,2.51214
-0.389606,-0.293942,2.463,2.51089
-0.381612,-0.293942,2.463,2.50966
-0.370887,-0.291794,2.445,2.49013
-0.362952,-0.291794,2.445,2.48896
-0.355016,-0.291794,2.445,2.48781
-0.34708,-0.291794,2.445,2.48669
-0.339144,-0.291794,2.445,2.4856
-0.331208,-0.291794,2.445,2.48453
-0.323272,-0.291794,2.445,2.48348
-0.313144,-0.289765,2.428,2.4652
-0.305263,-0.289765,2.428,2.46421
-0.297382,-0.289765,2.428,2.46325
-0.289502,-0.289765,2.428,2.46231
-0.281621,-0.289765,2.428,2.46139
-0.27374,-0.289765,2.428,2.4605
-0.26586,-0.289765,2.428,2.45964
-0.257979,-0.289765,2.428,2.4588
-0.251849,-0.291794,2.445,2.4752
-0.243914,-0.291794,2.445,2.4744
-0.235978,-0.291794,2.445,2.47363
-0.229721,-0.293942,2.463,2.49109
-0.221726,-0.293942,2.463,2.49037
-0.213732,-0.293942,2.463,2.48967
-0.205738,-0.293942,2.463,2.489
-0.197744,-0.293942,2.463,2.48835
-0.189749,-0.293942,2.463,2.48773
-0.183083,-0.29609,2.481,2.5053
-0.175031,-0.29609,2.481,2.50473
-0.166978,-0.29609,2.481,2.50418
-0.158925,-0.29609,2.481,2.50365
-0.150872,-0.29609,2.481,2.50316
-0.14282,-0.29609,2.481,2.50268
-0.134767,-0.29609,2.481,2.50224
-0.126714,-0.29609,2.481,2.50182
-0.118662,-0.29609,2.481,2.50142
-0.110609,-0.29609,2.481,2.50105
-0.102556,-0.29609,2.481,2.50071
-0.0945035,-0.29609,2.481,2.50039
-0.0858236,-0.293942,2.463,2.48196
-0.0778293,-0.293942,2.463,2.4817
-0.069835,-0.293942,2.463,2.48146
-0.0618407,-0.293942,2.463,2.48125
-0.0538464,-0.293942,2.463,2.48106
-0.0458521,-0.293942,2.463,2.4809
-0.0378578,-0.293942,2.463,2.48077
-0.0298635,-0.293942,2.463,2.48066
-0.0217094,-0.291794,2.445,2.46245
-0.0137736,-0.291794,2.445,2.46239
-0.00583771,-0.291794,2.445,2.46236
0.00209816,-0.291794,2.445,2.46235
0.010034,-0.291794,2.445,2.46237
0.0179699,-0.291794,2.445,2.46242
0.0259057,-0.291794,2.445,2.46249
0.0338416,-0.291794,2.445,2.46258
0.0417775,-0.291794,2.445,2.4627
0.0497133,-0.291794,2.445,2.46285
0.0580736,-0.293942,2.463,2.48116
0.0660679,-0.293942,2.463,2.48136
0.0740622,-0.293942,2.463,2.48158
0.0820565,-0.293942,2.463,2.48183
0.0900507,-0.293942,2.463,2.48211
0.098045,-0.293942,2.463,2.48241
0.106039,-0.293942,2.463,2.48274
0.114034,-0.293942,2.463,2.4831
0.122028,-0.293942,2.463,2.48348
0.130022,-0.293942,2.463,2.48388
0.138016,-0.293942,2.463,2.48431
0.146011,-0.293942,2.463,2.48477
0.155131,-0.29609,2.481,2.50342
0.163183,-0.29609,2.481,2.50393
0.171236,-0.29609,2.481,2.50447
0.179289,-0.29609,2.481,2.50503
0.188701,-0.298238,2.499,2.5238
0.196812,-0.298238,2.499,2.52442
0.204923,-0.298238,2.499,2.52506
0.213034,-0.298238,2.499,2.52573
0.221145,-0.298238,2.499,2.52643
0.229256,-0.298238,2.499,2.52715
0.237367,-0.298238,2.499,2.5279
0.245479,-0.298238,2.499,2.52868
0.251763,-0.29609,2.481,2.51126
0.259816,-0.29609,2.481,2.51208
0.267868,-0.29609,2.481,2.51292
0.275921,-0.29609,2.481,2.51379
0.283974,-0.29609,2.481,2.51469
0.292027,-0.29609,2.481,2.51561
0.300079,-0.29609,2.481,2.51656
0.305896,-0.293942,2.463,2.49927
0.313891,-0.293942,2.463,2.50026
0.321885,-0.293942,2.463,2.50128
0.329879,-0.293942,2.463,2.50232
0.337874,-0.293942,2.463,2.50338
0.345868,-0.293942,2.463,2.50448
0.353862,-0.293942,2.463,2.50559
0.361856,-0.293942,2.463,2.50673
0.369851,-0.293942,2.463,2.5079
0.377845,-0.293942,2.463,2.50909
0.385839,-0.293942,2.463,2.51031
0.393834,-0.293942,2.463,2.51155
0.401828,-0.293942,2.463,2.51281
0.409822,-0.293942,2.463,2.51411
0.417816,-0.293942,2.463,2.51542
0.425811,-0.293942,2.463,2.51676
0.433805,-0.293942,2.463,2.51813
0.445028,-0.29609,2.481,2.53793
0.453081,-0.29609,2.481,2.53935
0.461134,-0.29609,2.481,2.5408
0.469186,-0.29609,2.481,2.54228
0.477239,-0.29609,2.481,2.54377
0.485292,-0.29609,2.481,2.5453
0.489765,-0.293942,2.463,2.52837
0.497759,-0.293942,2.463,2.52993
0.505754,-0.293942,2.463,2.53151
0.513748,-0.293942,2.463,2.53312
0.525555,-0.29609,2.481,2.55328
0.533608,-0.29609,2.481,2.55495
0.541661,-0.29609,2.481,2.55664
0.549713,-0.29609,2.481,2.55836
0.557766,-0.29609,2.481,2.5601
0.565819,-0.29609,2.481,2.56187
0.573871,-0.29609,2.481,2.56366
0.581924,-0.29609,2.481,2.56548
0.589977,-0.29609,2.481,2.56731
0.59803,-0.29609,2.481,2.56918
0.606082,-0.29609,2.481,2.57106
0.614135,-0.29609,2.481,2.57297
0.617674,-0.293942,2.463,2.55623
0.625668,-0.293942,2.463,2.55817
0.633662,-0.293942,2.463,2.56014
0.641657,-0.293942,2.463,2.56213
0.649651,-0.293942,2.463,2.56414
0.657645,-0.293942,2.463,2.56618
0.665639,-0.293942,2.463,2.56824
0.673634,-0.293942,2.463,2.57032
0.676647,-0.291794,2.445,2.55363
0.684582,-0.291794,2.445,2.55574
0.692518,-0.291794,2.445,2.55788
0.700454,-0.291794,2.445,2.56004
0.70839,-0.291794,2.445,2.56222
0.716326,-0.291794,2.445,2.56443
0.724262,-0.291794,2.445,2.56666
0.732198,-0.291794,2.445,2.56891
0.740133,-0.291794,2.445,2.57118
0.748069,-0.291794,2.445,2.57348
0.756005,-0.291794,2.445,2.57579
0.763941,-0.291794,2.445,2.57813
0.771877,-0.291794,2.445,2.5805
0.779813,-0.291794,2.445,2.58288
0.787749,-0.291794,2.445,2.58529
0.795684,-0.291794,2.445,2.58772
0.80362,-0.291794,2.445,2.59017
0.811556,-0.291794,2.445,2.59264
0.819492,-0.291794,2.445,2.59514
0.827428,-0.291794,2.445,2.59765
0.841514,-0.293942,2.463,2.61934
0.849508,-0.293942,2.463,2.62191
0.857502,-0.293942,2.463,2.62452
0.865497,-0.293942,2.463,2.62714
0.873491,-0.293942,2.463,2.62978
0.881485,-0.293942,2.463,2.63245
0.889479,-0.293942,2.463,2.63514
0.897474,-0.293942,2.463,2.63785
0.905468,-0.293942,2.463,2.64058
0.913462,-0.293942,2.463,2.64333
0.921457,-0.293942,2.463,2.6461
0.929451,-0.293942,2.463,2.6489
0.930594,-0.291794,2.445,2.63233
0.93853,-0.291794,2.445,2.63515
0.946466,-0.291794,2.445,2.63799
0.954402,-0.291794,2.445,2.64084
0.962338,-0.291794,2.445,2.64372
0.970273,-0.291794,2.445,2.64662
0.978209,-0.291794,2.445,2.64954
0.986145,-0.291794,2.445,2.65248
0.994081,-0.291794,2.445,2.65544
1.00202,-0.291794,2.445,2.65842
1.00995,-0.291794,2.445,2.66142
nan,nan,nan,NaN
nan,nan,nan,NaN
nan,nan,nan,NaN
nan,nan,nan,NaN
nan,nan,nan,NaN
nan,nan,nan,NaN
nan,nan,nan,NaN
nan,nan,nan,NaN
nan,nan,nan,NaN
nan,nan,nan,NaN
nan,nan,nan,NaN
nan,nan,nan,NaN
nan,nan,nan,NaN
nan,nan,nan,NaN
nan,nan,nan,NaN
nan,nan,nan,NaN
nan,nan,nan,NaN
nan,nan,nan,NaN
nan,nan,nan,NaN
nan,nan,nan,NaN
nan,nan,nan,NaN
nan,nan,nan,NaN
nan,nan,nan,NaN
nan,nan,nan,NaN
nan,nan,nan,NaN
nan,nan,nan,NaN
nan,nan,nan,NaN
nan,nan,nan,NaN
nan,nan,nan,NaN
nan,nan,nan,NaN
nan,nan,nan,NaN
nan,nan,nan,NaN
nan,nan,nan,NaN
nan,nan,nan,NaN
nan,nan,nan,NaN
nan,nan,nan,NaN
1.92151,-0.430113,3.604,4.10683
1.93321,-0.430113,3.604,4.11231
1.96542,-0.434648,3.642,4.16124
1.97724,-0.434648,3.642,4.16684
1.98906,-0.434648,3.642,4.17246
2.00088,-0.434648,3.642,4.17811
2.0127,-0.434648,3.642,4.18378
2.02452,-0.434648,3.642,4.18948
2.03634,-0.434648,3.642,4.19521
2.04816,-0.434648,3.642,4.20096
2.05998,-0.434648,3.642,4.20674
2.07181,-0.434648,3.642,4.21254
2.08363,-0.434648,3.642,4.21836
2.07358,-0.430113,3.604,4.18014
2.08528,-0.430113,3.604,4.18595
2.07487,-0.425577,3.566,4.1476
2.06479,-0.421162,3.529,4.1103
2.03448,-0.412688,3.458,4.03326
2.0457,-0.412688,3.458,4.03893
2.03611,-0.408511,3.423,4.00369
2.00714,-0.400515,3.356,3.93088
2.01804,-0.400515,3.356,3.93645
2.00958,-0.396696,3.324,3.90446
1.98147,-0.389059,3.26,3.83474
1.99205,-0.389059,3.26,3.84021
1.96516,-0.381779,3.199,3.77375
1.93973,-0.374857,3.141,3.71065
1.94992,-0.374857,3.141,3.71599
1.94202,-0.371396,3.112,3.68699
1.91762,-0.364832,3.057,3.62707
1.92754,-0.364832,3.057,3.63232
1.90324,-0.358387,3.003,3.57334
1.89642,-0.355284,2.977,3.54756
1.90609,-0.355284,2.977,3.55274
1.88293,-0.349198,2.926,3.49698
1.87626,-0.346214,2.901,3.47218
1.87007,-0.34335,2.877,3.44851
1.87941,-0.34335,2.877,3.45358
1.87299,-0.340486,2.853,3.42982
1.86642,-0.337622,2.829,3.40599
1.8756,-0.337622,2.829,3.41103
1.85414,-0.332132,2.783,3.36054
1.84844,-0.329506,2.761,3.33893
1.8574,-0.329506,2.761,3.3439
1.85149,-0.326881,2.739,3.3222
1.83118,-0.321749,2.696,3.27493
-2.24076,-0.374997,3.23,3.94899
-2.23027,-0.374997,3.23,3.94305
-2.24041,-0.37848,3.26,3.9737
-2.22983,-0.37848,3.26,3.96774
-2.21924,-0.37848,3.26,3.9618
-2.20866,-0.37848,3.26,3.95589
-2.19808,-0.37848,3.26,3.94999
-2.20897,-0.382196,3.292,3.98283
-2.21966,-0.385911,3.324,4.01557
-2.20887,-0.385911,3.324,4.00961
-2.17692,-0.382196,3.292,3.96514
-2.16623,-0.382196,3.292,3.95928
-2.15555,-0.382196,3.292,3.95344
-2.14486,-0.382196,3.292,3.94763
-2.13418,-0.382196,3.292,3.94183
-2.12349,-0.382196,3.292,3.93606
-2.11281,-0.382196,3.292,3.9303
-2.10212,-0.382196,3.292,3.92457
-2.09144,-0.382196,3.292,3.91886
-2.08075,-0.382196,3.292,3.91317
-2.07007,-0.382196,3.292,3.9075
-2.0794,-0.385911,3.324,3.93977
-2.06861,-0.385911,3.324,3.93409
-2.05782,-0.385911,3.324,3.92843
-2.04703,-0.385911,3.324,3.92279
-2.03625,-0.385911,3.324,3.91717
-2.02546,-0.385911,3.324,3.91157
-2.01467,-0.385911,3.324,3.90599
-2.00388,-0.385911,3.324,3.90044
-1.99309,-0.385911,3.324,3.89491
-2.00138,-0.389626,3.356,3.92684
nan,nan,nan,NaN
nan,nan,nan,NaN
nan,nan,nan,NaN
nan,nan,nan,NaN
nan,nan,nan,NaN
nan,nan,nan,NaN
nan,nan,nan,NaN
nan,nan,nan,NaN
nan,nan,nan,NaN
nan,nan,nan,NaN
nan,nan,nan,NaN
nan,nan,nan,NaN
nan,nan,nan,NaN
nan,nan,nan,NaN
nan,nan,nan,NaN
nan,nan,nan,NaN
nan,nan,nan,NaN
nan,nan,nan,NaN
nan,nan,nan,NaN
nan,nan,nan,NaN
nan,nan,nan,NaN
nan,nan,nan,NaN
nan,nan,nan,NaN
nan,nan,nan,NaN
nan,nan,nan,NaN
nan,nan,nan,NaN
nan,nan,nan,NaN
nan,nan,nan,NaN
nan,nan,nan,NaN
nan,nan,nan,NaN
nan,nan,nan,NaN
-1.20415,-0.28386,2.445,2.74018
-1.19622,-0.28386,2.445,2.7367
-1.18002,-0.281887,2.428,2.71424
-1.17214,-0.281887,2.428,2.71082
-1.16426,-0.281887,2.428,2.70742
-1.15638,-0.281887,2.428,2.70404
-1.1485,-0.281887,2.428,2.70068
-1.14062,-0.281887,2.428,2.69734
-1.13274,-0.281887,2.428,2.69402
-1.12485,-0.281887,2.428,2.69071
-1.10915,-0.279913,2.411,2.66861
-1.10133,-0.279913,2.411,2.66537
-1.0935,-0.279913,2.411,2.66215
-1.08568,-0.279913,2.411,2.65894
-1.07785,-0.279913,2.411,2.65576
-1.07003,-0.279913,2.411,2.65259
-1.0622,-0.279913,2.411,2.64944
-1.05437,-0.279913,2.411,2.64631
-1.04655,-0.279913,2.411,2.64321
-1.03872,-0.279913,2.411,2.64012
-1.0309,-0.279913,2.411,2.63705
-1.02307,-0.279913,2.411,2.634
-1.01525,-0.279913,2.411,2.63097
-1.00742,-0.279913,2.411,2.62796
-0.999596,-0.279913,2.411,2.62497
-0.984778,-0.277939,2.394,2.60351
-0.977007,-0.277939,2.394,2.60058
-0.969237,-0.277939,2.394,2.59767
-0.961466,-0.277939,2.394,2.59478
-0.953696,-0.277939,2.394,2.59191
-0.939209,-0.275966,2.377,2.57068
-0.931494,-0.275966,2.377,2.56787
-0.923778,-0.275966,2.377,2.56508
-0.916063,-0.275966,2.377,2.56231
-0.908348,-0.275966,2.377,2.55957
-0.900633,-0.275966,2.377,2.55684
-0.892918,-0.275966,2.377,2.55413
-0.885203,-0.275966,2.377,2.55144
-0.877488,-0.275966,2.377,2.54878
-0.869772,-0.275966,2.377,2.54613
-0.856255,-0.274108,2.361,2.52639
-0.848591,-0.274108,2.361,2.5238
-0.840928,-0.274108,2.361,2.52123
-0.833265,-0.274108,2.361,2.51869
-0.825602,-0.274108,2.361,2.51616
-0.817938,-0.274108,2.361,2.51366
-0.810275,-0.274108,2.361,2.51118
-0.808051,-0.275966,2.377,2.52571
-0.800336,-0.275966,2.377,2.52326
-0.792621,-0.275966,2.377,2.52082
-0.784906,-0.275966,2.377,2.5184
-0.777191,-0.275966,2.377,2.51601
-0.769475,-0.275966,2.377,2.51364
-0.76176,-0.275966,2.377,2.51129
-0.754045,-0.275966,2.377,2.50896
-0.74633,-0.275966,2.377,2.50665
-0.743897,-0.277939,2.394,2.52227
-0.736127,-0.277939,2.394,2.51999
-0.728357,-0.277939,2.394,2.51774
-0.720586,-0.277939,2.394,2.5155
-0.712816,-0.277939,2.394,2.51328
-0.710052,-0.279913,2.411,2.52892
-0.702227,-0.279913,2.411,2.52674
-0.694401,-0.279913,2.411,2.52457
-0.686576,-0.279913,2.411,2.52243
-0.67875,-0.279913,2.411,2.52031
-0.670925,-0.279913,2.411,2.51822
-0.667775,-0.281887,2.428,2.53388
-0.659894,-0.281887,2.428,2.53182
-0.652013,-0.281887,2.428,2.52978
-0.644133,-0.281887,2.428,2.52776
-0.636252,-0.281887,2.428,2.52576
-0.628371,-0.281887,2.428,2.52379
-0.624835,-0.28386,2.445,2.53949
-0.616899,-0.28386,2.445,2.53755
-0.608963,-0.28386,2.445,2.53563
-0.601027,-0.28386,2.445,2.53374
-0.597458,-0.28595,2.463,2.55051
-0.589464,-0.28595,2.463,2.54865
-0.581469,-0.28595,2.463,2.54681
-0.573475,-0.28595,2.463,2.545
-0.565481,-0.28595,2.463,2.54321
-0.557486,-0.28595,2.463,2.54144
-0.553508,-0.28804,2.481,2.55826
-0.545455,-0.28804,2.481,2.55653
-0.537403,-0.28804,2.481,2.55483
-0.52935,-0.28804,2.481,2.55314
-0.521297,-0.28804,2.481,2.55149
-0.513244,-0.28804,2.481,2.54985
-0.505192,-0.28804,2.481,2.54824
-0.497139,-0.28804,2.481,2.54666
-0.489086,-0.28804,2.481,2.5451
-0.481034,-0.28804,2.481,2.54356
-0.472981,-0.28804,2.481,2.54205
-0.464928,-0.28804,2.481,2.54057
-0.456875,-0.28804,2.481,2.53911
-0.448823,-0.28804,2.481,2.53767
-0.44077,-0.28804,2.481,2.53626
-0.429578,-0.28595,2.463,2.51648
-0.421584,-0.28595,2.463,2.51513
-0.413589,-0.28595,2.463,2.5138
-0.405595,-0.28595,2.463,2.5125
-0.397601,-0.28595,2.463,2.51122
-0.386759,-0.28386,2.445,2.49162
-0.378823,-0.28386,2.445,2.4904
-0.370887,-0.28386,2.445,2.48921
-0.362952,-0.28386,2.445,2.48804
-0.355016,-0.28386,2.445,2.48689
-0.34708,-0.28386,2.445,2.48577
-0.339144,-0.28386,2.445,2.48468
-0.331208,-0.28386,2.445,2.48361
-0.323272,-0.28386,2.445,2.48256
-0.313144,-0.281887,2.428,2.46429
-0.305263,-0.281887,2.428,2.4633
-0.297382,-0.281887,2.428,2.46233
-0.289502,-0.281887,2.428,2.46139
-0.281621,-0.281887,2.428,2.46048
-0.27374,-0.281887,2.428,2.45959
-0.26586,-0.281887,2.428,2.45872
-0.257979,-0.281887,2.428,2.45789
-0.250098,-0.281887,2.428,2.45707
-0.242218,-0.281887,2.428,2.45628
-0.235978,-0.28386,2.445,2.47271
-0.228042,-0.28386,2.445,2.47196
-0.220106,-0.28386,2.445,2.47124
-0.21217,-0.28386,2.445,2.47055
-0.205738,-0.28595,2.463,2.48806
-0.197744,-0.28595,2.463,2.48742
-0.189749,-0.28595,2.463,2.48679
-0.181755,-0.28595,2.463,2.4862
-0.175031,-0.28804,2.481,2.50379
-0.166978,-0.28804,2.481,2.50324
-0.158925,-0.28804,2.481,2.50272
-0.150872,-0.28804,2.481,2.50222
-0.14282,-0.28804,2.481,2.50174
-0.134767,-0.28804,2.481,2.5013
-0.126714,-0.28804,2.481,2.50088
-0.118662,-0.28804,2.481,2.50048
-0.109806,-0.28595,2.463,2.48197
-0.101812,-0.28595,2.463,2.48163
-0.0938178,-0.28595,2.463,2.48132
-0.0858236,-0.28595,2.463,2.48103
-0.0778293,-0.28595,2.463,2.48076
-0.069835,-0.28595,2.463,2.48053
-0.0618407,-0.28595,2.463,2.48031
-0.0538464,-0.28595,2.463,2.48013
-0.0458521,-0.28595,2.463,2.47997
-0.0378578,-0.28595,2.463,2.47983
-0.0298635,-0.28595,2.463,2.47972
-0.0217094,-0.28386,2.445,2.46152
-0.0137736,-0.28386,2.445,2.46146
-0.00583771,-0.28386,2.445,2.46143
0.00209816,-0.28386,2.445,2.46142
0.010034,-0.28386,2.445,2.46144
0.0179699,-0.28386,2.445,2.46149
0.0259057,-0.28386,2.445,2.46156
0.0338416,-0.28386,2.445,2.46166
0.0417775,-0.28386,2.445,2.46178
0.0497133,-0.28386,2.445,2.46192
0.0580736,-0.28595,2.463,2.48022
0.0660679,-0.28595,2.463,2.48042
0.0740622,-0.28595,2.463,2.48065
0.0820565,-0.28595,2.463,2.4809
0.0900507,-0.28595,2.463,2.48118
0.098045,-0.28595,2.463,2.48148
0.106039,-0.28595,2.463,2.48181
0.114034,-0.28595,2.463,2.48216
0.122028,-0.28595,2.463,2.48254
0.130022,-0.28595,2.463,2.48295
0.138016,-0.28595,2.463,2.48338
0.146011,-0.28595,2.463,2.48384
0.155131,-0.28804,2.481,2.50248
0.163183,-0.28804,2.481,2.50299
0.171236,-0.28804,2.481,2.50353
0.179289,-0.28804,2.481,2.50409
0.188701,-0.29013,2.499,2.52285
0.196812,-0.29013,2.499,2.52347
0.204923,-0.29013,2.499,2.52412
0.213034,-0.29013,2.499,2.52479
0.221145,-0.29013,2.499,2.52549
0.229256,-0.29013,2.499,2.52621
0.237367,-0.29013,2.499,2.52696
0.245479,-0.29013,2.499,2.52773
0.251763,-0.28804,2.481,2.51032
0.259816,-0.28804,2.481,2.51114
0.269812,-0.29013,2.499,2.53021
0.277923,-0.29013,2.499,2.53109
0.283974,-0.28804,2.481,2.51376
0.292027,-0.28804,2.481,2.51468
0.300079,-0.28804,2.481,2.51563
0.305896,-0.28595,2.463,2.49834
0.313891,-0.28595,2.463,2.49933
0.321885,-0.28595,2.463,2.50035
0.329879,-0.28595,2.463,2.50139
0.337874,-0.28595,2.463,2.50246
0.345868,-0.28595,2.463,2.50355
0.353862,-0.28595,2.463,2.50467
0.361856,-0.28595,2.463,2.50581
0.369851,-0.28595,2.463,2.50698
0.377845,-0.28595,2.463,2.50817
0.385839,-0.28595,2.463,2.50938
0.393834,-0.28595,2.463,2.51063
0.401828,-0.28595,2.463,2.51189
0.409822,-0.28595,2.463,2.51318
0.417816,-0.28595,2.463,2.5145
0.425811,-0.28595,2.463,2.51584
0.433805,-0.28595,2.463,2.51721
0.441799,-0.28595,2.463,2.5186
0.449794,-0.28595,2.463,2.52001
0.457788,-0.28595,2.463,2.52145
0.465782,-0.28595,2.463,2.52291
0.473776,-0.28595,2.463,2.5244
0.481771,-0.28595,2.463,2.52591
0.489765,-0.28595,2.463,2.52745
0.497759,-0.28595,2.463,2.52901
0.505754,-0.28595,2.463,2.5306
0.513748,-0.28595,2.463,2.53221
0.521742,-0.28595,2.463,2.53384
0.529737,-0.28595,2.463,2.5355
0.537731,-0.28595,2.463,2.53718
0.545725,-0.28595,2.463,2.53889
0.553719,-0.28595,2.463,2.54062
0.561714,-0.28595,2.463,2.54237
0.569708,-0.28595,2.463,2.54415
0.577702,-0.28595,2.463,2.54595
0.585697,-0.28595,2.463,2.54778
0.593691,-0.28595,2.463,2.54963
0.601685,-0.28595,2.463,2.5515
0.609679,-0.28595,2.463,2.5534
0.617674,-0.28595,2.463,2.55532
0.625668,-0.28595,2.463,2.55726
0.633662,-0.28595,2.463,2.55923
0.641657,-0.28595,2.463,2.56122
0.644903,-0.28386,2.445,2.5445
0.652839,-0.28386,2.445,2.54653
0.660775,-0.28386,2.445,2.54857
0.668711,-0.28386,2.445,2.55064
0.676647,-0.28386,2.445,2.55273
0.684582,-0.28386,2.445,2.55485
0.692518,-0.28386,2.445,2.55699
0.700454,-0.28386,2.445,2.55915
0.70839,-0.28386,2.445,2.56133
0.711345,-0.281887,2.428,2.54571
0.719226,-0.281887,2.428,2.54793
0.727107,-0.281887,2.428,2.55016
0.734987,-0.281887,2.428,2.55242
0.742868,-0.281887,2.428,2.5547
0.750749,-0.281887,2.428,2.557
0.758629,-0.281887,2.428,2.55933
0.76651,-0.281887,2.428,2.56168
0.774391,-0.281887,2.428,2.56404
0.787749,-0.28386,2.445,2.58441
0.795684,-0.28386,2.445,2.58684
0.80362,-0.28386,2.445,2.58929
0.811556,-0.28386,2.445,2.59176
0.819492,-0.28386,2.445,2.59426
