-0.336786,-0.0928035,2.428,2.453
-0.331208,-0.0934533,2.445,2.4691
-0.323272,-0.0934533,2.445,2.46805
-0.315336,-0.0934533,2.445,2.46702
-0.305263,-0.0928035,2.428,2.44887
-0.297382,-0.0928035,2.428,2.4479
-0.289502,-0.0928035,2.428,2.44696
-0.281621,-0.0928035,2.428,2.44604
-0.27374,-0.0928035,2.428,2.44514
-0.263998,-0.0921537,2.411,2.42716
-0.256173,-0.0921537,2.411,2.42632
-0.248347,-0.0921537,2.411,2.42551
-0.240522,-0.0921537,2.411,2.42472
-0.232696,-0.0921537,2.411,2.42396
-0.224871,-0.0921537,2.411,2.42322
-0.218576,-0.0928035,2.428,2.43958
-0.210695,-0.0928035,2.428,2.43889
-0.202814,-0.0928035,2.428,2.43822
-0.194934,-0.0928035,2.428,2.43758
-0.187053,-0.0928035,2.428,2.43696
-0.179172,-0.0928035,2.428,2.43637
-0.172491,-0.0934533,2.445,2.45286
-0.164555,-0.0934533,2.445,2.45231
-0.156619,-0.0934533,2.445,2.45179
-0.149778,-0.0941413,2.463,2.46935
-0.141784,-0.0941413,2.463,2.46887
-0.133789,-0.0941413,2.463,2.46843
-0.125795,-0.0941413,2.463,2.46801
-0.117801,-0.0941413,2.463,2.46761
-0.109806,-0.0941413,2.463,2.46724
-0.101812,-0.0941413,2.463,2.4669
-0.0938178,-0.0941413,2.463,2.46658
-0.0858236,-0.0941413,2.463,2.46629
-0.0778293,-0.0941413,2.463,2.46603
-0.069835,-0.0941413,2.463,2.46579
-0.0618407,-0.0941413,2.463,2.46557
-0.0534529,-0.0934533,2.445,2.44737
-0.045517,-0.0934533,2.445,2.44721
-0.0375812,-0.0934533,2.445,2.44707
-0.0294392,-0.0928035,2.428,2.42995
-0.0215585,-0.0928035,2.428,2.42987
-0.0136778,-0.0928035,2.428,2.42981
-0.00579712,-0.0928035,2.428,2.42978
0.00208357,-0.0928035,2.428,2.42977
0.00996425,-0.0928035,2.428,2.42979
0.01772,-0.0921537,2.411,2.41283
0.0255455,-0.0921537,2.411,2.4129
0.033371,-0.0921537,2.411,2.41299
0.0411965,-0.0921537,2.411,2.41311
0.049022,-0.0921537,2.411,2.41326
0.0568475,-0.0921537,2.411,2.41343
0.064673,-0.0921537,2.411,2.41363
0.0724985,-0.0921537,2.411,2.41385
0.0803241,-0.0921537,2.411,2.4141
0.0881496,-0.0921537,2.411,2.41437
0.0959751,-0.0921537,2.411,2.41467
0.104532,-0.0928035,2.428,2.43202
0.112413,-0.0928035,2.428,2.43237
0.120294,-0.0928035,2.428,2.43275
0.128175,-0.0928035,2.428,2.43315
0.136055,-0.0928035,2.428,2.43358
0.144944,-0.0934533,2.445,2.45107
0.15288,-0.0934533,2.445,2.45156
0.160815,-0.0934533,2.445,2.45206
0.168751,-0.0934533,2.445,2.4526
0.176687,-0.0934533,2.445,2.45316
0.184623,-0.0934533,2.445,2.45374
0.193976,-0.0941413,2.463,2.47242
0.201971,-0.0941413,2.463,2.47306
0.209965,-0.0941413,2.463,2.47373
0.219552,-0.0948293,2.481,2.4925
0.227605,-0.0948293,2.481,2.49322
0.235658,-0.0948293,2.481,2.49397
0.245479,-0.0955173,2.499,2.51284
0.25359,-0.0955173,2.499,2.51365
0.261701,-0.0955173,2.499,2.51448
0.269812,-0.0955173,2.499,2.51534
0.279925,-0.0962052,2.517,2.53434
0.288094,-0.0962052,2.517,2.53526
0.296264,-0.0962052,2.517,2.5362
0.304434,-0.0962052,2.517,2.53717
0.312603,-0.0962052,2.517,2.53816
0.320773,-0.0962052,2.517,2.53918
0.328942,-0.0962052,2.517,2.54023
0.339657,-0.0969315,2.536,2.56048
0.347888,-0.0969315,2.536,2.56158
0.356119,-0.0969315,2.536,2.56272
0.36435,-0.0969315,2.536,2.56387
0.372581,-0.0969315,2.536,2.56506
0.380813,-0.0969315,2.536,2.56626
0.389044,-0.0969315,2.536,2.5675
0.397275,-0.0969315,2.536,2.56876
0.405506,-0.0969315,2.536,2.57004
0.413738,-0.0969315,2.536,2.57136
0.421969,-0.0969315,2.536,2.57269
0.4302,-0.0969315,2.536,2.57406
0.435146,-0.0962052,2.517,2.55615
0.443316,-0.0962052,2.517,2.55755
0.451486,-0.0962052,2.517,2.55898
0.459655,-0.0962052,2.517,2.56044
0.467825,-0.0962052,2.517,2.56191
0.47259,-0.0955173,2.499,2.54509
0.480701,-0.0955173,2.499,2.54661
0.488812,-0.0955173,2.499,2.54815
0.496924,-0.0955173,2.499,2.54972
0.501397,-0.0948293,2.481,2.53293
0.50945,-0.0948293,2.481,2.53454
0.517502,-0.0948293,2.481,2.53617
0.525555,-0.0948293,2.481,2.53783
0.533608,-0.0948293,2.481,2.53951
0.541661,-0.0948293,2.481,2.54121
0.549713,-0.0948293,2.481,2.54294
0.557766,-0.0948293,2.481,2.54469
0.565819,-0.0948293,2.481,2.54647
0.573871,-0.0948293,2.481,2.54827
0.581924,-0.0948293,2.481,2.5501
0.594257,-0.0955173,2.499,2.57046
0.602368,-0.0955173,2.499,2.57235
0.610479,-0.0955173,2.499,2.57426
0.618591,-0.0955173,2.499,2.57619
0.626702,-0.0955173,2.499,2.57815
0.634813,-0.0955173,2.499,2.58014
0.642924,-0.0955173,2.499,2.58215
0.651035,-0.0955173,2.499,2.58418
0.659146,-0.0955173,2.499,2.58623
0.672064,-0.0962052,2.517,2.60696
0.680233,-0.0962052,2.517,2.60907
0.688403,-0.0962052,2.517,2.61122
0.696572,-0.0962052,2.517,2.61338
0.704742,-0.0962052,2.517,2.61557
0.712911,-0.0962052,2.517,2.61778
0.721081,-0.0962052,2.517,2.62002
0.729251,-0.0962052,2.517,2.62228
0.742987,-0.0969315,2.536,2.64438
0.74559,-0.0962052,2.517,2.62687
0.753759,-0.0962052,2.517,2.6292
0.76768,-0.0969315,2.536,2.65142
0.775912,-0.0969315,2.536,2.65381
0.784143,-0.0969315,2.536,2.65623
0.792374,-0.0969315,2.536,2.65867
0.800605,-0.0969315,2.536,2.66114
0.808836,-0.0969315,2.536,2.66363
0.817068,-0.0969315,2.536,2.66614
0.825299,-0.0969315,2.536,2.66867
0.827285,-0.0962052,2.517,2.65122
0.835455,-0.0962052,2.517,2.65378
0.843624,-0.0962052,2.517,2.65636
0.851794,-0.0962052,2.517,2.65897
0.859963,-0.0962052,2.517,2.66159
0.868133,-0.0962052,2.517,2.66424
0.876303,-0.0962052,2.517,2.66692
0.878147,-0.0955173,2.499,2.65052
0.886258,-0.0955173,2.499,2.65322
0.894369,-0.0955173,2.499,2.65594
0.89598,-0.0948293,2.481,2.63953
0.904033,-0.0948293,2.481,2.64228
0.905468,-0.0941413,2.463,2.62585
0.913462,-0.0941413,2.463,2.62862
0.914722,-0.0934533,2.445,2.61218
0.922658,-0.0934533,2.445,2.61497
0.930594,-0.0934533,2.445,2.61778
0.93853,-0.0934533,2.445,2.62061
0.946466,-0.0934533,2.445,2.62346
0.947766,-0.0928035,2.428,2.60808
0.955646,-0.0928035,2.428,2.61095
0.963527,-0.0928035,2.428,2.61384
0.971408,-0.0928035,2.428,2.61676
0.986145,-0.0934533,2.445,2.63804
0.994081,-0.0934533,2.445,2.64101
1.00202,-0.0934533,2.445,2.64401
1.01739,-0.0941413,2.463,2.66652
1.04037,-0.0955173,2.499,2.7086
1.064,-0.0969315,2.536,2.75187
1.07224,-0.0969315,2.536,2.75506
1.09666,-0.0983839,2.574,2.79961
1.12175,-0.0998746,2.613,2.84536
1.13024,-0.0998746,2.613,2.84871
1.16574,-0.102244,2.675,2.91976
1.20252,-0.104691,2.739,2.99318
1.22114,-0.105531,2.761,3.02083
1.2301,-0.105531,2.761,3.02447
1.25925,-0.107251,2.806,3.07748
1.26836,-0.107251,2.806,3.08121
1.27747,-0.107251,2.806,3.08497
1.28658,-0.107251,2.806,3.08876
1.31739,-0.109048,2.853,3.14436
1.32665,-0.109048,2.853,3.14825
1.34714,-0.109965,2.877,3.17868
1.35648,-0.109965,2.877,3.18265
1.36582,-0.109965,2.877,3.18664
1.37516,-0.109965,2.877,3.19066
1.39605,-0.110883,2.901,3.22134
1.41757,-0.111838,2.926,3.25323
1.42707,-0.111838,2.926,3.25738
1.44884,-0.112794,2.951,3.28942
1.45842,-0.112794,2.951,3.29365
1.468,-0.112794,2.951,3.2979
1.4906,-0.113787,2.977,3.33127
1.50026,-0.113787,2.977,3.3356
1.52311,-0.114781,3.003,3.36913
1.53285,-0.114781,3.003,3.37355
1.57034,-0.116845,3.057,3.43873
1.60869,-0.118947,3.112,3.50522
1.6188,-0.118947,3.112,3.50987
1.64408,-0.120056,3.141,3.54729
1.68482,-0.122273,3.199,3.61762
1.6952,-0.122273,3.199,3.62247
1.72211,-0.123458,3.23,3.66249
1.76585,-0.125827,3.292,3.73782
1.81108,-0.128274,3.356,3.81565
1.82197,-0.128274,3.356,3.82083
1.85088,-0.129535,3.389,3.86366
1.88056,-0.130835,3.423,3.90776
1.89167,-0.130835,3.423,3.91312
1.90278,-0.130835,3.423,3.9185
1.91389,-0.130835,3.423,3.92391
1.90588,-0.129535,3.389,3.89031
1.91688,-0.129535,3.389,3.89571
1.92788,-0.129535,3.389,3.90113
1.93888,-0.129535,3.389,3.90658
1.9309,-0.128274,3.356,3.87396
1.92327,-0.127051,3.324,3.84241
1.93406,-0.127051,3.324,3.84782
1.94485,-0.127051,3.324,3.85325
1.93681,-0.125827,3.292,3.82156
1.9475,-0.125827,3.292,3.82699
1.93915,-0.124604,3.26,3.79518
1.93179,-0.123458,3.23,3.76563
1.94227,-0.123458,3.23,3.77102
1.91648,-0.121164,3.17,3.70628
1.90914,-0.120056,3.141,3.67765
1.91934,-0.120056,3.141,3.68295
1.89452,-0.117877,3.084,3.62135
1.88785,-0.116845,3.057,3.59484
1.89778,-0.116845,3.057,3.60006
1.89085,-0.115813,3.03,3.57346
1.86744,-0.113787,2.977,3.51608
1.8771,-0.113787,2.977,3.52122
1.85444,-0.111838,2.926,3.46597
1.83272,-0.109965,2.877,3.41293
1.81133,-0.108131,2.829,3.36093
1.82051,-0.108131,2.829,3.36589
1.81482,-0.107251,2.806,3.34346
1.79467,-0.105531,2.761,3.29471
1.80364,-0.105531,2.761,3.2996
1.79815,-0.104691,2.739,3.27818
1.77867,-0.103047,2.696,3.23152
1.78743,-0.103047,2.696,3.23634
1.76819,-0.101442,2.654,3.19069
1.74936,-0.0998746,2.613,3.14611
1.75784,-0.0998746,2.613,3.15083
1.73996,-0.0983839,2.574,3.10847
1.7225,-0.0969315,2.536,3.0672
-2.12074,-0.106926,3.057,3.72213
-2.07353,-0.105037,3.003,3.65083
-2.06379,-0.105037,3.003,3.64531
-2.03625,-0.104128,2.977,3.60828
-2.00889,-0.103218,2.951,3.57137
-1.99931,-0.103218,2.951,3.56599
-1.95602,-0.101469,2.901,3.5003
-1.9305,-0.10063,2.877,3.46614
-1.92116,-0.10063,2.877,3.46094
-1.91183,-0.10063,2.877,3.45577
-1.88662,-0.0997904,2.853,3.42183
-1.86157,-0.0989509,2.829,3.38799
-1.85238,-0.0989509,2.829,3.38295
-1.8432,-0.0989509,2.829,3.37793
-1.83402,-0.0989509,2.829,3.37293
-1.82484,-0.0989509,2.829,3.36795
-1.81565,-0.0989509,2.829,3.36298
nan,nan,nan,NaN
nan,nan,nan,NaN
nan,nan,nan,NaN
nan,nan,nan,NaN
nan,nan,nan,NaN
-1.74625,-0.0981465,2.806,3.30646
-1.73714,-0.0981465,2.806,3.30165
-1.72803,-0.0981465,2.806,3.29687
-1.73301,-0.0989509,2.829,3.31909
-1.72383,-0.0989509,2.829,3.31431
-1.71465,-0.0989509,2.829,3.30954
-1.70547,-0.0989509,2.829,3.30479
-1.69629,-0.0989509,2.829,3.30006
-1.70142,-0.0997904,2.853,3.32331
-1.70639,-0.10063,2.877,3.34649
-1.69705,-0.10063,2.877,3.34174
-1.68771,-0.10063,2.877,3.33701
-1.67838,-0.10063,2.877,3.3323
-1.68296,-0.101469,2.901,3.35536
-1.67355,-0.101469,2.901,3.35065
-1.66413,-0.101469,2.901,3.34596
-1.66897,-0.102344,2.926,3.37008
-1.65948,-0.102344,2.926,3.36538
-1.66408,-0.103218,2.951,3.38943
nan,nan,nan,NaN
nan,nan,nan,NaN
nan,nan,nan,NaN
nan,nan,nan,NaN
nan,nan,nan,NaN
nan,nan,nan,NaN
nan,nan,nan,NaN
nan,nan,nan,NaN
nan,nan,nan,NaN
nan,nan,nan,NaN
nan,nan,nan,NaN
nan,nan,nan,NaN
nan,nan,nan,NaN
nan,nan,nan,NaN
nan,nan,nan,NaN
nan,nan,nan,NaN
nan,nan,nan,NaN
nan,nan,nan,NaN
nan,nan,nan,NaN
nan,nan,nan,NaN
nan,nan,nan,NaN
-1.25833,-0.0893671,2.555,2.84946
-1.24074,-0.0887026,2.536,2.82464
-1.23251,-0.0887026,2.536,2.82104
-1.2151,-0.088038,2.517,2.79634
-1.20693,-0.088038,2.517,2.7928
-1.19876,-0.088038,2.517,2.78928
-1.18208,-0.0874084,2.499,2.76586
-1.16551,-0.0867788,2.481,2.7425
-1.14906,-0.0861492,2.463,2.71922
-1.14107,-0.0861492,2.463,2.71585
-1.13308,-0.0861492,2.463,2.7125
-1.11686,-0.0855196,2.445,2.68937
-1.10892,-0.0855196,2.445,2.68608
-1.09333,-0.084925,2.428,2.66416
-1.07785,-0.0843304,2.411,2.64231
-1.07003,-0.0843304,2.411,2.63913
-1.0622,-0.0843304,2.411,2.63596
-1.05437,-0.0843304,2.411,2.63282
-1.04655,-0.0843304,2.411,2.6297
-1.0314,-0.0837358,2.394,2.60807
-1.02363,-0.0837358,2.394,2.60501
-1.01586,-0.0837358,2.394,2.60196
-1.00809,-0.0837358,2.394,2.59894
-1.00032,-0.0837358,2.394,2.59594
-0.992548,-0.0837358,2.394,2.59295
-0.984778,-0.0837358,2.394,2.58999
-0.977007,-0.0837358,2.394,2.58704
-0.976119,-0.0843304,2.411,2.60247
-0.968294,-0.0843304,2.411,2.59954
-0.960468,-0.0843304,2.411,2.59664
-0.952643,-0.0843304,2.411,2.59375
-0.944817,-0.0843304,2.411,2.59089
-0.936992,-0.0843304,2.411,2.58805
-0.929166,-0.0843304,2.411,2.58522
-0.921341,-0.0843304,2.411,2.58242
-0.913515,-0.0843304,2.411,2.57964
-0.90569,-0.0843304,2.411,2.57688
-0.897864,-0.0843304,2.411,2.57414
-0.890039,-0.0843304,2.411,2.57142
-0.882213,-0.0843304,2.411,2.56872
-0.874388,-0.0843304,2.411,2.56605
-0.866562,-0.0843304,2.411,2.56339
-0.858737,-0.0843304,2.411,2.56075
-0.850911,-0.0843304,2.411,2.55814
-0.843086,-0.0843304,2.411,2.55555
-0.83526,-0.0843304,2.411,2.55298
-0.827435,-0.0843304,2.411,2.55043
-0.819609,-0.0843304,2.411,2.5479
-0.811784,-0.0843304,2.411,2.54539
-0.803958,-0.0843304,2.411,2.54291
-0.796133,-0.0843304,2.411,2.54044
-0.788307,-0.0843304,2.411,2.538
-0.780482,-0.0843304,2.411,2.53558
-0.772656,-0.0843304,2.411,2.53319
-0.764831,-0.0843304,2.411,2.53081
-0.757005,-0.0843304,2.411,2.52846
-0.74918,-0.0843304,2.411,2.52612
-0.741354,-0.0843304,2.411,2.52381
-0.733529,-0.0843304,2.411,2.52153
-0.725703,-0.0843304,2.411,2.51926
-0.717878,-0.0843304,2.411,2.51702
-0.710052,-0.0843304,2.411,2.5148
-0.702227,-0.0843304,2.411,2.5126
-0.694401,-0.0843304,2.411,2.51042
-0.686576,-0.0843304,2.411,2.50827
-0.67875,-0.0843304,2.411,2.50614
-0.670925,-0.0843304,2.411,2.50403
-0.663099,-0.0843304,2.411,2.50195
-0.655274,-0.0843304,2.411,2.49988
-0.647448,-0.0843304,2.411,2.49784
-0.644133,-0.084925,2.428,2.51342
-0.636252,-0.084925,2.428,2.51142
-0.628371,-0.084925,2.428,2.50943
-0.620491,-0.084925,2.428,2.50747
-0.61261,-0.084925,2.428,2.50553
-0.604729,-0.084925,2.428,2.50362
-0.601027,-0.0855196,2.445,2.51924
-0.593092,-0.0855196,2.445,2.51736
-0.585156,-0.0855196,2.445,2.5155
-0.57722,-0.0855196,2.445,2.51367
-0.569284,-0.0855196,2.445,2.51186
-0.561348,-0.0855196,2.445,2.51007
-0.553412,-0.0855196,2.445,2.50831
-0.545476,-0.0855196,2.445,2.50657
-0.53754,-0.0855196,2.445,2.50485
-0.529605,-0.0855196,2.445,2.50316
-0.521669,-0.0855196,2.445,2.5015
-0.510161,-0.084925,2.428,2.48247
-0.50228,-0.084925,2.428,2.48086
-0.4944,-0.084925,2.428,2.47928
-0.486519,-0.084925,2.428,2.47772
-0.478638,-0.084925,2.428,2.47618
-0.467461,-0.0843304,2.411,2.45735
-0.459636,-0.0843304,2.411,2.45587
-0.45181,-0.0843304,2.411,2.45442
-0.443985,-0.0843304,2.411,2.45299
-0.436159,-0.0843304,2.411,2.45158
-0.428334,-0.0843304,2.411,2.4502
-0.420508,-0.0843304,2.411,2.44885
-0.412683,-0.0843304,2.411,2.44752
-0.404857,-0.0843304,2.411,2.44621
-0.397032,-0.0843304,2.411,2.44493
-0.389206,-0.0843304,2.411,2.44367
-0.381381,-0.0843304,2.411,2.44243
-0.373555,-0.0843304,2.411,2.44122
-0.36573,-0.0843304,2.411,2.44004
-0.360428,-0.084925,2.428,2.45608
-0.352547,-0.084925,2.428,2.45493
-0.344667,-0.084925,2.428,2.45381
-0.336786,-0.084925,2.428,2.45272
-0.331208,-0.0855196,2.445,2.46881
-0.323272,-0.0855196,2.445,2.46776
-0.315336,-0.0855196,2.445,2.46673
-0.305263,-0.084925,2.428,2.44859
-0.297382,-0.084925,2.428,2.44762
-0.289502,-0.084925,2.428,2.44667
-0.281621,-0.084925,2.428,2.44575
-0.27374,-0.084925,2.428,2.44486
-0.263998,-0.0843304,2.411,2.42688
-0.256173,-0.0843304,2.411,2.42604
-0.248347,-0.0843304,2.411,2.42522
-0.240522,-0.0843304,2.411,2.42443
-0.232696,-0.0843304,2.411,2.42367
-0.224871,-0.0843304,2.411,2.42293
-0.218576,-0.084925,2.428,2.4393
-0.210695,-0.084925,2.428,2.4386
-0.202814,-0.084925,2.428,2.43794
-0.194934,-0.084925,2.428,2.43729
-0.187053,-0.084925,2.428,2.43668
-0.179172,-0.084925,2.428,2.43608
-0.171292,-0.084925,2.428,2.43552
-0.163411,-0.084925,2.428,2.43497
-0.156619,-0.0855196,2.445,2.4515
-0.148683,-0.0855196,2.445,2.45101
-0.141784,-0.0861492,2.463,2.46858
-0.133789,-0.0861492,2.463,2.46814
-0.125795,-0.0861492,2.463,2.46771
-0.117801,-0.0861492,2.463,2.46732
-0.109806,-0.0861492,2.463,2.46695
-0.101812,-0.0861492,2.463,2.46661
-0.0938178,-0.0861492,2.463,2.46629
-0.0858236,-0.0861492,2.463,2.466
-0.0778293,-0.0861492,2.463,2.46573
-0.069835,-0.0861492,2.463,2.4655
-0.0618407,-0.0861492,2.463,2.46528
-0.0538464,-0.0861492,2.463,2.46509
-0.045517,-0.0855196,2.445,2.44692
-0.0375812,-0.0855196,2.445,2.44678
-0.0296453,-0.0855196,2.445,2.44668
-0.0217094,-0.0855196,2.445,2.44659
-0.0137736,-0.0855196,2.445,2.44653
-0.00579712,-0.084925,2.428,2.42949
0.00208357,-0.084925,2.428,2.42949
0.00996425,-0.084925,2.428,2.42951
0.0178449,-0.084925,2.428,2.42955
0.0255455,-0.0843304,2.411,2.41261
0.033371,-0.0843304,2.411,2.41271
0.0411965,-0.0843304,2.411,2.41283
0.049022,-0.0843304,2.411,2.41297
0.0568475,-0.0843304,2.411,2.41314
0.064673,-0.0843304,2.411,2.41334
0.0724985,-0.0843304,2.411,2.41356
0.0803241,-0.0843304,2.411,2.41381
0.0887711,-0.084925,2.428,2.43111
0.0966518,-0.084925,2.428,2.43141
0.104532,-0.084925,2.428,2.43173
0.112413,-0.084925,2.428,2.43208
0.120294,-0.084925,2.428,2.43246
0.128175,-0.084925,2.428,2.43286
0.136055,-0.084925,2.428,2.43329
0.144944,-0.0855196,2.445,2.45079
0.15288,-0.0855196,2.445,2.45127
0.160815,-0.0855196,2.445,2.45178
0.168751,-0.0855196,2.445,2.45231
0.176687,-0.0855196,2.445,2.45287
0.184623,-0.0855196,2.445,2.45345
0.193976,-0.0861492,2.463,2.47213
0.201971,-0.0861492,2.463,2.47277
0.209965,-0.0861492,2.463,2.47343
0.219552,-0.0867788,2.481,2.49221
0.227605,-0.0867788,2.481,2.49293
0.235658,-0.0867788,2.481,2.49368
0.245479,-0.0874084,2.499,2.51255
0.25359,-0.0874084,2.499,2.51335
0.261701,-0.0874084,2.499,2.51419
0.269812,-0.0874084,2.499,2.51504
0.279925,-0.088038,2.517,2.53405
0.288094,-0.088038,2.517,2.53496
0.296264,-0.088038,2.517,2.5359
0.304434,-0.088038,2.517,2.53687
0.312603,-0.088038,2.517,2.53787
0.320773,-0.088038,2.517,2.53888
0.328942,-0.088038,2.517,2.53993
0.337112,-0.088038,2.517,2.541
0.345281,-0.088038,2.517,2.5421
0.356119,-0.0887026,2.536,2.56242
0.36435,-0.0887026,2.536,2.56357
0.372581,-0.0887026,2.536,2.56476
0.380813,-0.0887026,2.536,2.56597
0.389044,-0.0887026,2.536,2.5672
0.397275,-0.0887026,2.536,2.56846
0.405506,-0.0887026,2.536,2.56975
0.413738,-0.0887026,2.536,2.57106
0.421969,-0.0887026,2.536,2.5724
0.4302,-0.0887026,2.536,2.57376
0.435146,-0.088038,2.517,2.55585
0.443316,-0.088038,2.517,2.55726
0.451486,-0.088038,2.517,2.55869
0.459655,-0.088038,2.517,2.56014
0.467825,-0.088038,2.517,2.56162
0.475994,-0.088038,2.517,2.56313
0.480701,-0.0874084,2.499,2.54631
0.488812,-0.0874084,2.499,2.54786
0.496924,-0.0874084,2.499,2.54943
0.501397,-0.0867788,2.481,2.53265
0.50945,-0.0867788,2.481,2.53425
0.517502,-0.0867788,2.481,2.53588
0.525555,-0.0867788,2.481,2.53754
0.533608,-0.0867788,2.481,2.53922
0.541661,-0.0867788,2.481,2.54092
0.549713,-0.0867788,2.481,2.54265
0.557766,-0.0867788,2.481,2.5444
0.565819,-0.0867788,2.481,2.54618
0.573871,-0.0867788,2.481,2.54798
0.581924,-0.0867788,2.481,2.54981
0.594257,-0.0874084,2.499,2.57017
0.602368,-0.0874084,2.499,2.57206
0.610479,-0.0874084,2.499,2.57397
0.618591,-0.0874084,2.499,2.57591
0.626702,-0.0874084,2.499,2.57787
0.634813,-0.0874084,2.499,2.57985
0.642924,-0.0874084,2.499,2.58186
0.651035,-0.0874084,2.499,2.58389
0.659146,-0.0874084,2.499,2.58595
0.672064,-0.088038,2.517,2.60667
0.680233,-0.088038,2.517,2.60878
0.688403,-0.088038,2.517,2.61093
0.696572,-0.088038,2.517,2.61309
0.704742,-0.088038,2.517,2.61528
0.712911,-0.088038,2.517,2.6175
0.721081,-0.088038,2.517,2.61973
0.729251,-0.088038,2.517,2.62199
0.742987,-0.0887026,2.536,2.64409
0.74559,-0.088038,2.517,2.62658
0.753759,-0.088038,2.517,2.62892
0.76768,-0.0887026,2.536,2.65113
0.775912,-0.0887026,2.536,2.65353
0.784143,-0.0887026,2.536,2.65595
0.792374,-0.0887026,2.536,2.65839
0.800605,-0.0887026,2.536,2.66085
0.808836,-0.0887026,2.536,2.66334
0.817068,-0.0887026,2.536,2.66585
0.825299,-0.0887026,2.536,2.66839
0.827285,-0.088038,2.517,2.65093
0.835455,-0.088038,2.517,2.65349
0.843624,-0.088038,2.517,2.65608
0.851794,-0.088038,2.517,2.65868
0.859963,-0.088038,2.517,2.66131
0.868133,-0.088038,2.517,2.66396
0.876303,-0.088038,2.517,2.66664
0.878147,-0.0874084,2.499,2.65024
0.886258,-0.0874084,2.499,2.65294
0.894369,-0.0874084,2.499,2.65566
0.89598,-0.0867788,2.481,2.63926
0.904033,-0.0867788,2.481,2.642
0.905468,-0.0861492,2.463,2.62558
0.913462,-0.0861492,2.463,2.62835
0.914722,-0.0855196,2.445,2.61191
0.922658,-0.0855196,2.445,2.6147
0.930594,-0.0855196,2.445,2.61751
0.93853,-0.0855196,2.445,2.62034
0.946466,-0.0855196,2.445,2.62319
0.947766,-0.084925,2.428,2.60781
0.955646,-0.084925,2.428,2.61068
0.963527,-0.084925,2.428,2.61358
0.971408,-0.084925,2.428,2.61649
0.986145,-0.0855196,2.445,2.63777
0.994081,-0.0855196,2.445,2.64075
1.00202,-0.0855196,2.445,2.64374
1.01739,-0.0861492,2.463,2.66625
1.04037,-0.0874084,2.499,2.70832
1.05603,-0.088038,2.517,2.73098
1.0642,-0.088038,2.517,2.73415
1.08856,-0.0893671,2.555,2.77866
1.12175,-0.0913958,2.613,2.84508
1.13024,-0.0913958,2.613,2.84843
1.15658,-0.0928299,2.654,2.89655
1.18364,-0.0942989,2.696,2.9459
1.21141,-0.095803,2.739,2.99647
1.2203,-0.095803,2.739,3.00007
1.23906,-0.0965725,2.761,3.02782
1.24802,-0.0965725,2.761,3.0315
1.25698,-0.0965725,2.761,3.0352
1.27603,-0.097342,2.783,3.06314
1.29568,-0.0981465,2.806,3.09226
1.30479,-0.0981465,2.806,3.09609
1.3139,-0.0981465,2.806,3.09994
1.33385,-0.0989509,2.829,3.12925
1.34303,-0.0989509,2.829,3.13317
1.35222,-0.0989509,2.829,3.13712
1.37295,-0.0997904,2.853,3.16774
1.39384,-0.10063,2.877,3.19844
1.40317,-0.10063,2.877,3.20252
1.42429,-0.101469,2.901,3.23337
1.44607,-0.102344,2.926,3.26543
1.45556,-0.102344,2.926,3.26965
1.47758,-0.103218,2.951,3.30186
1.50026,-0.104128,2.977,3.33529
1.50992,-0.104128,2.977,3.33965
1.51958,-0.104128,2.977,3.34403
1.55647,-0.105981,3.03,3.40804
1.59422,-0.10787,3.084,3.47336
1.60423,-0.10787,3.084,3.47797
1.6289,-0.10885,3.112,3.51421
1.66954,-0.110878,3.17,3.58449
1.67983,-0.110878,3.17,3.58929
1.70558,-0.111893,3.199,3.627
1.74869,-0.114026,3.26,3.70115
1.79381,-0.116265,3.324,3.77892
1.8046,-0.116265,3.324,3.78405
1.83286,-0.117384,3.356,3.82569
1.88056,-0.119727,3.423,3.9074
1.87288,-0.118538,3.389,3.8739
1.88388,-0.118538,3.389,3.87923
1.89488,-0.118538,3.389,3.88458
1.90588,-0.118538,3.389,3.88996
1.91688,-0.118538,3.389,3.89536
1.92788,-0.118538,3.389,3.90078
1.92,-0.117384,3.356,3.86819
1.91248,-0.116265,3.324,3.83668
1.90476,-0.115145,3.292,3.80508
1.91544,-0.115145,3.292,3.81044
1.92613,-0.115145,3.292,3.81582
1.91799,-0.114026,3.26,3.78408
1.92857,-0.114026,3.26,3.78946
1.9213,-0.112977,3.23,3.75993
1.91325,-0.111893,3.199,3.72916
1.92363,-0.111893,3.199,3.7345
1.89895,-0.109864,3.141,3.67205
1.89152,-0.10885,3.112,3.64338
1.90162,-0.10885,3.112,3.64864
1.87793,-0.106926,3.057,3.58933
1.87118,-0.105981,3.03,3.56279
1.88101,-0.105981,3.03,3.56796
1.874,-0.105037,3.003,3.54132
1.85113,-0.103218,2.951,3.48507
1.86071,-0.103218,2.951,3.49017
1.8386,-0.101469,2.901,3.43606
1.83272,-0.10063,2.877,3.41264
1.81133,-0.0989509,2.829,3.36065
1.82051,-0.0989509,2.829,3.3656
1.81482,-0.0981465,2.806,3.34318
1.79467,-0.0965725,2.761,3.29443
1.80364,-0.0965725,2.761,3.29933
1.78371,-0.0950335,2.717,3.25158
1.76482,-0.0935644,2.675,3.20608
1.7735,-0.0935644,2.675,3.21087
1.7542,-0.0920954,2.633,3.16519
1.73597,-0.0906963,2.593,3.12177
1.74439,-0.0906963,2.593,3.12646
1.73996,-0.0900317,2.574,3.10822
1.7225,-0.0887026,2.536,3.06695
-2.06524,-0.0944677,2.977,3.62446
-2.03763,-0.0936427,2.951,3.58735
-2.02805,-0.0936427,2.951,3.58192
-2.00137,-0.0928493,2.926,3.54621
-1.97485,-0.092056,2.901,3.5106
-1.96544,-0.092056,2.901,3.50531
-1.93984,-0.0912945,2.877,3.47109
-1.9144,-0.0905329,2.853,3.43696
-1.90514,-0.0905329,2.853,3.43182
-1.89588,-0.0905329,2.853,3.42668
-1.88662,-0.0905329,2.853,3.42157
-1.86157,-0.0897713,2.829,3.38773
-1.85238,-0.0897713,2.829,3.38269
-1.82822,-0.0890414,2.806,3.35021
-1.81911,-0.0890414,2.806,3.34525
-1.81,-0.0890414,2.806,3.34031
-1.78613,-0.0883116,2.783,3.30804
-1.7771,-0.0883116,2.783,3.30318
-1.76807,-0.0883116,2.783,3.29832
-1.75903,-0.0883116,2.783,3.29349
-1.75,-0.0883116,2.783,3.28868
-1.74097,-0.0883116,2.783,3.28388
-1.74625,-0.0890414,2.806,3.3062
-1.73714,-0.0890414,2.806,3.3014
-1.72803,-0.0890414,2.806,3.29661
-1.73301,-0.0897713,2.829,3.31883
-1.72383,-0.0897713,2.829,3.31405
-1.71465,-0.0897713,2.829,3.30928
-1.71994,-0.0905329,2.853,3.33256
-1.71068,-0.0905329,2.853,3.32779
-1.70142,-0.0905329,2.853,3.32304
-1.70639,-0.0912945,2.877,3.34623
-1.69705,-0.0912945,2.877,3.34147
-1.68771,-0.0912945,2.877,3.33674
-1.69238,-0.092056,2.901,3.35982
-1.68296,-0.092056,2.901,3.35509
-1.67355,-0.092056,2.901,3.35038
-1.66413,-0.092056,2.901,3.34568
nan,nan,nan,NaN
nan,nan,nan,NaN
nan,nan,nan,NaN
nan,nan,nan,NaN
nan,nan,nan,NaN
nan,nan,nan,NaN
nan,nan,nan,NaN
nan,nan,nan,NaN
nan,nan,nan,NaN
nan,nan,nan,NaN
nan,nan,nan,NaN
nan,nan,nan,NaN
nan,nan,nan,NaN
nan,nan,nan,NaN
nan,nan,nan,NaN
nan,nan,nan,NaN
nan,nan,nan,NaN
nan,nan,nan,NaN
nan,nan,nan,NaN
nan,nan,nan,NaN
nan,nan,nan,NaN
nan,nan,nan,NaN
nan,nan,nan,NaN
nan,nan,nan,NaN
nan,nan,nan,NaN
-1.25003,-0.0810766,2.555,2.84556
-1.24174,-0.0810766,2.555,2.84192
-1.22428,-0.0804737,2.536,2.8172
-1.20693,-0.0798707,2.517,2.79255
-1.19876,-0.0798707,2.517,2.78903
-1.18208,-0.0792996,2.499,2.76561
-1.17397,-0.0792996,2.499,2.76215
-1.15746,-0.0787284,2.481,2.73885
-1.14941,-0.0787284,2.481,2.73545
-1.13308,-0.0781572,2.463,2.71226
-1.12508,-0.0781572,2.463,2.70893
-1.11709,-0.0781572,2.463,2.70562
-1.10099,-0.077586,2.445,2.68258
-1.07785,-0.0765071,2.411,2.64207
-1.07003,-0.0765071,2.411,2.63889
-1.0622,-0.0765071,2.411,2.63572
-1.05437,-0.0765071,2.411,2.63258
-1.04655,-0.0765071,2.411,2.62946
-1.03872,-0.0765071,2.411,2.62635
-1.02363,-0.0759676,2.394,2.60477
-1.01586,-0.0759676,2.394,2.60173
-1.00809,-0.0759676,2.394,2.5987
-1.00032,-0.0759676,2.394,2.5957
-0.992548,-0.0759676,2.394,2.59271
-0.984778,-0.0759676,2.394,2.58975
-0.977007,-0.0759676,2.394,2.5868
-0.976119,-0.0765071,2.411,2.60223
-0.968294,-0.0765071,2.411,2.5993
-0.960468,-0.0765071,2.411,2.5964
-0.952643,-0.0765071,2.411,2.59351
-0.944817,-0.0765071,2.411,2.59065
-0.936992,-0.0765071,2.411,2.5878
-0.929166,-0.0765071,2.411,2.58498
-0.921341,-0.0765071,2.411,2.58218
-0.913515,-0.0765071,2.411,2.5794
-0.90569,-0.0765071,2.411,2.57664
-0.897864,-0.0765071,2.411,2.57389
-0.890039,-0.0765071,2.411,2.57118
-0.882213,-0.0765071,2.411,2.56848
-0.874388,-0.0765071,2.411,2.5658
-0.866562,-0.0765071,2.411,2.56314
-0.858737,-0.0765071,2.411,2.56051
-0.850911,-0.0765071,2.411,2.55789
-0.843086,-0.0765071,2.411,2.5553
-0.83526,-0.0765071,2.411,2.55273
-0.827435,-0.0765071,2.411,2.55018
-0.819609,-0.0765071,2.411,2.54765
-0.811784,-0.0765071,2.411,2.54515
-0.803958,-0.0765071,2.411,2.54266
-0.796133,-0.0765071,2.411,2.5402
-0.788307,-0.0765071,2.411,2.53776
-0.780482,-0.0765071,2.411,2.53534
-0.772656,-0.0765071,2.411,2.53294
-0.764831,-0.0765071,2.411,2.53056
-0.757005,-0.0765071,2.411,2.52821
-0.74918,-0.0765071,2.411,2.52588
-0.741354,-0.0765071,2.411,2.52357
-0.733529,-0.0765071,2.411,2.52128
-0.725703,-0.0765071,2.411,2.51901
-0.717878,-0.0765071,2.411,2.51677
-0.710052,-0.0765071,2.411,2.51455
-0.702227,-0.0765071,2.411,2.51235
-0.694401,-0.0765071,2.411,2.51017
-0.686576,-0.0765071,2.411,2.50802
-0.67875,-0.0765071,2.411,2.50589
-0.670925,-0.0765071,2.411,2.50378
-0.663099,-0.0765071,2.411,2.50169
-0.655274,-0.0765071,2.411,2.49963
-0.647448,-0.0765071,2.411,2.49759
-0.644133,-0.0770466,2.428,2.51317
-0.636252,-0.0770466,2.428,2.51116
-0.628371,-0.0770466,2.428,2.50918
-0.620491,-0.0770466,2.428,2.50722
-0.61261,-0.0770466,2.428,2.50528
-0.604729,-0.0770466,2.428,2.50336
-0.596848,-0.0770466,2.428,2.50147
-0.593092,-0.077586,2.445,2.5171
-0.585156,-0.077586,2.445,2.51524
-0.57722,-0.077586,2.445,2.51341
-0.569284,-0.077586,2.445,2.5116
-0.561348,-0.077586,2.445,2.50981
-0.553412,-0.077586,2.445,2.50805
-0.545476,-0.077586,2.445,2.50631
-0.53754,-0.077586,2.445,2.50459
-0.525922,-0.0770466,2.428,2.4855
-0.518042,-0.0770466,2.428,2.48385
-0.510161,-0.0770466,2.428,2.48221
-0.50228,-0.0770466,2.428,2.48061
-0.4944,-0.0770466,2.428,2.47902
-0.483112,-0.0765071,2.411,2.46012
-0.475287,-0.0765071,2.411,2.45859
-0.467461,-0.0765071,2.411,2.45709
-0.459636,-0.0765071,2.411,2.45561
-0.45181,-0.0765071,2.411,2.45416
-0.443985,-0.0765071,2.411,2.45273
-0.436159,-0.0765071,2.411,2.45133
-0.428334,-0.0765071,2.411,2.44995
-0.420508,-0.0765071,2.411,2.44859
-0.412683,-0.0765071,2.411,2.44726
-0.404857,-0.0765071,2.411,2.44595
-0.397032,-0.0765071,2.411,2.44467
-0.389206,-0.0765071,2.411,2.44341
-0.381381,-0.0765071,2.411,2.44218
-0.376189,-0.0770466,2.428,2.45818
-0.368309,-0.0770466,2.428,2.45698
-0.360428,-0.0770466,2.428,2.45582
-0.352547,-0.0770466,2.428,2.45467
-0.344667,-0.0770466,2.428,2.45355
-0.339144,-0.077586,2.445,2.46963
-0.331208,-0.077586,2.445,2.46855
-0.323272,-0.077586,2.445,2.4675
-0.315336,-0.077586,2.445,2.46647
-0.3074,-0.077586,2.445,2.46547
-0.299465,-0.077586,2.445,2.46449
-0.291529,-0.077586,2.445,2.46354
-0.281621,-0.0770466,2.428,2.44549
-0.27374,-0.0770466,2.428,2.4446
-0.26586,-0.0770466,2.428,2.44373
-0.257979,-0.0770466,2.428,2.44288
-0.250098,-0.0770466,2.428,2.44206
-0.242218,-0.0770466,2.428,2.44127
-0.234337,-0.0770466,2.428,2.4405
-0.226456,-0.0770466,2.428,2.43975
-0.218576,-0.0770466,2.428,2.43904
-0.210695,-0.0770466,2.428,2.43834
-0.202814,-0.0770466,2.428,2.43767
-0.194934,-0.0770466,2.428,2.43703
-0.187053,-0.0770466,2.428,2.43641
-0.179172,-0.0770466,2.428,2.43582
-0.171292,-0.0770466,2.428,2.43525
-0.163411,-0.0770466,2.428,2.43471
-0.156619,-0.077586,2.445,2.45124
-0.148683,-0.077586,2.445,2.45075
-0.141784,-0.0781572,2.463,2.46832
-0.133789,-0.0781572,2.463,2.46787
-0.125795,-0.0781572,2.463,2.46745
-0.117801,-0.0781572,2.463,2.46705
-0.109806,-0.0781572,2.463,2.46669
-0.101812,-0.0781572,2.463,2.46634
-0.0938178,-0.0781572,2.463,2.46603
-0.0858236,-0.0781572,2.463,2.46573
-0.0778293,-0.0781572,2.463,2.46547
-0.069835,-0.0781572,2.463,2.46523
-0.0618407,-0.0781572,2.463,2.46502
-0.0538464,-0.0781572,2.463,2.46483
-0.0458521,-0.0781572,2.463,2.46467
-0.0378578,-0.0781572,2.463,2.46453
-0.0298635,-0.0781572,2.463,2.46442
-0.0218693,-0.0781572,2.463,2.46434
-0.013875,-0.0781572,2.463,2.46428
-0.00583771,-0.077586,2.445,2.44624
0.00209816,-0.077586,2.445,2.44623
0.010034,-0.077586,2.445,2.44625
0.0179699,-0.077586,2.445,2.4463
0.0257256,-0.0770466,2.428,2.42936
0.0336063,-0.0770466,2.428,2.42945
0.041487,-0.0770466,2.428,2.42958
0.0493677,-0.0770466,2.428,2.42972
0.0572484,-0.0770466,2.428,2.4299
0.065129,-0.0770466,2.428,2.4301
0.0730097,-0.0770466,2.428,2.43032
0.0808904,-0.0770466,2.428,2.43057
0.0887711,-0.0770466,2.428,2.43084
0.0966518,-0.0770466,2.428,2.43114
0.105264,-0.077586,2.445,2.44849
0.1132,-0.077586,2.445,2.44885
0.121136,-0.077586,2.445,2.44923
0.129072,-0.077586,2.445,2.44963
0.137008,-0.077586,2.445,2.45006
0.144944,-0.077586,2.445,2.45052
0.15288,-0.077586,2.445,2.451
0.160815,-0.077586,2.445,2.45151
0.168751,-0.077586,2.445,2.45204
0.176687,-0.077586,2.445,2.4526
0.184623,-0.077586,2.445,2.45319
0.193976,-0.0781572,2.463,2.47186
0.201971,-0.0781572,2.463,2.4725
0.209965,-0.0781572,2.463,2.47317
0.219552,-0.0787284,2.481,2.49194
0.227605,-0.0787284,2.481,2.49266
0.235658,-0.0787284,2.481,2.49341
0.245479,-0.0792996,2.499,2.51228
0.25359,-0.0792996,2.499,2.51309
0.261701,-0.0792996,2.499,2.51392
0.269812,-0.0792996,2.499,2.51477
0.279925,-0.0798707,2.517,2.53378
0.288094,-0.0798707,2.517,2.53469
0.296264,-0.0798707,2.517,2.53563
0.304434,-0.0798707,2.517,2.5366
0.312603,-0.0798707,2.517,2.5376
0.320773,-0.0798707,2.517,2.53861
0.328942,-0.0798707,2.517,2.53966
0.337112,-0.0798707,2.517,2.54073
0.345281,-0.0798707,2.517,2.54183
0.356119,-0.0804737,2.536,2.56215
0.36435,-0.0804737,2.536,2.5633
0.372581,-0.0804737,2.536,2.56449
0.380813,-0.0804737,2.536,2.56569
0.389044,-0.0804737,2.536,2.56693
0.397275,-0.0804737,2.536,2.56819
0.405506,-0.0804737,2.536,2.56948
0.413738,-0.0804737,2.536,2.57079
0.421969,-0.0804737,2.536,2.57213
0.4302,-0.0804737,2.536,2.57349
0.435146,-0.0798707,2.517,2.55559
0.443316,-0.0798707,2.517,2.55699
0.451486,-0.0798707,2.517,2.55842
0.459655,-0.0798707,2.517,2.55987
0.467825,-0.0798707,2.517,2.56135
0.475994,-0.0798707,2.517,2.56286
0.484164,-0.0798707,2.517,2.56439
0.492333,-0.0798707,2.517,2.56594
0.496924,-0.0792996,2.499,2.54916
0.501397,-0.0787284,2.481,2.53238
0.50945,-0.0787284,2.481,2.53399
0.517502,-0.0787284,2.481,2.53562
0.525555,-0.0787284,2.481,2.53728
0.533608,-0.0787284,2.481,2.53896
0.541661,-0.0787284,2.481,2.54066
0.549713,-0.0787284,2.481,2.54239
0.557766,-0.0787284,2.481,2.54414
0.565819,-0.0787284,2.481,2.54592
0.573871,-0.0787284,2.481,2.54772
0.581924,-0.0787284,2.481,2.54955
0.594257,-0.0792996,2.499,2.56991
0.602368,-0.0792996,2.499,2.5718
0.610479,-0.0792996,2.499,2.57371
0.618591,-0.0792996,2.499,2.57564
0.626702,-0.0792996,2.499,2.5776
0.634813,-0.0792996,2.499,2.57959
0.642924,-0.0792996,2.499,2.5816
0.651035,-0.0792996,2.499,2.58363
0.659146,-0.0792996,2.499,2.58568
0.672064,-0.0798707,2.517,2.6064
0.680233,-0.0798707,2.517,2.60852
0.688403,-0.0798707,2.517,2.61066
0.696572,-0.0798707,2.517,2.61283
0.704742,-0.0798707,2.517,2.61502
0.712911,-0.0798707,2.517,2.61723
0.721081,-0.0798707,2.517,2.61947
0.729251,-0.0798707,2.517,2.62173
0.742987,-0.0804737,2.536,2.64382
0.74559,-0.0798707,2.517,2.62632
0.753759,-0.0798707,2.517,2.62865
0.76768,-0.0804737,2.536,2.65087
0.775912,-0.0804737,2.536,2.65326
0.784143,-0.0804737,2.536,2.65568
0.792374,-0.0804737,2.536,2.65812
0.800605,-0.0804737,2.536,2.66059
0.808836,-0.0804737,2.536,2.66308
0.817068,-0.0804737,2.536,2.66559
0.825299,-0.0804737,2.536,2.66812
0.827285,-0.0798707,2.517,2.65067
0.835455,-0.0798707,2.517,2.65323
0.843624,-0.0798707,2.517,2.65582
0.851794,-0.0798707,2.517,2.65842
0.859963,-0.0798707,2.517,2.66105
0.868133,-0.0798707,2.517,2.6637
0.870036,-0.0792996,2.499,2.64731
0.878147,-0.0792996,2.499,2.64999
0.886258,-0.0792996,2.499,2.65269
0.887927,-0.0787284,2.481,2.63628
0.89598,-0.0787284,2.481,2.639
0.904033,-0.0787284,2.481,2.64175
0.905468,-0.0781572,2.463,2.62533
0.913462,-0.0781572,2.463,2.6281
0.914722,-0.077586,2.445,2.61166
0.922658,-0.077586,2.445,2.61445
0.930594,-0.077586,2.445,2.61726
0.93853,-0.077586,2.445,2.62009
0.946466,-0.077586,2.445,2.62295
0.947766,-0.0770466,2.428,2.60756
0.955646,-0.0770466,2.428,2.61044
0.963527,-0.0770466,2.428,2.61333
0.971408,-0.0770466,2.428,2.61625
0.986145,-0.077586,2.445,2.63752
0.994081,-0.077586,2.445,2.6405
1.00202,-0.077586,2.445,2.6435
1.01739,-0.0781572,2.463,2.666
1.04037,-0.0792996,2.499,2.70807
1.05603,-0.0798707,2.517,2.73073
1.0642,-0.0798707,2.517,2.7339
1.08856,-0.0810766,2.555,2.77841
1.12175,-0.0829171,2.613,2.84482
1.13024,-0.0829171,2.613,2.84817
1.15658,-0.0842181,2.654,2.89629
1.18364,-0.0855509,2.696,2.94563
1.20168,-0.0862172,2.717,2.97213
1.21049,-0.0862172,2.717,2.97571
1.22919,-0.0869154,2.739,3.00343
1.23808,-0.0869154,2.739,3.00708
1.24697,-0.0869154,2.739,3.01075
1.26594,-0.0876135,2.761,3.03865
1.28506,-0.0883116,2.783,3.06664
1.2941,-0.0883116,2.783,3.07044
1.30313,-0.0883116,2.783,3.07425
1.32301,-0.0890414,2.806,3.10353
1.33211,-0.0890414,2.806,3.10743
1.34122,-0.0890414,2.806,3.11134
1.3614,-0.0897713,2.829,3.14081
1.39384,-0.0912945,2.877,3.19816
1.40317,-0.0912945,2.877,3.20224
1.41251,-0.0912945,2.877,3.20635
1.43371,-0.092056,2.901,3.23725
1.44313,-0.092056,2.901,3.24143
1.46506,-0.0928493,2.926,3.27361
1.48716,-0.0936427,2.951,3.30587
1.50992,-0.0944677,2.977,3.33936
1.51958,-0.0944677,2.977,3.34374
1.5426,-0.0952927,3.003,3.37738
1.58026,-0.0970063,3.057,3.44266
1.59019,-0.0970063,3.057,3.44722
1.61424,-0.0978631,3.084,3.4823
1.639,-0.0987516,3.112,3.51861
1.6491,-0.0987516,3.112,3.52333
1.69012,-0.100592,3.17,3.59382
1.7326,-0.102496,3.23,3.66678
1.75927,-0.103448,3.26,3.70585
1.76985,-0.103448,3.26,3.71089
1.81538,-0.105479,3.324,3.78889
1.84375,-0.106494,3.356,3.8306
1.85465,-0.106494,3.356,3.83586
1.86554,-0.106494,3.356,3.84113
1.87643,-0.106494,3.356,3.84644
1.88732,-0.106494,3.356,3.85176
1.88012,-0.105479,3.324,3.82033
1.89091,-0.105479,3.324,3.82565
1.9017,-0.105479,3.324,3.831
1.89407,-0.104463,3.292,3.79943
1.88624,-0.103448,3.26,3.76779
1.89682,-0.103448,3.26,3.77309
1.9074,-0.103448,3.26,3.77842
1.8821,-0.101512,3.199,3.71298
1.89248,-0.101512,3.199,3.71825
1.90286,-0.101512,3.199,3.72355
1.87856,-0.0996718,3.141,3.66126
1.88875,-0.0996718,3.141,3.6665
1.88142,-0.0987516,3.112,3.63786
1.85809,-0.0970063,3.057,3.57871
1.86801,-0.0970063,3.057,3.58387
1.86134,-0.0961495,3.03,3.55735
1.83845,-0.0944677,2.977,3.50019
1.84811,-0.0944677,2.977,3.50528
1.84155,-0.0936427,2.951,3.47972
1.83545,-0.0928493,2.926,3.45528
1.84494,-0.0928493,2.926,3.46033
1.8386,-0.092056,2.901,3.4358
1.83272,-0.0912945,2.877,3.41238
1.81133,-0.0897713,2.829,3.36039
1.82051,-0.0897713,2.829,3.36535
1.81482,-0.0890414,2.806,3.34292
1.79467,-0.0876135,2.761,3.29418
1.80364,-0.0876135,2.761,3.29908
1.78371,-0.0862172,2.717,3.25133
1.76482,-0.0848845,2.675,3.20584
1.7735,-0.0848845,2.675,3.21063
1.7542,-0.0835517,2.633,3.16495
1.73597,-0.0822824,2.593,3.12154
1.74439,-0.0822824,2.593,3.12623
1.73996,-0.0816795,2.574,3.10799
1.7225,-0.0804737,2.536,3.06672
-2.06524,-0.0848078,2.977,3.62422
-2.03763,-0.0840671,2.951,3.58712
-2.02805,-0.0840671,2.951,3.58168
-2.00137,-0.0833549,2.926,3.54597
-1.97485,-0.0826428,2.901,3.51037
-1.96544,-0.0826428,2.901,3.50508
-1.93984,-0.0819591,2.877,3.47085
-1.9144,-0.0812754,2.853,3.43673
-1.90514,-0.0812754,2.853,3.43158
-1.89588,-0.0812754,2.853,3.42645
-1.88662,-0.0812754,2.853,3.42134
-1.86157,-0.0805916,2.829,3.3875
-1.85238,-0.0805916,2.829,3.38246
-1.82822,-0.0799364,2.806,3.34998
-1.81911,-0.0799364,2.806,3.34502
-1.81,-0.0799364,2.806,3.34008
-1.78613,-0.0792812,2.783,3.30782
-1.7771,-0.0792812,2.783,3.30295
-1.76807,-0.0792812,2.783,3.2981
-1.75903,-0.0792812,2.783,3.29326
-1.75,-0.0792812,2.783,3.28845
-1.74097,-0.0792812,2.783,3.28365
-1.74625,-0.0799364,2.806,3.30597
-1.73714,-0.0799364,2.806,3.30116
-1.7422,-0.0805916,2.829,3.3234
-1.73301,-0.0805916,2.829,3.3186
-1.72383,-0.0805916,2.829,3.31381
-1.71465,-0.0805916,2.829,3.30904
-1.71994,-0.0812754,2.853,3.33233
-1.71068,-0.0812754,2.853,3.32756
-1.70142,-0.0812754,2.853,3.3228
-1.70639,-0.0819591,2.877,3.34598
-1.69705,-0.0819591,2.877,3.34123
-1.68771,-0.0819591,2.877,3.3365
-1.67838,-0.0819591,2.877,3.33179
-1.68296,-0.0826428,2.901,3.35485
-1.67355,-0.0826428,2.901,3.35013
-1.66413,-0.0826428,2.901,3.34544
-1.66897,-0.0833549,2.926,3.36955
-1.65948,-0.0833549,2.926,3.36486
-1.63588,-0.0826428,2.901,3.33148
-1.62647,-0.0826428,2.901,3.32686
-1.60367,-0.0819591,2.877,3.29479
-1.58103,-0.0812754,2.853,3.2628
-1.57177,-0.0812754,2.853,3.25833
-1.57566,-0.0819591,2.877,3.28124
-1.56632,-0.0819591,2.877,3.27677
-1.54399,-0.0812754,2.853,3.24502
-1.53473,-0.0812754,2.853,3.24062
-1.52547,-0.0812754,2.853,3.23625
-1.52897,-0.0819591,2.877,3.25908
nan,nan,nan,NaN
nan,nan,nan,NaN
nan,nan,nan,NaN
nan,nan,nan,NaN
nan,nan,nan,NaN
nan,nan,nan,NaN
nan,nan,nan,NaN
nan,nan,nan,NaN
nan,nan,nan,NaN
nan,nan,nan,NaN
nan,nan,nan,NaN
-1.25833,-0.072786,2.555,2.84898
-1.25003,-0.072786,2.555,2.84533
-1.24174,-0.072786,2.555,2.8417
-1.22428,-0.0722448,2.536,2.81698
-1.20693,-0.0717035,2.517,2.79233
-1.19876,-0.0717035,2.517,2.78881
-1.18208,-0.0711907,2.499,2.76539
-1.17397,-0.0711907,2.499,2.76193
-1.15746,-0.0706779,2.481,2.73863
-1.14941,-0.0706779,2.481,2.73523
-1.13308,-0.0701652,2.463,2.71204
-1.12508,-0.0701652,2.463,2.70871
-1.11709,-0.0701652,2.463,2.7054
-1.10099,-0.0696524,2.445,2.68236
-1.07785,-0.0686838,2.411,2.64186
-1.07003,-0.0686838,2.411,2.63867
-1.0622,-0.0686838,2.411,2.63551
-1.05437,-0.0686838,2.411,2.63236
-1.04655,-0.0686838,2.411,2.62924
-1.03872,-0.0686838,2.411,2.62613
-1.02363,-0.0681995,2.394,2.60455
-1.01586,-0.0681995,2.394,2.60151
-1.00809,-0.0681995,2.394,2.59849
-1.00032,-0.0681995,2.394,2.59548
-0.999596,-0.0686838,2.411,2.61091
-0.99177,-0.0686838,2.411,2.60792
-0.983945,-0.0686838,2.411,2.60495
-0.976119,-0.0686838,2.411,2.60201
-0.968294,-0.0686838,2.411,2.59908
-0.960468,-0.0686838,2.411,2.59618
-0.952643,-0.0686838,2.411,2.59329
-0.944817,-0.0686838,2.411,2.59043
-0.936992,-0.0686838,2.411,2.58758
-0.929166,-0.0686838,2.411,2.58476
-0.921341,-0.0686838,2.411,2.58196
-0.913515,-0.0686838,2.411,2.57918
-0.90569,-0.0686838,2.411,2.57641
-0.897864,-0.0686838,2.411,2.57367
-0.890039,-0.0686838,2.411,2.57095
-0.882213,-0.0686838,2.411,2.56826
-0.874388,-0.0686838,2.411,2.56558
-0.866562,-0.0686838,2.411,2.56292
-0.858737,-0.0686838,2.411,2.56029
-0.850911,-0.0686838,2.411,2.55767
-0.843086,-0.0686838,2.411,2.55508
-0.83526,-0.0686838,2.411,2.55251
-0.827435,-0.0686838,2.411,2.54996
-0.819609,-0.0686838,2.411,2.54743
-0.811784,-0.0686838,2.411,2.54492
-0.803958,-0.0686838,2.411,2.54244
-0.796133,-0.0686838,2.411,2.53997
-0.788307,-0.0686838,2.411,2.53753
-0.780482,-0.0686838,2.411,2.53511
-0.772656,-0.0686838,2.411,2.53271
-0.764831,-0.0686838,2.411,2.53034
-0.757005,-0.0686838,2.411,2.52798
-0.74918,-0.0686838,2.411,2.52565
-0.741354,-0.0686838,2.411,2.52334
-0.733529,-0.0686838,2.411,2.52105
-0.725703,-0.0686838,2.411,2.51879
-0.717878,-0.0686838,2.411,2.51654
-0.710052,-0.0686838,2.411,2.51432
-0.702227,-0.0686838,2.411,2.51212
-0.694401,-0.0686838,2.411,2.50995
-0.686576,-0.0686838,2.411,2.50779
-0.67875,-0.0686838,2.411,2.50566
-0.670925,-0.0686838,2.411,2.50355
-0.663099,-0.0686838,2.411,2.50147
-0.655274,-0.0686838,2.411,2.4994
-0.647448,-0.0686838,2.411,2.49736
-0.639623,-0.0686838,2.411,2.49535
-0.636252,-0.0691681,2.428,2.51093
-0.628371,-0.0691681,2.428,2.50895
-0.620491,-0.0691681,2.428,2.50699
-0.61261,-0.0691681,2.428,2.50505
-0.604729,-0.0691681,2.428,2.50313
-0.596848,-0.0691681,2.428,2.50124
-0.588968,-0.0691681,2.428,2.49937
-0.581087,-0.0691681,2.428,2.49752
-0.573206,-0.0691681,2.428,2.4957
-0.569284,-0.0696524,2.445,2.51137
-0.561348,-0.0696524,2.445,2.50958
-0.553412,-0.0696524,2.445,2.50782
-0.541684,-0.0691681,2.428,2.48865
-0.533803,-0.0691681,2.428,2.48695
-0.525922,-0.0691681,2.428,2.48527
-0.518042,-0.0691681,2.428,2.48361
-0.510161,-0.0691681,2.428,2.48198
-0.50228,-0.0691681,2.428,2.48037
-0.490938,-0.0686838,2.411,2.46143
-0.483112,-0.0686838,2.411,2.45989
-0.475287,-0.0686838,2.411,2.45836
-0.467461,-0.0686838,2.411,2.45686
-0.459636,-0.0686838,2.411,2.45538
-0.45181,-0.0686838,2.411,2.45393
-0.443985,-0.0686838,2.411,2.4525
-0.436159,-0.0686838,2.411,2.4511
-0.428334,-0.0686838,2.411,2.44972
-0.420508,-0.0686838,2.411,2.44836
-0.412683,-0.0686838,2.411,2.44703
-0.404857,-0.0686838,2.411,2.44572
-0.397032,-0.0686838,2.411,2.44444
-0.389206,-0.0686838,2.411,2.44318
-0.38407,-0.0691681,2.428,2.45916
-0.376189,-0.0691681,2.428,2.45794
-0.368309,-0.0691681,2.428,2.45675
-0.360428,-0.0691681,2.428,2.45558
-0.355016,-0.0696524,2.445,2.47162
-0.34708,-0.0696524,2.445,2.47049
-0.339144,-0.0696524,2.445,2.46939
-0.331208,-0.0696524,2.445,2.46831
-0.325652,-0.0701652,2.463,2.48543
-0.317658,-0.0701652,2.463,2.48439
-0.3074,-0.0696524,2.445,2.46523
-0.299465,-0.0696524,2.445,2.46426
-0.291529,-0.0696524,2.445,2.4633
-0.283593,-0.0696524,2.445,2.46238
-0.275657,-0.0696524,2.445,2.46148
-0.267721,-0.0696524,2.445,2.4606
-0.257979,-0.0691681,2.428,2.44265
-0.250098,-0.0691681,2.428,2.44183
-0.242218,-0.0691681,2.428,2.44103
-0.234337,-0.0691681,2.428,2.44026
-0.226456,-0.0691681,2.428,2.43952
-0.218576,-0.0691681,2.428,2.4388
-0.210695,-0.0691681,2.428,2.43811
-0.202814,-0.0691681,2.428,2.43744
-0.194934,-0.0691681,2.428,2.43679
-0.187053,-0.0691681,2.428,2.43618
-0.180427,-0.0696524,2.445,2.45264
-0.172491,-0.0696524,2.445,2.45207
-0.164555,-0.0696524,2.445,2.45152
-0.156619,-0.0696524,2.445,2.451
-0.149778,-0.0701652,2.463,2.46855
-0.141784,-0.0701652,2.463,2.46808
-0.133789,-0.0701652,2.463,2.46763
-0.125795,-0.0701652,2.463,2.46721
-0.118662,-0.0706779,2.481,2.48484
-0.110609,-0.0706779,2.481,2.48447
-0.102556,-0.0706779,2.481,2.48412
-0.0945035,-0.0706779,2.481,2.48381
-0.0864508,-0.0706779,2.481,2.48351
-0.078398,-0.0706779,2.481,2.48324
-0.0703453,-0.0706779,2.481,2.483
-0.0622926,-0.0706779,2.481,2.48279
-0.0542399,-0.0706779,2.481,2.4826
-0.0458521,-0.0701652,2.463,2.46443
-0.0378578,-0.0701652,2.463,2.46429
-0.0298635,-0.0701652,2.463,2.46418
-0.0218693,-0.0701652,2.463,2.4641
-0.013875,-0.0701652,2.463,2.46404
-0.00588068,-0.0701652,2.463,2.46401
0.0021136,-0.0701652,2.463,2.464
0.0101079,-0.0701652,2.463,2.46402
0.0179699,-0.0696524,2.445,2.44606
0.0257256,-0.0691681,2.428,2.42912
0.0336063,-0.0691681,2.428,2.42922
0.041487,-0.0691681,2.428,2.42934
0.0493677,-0.0691681,2.428,2.42949
0.0572484,-0.0691681,2.428,2.42966
0.065129,-0.0691681,2.428,2.42986
0.0730097,-0.0691681,2.428,2.43008
0.0808904,-0.0691681,2.428,2.43033
0.0887711,-0.0691681,2.428,2.43061
0.0966518,-0.0691681,2.428,2.43091
0.105264,-0.0696524,2.445,2.44826
0.1132,-0.0696524,2.445,2.44861
0.121136,-0.0696524,2.445,2.44899
0.129072,-0.0696524,2.445,2.4494
0.137008,-0.0696524,2.445,2.44983
0.144944,-0.0696524,2.445,2.45028
0.15288,-0.0696524,2.445,2.45077
0.160815,-0.0696524,2.445,2.45127
0.168751,-0.0696524,2.445,2.45181
0.176687,-0.0696524,2.445,2.45237
0.184623,-0.0696524,2.445,2.45295
0.193976,-0.0701652,2.463,2.47162
0.201971,-0.0701652,2.463,2.47226
0.209965,-0.0701652,2.463,2.47293
0.217959,-0.0701652,2.463,2.47362
0.225954,-0.0701652,2.463,2.47434
0.233948,-0.0701652,2.463,2.47508
0.24371,-0.0706779,2.481,2.49394
0.251763,-0.0706779,2.481,2.49474
0.259816,-0.0706779,2.481,2.49557
0.269812,-0.0711907,2.499,2.51453
0.277923,-0.0711907,2.499,2.51541
0.286034,-0.0711907,2.499,2.51632
0.294145,-0.0711907,2.499,2.51726
0.302256,-0.0711907,2.499,2.51822
0.310368,-0.0711907,2.499,2.51921
0.320773,-0.0717035,2.517,2.53837
0.328942,-0.0717035,2.517,2.53942
0.337112,-0.0717035,2.517,2.54049
0.345281,-0.0717035,2.517,2.54158
0.356119,-0.0722448,2.536,2.5619
0.36435,-0.0722448,2.536,2.56306
0.372581,-0.0722448,2.536,2.56424
0.380813,-0.0722448,2.536,2.56545
0.389044,-0.0722448,2.536,2.56668
0.397275,-0.0722448,2.536,2.56795
0.405506,-0.0722448,2.536,2.56923
0.413738,-0.0722448,2.536,2.57054
0.421969,-0.0722448,2.536,2.57188
0.426977,-0.0717035,2.517,2.55397
0.435146,-0.0717035,2.517,2.55534
0.443316,-0.0717035,2.517,2.55675
0.451486,-0.0717035,2.517,2.55818
0.459655,-0.0717035,2.517,2.55963
0.467825,-0.0717035,2.517,2.56111
0.475994,-0.0717035,2.517,2.56262
0.480701,-0.0711907,2.499,2.54581
0.488812,-0.0711907,2.499,2.54735
0.496924,-0.0711907,2.499,2.54892
0.505035,-0.0711907,2.499,2.55052
0.513146,-0.0711907,2.499,2.55213
0.521257,-0.0711907,2.499,2.55378
0.525555,-0.0706779,2.481,2.53704
0.533608,-0.0706779,2.481,2.53872
0.541661,-0.0706779,2.481,2.54042
0.549713,-0.0706779,2.481,2.54215
0.561813,-0.0711907,2.499,2.56236
0.569924,-0.0711907,2.499,2.56415
0.578035,-0.0711907,2.499,2.56597
0.586146,-0.0711907,2.499,2.56781
0.594257,-0.0711907,2.499,2.56967
0.602368,-0.0711907,2.499,2.57156
0.610479,-0.0711907,2.499,2.57347
0.618591,-0.0711907,2.499,2.57541
0.631216,-0.0717035,2.517,2.59593
0.639385,-0.0717035,2.517,2.59793
0.647555,-0.0717035,2.517,2.59995
0.655725,-0.0717035,2.517,2.602
0.663894,-0.0717035,2.517,2.60407
0.672064,-0.0717035,2.517,2.60617
0.680233,-0.0717035,2.517,2.60828
0.688403,-0.0717035,2.517,2.61043
0.696572,-0.0717035,2.517,2.61259
0.704742,-0.0717035,2.517,2.61478
0.712911,-0.0717035,2.517,2.617
0.721081,-0.0717035,2.517,2.61923
0.734755,-0.0722448,2.536,2.64128
0.742987,-0.0722448,2.536,2.64359
0.751218,-0.0722448,2.536,2.64591
0.759449,-0.0722448,2.536,2.64826
0.76768,-0.0722448,2.536,2.65063
0.775912,-0.0722448,2.536,2.65303
0.784143,-0.0722448,2.536,2.65545
0.792374,-0.0722448,2.536,2.65789
0.800605,-0.0722448,2.536,2.66035
0.808836,-0.0722448,2.536,2.66284
0.817068,-0.0722448,2.536,2.66535
0.825299,-0.0722448,2.536,2.66789
0.827285,-0.0717035,2.517,2.65044
0.835455,-0.0717035,2.517,2.653
0.843624,-0.0717035,2.517,2.65559
0.851794,-0.0717035,2.517,2.65819
0.853814,-0.0711907,2.499,2.64179
0.861925,-0.0711907,2.499,2.64443
0.870036,-0.0711907,2.499,2.64708
0.878147,-0.0711907,2.499,2.64976
0.886258,-0.0711907,2.499,2.65246
0.887927,-0.0706779,2.481,2.63605
0.89598,-0.0706779,2.481,2.63878
0.897474,-0.0701652,2.463,2.62236
0.905468,-0.0701652,2.463,2.6251
0.913462,-0.0701652,2.463,2.62787
0.914722,-0.0696524,2.445,2.61144
0.922658,-0.0696524,2.445,2.61423
0.930594,-0.0696524,2.445,2.61704
0.93853,-0.0696524,2.445,2.61987
0.946466,-0.0696524,2.445,2.62272
0.947766,-0.0691681,2.428,2.60734
0.955646,-0.0691681,2.428,2.61022
0.963527,-0.0691681,2.428,2.61311
0.971408,-0.0691681,2.428,2.61603
0.979289,-0.0691681,2.428,2.61896
0.987169,-0.0691681,2.428,2.62192
0.99505,-0.0691681,2.428,2.6249
1.01739,-0.0701652,2.463,2.66578
1.03288,-0.0706779,2.481,2.68834
1.04848,-0.0711907,2.499,2.71097
1.05659,-0.0711907,2.499,2.71412
1.08047,-0.0722448,2.536,2.75752
1.10501,-0.0733273,2.574,2.80212
1.11337,-0.0733273,2.574,2.80543
1.13872,-0.0744383,2.613,2.85131
1.15598,-0.0750081,2.633,2.87656
1.17381,-0.0756063,2.654,2.90298
1.18243,-0.0756063,2.654,2.90647
1.22919,-0.0780278,2.739,3.00318
1.23808,-0.0780278,2.739,3.00683
