nan,nan,nan,NaN
nan,nan,nan,NaN
-1.77893,-0.11731,2.829,3.34389
-1.76974,-0.11731,2.829,3.33901
-1.76056,-0.11731,2.829,3.33415
-1.75138,-0.11731,2.829,3.32931
-1.75698,-0.118305,2.853,3.3527
-1.74772,-0.118305,2.853,3.34785
-1.73846,-0.118305,2.853,3.34303
-1.7292,-0.118305,2.853,3.33822
-1.7344,-0.119301,2.877,3.36148
-1.72507,-0.119301,2.877,3.35667
-1.71573,-0.119301,2.877,3.35188
-1.70639,-0.119301,2.877,3.34711
-1.69705,-0.119301,2.877,3.34236
-1.68771,-0.119301,2.877,3.33763
-1.66438,-0.118305,2.853,3.30511
-1.65511,-0.118305,2.853,3.30046
-1.64585,-0.118305,2.853,3.29582
nan,nan,nan,NaN
nan,nan,nan,NaN
nan,nan,nan,NaN
nan,nan,nan,NaN
nan,nan,nan,NaN
nan,nan,nan,NaN
nan,nan,nan,NaN
nan,nan,nan,NaN
nan,nan,nan,NaN
nan,nan,nan,NaN
nan,nan,nan,NaN
nan,nan,nan,NaN
nan,nan,nan,NaN
nan,nan,nan,NaN
nan,nan,nan,NaN
nan,nan,nan,NaN
nan,nan,nan,NaN
nan,nan,nan,NaN
nan,nan,nan,NaN
nan,nan,nan,NaN
nan,nan,nan,NaN
nan,nan,nan,NaN
nan,nan,nan,NaN
-1.31383,-0.109183,2.633,2.94462
-1.30529,-0.109183,2.633,2.94081
-1.28689,-0.108353,2.613,2.91472
-1.25933,-0.106736,2.574,2.86754
-1.25098,-0.106736,2.574,2.86388
-1.24262,-0.106736,2.574,2.86024
-1.21605,-0.10516,2.536,2.81445
-1.20781,-0.10516,2.536,2.8109
-1.1906,-0.104373,2.517,2.78634
-1.17397,-0.103626,2.499,2.76296
-1.15746,-0.10288,2.481,2.73965
-1.14941,-0.10288,2.481,2.73625
-1.13308,-0.102133,2.463,2.71305
-1.11686,-0.101387,2.445,2.68992
-1.10892,-0.101387,2.445,2.68664
-1.10099,-0.101387,2.445,2.68337
-1.08545,-0.100682,2.428,2.66149
-1.07757,-0.100682,2.428,2.65829
-1.06969,-0.100682,2.428,2.6551
-1.05437,-0.099977,2.411,2.63337
-1.04655,-0.099977,2.411,2.63024
-1.03872,-0.099977,2.411,2.62714
-1.0309,-0.099977,2.411,2.62406
-1.02307,-0.099977,2.411,2.62099
-1.01525,-0.099977,2.411,2.61795
-1.00742,-0.099977,2.411,2.61492
-0.992548,-0.0992721,2.394,2.5935
-0.984778,-0.0992721,2.394,2.59054
-0.977007,-0.0992721,2.394,2.58759
-0.969237,-0.0992721,2.394,2.58467
-0.961466,-0.0992721,2.394,2.58176
-0.953696,-0.0992721,2.394,2.57888
-0.939209,-0.0985671,2.377,2.55773
-0.931494,-0.0985671,2.377,2.5549
-0.923778,-0.0985671,2.377,2.5521
-0.916063,-0.0985671,2.377,2.54932
-0.908348,-0.0985671,2.377,2.54655
-0.900633,-0.0985671,2.377,2.54381
-0.892918,-0.0985671,2.377,2.54109
-0.885203,-0.0985671,2.377,2.53839
-0.877488,-0.0985671,2.377,2.53571
-0.869772,-0.0985671,2.377,2.53305
-0.862057,-0.0985671,2.377,2.53041
-0.854342,-0.0985671,2.377,2.52779
-0.846627,-0.0985671,2.377,2.5252
-0.838912,-0.0985671,2.377,2.52262
-0.831197,-0.0985671,2.377,2.52007
-0.829371,-0.0992721,2.394,2.53554
-0.821601,-0.0992721,2.394,2.53301
-0.81383,-0.0992721,2.394,2.5305
-0.80606,-0.0992721,2.394,2.52801
-0.79829,-0.0992721,2.394,2.52554
-0.790519,-0.0992721,2.394,2.5231
-0.788307,-0.099977,2.411,2.53857
-0.780482,-0.099977,2.411,2.53615
-0.772656,-0.099977,2.411,2.53376
-0.770224,-0.100682,2.428,2.54923
-0.762343,-0.100682,2.428,2.54686
-0.754462,-0.100682,2.428,2.54451
-0.751809,-0.101387,2.445,2.55998
-0.743873,-0.101387,2.445,2.55767
-0.735937,-0.101387,2.445,2.55537
-0.728001,-0.101387,2.445,2.55309
-0.720065,-0.101387,2.445,2.55084
-0.712129,-0.101387,2.445,2.54861
-0.704194,-0.101387,2.445,2.54641
-0.696258,-0.101387,2.445,2.54422
-0.693389,-0.102133,2.463,2.56078
-0.685395,-0.102133,2.463,2.55863
-0.677401,-0.102133,2.463,2.5565
-0.669406,-0.102133,2.463,2.55439
-0.661412,-0.102133,2.463,2.55231
-0.653418,-0.102133,2.463,2.55025
-0.645424,-0.102133,2.463,2.54821
-0.637429,-0.102133,2.463,2.5462
-0.629435,-0.102133,2.463,2.54421
-0.621441,-0.102133,2.463,2.54224
-0.613446,-0.102133,2.463,2.5403
-0.609877,-0.10288,2.481,2.55693
-0.601824,-0.10288,2.481,2.55502
-0.593771,-0.10288,2.481,2.55314
-0.585719,-0.10288,2.481,2.55128
-0.577666,-0.10288,2.481,2.54944
-0.569613,-0.10288,2.481,2.54763
-0.561561,-0.10288,2.481,2.54584
-0.549492,-0.102133,2.463,2.52562
-0.541498,-0.102133,2.463,2.52389
-0.533504,-0.102133,2.463,2.52219
-0.525509,-0.102133,2.463,2.52051
-0.517515,-0.102133,2.463,2.51885
-0.509521,-0.102133,2.463,2.51722
-0.501526,-0.102133,2.463,2.51562
-0.493532,-0.102133,2.463,2.51404
-0.485538,-0.102133,2.463,2.51248
-0.477544,-0.102133,2.463,2.51095
-0.469549,-0.102133,2.463,2.50944
-0.461555,-0.102133,2.463,2.50795
-0.453561,-0.102133,2.463,2.50649
-0.445566,-0.102133,2.463,2.50506
-0.437572,-0.102133,2.463,2.50365
-0.429578,-0.102133,2.463,2.50227
-0.421584,-0.102133,2.463,2.50091
-0.416612,-0.10288,2.481,2.51784
-0.408559,-0.10288,2.481,2.51652
-0.400506,-0.10288,2.481,2.51522
-0.392454,-0.10288,2.481,2.51395
-0.384401,-0.10288,2.481,2.51271
-0.376348,-0.10288,2.481,2.51149
-0.368296,-0.10288,2.481,2.5103
-0.360243,-0.10288,2.481,2.50913
-0.35219,-0.10288,2.481,2.50798
-0.344137,-0.10288,2.481,2.50687
-0.336085,-0.10288,2.481,2.50577
-0.328032,-0.10288,2.481,2.50471
-0.319979,-0.10288,2.481,2.50366
-0.311927,-0.10288,2.481,2.50265
-0.303874,-0.10288,2.481,2.50166
-0.293675,-0.102133,2.463,2.48255
-0.285681,-0.102133,2.463,2.48162
-0.277686,-0.102133,2.463,2.48071
-0.269692,-0.102133,2.463,2.47983
-0.259785,-0.101387,2.445,2.46085
-0.251849,-0.101387,2.445,2.46003
-0.243914,-0.101387,2.445,2.45923
-0.235978,-0.101387,2.445,2.45845
-0.228042,-0.101387,2.445,2.4577
-0.220106,-0.101387,2.445,2.45698
-0.21217,-0.101387,2.445,2.45628
-0.204234,-0.101387,2.445,2.45561
-0.196298,-0.101387,2.445,2.45496
-0.188363,-0.101387,2.445,2.45434
-0.181755,-0.102133,2.463,2.47181
-0.173761,-0.102133,2.463,2.47123
-0.165766,-0.102133,2.463,2.47068
-0.158925,-0.10288,2.481,2.48821
-0.150872,-0.10288,2.481,2.48771
-0.14282,-0.10288,2.481,2.48724
-0.134767,-0.10288,2.481,2.48679
-0.127634,-0.103626,2.499,2.5044
-0.119523,-0.103626,2.499,2.504
-0.111411,-0.103626,2.499,2.50363
-0.1033,-0.103626,2.499,2.50328
-0.0958747,-0.104373,2.517,2.52099
-0.087078,-0.103626,2.499,2.50266
-0.0789668,-0.103626,2.499,2.50239
-0.0708557,-0.103626,2.499,2.50215
-0.0627446,-0.103626,2.499,2.50193
-0.0546334,-0.103626,2.499,2.50174
-0.0465223,-0.103626,2.499,2.50158
-0.0384112,-0.103626,2.499,2.50144
-0.0303,-0.103626,2.499,2.50133
-0.0221889,-0.103626,2.499,2.50125
-0.0140778,-0.103626,2.499,2.50119
-0.00592366,-0.10288,2.481,2.48314
0.00212905,-0.10288,2.481,2.48313
0.0101818,-0.10288,2.481,2.48315
0.0182345,-0.10288,2.481,2.4832
0.0262872,-0.10288,2.481,2.48327
0.0343399,-0.10288,2.481,2.48337
0.0423926,-0.10288,2.481,2.48349
0.0504453,-0.10288,2.481,2.48364
0.058498,-0.10288,2.481,2.48382
0.0665507,-0.10288,2.481,2.48402
0.0740622,-0.102133,2.463,2.46623
0.0820565,-0.102133,2.463,2.46648
0.0907089,-0.10288,2.481,2.48479
0.0987616,-0.10288,2.481,2.4851
0.106814,-0.10288,2.481,2.48543
0.114867,-0.10288,2.481,2.48579
0.12292,-0.10288,2.481,2.48617
0.130972,-0.10288,2.481,2.48658
0.139025,-0.10288,2.481,2.48702
0.147078,-0.10288,2.481,2.48748
0.155131,-0.10288,2.481,2.48797
0.161999,-0.102133,2.463,2.47043
0.169994,-0.102133,2.463,2.47097
0.177988,-0.102133,2.463,2.47153
0.187341,-0.10288,2.481,2.49019
0.195394,-0.10288,2.481,2.49081
0.203447,-0.10288,2.481,2.49145
0.2115,-0.10288,2.481,2.49212
0.219552,-0.10288,2.481,2.49282
0.227605,-0.10288,2.481,2.49354
0.235658,-0.10288,2.481,2.49429
0.24371,-0.10288,2.481,2.49506
0.251763,-0.10288,2.481,2.49586
0.259816,-0.10288,2.481,2.49669
0.267868,-0.10288,2.481,2.49754
0.275921,-0.10288,2.481,2.49842
0.283974,-0.10288,2.481,2.49932
0.292027,-0.10288,2.481,2.50025
0.300079,-0.10288,2.481,2.5012
0.308132,-0.10288,2.481,2.50218
0.316185,-0.10288,2.481,2.50318
0.324237,-0.10288,2.481,2.50421
0.33229,-0.10288,2.481,2.50527
0.340343,-0.10288,2.481,2.50635
0.348396,-0.10288,2.481,2.50745
0.356448,-0.10288,2.481,2.50859
0.364501,-0.10288,2.481,2.50974
0.375257,-0.103626,2.499,2.52914
0.383368,-0.103626,2.499,2.53036
0.391479,-0.103626,2.499,2.5316
0.39959,-0.103626,2.499,2.53287
0.407701,-0.103626,2.499,2.53416
0.415812,-0.103626,2.499,2.53548
0.423923,-0.103626,2.499,2.53682
0.432035,-0.103626,2.499,2.53819
0.440146,-0.103626,2.499,2.53958
0.448257,-0.103626,2.499,2.541
0.456368,-0.103626,2.499,2.54244
0.464479,-0.103626,2.499,2.54391
0.47259,-0.103626,2.499,2.5454
0.480701,-0.103626,2.499,2.54692
0.488812,-0.103626,2.499,2.54847
0.496924,-0.103626,2.499,2.55003
0.505035,-0.103626,2.499,2.55163
0.513146,-0.103626,2.499,2.55324
0.521257,-0.103626,2.499,2.55489
0.529368,-0.103626,2.499,2.55655
0.541351,-0.104373,2.517,2.57667
0.54952,-0.104373,2.517,2.5784
0.55769,-0.104373,2.517,2.58016
0.565859,-0.104373,2.517,2.58193
0.574029,-0.104373,2.517,2.58374
0.582199,-0.104373,2.517,2.58556
0.590368,-0.104373,2.517,2.58742
0.598538,-0.104373,2.517,2.58929
0.606707,-0.104373,2.517,2.59119
0.619518,-0.10516,2.536,2.61269
0.627749,-0.10516,2.536,2.61466
0.635981,-0.10516,2.536,2.61664
0.644212,-0.10516,2.536,2.61866
0.652443,-0.10516,2.536,2.62069
0.660674,-0.10516,2.536,2.62276
0.668906,-0.10516,2.536,2.62484
0.677137,-0.10516,2.536,2.62695
0.685368,-0.10516,2.536,2.62908
0.693599,-0.10516,2.536,2.63124
0.70183,-0.10516,2.536,2.63342
0.710062,-0.10516,2.536,2.63563
0.718293,-0.10516,2.536,2.63786
0.726524,-0.10516,2.536,2.64011
0.734755,-0.10516,2.536,2.64239
0.742987,-0.10516,2.536,2.64469
0.751218,-0.10516,2.536,2.64701
0.759449,-0.10516,2.536,2.64936
0.76768,-0.10516,2.536,2.65173
0.775912,-0.10516,2.536,2.65413
0.784143,-0.10516,2.536,2.65655
0.792374,-0.10516,2.536,2.65899
0.800605,-0.10516,2.536,2.66145
0.802777,-0.104373,2.517,2.64398
0.810946,-0.104373,2.517,2.64647
0.819116,-0.104373,2.517,2.64899
0.83353,-0.10516,2.536,2.67154
0.841761,-0.10516,2.536,2.67412
0.849993,-0.10516,2.536,2.67672
0.858224,-0.10516,2.536,2.67935
0.859963,-0.104373,2.517,2.6619
0.868133,-0.104373,2.517,2.66455
0.876303,-0.104373,2.517,2.66723
0.884472,-0.104373,2.517,2.66992
0.892642,-0.104373,2.517,2.67264
0.894369,-0.103626,2.499,2.65624
0.90248,-0.103626,2.499,2.65899
0.910591,-0.103626,2.499,2.66175
0.912085,-0.10288,2.481,2.64534
0.913462,-0.102133,2.463,2.62892
0.914722,-0.101387,2.445,2.61247
0.922658,-0.101387,2.445,2.61526
0.930594,-0.101387,2.445,2.61807
0.932004,-0.100682,2.428,2.60268
0.939885,-0.100682,2.428,2.60551
0.94113,-0.099977,2.411,2.5901
0.942264,-0.0992721,2.394,2.57468
0.950035,-0.0992721,2.394,2.57753
0.957805,-0.0992721,2.394,2.5804
0.965575,-0.0992721,2.394,2.5833
0.973346,-0.0992721,2.394,2.58621
0.981116,-0.0992721,2.394,2.58915
1.00293,-0.100682,2.428,2.62891
1.02538,-0.102133,2.463,2.66987
1.04848,-0.103626,2.499,2.71202
1.05659,-0.103626,2.499,2.71517
1.09666,-0.106736,2.574,2.79992
1.13936,-0.110053,2.654,2.89032
1.14797,-0.110053,2.654,2.89373
1.20321,-0.11449,2.761,3.01396
1.25257,-0.118305,2.853,3.1181
1.31667,-0.123447,2.977,3.25751
1.32633,-0.123447,2.977,3.26143
1.38401,-0.127884,3.084,3.38274
1.40668,-0.129045,3.112,3.41759
1.41678,-0.129045,3.112,3.42176
1.44018,-0.130248,3.141,3.45788
1.46376,-0.13145,3.17,3.49411
1.47405,-0.13145,3.17,3.49843
1.48434,-0.13145,3.17,3.50278
1.48096,-0.130248,3.141,3.47507
1.49115,-0.130248,3.141,3.47942
1.50135,-0.130248,3.141,3.4838
1.5255,-0.13145,3.17,3.52042
1.53579,-0.13145,3.17,3.52489
1.54608,-0.13145,3.17,3.52938
1.55636,-0.13145,3.17,3.5339
1.56665,-0.13145,3.17,3.53844
1.57694,-0.13145,3.17,3.54301
1.58723,-0.13145,3.17,3.5476
1.61213,-0.132653,3.199,3.58471
1.62252,-0.132653,3.199,3.5894
1.6329,-0.132653,3.199,3.5941
1.65921,-0.133939,3.23,3.63371
1.70174,-0.136509,3.292,3.70835
1.71243,-0.136509,3.292,3.71326
1.72311,-0.136509,3.292,3.7182
1.75065,-0.137836,3.324,3.75936
1.76144,-0.137836,3.324,3.76439
1.78929,-0.139163,3.356,3.80574
1.81788,-0.140532,3.389,3.84835
1.82888,-0.140532,3.389,3.85356
1.83988,-0.140532,3.389,3.85879
1.86945,-0.141942,3.423,3.90281
1.89979,-0.143393,3.458,3.94811
1.89167,-0.141942,3.423,3.9135
1.90278,-0.141942,3.423,3.91888
1.91389,-0.141942,3.423,3.92429
1.925,-0.141942,3.423,3.92972
1.91688,-0.140532,3.389,3.89609
1.92788,-0.140532,3.389,3.90151
1.92,-0.139163,3.356,3.86892
1.91248,-0.137836,3.324,3.83739
1.90476,-0.136509,3.292,3.80579
1.91544,-0.136509,3.292,3.81114
1.9074,-0.135182,3.26,3.77943
1.90034,-0.133939,3.23,3.74995
1.91082,-0.133939,3.23,3.75527
1.90286,-0.132653,3.199,3.72453
1.8959,-0.13145,3.17,3.69603
1.90619,-0.13145,3.17,3.70132
1.88142,-0.129045,3.112,3.63881
1.8745,-0.127884,3.084,3.61125
1.88451,-0.127884,3.084,3.61646
1.87793,-0.126765,3.057,3.58998
1.85451,-0.124525,3.003,3.53167
1.86425,-0.124525,3.003,3.5368
1.85777,-0.123447,2.977,3.51128
1.85113,-0.122369,2.951,3.48569
1.86071,-0.122369,2.951,3.49079
1.85444,-0.121333,2.926,3.46629
1.83272,-0.119301,2.877,3.41324
1.82669,-0.118305,2.853,3.38975
1.83595,-0.118305,2.853,3.39475
1.82969,-0.11731,2.829,3.37117
1.82392,-0.116356,2.806,3.34871
1.83303,-0.116356,2.806,3.35368
1.82704,-0.115403,2.783,3.33114
1.83607,-0.115403,2.783,3.3361
1.84511,-0.115403,2.783,3.34108
1.82482,-0.113578,2.739,3.29318
1.81899,-0.112666,2.717,3.27162
1.8278,-0.112666,2.717,3.27653
1.80823,-0.110924,2.675,3.23073
1.78839,-0.109183,2.633,3.1848
-2.04721,-0.112794,2.951,3.59335
-2.02036,-0.111838,2.926,3.55751
-2.01087,-0.111838,2.926,3.55212
-2.00137,-0.111838,2.926,3.54675
-1.97485,-0.110883,2.901,3.51115
-1.96544,-0.110883,2.901,3.50586
-1.92366,-0.109048,2.853,3.44267
-1.9144,-0.109048,2.853,3.4375
-1.90514,-0.109048,2.853,3.43235
-1.89588,-0.109048,2.853,3.42722
-1.87075,-0.108131,2.829,3.39332
-1.86157,-0.108131,2.829,3.38827
-1.85238,-0.108131,2.829,3.38323
-1.8432,-0.108131,2.829,3.37821
nan,nan,nan,NaN
nan,nan,nan,NaN
-1.78613,-0.106372,2.783,3.30858
-1.7771,-0.106372,2.783,3.30371
nan,nan,nan,NaN
nan,nan,nan,NaN
-1.77893,-0.108131,2.829,3.34358
-1.76974,-0.108131,2.829,3.3387
-1.76056,-0.108131,2.829,3.33384
-1.75138,-0.108131,2.829,3.329
-1.75698,-0.109048,2.853,3.35238
-1.74772,-0.109048,2.853,3.34754
-1.73846,-0.109048,2.853,3.34271
-1.7292,-0.109048,2.853,3.33791
-1.71994,-0.109048,2.853,3.33312
-1.71068,-0.109048,2.853,3.32835
-1.71573,-0.109965,2.877,3.35156
-1.70639,-0.109965,2.877,3.34679
-1.69705,-0.109965,2.877,3.34204
-1.68771,-0.109965,2.877,3.3373
-1.66438,-0.109048,2.853,3.30479
-1.65511,-0.109048,2.853,3.30014
-1.64585,-0.109048,2.853,3.2955
-1.63659,-0.109048,2.853,3.29089
nan,nan,nan,NaN
nan,nan,nan,NaN
nan,nan,nan,NaN
nan,nan,nan,NaN
nan,nan,nan,NaN
nan,nan,nan,NaN
nan,nan,nan,NaN
nan,nan,nan,NaN
nan,nan,nan,NaN
nan,nan,nan,NaN
nan,nan,nan,NaN
nan,nan,nan,NaN
nan,nan,nan,NaN
nan,nan,nan,NaN
nan,nan,nan,NaN
nan,nan,nan,NaN
nan,nan,nan,NaN
nan,nan,nan,NaN
nan,nan,nan,NaN
nan,nan,nan,NaN
nan,nan,nan,NaN
nan,nan,nan,NaN
-1.31383,-0.100639,2.633,2.94431
-1.30529,-0.100639,2.633,2.94051
-1.28689,-0.0998746,2.613,2.91442
-1.25933,-0.0983839,2.574,2.86724
-1.25098,-0.0983839,2.574,2.86358
-1.24262,-0.0983839,2.574,2.85994
-1.22516,-0.0976577,2.555,2.83524
-1.21686,-0.0976577,2.555,2.83166
-1.20857,-0.0976577,2.555,2.82811
-1.18243,-0.0962052,2.517,2.78257
-1.16586,-0.0955173,2.499,2.75923
-1.15775,-0.0955173,2.499,2.75581
-1.14136,-0.0948293,2.481,2.73259
-1.12508,-0.0941413,2.463,2.70944
-1.11709,-0.0941413,2.463,2.70613
-1.10099,-0.0934533,2.445,2.68308
-1.09305,-0.0934533,2.445,2.67984
-1.08512,-0.0934533,2.445,2.67661
-1.06969,-0.0928035,2.428,2.65481
-1.06181,-0.0928035,2.428,2.65165
-1.05393,-0.0928035,2.428,2.6485
-1.03872,-0.0921537,2.411,2.62685
-1.0309,-0.0921537,2.411,2.62377
-1.01586,-0.0915039,2.394,2.60223
-1.00809,-0.0915039,2.394,2.5992
-1.00032,-0.0915039,2.394,2.5962
-0.992548,-0.0915039,2.394,2.59321
-0.984778,-0.0915039,2.394,2.59025
-0.977007,-0.0915039,2.394,2.58731
-0.969237,-0.0915039,2.394,2.58438
-0.961466,-0.0915039,2.394,2.58148
-0.953696,-0.0915039,2.394,2.57859
-0.939209,-0.0908541,2.377,2.55744
-0.931494,-0.0908541,2.377,2.55462
-0.923778,-0.0908541,2.377,2.55181
-0.916063,-0.0908541,2.377,2.54903
-0.908348,-0.0908541,2.377,2.54627
-0.900633,-0.0908541,2.377,2.54353
-0.892918,-0.0908541,2.377,2.5408
-0.885203,-0.0908541,2.377,2.5381
-0.877488,-0.0908541,2.377,2.53542
-0.869772,-0.0908541,2.377,2.53276
-0.862057,-0.0908541,2.377,2.53012
-0.854342,-0.0908541,2.377,2.52751
-0.846627,-0.0908541,2.377,2.52491
-0.838912,-0.0908541,2.377,2.52233
-0.831197,-0.0908541,2.377,2.51978
-0.829371,-0.0915039,2.394,2.53524
-0.821601,-0.0915039,2.394,2.53271
-0.81383,-0.0915039,2.394,2.5302
-0.80606,-0.0915039,2.394,2.52771
-0.79829,-0.0915039,2.394,2.52525
-0.790519,-0.0915039,2.394,2.5228
-0.788307,-0.0921537,2.411,2.53828
-0.780482,-0.0921537,2.411,2.53586
-0.778104,-0.0928035,2.428,2.55132
-0.770224,-0.0928035,2.428,2.54893
-0.767681,-0.0934533,2.445,2.56439
-0.759745,-0.0934533,2.445,2.56202
-0.751809,-0.0934533,2.445,2.55968
-0.743873,-0.0934533,2.445,2.55736
-0.735937,-0.0934533,2.445,2.55507
-0.728001,-0.0934533,2.445,2.55279
-0.725366,-0.0941413,2.463,2.56932
-0.717372,-0.0941413,2.463,2.56707
-0.709378,-0.0941413,2.463,2.56485
-0.701384,-0.0941413,2.463,2.56265
-0.693389,-0.0941413,2.463,2.56047
-0.685395,-0.0941413,2.463,2.55832
-0.677401,-0.0941413,2.463,2.55619
-0.669406,-0.0941413,2.463,2.55408
-0.661412,-0.0941413,2.463,2.552
-0.653418,-0.0941413,2.463,2.54994
-0.645424,-0.0941413,2.463,2.5479
-0.637429,-0.0941413,2.463,2.54589
-0.634035,-0.0948293,2.481,2.56249
-0.625982,-0.0948293,2.481,2.56051
-0.61793,-0.0948293,2.481,2.55855
-0.609877,-0.0948293,2.481,2.55662
-0.601824,-0.0948293,2.481,2.55471
-0.593771,-0.0948293,2.481,2.55283
-0.585719,-0.0948293,2.481,2.55096
-0.577666,-0.0948293,2.481,2.54913
-0.569613,-0.0948293,2.481,2.54732
-0.561561,-0.0948293,2.481,2.54553
-0.549492,-0.0941413,2.463,2.52531
-0.541498,-0.0941413,2.463,2.52358
-0.533504,-0.0941413,2.463,2.52188
-0.525509,-0.0941413,2.463,2.5202
-0.517515,-0.0941413,2.463,2.51854
-0.509521,-0.0941413,2.463,2.51691
-0.501526,-0.0941413,2.463,2.51531
-0.493532,-0.0941413,2.463,2.51372
-0.485538,-0.0941413,2.463,2.51217
-0.477544,-0.0941413,2.463,2.51063
-0.469549,-0.0941413,2.463,2.50912
-0.461555,-0.0941413,2.463,2.50764
-0.453561,-0.0941413,2.463,2.50618
-0.445566,-0.0941413,2.463,2.50475
-0.437572,-0.0941413,2.463,2.50334
-0.429578,-0.0941413,2.463,2.50195
-0.421584,-0.0941413,2.463,2.50059
-0.416612,-0.0948293,2.481,2.51752
-0.408559,-0.0948293,2.481,2.5162
-0.400506,-0.0948293,2.481,2.51491
-0.392454,-0.0948293,2.481,2.51364
-0.384401,-0.0948293,2.481,2.51239
-0.376348,-0.0948293,2.481,2.51117
-0.370968,-0.0955173,2.499,2.52819
-0.362857,-0.0955173,2.499,2.52701
-0.354745,-0.0955173,2.499,2.52586
-0.346634,-0.0955173,2.499,2.52473
-0.338523,-0.0955173,2.499,2.52363
-0.330412,-0.0955173,2.499,2.52256
-0.322301,-0.0955173,2.499,2.52151
-0.311927,-0.0948293,2.481,2.50233
-0.303874,-0.0948293,2.481,2.50134
-0.295821,-0.0948293,2.481,2.50037
-0.287769,-0.0948293,2.481,2.49943
-0.279716,-0.0948293,2.481,2.49852
-0.269692,-0.0941413,2.463,2.47951
-0.261698,-0.0941413,2.463,2.47865
-0.253704,-0.0941413,2.463,2.47782
-0.245709,-0.0941413,2.463,2.47702
-0.235978,-0.0934533,2.445,2.45814
-0.228042,-0.0934533,2.445,2.45739
-0.220106,-0.0934533,2.445,2.45667
-0.21217,-0.0934533,2.445,2.45597
-0.205738,-0.0941413,2.463,2.47337
-0.197744,-0.0941413,2.463,2.47272
-0.189749,-0.0941413,2.463,2.47209
-0.181755,-0.0941413,2.463,2.47149
-0.175031,-0.0948293,2.481,2.48897
-0.166978,-0.0948293,2.481,2.48842
-0.158925,-0.0948293,2.481,2.48789
-0.151967,-0.0955173,2.499,2.50544
-0.143856,-0.0955173,2.499,2.50496
-0.135745,-0.0955173,2.499,2.50451
-0.127634,-0.0955173,2.499,2.50408
-0.120383,-0.0962052,2.517,2.52171
-0.111411,-0.0955173,2.499,2.50331
-0.1033,-0.0955173,2.499,2.50296
-0.0958747,-0.0962052,2.517,2.52066
-0.087078,-0.0955173,2.499,2.50234
-0.0789668,-0.0955173,2.499,2.50207
-0.0708557,-0.0955173,2.499,2.50183
-0.0627446,-0.0955173,2.499,2.50161
-0.0546334,-0.0955173,2.499,2.50142
-0.0465223,-0.0955173,2.499,2.50126
-0.0384112,-0.0955173,2.499,2.50112
-0.0303,-0.0955173,2.499,2.50101
-0.0221889,-0.0955173,2.499,2.50092
-0.0140778,-0.0955173,2.499,2.50086
-0.00592366,-0.0948293,2.481,2.48282
0.00212905,-0.0948293,2.481,2.48281
0.0101818,-0.0948293,2.481,2.48283
0.0182345,-0.0948293,2.481,2.48288
0.0262872,-0.0948293,2.481,2.48295
0.0343399,-0.0948293,2.481,2.48305
0.0423926,-0.0948293,2.481,2.48317
0.0504453,-0.0948293,2.481,2.48332
0.058498,-0.0948293,2.481,2.4835
0.0665507,-0.0948293,2.481,2.4837
0.0740622,-0.0941413,2.463,2.46591
0.0820565,-0.0941413,2.463,2.46616
0.0900507,-0.0941413,2.463,2.46644
0.098045,-0.0941413,2.463,2.46675
0.106039,-0.0941413,2.463,2.46708
0.114867,-0.0948293,2.481,2.48547
0.12292,-0.0948293,2.481,2.48585
0.130972,-0.0948293,2.481,2.48626
0.139025,-0.0948293,2.481,2.4867
0.147078,-0.0948293,2.481,2.48716
0.155131,-0.0948293,2.481,2.48765
0.161999,-0.0941413,2.463,2.47012
0.169994,-0.0941413,2.463,2.47065
0.177988,-0.0941413,2.463,2.47122
0.187341,-0.0948293,2.481,2.48987
0.195394,-0.0948293,2.481,2.49049
0.203447,-0.0948293,2.481,2.49113
0.2115,-0.0948293,2.481,2.4918
0.219552,-0.0948293,2.481,2.4925
0.227605,-0.0948293,2.481,2.49322
0.235658,-0.0948293,2.481,2.49397
0.24371,-0.0948293,2.481,2.49474
0.251763,-0.0948293,2.481,2.49554
0.259816,-0.0948293,2.481,2.49637
0.267868,-0.0948293,2.481,2.49722
0.275921,-0.0948293,2.481,2.4981
0.283974,-0.0948293,2.481,2.499
0.292027,-0.0948293,2.481,2.49993
0.300079,-0.0948293,2.481,2.50088
0.308132,-0.0948293,2.481,2.50186
0.316185,-0.0948293,2.481,2.50286
0.324237,-0.0948293,2.481,2.50389
0.33229,-0.0948293,2.481,2.50495
0.340343,-0.0948293,2.481,2.50603
0.348396,-0.0948293,2.481,2.50714
0.356448,-0.0948293,2.481,2.50827
0.364501,-0.0948293,2.481,2.50943
0.375257,-0.0955173,2.499,2.52882
0.383368,-0.0955173,2.499,2.53004
0.391479,-0.0955173,2.499,2.53128
0.39959,-0.0955173,2.499,2.53255
0.407701,-0.0955173,2.499,2.53384
0.415812,-0.0955173,2.499,2.53516
0.423923,-0.0955173,2.499,2.5365
0.432035,-0.0955173,2.499,2.53787
0.440146,-0.0955173,2.499,2.53926
0.448257,-0.0955173,2.499,2.54068
0.456368,-0.0955173,2.499,2.54212
0.464479,-0.0955173,2.499,2.54359
0.47259,-0.0955173,2.499,2.54509
0.480701,-0.0955173,2.499,2.54661
0.488812,-0.0955173,2.499,2.54815
0.496924,-0.0955173,2.499,2.54972
0.505035,-0.0955173,2.499,2.55131
0.513146,-0.0955173,2.499,2.55293
0.521257,-0.0955173,2.499,2.55457
0.529368,-0.0955173,2.499,2.55624
0.541351,-0.0962052,2.517,2.57636
0.54952,-0.0962052,2.517,2.57808
0.55769,-0.0962052,2.517,2.57984
0.565859,-0.0962052,2.517,2.58162
0.574029,-0.0962052,2.517,2.58342
0.582199,-0.0962052,2.517,2.58525
0.594824,-0.0969315,2.536,2.60663
0.603056,-0.0969315,2.536,2.60852
0.611287,-0.0969315,2.536,2.61043
0.619518,-0.0969315,2.536,2.61237
0.627749,-0.0969315,2.536,2.61434
0.635981,-0.0969315,2.536,2.61633
0.644212,-0.0969315,2.536,2.61834
0.652443,-0.0969315,2.536,2.62038
0.660674,-0.0969315,2.536,2.62244
0.668906,-0.0969315,2.536,2.62452
0.677137,-0.0969315,2.536,2.62663
0.685368,-0.0969315,2.536,2.62877
0.693599,-0.0969315,2.536,2.63093
0.70183,-0.0969315,2.536,2.63311
0.710062,-0.0969315,2.536,2.63531
0.718293,-0.0969315,2.536,2.63754
0.726524,-0.0969315,2.536,2.6398
0.734755,-0.0969315,2.536,2.64207
0.742987,-0.0969315,2.536,2.64438
0.751218,-0.0969315,2.536,2.6467
0.759449,-0.0969315,2.536,2.64905
0.76768,-0.0969315,2.536,2.65142
0.775912,-0.0969315,2.536,2.65381
0.784143,-0.0969315,2.536,2.65623
0.792374,-0.0969315,2.536,2.65867
0.800605,-0.0969315,2.536,2.66114
0.808836,-0.0969315,2.536,2.66363
0.817068,-0.0969315,2.536,2.66614
0.825299,-0.0969315,2.536,2.66867
0.83353,-0.0969315,2.536,2.67123
0.841761,-0.0969315,2.536,2.67381
0.849993,-0.0969315,2.536,2.67641
0.858224,-0.0969315,2.536,2.67904
0.859963,-0.0962052,2.517,2.66159
0.868133,-0.0962052,2.517,2.66424
0.876303,-0.0962052,2.517,2.66692
0.884472,-0.0962052,2.517,2.66961
0.892642,-0.0962052,2.517,2.67233
0.894369,-0.0955173,2.499,2.65594
0.90248,-0.0955173,2.499,2.65868
0.910591,-0.0955173,2.499,2.66145
0.912085,-0.0948293,2.481,2.64504
0.913462,-0.0941413,2.463,2.62862
0.914722,-0.0934533,2.445,2.61218
0.922658,-0.0934533,2.445,2.61497
0.924124,-0.0928035,2.428,2.59958
0.925479,-0.0921537,2.411,2.58417
0.933304,-0.0921537,2.411,2.58698
0.94113,-0.0921537,2.411,2.58981
0.942264,-0.0915039,2.394,2.57439
0.950035,-0.0915039,2.394,2.57724
0.957805,-0.0915039,2.394,2.58012
0.965575,-0.0915039,2.394,2.58301
0.973346,-0.0915039,2.394,2.58593
0.981116,-0.0915039,2.394,2.58886
1.00293,-0.0928035,2.428,2.62862
1.02538,-0.0941413,2.463,2.66958
1.04848,-0.0955173,2.499,2.71172
1.05659,-0.0955173,2.499,2.71487
1.09666,-0.0983839,2.574,2.79961
1.13936,-0.101442,2.654,2.89001
1.14797,-0.101442,2.654,2.89341
1.20321,-0.105531,2.761,3.01363
1.25257,-0.109048,2.853,3.11776
1.31667,-0.113787,2.977,3.25716
1.32633,-0.113787,2.977,3.26108
1.38401,-0.117877,3.084,3.38237
1.40668,-0.118947,3.112,3.41723
1.41678,-0.118947,3.112,3.4214
1.44018,-0.120056,3.141,3.45751
1.46376,-0.121164,3.17,3.49373
1.47405,-0.121164,3.17,3.49806
1.48434,-0.121164,3.17,3.50241
1.48096,-0.120056,3.141,3.4747
1.49115,-0.120056,3.141,3.47906
1.50135,-0.120056,3.141,3.48344
1.5255,-0.121164,3.17,3.52005
1.53579,-0.121164,3.17,3.52452
1.54608,-0.121164,3.17,3.52901
1.55636,-0.121164,3.17,3.53353
1.56665,-0.121164,3.17,3.53808
1.57694,-0.121164,3.17,3.54264
1.58723,-0.121164,3.17,3.54724
1.61213,-0.122273,3.199,3.58435
1.62252,-0.122273,3.199,3.58903
1.6329,-0.122273,3.199,3.59373
1.65921,-0.123458,3.23,3.63333
1.70174,-0.125827,3.292,3.70797
1.71243,-0.125827,3.292,3.71288
1.72311,-0.125827,3.292,3.71782
1.75065,-0.127051,3.324,3.75898
1.76144,-0.127051,3.324,3.76401
1.78929,-0.128274,3.356,3.80536
1.81788,-0.129535,3.389,3.84796
1.82888,-0.129535,3.389,3.85317
1.83988,-0.129535,3.389,3.8584
1.86945,-0.130835,3.423,3.90242
1.89979,-0.132172,3.458,3.94771
1.89167,-0.130835,3.423,3.91312
1.90278,-0.130835,3.423,3.9185
1.91389,-0.130835,3.423,3.92391
1.925,-0.130835,3.423,3.92934
1.91688,-0.129535,3.389,3.89571
1.92788,-0.129535,3.389,3.90113
1.92,-0.128274,3.356,3.86854
1.91248,-0.127051,3.324,3.83702
1.90476,-0.125827,3.292,3.80542
1.91544,-0.125827,3.292,3.81078
1.9074,-0.124604,3.26,3.77906
1.90034,-0.123458,3.23,3.74959
1.91082,-0.123458,3.23,3.75491
1.88561,-0.121164,3.17,3.69041
1.86121,-0.118947,3.112,3.62806
1.87131,-0.118947,3.112,3.63325
1.86449,-0.117877,3.084,3.60573
1.85809,-0.116845,3.057,3.5793
1.86801,-0.116845,3.057,3.58446
1.84476,-0.114781,3.003,3.52623
1.83845,-0.113787,2.977,3.50077
1.84811,-0.113787,2.977,3.50585
1.82595,-0.111838,2.926,3.45081
1.83545,-0.111838,2.926,3.45584
1.84494,-0.111838,2.926,3.4609
1.8386,-0.110883,2.901,3.43635
1.81743,-0.109048,2.853,3.38446
1.81133,-0.108131,2.829,3.36093
1.82051,-0.108131,2.829,3.36589
1.81482,-0.107251,2.806,3.34346
1.80897,-0.106372,2.783,3.32096
1.81801,-0.106372,2.783,3.32589
1.82704,-0.106372,2.783,3.33084
1.82156,-0.105531,2.761,3.30943
1.83052,-0.105531,2.761,3.31437
1.82482,-0.104691,2.739,3.29288
1.80493,-0.103047,2.696,3.24604
1.81368,-0.103047,2.696,3.25092
1.79404,-0.101442,2.654,3.20509
1.78839,-0.100639,2.633,3.18452
-2.02986,-0.102344,2.926,3.56262
-2.0031,-0.101469,2.901,3.52683
-1.99369,-0.101469,2.901,3.52149
-1.98427,-0.101469,2.901,3.51617
-1.95852,-0.10063,2.877,3.48182
-1.94918,-0.10063,2.877,3.47657
-1.92366,-0.0997904,2.853,3.44239
-1.9144,-0.0997904,2.853,3.43722
-1.90514,-0.0997904,2.853,3.43207
-1.87993,-0.0989509,2.829,3.39811
-1.87075,-0.0989509,2.829,3.39304
-1.84643,-0.0981465,2.806,3.36044
-1.83732,-0.0981465,2.806,3.35545
-1.82822,-0.0981465,2.806,3.35047
-1.81911,-0.0981465,2.806,3.34551
-1.81,-0.0981465,2.806,3.34056
-1.80089,-0.0981465,2.806,3.33564
nan,nan,nan,NaN
nan,nan,nan,NaN
nan,nan,nan,NaN
nan,nan,nan,NaN
-1.78476,-0.0997904,2.853,3.36674
-1.76056,-0.0989509,2.829,3.33356
-1.75138,-0.0989509,2.829,3.32872
-1.75698,-0.0997904,2.853,3.35209
-1.74772,-0.0997904,2.853,3.34725
-1.73846,-0.0997904,2.853,3.34242
-1.7292,-0.0997904,2.853,3.33762
-1.71994,-0.0997904,2.853,3.33283
-1.71068,-0.0997904,2.853,3.32806
-1.71573,-0.10063,2.877,3.35127
-1.70639,-0.10063,2.877,3.34649
-1.69705,-0.10063,2.877,3.34174
-1.68771,-0.10063,2.877,3.33701
-1.66438,-0.0997904,2.853,3.3045
-1.65511,-0.0997904,2.853,3.29984
-1.64585,-0.0997904,2.853,3.29521
-1.63659,-0.0997904,2.853,3.29059
nan,nan,nan,NaN
nan,nan,nan,NaN
nan,nan,nan,NaN
nan,nan,nan,NaN
nan,nan,nan,NaN
nan,nan,nan,NaN
nan,nan,nan,NaN
nan,nan,nan,NaN
nan,nan,nan,NaN
nan,nan,nan,NaN
nan,nan,nan,NaN
nan,nan,nan,NaN
nan,nan,nan,NaN
nan,nan,nan,NaN
nan,nan,nan,NaN
nan,nan,nan,NaN
nan,nan,nan,NaN
nan,nan,nan,NaN
nan,nan,nan,NaN
nan,nan,nan,NaN
nan,nan,nan,NaN
nan,nan,nan,NaN
nan,nan,nan,NaN
nan,nan,nan,NaN
-1.29674,-0.0920954,2.633,2.93645
-1.27841,-0.0913958,2.613,2.91041
-1.26993,-0.0913958,2.613,2.90669
-1.25179,-0.0906963,2.593,2.88077
-1.23427,-0.0900317,2.574,2.85605
-1.22591,-0.0900317,2.574,2.85245
-1.21756,-0.0900317,2.574,2.84886
-1.19135,-0.0887026,2.536,2.8033
-1.17426,-0.088038,2.517,2.77883
-1.16609,-0.088038,2.517,2.77539
-1.14964,-0.0874084,2.499,2.75215
-1.12508,-0.0861492,2.463,2.70917
-1.11709,-0.0861492,2.463,2.70586
-1.10909,-0.0861492,2.463,2.70257
-1.09305,-0.0855196,2.445,2.67957
-1.08512,-0.0855196,2.445,2.67634
-1.06969,-0.084925,2.428,2.65455
-1.06181,-0.084925,2.428,2.65138
-1.05393,-0.084925,2.428,2.64824
-1.03872,-0.0843304,2.411,2.62659
-1.0309,-0.0843304,2.411,2.62351
-1.01586,-0.0837358,2.394,2.60196
-1.00809,-0.0837358,2.394,2.59894
-1.00032,-0.0837358,2.394,2.59594
-0.992548,-0.0837358,2.394,2.59295
-0.984778,-0.0837358,2.394,2.58999
-0.977007,-0.0837358,2.394,2.58704
-0.969237,-0.0837358,2.394,2.58412
-0.961466,-0.0837358,2.394,2.58121
-0.953696,-0.0837358,2.394,2.57833
-0.939209,-0.0831412,2.377,2.55718
-0.931494,-0.0831412,2.377,2.55435
-0.923778,-0.0831412,2.377,2.55155
-0.916063,-0.0831412,2.377,2.54877
-0.908348,-0.0831412,2.377,2.546
-0.900633,-0.0831412,2.377,2.54326
-0.892918,-0.0831412,2.377,2.54054
-0.885203,-0.0831412,2.377,2.53784
-0.877488,-0.0831412,2.377,2.53516
-0.869772,-0.0831412,2.377,2.5325
-0.862057,-0.0831412,2.377,2.52986
-0.854342,-0.0831412,2.377,2.52724
-0.846627,-0.0831412,2.377,2.52464
-0.838912,-0.0831412,2.377,2.52207
-0.831197,-0.0831412,2.377,2.51951
-0.829371,-0.0837358,2.394,2.53498
-0.821601,-0.0837358,2.394,2.53244
-0.81383,-0.0837358,2.394,2.52993
-0.80606,-0.0837358,2.394,2.52745
-0.79829,-0.0837358,2.394,2.52498
-0.796133,-0.0843304,2.411,2.54044
-0.788307,-0.0843304,2.411,2.538
-0.780482,-0.0843304,2.411,2.53558
-0.778104,-0.084925,2.428,2.55105
-0.770224,-0.084925,2.428,2.54865
-0.767681,-0.0855196,2.445,2.56411
-0.759745,-0.0855196,2.445,2.56175
-0.751809,-0.0855196,2.445,2.55941
-0.743873,-0.0855196,2.445,2.55709
-0.735937,-0.0855196,2.445,2.55479
-0.728001,-0.0855196,2.445,2.55251
-0.725366,-0.0861492,2.463,2.56904
-0.717372,-0.0861492,2.463,2.56679
-0.709378,-0.0861492,2.463,2.56457
-0.701384,-0.0861492,2.463,2.56237
-0.693389,-0.0861492,2.463,2.56019
-0.685395,-0.0861492,2.463,2.55804
-0.677401,-0.0861492,2.463,2.55591
-0.669406,-0.0861492,2.463,2.5538
-0.661412,-0.0861492,2.463,2.55172
-0.653418,-0.0861492,2.463,2.54966
-0.65014,-0.0867788,2.481,2.56624
-0.642088,-0.0867788,2.481,2.56421
-0.634035,-0.0867788,2.481,2.5622
-0.625982,-0.0867788,2.481,2.56022
-0.61793,-0.0867788,2.481,2.55827
-0.609877,-0.0867788,2.481,2.55633
-0.601824,-0.0867788,2.481,2.55442
-0.593771,-0.0867788,2.481,2.55254
-0.585719,-0.0867788,2.481,2.55068
-0.577666,-0.0867788,2.481,2.54884
-0.569613,-0.0867788,2.481,2.54703
-0.561561,-0.0867788,2.481,2.54524
-0.549492,-0.0861492,2.463,2.52502
-0.541498,-0.0861492,2.463,2.52329
-0.533504,-0.0861492,2.463,2.52159
-0.525509,-0.0861492,2.463,2.51991
-0.517515,-0.0861492,2.463,2.51826
-0.509521,-0.0861492,2.463,2.51663
-0.501526,-0.0861492,2.463,2.51502
-0.493532,-0.0861492,2.463,2.51344
-0.485538,-0.0861492,2.463,2.51188
-0.477544,-0.0861492,2.463,2.51035
-0.469549,-0.0861492,2.463,2.50884
-0.461555,-0.0861492,2.463,2.50735
-0.453561,-0.0861492,2.463,2.50589
-0.445566,-0.0861492,2.463,2.50446
-0.437572,-0.0861492,2.463,2.50305
-0.429578,-0.0861492,2.463,2.50167
-0.421584,-0.0861492,2.463,2.5003
-0.416612,-0.0867788,2.481,2.51723
-0.408559,-0.0867788,2.481,2.51591
-0.400506,-0.0867788,2.481,2.51462
-0.392454,-0.0867788,2.481,2.51335
-0.384401,-0.0867788,2.481,2.5121
-0.376348,-0.0867788,2.481,2.51088
-0.370968,-0.0874084,2.499,2.5279
-0.362857,-0.0874084,2.499,2.52672
-0.354745,-0.0874084,2.499,2.52557
-0.346634,-0.0874084,2.499,2.52444
-0.338523,-0.0874084,2.499,2.52334
-0.330412,-0.0874084,2.499,2.52226
-0.322301,-0.0874084,2.499,2.52121
-0.311927,-0.0867788,2.481,2.50204
-0.303874,-0.0867788,2.481,2.50105
-0.295821,-0.0867788,2.481,2.50008
-0.287769,-0.0867788,2.481,2.49914
-0.279716,-0.0867788,2.481,2.49823
-0.269692,-0.0861492,2.463,2.47922
-0.261698,-0.0861492,2.463,2.47836
-0.253704,-0.0861492,2.463,2.47753
-0.245709,-0.0861492,2.463,2.47672
-0.235978,-0.0855196,2.445,2.45785
-0.228042,-0.0855196,2.445,2.4571
-0.220106,-0.0855196,2.445,2.45638
-0.21217,-0.0855196,2.445,2.45568
-0.205738,-0.0861492,2.463,2.47308
-0.197744,-0.0861492,2.463,2.47243
-0.189749,-0.0861492,2.463,2.4718
-0.181755,-0.0861492,2.463,2.4712
-0.175031,-0.0867788,2.481,2.48868
-0.166978,-0.0867788,2.481,2.48813
-0.158925,-0.0867788,2.481,2.4876
-0.151967,-0.0874084,2.499,2.50514
-0.143856,-0.0874084,2.499,2.50466
-0.135745,-0.0874084,2.499,2.50421
-0.127634,-0.0874084,2.499,2.50378
-0.120383,-0.088038,2.517,2.52141
-0.112214,-0.088038,2.517,2.52104
-0.104044,-0.088038,2.517,2.52069
-0.0958747,-0.088038,2.517,2.52036
-0.0877052,-0.088038,2.517,2.52007
-0.0795356,-0.088038,2.517,2.51979
-0.0713661,-0.088038,2.517,2.51955
-0.0631965,-0.088038,2.517,2.51933
-0.0546334,-0.0874084,2.499,2.50113
-0.0465223,-0.0874084,2.499,2.50096
-0.0384112,-0.0874084,2.499,2.50082
-0.0303,-0.0874084,2.499,2.50071
-0.0221889,-0.0874084,2.499,2.50063
-0.0140778,-0.0874084,2.499,2.50057
-0.00596664,-0.0874084,2.499,2.50054
0.00212905,-0.0867788,2.481,2.48252
0.0101818,-0.0867788,2.481,2.48254
0.0182345,-0.0867788,2.481,2.48258
0.0262872,-0.0867788,2.481,2.48266
0.0343399,-0.0867788,2.481,2.48275
0.0423926,-0.0867788,2.481,2.48288
0.0504453,-0.0867788,2.481,2.48303
0.058498,-0.0867788,2.481,2.48321
0.0665507,-0.0867788,2.481,2.48341
0.0746034,-0.0867788,2.481,2.48364
0.0820565,-0.0861492,2.463,2.46587
0.0900507,-0.0861492,2.463,2.46615
0.098045,-0.0861492,2.463,2.46646
0.106039,-0.0861492,2.463,2.46679
0.114867,-0.0867788,2.481,2.48517
0.12292,-0.0867788,2.481,2.48556
0.130972,-0.0867788,2.481,2.48597
0.139025,-0.0867788,2.481,2.48641
0.147078,-0.0867788,2.481,2.48687
0.155131,-0.0867788,2.481,2.48736
0.163183,-0.0867788,2.481,2.48787
0.171236,-0.0867788,2.481,2.48842
0.179289,-0.0867788,2.481,2.48898
0.187341,-0.0867788,2.481,2.48958
0.195394,-0.0867788,2.481,2.4902
0.203447,-0.0867788,2.481,2.49084
0.2115,-0.0867788,2.481,2.49151
0.219552,-0.0867788,2.481,2.49221
0.227605,-0.0867788,2.481,2.49293
0.235658,-0.0867788,2.481,2.49368
0.24371,-0.0867788,2.481,2.49445
0.251763,-0.0867788,2.481,2.49525
0.259816,-0.0867788,2.481,2.49608
0.267868,-0.0867788,2.481,2.49693
0.275921,-0.0867788,2.481,2.4978
0.283974,-0.0867788,2.481,2.49871
0.292027,-0.0867788,2.481,2.49963
0.300079,-0.0867788,2.481,2.50059
0.308132,-0.0867788,2.481,2.50157
0.318479,-0.0874084,2.499,2.52073
0.32659,-0.0874084,2.499,2.52177
0.334701,-0.0874084,2.499,2.52283
0.342812,-0.0874084,2.499,2.52392
0.350923,-0.0874084,2.499,2.52503
0.359034,-0.0874084,2.499,2.52617
0.367146,-0.0874084,2.499,2.52734
0.375257,-0.0874084,2.499,2.52853
0.383368,-0.0874084,2.499,2.52975
0.391479,-0.0874084,2.499,2.53099
0.39959,-0.0874084,2.499,2.53225
0.407701,-0.0874084,2.499,2.53355
0.415812,-0.0874084,2.499,2.53487
0.423923,-0.0874084,2.499,2.53621
0.432035,-0.0874084,2.499,2.53758
0.440146,-0.0874084,2.499,2.53897
0.448257,-0.0874084,2.499,2.54039
0.456368,-0.0874084,2.499,2.54183
0.464479,-0.0874084,2.499,2.5433
0.47259,-0.0874084,2.499,2.5448
0.480701,-0.0874084,2.499,2.54631
0.488812,-0.0874084,2.499,2.54786
0.496924,-0.0874084,2.499,2.54943
0.505035,-0.0874084,2.499,2.55102
0.513146,-0.0874084,2.499,2.55264
0.525012,-0.088038,2.517,2.57268
0.533181,-0.088038,2.517,2.57436
0.541351,-0.088038,2.517,2.57606
0.553668,-0.0887026,2.536,2.59725
0.5619,-0.0887026,2.536,2.59902
0.570131,-0.0887026,2.536,2.60081
0.578362,-0.0887026,2.536,2.60263
0.586593,-0.0887026,2.536,2.60447
0.594824,-0.0887026,2.536,2.60633
0.603056,-0.0887026,2.536,2.60823
0.611287,-0.0887026,2.536,2.61014
0.62416,-0.0893671,2.555,2.63165
0.632453,-0.0893671,2.555,2.63363
0.640746,-0.0893671,2.555,2.63563
0.649038,-0.0893671,2.555,2.63766
0.657331,-0.0893671,2.555,2.63972
0.665624,-0.0893671,2.555,2.64179
0.673917,-0.0893671,2.555,2.64389
0.68221,-0.0893671,2.555,2.64602
0.690503,-0.0893671,2.555,2.64817
0.693599,-0.0887026,2.536,2.63064
0.70183,-0.0887026,2.536,2.63282
0.710062,-0.0887026,2.536,2.63502
0.718293,-0.0887026,2.536,2.63725
0.726524,-0.0887026,2.536,2.63951
0.734755,-0.0887026,2.536,2.64179
0.742987,-0.0887026,2.536,2.64409
0.751218,-0.0887026,2.536,2.64641
0.759449,-0.0887026,2.536,2.64876
0.76768,-0.0887026,2.536,2.65113
0.775912,-0.0887026,2.536,2.65353
0.784143,-0.0887026,2.536,2.65595
0.792374,-0.0887026,2.536,2.65839
0.800605,-0.0887026,2.536,2.66085
0.808836,-0.0887026,2.536,2.66334
0.817068,-0.0887026,2.536,2.66585
0.825299,-0.0887026,2.536,2.66839
0.83353,-0.0887026,2.536,2.67094
0.841761,-0.0887026,2.536,2.67352
0.849993,-0.0887026,2.536,2.67613
0.858224,-0.0887026,2.536,2.67875
0.866455,-0.0887026,2.536,2.6814
0.874686,-0.0887026,2.536,2.68407
0.876303,-0.088038,2.517,2.66664
0.884472,-0.088038,2.517,2.66933
0.892642,-0.088038,2.517,2.67205
0.894369,-0.0874084,2.499,2.65566
0.90248,-0.0874084,2.499,2.6584
0.910591,-0.0874084,2.499,2.66117
0.912085,-0.0867788,2.481,2.64477
0.913462,-0.0861492,2.463,2.62835
0.914722,-0.0855196,2.445,2.61191
0.922658,-0.0855196,2.445,2.6147
0.924124,-0.084925,2.428,2.59931
0.925479,-0.0843304,2.411,2.5839
0.933304,-0.0843304,2.411,2.58671
0.94113,-0.0843304,2.411,2.58955
0.942264,-0.0837358,2.394,2.57412
0.950035,-0.0837358,2.394,2.57698
0.957805,-0.0837358,2.394,2.57985
0.965575,-0.0837358,2.394,2.58275
0.973346,-0.0837358,2.394,2.58566
0.981116,-0.0837358,2.394,2.5886
1.00293,-0.084925,2.428,2.62836
1.02538,-0.0861492,2.463,2.66931
1.04848,-0.0874084,2.499,2.71145
1.05659,-0.0874084,2.499,2.7146
1.08856,-0.0893671,2.555,2.77866
1.13034,-0.0920954,2.633,2.86685
1.13889,-0.0920954,2.633,2.87023
1.18404,-0.0950335,2.717,2.96531
1.24203,-0.0989509,2.829,3.09122
1.29411,-0.102344,2.926,3.20104
1.30361,-0.102344,2.926,3.20489
1.35978,-0.105981,3.03,3.32282
1.38182,-0.106926,3.057,3.3565
1.39174,-0.106926,3.057,3.3606
1.42688,-0.10885,3.112,3.42526
1.45037,-0.109864,3.141,3.46143
1.46057,-0.109864,3.141,3.46572
1.47076,-0.109864,3.141,3.47003
1.48096,-0.109864,3.141,3.47436
1.49115,-0.109864,3.141,3.47872
1.50135,-0.109864,3.141,3.4831
1.51154,-0.109864,3.141,3.48751
1.52174,-0.109864,3.141,3.49194
1.53193,-0.109864,3.141,3.49639
1.54213,-0.109864,3.141,3.50087
1.55232,-0.109864,3.141,3.50537
1.56252,-0.109864,3.141,3.5099
1.58723,-0.110878,3.17,3.5469
1.59752,-0.110878,3.17,3.55152
1.60781,-0.110878,3.17,3.55616
1.6181,-0.110878,3.17,3.56082
1.64328,-0.111893,3.199,3.59813
1.66969,-0.112977,3.23,3.63779
1.68018,-0.112977,3.23,3.64262
1.70636,-0.114026,3.26,3.68134
1.7338,-0.115145,3.292,3.72244
1.74448,-0.115145,3.292,3.72743
1.77223,-0.116265,3.324,3.76872
1.78302,-0.116265,3.324,3.77381
1.81108,-0.117384,3.356,3.8153
1.82197,-0.117384,3.356,3.82048
1.85088,-0.118538,3.389,3.86331
1.86188,-0.118538,3.389,3.86859
1.85465,-0.117384,3.356,3.83617
1.86554,-0.117384,3.356,3.84145
1.87643,-0.117384,3.356,3.84675
1.88732,-0.117384,3.356,3.85208
1.88012,-0.116265,3.324,3.82065
1.89091,-0.116265,3.324,3.82597
1.9017,-0.116265,3.324,3.83131
1.87566,-0.114026,3.26,3.76281
1.86888,-0.112977,3.23,3.73342
1.87937,-0.112977,3.23,3.73867
1.87171,-0.111893,3.199,3.70802
1.86504,-0.110878,3.17,3.67961
1.87532,-0.110878,3.17,3.68484
1.86836,-0.109864,3.141,3.65633
1.86121,-0.10885,3.112,3.62774
1.87131,-0.10885,3.112,3.63293
1.84816,-0.106926,3.057,3.57385
1.82526,-0.105037,3.003,3.51577
1.83501,-0.105037,3.003,3.52084
1.82879,-0.104128,2.977,3.4954
1.80695,-0.102344,2.926,3.4405
1.81645,-0.102344,2.926,3.4455
1.81035,-0.101469,2.901,3.42103
1.81976,-0.101469,2.901,3.42602
1.82918,-0.101469,2.901,3.43103
1.82338,-0.10063,2.877,3.40764
1.81743,-0.0997904,2.853,3.38417
1.81133,-0.0989509,2.829,3.36065
1.82051,-0.0989509,2.829,3.3656
1.81482,-0.0981465,2.806,3.34318
1.80897,-0.097342,2.783,3.32069
1.81801,-0.097342,2.783,3.32561
1.8126,-0.0965725,2.761,3.30423
1.80704,-0.095803,2.739,3.28279
1.81593,-0.095803,2.739,3.28769
1.81017,-0.0950335,2.717,3.26616
1.79087,-0.0935644,2.675,3.22049
1.79955,-0.0935644,2.675,3.22533
1.77984,-0.0920954,2.633,3.17947
1.7748,-0.0913958,2.613,3.16007
-2.01252,-0.092056,2.901,3.53193
-2.0031,-0.092056,2.901,3.52657
-1.99369,-0.092056,2.901,3.52123
-1.96786,-0.0912945,2.877,3.48682
-1.94218,-0.0905329,2.853,3.45252
-1.93292,-0.0905329,2.853,3.44732
-1.92366,-0.0905329,2.853,3.44213
-1.9144,-0.0905329,2.853,3.43696
-1.90514,-0.0905329,2.853,3.43182
-1.87993,-0.0897713,2.829,3.39786
-1.87075,-0.0897713,2.829,3.39279
-1.84643,-0.0890414,2.806,3.36019
-1.83732,-0.0890414,2.806,3.35519
-1.82822,-0.0890414,2.806,3.35021
-1.81911,-0.0890414,2.806,3.34525
-1.81,-0.0890414,2.806,3.34031
-1.80089,-0.0890414,2.806,3.33538
-1.79179,-0.0890414,2.806,3.33047
-1.78268,-0.0890414,2.806,3.32558
-1.77357,-0.0890414,2.806,3.32071
-1.77893,-0.0897713,2.829,3.34303
-1.76974,-0.0897713,2.829,3.33816
-1.7755,-0.0905329,2.853,3.36158
-1.76624,-0.0905329,2.853,3.35669
-1.75698,-0.0905329,2.853,3.35183
-1.74772,-0.0905329,2.853,3.34699
-1.73846,-0.0905329,2.853,3.34216
-1.7292,-0.0905329,2.853,3.33735
-1.7344,-0.0912945,2.877,3.3606
-1.72507,-0.0912945,2.877,3.35579
-1.71573,-0.0912945,2.877,3.351
-1.70639,-0.0912945,2.877,3.34623
-1.69705,-0.0912945,2.877,3.34147
-1.68771,-0.0912945,2.877,3.33674
-1.67838,-0.0912945,2.877,3.33203
-1.66904,-0.0912945,2.877,3.32733
-1.6597,-0.0912945,2.877,3.32266
nan,nan,nan,NaN
nan,nan,nan,NaN
nan,nan,nan,NaN
nan,nan,nan,NaN
nan,nan,nan,NaN
nan,nan,nan,NaN
nan,nan,nan,NaN
nan,nan,nan,NaN
nan,nan,nan,NaN
nan,nan,nan,NaN
nan,nan,nan,NaN
nan,nan,nan,NaN
nan,nan,nan,NaN
nan,nan,nan,NaN
nan,nan,nan,NaN
nan,nan,nan,NaN
nan,nan,nan,NaN
nan,nan,nan,NaN
nan,nan,nan,NaN
nan,nan,nan,NaN
nan,nan,nan,NaN
nan,nan,nan,NaN
nan,nan,nan,NaN
nan,nan,nan,NaN
nan,nan,nan,NaN
-1.30708,-0.0842181,2.654,2.95961
-1.2882,-0.0835517,2.633,2.93243
-1.27965,-0.0835517,2.633,2.92868
-1.26145,-0.0829171,2.613,2.90274
-1.24338,-0.0822824,2.593,2.87687
-1.23496,-0.0822824,2.593,2.87325
-1.21756,-0.0816795,2.574,2.84861
-1.20028,-0.0810766,2.555,2.82405
-1.18312,-0.0804737,2.536,2.79956
-1.17489,-0.0804737,2.536,2.79609
-1.14964,-0.0792996,2.499,2.7519
-1.1333,-0.0787284,2.481,2.72872
-1.12525,-0.0787284,2.481,2.72539
-1.10909,-0.0781572,2.463,2.70233
-1.09305,-0.077586,2.445,2.67933
-1.08512,-0.077586,2.445,2.6761
-1.06969,-0.0770466,2.428,2.65431
-1.06181,-0.0770466,2.428,2.65114
-1.05393,-0.0770466,2.428,2.648
-1.03872,-0.0765071,2.411,2.62635
-1.0309,-0.0765071,2.411,2.62327
-1.01586,-0.0759676,2.394,2.60173
-1.00809,-0.0759676,2.394,2.5987
-1.00032,-0.0759676,2.394,2.5957
-0.992548,-0.0759676,2.394,2.59271
-0.984778,-0.0759676,2.394,2.58975
-0.977007,-0.0759676,2.394,2.5868
-0.969237,-0.0759676,2.394,2.58388
-0.961466,-0.0759676,2.394,2.58097
-0.946924,-0.0754282,2.377,2.55978
-0.939209,-0.0754282,2.377,2.55694
-0.931494,-0.0754282,2.377,2.55411
-0.923778,-0.0754282,2.377,2.55131
-0.916063,-0.0754282,2.377,2.54853
-0.908348,-0.0754282,2.377,2.54576
-0.900633,-0.0754282,2.377,2.54302
-0.892918,-0.0754282,2.377,2.5403
-0.885203,-0.0754282,2.377,2.5376
-0.877488,-0.0754282,2.377,2.53492
-0.869772,-0.0754282,2.377,2.53226
-0.862057,-0.0754282,2.377,2.52962
-0.854342,-0.0754282,2.377,2.527
-0.846627,-0.0754282,2.377,2.5244
-0.838912,-0.0754282,2.377,2.52182
-0.831197,-0.0754282,2.377,2.51927
-0.829371,-0.0759676,2.394,2.53473
-0.821601,-0.0759676,2.394,2.5322
-0.81383,-0.0759676,2.394,2.52969
-0.80606,-0.0759676,2.394,2.5272
-0.79829,-0.0759676,2.394,2.52473
-0.796133,-0.0765071,2.411,2.5402
-0.788307,-0.0765071,2.411,2.53776
-0.780482,-0.0765071,2.411,2.53534
-0.778104,-0.0770466,2.428,2.5508
-0.770224,-0.0770466,2.428,2.5484
-0.767681,-0.077586,2.445,2.56386
-0.759745,-0.077586,2.445,2.5615
-0.751809,-0.077586,2.445,2.55915
-0.743873,-0.077586,2.445,2.55683
-0.735937,-0.077586,2.445,2.55453
-0.728001,-0.077586,2.445,2.55226
-0.725366,-0.0781572,2.463,2.56878
-0.717372,-0.0781572,2.463,2.56653
-0.709378,-0.0781572,2.463,2.56431
-0.701384,-0.0781572,2.463,2.56211
-0.693389,-0.0781572,2.463,2.55993
-0.685395,-0.0781572,2.463,2.55778
-0.677401,-0.0781572,2.463,2.55565
-0.669406,-0.0781572,2.463,2.55354
-0.661412,-0.0781572,2.463,2.55146
-0.653418,-0.0781572,2.463,2.5494
-0.65014,-0.0787284,2.481,2.56598
-0.642088,-0.0787284,2.481,2.56395
-0.634035,-0.0787284,2.481,2.56194
-0.625982,-0.0787284,2.481,2.55996
-0.61793,-0.0787284,2.481,2.55801
-0.609877,-0.0787284,2.481,2.55607
-0.601824,-0.0787284,2.481,2.55416
-0.593771,-0.0787284,2.481,2.55228
-0.585719,-0.0787284,2.481,2.55042
-0.577666,-0.0787284,2.481,2.54858
-0.569613,-0.0787284,2.481,2.54677
-0.557486,-0.0781572,2.463,2.52651
-0.549492,-0.0781572,2.463,2.52476
-0.541498,-0.0781572,2.463,2.52303
-0.533504,-0.0781572,2.463,2.52133
-0.525509,-0.0781572,2.463,2.51965
-0.517515,-0.0781572,2.463,2.518
-0.509521,-0.0781572,2.463,2.51636
-0.501526,-0.0781572,2.463,2.51476
-0.493532,-0.0781572,2.463,2.51318
-0.485538,-0.0781572,2.463,2.51162
-0.477544,-0.0781572,2.463,2.51008
-0.469549,-0.0781572,2.463,2.50858
-0.461555,-0.0781572,2.463,2.50709
-0.453561,-0.0781572,2.463,2.50563
-0.445566,-0.0781572,2.463,2.5042
-0.437572,-0.0781572,2.463,2.50279
-0.432717,-0.0787284,2.481,2.51968
-0.424665,-0.0787284,2.481,2.51831
-0.416612,-0.0787284,2.481,2.51697
-0.408559,-0.0787284,2.481,2.51565
-0.400506,-0.0787284,2.481,2.51435
-0.395301,-0.0792996,2.499,2.53131
-0.38719,-0.0792996,2.499,2.53006
-0.379079,-0.0792996,2.499,2.52883
-0.370968,-0.0792996,2.499,2.52763
-0.362857,-0.0792996,2.499,2.52645
-0.354745,-0.0792996,2.499,2.5253
-0.346634,-0.0792996,2.499,2.52417
-0.338523,-0.0792996,2.499,2.52307
-0.330412,-0.0792996,2.499,2.522
-0.322301,-0.0792996,2.499,2.52095
-0.31419,-0.0792996,2.499,2.51992
-0.306079,-0.0792996,2.499,2.51892
-0.295821,-0.0787284,2.481,2.49981
-0.287769,-0.0787284,2.481,2.49887
-0.279716,-0.0787284,2.481,2.49796
-0.271663,-0.0787284,2.481,2.49707
-0.261698,-0.0781572,2.463,2.4781
-0.253704,-0.0781572,2.463,2.47727
-0.245709,-0.0781572,2.463,2.47646
-0.237715,-0.0781572,2.463,2.47568
-0.229721,-0.0781572,2.463,2.47492
-0.221726,-0.0781572,2.463,2.47419
-0.213732,-0.0781572,2.463,2.47349
-0.205738,-0.0781572,2.463,2.47281
-0.197744,-0.0781572,2.463,2.47216
-0.189749,-0.0781572,2.463,2.47153
-0.181755,-0.0781572,2.463,2.47093
-0.175031,-0.0787284,2.481,2.48841
-0.166978,-0.0787284,2.481,2.48786
-0.158925,-0.0787284,2.481,2.48733
-0.151967,-0.0792996,2.499,2.50487
-0.143856,-0.0792996,2.499,2.50439
-0.135745,-0.0792996,2.499,2.50394
-0.128553,-0.0798707,2.517,2.52155
-0.120383,-0.0798707,2.517,2.52114
-0.112214,-0.0798707,2.517,2.52077
-0.104044,-0.0798707,2.517,2.52042
-0.0965985,-0.0804737,2.536,2.53911
-0.0877052,-0.0798707,2.517,2.51979
-0.0795356,-0.0798707,2.517,2.51952
-0.0713661,-0.0798707,2.517,2.51928
-0.0631965,-0.0798707,2.517,2.51906
-0.0546334,-0.0792996,2.499,2.50085
-0.0465223,-0.0792996,2.499,2.50069
-0.0384112,-0.0792996,2.499,2.50055
-0.0303,-0.0792996,2.499,2.50044
-0.0221889,-0.0792996,2.499,2.50036
-0.0140778,-0.0792996,2.499,2.5003
-0.00596664,-0.0792996,2.499,2.50027
0.00212905,-0.0787284,2.481,2.48225
0.0101818,-0.0787284,2.481,2.48227
0.0182345,-0.0787284,2.481,2.48232
0.0262872,-0.0787284,2.481,2.48239
0.0343399,-0.0787284,2.481,2.48249
0.0423926,-0.0787284,2.481,2.48261
0.0504453,-0.0787284,2.481,2.48276
0.058498,-0.0787284,2.481,2.48294
0.0665507,-0.0787284,2.481,2.48314
0.0746034,-0.0787284,2.481,2.48337
0.0826561,-0.0787284,2.481,2.48362
0.0907089,-0.0787284,2.481,2.48391
0.0987616,-0.0787284,2.481,2.48421
0.106814,-0.0787284,2.481,2.48455
0.114867,-0.0787284,2.481,2.48491
0.12292,-0.0787284,2.481,2.48529
0.130972,-0.0787284,2.481,2.4857
0.139025,-0.0787284,2.481,2.48614
