nan,nan,nan,NaN
nan,nan,nan,NaN
nan,nan,nan,NaN
nan,nan,nan,NaN
nan,nan,nan,NaN
nan,nan,nan,NaN
nan,nan,nan,NaN
nan,nan,nan,NaN
nan,nan,nan,NaN
nan,nan,nan,NaN
nan,nan,nan,NaN
nan,nan,nan,NaN
nan,nan,nan,NaN
nan,nan,nan,NaN
nan,nan,nan,NaN
-1.14702,-0.376194,2.329,2.62325
-1.13946,-0.376194,2.329,2.61995
-1.1319,-0.376194,2.329,2.61667
-1.12435,-0.376194,2.329,2.61341
-1.12446,-0.378778,2.345,2.6281
-1.11685,-0.378778,2.345,2.62485
-1.10924,-0.378778,2.345,2.62162
-1.10162,-0.378778,2.345,2.61841
-1.09401,-0.378778,2.345,2.61522
-1.0864,-0.378778,2.345,2.61204
-1.07879,-0.378778,2.345,2.60889
-1.07849,-0.381363,2.361,2.62353
-1.07082,-0.381363,2.361,2.62039
-1.06316,-0.381363,2.361,2.61726
-1.0555,-0.381363,2.361,2.61416
-1.04784,-0.381363,2.361,2.61108
-1.04722,-0.383947,2.377,2.62568
-1.03951,-0.383947,2.377,2.62262
-1.03179,-0.383947,2.377,2.61957
-1.02408,-0.383947,2.377,2.61654
-1.01636,-0.383947,2.377,2.61353
-1.01586,-0.386693,2.394,2.62921
-1.00809,-0.386693,2.394,2.62622
-1.00032,-0.386693,2.394,2.62324
-0.992548,-0.386693,2.394,2.62029
-0.984778,-0.386693,2.394,2.61736
-0.977007,-0.386693,2.394,2.61444
-0.969237,-0.386693,2.394,2.61155
-0.961466,-0.386693,2.394,2.60868
-0.953696,-0.386693,2.394,2.60582
-0.952643,-0.389439,2.411,2.62147
-0.944817,-0.389439,2.411,2.61864
-0.936992,-0.389439,2.411,2.61582
-0.929166,-0.389439,2.411,2.61303
-0.921341,-0.389439,2.411,2.61026
-0.913515,-0.389439,2.411,2.60751
-0.90569,-0.389439,2.411,2.60478
-0.897864,-0.389439,2.411,2.60207
-0.890039,-0.389439,2.411,2.59938
-0.882213,-0.389439,2.411,2.59671
-0.880553,-0.392185,2.428,2.61235
-0.872672,-0.392185,2.428,2.6097
-0.864792,-0.392185,2.428,2.60708
-0.856911,-0.392185,2.428,2.60448
-0.84903,-0.392185,2.428,2.60189
-0.84115,-0.392185,2.428,2.59933
-0.833269,-0.392185,2.428,2.59679
-0.825388,-0.392185,2.428,2.59427
-0.817508,-0.392185,2.428,2.59178
-0.809627,-0.392185,2.428,2.5893
-0.801746,-0.392185,2.428,2.58685
-0.793866,-0.392185,2.428,2.58442
-0.785985,-0.392185,2.428,2.58201
-0.778104,-0.392185,2.428,2.57962
-0.770224,-0.392185,2.428,2.57725
-0.762343,-0.392185,2.428,2.57491
-0.759745,-0.394931,2.445,2.5906
-0.751809,-0.394931,2.445,2.58828
-0.743873,-0.394931,2.445,2.58599
-0.735937,-0.394931,2.445,2.58372
-0.728001,-0.394931,2.445,2.58147
-0.720065,-0.394931,2.445,2.57924
-0.712129,-0.394931,2.445,2.57704
-0.704194,-0.394931,2.445,2.57486
-0.696258,-0.394931,2.445,2.5727
-0.688322,-0.394931,2.445,2.57056
-0.685395,-0.397838,2.463,2.58736
-0.677401,-0.397838,2.463,2.58525
-0.664514,-0.394931,2.445,2.56429
-0.656578,-0.394931,2.445,2.56224
-0.653418,-0.397838,2.463,2.57907
-0.645424,-0.397838,2.463,2.57706
-0.637429,-0.397838,2.463,2.57507
-0.629435,-0.397838,2.463,2.5731
-0.625982,-0.400746,2.481,2.58994
-0.61793,-0.400746,2.481,2.58801
-0.609877,-0.400746,2.481,2.5861
-0.601824,-0.400746,2.481,2.58421
-0.593771,-0.400746,2.481,2.58235
-0.585719,-0.400746,2.481,2.58051
-0.577666,-0.400746,2.481,2.57869
-0.569613,-0.400746,2.481,2.5769
-0.565635,-0.403653,2.499,2.59382
-0.557524,-0.403653,2.499,2.59206
-0.549413,-0.403653,2.499,2.59033
-0.541301,-0.403653,2.499,2.58862
-0.53319,-0.403653,2.499,2.58693
-0.525079,-0.403653,2.499,2.58527
-0.513244,-0.400746,2.481,2.56503
-0.505192,-0.400746,2.481,2.56343
-0.497139,-0.400746,2.481,2.56186
-0.489086,-0.400746,2.481,2.56031
-0.481034,-0.400746,2.481,2.55878
-0.472981,-0.400746,2.481,2.55728
-0.464928,-0.400746,2.481,2.5558
-0.456875,-0.400746,2.481,2.55435
-0.448823,-0.400746,2.481,2.55292
-0.44077,-0.400746,2.481,2.55152
-0.432717,-0.400746,2.481,2.55014
-0.424665,-0.400746,2.481,2.54878
-0.416612,-0.400746,2.481,2.54745
-0.408559,-0.400746,2.481,2.54615
-0.400506,-0.400746,2.481,2.54487
-0.395301,-0.403653,2.499,2.56207
-0.38719,-0.403653,2.499,2.56083
-0.379079,-0.403653,2.499,2.55962
-0.368296,-0.400746,2.481,2.54
-0.360243,-0.400746,2.481,2.53885
-0.35219,-0.400746,2.481,2.53771
-0.344137,-0.400746,2.481,2.53661
-0.336085,-0.400746,2.481,2.53553
-0.328032,-0.400746,2.481,2.53448
-0.319979,-0.400746,2.481,2.53345
-0.311927,-0.400746,2.481,2.53244
-0.303874,-0.400746,2.481,2.53146
-0.295821,-0.400746,2.481,2.53051
-0.287769,-0.400746,2.481,2.52958
-0.279716,-0.400746,2.481,2.52868
-0.269692,-0.397838,2.463,2.50946
-0.261698,-0.397838,2.463,2.50861
-0.253704,-0.397838,2.463,2.50779
-0.245709,-0.397838,2.463,2.50699
-0.239452,-0.400746,2.481,2.52454
-0.2314,-0.400746,2.481,2.52379
-0.221726,-0.397838,2.463,2.50476
-0.213732,-0.397838,2.463,2.50406
-0.207241,-0.400746,2.481,2.52169
-0.199189,-0.400746,2.481,2.52104
-0.191136,-0.400746,2.481,2.52042
-0.183083,-0.400746,2.481,2.51982
-0.175031,-0.400746,2.481,2.51924
-0.166978,-0.400746,2.481,2.5187
-0.158925,-0.400746,2.481,2.51818
-0.150872,-0.400746,2.481,2.51768
-0.14282,-0.400746,2.481,2.51721
-0.134767,-0.400746,2.481,2.51677
-0.126714,-0.400746,2.481,2.51635
-0.118662,-0.400746,2.481,2.51596
-0.110609,-0.400746,2.481,2.51559
-0.102556,-0.400746,2.481,2.51525
-0.0945035,-0.400746,2.481,2.51493
-0.0864508,-0.400746,2.481,2.51464
-0.078398,-0.400746,2.481,2.51438
-0.0703453,-0.400746,2.481,2.51414
-0.0622926,-0.400746,2.481,2.51393
-0.0542399,-0.400746,2.481,2.51374
-0.0461872,-0.400746,2.481,2.51358
-0.0381345,-0.400746,2.481,2.51345
-0.0298635,-0.397838,2.463,2.4951
-0.0218693,-0.397838,2.463,2.49502
-0.013875,-0.397838,2.463,2.49496
-0.00588068,-0.397838,2.463,2.49493
0.0021136,-0.397838,2.463,2.49492
0.0101079,-0.397838,2.463,2.49494
0.0181022,-0.397838,2.463,2.49499
0.0260965,-0.397838,2.463,2.49506
0.0340907,-0.397838,2.463,2.49516
0.0417775,-0.394931,2.445,2.47704
0.0497133,-0.394931,2.445,2.47719
0.0576492,-0.394931,2.445,2.47736
0.0655851,-0.394931,2.445,2.47756
0.0730097,-0.392185,2.428,2.46055
0.0808904,-0.392185,2.428,2.4608
0.0887711,-0.392185,2.428,2.46107
0.0966518,-0.392185,2.428,2.46137
0.104532,-0.392185,2.428,2.46169
0.112413,-0.392185,2.428,2.46204
0.120294,-0.392185,2.428,2.46241
0.129072,-0.394931,2.445,2.48005
0.137008,-0.394931,2.445,2.48048
0.144944,-0.394931,2.445,2.48093
0.15288,-0.394931,2.445,2.4814
0.160815,-0.394931,2.445,2.48191
0.168751,-0.394931,2.445,2.48243
0.176687,-0.394931,2.445,2.48299
0.184623,-0.394931,2.445,2.48356
0.193976,-0.397838,2.463,2.50245
0.201971,-0.397838,2.463,2.50309
0.209965,-0.397838,2.463,2.50374
0.217959,-0.397838,2.463,2.50443
0.225954,-0.397838,2.463,2.50513
0.233948,-0.397838,2.463,2.50587
0.241942,-0.397838,2.463,2.50663
0.249936,-0.397838,2.463,2.50741
0.257931,-0.397838,2.463,2.50822
0.265925,-0.397838,2.463,2.50906
0.273919,-0.397838,2.463,2.50992
0.281914,-0.397838,2.463,2.5108
0.289908,-0.397838,2.463,2.51171
0.297902,-0.397838,2.463,2.51265
0.305896,-0.397838,2.463,2.51361
0.313891,-0.397838,2.463,2.51459
0.321885,-0.397838,2.463,2.5156
0.329879,-0.397838,2.463,2.51664
0.337874,-0.397838,2.463,2.5177
0.345868,-0.397838,2.463,2.51878
0.353862,-0.397838,2.463,2.51989
0.361856,-0.397838,2.463,2.52103
0.369851,-0.397838,2.463,2.52219
0.377845,-0.397838,2.463,2.52337
0.385839,-0.397838,2.463,2.52458
0.396712,-0.400746,2.481,2.54428
0.404765,-0.400746,2.481,2.54554
0.412817,-0.400746,2.481,2.54684
0.423923,-0.403653,2.499,2.56664
0.432035,-0.403653,2.499,2.56799
0.440146,-0.403653,2.499,2.56937
0.448257,-0.403653,2.499,2.57077
0.456368,-0.403653,2.499,2.5722
0.464479,-0.403653,2.499,2.57365
0.47259,-0.403653,2.499,2.57513
0.480701,-0.403653,2.499,2.57663
0.488812,-0.403653,2.499,2.57815
0.496924,-0.403653,2.499,2.5797
0.505035,-0.403653,2.499,2.58128
0.513146,-0.403653,2.499,2.58288
0.521257,-0.403653,2.499,2.5845
0.529368,-0.403653,2.499,2.58615
0.537479,-0.403653,2.499,2.58782
0.54559,-0.403653,2.499,2.58952
0.55769,-0.406561,2.517,2.6099
0.565859,-0.406561,2.517,2.61166
0.574029,-0.406561,2.517,2.61344
0.582199,-0.406561,2.517,2.61525
0.594824,-0.40963,2.536,2.63684
0.603056,-0.40963,2.536,2.63871
0.611287,-0.40963,2.536,2.6406
0.62416,-0.412699,2.555,2.66231
0.632453,-0.412699,2.555,2.66427
0.640746,-0.412699,2.555,2.66625
0.649038,-0.412699,2.555,2.66826
0.662219,-0.415768,2.574,2.69014
0.670574,-0.415768,2.574,2.69221
0.678929,-0.415768,2.574,2.69431
0.687283,-0.415768,2.574,2.69642
0.695638,-0.415768,2.574,2.69856
0.698796,-0.412699,2.555,2.68079
0.707089,-0.412699,2.555,2.68297
0.715382,-0.412699,2.555,2.68517
0.723674,-0.412699,2.555,2.68739
0.726524,-0.40963,2.536,2.66963
0.734755,-0.40963,2.536,2.67188
0.742987,-0.40963,2.536,2.67416
0.751218,-0.40963,2.536,2.67646
0.759449,-0.40963,2.536,2.67878
0.761929,-0.406561,2.517,2.66104
0.770098,-0.406561,2.517,2.66339
0.772702,-0.403653,2.499,2.6467
0.780813,-0.403653,2.499,2.64908
0.788924,-0.403653,2.499,2.65148
0.797036,-0.403653,2.499,2.6539
0.805147,-0.403653,2.499,2.65635
0.8074,-0.400746,2.481,2.63967
0.815453,-0.400746,2.481,2.64214
0.823505,-0.400746,2.481,2.64464
0.831558,-0.400746,2.481,2.64716
0.833519,-0.397838,2.463,2.63048
0.841514,-0.397838,2.463,2.63302
0.849508,-0.397838,2.463,2.63559
0.857502,-0.397838,2.463,2.63817
0.865497,-0.397838,2.463,2.64078
0.873491,-0.397838,2.463,2.64341
0.881485,-0.397838,2.463,2.64606
0.882979,-0.394931,2.445,2.62938
0.890915,-0.394931,2.445,2.63206
0.898851,-0.394931,2.445,2.63475
0.906787,-0.394931,2.445,2.63747
0.914722,-0.394931,2.445,2.64021
0.916243,-0.392185,2.428,2.62459
0.924124,-0.392185,2.428,2.62736
0.932004,-0.392185,2.428,2.63014
0.939885,-0.392185,2.428,2.63294
0.94113,-0.389439,2.411,2.61731
0.948955,-0.389439,2.411,2.62013
0.956781,-0.389439,2.411,2.62298
0.964606,-0.389439,2.411,2.62584
0.979289,-0.392185,2.428,2.64726
nan,nan,nan,NaN
nan,nan,nan,NaN
nan,nan,nan,NaN
nan,nan,nan,NaN
nan,nan,nan,NaN
nan,nan,nan,NaN
nan,nan,nan,NaN
nan,nan,nan,NaN
nan,nan,nan,NaN
nan,nan,nan,NaN
nan,nan,nan,NaN
nan,nan,nan,NaN
1.374,-0.498146,3.084,3.41278
1.3719,-0.493785,3.057,3.38691
1.38182,-0.493785,3.057,3.39094
1.39174,-0.493785,3.057,3.395
1.40166,-0.493785,3.057,3.39908
1.41158,-0.493785,3.057,3.40318
1.42151,-0.493785,3.057,3.40731
1.43143,-0.493785,3.057,3.41146
1.44135,-0.493785,3.057,3.41564
1.45127,-0.493785,3.057,3.41983
1.4741,-0.498146,3.084,3.4543
1.48411,-0.498146,3.084,3.45858
1.50769,-0.502669,3.112,3.49433
1.51779,-0.502669,3.112,3.4987
1.52789,-0.502669,3.112,3.50309
1.53799,-0.502669,3.112,3.50751
1.54809,-0.502669,3.112,3.51195
1.57271,-0.507353,3.141,3.54918
1.59752,-0.512037,3.17,3.58652
1.60781,-0.512037,3.17,3.59112
1.6329,-0.516722,3.199,3.62863
1.65921,-0.521729,3.23,3.66852
1.6852,-0.526575,3.26,3.7074
1.69578,-0.526575,3.26,3.71222
nan,nan,nan,NaN
nan,nan,nan,NaN
1.90982,-0.58214,3.604,4.12009
1.92151,-0.58214,3.604,4.12552
1.97451,-0.594577,3.681,4.21924
1.98646,-0.594577,3.681,4.22485
1.99841,-0.594577,3.681,4.23048
2.0322,-0.601038,3.721,4.28217
2.06681,-0.607661,3.762,4.33516
2.07902,-0.607661,3.762,4.34099
2.09123,-0.607661,3.762,4.34685
2.12692,-0.614445,3.804,4.40134
2.11565,-0.607661,3.762,4.35865
2.10467,-0.601038,3.721,4.31703
2.11675,-0.601038,3.721,4.32293
2.10594,-0.594577,3.681,4.28232
2.11789,-0.594577,3.681,4.28821
2.12983,-0.594577,3.681,4.29412
2.11909,-0.588278,3.642,4.2545
2.10868,-0.58214,3.604,4.21595
2.09802,-0.576002,3.566,4.1773
2.10959,-0.576002,3.566,4.18312
2.07774,-0.56421,3.493,4.10322
2.04722,-0.552903,3.423,4.02663
2.05833,-0.552903,3.423,4.03229
2.04888,-0.547412,3.389,3.99786
2.03982,-0.542081,3.356,3.96453
2.05072,-0.542081,3.356,3.97014
2.04195,-0.536912,3.324,3.93787
1.99469,-0.521729,3.23,3.83196
2.00517,-0.521729,3.23,3.83742
2.01566,-0.521729,3.23,3.84291
nan,nan,nan,NaN
nan,nan,nan,NaN
nan,nan,nan,NaN
1.81743,-0.460834,2.853,3.41395
1.82669,-0.460834,2.853,3.41889
1.79091,-0.449527,2.783,3.33984
1.77148,-0.44242,2.739,3.29181
1.78037,-0.44242,2.739,3.2966
1.77489,-0.438866,2.717,3.27489
1.76992,-0.435474,2.696,3.25433
1.77867,-0.435474,2.696,3.2591
1.7735,-0.432082,2.675,3.23846
1.76819,-0.42869,2.654,3.21776
1.76275,-0.425298,2.633,3.19701
1.77129,-0.425298,2.633,3.20173
1.77984,-0.425298,2.633,3.20646
1.7748,-0.422067,2.613,3.18682
-2.44818,-0.558574,3.529,4.33122
-2.43673,-0.558574,3.529,4.32475
-2.40053,-0.552876,3.493,4.27426
-2.3892,-0.552876,3.493,4.2679
-2.35403,-0.547336,3.458,4.21886
-2.34281,-0.547336,3.458,4.21261
-2.28506,-0.536415,3.389,4.12245
-2.25192,-0.531192,3.356,4.07628
-2.24102,-0.531192,3.356,4.07027
-2.23013,-0.531192,3.356,4.06428
-2.21924,-0.531192,3.356,4.05832
-2.20835,-0.531192,3.356,4.05237
-2.19745,-0.531192,3.356,4.04644
-2.18656,-0.531192,3.356,4.04054
-2.17567,-0.531192,3.356,4.03465
-2.16478,-0.531192,3.356,4.02879
-2.13335,-0.526127,3.324,3.98459
-2.12256,-0.526127,3.324,3.97882
-2.1321,-0.531192,3.356,4.01133
-2.1212,-0.531192,3.356,4.00555
-2.11031,-0.531192,3.356,3.99979
-2.09942,-0.531192,3.356,3.99405
-2.08853,-0.531192,3.356,3.98834
-2.07763,-0.531192,3.356,3.98265
-2.06674,-0.531192,3.356,3.97697
-2.05585,-0.531192,3.356,3.97132
-2.04496,-0.531192,3.356,3.9657
-2.03406,-0.531192,3.356,3.96009
-2.02317,-0.531192,3.356,3.95451
-2.01228,-0.531192,3.356,3.94894
nan,nan,nan,NaN
nan,nan,nan,NaN
nan,nan,nan,NaN
nan,nan,nan,NaN
nan,nan,nan,NaN
nan,nan,nan,NaN
nan,nan,nan,NaN
nan,nan,nan,NaN
nan,nan,nan,NaN
nan,nan,nan,NaN
nan,nan,nan,NaN
nan,nan,nan,NaN
nan,nan,nan,NaN
nan,nan,nan,NaN
nan,nan,nan,NaN
nan,nan,nan,NaN
nan,nan,nan,NaN
nan,nan,nan,NaN
nan,nan,nan,NaN
nan,nan,nan,NaN
nan,nan,nan,NaN
nan,nan,nan,NaN
nan,nan,nan,NaN
nan,nan,nan,NaN
nan,nan,nan,NaN
nan,nan,nan,NaN
nan,nan,nan,NaN
nan,nan,nan,NaN
nan,nan,nan,NaN
nan,nan,nan,NaN
nan,nan,nan,NaN
nan,nan,nan,NaN
-1.14702,-0.368637,2.329,2.62217
-1.13946,-0.368637,2.329,2.61888
-1.1319,-0.368637,2.329,2.6156
-1.12435,-0.368637,2.329,2.61233
-1.12446,-0.371169,2.345,2.62701
-1.11685,-0.371169,2.345,2.62376
-1.10924,-0.371169,2.345,2.62053
-1.10162,-0.371169,2.345,2.61732
-1.09401,-0.371169,2.345,2.61413
-1.0864,-0.371169,2.345,2.61095
-1.07879,-0.371169,2.345,2.60779
-1.07849,-0.373702,2.361,2.62242
-1.07082,-0.373702,2.361,2.61928
-1.06316,-0.373702,2.361,2.61616
-1.0555,-0.373702,2.361,2.61305
-1.04784,-0.373702,2.361,2.60997
-1.04722,-0.376234,2.377,2.62457
-1.03951,-0.376234,2.377,2.6215
-1.03179,-0.376234,2.377,2.61845
-1.02408,-0.376234,2.377,2.61542
-1.01636,-0.376234,2.377,2.61241
-1.01586,-0.378925,2.394,2.62808
-1.00809,-0.378925,2.394,2.62508
-1.00032,-0.378925,2.394,2.62211
-0.992548,-0.378925,2.394,2.61915
-0.984778,-0.378925,2.394,2.61622
-0.977007,-0.378925,2.394,2.61331
-0.969237,-0.378925,2.394,2.61041
-0.961466,-0.378925,2.394,2.60753
-0.953696,-0.378925,2.394,2.60468
-0.952643,-0.381616,2.411,2.62032
-0.944817,-0.381616,2.411,2.61749
-0.936992,-0.381616,2.411,2.61467
-0.929166,-0.381616,2.411,2.61188
-0.921341,-0.381616,2.411,2.6091
-0.913515,-0.381616,2.411,2.60635
-0.90569,-0.381616,2.411,2.60362
-0.897864,-0.381616,2.411,2.60091
-0.890039,-0.381616,2.411,2.59821
-0.882213,-0.381616,2.411,2.59554
-0.880553,-0.384307,2.428,2.61118
-0.872672,-0.384307,2.428,2.60853
-0.864792,-0.384307,2.428,2.60591
-0.856911,-0.384307,2.428,2.6033
-0.84903,-0.384307,2.428,2.60072
-0.84115,-0.384307,2.428,2.59816
-0.833269,-0.384307,2.428,2.59561
-0.825388,-0.384307,2.428,2.5931
-0.817508,-0.384307,2.428,2.5906
-0.809627,-0.384307,2.428,2.58812
-0.801746,-0.384307,2.428,2.58567
-0.793866,-0.384307,2.428,2.58323
-0.785985,-0.384307,2.428,2.58082
-0.778104,-0.384307,2.428,2.57843
-0.770224,-0.384307,2.428,2.57607
-0.762343,-0.384307,2.428,2.57372
-0.759745,-0.386997,2.445,2.5894
-0.751809,-0.386997,2.445,2.58709
-0.743873,-0.386997,2.445,2.58479
-0.735937,-0.386997,2.445,2.58252
-0.728001,-0.386997,2.445,2.58027
-0.720065,-0.386997,2.445,2.57804
-0.712129,-0.386997,2.445,2.57583
-0.704194,-0.386997,2.445,2.57365
-0.696258,-0.386997,2.445,2.57149
-0.688322,-0.386997,2.445,2.56935
-0.685395,-0.389846,2.463,2.58614
-0.677401,-0.389846,2.463,2.58403
-0.669406,-0.389846,2.463,2.58195
-0.661412,-0.389846,2.463,2.57989
-0.653418,-0.389846,2.463,2.57785
-0.645424,-0.389846,2.463,2.57583
-0.637429,-0.389846,2.463,2.57384
-0.634035,-0.392696,2.481,2.59067
-0.625982,-0.392696,2.481,2.58871
-0.61793,-0.392696,2.481,2.58678
-0.609877,-0.392696,2.481,2.58486
-0.601824,-0.392696,2.481,2.58298
-0.593771,-0.392696,2.481,2.58111
-0.589968,-0.395545,2.499,2.59798
-0.581857,-0.395545,2.499,2.59615
-0.573746,-0.395545,2.499,2.59435
-0.565635,-0.395545,2.499,2.59257
-0.557524,-0.395545,2.499,2.59081
-0.549413,-0.395545,2.499,2.58908
-0.541301,-0.395545,2.499,2.58737
-0.53319,-0.395545,2.499,2.58568
-0.525079,-0.395545,2.499,2.58402
-0.516968,-0.395545,2.499,2.58239
-0.508857,-0.395545,2.499,2.58077
-0.500746,-0.395545,2.499,2.57919
-0.492635,-0.395545,2.499,2.57762
-0.484524,-0.395545,2.499,2.57609
-0.476412,-0.395545,2.499,2.57457
-0.468301,-0.395545,2.499,2.57308
-0.46019,-0.395545,2.499,2.57162
-0.448823,-0.392696,2.481,2.55167
-0.44077,-0.392696,2.481,2.55026
-0.432717,-0.392696,2.481,2.54889
-0.424665,-0.392696,2.481,2.54753
-0.416612,-0.392696,2.481,2.5462
-0.408559,-0.392696,2.481,2.5449
-0.400506,-0.392696,2.481,2.54362
-0.395301,-0.395545,2.499,2.5608
-0.38719,-0.395545,2.499,2.55957
-0.379079,-0.395545,2.499,2.55835
-0.368296,-0.392696,2.481,2.53874
-0.360243,-0.392696,2.481,2.53759
-0.35219,-0.392696,2.481,2.53646
-0.344137,-0.392696,2.481,2.53535
-0.336085,-0.392696,2.481,2.53427
-0.328032,-0.392696,2.481,2.53321
-0.319979,-0.392696,2.481,2.53218
-0.311927,-0.392696,2.481,2.53118
-0.303874,-0.392696,2.481,2.5302
-0.295821,-0.392696,2.481,2.52925
-0.287769,-0.392696,2.481,2.52832
-0.279716,-0.392696,2.481,2.52741
-0.271663,-0.392696,2.481,2.52653
-0.26361,-0.392696,2.481,2.52568
-0.255558,-0.392696,2.481,2.52485
-0.247505,-0.392696,2.481,2.52405
-0.239452,-0.392696,2.481,2.52327
-0.2314,-0.392696,2.481,2.52252
-0.223347,-0.392696,2.481,2.5218
-0.215294,-0.392696,2.481,2.5211
-0.207241,-0.392696,2.481,2.52042
-0.199189,-0.392696,2.481,2.51977
-0.191136,-0.392696,2.481,2.51915
-0.183083,-0.392696,2.481,2.51855
-0.175031,-0.392696,2.481,2.51798
-0.166978,-0.392696,2.481,2.51743
-0.160078,-0.395545,2.499,2.53517
-0.151967,-0.395545,2.499,2.53467
-0.143856,-0.395545,2.499,2.5342
-0.134767,-0.392696,2.481,2.5155
-0.126714,-0.392696,2.481,2.51508
-0.118662,-0.392696,2.481,2.51469
-0.110609,-0.392696,2.481,2.51432
-0.102556,-0.392696,2.481,2.51398
-0.0945035,-0.392696,2.481,2.51366
-0.0864508,-0.392696,2.481,2.51337
-0.078398,-0.392696,2.481,2.51311
-0.0703453,-0.392696,2.481,2.51287
-0.0622926,-0.392696,2.481,2.51266
-0.0542399,-0.392696,2.481,2.51247
-0.0461872,-0.392696,2.481,2.51231
-0.0381345,-0.392696,2.481,2.51218
-0.0300818,-0.392696,2.481,2.51207
-0.0220291,-0.392696,2.481,2.51198
-0.0139764,-0.392696,2.481,2.51192
-0.00592366,-0.392696,2.481,2.51189
0.00212905,-0.392696,2.481,2.51189
0.0101818,-0.392696,2.481,2.51191
0.0182345,-0.392696,2.481,2.51195
0.0260965,-0.389846,2.463,2.4938
0.0340907,-0.389846,2.463,2.49389
0.042085,-0.389846,2.463,2.49402
0.0500793,-0.389846,2.463,2.49416
0.0580736,-0.389846,2.463,2.49434
0.0660679,-0.389846,2.463,2.49454
0.0740622,-0.389846,2.463,2.49476
0.0820565,-0.389846,2.463,2.49501
0.0893926,-0.386997,2.445,2.47705
0.0973285,-0.386997,2.445,2.47735
0.105264,-0.386997,2.445,2.47767
0.1132,-0.386997,2.445,2.47802
0.121136,-0.386997,2.445,2.4784
0.129072,-0.386997,2.445,2.4788
0.137008,-0.386997,2.445,2.47923
0.144944,-0.386997,2.445,2.47968
0.154005,-0.389846,2.463,2.49841
0.161999,-0.389846,2.463,2.49892
0.169994,-0.389846,2.463,2.49945
0.177988,-0.389846,2.463,2.50001
0.185982,-0.389846,2.463,2.50059
0.193976,-0.389846,2.463,2.50119
0.201971,-0.389846,2.463,2.50183
0.209965,-0.389846,2.463,2.50249
0.217959,-0.389846,2.463,2.50317
0.225954,-0.389846,2.463,2.50388
0.233948,-0.389846,2.463,2.50461
0.241942,-0.389846,2.463,2.50537
0.249936,-0.389846,2.463,2.50616
0.257931,-0.389846,2.463,2.50697
0.265925,-0.389846,2.463,2.5078
0.273919,-0.389846,2.463,2.50866
0.281914,-0.389846,2.463,2.50955
0.289908,-0.389846,2.463,2.51046
0.297902,-0.389846,2.463,2.51139
0.305896,-0.389846,2.463,2.51235
0.313891,-0.389846,2.463,2.51334
0.321885,-0.389846,2.463,2.51435
0.329879,-0.389846,2.463,2.51539
0.337874,-0.389846,2.463,2.51645
0.345868,-0.389846,2.463,2.51753
0.353862,-0.389846,2.463,2.51864
0.361856,-0.389846,2.463,2.51978
0.369851,-0.389846,2.463,2.52094
0.377845,-0.389846,2.463,2.52213
0.385839,-0.389846,2.463,2.52334
0.396712,-0.392696,2.481,2.54302
0.404765,-0.392696,2.481,2.54429
0.412817,-0.392696,2.481,2.54558
0.423923,-0.395545,2.499,2.56538
0.432035,-0.395545,2.499,2.56673
0.440146,-0.395545,2.499,2.56811
0.448257,-0.395545,2.499,2.56951
0.456368,-0.395545,2.499,2.57094
0.464479,-0.395545,2.499,2.57239
0.47259,-0.395545,2.499,2.57387
0.480701,-0.395545,2.499,2.57537
0.488812,-0.395545,2.499,2.5769
0.496924,-0.395545,2.499,2.57845
0.505035,-0.395545,2.499,2.58002
0.513146,-0.395545,2.499,2.58162
0.521257,-0.395545,2.499,2.58325
0.529368,-0.395545,2.499,2.5849
0.537479,-0.395545,2.499,2.58657
0.54559,-0.395545,2.499,2.58827
0.55769,-0.398394,2.517,2.60864
0.565859,-0.398394,2.517,2.6104
0.574029,-0.398394,2.517,2.61219
0.582199,-0.398394,2.517,2.61399
0.590368,-0.398394,2.517,2.61583
0.603056,-0.401401,2.536,2.63744
0.611287,-0.401401,2.536,2.63934
0.619518,-0.401401,2.536,2.64125
0.632453,-0.404408,2.555,2.663
0.640746,-0.404408,2.555,2.66498
0.649038,-0.404408,2.555,2.66699
0.657331,-0.404408,2.555,2.66902
0.665624,-0.404408,2.555,2.67107
0.673917,-0.404408,2.555,2.67315
0.68221,-0.404408,2.555,2.67525
0.690503,-0.404408,2.555,2.67738
0.698796,-0.404408,2.555,2.67953
0.70183,-0.401401,2.536,2.66176
0.710062,-0.401401,2.536,2.66395
0.718293,-0.401401,2.536,2.66615
0.726524,-0.401401,2.536,2.66838
0.734755,-0.401401,2.536,2.67063
0.73742,-0.398394,2.517,2.65288
0.74559,-0.398394,2.517,2.65517
0.753759,-0.398394,2.517,2.65747
0.75648,-0.395545,2.499,2.64078
0.764591,-0.395545,2.499,2.64311
0.772702,-0.395545,2.499,2.64547
0.780813,-0.395545,2.499,2.64785
0.783242,-0.392696,2.481,2.63117
0.791295,-0.392696,2.481,2.63358
0.799347,-0.392696,2.481,2.63601
0.8074,-0.392696,2.481,2.63846
0.809537,-0.389846,2.463,2.62177
0.817531,-0.389846,2.463,2.62425
0.825525,-0.389846,2.463,2.62675
0.833519,-0.389846,2.463,2.62928
0.841514,-0.389846,2.463,2.63182
0.849508,-0.389846,2.463,2.63439
0.851236,-0.386997,2.445,2.61771
0.859171,-0.386997,2.445,2.6203
0.867107,-0.386997,2.445,2.62291
0.875043,-0.386997,2.445,2.62555
0.882979,-0.386997,2.445,2.6282
0.890915,-0.386997,2.445,2.63088
0.898851,-0.386997,2.445,2.63358
0.900482,-0.384307,2.428,2.61797
0.908362,-0.384307,2.428,2.62069
0.916243,-0.384307,2.428,2.62343
0.924124,-0.384307,2.428,2.62619
0.932004,-0.384307,2.428,2.62897
0.939885,-0.384307,2.428,2.63178
0.94113,-0.381616,2.411,2.61616
0.948955,-0.381616,2.411,2.61898
0.956781,-0.381616,2.411,2.62183
0.964606,-0.381616,2.411,2.62469
nan,nan,nan,NaN
nan,nan,nan,NaN
nan,nan,nan,NaN
nan,nan,nan,NaN
nan,nan,nan,NaN
nan,nan,nan,NaN
nan,nan,nan,NaN
nan,nan,nan,NaN
nan,nan,nan,NaN
nan,nan,nan,NaN
nan,nan,nan,NaN
nan,nan,nan,NaN
nan,nan,nan,NaN
nan,nan,nan,NaN
1.3719,-0.483865,3.057,3.38548
1.38182,-0.483865,3.057,3.38951
1.39174,-0.483865,3.057,3.39357
1.40166,-0.483865,3.057,3.39765
1.41158,-0.483865,3.057,3.40176
1.42151,-0.483865,3.057,3.40589
1.43143,-0.483865,3.057,3.41004
1.44135,-0.483865,3.057,3.41422
1.45127,-0.483865,3.057,3.41842
1.4741,-0.488139,3.084,3.45287
1.48411,-0.488139,3.084,3.45716
1.50769,-0.492571,3.112,3.49289
1.51779,-0.492571,3.112,3.49726
1.52789,-0.492571,3.112,3.50166
1.55232,-0.497161,3.141,3.53875
1.56252,-0.497161,3.141,3.54323
1.58723,-0.501751,3.17,3.5805
1.59752,-0.501751,3.17,3.58507
1.60781,-0.501751,3.17,3.58967
1.64872,-0.511248,3.23,3.66232
1.67462,-0.515997,3.26,3.70111
1.70174,-0.521062,3.292,3.74228
1.71243,-0.521062,3.292,3.74716
1.81,-0.547336,3.458,3.94125
1.82122,-0.547336,3.458,3.94642
1.83245,-0.547336,3.458,3.95161
1.86233,-0.552876,3.493,3.99687
1.91283,-0.564431,3.566,4.08581
1.9244,-0.564431,3.566,4.09124
1.97724,-0.57646,3.642,4.18401
2.01036,-0.582633,3.681,4.23447
2.04428,-0.588964,3.721,4.28623
2.05636,-0.588964,3.721,4.29201
2.06844,-0.588964,3.721,4.29781
2.08051,-0.588964,3.721,4.30363
2.09259,-0.588964,3.721,4.30948
2.10467,-0.588964,3.721,4.31536
2.11675,-0.588964,3.721,4.32127
2.12882,-0.588964,3.721,4.32719
2.11789,-0.582633,3.681,4.28657
2.12983,-0.582633,3.681,4.29248
2.14178,-0.582633,3.681,4.29842
2.10868,-0.570445,3.604,4.21435
2.12037,-0.570445,3.604,4.22021
2.13207,-0.570445,3.604,4.2261
2.09916,-0.558574,3.529,4.14395
2.06815,-0.547336,3.458,4.06627
2.07937,-0.547336,3.458,4.07199
2.06944,-0.541796,3.423,4.03646
2.05988,-0.536415,3.389,4.00202
2.07088,-0.536415,3.389,4.00769
2.04195,-0.526127,3.324,3.93641
1.99469,-0.511248,3.23,3.83054
2.00517,-0.511248,3.23,3.83601
2.01566,-0.511248,3.23,3.8415
nan,nan,nan,NaN
nan,nan,nan,NaN
nan,nan,nan,NaN
1.81743,-0.451576,2.853,3.41271
1.82669,-0.451576,2.853,3.41765
1.79091,-0.440496,2.783,3.33863
1.78571,-0.437014,2.761,3.31706
1.79467,-0.437014,2.761,3.32189
1.78926,-0.433532,2.739,3.30023
1.78371,-0.43005,2.717,3.27851
1.79253,-0.43005,2.717,3.28332
1.7735,-0.423402,2.675,3.23731
1.76819,-0.420078,2.654,3.21663
1.77681,-0.420078,2.654,3.22137
1.78542,-0.420078,2.654,3.22613
1.77984,-0.416754,2.633,3.20534
1.7748,-0.413589,2.613,3.18571
-2.44818,-0.547123,3.529,4.32976
-2.43673,-0.547123,3.529,4.32329
-2.40053,-0.541542,3.493,4.27281
-2.3892,-0.541542,3.493,4.26645
-2.35403,-0.536116,3.458,4.21742
-2.34281,-0.536116,3.458,4.21117
-2.28506,-0.525418,3.389,4.12103
-2.25192,-0.520302,3.356,4.07487
-2.24102,-0.520302,3.356,4.06886
-2.23013,-0.520302,3.356,4.06287
-2.21924,-0.520302,3.356,4.0569
-2.20835,-0.520302,3.356,4.05096
-2.19745,-0.520302,3.356,4.04503
-2.18656,-0.520302,3.356,4.03912
-2.17567,-0.520302,3.356,4.03324
-2.16478,-0.520302,3.356,4.02737
-2.13335,-0.515341,3.324,3.98318
-2.12256,-0.515341,3.324,3.97741
-2.1321,-0.520302,3.356,4.0099
-2.1212,-0.520302,3.356,4.00412
-2.11031,-0.520302,3.356,3.99836
-2.09942,-0.520302,3.356,3.99262
-2.08853,-0.520302,3.356,3.9869
-2.07763,-0.520302,3.356,3.98121
-2.06674,-0.520302,3.356,3.97553
-2.05585,-0.520302,3.356,3.96988
-2.04496,-0.520302,3.356,3.96425
-2.03406,-0.520302,3.356,3.95864
-2.02317,-0.520302,3.356,3.95306
-2.01228,-0.520302,3.356,3.94749
nan,nan,nan,NaN
nan,nan,nan,NaN
nan,nan,nan,NaN
nan,nan,nan,NaN
nan,nan,nan,NaN
nan,nan,nan,NaN
nan,nan,nan,NaN
nan,nan,nan,NaN
nan,nan,nan,NaN
nan,nan,nan,NaN
nan,nan,nan,NaN
nan,nan,nan,NaN
nan,nan,nan,NaN
nan,nan,nan,NaN
nan,nan,nan,NaN
nan,nan,nan,NaN
nan,nan,nan,NaN
nan,nan,nan,NaN
nan,nan,nan,NaN
nan,nan,nan,NaN
nan,nan,nan,NaN
nan,nan,nan,NaN
nan,nan,nan,NaN
nan,nan,nan,NaN
nan,nan,nan,NaN
nan,nan,nan,NaN
nan,nan,nan,NaN
nan,nan,nan,NaN
nan,nan,nan,NaN
nan,nan,nan,NaN
nan,nan,nan,NaN
-1.16251,-0.36356,2.345,2.64247
-1.14702,-0.36108,2.329,2.62112
-1.13946,-0.36108,2.329,2.61782
-1.1319,-0.36108,2.329,2.61454
-1.13207,-0.36356,2.345,2.62922
-1.12446,-0.36356,2.345,2.62595
-1.11685,-0.36356,2.345,2.6227
-1.10924,-0.36356,2.345,2.61947
-1.10162,-0.36356,2.345,2.61625
-1.09401,-0.36356,2.345,2.61306
-1.0864,-0.36356,2.345,2.60988
-1.07879,-0.36356,2.345,2.60672
-1.07849,-0.366041,2.361,2.62134
-1.07082,-0.366041,2.361,2.6182
-1.06316,-0.366041,2.361,2.61508
-1.0555,-0.366041,2.361,2.61197
-1.04784,-0.366041,2.361,2.60888
-1.04722,-0.368521,2.377,2.62347
-1.03951,-0.368521,2.377,2.6204
-1.03179,-0.368521,2.377,2.61735
-1.02408,-0.368521,2.377,2.61432
-1.01636,-0.368521,2.377,2.61131
-1.01586,-0.371157,2.394,2.62697
-1.00809,-0.371157,2.394,2.62397
-1.00032,-0.371157,2.394,2.621
-0.992548,-0.371157,2.394,2.61804
-0.984778,-0.371157,2.394,2.61511
-0.977007,-0.371157,2.394,2.61219
-0.969237,-0.371157,2.394,2.60929
-0.968294,-0.373793,2.411,2.62493
-0.960468,-0.373793,2.411,2.62205
-0.952643,-0.373793,2.411,2.61919
-0.944817,-0.373793,2.411,2.61636
-0.936992,-0.373793,2.411,2.61354
-0.929166,-0.373793,2.411,2.61075
-0.921341,-0.373793,2.411,2.60797
-0.913515,-0.373793,2.411,2.60522
-0.90569,-0.373793,2.411,2.60248
-0.897864,-0.373793,2.411,2.59977
-0.890039,-0.373793,2.411,2.59708
-0.888434,-0.376428,2.428,2.6127
-0.880553,-0.376428,2.428,2.61003
-0.872672,-0.376428,2.428,2.60738
-0.864792,-0.376428,2.428,2.60475
-0.856911,-0.376428,2.428,2.60215
-0.84903,-0.376428,2.428,2.59956
-0.84115,-0.376428,2.428,2.597
-0.833269,-0.376428,2.428,2.59446
-0.825388,-0.376428,2.428,2.59194
-0.817508,-0.376428,2.428,2.58944
-0.809627,-0.376428,2.428,2.58696
-0.801746,-0.376428,2.428,2.58451
-0.799424,-0.379064,2.445,2.60015
-0.791488,-0.379064,2.445,2.59772
-0.783552,-0.379064,2.445,2.59532
-0.775616,-0.379064,2.445,2.59293
-0.767681,-0.379064,2.445,2.59057
-0.759745,-0.379064,2.445,2.58823
-0.751809,-0.379064,2.445,2.58591
-0.743873,-0.379064,2.445,2.58361
-0.735937,-0.379064,2.445,2.58134
-0.728001,-0.379064,2.445,2.57909
-0.720065,-0.379064,2.445,2.57686
-0.712129,-0.379064,2.445,2.57465
-0.704194,-0.379064,2.445,2.57247
-0.696258,-0.379064,2.445,2.57031
-0.688322,-0.379064,2.445,2.56817
-0.685395,-0.381854,2.463,2.58495
-0.677401,-0.381854,2.463,2.58284
-0.669406,-0.381854,2.463,2.58075
-0.661412,-0.381854,2.463,2.57869
-0.653418,-0.381854,2.463,2.57665
-0.645424,-0.381854,2.463,2.57464
-0.637429,-0.381854,2.463,2.57264
-0.634035,-0.384645,2.481,2.58946
-0.625982,-0.384645,2.481,2.5875
-0.61793,-0.384645,2.481,2.58557
-0.614302,-0.387436,2.499,2.6024
-0.606191,-0.387436,2.499,2.6005
-0.598079,-0.387436,2.499,2.59862
-0.589968,-0.387436,2.499,2.59676
-0.581857,-0.387436,2.499,2.59493
-0.573746,-0.387436,2.499,2.59312
-0.565635,-0.387436,2.499,2.59134
-0.561539,-0.390226,2.517,2.60824
-0.55337,-0.390226,2.517,2.60649
-0.5452,-0.390226,2.517,2.60477
-0.537031,-0.390226,2.517,2.60307
-0.528861,-0.390226,2.517,2.6014
-0.516968,-0.387436,2.499,2.58116
-0.508857,-0.387436,2.499,2.57954
-0.500746,-0.387436,2.499,2.57796
-0.492635,-0.387436,2.499,2.57639
-0.484524,-0.387436,2.499,2.57485
-0.476412,-0.387436,2.499,2.57334
-0.468301,-0.387436,2.499,2.57185
-0.46019,-0.387436,2.499,2.57039
-0.452079,-0.387436,2.499,2.56895
-0.443968,-0.387436,2.499,2.56753
-0.435857,-0.387436,2.499,2.56614
-0.427746,-0.387436,2.499,2.56478
-0.419634,-0.387436,2.499,2.56344
-0.411523,-0.387436,2.499,2.56212
-0.403412,-0.387436,2.499,2.56083
-0.395301,-0.387436,2.499,2.55956
-0.38719,-0.387436,2.499,2.55832
-0.379079,-0.387436,2.499,2.55711
-0.370968,-0.387436,2.499,2.55592
-0.362857,-0.387436,2.499,2.55475
-0.354745,-0.387436,2.499,2.55362
-0.346634,-0.387436,2.499,2.5525
-0.338523,-0.387436,2.499,2.55141
-0.330412,-0.387436,2.499,2.55035
-0.322301,-0.387436,2.499,2.54931
-0.31419,-0.387436,2.499,2.5483
-0.306079,-0.387436,2.499,2.54731
-0.295821,-0.384645,2.481,2.52801
-0.287769,-0.384645,2.481,2.52708
-0.279716,-0.384645,2.481,2.52617
-0.271663,-0.384645,2.481,2.5253
-0.26361,-0.384645,2.481,2.52444
-0.255558,-0.384645,2.481,2.52361
-0.247505,-0.384645,2.481,2.52281
-0.239452,-0.384645,2.481,2.52203
-0.233078,-0.387436,2.499,2.53957
-0.224967,-0.387436,2.499,2.53884
-0.216856,-0.387436,2.499,2.53814
-0.208745,-0.387436,2.499,2.53746
-0.200634,-0.387436,2.499,2.5368
-0.192523,-0.387436,2.499,2.53617
-0.183083,-0.384645,2.481,2.51731
-0.175031,-0.384645,2.481,2.51673
-0.166978,-0.384645,2.481,2.51619
-0.160078,-0.387436,2.499,2.53392
-0.151967,-0.387436,2.499,2.53342
-0.143856,-0.387436,2.499,2.53294
-0.134767,-0.384645,2.481,2.51425
-0.126714,-0.384645,2.481,2.51384
-0.118662,-0.384645,2.481,2.51344
-0.110609,-0.384645,2.481,2.51308
-0.102556,-0.384645,2.481,2.51273
-0.0945035,-0.384645,2.481,2.51242
-0.0864508,-0.384645,2.481,2.51213
-0.078398,-0.384645,2.481,2.51186
-0.0703453,-0.384645,2.481,2.51163
-0.0622926,-0.384645,2.481,2.51141
-0.0542399,-0.384645,2.481,2.51123
-0.0461872,-0.384645,2.481,2.51107
-0.0381345,-0.384645,2.481,2.51093
-0.0300818,-0.384645,2.481,2.51082
-0.0220291,-0.384645,2.481,2.51074
-0.0139764,-0.384645,2.481,2.51068
-0.00592366,-0.384645,2.481,2.51065
0.00212905,-0.384645,2.481,2.51064
0.0101818,-0.384645,2.481,2.51066
0.0182345,-0.384645,2.481,2.51071
0.0260965,-0.381854,2.463,2.49256
0.0340907,-0.381854,2.463,2.49266
0.042085,-0.381854,2.463,2.49278
0.0500793,-0.381854,2.463,2.49293
0.0580736,-0.381854,2.463,2.4931
0.0660679,-0.381854,2.463,2.4933
0.0740622,-0.381854,2.463,2.49353
0.0820565,-0.381854,2.463,2.49378
0.0893926,-0.379064,2.445,2.47582
0.0973285,-0.379064,2.445,2.47612
0.105264,-0.379064,2.445,2.47645
0.1132,-0.379064,2.445,2.4768
0.121136,-0.379064,2.445,2.47717
0.129072,-0.379064,2.445,2.47757
0.137008,-0.379064,2.445,2.478
0.144944,-0.379064,2.445,2.47845
0.154005,-0.381854,2.463,2.49718
0.161999,-0.381854,2.463,2.49768
0.169994,-0.381854,2.463,2.49822
0.177988,-0.381854,2.463,2.49877
0.185982,-0.381854,2.463,2.49935
0.193976,-0.381854,2.463,2.49996
0.201971,-0.381854,2.463,2.50059
0.209965,-0.381854,2.463,2.50125
0.217959,-0.381854,2.463,2.50194
0.225954,-0.381854,2.463,2.50265
0.233948,-0.381854,2.463,2.50338
0.241942,-0.381854,2.463,2.50414
0.249936,-0.381854,2.463,2.50493
0.257931,-0.381854,2.463,2.50574
0.265925,-0.381854,2.463,2.50657
0.273919,-0.381854,2.463,2.50743
0.281914,-0.381854,2.463,2.50832
0.289908,-0.381854,2.463,2.50923
0.297902,-0.381854,2.463,2.51016
0.305896,-0.381854,2.463,2.51113
0.313891,-0.381854,2.463,2.51211
0.321885,-0.381854,2.463,2.51312
0.329879,-0.381854,2.463,2.51416
0.337874,-0.381854,2.463,2.51522
0.345868,-0.381854,2.463,2.51631
0.353862,-0.381854,2.463,2.51742
0.361856,-0.381854,2.463,2.51856
0.369851,-0.381854,2.463,2.51972
0.377845,-0.381854,2.463,2.5209
0.385839,-0.381854,2.463,2.52211
0.396712,-0.384645,2.481,2.54179
0.407701,-0.387436,2.499,2.56151
0.415812,-0.387436,2.499,2.56281
0.423923,-0.387436,2.499,2.56414
0.432035,-0.387436,2.499,2.56549
0.440146,-0.387436,2.499,2.56687
0.448257,-0.387436,2.499,2.56828
0.459655,-0.390226,2.517,2.58821
0.467825,-0.390226,2.517,2.58968
0.475994,-0.390226,2.517,2.59117
0.480701,-0.387436,2.499,2.57414
0.488812,-0.387436,2.499,2.57566
0.496924,-0.387436,2.499,2.57722
0.505035,-0.387436,2.499,2.57879
0.513146,-0.387436,2.499,2.58039
0.521257,-0.387436,2.499,2.58202
0.529368,-0.387436,2.499,2.58367
0.537479,-0.387436,2.499,2.58534
0.54559,-0.387436,2.499,2.58704
0.55769,-0.390226,2.517,2.60741
0.565859,-0.390226,2.517,2.60917
0.574029,-0.390226,2.517,2.61095
0.582199,-0.390226,2.517,2.61276
0.590368,-0.390226,2.517,2.61459
0.603056,-0.393172,2.536,2.6362
0.611287,-0.393172,2.536,2.6381
0.619518,-0.393172,2.536,2.64002
0.632453,-0.396118,2.555,2.66175
0.640746,-0.396118,2.555,2.66374
0.649038,-0.396118,2.555,2.66574
0.657331,-0.396118,2.555,2.66777
0.665624,-0.396118,2.555,2.66983
0.673917,-0.396118,2.555,2.67191
0.68221,-0.396118,2.555,2.67401
0.690503,-0.396118,2.555,2.67614
0.693599,-0.393172,2.536,2.65838
0.70183,-0.393172,2.536,2.66054
0.710062,-0.393172,2.536,2.66272
0.712911,-0.390226,2.517,2.64496
0.721081,-0.390226,2.517,2.64717
0.729251,-0.390226,2.517,2.64941
0.73742,-0.390226,2.517,2.65167
0.740258,-0.387436,2.499,2.63497
0.748369,-0.387436,2.499,2.63726
0.75648,-0.387436,2.499,2.63958
0.759084,-0.384645,2.481,2.62288
0.767137,-0.384645,2.481,2.62523
0.775189,-0.384645,2.481,2.62759
0.783242,-0.384645,2.481,2.62998
0.785554,-0.381854,2.463,2.61329
0.793548,-0.381854,2.463,2.6157
0.801542,-0.381854,2.463,2.61814
0.809537,-0.381854,2.463,2.6206
0.817531,-0.381854,2.463,2.62308
0.825525,-0.381854,2.463,2.62558
0.827428,-0.379064,2.445,2.6089
0.835364,-0.379064,2.445,2.61143
0.8433,-0.379064,2.445,2.61398
0.851236,-0.379064,2.445,2.61655
0.859171,-0.379064,2.445,2.61914
0.867107,-0.379064,2.445,2.62175
0.868959,-0.376428,2.428,2.60614
0.87684,-0.376428,2.428,2.60878
0.88472,-0.376428,2.428,2.61144
0.892601,-0.376428,2.428,2.61412
0.900482,-0.376428,2.428,2.61682
0.908362,-0.376428,2.428,2.61954
0.909828,-0.373793,2.411,2.60393
0.917653,-0.373793,2.411,2.60667
0.932004,-0.376428,2.428,2.62783
0.939885,-0.376428,2.428,2.63064
0.94113,-0.373793,2.411,2.61503
0.942264,-0.371157,2.394,2.5994
0.950035,-0.371157,2.394,2.60222
0.957805,-0.371157,2.394,2.60507
nan,nan,nan,NaN
nan,nan,nan,NaN
nan,nan,nan,NaN
nan,nan,nan,NaN
nan,nan,nan,NaN
nan,nan,nan,NaN
nan,nan,nan,NaN
nan,nan,nan,NaN
nan,nan,nan,NaN
nan,nan,nan,NaN
nan,nan,nan,NaN
nan,nan,nan,NaN
nan,nan,nan,NaN
nan,nan,nan,NaN
1.3719,-0.473946,3.057,3.38408
1.38182,-0.473946,3.057,3.38811
1.39174,-0.473946,3.057,3.39217
1.40166,-0.473946,3.057,3.39625
1.41158,-0.473946,3.057,3.40036
1.42151,-0.473946,3.057,3.40449
1.43143,-0.473946,3.057,3.40865
1.44135,-0.473946,3.057,3.41282
1.45127,-0.473946,3.057,3.41703
1.4741,-0.478132,3.084,3.45147
1.48411,-0.478132,3.084,3.45576
1.52174,-0.486969,3.141,3.52402
1.53193,-0.486969,3.141,3.52843
1.54213,-0.486969,3.141,3.53287
1.56665,-0.491465,3.17,3.56999
1.57694,-0.491465,3.17,3.57452
1.60175,-0.495961,3.199,3.61181
1.61213,-0.495961,3.199,3.61643
1.62252,-0.495961,3.199,3.62107
1.66404,-0.505418,3.26,3.69487
1.69106,-0.51038,3.292,3.73596
1.71828,-0.515341,3.324,3.77718
1.72907,-0.515341,3.324,3.7821
1.81,-0.536116,3.458,3.93971
1.82122,-0.536116,3.458,3.94488
1.83245,-0.536116,3.458,3.95007
1.86233,-0.541542,3.493,3.99532
1.91283,-0.552859,3.566,4.08423
1.9244,-0.552859,3.566,4.08966
1.97724,-0.564642,3.642,4.1824
2.01036,-0.570689,3.681,4.23285
2.04428,-0.57689,3.721,4.28459
2.05636,-0.57689,3.721,4.29037
2.06844,-0.57689,3.721,4.29617
2.08051,-0.57689,3.721,4.302
2.09259,-0.57689,3.721,4.30785
2.10467,-0.57689,3.721,4.31373
2.11675,-0.57689,3.721,4.31964
2.12882,-0.57689,3.721,4.32557
2.11789,-0.570689,3.681,4.28496
2.12983,-0.570689,3.681,4.29088
2.14178,-0.570689,3.681,4.29682
2.13091,-0.564642,3.642,4.2572
2.12037,-0.558751,3.604,4.21865
2.13207,-0.558751,3.604,4.22454
2.12117,-0.552859,3.566,4.18585
2.08908,-0.541542,3.493,4.10592
2.10042,-0.541542,3.493,4.1117
2.06944,-0.530689,3.423,4.03499
2.05988,-0.525418,3.389,4.00056
2.07088,-0.525418,3.389,4.00624
2.04195,-0.515341,3.324,3.93499
1.99469,-0.500767,3.23,3.82916
2.00517,-0.500767,3.23,3.83463
2.01566,-0.500767,3.23,3.84012
nan,nan,nan,NaN
nan,nan,nan,NaN
nan,nan,nan,NaN
1.81743,-0.442319,2.853,3.4115
1.82669,-0.442319,2.853,3.41644
1.79091,-0.431466,2.783,3.33745
1.78571,-0.428055,2.761,3.31589
1.79467,-0.428055,2.761,3.32072
1.78926,-0.424644,2.739,3.29908
1.78371,-0.421234,2.717,3.27737
1.79253,-0.421234,2.717,3.28218
1.7735,-0.414722,2.675,3.23619
1.76819,-0.411466,2.654,3.21551
1.77681,-0.411466,2.654,3.22026
1.78542,-0.411466,2.654,3.22502
1.77984,-0.408211,2.633,3.20424
1.7748,-0.40511,2.613,3.18462
-2.47385,-0.541288,3.566,4.3737
-2.43673,-0.535672,3.529,4.32186
-2.42527,-0.535672,3.529,4.31541
-2.3892,-0.530208,3.493,4.26502
-2.37786,-0.530208,3.493,4.25868
-2.36652,-0.530208,3.493,4.25236
-2.30799,-0.519582,3.423,4.16097
-2.27406,-0.514421,3.389,4.11355
-2.26306,-0.514421,3.389,4.10748
-2.25206,-0.514421,3.389,4.10143
-2.21924,-0.509412,3.356,4.05552
-2.20835,-0.509412,3.356,4.04957
-2.19745,-0.509412,3.356,4.04364
-2.20806,-0.514421,3.389,4.07744
-2.17567,-0.509412,3.356,4.03184
-2.16478,-0.509412,3.356,4.02598
-2.15388,-0.509412,3.356,4.02013
-2.14299,-0.509412,3.356,4.01431
-2.15306,-0.514421,3.389,4.04792
-2.14206,-0.514421,3.389,4.04208
-2.13106,-0.514421,3.389,4.03626
-2.12006,-0.514421,3.389,4.03046
-2.10906,-0.514421,3.389,4.02469
-2.07763,-0.509412,3.356,3.9798
-2.06674,-0.509412,3.356,3.97412
-2.05585,-0.509412,3.356,3.96847
-2.04496,-0.509412,3.356,3.96284
-2.03406,-0.509412,3.356,3.95723
-2.02317,-0.509412,3.356,3.95164
-2.01228,-0.509412,3.356,3.94607
nan,nan,nan,NaN
nan,nan,nan,NaN
nan,nan,nan,NaN
nan,nan,nan,NaN
nan,nan,nan,NaN
nan,nan,nan,NaN
nan,nan,nan,NaN
nan,nan,nan,NaN
nan,nan,nan,NaN
nan,nan,nan,NaN
nan,nan,nan,NaN
nan,nan,nan,NaN
nan,nan,nan,NaN
nan,nan,nan,NaN
nan,nan,nan,NaN
nan,nan,nan,NaN
nan,nan,nan,NaN
nan,nan,nan,NaN
nan,nan,nan,NaN
nan,nan,nan,NaN
nan,nan,nan,NaN
nan,nan,nan,NaN
nan,nan,nan,NaN
nan,nan,nan,NaN
nan,nan,nan,NaN
nan,nan,nan,NaN
nan,nan,nan,NaN
nan,nan,nan,NaN
nan,nan,nan,NaN
nan,nan,nan,NaN
nan,nan,nan,NaN
-1.16251,-0.355951,2.345,2.64143
-1.1549,-0.355951,2.345,2.63809
-1.14729,-0.355951,2.345,2.63477
-1.13968,-0.355951,2.345,2.63146
-1.13207,-0.355951,2.345,2.62818
-1.12446,-0.355951,2.345,2.62491
-1.11685,-0.355951,2.345,2.62165
-1.10924,-0.355951,2.345,2.61842
-1.10162,-0.355951,2.345,2.61521
-1.09401,-0.355951,2.345,2.61201
-1.0864,-0.355951,2.345,2.60883
-1.07879,-0.355951,2.345,2.60567
-1.07849,-0.35838,2.361,2.62029
-1.07082,-0.35838,2.361,2.61714
-1.06316,-0.35838,2.361,2.61401
-1.0555,-0.35838,2.361,2.61091
-1.04784,-0.35838,2.361,2.60782
-1.04722,-0.360808,2.377,2.6224
-1.03951,-0.360808,2.377,2.61933
-1.03179,-0.360808,2.377,2.61628
-1.02408,-0.360808,2.377,2.61324
-1.01636,-0.360808,2.377,2.61023
-1.01586,-0.363389,2.394,2.62588
-1.00809,-0.363389,2.394,2.62289
-1.00032,-0.363389,2.394,2.61991
-0.992548,-0.363389,2.394,2.61695
-0.984778,-0.363389,2.394,2.61402
-0.977007,-0.363389,2.394,2.6111
-0.969237,-0.363389,2.394,2.6082
-0.968294,-0.365969,2.411,2.62382
-0.960468,-0.365969,2.411,2.62095
-0.952643,-0.365969,2.411,2.61809
-0.944817,-0.365969,2.411,2.61525
-0.936992,-0.365969,2.411,2.61243
-0.929166,-0.365969,2.411,2.60964
-0.921341,-0.365969,2.411,2.60686
-0.913515,-0.365969,2.411,2.60411
-0.90569,-0.365969,2.411,2.60137
-0.897864,-0.365969,2.411,2.59866
-0.890039,-0.365969,2.411,2.59596
-0.888434,-0.36855,2.428,2.61158
-0.880553,-0.36855,2.428,2.60891
-0.872672,-0.36855,2.428,2.60626
-0.864792,-0.36855,2.428,2.60363
-0.856911,-0.36855,2.428,2.60102
-0.84903,-0.36855,2.428,2.59844
-0.84115,-0.36855,2.428,2.59587
-0.833269,-0.36855,2.428,2.59333
-0.825388,-0.36855,2.428,2.59081
-0.817508,-0.36855,2.428,2.58831
-0.815296,-0.37113,2.445,2.60393
-0.80736,-0.37113,2.445,2.60146
-0.799424,-0.37113,2.445,2.59901
-0.791488,-0.37113,2.445,2.59658
-0.783552,-0.37113,2.445,2.59417
-0.775616,-0.37113,2.445,2.59178
-0.767681,-0.37113,2.445,2.58942
-0.759745,-0.37113,2.445,2.58708
-0.751809,-0.37113,2.445,2.58476
-0.743873,-0.37113,2.445,2.58246
-0.735937,-0.37113,2.445,2.58019
-0.728001,-0.37113,2.445,2.57793
-0.725366,-0.373862,2.463,2.59467
-0.717372,-0.373862,2.463,2.59244
-0.709378,-0.373862,2.463,2.59024
-0.701384,-0.373862,2.463,2.58807
-0.693389,-0.373862,2.463,2.58591
-0.685395,-0.373862,2.463,2.58378
-0.677401,-0.373862,2.463,2.58167
-0.669406,-0.373862,2.463,2.57958
-0.661412,-0.373862,2.463,2.57752
-0.653418,-0.373862,2.463,2.57548
-0.645424,-0.373862,2.463,2.57346
-0.637429,-0.373862,2.463,2.57147
-0.634035,-0.376595,2.481,2.58828
-0.625982,-0.376595,2.481,2.58632
-0.61793,-0.376595,2.481,2.58438
-0.609877,-0.376595,2.481,2.58247
-0.606191,-0.379327,2.499,2.5993
-0.593771,-0.376595,2.481,2.57871
-0.585719,-0.376595,2.481,2.57687
-0.581857,-0.379327,2.499,2.59373
-0.573746,-0.379327,2.499,2.59192
-0.565635,-0.379327,2.499,2.59014
-0.557524,-0.379327,2.499,2.58838
-0.55337,-0.382059,2.517,2.60528
-0.5452,-0.382059,2.517,2.60356
-0.537031,-0.382059,2.517,2.60186
-0.528861,-0.382059,2.517,2.60018
-0.516968,-0.379327,2.499,2.57995
-0.508857,-0.379327,2.499,2.57834
-0.500746,-0.379327,2.499,2.57675
-0.492635,-0.379327,2.499,2.57519
-0.484524,-0.379327,2.499,2.57365
-0.476412,-0.379327,2.499,2.57213
-0.468301,-0.379327,2.499,2.57064
-0.46019,-0.379327,2.499,2.56918
-0.452079,-0.379327,2.499,2.56774
-0.443968,-0.379327,2.499,2.56632
-0.435857,-0.379327,2.499,2.56493
-0.427746,-0.379327,2.499,2.56356
-0.419634,-0.379327,2.499,2.56222
-0.411523,-0.379327,2.499,2.56091
-0.403412,-0.379327,2.499,2.55962
-0.395301,-0.379327,2.499,2.55835
-0.38719,-0.379327,2.499,2.55711
-0.379079,-0.379327,2.499,2.55589
-0.370968,-0.379327,2.499,2.5547
-0.362857,-0.379327,2.499,2.55354
-0.354745,-0.379327,2.499,2.5524
-0.346634,-0.379327,2.499,2.55128
-0.338523,-0.379327,2.499,2.55019
-0.330412,-0.379327,2.499,2.54913
-0.322301,-0.379327,2.499,2.54809
-0.31419,-0.379327,2.499,2.54708
-0.303874,-0.376595,2.481,2.52775
-0.295821,-0.376595,2.481,2.5268
-0.287769,-0.376595,2.481,2.52587
-0.279716,-0.376595,2.481,2.52496
-0.271663,-0.376595,2.481,2.52408
-0.26361,-0.376595,2.481,2.52323
-0.255558,-0.376595,2.481,2.5224
-0.247505,-0.376595,2.481,2.5216
-0.239452,-0.376595,2.481,2.52082
-0.233078,-0.379327,2.499,2.53835
-0.224967,-0.379327,2.499,2.53762
-0.216856,-0.379327,2.499,2.53691
-0.208745,-0.379327,2.499,2.53623
-0.200634,-0.379327,2.499,2.53558
-0.192523,-0.379327,2.499,2.53495
-0.183083,-0.376595,2.481,2.51609
-0.175031,-0.376595,2.481,2.51552
-0.166978,-0.376595,2.481,2.51497
-0.160078,-0.379327,2.499,2.53269
-0.151967,-0.379327,2.499,2.53219
-0.143856,-0.379327,2.499,2.53172
-0.135745,-0.379327,2.499,2.53127
-0.127634,-0.379327,2.499,2.53085
-0.119523,-0.379327,2.499,2.53045
-0.111411,-0.379327,2.499,2.53008
-0.1033,-0.379327,2.499,2.52974
-0.0951891,-0.379327,2.499,2.52942
-0.087078,-0.379327,2.499,2.52912
-0.0789668,-0.379327,2.499,2.52886
-0.0708557,-0.379327,2.499,2.52862
-0.0627446,-0.379327,2.499,2.5284
-0.0546334,-0.379327,2.499,2.52822
-0.0465223,-0.379327,2.499,2.52805
-0.0384112,-0.379327,2.499,2.52792
-0.0303,-0.379327,2.499,2.52781
-0.0221889,-0.379327,2.499,2.52772
-0.0140778,-0.379327,2.499,2.52766
-0.00596664,-0.379327,2.499,2.52763
0.00214449,-0.379327,2.499,2.52763
0.0102556,-0.379327,2.499,2.52765
0.0183668,-0.379327,2.499,2.52769
0.0262872,-0.376595,2.481,2.50956
0.0343399,-0.376595,2.481,2.50965
0.0423926,-0.376595,2.481,2.50978
0.0504453,-0.376595,2.481,2.50993
0.058498,-0.376595,2.481,2.5101
0.0665507,-0.376595,2.481,2.5103
0.0746034,-0.376595,2.481,2.51053
0.0820565,-0.373862,2.463,2.49256
0.0900507,-0.373862,2.463,2.49284
0.098045,-0.373862,2.463,2.49314
0.106039,-0.373862,2.463,2.49347
0.114034,-0.373862,2.463,2.49382
0.122028,-0.373862,2.463,2.4942
0.130022,-0.373862,2.463,2.4946
0.138016,-0.373862,2.463,2.49503
0.146011,-0.373862,2.463,2.49549
0.155131,-0.376595,2.481,2.51421
0.163183,-0.376595,2.481,2.51472
0.171236,-0.376595,2.481,2.51525
0.179289,-0.376595,2.481,2.51582
0.187341,-0.376595,2.481,2.5164
0.195394,-0.376595,2.481,2.51701
0.203447,-0.376595,2.481,2.51765
0.2115,-0.376595,2.481,2.51832
0.219552,-0.376595,2.481,2.51901
0.227605,-0.376595,2.481,2.51972
0.235658,-0.376595,2.481,2.52046
0.24371,-0.376595,2.481,2.52123
0.251763,-0.376595,2.481,2.52202
0.259816,-0.376595,2.481,2.52283
0.267868,-0.376595,2.481,2.52368
0.275921,-0.376595,2.481,2.52454
0.283974,-0.376595,2.481,2.52544
0.292027,-0.376595,2.481,2.52635
0.300079,-0.376595,2.481,2.5273
0.308132,-0.376595,2.481,2.52827
0.313891,-0.373862,2.463,2.51091
0.321885,-0.373862,2.463,2.51192
0.329879,-0.373862,2.463,2.51296
0.337874,-0.373862,2.463,2.51402
0.345868,-0.373862,2.463,2.51511
0.353862,-0.373862,2.463,2.51622
0.364501,-0.376595,2.481,2.53575
0.372554,-0.376595,2.481,2.53692
0.380606,-0.376595,2.481,2.53812
0.388659,-0.376595,2.481,2.53934
0.396712,-0.376595,2.481,2.54058
0.407701,-0.379327,2.499,2.5603
0.415812,-0.379327,2.499,2.5616
0.423923,-0.379327,2.499,2.56293
0.435146,-0.382059,2.517,2.58275
0.443316,-0.382059,2.517,2.58414
0.451486,-0.382059,2.517,2.58556
0.459655,-0.382059,2.517,2.58699
0.467825,-0.382059,2.517,2.58846
0.475994,-0.382059,2.517,2.58995
0.480701,-0.379327,2.499,2.57293
0.488812,-0.379327,2.499,2.57446
0.496924,-0.379327,2.499,2.57601
0.505035,-0.379327,2.499,2.57759
0.513146,-0.379327,2.499,2.57919
0.521257,-0.379327,2.499,2.58081
0.533181,-0.382059,2.517,2.60107
0.541351,-0.382059,2.517,2.60275
0.54952,-0.382059,2.517,2.60446
0.55769,-0.382059,2.517,2.6062
0.565859,-0.382059,2.517,2.60796
0.574029,-0.382059,2.517,2.60975
0.582199,-0.382059,2.517,2.61155
0.590368,-0.382059,2.517,2.61339
0.603056,-0.384943,2.536,2.63499
0.611287,-0.384943,2.536,2.63688
0.619518,-0.384943,2.536,2.6388
0.632453,-0.387827,2.555,2.66053
0.640746,-0.387827,2.555,2.66252
0.649038,-0.387827,2.555,2.66452
0.657331,-0.387827,2.555,2.66656
0.665624,-0.387827,2.555,2.66861
0.673917,-0.387827,2.555,2.67069
0.68221,-0.387827,2.555,2.6728
0.690503,-0.387827,2.555,2.67493
0.693599,-0.384943,2.536,2.65717
0.70183,-0.384943,2.536,2.65933
0.710062,-0.384943,2.536,2.66152
0.712911,-0.382059,2.517,2.64377
0.721081,-0.382059,2.517,2.64598
0.729251,-0.382059,2.517,2.64822
0.73742,-0.382059,2.517,2.65048
0.740258,-0.379327,2.499,2.63379
0.748369,-0.379327,2.499,2.63609
0.75648,-0.379327,2.499,2.6384
0.759084,-0.376595,2.481,2.62172
0.767137,-0.376595,2.481,2.62406
