nan,nan,nan,NaN
nan,nan,nan,NaN
nan,nan,nan,NaN
nan,nan,nan,NaN
nan,nan,nan,NaN
nan,nan,nan,NaN
nan,nan,nan,NaN
nan,nan,nan,NaN
nan,nan,nan,NaN
nan,nan,nan,NaN
nan,nan,nan,NaN
nan,nan,nan,NaN
nan,nan,nan,NaN
nan,nan,nan,NaN
nan,nan,nan,NaN
nan,nan,nan,NaN
-1.23817,-0.936786,2.654,3.07479
-1.22956,-0.936786,2.654,3.07133
-1.22094,-0.936786,2.654,3.0679
-1.21233,-0.936786,2.654,3.06448
-1.22276,-0.951611,2.696,3.10952
-1.23338,-0.966788,2.739,3.15563
-1.23432,-0.974554,2.761,3.17749
-1.22536,-0.974554,2.761,3.17402
-1.22609,-0.982319,2.783,3.19583
-1.21706,-0.982319,2.783,3.19238
-1.19847,-0.974554,2.761,3.16373
-1.18951,-0.974554,2.761,3.16035
-1.18996,-0.982319,2.783,3.18214
-1.17159,-0.974554,2.761,3.15365
-1.15336,-0.966788,2.739,3.12523
-1.14447,-0.966788,2.739,3.12196
-1.13558,-0.966788,2.739,3.11871
-1.10901,-0.951611,2.696,3.06657
-1.07454,-0.929374,2.633,2.99183
-1.066,-0.929374,2.633,2.98878
-1.04942,-0.922314,2.613,2.96306
-1.0254,-0.908548,2.574,2.91589
-1.01705,-0.908548,2.574,2.91296
-0.993802,-0.895135,2.536,2.86709
-0.964196,-0.875722,2.481,2.80213
-0.956143,-0.875722,2.481,2.79937
-0.934334,-0.863015,2.445,2.75605
-0.913515,-0.851014,2.411,2.71508
-0.90569,-0.851014,2.411,2.71246
-0.891534,-0.845013,2.394,2.69075
-0.883763,-0.845013,2.394,2.68818
-0.875993,-0.845013,2.394,2.68564
-0.868223,-0.845013,2.394,2.68311
-0.860452,-0.845013,2.394,2.68061
-0.852682,-0.845013,2.394,2.67812
-0.844912,-0.845013,2.394,2.67566
-0.837141,-0.845013,2.394,2.67322
-0.829371,-0.845013,2.394,2.67079
-0.827435,-0.851014,2.411,2.68734
-0.819609,-0.851014,2.411,2.68494
-0.817508,-0.857014,2.428,2.70148
-0.815296,-0.863015,2.445,2.718
-0.80736,-0.863015,2.445,2.71563
-0.811195,-0.875722,2.481,2.75323
-0.808969,-0.882075,2.499,2.77083
-0.806626,-0.888429,2.517,2.78841
-0.798457,-0.888429,2.517,2.78606
-0.802218,-0.901842,2.555,2.82576
-0.805733,-0.915255,2.593,2.86541
-0.797317,-0.915255,2.593,2.86305
-0.794986,-0.922314,2.613,2.88278
-0.798845,-0.936786,2.654,2.92565
-0.790231,-0.936786,2.654,2.92331
-0.781617,-0.936786,2.654,2.92099
-0.779119,-0.944198,2.675,2.9418
-0.770437,-0.944198,2.675,2.93951
-0.761754,-0.944198,2.675,2.93724
-0.74716,-0.936786,2.654,2.91196
-0.738546,-0.936786,2.654,2.90977
-0.724156,-0.929374,2.633,2.88458
-0.71561,-0.929374,2.633,2.88245
-0.701693,-0.922314,2.613,2.85846
-0.693212,-0.922314,2.613,2.85639
-0.684731,-0.922314,2.613,2.85435
-0.67625,-0.922314,2.613,2.85232
-0.667768,-0.922314,2.613,2.85032
-0.654241,-0.915255,2.593,2.82655
-0.645825,-0.915255,2.593,2.82461
-0.637409,-0.915255,2.593,2.8227
-0.624384,-0.908548,2.574,2.80014
-0.616029,-0.908548,2.574,2.79829
-0.607674,-0.908548,2.574,2.79646
-0.59932,-0.908548,2.574,2.79466
-0.590965,-0.908548,2.574,2.79288
-0.57831,-0.901842,2.555,2.77052
-0.570017,-0.901842,2.555,2.7688
-0.561724,-0.901842,2.555,2.76711
-0.553431,-0.901842,2.555,2.76543
-0.545139,-0.901842,2.555,2.76379
-0.536846,-0.901842,2.555,2.76216
-0.528553,-0.901842,2.555,2.76056
-0.52026,-0.901842,2.555,2.75899
-0.511967,-0.901842,2.555,2.75744
-0.503674,-0.901842,2.555,2.75591
-0.491697,-0.895135,2.536,2.73392
-0.483466,-0.895135,2.536,2.73245
-0.475235,-0.895135,2.536,2.73101
-0.467004,-0.895135,2.536,2.72959
-0.458772,-0.895135,2.536,2.72819
-0.450541,-0.895135,2.536,2.72682
-0.44231,-0.895135,2.536,2.72547
-0.434079,-0.895135,2.536,2.72415
-0.425848,-0.895135,2.536,2.72285
-0.417616,-0.895135,2.536,2.72157
-0.412452,-0.901842,2.555,2.7407
-0.404159,-0.901842,2.555,2.73947
-0.39881,-0.908548,2.574,2.75862
-0.390456,-0.908548,2.574,2.75743
-0.382101,-0.908548,2.574,2.75625
-0.373747,-0.908548,2.574,2.75511
-0.365392,-0.908548,2.574,2.75399
-0.359673,-0.915255,2.593,2.77321
-0.351257,-0.915255,2.593,2.77213
-0.340328,-0.908548,2.574,2.75077
-0.331974,-0.908548,2.574,2.74975
-0.323619,-0.908548,2.574,2.74876
-0.315265,-0.908548,2.574,2.74779
-0.30691,-0.908548,2.574,2.74684
-0.298555,-0.908548,2.574,2.74592
-0.290201,-0.908548,2.574,2.74502
-0.279766,-0.901842,2.555,2.7239
-0.271473,-0.901842,2.555,2.72306
-0.26318,-0.901842,2.555,2.72224
-0.254887,-0.901842,2.555,2.72145
-0.246594,-0.901842,2.555,2.72069
-0.238301,-0.901842,2.555,2.71995
-0.230009,-0.901842,2.555,2.71924
-0.223364,-0.908548,2.574,2.73876
-0.216597,-0.915255,2.593,2.75831
-0.208181,-0.915255,2.593,2.75766
-0.199764,-0.915255,2.593,2.75704
-0.191348,-0.915255,2.593,2.75644
-0.182932,-0.915255,2.593,2.75587
-0.174516,-0.915255,2.593,2.75532
-0.167381,-0.922314,2.613,2.77605
-0.1589,-0.922314,2.613,2.77555
-0.150418,-0.922314,2.613,2.77508
-0.141937,-0.922314,2.613,2.77463
-0.133456,-0.922314,2.613,2.77421
-0.124975,-0.922314,2.613,2.77382
-0.116494,-0.922314,2.613,2.77345
-0.108013,-0.922314,2.613,2.7731
-0.0995315,-0.922314,2.613,2.77279
-0.0910503,-0.922314,2.613,2.77249
-0.0825692,-0.922314,2.613,2.77223
-0.074088,-0.922314,2.613,2.77199
-0.0656069,-0.922314,2.613,2.77178
-0.0571257,-0.922314,2.613,2.77159
-0.0482722,-0.915255,2.593,2.75021
-0.039856,-0.915255,2.593,2.75008
-0.0314398,-0.915255,2.593,2.74997
-0.0230235,-0.915255,2.593,2.74989
-0.0146073,-0.915255,2.593,2.74983
-0.00619107,-0.915255,2.593,2.7498
0.00222516,-0.915255,2.593,2.74979
0.0105634,-0.908548,2.574,2.72966
0.018918,-0.908548,2.574,2.72971
0.0272725,-0.908548,2.574,2.72978
0.0356271,-0.908548,2.574,2.72987
0.0443063,-0.915255,2.593,2.75015
0.0527226,-0.915255,2.593,2.75029
0.0606908,-0.908548,2.574,2.73031
0.0690454,-0.908548,2.574,2.73051
0.0773999,-0.908548,2.574,2.73074
0.0857545,-0.908548,2.574,2.73099
0.0941091,-0.908548,2.574,2.73126
0.102464,-0.908548,2.574,2.73156
0.110818,-0.908548,2.574,2.73189
0.118293,-0.901842,2.555,2.71207
0.126586,-0.901842,2.555,2.71245
0.134879,-0.901842,2.555,2.71285
0.142107,-0.895135,2.536,2.69309
0.150338,-0.895135,2.536,2.69354
0.15857,-0.895135,2.536,2.69401
0.166801,-0.895135,2.536,2.69451
0.175032,-0.895135,2.536,2.69503
0.18189,-0.888429,2.517,2.67538
0.19006,-0.888429,2.517,2.67595
0.198229,-0.888429,2.517,2.67654
0.204923,-0.882075,2.499,2.65802
0.213034,-0.882075,2.499,2.65865
0.221145,-0.882075,2.499,2.65932
0.229256,-0.882075,2.499,2.66
0.237367,-0.882075,2.499,2.66071
0.245479,-0.882075,2.499,2.66145
0.25359,-0.882075,2.499,2.66221
0.261701,-0.882075,2.499,2.663
0.269812,-0.882075,2.499,2.66381
0.277923,-0.882075,2.499,2.66464
0.286034,-0.882075,2.499,2.6655
0.296264,-0.888429,2.517,2.68559
0.304434,-0.888429,2.517,2.6865
0.312603,-0.888429,2.517,2.68744
0.320773,-0.888429,2.517,2.6884
0.328942,-0.888429,2.517,2.68939
0.337112,-0.888429,2.517,2.6904
0.345281,-0.888429,2.517,2.69143
0.353451,-0.888429,2.517,2.69249
0.36435,-0.895135,2.536,2.71391
0.372581,-0.895135,2.536,2.71503
0.380813,-0.895135,2.536,2.71617
0.389044,-0.895135,2.536,2.71734
0.397275,-0.895135,2.536,2.71853
0.405506,-0.895135,2.536,2.71974
0.413738,-0.895135,2.536,2.72098
0.42513,-0.901842,2.555,2.74264
0.433423,-0.901842,2.555,2.74394
0.441716,-0.901842,2.555,2.74526
0.450009,-0.901842,2.555,2.74661
0.46171,-0.908548,2.574,2.76841
0.470064,-0.908548,2.574,2.76982
0.478419,-0.908548,2.574,2.77125
0.486774,-0.908548,2.574,2.7727
0.495128,-0.908548,2.574,2.77418
0.503483,-0.908548,2.574,2.77569
0.511837,-0.908548,2.574,2.77721
0.524032,-0.915255,2.593,2.79928
0.532448,-0.915255,2.593,2.80086
0.540864,-0.915255,2.593,2.80248
0.54928,-0.915255,2.593,2.80411
0.557697,-0.915255,2.593,2.80577
0.566113,-0.915255,2.593,2.80746
0.574529,-0.915255,2.593,2.80917
0.582945,-0.915255,2.593,2.8109
0.591362,-0.915255,2.593,2.81266
0.599778,-0.915255,2.593,2.81444
0.608194,-0.915255,2.593,2.81625
0.612092,-0.908548,2.574,2.79743
0.620447,-0.908548,2.574,2.79927
0.628801,-0.908548,2.574,2.80113
0.637156,-0.908548,2.574,2.80302
0.64551,-0.908548,2.574,2.80493
0.653865,-0.908548,2.574,2.80686
0.662219,-0.908548,2.574,2.80882
0.670574,-0.908548,2.574,2.8108
0.678929,-0.908548,2.574,2.81281
0.687283,-0.908548,2.574,2.81483
0.695638,-0.908548,2.574,2.81689
0.703992,-0.908548,2.574,2.81896
0.712347,-0.908548,2.574,2.82106
0.720701,-0.908548,2.574,2.82318
0.729056,-0.908548,2.574,2.82532
0.737411,-0.908548,2.574,2.82749
0.745765,-0.908548,2.574,2.82968
0.748553,-0.901842,2.555,2.81099
0.756846,-0.901842,2.555,2.81321
0.765139,-0.901842,2.555,2.81545
0.773432,-0.901842,2.555,2.81772
0.781725,-0.901842,2.555,2.82001
0.790018,-0.901842,2.555,2.82232
0.792374,-0.895135,2.536,2.80364
0.800605,-0.895135,2.536,2.80598
0.808836,-0.895135,2.536,2.80834
0.817068,-0.895135,2.536,2.81072
0.825299,-0.895135,2.536,2.81313
0.83353,-0.895135,2.536,2.81555
0.841761,-0.895135,2.536,2.818
0.849993,-0.895135,2.536,2.82047
0.858224,-0.895135,2.536,2.82296
0.866455,-0.895135,2.536,2.82547
0.874686,-0.895135,2.536,2.82801
0.882918,-0.895135,2.536,2.83057
0.891149,-0.895135,2.536,2.83314
0.89938,-0.895135,2.536,2.83574
0.914411,-0.901842,2.555,2.85963
0.922704,-0.901842,2.555,2.86229
0.930997,-0.901842,2.555,2.86498
0.946275,-0.908548,2.574,2.88901
0.954629,-0.908548,2.574,2.89176
0.970092,-0.915255,2.593,2.91589
0.978508,-0.915255,2.593,2.9187
0.994537,-0.922314,2.613,2.94407
nan,nan,nan,NaN
nan,nan,nan,NaN
nan,nan,nan,NaN
nan,nan,nan,NaN
nan,nan,nan,NaN
nan,nan,nan,NaN
nan,nan,nan,NaN
nan,nan,nan,NaN
nan,nan,nan,NaN
nan,nan,nan,NaN
nan,nan,nan,NaN
nan,nan,nan,NaN
nan,nan,nan,NaN
nan,nan,nan,NaN
nan,nan,nan,NaN
nan,nan,nan,NaN
nan,nan,nan,NaN
nan,nan,nan,NaN
nan,nan,nan,NaN
nan,nan,nan,NaN
nan,nan,nan,NaN
nan,nan,nan,NaN
nan,nan,nan,NaN
nan,nan,nan,NaN
nan,nan,nan,NaN
nan,nan,nan,NaN
nan,nan,nan,NaN
nan,nan,nan,NaN
nan,nan,nan,NaN
nan,nan,nan,NaN
nan,nan,nan,NaN
nan,nan,nan,NaN
nan,nan,nan,NaN
nan,nan,nan,NaN
nan,nan,nan,NaN
nan,nan,nan,NaN
nan,nan,nan,NaN
nan,nan,nan,NaN
nan,nan,nan,NaN
nan,nan,nan,NaN
nan,nan,nan,NaN
nan,nan,nan,NaN
1.71243,-1.16198,3.292,3.88843
1.72311,-1.16198,3.292,3.89315
1.7338,-1.16198,3.292,3.89789
1.76144,-1.17328,3.324,3.94059
nan,nan,nan,NaN
1.83612,-1.20822,3.423,4.06793
1.84723,-1.20822,3.423,4.07296
nan,nan,nan,NaN
nan,nan,nan,NaN
1.95913,-1.2587,3.566,4.25897
1.9707,-1.2587,3.566,4.26431
2.0034,-1.27211,3.604,4.31517
2.0151,-1.27211,3.604,4.32061
2.02679,-1.27211,3.604,4.32608
2.03849,-1.27211,3.604,4.33157
2.05019,-1.27211,3.604,4.33709
2.06189,-1.27211,3.604,4.34263
2.07358,-1.27211,3.604,4.3482
2.10727,-1.28552,3.642,4.39969
2.09698,-1.27211,3.604,4.3594
2.10868,-1.27211,3.604,4.36504
2.12037,-1.27211,3.604,4.37071
2.10959,-1.2587,3.566,4.33025
2.09916,-1.24564,3.529,4.29091
2.11061,-1.24564,3.529,4.29653
2.07937,-1.22057,3.458,4.21561
2.06944,-1.20822,3.423,4.17843
2.08055,-1.20822,3.423,4.18395
2.07088,-1.19622,3.389,4.14787
2.04195,-1.17328,3.324,4.07371
2.05274,-1.17328,3.324,4.07913
2.0238,-1.15069,3.26,4.00593
1.97821,-1.11892,3.17,3.90054
1.9885,-1.11892,3.17,3.90577
1.99879,-1.11892,3.17,3.91102
nan,nan,nan,NaN
1.91299,-1.05997,3.003,3.71498
1.92273,-1.05997,3.003,3.72001
1.89902,-1.04162,2.951,3.66055
1.86074,-1.0155,2.877,3.57361
1.87007,-1.0155,2.877,3.57848
1.87941,-1.0155,2.877,3.58337
1.87299,-1.00703,2.853,3.55835
1.88225,-1.00703,2.853,3.56323
1.8756,-0.998556,2.829,3.53811
1.86946,-0.990438,2.806,3.51418
1.87857,-0.990438,2.806,3.51904
1.8722,-0.982319,2.783,3.49502
1.86637,-0.974554,2.761,3.4722
1.87533,-0.974554,2.761,3.47703
-2.37465,-1.19711,3.423,4.33462
-2.34006,-1.18522,3.389,4.28555
-2.32906,-1.18522,3.389,4.27956
-2.31806,-1.18522,3.389,4.27358
-2.30706,-1.18522,3.389,4.26762
-2.2737,-1.17368,3.356,4.22019
-2.24123,-1.16249,3.324,4.17415
-2.23045,-1.16249,3.324,4.16836
-2.21966,-1.16249,3.324,4.1626
-2.1876,-1.1513,3.292,4.11684
-2.17692,-1.1513,3.292,4.11117
-2.16623,-1.1513,3.292,4.10552
-2.15555,-1.1513,3.292,4.0999
-2.14486,-1.1513,3.292,4.09429
-2.13418,-1.1513,3.292,4.0887
-2.10285,-1.14011,3.26,4.04344
-2.09227,-1.14011,3.26,4.03795
-2.08169,-1.14011,3.26,4.03248
-2.05205,-1.12962,3.23,3.98997
-2.04156,-1.12962,3.23,3.98459
-2.03108,-1.12962,3.23,3.97922
-2.0206,-1.12962,3.23,3.97388
-1.99082,-1.11878,3.199,3.93047
-1.98044,-1.11878,3.199,3.92523
-1.97006,-1.11878,3.199,3.92
-1.95967,-1.11878,3.199,3.91479
-1.94929,-1.11878,3.199,3.9096
-1.92133,-1.10863,3.17,3.86904
-1.91104,-1.10863,3.17,3.86394
nan,nan,nan,NaN
nan,nan,nan,NaN
nan,nan,nan,NaN
nan,nan,nan,NaN
nan,nan,nan,NaN
nan,nan,nan,NaN
nan,nan,nan,NaN
nan,nan,nan,NaN
nan,nan,nan,NaN
nan,nan,nan,NaN
nan,nan,nan,NaN
nan,nan,nan,NaN
nan,nan,nan,NaN
nan,nan,nan,NaN
nan,nan,nan,NaN
nan,nan,nan,NaN
nan,nan,nan,NaN
nan,nan,nan,NaN
nan,nan,nan,NaN
nan,nan,nan,NaN
nan,nan,nan,NaN
nan,nan,nan,NaN
nan,nan,nan,NaN
nan,nan,nan,NaN
nan,nan,nan,NaN
nan,nan,nan,NaN
nan,nan,nan,NaN
nan,nan,nan,NaN
nan,nan,nan,NaN
nan,nan,nan,NaN
nan,nan,nan,NaN
nan,nan,nan,NaN
nan,nan,nan,NaN
nan,nan,nan,NaN
nan,nan,nan,NaN
nan,nan,nan,NaN
nan,nan,nan,NaN
nan,nan,nan,NaN
nan,nan,nan,NaN
nan,nan,nan,NaN
nan,nan,nan,NaN
-1.22837,-0.92083,2.633,3.04787
-1.21983,-0.92083,2.633,3.04444
-1.22094,-0.928174,2.654,3.06528
-1.21233,-0.928174,2.654,3.06186
-1.21324,-0.935518,2.675,3.08266
-1.22347,-0.950207,2.717,3.1276
-1.22449,-0.957901,2.739,3.14945
-1.2156,-0.957901,2.739,3.14601
-1.2164,-0.965595,2.761,3.16783
-1.20744,-0.965595,2.761,3.1644
-1.19847,-0.965595,2.761,3.16099
-1.18951,-0.965595,2.761,3.1576
-1.18055,-0.965595,2.761,3.15423
-1.17159,-0.965595,2.761,3.15089
-1.15336,-0.957901,2.739,3.12249
-1.14447,-0.957901,2.739,3.11922
-1.12646,-0.950207,2.717,3.09094
-1.10037,-0.935518,2.675,3.04
-1.07454,-0.92083,2.633,2.98919
-1.066,-0.92083,2.633,2.98613
-1.04139,-0.906841,2.593,2.93777
-1.0254,-0.900196,2.574,2.91329
-1.01705,-0.900196,2.574,2.91036
-1.00125,-0.893551,2.555,2.88599
-0.978187,-0.880262,2.517,2.84025
-0.970017,-0.880262,2.517,2.83744
-0.941212,-0.861376,2.463,2.77385
-0.919957,-0.849136,2.428,2.73176
-0.912076,-0.849136,2.428,2.72912
-0.904195,-0.849136,2.428,2.7265
-0.890039,-0.843191,2.411,2.70482
-0.882213,-0.843191,2.411,2.70226
-0.874388,-0.843191,2.411,2.69971
-0.866562,-0.843191,2.411,2.69719
-0.858737,-0.843191,2.411,2.69468
-0.850911,-0.843191,2.411,2.6922
-0.843086,-0.843191,2.411,2.68974
-0.84115,-0.849136,2.428,2.70624
-0.833269,-0.849136,2.428,2.7038
-0.825388,-0.849136,2.428,2.70139
-0.823232,-0.855081,2.445,2.71789
-0.8273,-0.867671,2.481,2.75547
-0.825191,-0.873967,2.499,2.77304
-0.81708,-0.873967,2.499,2.77064
-0.814796,-0.880262,2.517,2.7882
-0.818804,-0.893551,2.555,2.82788
-0.810511,-0.893551,2.555,2.82549
-0.808184,-0.900196,2.574,2.84412
-0.811948,-0.913835,2.613,2.88481
-0.803467,-0.913835,2.613,2.88243
-0.801071,-0.92083,2.633,2.90213
-0.798845,-0.928174,2.654,2.92291
-0.796484,-0.935518,2.675,2.94367
-0.787802,-0.935518,2.675,2.94133
-0.785236,-0.942863,2.696,2.96209
-0.776485,-0.942863,2.696,2.95979
-0.761754,-0.935518,2.675,2.93447
-0.753072,-0.935518,2.675,2.93222
-0.74439,-0.935518,2.675,2.93001
-0.729932,-0.928174,2.654,2.90483
-0.721317,-0.928174,2.654,2.90268
-0.707064,-0.92083,2.633,2.8776
-0.698518,-0.92083,2.633,2.87551
-0.684731,-0.913835,2.613,2.85162
-0.67625,-0.913835,2.613,2.84959
-0.667768,-0.913835,2.613,2.84759
-0.654241,-0.906841,2.593,2.82383
-0.645825,-0.906841,2.593,2.8219
-0.637409,-0.906841,2.593,2.81998
-0.628992,-0.906841,2.593,2.81809
-0.620576,-0.906841,2.593,2.81623
-0.61216,-0.906841,2.593,2.81438
-0.59932,-0.900196,2.574,2.79196
-0.590965,-0.900196,2.574,2.79017
-0.582611,-0.900196,2.574,2.78842
-0.574256,-0.900196,2.574,2.78668
-0.561724,-0.893551,2.555,2.76442
-0.553431,-0.893551,2.555,2.76274
-0.545139,-0.893551,2.555,2.76109
-0.536846,-0.893551,2.555,2.75947
-0.528553,-0.893551,2.555,2.75787
-0.52026,-0.893551,2.555,2.75629
-0.511967,-0.893551,2.555,2.75474
-0.503674,-0.893551,2.555,2.75321
-0.491697,-0.886906,2.536,2.73124
-0.483466,-0.886906,2.536,2.72977
-0.475235,-0.886906,2.536,2.72832
-0.467004,-0.886906,2.536,2.7269
-0.458772,-0.886906,2.536,2.7255
-0.450541,-0.886906,2.536,2.72413
-0.44231,-0.886906,2.536,2.72278
-0.434079,-0.886906,2.536,2.72146
-0.425848,-0.886906,2.536,2.72016
-0.417616,-0.886906,2.536,2.71888
-0.409385,-0.886906,2.536,2.71763
-0.401154,-0.886906,2.536,2.7164
-0.39881,-0.900196,2.574,2.75588
-0.390456,-0.900196,2.574,2.75468
-0.384922,-0.906841,2.593,2.77384
-0.373747,-0.900196,2.574,2.75237
-0.365392,-0.900196,2.574,2.75124
-0.359673,-0.906841,2.593,2.77045
-0.351257,-0.906841,2.593,2.76937
-0.340328,-0.900196,2.574,2.74803
-0.331974,-0.900196,2.574,2.747
-0.323619,-0.900196,2.574,2.74601
-0.312937,-0.893551,2.555,2.72477
-0.304645,-0.893551,2.555,2.72383
-0.296352,-0.893551,2.555,2.72292
-0.288059,-0.893551,2.555,2.72203
-0.279766,-0.893551,2.555,2.72116
-0.271473,-0.893551,2.555,2.72032
-0.26318,-0.893551,2.555,2.71951
-0.254887,-0.893551,2.555,2.71872
-0.246594,-0.893551,2.555,2.71795
-0.238301,-0.893551,2.555,2.71721
-0.230009,-0.893551,2.555,2.7165
-0.223364,-0.900196,2.574,2.736
-0.216597,-0.906841,2.593,2.75553
-0.208181,-0.906841,2.593,2.75488
-0.199764,-0.906841,2.593,2.75425
-0.191348,-0.906841,2.593,2.75366
-0.182932,-0.906841,2.593,2.75308
-0.174516,-0.906841,2.593,2.75254
-0.167381,-0.913835,2.613,2.77324
-0.1589,-0.913835,2.613,2.77274
-0.150418,-0.913835,2.613,2.77227
-0.141937,-0.913835,2.613,2.77182
-0.133456,-0.913835,2.613,2.7714
-0.124975,-0.913835,2.613,2.77101
-0.116494,-0.913835,2.613,2.77064
-0.108013,-0.913835,2.613,2.77029
-0.0995315,-0.913835,2.613,2.76998
-0.0910503,-0.913835,2.613,2.76969
-0.0825692,-0.913835,2.613,2.76942
-0.074088,-0.913835,2.613,2.76918
-0.0656069,-0.913835,2.613,2.76897
-0.0571257,-0.913835,2.613,2.76878
-0.0482722,-0.906841,2.593,2.74742
-0.039856,-0.906841,2.593,2.74729
-0.0314398,-0.906841,2.593,2.74718
-0.0230235,-0.906841,2.593,2.7471
-0.0146073,-0.906841,2.593,2.74704
-0.00619107,-0.906841,2.593,2.74701
0.00222516,-0.906841,2.593,2.747
0.0105634,-0.900196,2.574,2.72689
0.018918,-0.900196,2.574,2.72694
0.0272725,-0.900196,2.574,2.72701
0.0356271,-0.900196,2.574,2.7271
0.0443063,-0.906841,2.593,2.74736
0.0527226,-0.906841,2.593,2.74751
0.0606908,-0.900196,2.574,2.72755
0.0690454,-0.900196,2.574,2.72775
0.0773999,-0.900196,2.574,2.72797
0.0857545,-0.900196,2.574,2.72822
0.0941091,-0.900196,2.574,2.7285
0.102464,-0.900196,2.574,2.7288
0.110818,-0.900196,2.574,2.72912
0.118293,-0.893551,2.555,2.70933
0.126586,-0.893551,2.555,2.7097
0.134879,-0.893551,2.555,2.7101
0.142107,-0.886906,2.536,2.69037
0.150338,-0.886906,2.536,2.69082
0.15857,-0.886906,2.536,2.69129
0.166801,-0.886906,2.536,2.69179
0.175032,-0.886906,2.536,2.69231
0.18189,-0.880262,2.517,2.67268
0.19006,-0.880262,2.517,2.67325
0.198229,-0.880262,2.517,2.67384
0.204923,-0.873967,2.499,2.65534
0.213034,-0.873967,2.499,2.65597
0.221145,-0.873967,2.499,2.65664
0.229256,-0.873967,2.499,2.65733
0.237367,-0.873967,2.499,2.65804
0.245479,-0.873967,2.499,2.65877
0.25359,-0.873967,2.499,2.65953
0.261701,-0.873967,2.499,2.66032
0.269812,-0.873967,2.499,2.66113
0.277923,-0.873967,2.499,2.66197
0.286034,-0.873967,2.499,2.66282
0.294145,-0.873967,2.499,2.66371
0.302256,-0.873967,2.499,2.66462
0.310368,-0.873967,2.499,2.66555
0.318479,-0.873967,2.499,2.6665
0.32659,-0.873967,2.499,2.66749
0.334701,-0.873967,2.499,2.66849
0.345281,-0.880262,2.517,2.68875
0.353451,-0.880262,2.517,2.68981
0.36162,-0.880262,2.517,2.6909
0.36979,-0.880262,2.517,2.69201
0.380813,-0.886906,2.536,2.71347
0.389044,-0.886906,2.536,2.71464
0.397275,-0.886906,2.536,2.71583
0.405506,-0.886906,2.536,2.71705
0.413738,-0.886906,2.536,2.71829
0.421969,-0.886906,2.536,2.71955
0.433423,-0.893551,2.555,2.74123
0.441716,-0.893551,2.555,2.74255
0.450009,-0.893551,2.555,2.7439
0.458302,-0.893551,2.555,2.74527
0.466595,-0.893551,2.555,2.74667
0.474888,-0.893551,2.555,2.74809
0.48318,-0.893551,2.555,2.74953
0.495128,-0.900196,2.574,2.77146
0.503483,-0.900196,2.574,2.77296
0.511837,-0.900196,2.574,2.77449
0.520192,-0.900196,2.574,2.77605
0.528546,-0.900196,2.574,2.77762
0.540864,-0.906841,2.593,2.79974
0.54928,-0.906841,2.593,2.80138
0.557697,-0.906841,2.593,2.80304
0.566113,-0.906841,2.593,2.80473
0.574529,-0.906841,2.593,2.80644
0.582945,-0.906841,2.593,2.80817
0.587028,-0.900196,2.574,2.78934
0.595383,-0.900196,2.574,2.79111
0.603738,-0.900196,2.574,2.79291
0.612092,-0.900196,2.574,2.79472
0.620447,-0.900196,2.574,2.79657
0.628801,-0.900196,2.574,2.79843
0.637156,-0.900196,2.574,2.80032
0.64551,-0.900196,2.574,2.80223
0.653865,-0.900196,2.574,2.80417
0.662219,-0.900196,2.574,2.80613
0.670574,-0.900196,2.574,2.80811
0.678929,-0.900196,2.574,2.81012
0.687283,-0.900196,2.574,2.81215
0.695638,-0.900196,2.574,2.8142
0.703992,-0.900196,2.574,2.81628
0.712347,-0.900196,2.574,2.81838
0.720701,-0.900196,2.574,2.8205
0.723674,-0.893551,2.555,2.80181
0.731967,-0.893551,2.555,2.80397
0.74026,-0.893551,2.555,2.80614
0.742987,-0.886906,2.536,2.78746
0.751218,-0.886906,2.536,2.78966
0.759449,-0.886906,2.536,2.79189
0.76768,-0.886906,2.536,2.79414
0.775912,-0.886906,2.536,2.79642
0.784143,-0.886906,2.536,2.79871
0.792374,-0.886906,2.536,2.80103
0.794607,-0.880262,2.517,2.78236
0.802777,-0.880262,2.517,2.78471
0.810946,-0.880262,2.517,2.78707
0.819116,-0.880262,2.517,2.78946
0.827285,-0.880262,2.517,2.79187
0.835455,-0.880262,2.517,2.7943
0.843624,-0.880262,2.517,2.79676
0.851794,-0.880262,2.517,2.79923
0.859963,-0.880262,2.517,2.80173
0.868133,-0.880262,2.517,2.80425
0.876303,-0.880262,2.517,2.80679
0.884472,-0.880262,2.517,2.80935
0.892642,-0.880262,2.517,2.81193
0.907611,-0.886906,2.536,2.83578
0.915842,-0.886906,2.536,2.83843
0.924074,-0.886906,2.536,2.84109
0.932305,-0.886906,2.536,2.84378
0.947583,-0.893551,2.555,2.86782
0.955876,-0.893551,2.555,2.87057
0.964168,-0.893551,2.555,2.87334
0.979693,-0.900196,2.574,2.89752
nan,nan,nan,NaN
nan,nan,nan,NaN
nan,nan,nan,NaN
nan,nan,nan,NaN
nan,nan,nan,NaN
nan,nan,nan,NaN
nan,nan,nan,NaN
nan,nan,nan,NaN
nan,nan,nan,NaN
nan,nan,nan,NaN
nan,nan,nan,NaN
nan,nan,nan,NaN
nan,nan,nan,NaN
nan,nan,nan,NaN
nan,nan,nan,NaN
nan,nan,nan,NaN
nan,nan,nan,NaN
nan,nan,nan,NaN
nan,nan,nan,NaN
nan,nan,nan,NaN
nan,nan,nan,NaN
nan,nan,nan,NaN
nan,nan,nan,NaN
nan,nan,nan,NaN
nan,nan,nan,NaN
nan,nan,nan,NaN
nan,nan,nan,NaN
nan,nan,nan,NaN
nan,nan,nan,NaN
nan,nan,nan,NaN
nan,nan,nan,NaN
nan,nan,nan,NaN
nan,nan,nan,NaN
nan,nan,nan,NaN
nan,nan,nan,NaN
nan,nan,nan,NaN
nan,nan,nan,NaN
nan,nan,nan,NaN
nan,nan,nan,NaN
nan,nan,nan,NaN
nan,nan,nan,NaN
nan,nan,nan,NaN
1.71243,-1.1513,3.292,3.88525
1.72311,-1.1513,3.292,3.88997
1.7338,-1.1513,3.292,3.89472
1.79588,-1.18522,3.389,4.01438
1.80688,-1.18522,3.389,4.01932
1.81788,-1.18522,3.389,4.02427
1.84723,-1.19711,3.423,4.06968
nan,nan,nan,NaN
nan,nan,nan,NaN
1.95913,-1.24712,3.566,4.25557
1.9707,-1.24712,3.566,4.26091
2.0034,-1.26041,3.604,4.31174
2.0151,-1.26041,3.604,4.31718
2.04816,-1.2737,3.642,4.36823
2.05998,-1.2737,3.642,4.37379
2.07181,-1.2737,3.642,4.37937
2.08363,-1.2737,3.642,4.38497
2.09545,-1.2737,3.642,4.3906
2.10727,-1.2737,3.642,4.39626
2.09698,-1.26041,3.604,4.35601
2.10868,-1.26041,3.604,4.36165
2.12037,-1.26041,3.604,4.36732
2.10959,-1.24712,3.566,4.3269
2.07774,-1.22159,3.493,4.24386
2.08908,-1.22159,3.493,4.24942
2.07937,-1.20935,3.458,4.21237
2.06944,-1.19711,3.423,4.17523
2.08055,-1.19711,3.423,4.18075
2.07088,-1.18522,3.389,4.14471
2.04195,-1.16249,3.324,4.07062
2.05274,-1.16249,3.324,4.07604
2.00517,-1.12962,3.23,3.96606
1.97821,-1.10863,3.17,3.8976
1.9885,-1.10863,3.17,3.90283
1.99879,-1.10863,3.17,3.90809
nan,nan,nan,NaN
1.91299,-1.05023,3.003,3.71221
1.92273,-1.05023,3.003,3.71724
1.89902,-1.03204,2.951,3.65784
1.9086,-1.03204,2.951,3.66282
nan,nan,nan,NaN
1.87941,-1.00616,2.877,3.58074
1.87299,-0.99777,2.853,3.55574
1.88225,-0.99777,2.853,3.56062
1.8756,-0.989376,2.829,3.53553
1.86946,-0.981333,2.806,3.51163
1.87857,-0.981333,2.806,3.51649
1.88768,-0.981333,2.806,3.52136
1.88124,-0.973289,2.783,3.49735
1.89027,-0.973289,2.783,3.50221
-2.37465,-1.18601,3.423,4.33157
-2.34006,-1.17423,3.389,4.28252
-2.32906,-1.17423,3.389,4.27652
-2.31806,-1.17423,3.389,4.27054
-2.30706,-1.17423,3.389,4.26458
-2.2737,-1.16279,3.356,4.21717
-2.24123,-1.15171,3.324,4.17115
-2.23045,-1.15171,3.324,4.16537
-2.21966,-1.15171,3.324,4.1596
-2.1876,-1.14062,3.292,4.11386
-2.17692,-1.14062,3.292,4.10819
-2.16623,-1.14062,3.292,4.10254
-2.15555,-1.14062,3.292,4.09691
-2.14486,-1.14062,3.292,4.0913
-2.13418,-1.14062,3.292,4.08571
-2.10285,-1.12953,3.26,4.04047
-2.09227,-1.12953,3.26,4.03498
-2.08169,-1.12953,3.26,4.0295
-2.05205,-1.11914,3.23,3.98701
-2.04156,-1.11914,3.23,3.98163
-2.03108,-1.11914,3.23,3.97626
-2.0206,-1.11914,3.23,3.97092
-1.99082,-1.10839,3.199,3.92753
-1.98044,-1.10839,3.199,3.92228
-1.97006,-1.10839,3.199,3.91705
-1.95967,-1.10839,3.199,3.91184
-1.94929,-1.10839,3.199,3.90664
-1.92133,-1.09835,3.17,3.86611
-1.91104,-1.09835,3.17,3.861
nan,nan,nan,NaN
nan,nan,nan,NaN
nan,nan,nan,NaN
nan,nan,nan,NaN
nan,nan,nan,NaN
nan,nan,nan,NaN
nan,nan,nan,NaN
nan,nan,nan,NaN
nan,nan,nan,NaN
nan,nan,nan,NaN
nan,nan,nan,NaN
nan,nan,nan,NaN
nan,nan,nan,NaN
nan,nan,nan,NaN
nan,nan,nan,NaN
nan,nan,nan,NaN
nan,nan,nan,NaN
nan,nan,nan,NaN
nan,nan,nan,NaN
nan,nan,nan,NaN
nan,nan,nan,NaN
nan,nan,nan,NaN
nan,nan,nan,NaN
nan,nan,nan,NaN
nan,nan,nan,NaN
nan,nan,nan,NaN
nan,nan,nan,NaN
nan,nan,nan,NaN
nan,nan,nan,NaN
nan,nan,nan,NaN
nan,nan,nan,NaN
nan,nan,nan,NaN
nan,nan,nan,NaN
nan,nan,nan,NaN
nan,nan,nan,NaN
nan,nan,nan,NaN
nan,nan,nan,NaN
nan,nan,nan,NaN
-1.23496,-0.898427,2.593,3.00931
-1.21756,-0.891844,2.574,2.98384
-1.2092,-0.891844,2.574,2.98044
-1.20085,-0.891844,2.574,2.97706
-1.21056,-0.905357,2.613,3.01876
-1.20208,-0.905357,2.613,3.01537
-1.1936,-0.905357,2.613,3.012
-1.20371,-0.919562,2.654,3.05585
-1.20456,-0.926838,2.675,3.07662
-1.21465,-0.941391,2.717,3.12149
-1.20583,-0.941391,2.717,3.11807
-1.19701,-0.941391,2.717,3.11467
-1.18819,-0.941391,2.717,3.11129
-1.17938,-0.941391,2.717,3.10793
-1.17056,-0.941391,2.717,3.10459
-1.16174,-0.941391,2.717,3.10128
-1.14401,-0.934115,2.696,3.07404
-1.13526,-0.934115,2.696,3.0708
-1.12651,-0.934115,2.696,3.06757
-1.10905,-0.926838,2.675,3.0405
-1.09173,-0.919562,2.654,3.0135
-1.06638,-0.905357,2.613,2.96388
-1.0579,-0.905357,2.613,2.96084
-1.03376,-0.891844,2.574,2.91368
-1.0254,-0.891844,2.574,2.91072
-1.01705,-0.891844,2.574,2.90779
-1.00125,-0.885261,2.555,2.88344
-0.978187,-0.872094,2.517,2.83773
-0.970017,-0.872094,2.517,2.83492
-0.941212,-0.853384,2.463,2.77137
-0.933218,-0.853384,2.463,2.76867
-0.925224,-0.853384,2.463,2.76599
-0.904195,-0.841258,2.428,2.72405
-0.896315,-0.841258,2.428,2.72145
-0.888434,-0.841258,2.428,2.71886
-0.880553,-0.841258,2.428,2.7163
-0.872672,-0.841258,2.428,2.71375
-0.864792,-0.841258,2.428,2.71123
-0.862911,-0.847148,2.445,2.72769
-0.854975,-0.847148,2.445,2.72519
-0.847039,-0.847148,2.445,2.72271
-0.845281,-0.853384,2.463,2.74028
-0.837286,-0.853384,2.463,2.73782
-0.829292,-0.853384,2.463,2.73539
-0.8273,-0.859621,2.481,2.75295
-0.831135,-0.872094,2.517,2.79045
-0.822965,-0.872094,2.517,2.78803
-0.820946,-0.878677,2.536,2.80666
-0.824893,-0.891844,2.574,2.84628
-0.816539,-0.891844,2.574,2.84387
-0.81415,-0.898427,2.593,2.86246
-0.811948,-0.905357,2.613,2.88213
-0.803467,-0.905357,2.613,2.87976
-0.801071,-0.912286,2.633,2.89943
-0.798845,-0.919562,2.654,2.92018
-0.796484,-0.926838,2.675,2.94093
-0.787802,-0.926838,2.675,2.93859
-0.785236,-0.934115,2.696,2.95932
-0.776485,-0.934115,2.696,2.95701
-0.767735,-0.934115,2.696,2.95473
-0.753072,-0.926838,2.675,2.92947
-0.74439,-0.926838,2.675,2.92725
-0.735707,-0.926838,2.675,2.92505
-0.721317,-0.919562,2.654,2.89993
-0.707064,-0.912286,2.633,2.87487
-0.698518,-0.912286,2.633,2.87278
-0.689972,-0.912286,2.633,2.87072
-0.67625,-0.905357,2.613,2.84688
-0.667768,-0.905357,2.613,2.84488
-0.659287,-0.905357,2.613,2.8429
-0.645825,-0.898427,2.593,2.8192
-0.637409,-0.898427,2.593,2.81729
-0.628992,-0.898427,2.593,2.8154
-0.620576,-0.898427,2.593,2.81353
-0.61216,-0.898427,2.593,2.81168
-0.59932,-0.891844,2.574,2.78927
-0.590965,-0.891844,2.574,2.78749
-0.582611,-0.891844,2.574,2.78573
-0.574256,-0.891844,2.574,2.784
-0.561724,-0.885261,2.555,2.76175
-0.553431,-0.885261,2.555,2.76007
-0.545139,-0.885261,2.555,2.75842
-0.536846,-0.885261,2.555,2.75679
-0.528553,-0.885261,2.555,2.75519
-0.52026,-0.885261,2.555,2.75361
-0.511967,-0.885261,2.555,2.75206
-0.503674,-0.885261,2.555,2.75053
-0.495381,-0.885261,2.555,2.74902
-0.487088,-0.885261,2.555,2.74754
-0.478795,-0.885261,2.555,2.74608
-0.470502,-0.885261,2.555,2.74465
-0.46221,-0.885261,2.555,2.74324
-0.450541,-0.878677,2.536,2.72146
-0.44231,-0.878677,2.536,2.72011
-0.434079,-0.878677,2.536,2.71879
-0.425848,-0.878677,2.536,2.71748
-0.417616,-0.878677,2.536,2.71621
-0.409385,-0.878677,2.536,2.71495
-0.401154,-0.878677,2.536,2.71372
-0.39881,-0.891844,2.574,2.75316
-0.390456,-0.891844,2.574,2.75197
-0.384922,-0.898427,2.593,2.7711
-0.373747,-0.891844,2.574,2.74965
-0.365392,-0.891844,2.574,2.74852
-0.359673,-0.898427,2.593,2.7677
-0.351257,-0.898427,2.593,2.76662
-0.340328,-0.891844,2.574,2.7453
-0.331974,-0.891844,2.574,2.74428
-0.323619,-0.891844,2.574,2.74328
-0.312937,-0.885261,2.555,2.72207
-0.304645,-0.885261,2.555,2.72112
-0.296352,-0.885261,2.555,2.72021
-0.288059,-0.885261,2.555,2.71932
-0.279766,-0.885261,2.555,2.71845
-0.271473,-0.885261,2.555,2.71761
-0.26318,-0.885261,2.555,2.71679
-0.254887,-0.885261,2.555,2.716
-0.246594,-0.885261,2.555,2.71524
-0.238301,-0.885261,2.555,2.7145
-0.230009,-0.885261,2.555,2.71378
-0.223364,-0.891844,2.574,2.73327
-0.21501,-0.891844,2.574,2.7326
-0.206655,-0.891844,2.574,2.73195
-0.199764,-0.898427,2.593,2.7515
-0.191348,-0.898427,2.593,2.7509
-0.182932,-0.898427,2.593,2.75032
-0.174516,-0.898427,2.593,2.74978
-0.1661,-0.898427,2.593,2.74926
-0.157683,-0.898427,2.593,2.74876
-0.150418,-0.905357,2.613,2.76949
-0.141937,-0.905357,2.613,2.76904
-0.133456,-0.905357,2.613,2.76862
-0.124975,-0.905357,2.613,2.76822
-0.116494,-0.905357,2.613,2.76785
-0.108013,-0.905357,2.613,2.76751
-0.0995315,-0.905357,2.613,2.76719
-0.0910503,-0.905357,2.613,2.7669
-0.0825692,-0.905357,2.613,2.76663
-0.073521,-0.898427,2.593,2.74522
-0.0651047,-0.898427,2.593,2.74501
-0.0566885,-0.898427,2.593,2.74482
-0.0482722,-0.898427,2.593,2.74466
-0.039856,-0.898427,2.593,2.74452
-0.0314398,-0.898427,2.593,2.74441
-0.0230235,-0.898427,2.593,2.74433
-0.0146073,-0.898427,2.593,2.74427
-0.00619107,-0.898427,2.593,2.74424
0.00222516,-0.898427,2.593,2.74424
0.0105634,-0.891844,2.574,2.72415
0.018918,-0.891844,2.574,2.72419
0.0272725,-0.891844,2.574,2.72426
0.0356271,-0.891844,2.574,2.72436
0.0443063,-0.898427,2.593,2.74459
0.0527226,-0.898427,2.593,2.74474
0.0606908,-0.891844,2.574,2.7248
0.0690454,-0.891844,2.574,2.725
0.0773999,-0.891844,2.574,2.72523
0.0857545,-0.891844,2.574,2.72548
0.0934144,-0.885261,2.555,2.70563
0.101707,-0.885261,2.555,2.70593
0.110818,-0.891844,2.574,2.72638
0.118293,-0.885261,2.555,2.7066
0.126586,-0.885261,2.555,2.70698
0.134879,-0.885261,2.555,2.70738
0.142107,-0.878677,2.536,2.68767
0.150338,-0.878677,2.536,2.68812
0.15857,-0.878677,2.536,2.68859
0.166801,-0.878677,2.536,2.68909
0.173721,-0.872094,2.517,2.66946
0.18189,-0.872094,2.517,2.67
0.19006,-0.872094,2.517,2.67057
0.198229,-0.872094,2.517,2.67117
0.204923,-0.865858,2.499,2.65268
0.213034,-0.865858,2.499,2.65332
0.221145,-0.865858,2.499,2.65398
0.229256,-0.865858,2.499,2.65467
0.237367,-0.865858,2.499,2.65538
0.24371,-0.859621,2.481,2.63699
0.251763,-0.859621,2.481,2.63774
0.259816,-0.859621,2.481,2.63853
0.267868,-0.859621,2.481,2.63933
0.275921,-0.859621,2.481,2.64016
0.283974,-0.859621,2.481,2.64101
0.292027,-0.859621,2.481,2.64189
0.300079,-0.859621,2.481,2.64279
0.308132,-0.859621,2.481,2.64372
0.318479,-0.865858,2.499,2.66386
0.32659,-0.865858,2.499,2.66484
0.334701,-0.865858,2.499,2.66585
0.342812,-0.865858,2.499,2.66688
0.350923,-0.865858,2.499,2.66793
0.359034,-0.865858,2.499,2.66901
0.367146,-0.865858,2.499,2.67011
0.37796,-0.872094,2.517,2.69048
0.386129,-0.872094,2.517,2.69164
0.394299,-0.872094,2.517,2.69283
0.405506,-0.878677,2.536,2.71437
0.413738,-0.878677,2.536,2.71561
0.421969,-0.878677,2.536,2.71688
0.4302,-0.878677,2.536,2.71817
0.438431,-0.878677,2.536,2.71948
0.446662,-0.878677,2.536,2.72082
0.458302,-0.885261,2.555,2.74258
0.466595,-0.885261,2.555,2.74398
0.474888,-0.885261,2.555,2.7454
0.48318,-0.885261,2.555,2.74685
0.491473,-0.885261,2.555,2.74832
0.499766,-0.885261,2.555,2.74981
0.511837,-0.891844,2.574,2.77179
0.520192,-0.891844,2.574,2.77335
0.528546,-0.891844,2.574,2.77493
0.536901,-0.891844,2.574,2.77653
0.54928,-0.898427,2.593,2.79867
0.557697,-0.898427,2.593,2.80033
0.566113,-0.898427,2.593,2.80202
0.574529,-0.898427,2.593,2.80373
0.582945,-0.898427,2.593,2.80547
0.587028,-0.891844,2.574,2.78666
0.595383,-0.891844,2.574,2.78843
0.603738,-0.891844,2.574,2.79023
0.612092,-0.891844,2.574,2.79205
0.620447,-0.891844,2.574,2.79389
0.628801,-0.891844,2.574,2.79576
0.637156,-0.891844,2.574,2.79765
0.64551,-0.891844,2.574,2.79956
0.653865,-0.891844,2.574,2.8015
0.667108,-0.898427,2.593,2.82416
0.670574,-0.891844,2.574,2.80545
0.678929,-0.891844,2.574,2.80746
0.687283,-0.891844,2.574,2.80949
0.690503,-0.885261,2.555,2.79079
0.698796,-0.885261,2.555,2.79285
0.707089,-0.885261,2.555,2.79494
0.715382,-0.885261,2.555,2.79705
0.723674,-0.885261,2.555,2.79918
0.731967,-0.885261,2.555,2.80134
0.734755,-0.878677,2.536,2.78267
0.742987,-0.878677,2.536,2.78485
0.751218,-0.878677,2.536,2.78706
0.759449,-0.878677,2.536,2.78929
0.761929,-0.872094,2.517,2.77063
0.770098,-0.872094,2.517,2.77288
0.778268,-0.872094,2.517,2.77516
0.786437,-0.872094,2.517,2.77747
0.794607,-0.872094,2.517,2.77979
0.802777,-0.872094,2.517,2.78214
0.805147,-0.865858,2.499,2.76459
0.813258,-0.865858,2.499,2.76697
0.821369,-0.865858,2.499,2.76936
0.82948,-0.865858,2.499,2.77178
0.837591,-0.865858,2.499,2.77422
0.845702,-0.865858,2.499,2.77667
0.853814,-0.865858,2.499,2.77916
0.861925,-0.865858,2.499,2.78166
0.870036,-0.865858,2.499,2.78418
0.878147,-0.865858,2.499,2.78673
0.886258,-0.865858,2.499,2.78929
0.907611,-0.878677,2.536,2.83322
0.915842,-0.878677,2.536,2.83587
0.924074,-0.878677,2.536,2.83854
0.932305,-0.878677,2.536,2.84123
0.947583,-0.885261,2.555,2.86524
0.955876,-0.885261,2.555,2.868
0.964168,-0.885261,2.555,2.87077
0.979693,-0.891844,2.574,2.89494
nan,nan,nan,NaN
nan,nan,nan,NaN
nan,nan,nan,NaN
nan,nan,nan,NaN
nan,nan,nan,NaN
nan,nan,nan,NaN
nan,nan,nan,NaN
nan,nan,nan,NaN
nan,nan,nan,NaN
nan,nan,nan,NaN
nan,nan,nan,NaN
nan,nan,nan,NaN
nan,nan,nan,NaN
nan,nan,nan,NaN
nan,nan,nan,NaN
nan,nan,nan,NaN
nan,nan,nan,NaN
nan,nan,nan,NaN
nan,nan,nan,NaN
nan,nan,nan,NaN
nan,nan,nan,NaN
nan,nan,nan,NaN
nan,nan,nan,NaN
nan,nan,nan,NaN
nan,nan,nan,NaN
nan,nan,nan,NaN
nan,nan,nan,NaN
nan,nan,nan,NaN
nan,nan,nan,NaN
nan,nan,nan,NaN
nan,nan,nan,NaN
nan,nan,nan,NaN
nan,nan,nan,NaN
nan,nan,nan,NaN
nan,nan,nan,NaN
nan,nan,nan,NaN
nan,nan,nan,NaN
nan,nan,nan,NaN
nan,nan,nan,NaN
nan,nan,nan,NaN
nan,nan,nan,NaN
nan,nan,nan,NaN
nan,nan,nan,NaN
nan,nan,nan,NaN
nan,nan,nan,NaN
1.79588,-1.17423,3.389,4.01115
1.80688,-1.17423,3.389,4.01609
1.81788,-1.17423,3.389,4.02105
1.84723,-1.18601,3.423,4.06642
nan,nan,nan,NaN
nan,nan,nan,NaN
1.95913,-1.23555,3.566,4.25219
1.9707,-1.23555,3.566,4.25754
2.0034,-1.24872,3.604,4.30833
2.0151,-1.24872,3.604,4.31378
2.04816,-1.26189,3.642,4.3648
2.05998,-1.26189,3.642,4.37036
2.07181,-1.26189,3.642,4.37595
2.08363,-1.26189,3.642,4.38155
2.09545,-1.26189,3.642,4.38719
2.10727,-1.26189,3.642,4.39285
2.11909,-1.26189,3.642,4.39853
2.10868,-1.24872,3.604,4.35828
2.12037,-1.24872,3.604,4.36396
2.10959,-1.23555,3.566,4.32358
2.07774,-1.21026,3.493,4.24061
2.08908,-1.21026,3.493,4.24618
2.07937,-1.19813,3.458,4.20917
2.06944,-1.18601,3.423,4.17206
2.08055,-1.18601,3.423,4.17758
2.07088,-1.17423,3.389,4.14158
2.04195,-1.15171,3.324,4.06755
2.05274,-1.15171,3.324,4.07298
2.00517,-1.11914,3.23,3.96309
1.97821,-1.09835,3.17,3.89469
1.9885,-1.09835,3.17,3.89992
1.96222,-1.07825,3.112,3.83373
1.92035,-1.04984,3.03,3.73776
1.91299,-1.04048,3.003,3.70947
1.92273,-1.04048,3.003,3.7145
1.89902,-1.02247,2.951,3.65515
1.87626,-1.00514,2.901,3.59812
1.88567,-1.00514,2.901,3.60304
1.87941,-0.996828,2.877,3.57813
1.87299,-0.988512,2.853,3.55315
1.88225,-0.988512,2.853,3.55804
1.8756,-0.980197,2.829,3.53298
1.86946,-0.972228,2.806,3.5091
1.87857,-0.972228,2.806,3.51396
1.88768,-0.972228,2.806,3.51883
1.88124,-0.964258,2.783,3.49484
1.89027,-0.964258,2.783,3.49972
-2.37465,-1.1749,3.423,4.32854
-2.34006,-1.16323,3.389,4.27952
-2.32906,-1.16323,3.389,4.27352
-2.31806,-1.16323,3.389,4.26753
-2.30706,-1.16323,3.389,4.26157
-2.2737,-1.1519,3.356,4.21418
-2.24123,-1.14092,3.324,4.16819
-2.23045,-1.14092,3.324,4.1624
-2.21966,-1.14092,3.324,4.15663
-2.1876,-1.12994,3.292,4.11092
-2.17692,-1.12994,3.292,4.10524
-2.16623,-1.12994,3.292,4.09958
-2.15555,-1.12994,3.292,4.09395
-2.14486,-1.12994,3.292,4.08833
-2.11343,-1.11895,3.26,4.04305
-2.10285,-1.11895,3.26,4.03753
-2.09227,-1.11895,3.26,4.03203
-2.08169,-1.11895,3.26,4.02655
-2.05205,-1.10865,3.23,3.98408
-2.04156,-1.10865,3.23,3.97869
-2.03108,-1.10865,3.23,3.97332
-2.0206,-1.10865,3.23,3.96798
-1.99082,-1.09801,3.199,3.92462
-1.98044,-1.09801,3.199,3.91936
-1.97006,-1.09801,3.199,3.91412
-1.95967,-1.09801,3.199,3.90891
-1.94929,-1.09801,3.199,3.90371
-1.92133,-1.08806,3.17,3.8632
-1.91104,-1.08806,3.17,3.85809
nan,nan,nan,NaN
nan,nan,nan,NaN
nan,nan,nan,NaN
nan,nan,nan,NaN
nan,nan,nan,NaN
nan,nan,nan,NaN
nan,nan,nan,NaN
nan,nan,nan,NaN
nan,nan,nan,NaN
nan,nan,nan,NaN
nan,nan,nan,NaN
nan,nan,nan,NaN
nan,nan,nan,NaN
nan,nan,nan,NaN
nan,nan,nan,NaN
nan,nan,nan,NaN
nan,nan,nan,NaN
nan,nan,nan,NaN
nan,nan,nan,NaN
nan,nan,nan,NaN
nan,nan,nan,NaN
nan,nan,nan,NaN
nan,nan,nan,NaN
nan,nan,nan,NaN
nan,nan,nan,NaN
nan,nan,nan,NaN
nan,nan,nan,NaN
nan,nan,nan,NaN
nan,nan,nan,NaN
nan,nan,nan,NaN
nan,nan,nan,NaN
nan,nan,nan,NaN
nan,nan,nan,NaN
nan,nan,nan,NaN
nan,nan,nan,NaN
nan,nan,nan,NaN
nan,nan,nan,NaN
nan,nan,nan,NaN
-1.23496,-0.890013,2.593,3.00681
-1.21756,-0.883492,2.574,2.98136
-1.2092,-0.883492,2.574,2.97795
-1.20085,-0.883492,2.574,2.97457
-1.21056,-0.896878,2.613,3.01623
-1.20208,-0.896878,2.613,3.01283
-1.1936,-0.896878,2.613,3.00946
-1.20371,-0.910951,2.654,3.05327
-1.20456,-0.918159,2.675,3.07402
-1.21465,-0.932574,2.717,3.11884
-1.20583,-0.932574,2.717,3.11542
-1.19701,-0.932574,2.717,3.11201
-1.18819,-0.932574,2.717,3.10863
-1.17938,-0.932574,2.717,3.10527
-1.17056,-0.932574,2.717,3.10193
-1.16174,-0.932574,2.717,3.09862
-1.14401,-0.925366,2.696,3.0714
-1.13526,-0.925366,2.696,3.06815
-1.12651,-0.925366,2.696,3.06492
-1.10905,-0.918159,2.675,3.03787
-1.09173,-0.910951,2.654,3.01088
-1.06638,-0.896878,2.613,2.96131
-1.0579,-0.896878,2.613,2.95826
-1.03376,-0.883492,2.574,2.91113
-1.0254,-0.883492,2.574,2.90818
-1.01705,-0.883492,2.574,2.90524
-1.00125,-0.87697,2.555,2.8809
-0.978187,-0.863927,2.517,2.83523
-0.970017,-0.863927,2.517,2.83242
-0.948091,-0.851571,2.481,2.78916
-0.940038,-0.851571,2.481,2.78643
-0.931985,-0.851571,2.481,2.78373
-0.910526,-0.839214,2.445,2.74069
-0.90259,-0.839214,2.445,2.73806
-0.894654,-0.839214,2.445,2.73545
-0.886718,-0.839214,2.445,2.73287
-0.878783,-0.839214,2.445,2.7303
-0.870847,-0.839214,2.445,2.72776
-0.869264,-0.845392,2.463,2.7453
-0.861269,-0.845392,2.463,2.74278
-0.853275,-0.845392,2.463,2.74028
-0.851458,-0.851571,2.481,2.75781
-0.843405,-0.851571,2.481,2.75533
-0.835353,-0.851571,2.481,2.75288
-0.833302,-0.857749,2.499,2.7704
-0.831135,-0.863927,2.517,2.78791
-0.822965,-0.863927,2.517,2.78549
-0.820946,-0.870449,2.536,2.80409
-0.824893,-0.883492,2.574,2.84367
-0.816539,-0.883492,2.574,2.84126
-0.81415,-0.890013,2.593,2.85983
-0.811948,-0.896878,2.613,2.87948
-0.803467,-0.896878,2.613,2.8771
-0.801071,-0.903743,2.633,2.89675
-0.798845,-0.910951,2.654,2.91748
-0.796484,-0.918159,2.675,2.9382
-0.787802,-0.918159,2.675,2.93586
-0.785236,-0.925366,2.696,2.95657
-0.776485,-0.925366,2.696,2.95426
-0.767735,-0.925366,2.696,2.95197
-0.753072,-0.918159,2.675,2.92673
-0.74439,-0.918159,2.675,2.92451
-0.729932,-0.910951,2.654,2.89937
-0.721317,-0.910951,2.654,2.89721
-0.707064,-0.903743,2.633,2.87217
-0.698518,-0.903743,2.633,2.87008
-0.689972,-0.903743,2.633,2.86801
-0.67625,-0.896878,2.613,2.8442
-0.667768,-0.896878,2.613,2.8422
-0.654241,-0.890013,2.593,2.81848
-0.645825,-0.890013,2.593,2.81653
-0.637409,-0.890013,2.593,2.81462
-0.628992,-0.890013,2.593,2.81272
-0.620576,-0.890013,2.593,2.81085
-0.61216,-0.890013,2.593,2.80901
-0.59932,-0.883492,2.574,2.78661
-0.590965,-0.883492,2.574,2.78483
-0.582611,-0.883492,2.574,2.78307
-0.574256,-0.883492,2.574,2.78133
-0.561724,-0.87697,2.555,2.7591
-0.553431,-0.87697,2.555,2.75742
-0.545139,-0.87697,2.555,2.75577
-0.536846,-0.87697,2.555,2.75414
-0.528553,-0.87697,2.555,2.75254
-0.52026,-0.87697,2.555,2.75096
-0.511967,-0.87697,2.555,2.7494
-0.499929,-0.870449,2.536,2.72744
-0.491697,-0.870449,2.536,2.72594
-0.483466,-0.870449,2.536,2.72447
-0.475235,-0.870449,2.536,2.72302
-0.467004,-0.870449,2.536,2.72159
-0.458772,-0.870449,2.536,2.72019
-0.450541,-0.870449,2.536,2.71882
-0.44231,-0.870449,2.536,2.71746
-0.434079,-0.870449,2.536,2.71614
-0.425848,-0.870449,2.536,2.71483
-0.417616,-0.870449,2.536,2.71355
-0.409385,-0.870449,2.536,2.7123
-0.401154,-0.870449,2.536,2.71107
-0.392923,-0.870449,2.536,2.70986
-0.387574,-0.87697,2.555,2.72898
-0.379281,-0.87697,2.555,2.72781
-0.370988,-0.87697,2.555,2.72667
-0.362695,-0.87697,2.555,2.72555
-0.354402,-0.87697,2.555,2.72446
-0.346109,-0.87697,2.555,2.7234
-0.335304,-0.870449,2.536,2.70211
-0.327073,-0.870449,2.536,2.7011
-0.318842,-0.870449,2.536,2.70012
-0.31061,-0.870449,2.536,2.69916
-0.302379,-0.870449,2.536,2.69822
-0.294148,-0.870449,2.536,2.69731
-0.285917,-0.870449,2.536,2.69643
-0.275605,-0.863927,2.517,2.67537
-0.267435,-0.863927,2.517,2.67454
-0.259266,-0.863927,2.517,2.67374
-0.252992,-0.870449,2.536,2.69314
-0.244761,-0.870449,2.536,2.69238
-0.236529,-0.870449,2.536,2.69164
-0.228298,-0.870449,2.536,2.69093
-0.221716,-0.87697,2.555,2.7104
-0.213423,-0.87697,2.555,2.70973
-0.20513,-0.87697,2.555,2.70909
-0.196837,-0.87697,2.555,2.70848
-0.188544,-0.87697,2.555,2.70789
-0.180251,-0.87697,2.555,2.70732
-0.173237,-0.883492,2.574,2.72691
-0.164882,-0.883492,2.574,2.72639
-0.156528,-0.883492,2.574,2.7259
-0.149267,-0.890013,2.593,2.74555
-0.140851,-0.890013,2.593,2.74511
-0.132435,-0.890013,2.593,2.74469
-0.124018,-0.890013,2.593,2.74429
-0.115602,-0.890013,2.593,2.74393
-0.107186,-0.890013,2.593,2.74359
-0.0987696,-0.890013,2.593,2.74327
-0.0903534,-0.890013,2.593,2.74298
-0.0819372,-0.890013,2.593,2.74272
-0.073521,-0.890013,2.593,2.74248
-0.0651047,-0.890013,2.593,2.74226
-0.0566885,-0.890013,2.593,2.74208
-0.0482722,-0.890013,2.593,2.74192
-0.039856,-0.890013,2.593,2.74178
-0.0314398,-0.890013,2.593,2.74167
-0.0230235,-0.890013,2.593,2.74159
-0.0145003,-0.883492,2.574,2.72144
-0.00614571,-0.883492,2.574,2.72141
0.00220886,-0.883492,2.574,2.7214
0.0105634,-0.883492,2.574,2.72142
0.018918,-0.883492,2.574,2.72147
0.0272725,-0.883492,2.574,2.72154
0.0356271,-0.883492,2.574,2.72164
0.0439817,-0.883492,2.574,2.72176
0.0523362,-0.883492,2.574,2.72191
0.0606908,-0.883492,2.574,2.72208
0.0690454,-0.883492,2.574,2.72228
0.0773999,-0.883492,2.574,2.7225
0.0857545,-0.883492,2.574,2.72275
0.0934144,-0.87697,2.555,2.70293
0.101707,-0.87697,2.555,2.70323
0.110818,-0.883492,2.574,2.72366
0.118293,-0.87697,2.555,2.7039
0.125645,-0.870449,2.536,2.68417
0.133876,-0.870449,2.536,2.68457
0.142107,-0.870449,2.536,2.68499
0.150338,-0.870449,2.536,2.68544
0.15857,-0.870449,2.536,2.68591
0.166801,-0.870449,2.536,2.68641
0.173721,-0.863927,2.517,2.6668
0.180589,-0.857749,2.499,2.64827
0.188701,-0.857749,2.499,2.64884
0.196812,-0.857749,2.499,2.64943
0.204923,-0.857749,2.499,2.65004
0.213034,-0.857749,2.499,2.65068
0.221145,-0.857749,2.499,2.65135
0.227605,-0.851571,2.481,2.63293
0.235658,-0.851571,2.481,2.63364
0.24371,-0.851571,2.481,2.63437
0.251763,-0.851571,2.481,2.63513
0.259816,-0.851571,2.481,2.63591
0.267868,-0.851571,2.481,2.63672
0.275921,-0.851571,2.481,2.63755
0.283974,-0.851571,2.481,2.6384
0.292027,-0.851571,2.481,2.63928
0.300079,-0.851571,2.481,2.64019
0.308132,-0.851571,2.481,2.64111
0.316185,-0.851571,2.481,2.64207
0.324237,-0.851571,2.481,2.64304
0.33229,-0.851571,2.481,2.64404
0.342812,-0.857749,2.499,2.66425
0.350923,-0.857749,2.499,2.66531
0.359034,-0.857749,2.499,2.66639
0.367146,-0.857749,2.499,2.6675
0.37796,-0.863927,2.517,2.68785
0.386129,-0.863927,2.517,2.68901
0.394299,-0.863927,2.517,2.69019
0.402468,-0.863927,2.517,2.6914
0.410638,-0.863927,2.517,2.69264
0.418807,-0.863927,2.517,2.69389
0.426977,-0.863927,2.517,2.69518
0.435146,-0.863927,2.517,2.69648
0.443316,-0.863927,2.517,2.69781
0.454894,-0.870449,2.536,2.71954
0.466595,-0.87697,2.555,2.74132
0.474888,-0.87697,2.555,2.74274
0.48318,-0.87697,2.555,2.74419
0.491473,-0.87697,2.555,2.74566
0.499766,-0.87697,2.555,2.74716
0.511837,-0.883492,2.574,2.76912
0.520192,-0.883492,2.574,2.77067
0.528546,-0.883492,2.574,2.77225
0.536901,-0.883492,2.574,2.77386
0.54928,-0.890013,2.593,2.79598
0.557697,-0.890013,2.593,2.79764
0.566113,-0.890013,2.593,2.79933
0.574529,-0.890013,2.593,2.80105
0.582945,-0.890013,2.593,2.80278
0.591362,-0.890013,2.593,2.80455
0.599778,-0.890013,2.593,2.80633
0.608194,-0.890013,2.593,2.80814
0.61661,-0.890013,2.593,2.80998
0.625027,-0.890013,2.593,2.81184
0.633443,-0.890013,2.593,2.81372
0.641859,-0.890013,2.593,2.81563
0.650275,-0.890013,2.593,2.81756
0.658691,-0.890013,2.593,2.81951
0.667108,-0.890013,2.593,2.82149
0.670574,-0.883492,2.574,2.8028
0.678929,-0.883492,2.574,2.80481
0.687283,-0.883492,2.574,2.80685
0.690503,-0.87697,2.555,2.78817
0.698796,-0.87697,2.555,2.79024
0.707089,-0.87697,2.555,2.79232
0.715382,-0.87697,2.555,2.79444
0.723674,-0.87697,2.555,2.79657
0.731967,-0.87697,2.555,2.79873
0.734755,-0.870449,2.536,2.78008
0.742987,-0.870449,2.536,2.78227
0.751218,-0.870449,2.536,2.78448
0.759449,-0.870449,2.536,2.78671
0.761929,-0.863927,2.517,2.76807
0.770098,-0.863927,2.517,2.77033
0.778268,-0.863927,2.517,2.77261
0.786437,-0.863927,2.517,2.77491
0.794607,-0.863927,2.517,2.77724
0.802777,-0.863927,2.517,2.77959
0.805147,-0.857749,2.499,2.76206
0.813258,-0.857749,2.499,2.76444
0.821369,-0.857749,2.499,2.76684
0.82948,-0.857749,2.499,2.76925
0.837591,-0.857749,2.499,2.7717
0.845702,-0.857749,2.499,2.77416
0.853814,-0.857749,2.499,2.77664
0.861925,-0.857749,2.499,2.77915
0.870036,-0.857749,2.499,2.78167
0.878147,-0.857749,2.499,2.78422
0.886258,-0.857749,2.499,2.78679
nan,nan,nan,NaN
nan,nan,nan,NaN
nan,nan,nan,NaN
nan,nan,nan,NaN
nan,nan,nan,NaN
nan,nan,nan,NaN
nan,nan,nan,NaN
nan,nan,nan,NaN
nan,nan,nan,NaN
nan,nan,nan,NaN
nan,nan,nan,NaN
nan,nan,nan,NaN
nan,nan,nan,NaN
nan,nan,nan,NaN
nan,nan,nan,NaN
nan,nan,nan,NaN
nan,nan,nan,NaN
nan,nan,nan,NaN
nan,nan,nan,NaN
nan,nan,nan,NaN
nan,nan,nan,NaN
nan,nan,nan,NaN
nan,nan,nan,NaN
nan,nan,nan,NaN
nan,nan,nan,NaN
nan,nan,nan,NaN
nan,nan,nan,NaN
nan,nan,nan,NaN
nan,nan,nan,NaN
nan,nan,nan,NaN
nan,nan,nan,NaN
nan,nan,nan,NaN
nan,nan,nan,NaN
nan,nan,nan,NaN
nan,nan,nan,NaN
nan,nan,nan,NaN
nan,nan,nan,NaN
nan,nan,nan,NaN
nan,nan,nan,NaN
nan,nan,nan,NaN
nan,nan,nan,NaN
nan,nan,nan,NaN
nan,nan,nan,NaN
nan,nan,nan,NaN
nan,nan,nan,NaN
nan,nan,nan,NaN
nan,nan,nan,NaN
nan,nan,nan,NaN
nan,nan,nan,NaN
nan,nan,nan,NaN
1.71243,-1.12994,3.292,3.87897
1.72311,-1.12994,3.292,3.8837
1.7338,-1.12994,3.292,3.88845
1.76144,-1.14092,3.324,3.93107
1.80688,-1.16323,3.389,4.01289
1.81788,-1.16323,3.389,4.01785
1.84723,-1.1749,3.423,4.0632
1.89635,-1.19893,3.493,4.15146
nan,nan,nan,NaN
1.95913,-1.22398,3.566,4.24884
1.9707,-1.22398,3.566,4.25419
1.98227,-1.22398,3.566,4.25957
1.99385,-1.22398,3.566,4.26496
2.04816,-1.25007,3.642,4.3614
2.05998,-1.25007,3.642,4.36696
2.07181,-1.25007,3.642,4.37255
2.08363,-1.25007,3.642,4.37817
2.09545,-1.25007,3.642,4.3838
2.10727,-1.25007,3.642,4.38947
2.11909,-1.25007,3.642,4.39515
2.10868,-1.23703,3.604,4.35495
2.12037,-1.23703,3.604,4.36062
2.10959,-1.22398,3.566,4.32029
2.07774,-1.19893,3.493,4.23739
2.08908,-1.19893,3.493,4.24296
2.07937,-1.18691,3.458,4.20599
2.06944,-1.1749,3.423,4.16892
2.08055,-1.1749,3.423,4.17445
2.07088,-1.16323,3.389,4.13847
2.04195,-1.14092,3.324,4.06451
2.05274,-1.14092,3.324,4.06994
2.00517,-1.10865,3.23,3.96014
1.97821,-1.08806,3.17,3.8918
1.9885,-1.08806,3.17,3.89704
1.96222,-1.06815,3.112,3.8309
1.92035,-1.04001,3.03,3.73501
