1.58315,0.254843,2.783,3.21192
1.59218,0.254843,2.783,3.21638
1.61445,0.256949,2.806,3.24748
1.62356,0.256949,2.806,3.25201
1.64605,0.259055,2.829,3.28326
1.64177,0.256949,2.806,3.26115
1.65088,0.256949,2.806,3.26574
1.65999,0.256949,2.806,3.27035
1.66909,0.256949,2.806,3.27499
1.6782,0.256949,2.806,3.27964
1.68731,0.256949,2.806,3.28431
1.69642,0.256949,2.806,3.289
1.69155,0.254843,2.783,3.26671
1.70058,0.254843,2.783,3.27139
1.6961,0.252828,2.761,3.2502
1.67789,0.248799,2.717,3.20301
1.6867,0.248799,2.717,3.20764
1.68242,0.246876,2.696,3.18746
1.678,0.244953,2.675,3.16722
1.6602,0.241107,2.633,3.12203
1.66874,0.241107,2.633,3.12658
1.66455,0.239276,2.613,3.10737
1.64806,0.235704,2.574,3.06547
1.65641,0.235704,2.574,3.06997
1.64019,0.232225,2.536,3.0291
1.63607,0.230485,2.517,3.01084
1.64424,0.230485,2.517,3.01528
1.64059,0.228837,2.499,2.99815
1.62495,0.22554,2.463,2.95934
1.63295,0.22554,2.463,2.96374
1.62895,0.223892,2.445,2.94646
1.63689,0.223892,2.445,2.95086
1.64482,0.223892,2.445,2.95527
1.64127,0.222335,2.428,2.93911
1.6376,0.220778,2.411,2.92291
-1.85574,0.253633,2.675,3.26553
-1.84705,0.253633,2.675,3.26061
-1.8528,0.255624,2.696,3.28126
-1.84405,0.255624,2.696,3.27632
-1.8353,0.255624,2.696,3.2714
-1.82655,0.255624,2.696,3.2665
-1.8178,0.255624,2.696,3.26162
-1.80905,0.255624,2.696,3.25675
-1.8003,0.255624,2.696,3.2519
-1.79155,0.255624,2.696,3.24706
-1.7828,0.255624,2.696,3.24224
-1.77405,0.255624,2.696,3.23744
-1.7653,0.255624,2.696,3.23265
-1.74286,0.253633,2.675,3.20274
-1.73418,0.253633,2.675,3.19802
-1.7255,0.253633,2.675,3.19332
-1.71682,0.253633,2.675,3.18864
-1.69472,0.251642,2.654,3.15898
-1.68611,0.251642,2.654,3.15436
-1.6775,0.251642,2.654,3.14977
-1.66888,0.251642,2.654,3.14519
-1.64713,0.249651,2.633,3.11578
-1.63858,0.249651,2.633,3.11127
-1.63004,0.249651,2.633,3.10677
-1.60918,0.247754,2.613,3.07873
-1.60069,0.247754,2.613,3.07431
-1.58003,0.245858,2.593,3.0464
-1.56009,0.244057,2.574,3.01976
-1.52883,0.240454,2.536,2.97093
-1.5206,0.240454,2.536,2.96671
-1.50104,0.238652,2.517,2.9403
-1.48219,0.236945,2.499,2.91514
-1.47408,0.236945,2.499,2.91102
-1.44485,0.233532,2.463,2.86505
-1.42636,0.231825,2.445,2.84012
-1.41842,0.231825,2.445,2.83614
-1.40068,0.230214,2.428,2.81249
-1.38305,0.228602,2.411,2.78891
-1.37522,0.228602,2.411,2.78503
-1.35775,0.22699,2.394,2.76157
-1.34998,0.22699,2.394,2.75776
-1.34221,0.22699,2.394,2.75396
-1.33444,0.22699,2.394,2.75018
-1.32667,0.22699,2.394,2.74642
-1.32827,0.228602,2.411,2.76215
-1.32044,0.228602,2.411,2.7584
-1.31262,0.228602,2.411,2.75466
-1.31399,0.230214,2.428,2.77033
-1.31526,0.231825,2.445,2.78598
-1.30732,0.231825,2.445,2.78224
-1.30895,0.233532,2.463,2.79897
-1.31997,0.236945,2.499,2.8361
-1.32131,0.238652,2.517,2.85274
-1.31314,0.238652,2.517,2.84896
-1.31482,0.240454,2.536,2.86668
-1.31638,0.242255,2.555,2.88437
-1.30808,0.242255,2.555,2.88059
-1.30946,0.244057,2.574,2.89823
-1.3011,0.244057,2.574,2.89446
-1.29275,0.244057,2.574,2.89072
-1.28439,0.244057,2.574,2.88699
-1.27604,0.244057,2.574,2.88328
-1.26769,0.244057,2.574,2.87959
-1.25003,0.242255,2.555,2.8547
-1.23251,0.240454,2.536,2.82987
-1.22428,0.240454,2.536,2.8263
-1.20693,0.238652,2.517,2.8016
-1.19019,0.236945,2.499,2.77808
-1.18208,0.236945,2.499,2.77461
-1.16551,0.235239,2.481,2.7512
-1.14906,0.233532,2.463,2.72787
-1.14107,0.233532,2.463,2.72451
-1.12479,0.231825,2.445,2.70128
-1.10909,0.230214,2.428,2.67923
-1.10121,0.230214,2.428,2.67598
-1.09333,0.230214,2.428,2.67274
-1.07785,0.228602,2.411,2.65084
-1.07003,0.228602,2.411,2.64767
-1.0622,0.228602,2.411,2.64451
-1.05437,0.228602,2.411,2.64138
-1.04655,0.228602,2.411,2.63827
-1.03872,0.228602,2.411,2.63517
-1.0309,0.228602,2.411,2.6321
-1.02307,0.228602,2.411,2.62904
-1.01525,0.228602,2.411,2.62601
-1.00742,0.228602,2.411,2.62299
-0.999596,0.228602,2.411,2.61999
-0.99177,0.228602,2.411,2.61702
-0.983945,0.228602,2.411,2.61406
-0.976119,0.228602,2.411,2.61113
-0.968294,0.228602,2.411,2.60821
-0.960468,0.228602,2.411,2.60532
-0.952643,0.228602,2.411,2.60244
-0.944817,0.228602,2.411,2.59959
-0.936992,0.228602,2.411,2.59675
-0.929166,0.228602,2.411,2.59394
-0.921341,0.228602,2.411,2.59115
-0.913515,0.228602,2.411,2.58838
-0.90569,0.228602,2.411,2.58562
-0.897864,0.228602,2.411,2.58289
-0.890039,0.228602,2.411,2.58018
-0.882213,0.228602,2.411,2.57749
-0.868223,0.22699,2.394,2.55667
-0.860452,0.22699,2.394,2.55404
-0.852682,0.22699,2.394,2.55144
-0.844912,0.22699,2.394,2.54885
-0.837141,0.22699,2.394,2.54628
-0.829371,0.22699,2.394,2.54374
-0.821601,0.22699,2.394,2.54122
-0.81383,0.22699,2.394,2.53872
-0.80606,0.22699,2.394,2.53624
-0.79829,0.22699,2.394,2.53378
-0.790519,0.22699,2.394,2.53134
-0.782749,0.22699,2.394,2.52892
-0.780482,0.228602,2.411,2.54447
-0.772656,0.228602,2.411,2.54208
-0.764831,0.228602,2.411,2.53971
-0.757005,0.228602,2.411,2.53737
-0.754462,0.230214,2.428,2.55292
-0.746581,0.230214,2.428,2.5506
-0.738701,0.230214,2.428,2.54831
-0.735937,0.231825,2.445,2.56386
-0.728001,0.231825,2.445,2.56159
-0.720065,0.231825,2.445,2.55935
-0.717372,0.233532,2.463,2.57595
-0.709378,0.233532,2.463,2.57374
-0.701384,0.233532,2.463,2.57155
-0.693389,0.233532,2.463,2.56938
-0.685395,0.233532,2.463,2.56723
-0.677401,0.233532,2.463,2.56511
-0.674299,0.235239,2.481,2.58174
-0.666246,0.235239,2.481,2.57965
-0.658193,0.235239,2.481,2.57758
-0.65014,0.235239,2.481,2.57554
-0.642088,0.235239,2.481,2.57351
-0.629435,0.233532,2.463,2.55286
-0.621441,0.233532,2.463,2.5509
-0.613446,0.233532,2.463,2.54896
-0.605452,0.233532,2.463,2.54705
-0.597458,0.233532,2.463,2.54516
-0.589464,0.233532,2.463,2.5433
-0.581469,0.233532,2.463,2.54146
-0.573475,0.233532,2.463,2.53964
-0.565481,0.233532,2.463,2.53785
-0.561561,0.235239,2.481,2.55461
-0.553508,0.235239,2.481,2.55286
-0.545455,0.235239,2.481,2.55112
-0.537403,0.235239,2.481,2.54941
-0.52935,0.235239,2.481,2.54773
-0.521297,0.235239,2.481,2.54607
-0.513244,0.235239,2.481,2.54443
-0.505192,0.235239,2.481,2.54282
-0.497139,0.235239,2.481,2.54123
-0.485538,0.233532,2.463,2.52124
-0.477544,0.233532,2.463,2.51971
-0.469549,0.233532,2.463,2.51821
-0.461555,0.233532,2.463,2.51673
-0.453561,0.233532,2.463,2.51528
-0.445566,0.233532,2.463,2.51385
-0.437572,0.233532,2.463,2.51244
-0.429578,0.233532,2.463,2.51106
-0.421584,0.233532,2.463,2.50971
-0.413589,0.233532,2.463,2.50838
-0.405595,0.233532,2.463,2.50707
-0.397601,0.233532,2.463,2.50579
-0.389606,0.233532,2.463,2.50454
-0.381612,0.233532,2.463,2.5033
-0.373618,0.233532,2.463,2.5021
-0.365624,0.233532,2.463,2.50092
-0.357629,0.233532,2.463,2.49976
-0.349635,0.233532,2.463,2.49863
-0.341641,0.233532,2.463,2.49752
-0.336085,0.235239,2.481,2.51469
-0.328032,0.235239,2.481,2.51362
-0.319979,0.235239,2.481,2.51259
-0.311927,0.235239,2.481,2.51157
-0.306079,0.236945,2.499,2.5288
-0.297967,0.236945,2.499,2.52783
-0.289856,0.236945,2.499,2.52689
-0.281745,0.236945,2.499,2.52597
-0.273634,0.236945,2.499,2.52508
-0.265523,0.236945,2.499,2.52421
-0.257412,0.236945,2.499,2.52337
-0.249301,0.236945,2.499,2.52256
-0.24119,0.236945,2.499,2.52177
-0.233078,0.236945,2.499,2.52101
-0.224967,0.236945,2.499,2.52027
-0.216856,0.236945,2.499,2.51956
-0.208745,0.236945,2.499,2.51887
-0.200634,0.236945,2.499,2.51821
-0.193909,0.238652,2.517,2.53571
-0.18574,0.238652,2.517,2.5351
-0.17757,0.238652,2.517,2.53452
-0.169401,0.238652,2.517,2.53396
-0.161231,0.238652,2.517,2.53342
-0.151967,0.236945,2.499,2.5148
-0.143856,0.236945,2.499,2.51433
-0.135745,0.236945,2.499,2.51388
-0.127634,0.236945,2.499,2.51345
-0.119523,0.236945,2.499,2.51305
-0.111411,0.236945,2.499,2.51268
-0.1033,0.236945,2.499,2.51233
-0.0951891,0.236945,2.499,2.51201
-0.087078,0.236945,2.499,2.51172
-0.0789668,0.236945,2.499,2.51145
-0.0708557,0.236945,2.499,2.51121
-0.0627446,0.236945,2.499,2.51099
-0.0546334,0.236945,2.499,2.5108
-0.0461872,0.235239,2.481,2.49256
-0.0381345,0.235239,2.481,2.49242
-0.0300818,0.235239,2.481,2.49231
-0.0220291,0.235239,2.481,2.49222
-0.0139764,0.235239,2.481,2.49217
-0.00592366,0.235239,2.481,2.49213
0.00212905,0.235239,2.481,2.49213
0.0101818,0.235239,2.481,2.49215
0.0182345,0.235239,2.481,2.49219
0.0262872,0.235239,2.481,2.49227
0.0343399,0.235239,2.481,2.49236
0.0423926,0.235239,2.481,2.49249
0.0500793,0.233532,2.463,2.47455
0.0580736,0.233532,2.463,2.47473
0.0660679,0.233532,2.463,2.47493
0.0740622,0.233532,2.463,2.47515
0.0820565,0.233532,2.463,2.47541
0.0900507,0.233532,2.463,2.47568
0.098045,0.233532,2.463,2.47599
0.106039,0.233532,2.463,2.47632
0.114034,0.233532,2.463,2.47667
0.122028,0.233532,2.463,2.47705
0.130022,0.233532,2.463,2.47746
0.138016,0.233532,2.463,2.47789
0.146011,0.233532,2.463,2.47835
0.154005,0.233532,2.463,2.47884
0.163183,0.235239,2.481,2.49746
0.171236,0.235239,2.481,2.498
0.179289,0.235239,2.481,2.49857
0.187341,0.235239,2.481,2.49916
0.195394,0.235239,2.481,2.49978
0.203447,0.235239,2.481,2.50042
0.2115,0.235239,2.481,2.50109
0.219552,0.235239,2.481,2.50178
0.227605,0.235239,2.481,2.5025
0.235658,0.235239,2.481,2.50324
0.241942,0.233532,2.463,2.48585
0.249936,0.233532,2.463,2.48664
0.257931,0.233532,2.463,2.48746
0.265925,0.233532,2.463,2.4883
0.273919,0.233532,2.463,2.48916
0.281914,0.233532,2.463,2.49006
0.287789,0.231825,2.445,2.47277
0.295725,0.231825,2.445,2.47371
0.303661,0.231825,2.445,2.47467
0.311597,0.231825,2.445,2.47565
0.317311,0.230214,2.428,2.45944
0.325192,0.230214,2.428,2.46047
0.333072,0.230214,2.428,2.46153
0.340953,0.230214,2.428,2.46261
0.348834,0.230214,2.428,2.46371
0.356714,0.230214,2.428,2.46484
0.364595,0.230214,2.428,2.46599
0.372476,0.230214,2.428,2.46717
0.380356,0.230214,2.428,2.46837
0.388237,0.230214,2.428,2.4696
0.398891,0.231825,2.445,2.48815
0.406827,0.231825,2.445,2.48943
0.414763,0.231825,2.445,2.49074
0.422699,0.231825,2.445,2.49208
0.430635,0.231825,2.445,2.49343
0.435521,0.230214,2.428,2.47747
0.443402,0.230214,2.428,2.47887
0.451283,0.230214,2.428,2.48029
0.459163,0.230214,2.428,2.48174
0.467044,0.230214,2.428,2.48321
0.474925,0.230214,2.428,2.4847
0.482805,0.230214,2.428,2.48622
0.490686,0.230214,2.428,2.48776
0.495076,0.228602,2.411,2.4719
0.502901,0.228602,2.411,2.47348
0.510727,0.228602,2.411,2.47508
0.518552,0.228602,2.411,2.47671
0.526378,0.228602,2.411,2.47836
0.530437,0.22699,2.394,2.46254
0.538207,0.22699,2.394,2.46423
0.545977,0.22699,2.394,2.46594
0.553748,0.22699,2.394,2.46767
0.561518,0.22699,2.394,2.46943
0.569288,0.22699,2.394,2.4712
0.577059,0.22699,2.394,2.47301
0.580676,0.225378,2.377,2.45726
0.584431,0.223861,2.361,2.44254
0.592094,0.223861,2.361,2.44438
0.595693,0.222344,2.345,2.42967
0.603304,0.222344,2.345,2.43155
0.610915,0.222344,2.345,2.43345
0.614306,0.220827,2.329,2.41876
0.617594,0.21931,2.313,2.40406
0.625101,0.21931,2.313,2.406
0.632608,0.21931,2.313,2.40796
0.635965,0.217887,2.298,2.39431
0.638943,0.21637,2.282,2.37962
0.64635,0.21637,2.282,2.38162
0.653757,0.21637,2.282,2.38364
0.661164,0.21637,2.282,2.38568
0.668571,0.21637,2.282,2.38775
0.675978,0.21637,2.282,2.38983
0.683384,0.21637,2.282,2.39194
0.695635,0.217887,2.298,2.41085
0.703093,0.217887,2.298,2.41301
0.71519,0.21931,2.313,2.43096
0.722698,0.21931,2.313,2.43318
0.735256,0.220827,2.329,2.45227
0.742815,0.220827,2.329,2.45454
0.75553,0.222344,2.345,2.47372
0.768348,0.223861,2.361,2.49295
0.776011,0.223861,2.361,2.49532
0.783674,0.223861,2.361,2.49771
0.791338,0.223861,2.361,2.50013
0.799001,0.223861,2.361,2.50257
0.812131,0.225378,2.377,2.522
0.819846,0.225378,2.377,2.52449
0.827561,0.225378,2.377,2.52701
0.835276,0.225378,2.377,2.52955
0.84902,0.22699,2.394,2.55022
0.856791,0.22699,2.394,2.55281
0.864561,0.22699,2.394,2.55543
0.878526,0.228602,2.411,2.57624
0.886351,0.228602,2.411,2.57891
0.894177,0.228602,2.411,2.58161
0.902002,0.228602,2.411,2.58434
0.909828,0.228602,2.411,2.58708
0.917653,0.228602,2.411,2.58984
0.925479,0.228602,2.411,2.59262
0.933304,0.228602,2.411,2.59543
0.94113,0.228602,2.411,2.59825
0.948955,0.228602,2.411,2.6011
0.956781,0.228602,2.411,2.60396
0.964606,0.228602,2.411,2.60685
0.972432,0.228602,2.411,2.60975
0.980257,0.228602,2.411,2.61268
0.988083,0.228602,2.411,2.61562
0.995908,0.228602,2.411,2.61859
1.00373,0.228602,2.411,2.62158
1.01156,0.228602,2.411,2.62458
1.0122,0.22699,2.394,2.60908
1.01997,0.22699,2.394,2.61211
1.02774,0.22699,2.394,2.61515
1.03551,0.22699,2.394,2.61821
1.04328,0.22699,2.394,2.6213
1.05105,0.22699,2.394,2.6244
1.05882,0.22699,2.394,2.62752
1.06659,0.22699,2.394,2.63066
1.07436,0.22699,2.394,2.63382
1.08213,0.22699,2.394,2.637
1.0899,0.22699,2.394,2.6402
1.10547,0.228602,2.411,2.66219
1.12114,0.230214,2.428,2.68424
1.12902,0.230214,2.428,2.68754
1.1369,0.230214,2.428,2.69086
1.14478,0.230214,2.428,2.6942
1.15266,0.230214,2.428,2.69756
1.16054,0.230214,2.428,2.70093
1.16842,0.230214,2.428,2.70433
1.18454,0.231825,2.445,2.7267
1.19248,0.231825,2.445,2.73016
1.20041,0.231825,2.445,2.73364
1.20835,0.231825,2.445,2.73713
1.21629,0.231825,2.445,2.74064
1.22422,0.231825,2.445,2.74417
1.23216,0.231825,2.445,2.74772
1.24009,0.231825,2.445,2.75129
1.25722,0.233532,2.463,2.77516
1.26521,0.233532,2.463,2.77879
1.27321,0.233532,2.463,2.78244
1.2812,0.233532,2.463,2.7861
1.29862,0.235239,2.481,2.81018
1.31615,0.236945,2.499,2.83432
1.32426,0.236945,2.499,2.8381
1.3521,0.240454,2.536,2.88397
1.37052,0.242255,2.555,2.90947
1.37881,0.242255,2.555,2.91339
1.40774,0.245858,2.593,2.96071
1.42708,0.247754,2.613,2.98759
1.45808,0.251642,2.654,3.03859
1.4667,0.251642,2.654,3.04274
1.49866,0.255624,2.696,3.09511
1.53145,0.259701,2.739,3.14879
1.54034,0.259701,2.739,3.15313
1.57412,0.263873,2.783,3.2082
1.59623,0.266054,2.806,3.2392
1.60534,0.266054,2.806,3.24369
1.61445,0.266054,2.806,3.24821
1.63686,0.268235,2.829,3.27941
1.64605,0.268235,2.829,3.284
1.65523,0.268235,2.829,3.28861
1.66441,0.268235,2.829,3.29324
1.67359,0.268235,2.829,3.29789
1.68278,0.268235,2.829,3.30256
1.6782,0.266054,2.806,3.28036
1.68731,0.266054,2.806,3.28503
1.69642,0.266054,2.806,3.28972
1.69155,0.263873,2.783,3.26742
1.70058,0.263873,2.783,3.27211
1.6961,0.261787,2.761,3.25091
1.69147,0.259701,2.739,3.22965
1.70036,0.259701,2.739,3.23432
1.69552,0.257615,2.717,3.21298
1.678,0.253633,2.675,3.16791
1.6602,0.249651,2.633,3.1227
1.66874,0.249651,2.633,3.12725
1.66455,0.247754,2.613,3.10803
1.64806,0.244057,2.574,3.06613
1.65641,0.244057,2.574,3.07063
1.64019,0.240454,2.536,3.02974
1.63607,0.238652,2.517,3.01147
1.64424,0.238652,2.517,3.01592
1.64059,0.236945,2.499,2.99878
1.62495,0.233532,2.463,2.95996
1.63295,0.233532,2.463,2.96436
1.62895,0.231825,2.445,2.94707
1.63689,0.231825,2.445,2.95147
1.64482,0.231825,2.445,2.95588
1.64127,0.230214,2.428,2.93972
1.6376,0.228602,2.411,2.92351
-1.85574,0.262313,2.675,3.26622
-1.86155,0.264372,2.696,3.2869
-1.8528,0.264372,2.696,3.28195
-1.84405,0.264372,2.696,3.27702
-1.8353,0.264372,2.696,3.2721
-1.82655,0.264372,2.696,3.2672
-1.8178,0.264372,2.696,3.26232
-1.80905,0.264372,2.696,3.25745
-1.8003,0.264372,2.696,3.2526
-1.79155,0.264372,2.696,3.24776
-1.7828,0.264372,2.696,3.24294
-1.77405,0.264372,2.696,3.23814
-1.7653,0.264372,2.696,3.23335
-1.75655,0.264372,2.696,3.22859
-1.7478,0.264372,2.696,3.22383
-1.7255,0.262313,2.675,3.19402
-1.71682,0.262313,2.675,3.18934
-1.70813,0.262313,2.675,3.18468
-1.68611,0.260254,2.654,3.15506
-1.6775,0.260254,2.654,3.15047
-1.66888,0.260254,2.654,3.14589
-1.64713,0.258194,2.633,3.11647
-1.63858,0.258194,2.633,3.11196
-1.63004,0.258194,2.633,3.10747
-1.60918,0.256233,2.613,3.07943
-1.60069,0.256233,2.613,3.075
-1.59221,0.256233,2.613,3.0706
-1.56009,0.252409,2.574,3.02044
-1.54029,0.250546,2.555,2.99387
-1.53199,0.250546,2.555,2.98962
-1.50104,0.246819,2.517,2.94097
-1.48219,0.245054,2.499,2.91581
-1.47408,0.245054,2.499,2.9117
-1.44485,0.241524,2.463,2.86571
-1.42636,0.239759,2.445,2.84078
-1.41842,0.239759,2.445,2.8368
-1.40068,0.238092,2.428,2.81314
-1.38305,0.236425,2.411,2.78956
-1.37522,0.236425,2.411,2.78569
-1.35775,0.234758,2.394,2.76222
-1.34998,0.234758,2.394,2.75841
-1.34221,0.234758,2.394,2.75461
-1.34392,0.236425,2.411,2.77037
-1.33609,0.236425,2.411,2.76658
-1.32827,0.236425,2.411,2.76281
-1.32975,0.238092,2.428,2.77851
-1.32187,0.238092,2.428,2.77475
-1.32319,0.239759,2.445,2.7904
-1.32494,0.241524,2.463,2.80716
-1.31694,0.241524,2.463,2.8034
-1.31852,0.243289,2.481,2.82011
-1.31997,0.245054,2.499,2.83679
-1.32131,0.246819,2.517,2.85343
-1.31314,0.246819,2.517,2.84966
-1.31482,0.248683,2.536,2.86738
-1.31638,0.250546,2.555,2.88507
-1.30808,0.250546,2.555,2.8813
-1.30946,0.252409,2.574,2.89894
-1.3011,0.252409,2.574,2.89518
-1.29275,0.252409,2.574,2.89143
-1.28439,0.252409,2.574,2.88771
-1.27604,0.252409,2.574,2.884
-1.26769,0.252409,2.574,2.88031
-1.25003,0.250546,2.555,2.85541
-1.23251,0.248683,2.536,2.83059
-1.22428,0.248683,2.536,2.82701
-1.20693,0.246819,2.517,2.8023
-1.19019,0.245054,2.499,2.77878
-1.18208,0.245054,2.499,2.77531
-1.16551,0.243289,2.481,2.7519
-1.14906,0.241524,2.463,2.72856
-1.14107,0.241524,2.463,2.7252
-1.12479,0.239759,2.445,2.70198
-1.10909,0.238092,2.428,2.67992
-1.10121,0.238092,2.428,2.67667
-1.09333,0.238092,2.428,2.67343
-1.07785,0.236425,2.411,2.65152
-1.07003,0.236425,2.411,2.64835
-1.0622,0.236425,2.411,2.6452
-1.05437,0.236425,2.411,2.64207
-1.04655,0.236425,2.411,2.63895
-1.03872,0.236425,2.411,2.63586
-1.0309,0.236425,2.411,2.63279
-1.02307,0.236425,2.411,2.62973
-1.01525,0.236425,2.411,2.6267
-1.00742,0.236425,2.411,2.62368
-0.999596,0.236425,2.411,2.62069
-0.99177,0.236425,2.411,2.61771
-0.983945,0.236425,2.411,2.61476
-0.976119,0.236425,2.411,2.61182
-0.968294,0.236425,2.411,2.60891
-0.960468,0.236425,2.411,2.60602
-0.952643,0.236425,2.411,2.60314
-0.944817,0.236425,2.411,2.60029
-0.936992,0.236425,2.411,2.59745
-0.929166,0.236425,2.411,2.59464
-0.921341,0.236425,2.411,2.59185
-0.913515,0.236425,2.411,2.58908
-0.90569,0.236425,2.411,2.58633
-0.897864,0.236425,2.411,2.5836
-0.890039,0.236425,2.411,2.58089
-0.882213,0.236425,2.411,2.5782
-0.868223,0.234758,2.394,2.55737
-0.860452,0.234758,2.394,2.55475
-0.852682,0.234758,2.394,2.55214
-0.844912,0.234758,2.394,2.54955
-0.837141,0.234758,2.394,2.54699
-0.829371,0.234758,2.394,2.54445
-0.821601,0.234758,2.394,2.54192
-0.81383,0.234758,2.394,2.53942
-0.80606,0.234758,2.394,2.53694
-0.79829,0.234758,2.394,2.53448
-0.790519,0.234758,2.394,2.53205
-0.782749,0.234758,2.394,2.52963
-0.774979,0.234758,2.394,2.52724
-0.767208,0.234758,2.394,2.52487
-0.764831,0.236425,2.411,2.54043
-0.757005,0.236425,2.411,2.53808
-0.754462,0.238092,2.428,2.55364
-0.746581,0.238092,2.428,2.55132
-0.738701,0.238092,2.428,2.54903
-0.735937,0.239759,2.445,2.56459
-0.728001,0.239759,2.445,2.56232
-0.720065,0.239759,2.445,2.56008
-0.712129,0.239759,2.445,2.55786
-0.704194,0.239759,2.445,2.55566
-0.701384,0.241524,2.463,2.57228
-0.693389,0.241524,2.463,2.57012
-0.685395,0.241524,2.463,2.56797
-0.677401,0.241524,2.463,2.56585
-0.674299,0.243289,2.481,2.58249
-0.666246,0.243289,2.481,2.58039
-0.658193,0.243289,2.481,2.57833
-0.65014,0.243289,2.481,2.57628
-0.642088,0.243289,2.481,2.57426
-0.634035,0.243289,2.481,2.57227
-0.621441,0.241524,2.463,2.55164
-0.613446,0.241524,2.463,2.54971
-0.605452,0.241524,2.463,2.5478
-0.597458,0.241524,2.463,2.54591
-0.589464,0.241524,2.463,2.54405
-0.581469,0.241524,2.463,2.54221
-0.573475,0.241524,2.463,2.54039
-0.569613,0.243289,2.481,2.55715
-0.561561,0.243289,2.481,2.55537
-0.553508,0.243289,2.481,2.55361
-0.545455,0.243289,2.481,2.55188
-0.537403,0.243289,2.481,2.55017
-0.52935,0.243289,2.481,2.54848
-0.521297,0.243289,2.481,2.54682
-0.513244,0.243289,2.481,2.54519
-0.505192,0.243289,2.481,2.54357
-0.493532,0.241524,2.463,2.52354
-0.485538,0.241524,2.463,2.52199
-0.477544,0.241524,2.463,2.52047
-0.469549,0.241524,2.463,2.51896
-0.461555,0.241524,2.463,2.51749
-0.453561,0.241524,2.463,2.51603
-0.445566,0.241524,2.463,2.5146
-0.437572,0.241524,2.463,2.5132
-0.429578,0.241524,2.463,2.51182
-0.421584,0.241524,2.463,2.51047
-0.413589,0.241524,2.463,2.50914
-0.405595,0.241524,2.463,2.50783
-0.397601,0.241524,2.463,2.50655
-0.389606,0.241524,2.463,2.50529
-0.381612,0.241524,2.463,2.50406
-0.373618,0.241524,2.463,2.50286
-0.365624,0.241524,2.463,2.50168
-0.357629,0.241524,2.463,2.50052
-0.349635,0.241524,2.463,2.49939
-0.341641,0.241524,2.463,2.49828
-0.336085,0.243289,2.481,2.51545
-0.328032,0.243289,2.481,2.51439
-0.319979,0.243289,2.481,2.51335
-0.311927,0.243289,2.481,2.51234
-0.306079,0.245054,2.499,2.52957
-0.297967,0.245054,2.499,2.5286
-0.289856,0.245054,2.499,2.52766
-0.281745,0.245054,2.499,2.52674
-0.273634,0.245054,2.499,2.52585
-0.265523,0.245054,2.499,2.52499
-0.257412,0.245054,2.499,2.52415
-0.249301,0.245054,2.499,2.52333
-0.24119,0.245054,2.499,2.52254
-0.233078,0.245054,2.499,2.52178
-0.224967,0.245054,2.499,2.52104
-0.216856,0.245054,2.499,2.52033
-0.208745,0.245054,2.499,2.51965
-0.200634,0.245054,2.499,2.51899
-0.193909,0.246819,2.517,2.5365
-0.18574,0.246819,2.517,2.53588
-0.17757,0.246819,2.517,2.5353
-0.169401,0.246819,2.517,2.53474
-0.161231,0.246819,2.517,2.53421
-0.151967,0.245054,2.499,2.51558
-0.143856,0.245054,2.499,2.5151
-0.135745,0.245054,2.499,2.51465
-0.127634,0.245054,2.499,2.51423
-0.119523,0.245054,2.499,2.51383
-0.111411,0.245054,2.499,2.51346
-0.1033,0.245054,2.499,2.51311
-0.0951891,0.245054,2.499,2.51279
-0.087078,0.245054,2.499,2.5125
-0.0789668,0.245054,2.499,2.51223
-0.0708557,0.245054,2.499,2.51199
-0.0627446,0.245054,2.499,2.51177
-0.0546334,0.245054,2.499,2.51158
-0.0461872,0.243289,2.481,2.49333
-0.0381345,0.243289,2.481,2.49319
-0.0300818,0.243289,2.481,2.49308
-0.0220291,0.243289,2.481,2.493
-0.0139764,0.243289,2.481,2.49294
-0.00592366,0.243289,2.481,2.49291
0.00212905,0.243289,2.481,2.4929
0.0101818,0.243289,2.481,2.49292
0.0182345,0.243289,2.481,2.49297
0.0262872,0.243289,2.481,2.49304
0.0343399,0.243289,2.481,2.49314
0.0423926,0.243289,2.481,2.49326
0.0500793,0.241524,2.463,2.47532
0.0580736,0.241524,2.463,2.4755
0.0665507,0.243289,2.481,2.49379
0.0746034,0.243289,2.481,2.49402
0.0820565,0.241524,2.463,2.47617
0.0900507,0.241524,2.463,2.47645
0.098045,0.241524,2.463,2.47676
0.106039,0.241524,2.463,2.47708
0.114034,0.241524,2.463,2.47744
0.122028,0.241524,2.463,2.47782
0.130022,0.241524,2.463,2.47823
0.138016,0.241524,2.463,2.47866
0.146011,0.241524,2.463,2.47912
0.154005,0.241524,2.463,2.4796
0.163183,0.243289,2.481,2.49824
0.171236,0.243289,2.481,2.49877
0.179289,0.243289,2.481,2.49934
0.187341,0.243289,2.481,2.49993
0.195394,0.243289,2.481,2.50055
0.203447,0.243289,2.481,2.50119
0.2115,0.243289,2.481,2.50186
0.219552,0.243289,2.481,2.50255
0.227605,0.243289,2.481,2.50327
0.235658,0.243289,2.481,2.50401
0.241942,0.241524,2.463,2.48661
0.249936,0.241524,2.463,2.4874
0.257931,0.241524,2.463,2.48822
0.265925,0.241524,2.463,2.48906
0.271917,0.239759,2.445,2.47173
0.279853,0.239759,2.445,2.47262
0.287789,0.239759,2.445,2.47353
0.295725,0.239759,2.445,2.47446
0.303661,0.239759,2.445,2.47542
0.311597,0.239759,2.445,2.47641
0.317311,0.238092,2.428,2.46019
0.325192,0.238092,2.428,2.46122
0.333072,0.238092,2.428,2.46228
0.340953,0.238092,2.428,2.46336
0.348834,0.238092,2.428,2.46446
0.356714,0.238092,2.428,2.46559
0.364595,0.238092,2.428,2.46674
0.372476,0.238092,2.428,2.46792
0.380356,0.238092,2.428,2.46912
0.388237,0.238092,2.428,2.47034
0.398891,0.239759,2.445,2.4889
0.406827,0.239759,2.445,2.49018
0.414763,0.239759,2.445,2.49149
0.422699,0.239759,2.445,2.49283
0.430635,0.239759,2.445,2.49418
0.435521,0.238092,2.428,2.47822
0.443402,0.238092,2.428,2.47961
0.451283,0.238092,2.428,2.48103
0.459163,0.238092,2.428,2.48248
0.467044,0.238092,2.428,2.48395
0.474925,0.238092,2.428,2.48544
0.482805,0.238092,2.428,2.48696
0.490686,0.238092,2.428,2.4885
0.495076,0.236425,2.411,2.47263
0.502901,0.236425,2.411,2.47421
0.510727,0.236425,2.411,2.47582
0.518552,0.236425,2.411,2.47744
0.526378,0.236425,2.411,2.47909
0.530437,0.234758,2.394,2.46327
0.538207,0.234758,2.394,2.46496
0.545977,0.234758,2.394,2.46667
0.553748,0.234758,2.394,2.4684
0.561518,0.234758,2.394,2.47015
0.569288,0.234758,2.394,2.47193
0.577059,0.234758,2.394,2.47373
0.580676,0.233091,2.377,2.45798
0.584431,0.231522,2.361,2.44325
0.592094,0.231522,2.361,2.4451
0.595693,0.229953,2.345,2.43038
0.599188,0.228384,2.329,2.41566
0.606747,0.228384,2.329,2.41755
0.610086,0.226815,2.313,2.40284
0.617594,0.226815,2.313,2.40475
0.625101,0.226815,2.313,2.40669
0.628506,0.225344,2.298,2.39303
0.631537,0.223775,2.282,2.37833
0.634744,0.222304,2.267,2.36466
0.642102,0.222304,2.267,2.36664
0.64946,0.222304,2.267,2.36865
0.656818,0.222304,2.267,2.37068
0.664176,0.222304,2.267,2.37273
0.671534,0.222304,2.267,2.3748
0.683384,0.223775,2.282,2.39262
0.695635,0.225344,2.298,2.41153
0.703093,0.225344,2.298,2.4137
0.710552,0.225344,2.298,2.41588
0.718011,0.225344,2.298,2.41808
0.72547,0.225344,2.298,2.42031
0.732928,0.225344,2.298,2.42255
0.740387,0.225344,2.298,2.42482
0.757934,0.228384,2.329,2.45985
0.765494,0.228384,2.329,2.46219
0.773053,0.228384,2.329,2.46455
0.780612,0.228384,2.329,2.46693
0.788172,0.228384,2.329,2.46933
0.795731,0.228384,2.329,2.47176
0.808809,0.229953,2.345,2.4912
0.81085,0.228384,2.329,2.47667
0.818409,0.228384,2.329,2.47915
0.831643,0.229953,2.345,2.49871
0.839254,0.229953,2.345,2.50125
0.846865,0.229953,2.345,2.50381
0.854477,0.229953,2.345,2.5064
0.86797,0.231522,2.361,2.52612
0.875633,0.231522,2.361,2.52877
0.889282,0.233091,2.377,2.54858
0.896997,0.233091,2.377,2.55129
0.904712,0.233091,2.377,2.55401
0.912428,0.233091,2.377,2.55675
0.920143,0.233091,2.377,2.55952
0.927858,0.233091,2.377,2.5623
0.942264,0.234758,2.394,2.58345
0.950035,0.234758,2.394,2.58629
0.957805,0.234758,2.394,2.58916
0.965575,0.234758,2.394,2.59204
0.973346,0.234758,2.394,2.59495
0.981116,0.234758,2.394,2.59787
0.988886,0.234758,2.394,2.60082
0.989579,0.233091,2.377,2.58529
0.997294,0.233091,2.377,2.58825
1.00501,0.233091,2.377,2.59124
1.01272,0.233091,2.377,2.59424
1.02044,0.233091,2.377,2.59726
1.02815,0.233091,2.377,2.6003
1.03587,0.233091,2.377,2.60336
1.04359,0.233091,2.377,2.60644
1.0513,0.233091,2.377,2.60954
1.05902,0.233091,2.377,2.61266
1.07436,0.234758,2.394,2.6345
1.08213,0.234758,2.394,2.63768
1.0899,0.234758,2.394,2.64088
1.09767,0.234758,2.394,2.64409
1.11329,0.236425,2.411,2.66613
1.12112,0.236425,2.411,2.6694
1.12894,0.236425,2.411,2.6727
1.14478,0.238092,2.428,2.69488
1.15266,0.238092,2.428,2.69824
1.16054,0.238092,2.428,2.70162
1.16842,0.238092,2.428,2.70501
1.18454,0.239759,2.445,2.72739
1.19248,0.239759,2.445,2.73084
1.20041,0.239759,2.445,2.73432
1.20835,0.239759,2.445,2.73781
1.21629,0.239759,2.445,2.74132
1.22422,0.239759,2.445,2.74485
1.23216,0.239759,2.445,2.7484
1.24009,0.239759,2.445,2.75197
1.25722,0.241524,2.463,2.77584
1.26521,0.241524,2.463,2.77947
1.27321,0.241524,2.463,2.78312
1.2812,0.241524,2.463,2.78679
1.29862,0.243289,2.481,2.81086
1.31615,0.245054,2.499,2.83501
1.32426,0.245054,2.499,2.83879
1.3521,0.248683,2.536,2.88467
1.37052,0.250546,2.555,2.91018
1.37881,0.250546,2.555,2.91409
1.40774,0.254272,2.593,2.96142
1.42708,0.256233,2.613,2.98831
1.45808,0.260254,2.654,3.03932
1.4667,0.260254,2.654,3.04346
1.51033,0.266432,2.717,3.11996
1.53145,0.268589,2.739,3.14954
1.54034,0.268589,2.739,3.15387
1.57412,0.272904,2.783,3.20896
1.59623,0.275159,2.806,3.23996
1.60534,0.275159,2.806,3.24445
1.62768,0.277414,2.829,3.2756
1.63686,0.277414,2.829,3.28017
1.64605,0.277414,2.829,3.28476
1.65523,0.277414,2.829,3.28937
1.67853,0.279768,2.853,3.32195
1.68779,0.279768,2.853,3.32664
1.68278,0.277414,2.829,3.30332
1.69196,0.277414,2.829,3.30801
1.70114,0.277414,2.829,3.31271
1.69642,0.275159,2.806,3.29047
1.70553,0.275159,2.806,3.29517
1.71463,0.275159,2.806,3.2999
1.70961,0.272904,2.783,3.27755
1.69147,0.268589,2.739,3.23038
1.70036,0.268589,2.739,3.23504
1.69552,0.266432,2.717,3.2137
1.678,0.262313,2.675,3.16861
1.6602,0.258194,2.633,3.1234
1.66874,0.258194,2.633,3.12795
1.66455,0.256233,2.613,3.10872
1.64806,0.252409,2.574,3.0668
1.65641,0.252409,2.574,3.0713
1.64019,0.248683,2.536,3.03041
1.62437,0.245054,2.499,2.99059
1.63248,0.245054,2.499,2.995
1.62878,0.243289,2.481,2.97783
1.61308,0.239759,2.445,2.93897
1.62101,0.239759,2.445,2.94333
1.62895,0.239759,2.445,2.94771
1.6255,0.238092,2.428,2.93158
1.63339,0.238092,2.428,2.93595
1.62977,0.236425,2.411,2.91976
1.62605,0.234758,2.394,2.90351
-1.85574,0.270993,2.675,3.26693
-1.86155,0.27312,2.696,3.28761
-1.8528,0.27312,2.696,3.28266
-1.84405,0.27312,2.696,3.27773
-1.8353,0.27312,2.696,3.27282
-1.82655,0.27312,2.696,3.26792
-1.8178,0.27312,2.696,3.26304
-1.80905,0.27312,2.696,3.25817
-1.8003,0.27312,2.696,3.25332
-1.79155,0.27312,2.696,3.24849
-1.7828,0.27312,2.696,3.24367
-1.77405,0.27312,2.696,3.23887
-1.7653,0.27312,2.696,3.23408
-1.75655,0.27312,2.696,3.22931
-1.7478,0.27312,2.696,3.22456
-1.7255,0.270993,2.675,3.19475
-1.71682,0.270993,2.675,3.19007
-1.70813,0.270993,2.675,3.1854
-1.68611,0.268866,2.654,3.15578
-1.6775,0.268866,2.654,3.15119
-1.66888,0.268866,2.654,3.14661
-1.64713,0.266738,2.633,3.11719
-1.63858,0.266738,2.633,3.11268
-1.63004,0.266738,2.633,3.10819
-1.60918,0.264712,2.613,3.08014
-1.60069,0.264712,2.613,3.07572
-1.59221,0.264712,2.613,3.07132
-1.56009,0.260761,2.574,3.02115
-1.54029,0.258836,2.555,2.99458
-1.53199,0.258836,2.555,2.99032
-1.50104,0.254987,2.517,2.94167
-1.48219,0.253163,2.499,2.9165
-1.47408,0.253163,2.499,2.91239
-1.44485,0.249516,2.463,2.8664
-1.42636,0.247693,2.445,2.84146
-1.41842,0.247693,2.445,2.83748
-1.40068,0.24597,2.428,2.81382
-1.38305,0.244248,2.411,2.79023
-1.37522,0.244248,2.411,2.78636
-1.35775,0.242526,2.394,2.76289
-1.34998,0.242526,2.394,2.75908
-1.34221,0.242526,2.394,2.75528
-1.34392,0.244248,2.411,2.77105
-1.33609,0.244248,2.411,2.76726
-1.32827,0.244248,2.411,2.76349
-1.32975,0.24597,2.428,2.7792
-1.32187,0.24597,2.428,2.77543
-1.32319,0.247693,2.445,2.7911
-1.32494,0.249516,2.463,2.80786
-1.31694,0.249516,2.463,2.8041
-1.31852,0.25134,2.481,2.82082
-1.31997,0.253163,2.499,2.8375
-1.33128,0.256911,2.536,2.87569
-1.32305,0.256911,2.536,2.87189
-1.31482,0.256911,2.536,2.86811
-1.32617,0.260761,2.574,2.90727
-1.31781,0.260761,2.574,2.90346
-1.30946,0.260761,2.574,2.89968
-1.31071,0.262686,2.593,2.91729
-1.30229,0.262686,2.593,2.91352
-1.28439,0.260761,2.574,2.88845
-1.27604,0.260761,2.574,2.88474
-1.26769,0.260761,2.574,2.88106
-1.25003,0.258836,2.555,2.85615
-1.23251,0.256911,2.536,2.83132
-1.22428,0.256911,2.536,2.82775
-1.20693,0.254987,2.517,2.80303
-1.19019,0.253163,2.499,2.77951
-1.18208,0.253163,2.499,2.77604
-1.16551,0.25134,2.481,2.75263
-1.14906,0.249516,2.463,2.72928
-1.14107,0.249516,2.463,2.72592
-1.12479,0.247693,2.445,2.70269
-1.11686,0.247693,2.445,2.6994
-1.10121,0.24597,2.428,2.67738
-1.09333,0.24597,2.428,2.67415
-1.08545,0.24597,2.428,2.67093
-1.07003,0.244248,2.411,2.64906
-1.0622,0.244248,2.411,2.64591
-1.05437,0.244248,2.411,2.64278
-1.04655,0.244248,2.411,2.63967
-1.03872,0.244248,2.411,2.63657
-1.0309,0.244248,2.411,2.6335
-1.02307,0.244248,2.411,2.63045
-1.01525,0.244248,2.411,2.62741
-1.01452,0.24597,2.428,2.6429
-1.00664,0.24597,2.428,2.63989
-0.998763,0.24597,2.428,2.63689
-0.990883,0.24597,2.428,2.63392
-0.983002,0.24597,2.428,2.63097
-0.975121,0.24597,2.428,2.62803
-0.967241,0.24597,2.428,2.62512
-0.95936,0.24597,2.428,2.62222
-0.951479,0.24597,2.428,2.61935
-0.943599,0.24597,2.428,2.6165
-0.935718,0.24597,2.428,2.61367
-0.921341,0.244248,2.411,2.59258
-0.913515,0.244248,2.411,2.5898
-0.90569,0.244248,2.411,2.58705
-0.897864,0.244248,2.411,2.58433
-0.890039,0.244248,2.411,2.58162
-0.882213,0.244248,2.411,2.57893
-0.868223,0.242526,2.394,2.5581
-0.860452,0.242526,2.394,2.55547
-0.852682,0.242526,2.394,2.55287
-0.844912,0.242526,2.394,2.55028
-0.837141,0.242526,2.394,2.54772
-0.829371,0.242526,2.394,2.54517
-0.821601,0.242526,2.394,2.54265
-0.81383,0.242526,2.394,2.54015
-0.80606,0.242526,2.394,2.53767
-0.79829,0.242526,2.394,2.53522
-0.790519,0.242526,2.394,2.53278
-0.782749,0.242526,2.394,2.53037
-0.774979,0.242526,2.394,2.52797
-0.767208,0.242526,2.394,2.5256
-0.764831,0.244248,2.411,2.54117
-0.757005,0.244248,2.411,2.53883
-0.754462,0.24597,2.428,2.55439
-0.746581,0.24597,2.428,2.55207
-0.738701,0.24597,2.428,2.54978
-0.735937,0.247693,2.445,2.56534
-0.728001,0.247693,2.445,2.56308
-0.720065,0.247693,2.445,2.56083
-0.712129,0.247693,2.445,2.55861
-0.704194,0.247693,2.445,2.55642
-0.701384,0.249516,2.463,2.57305
-0.693389,0.249516,2.463,2.57088
-0.685395,0.249516,2.463,2.56873
-0.677401,0.249516,2.463,2.56661
-0.674299,0.25134,2.481,2.58326
-0.666246,0.25134,2.481,2.58117
-0.658193,0.25134,2.481,2.5791
-0.65014,0.25134,2.481,2.57706
-0.642088,0.25134,2.481,2.57504
-0.634035,0.25134,2.481,2.57304
-0.625982,0.25134,2.481,2.57107
-0.61793,0.25134,2.481,2.56912
-0.609877,0.25134,2.481,2.56719
-0.601824,0.25134,2.481,2.56529
-0.593771,0.25134,2.481,2.56342
-0.585719,0.25134,2.481,2.56156
-0.577666,0.25134,2.481,2.55973
-0.569613,0.25134,2.481,2.55793
-0.561561,0.25134,2.481,2.55615
-0.553508,0.25134,2.481,2.55439
-0.545455,0.25134,2.481,2.55266
-0.537403,0.25134,2.481,2.55095
-0.52935,0.25134,2.481,2.54926
-0.521297,0.25134,2.481,2.5476
-0.513244,0.25134,2.481,2.54597
-0.505192,0.25134,2.481,2.54436
-0.493532,0.249516,2.463,2.52432
-0.485538,0.249516,2.463,2.52277
-0.477544,0.249516,2.463,2.52124
-0.469549,0.249516,2.463,2.51974
-0.461555,0.249516,2.463,2.51827
-0.453561,0.249516,2.463,2.51681
-0.445566,0.249516,2.463,2.51538
-0.437572,0.249516,2.463,2.51398
-0.429578,0.249516,2.463,2.5126
-0.421584,0.249516,2.463,2.51125
-0.413589,0.249516,2.463,2.50992
-0.405595,0.249516,2.463,2.50861
-0.397601,0.249516,2.463,2.50733
-0.389606,0.249516,2.463,2.50608
-0.381612,0.249516,2.463,2.50485
-0.373618,0.249516,2.463,2.50364
-0.365624,0.249516,2.463,2.50246
-0.357629,0.249516,2.463,2.5013
-0.349635,0.249516,2.463,2.50017
-0.341641,0.249516,2.463,2.49907
-0.336085,0.25134,2.481,2.51624
-0.328032,0.25134,2.481,2.51518
-0.319979,0.25134,2.481,2.51414
-0.311927,0.25134,2.481,2.51313
-0.306079,0.253163,2.499,2.53037
-0.297967,0.253163,2.499,2.5294
-0.289856,0.253163,2.499,2.52846
-0.281745,0.253163,2.499,2.52754
-0.273634,0.253163,2.499,2.52665
-0.265523,0.253163,2.499,2.52579
-0.257412,0.253163,2.499,2.52495
-0.249301,0.253163,2.499,2.52413
-0.24119,0.253163,2.499,2.52334
-0.233078,0.253163,2.499,2.52258
-0.224967,0.253163,2.499,2.52185
-0.216856,0.253163,2.499,2.52113
-0.208745,0.253163,2.499,2.52045
-0.200634,0.253163,2.499,2.51979
-0.192523,0.253163,2.499,2.51916
-0.184412,0.253163,2.499,2.51855
-0.1763,0.253163,2.499,2.51797
-0.168189,0.253163,2.499,2.51742
-0.160078,0.253163,2.499,2.51689
-0.151967,0.253163,2.499,2.51638
-0.143856,0.253163,2.499,2.51591
-0.135745,0.253163,2.499,2.51546
-0.127634,0.253163,2.499,2.51503
-0.119523,0.253163,2.499,2.51463
-0.111411,0.253163,2.499,2.51426
-0.1033,0.253163,2.499,2.51391
-0.0951891,0.253163,2.499,2.51359
-0.087078,0.253163,2.499,2.5133
-0.0789668,0.253163,2.499,2.51303
-0.0708557,0.253163,2.499,2.51279
-0.0627446,0.253163,2.499,2.51257
-0.0546334,0.253163,2.499,2.51238
-0.0461872,0.25134,2.481,2.49413
-0.0381345,0.25134,2.481,2.49399
-0.0300818,0.25134,2.481,2.49388
-0.0220291,0.25134,2.481,2.4938
-0.0139764,0.25134,2.481,2.49374
-0.00592366,0.25134,2.481,2.49371
0.00212905,0.25134,2.481,2.4937
0.0101818,0.25134,2.481,2.49372
0.0182345,0.25134,2.481,2.49377
0.0262872,0.25134,2.481,2.49384
0.0343399,0.25134,2.481,2.49394
0.0423926,0.25134,2.481,2.49406
0.0500793,0.249516,2.463,2.47611
0.0580736,0.249516,2.463,2.47629
0.0665507,0.25134,2.481,2.49459
0.0746034,0.25134,2.481,2.49481
0.0820565,0.249516,2.463,2.47697
0.0900507,0.249516,2.463,2.47724
0.098045,0.249516,2.463,2.47755
0.106039,0.249516,2.463,2.47788
0.114034,0.249516,2.463,2.47823
0.122028,0.249516,2.463,2.47861
0.130022,0.249516,2.463,2.47902
0.139025,0.25134,2.481,2.49757
0.147078,0.25134,2.481,2.49803
0.155131,0.25134,2.481,2.49852
0.163183,0.25134,2.481,2.49903
0.171236,0.25134,2.481,2.49957
0.179289,0.25134,2.481,2.50014
0.187341,0.25134,2.481,2.50073
0.195394,0.25134,2.481,2.50134
0.203447,0.25134,2.481,2.50198
0.2115,0.25134,2.481,2.50265
0.219552,0.25134,2.481,2.50335
0.227605,0.25134,2.481,2.50406
0.235658,0.25134,2.481,2.50481
0.241942,0.249516,2.463,2.4874
0.249936,0.249516,2.463,2.48819
0.257931,0.249516,2.463,2.48901
0.265925,0.249516,2.463,2.48985
0.271917,0.247693,2.445,2.47251
0.279853,0.247693,2.445,2.4734
0.287789,0.247693,2.445,2.47431
0.295725,0.247693,2.445,2.47524
0.303661,0.247693,2.445,2.4762
0.311597,0.247693,2.445,2.47719
0.317311,0.24597,2.428,2.46097
0.325192,0.24597,2.428,2.462
0.333072,0.24597,2.428,2.46305
0.340953,0.24597,2.428,2.46413
0.348834,0.24597,2.428,2.46523
0.356714,0.24597,2.428,2.46636
0.364595,0.24597,2.428,2.46751
0.375084,0.247693,2.445,2.48597
0.38302,0.247693,2.445,2.48718
0.390955,0.247693,2.445,2.48842
0.398891,0.247693,2.445,2.48968
0.406827,0.247693,2.445,2.49096
0.414763,0.247693,2.445,2.49227
0.422699,0.247693,2.445,2.4936
0.430635,0.247693,2.445,2.49496
0.438571,0.247693,2.445,2.49634
0.443402,0.24597,2.428,2.48038
0.451283,0.24597,2.428,2.4818
0.459163,0.24597,2.428,2.48325
0.467044,0.24597,2.428,2.48472
0.474925,0.24597,2.428,2.48621
0.482805,0.24597,2.428,2.48773
0.490686,0.24597,2.428,2.48927
0.495076,0.244248,2.411,2.47339
0.502901,0.244248,2.411,2.47497
0.510727,0.244248,2.411,2.47657
0.518552,0.244248,2.411,2.4782
0.526378,0.244248,2.411,2.47985
0.530437,0.242526,2.394,2.46403
0.538207,0.242526,2.394,2.46571
0.545977,0.242526,2.394,2.46742
0.553748,0.242526,2.394,2.46915
0.561518,0.242526,2.394,2.4709
0.569288,0.242526,2.394,2.47268
0.577059,0.242526,2.394,2.47448
0.580676,0.240804,2.377,2.45872
0.584431,0.239183,2.361,2.44399
0.592094,0.239183,2.361,2.44583
0.595693,0.237562,2.345,2.43111
0.599188,0.235941,2.329,2.41639
0.606747,0.235941,2.329,2.41827
0.610086,0.23432,2.313,2.40356
0.613588,0.232801,2.298,2.38987
0.621047,0.232801,2.298,2.3918
0.62413,0.23118,2.282,2.37708
0.627386,0.22966,2.267,2.3634
0.630544,0.228141,2.252,2.34971
0.637853,0.228141,2.252,2.35168
0.645163,0.228141,2.252,2.35368
0.652472,0.228141,2.252,2.35569
0.664176,0.22966,2.267,2.37343
0.671534,0.22966,2.267,2.3755
0.683384,0.23118,2.282,2.39332
0.695635,0.232801,2.298,2.41224
0.703093,0.232801,2.298,2.4144
0.710552,0.232801,2.298,2.41659
0.718011,0.232801,2.298,2.41879
0.72547,0.232801,2.298,2.42101
0.732928,0.232801,2.298,2.42326
0.740387,0.232801,2.298,2.42553
0.757934,0.235941,2.329,2.46056
0.765494,0.235941,2.329,2.4629
0.773053,0.235941,2.329,2.46526
0.780612,0.235941,2.329,2.46764
0.788172,0.235941,2.329,2.47005
0.795731,0.235941,2.329,2.47247
0.808809,0.237562,2.345,2.49191
0.81085,0.235941,2.329,2.47737
0.818409,0.235941,2.329,2.47986
0.831643,0.237562,2.345,2.49942
0.839254,0.237562,2.345,2.50196
0.846865,0.237562,2.345,2.50452
0.854477,0.237562,2.345,2.50711
0.86797,0.239183,2.361,2.52684
0.875633,0.239183,2.361,2.52948
0.889282,0.240804,2.377,2.5493
0.896997,0.240804,2.377,2.552
0.904712,0.240804,2.377,2.55473
0.912428,0.240804,2.377,2.55747
0.920143,0.240804,2.377,2.56023
0.927858,0.240804,2.377,2.56301
0.942264,0.242526,2.394,2.58417
0.950035,0.242526,2.394,2.58701
0.957805,0.242526,2.394,2.58987
0.965575,0.242526,2.394,2.59276
0.973346,0.242526,2.394,2.59566
0.981116,0.242526,2.394,2.59858
0.988886,0.242526,2.394,2.60153
0.989579,0.240804,2.377,2.586
0.997294,0.240804,2.377,2.58896
1.00501,0.240804,2.377,2.59194
1.01272,0.240804,2.377,2.59494
1.02044,0.240804,2.377,2.59796
1.02815,0.240804,2.377,2.601
1.03587,0.240804,2.377,2.60406
1.04359,0.240804,2.377,2.60714
1.0513,0.240804,2.377,2.61024
1.05902,0.240804,2.377,2.61336
1.07436,0.242526,2.394,2.6352
1.08213,0.242526,2.394,2.63838
1.0899,0.242526,2.394,2.64158
1.09767,0.242526,2.394,2.64479
1.11329,0.244248,2.411,2.66683
1.12112,0.244248,2.411,2.67011
1.12894,0.244248,2.411,2.6734
1.13677,0.244248,2.411,2.67672
1.15266,0.24597,2.428,2.69895
1.16054,0.24597,2.428,2.70232
1.16842,0.24597,2.428,2.70572
1.18454,0.247693,2.445,2.7281
1.19248,0.247693,2.445,2.73155
1.20041,0.247693,2.445,2.73503
1.20835,0.247693,2.445,2.73852
1.21629,0.247693,2.445,2.74203
1.22422,0.247693,2.445,2.74556
1.23216,0.247693,2.445,2.74911
1.24009,0.247693,2.445,2.75267
1.25722,0.249516,2.463,2.77655
1.26521,0.249516,2.463,2.78018
1.27321,0.249516,2.463,2.78382
1.2812,0.249516,2.463,2.78749
1.29862,0.25134,2.481,2.81157
1.31615,0.253163,2.499,2.83573
1.32426,0.253163,2.499,2.8395
1.3521,0.256911,2.536,2.88539
1.37052,0.258836,2.555,2.9109
1.37881,0.258836,2.555,2.91482
1.40774,0.262686,2.593,2.96216
1.42708,0.264712,2.613,2.98904
1.45808,0.268866,2.654,3.04007
1.4667,0.268866,2.654,3.04421
1.49866,0.27312,2.696,3.09661
1.53145,0.277477,2.739,3.15031
1.54034,0.277477,2.739,3.15464
1.57412,0.281934,2.783,3.20974
1.59623,0.284264,2.806,3.24074
1.60534,0.284264,2.806,3.24524
1.62768,0.286594,2.829,3.27639
1.63686,0.286594,2.829,3.28096
1.64605,0.286594,2.829,3.28555
1.65523,0.286594,2.829,3.29016
1.67853,0.289025,2.853,3.32274
1.68779,0.289025,2.853,3.32743
1.68278,0.286594,2.829,3.30411
1.69196,0.286594,2.829,3.30879
1.70114,0.286594,2.829,3.3135
1.69642,0.284264,2.806,3.29124
1.70553,0.284264,2.806,3.29595
1.71463,0.284264,2.806,3.30067
1.70961,0.281934,2.783,3.27831
1.69147,0.277477,2.739,3.23113
1.70036,0.277477,2.739,3.23579
1.69552,0.275248,2.717,3.21444
1.678,0.270993,2.675,3.16934
1.6602,0.266738,2.633,3.12411
1.66874,0.266738,2.633,3.12866
1.65181,0.262686,2.593,3.08563
1.64806,0.260761,2.574,3.0675
1.65641,0.260761,2.574,3.072
1.64019,0.256911,2.536,3.03109
1.62437,0.253163,2.499,2.99127
1.63248,0.253163,2.499,2.99568
1.62878,0.25134,2.481,2.9785
1.61308,0.247693,2.445,2.93963
1.62101,0.247693,2.445,2.94399
1.61762,0.24597,2.428,2.92787
1.61412,0.244248,2.411,2.9117
1.62195,0.244248,2.411,2.91604
1.61828,0.242526,2.394,2.89981
1.62605,0.242526,2.394,2.90415
-1.85574,0.279673,2.675,3.26766
-1.84705,0.279673,2.675,3.26274
-1.8528,0.281868,2.696,3.2834
-1.84405,0.281868,2.696,3.27847
-1.8353,0.281868,2.696,3.27356
-1.82655,0.281868,2.696,3.26866
-1.8178,0.281868,2.696,3.26378
-1.80905,0.281868,2.696,3.25891
-1.81432,0.284064,2.717,3.27941
-1.8055,0.284064,2.717,3.27454
-1.79668,0.284064,2.717,3.26969
-1.78787,0.284064,2.717,3.26485
-1.77905,0.284064,2.717,3.26003
-1.77023,0.284064,2.717,3.25523
-1.76141,0.284064,2.717,3.25044
-1.73905,0.281868,2.696,3.22058
-1.73029,0.281868,2.696,3.21586
-1.72154,0.281868,2.696,3.21116
-1.71279,0.281868,2.696,3.20648
-1.70404,0.281868,2.696,3.20182
-1.68209,0.279673,2.675,3.17226
-1.66027,0.277477,2.654,3.1428
-1.65165,0.277477,2.654,3.13826
-1.64304,0.277477,2.654,3.13373
-1.62149,0.275282,2.633,3.10447
-1.61295,0.275282,2.633,3.10001
-1.59221,0.273191,2.613,3.07206
-1.57161,0.2711,2.593,3.04419
-1.54029,0.267127,2.555,2.99531
-1.53199,0.267127,2.555,2.99105
-1.51237,0.26514,2.536,2.9646
-1.48219,0.261272,2.499,2.91722
-1.47408,0.261272,2.499,2.91311
-1.45541,0.25939,2.481,2.88806
-1.43686,0.257508,2.463,2.86308
-1.42886,0.257508,2.463,2.85908
-1.40068,0.253849,2.428,2.81452
-1.38305,0.252072,2.411,2.79093
-1.37522,0.252072,2.411,2.78706
-1.35775,0.250294,2.394,2.76358
-1.34998,0.250294,2.394,2.75977
-1.34221,0.250294,2.394,2.75598
-1.34392,0.252072,2.411,2.77175
-1.33609,0.252072,2.411,2.76796
-1.32827,0.252072,2.411,2.76419
-1.33906,0.255626,2.445,2.79937
-1.33113,0.255626,2.445,2.79558
-1.32319,0.255626,2.445,2.79181
-1.33462,0.25939,2.481,2.82911
-1.32657,0.25939,2.481,2.82532
-1.32808,0.261272,2.499,2.84202
-1.32948,0.263154,2.517,2.85868
-1.33128,0.26514,2.536,2.87644
-1.32305,0.26514,2.536,2.87264
-1.32467,0.267127,2.555,2.89035
-1.32617,0.269113,2.574,2.90803
-1.31781,0.269113,2.574,2.90423
-1.31912,0.2711,2.593,2.92185
-1.31071,0.2711,2.593,2.91806
-1.30229,0.2711,2.593,2.91429
-1.29387,0.2711,2.593,2.91054
-1.28546,0.2711,2.593,2.90681
-1.27704,0.2711,2.593,2.9031
-1.25003,0.267127,2.555,2.85692
-1.24174,0.267127,2.555,2.8533
-1.23345,0.267127,2.555,2.8497
-1.21605,0.26514,2.536,2.82495
-1.19876,0.263154,2.517,2.80028
-1.1906,0.263154,2.517,2.79679
-1.16551,0.25939,2.481,2.75337
-1.15746,0.25939,2.481,2.74997
-1.14941,0.25939,2.481,2.7466
-1.13308,0.257508,2.463,2.72333
-1.11686,0.255626,2.445,2.70014
-1.10892,0.255626,2.445,2.69686
-1.10099,0.255626,2.445,2.69361
-1.08545,0.253849,2.428,2.67167
-1.07757,0.253849,2.428,2.66848
-1.06969,0.253849,2.428,2.66531
-1.06181,0.253849,2.428,2.66215
-1.05393,0.253849,2.428,2.65902
-1.04605,0.253849,2.428,2.65591
-1.03817,0.253849,2.428,2.65281
-1.03029,0.253849,2.428,2.64974
-1.02241,0.253849,2.428,2.64668
-1.01452,0.253849,2.428,2.64365
-1.00664,0.253849,2.428,2.64064
-0.998763,0.253849,2.428,2.63764
-0.990883,0.253849,2.428,2.63467
-0.983002,0.253849,2.428,2.63171
-0.975121,0.253849,2.428,2.62878
-0.967241,0.253849,2.428,2.62587
-0.95936,0.253849,2.428,2.62297
-0.951479,0.253849,2.428,2.6201
-0.943599,0.253849,2.428,2.61725
-0.935718,0.253849,2.428,2.61442
-0.927837,0.253849,2.428,2.61161
-0.919957,0.253849,2.428,2.60882
-0.912076,0.253849,2.428,2.60605
-0.897864,0.252072,2.411,2.58508
-0.890039,0.252072,2.411,2.58237
-0.882213,0.252072,2.411,2.57968
-0.874388,0.252072,2.411,2.57702
-0.866562,0.252072,2.411,2.57437
-0.858737,0.252072,2.411,2.57175
-0.844912,0.250294,2.394,2.55103
-0.837141,0.250294,2.394,2.54847
-0.829371,0.250294,2.394,2.54593
-0.821601,0.250294,2.394,2.54341
-0.81383,0.250294,2.394,2.54091
-0.80606,0.250294,2.394,2.53843
-0.79829,0.250294,2.394,2.53597
-0.790519,0.250294,2.394,2.53354
-0.782749,0.250294,2.394,2.53112
-0.780482,0.252072,2.411,2.54669
-0.772656,0.252072,2.411,2.5443
-0.764831,0.252072,2.411,2.54193
-0.757005,0.252072,2.411,2.53959
-0.754462,0.253849,2.428,2.55516
-0.746581,0.253849,2.428,2.55284
-0.738701,0.253849,2.428,2.55055
-0.735937,0.255626,2.445,2.56612
-0.728001,0.255626,2.445,2.56386
-0.720065,0.255626,2.445,2.56161
-0.712129,0.255626,2.445,2.55939
-0.704194,0.255626,2.445,2.5572
-0.701384,0.257508,2.463,2.57383
-0.693389,0.257508,2.463,2.57167
-0.685395,0.257508,2.463,2.56952
-0.677401,0.257508,2.463,2.5674
-0.669406,0.257508,2.463,2.5653
-0.661412,0.257508,2.463,2.56323
-0.653418,0.257508,2.463,2.56118
-0.65014,0.25939,2.481,2.57785
-0.642088,0.25939,2.481,2.57583
-0.634035,0.25939,2.481,2.57384
-0.625982,0.25939,2.481,2.57187
-0.61793,0.25939,2.481,2.56992
-0.609877,0.25939,2.481,2.56799
-0.601824,0.25939,2.481,2.56609
-0.593771,0.25939,2.481,2.56422
-0.585719,0.25939,2.481,2.56236
-0.577666,0.25939,2.481,2.56054
-0.569613,0.25939,2.481,2.55873
-0.561561,0.25939,2.481,2.55695
-0.553508,0.25939,2.481,2.55519
-0.545455,0.25939,2.481,2.55346
-0.537403,0.25939,2.481,2.55175
-0.52935,0.25939,2.481,2.55007
-0.521297,0.25939,2.481,2.54841
-0.513244,0.25939,2.481,2.54678
-0.505192,0.25939,2.481,2.54516
-0.493532,0.257508,2.463,2.52512
-0.485538,0.257508,2.463,2.52357
-0.477544,0.257508,2.463,2.52205
-0.469549,0.257508,2.463,2.52055
-0.461555,0.257508,2.463,2.51907
-0.453561,0.257508,2.463,2.51762
-0.445566,0.257508,2.463,2.51619
-0.437572,0.257508,2.463,2.51479
-0.429578,0.257508,2.463,2.51341
-0.421584,0.257508,2.463,2.51205
-0.413589,0.257508,2.463,2.51072
-0.405595,0.257508,2.463,2.50942
-0.397601,0.257508,2.463,2.50814
-0.389606,0.257508,2.463,2.50689
-0.381612,0.257508,2.463,2.50566
-0.373618,0.257508,2.463,2.50445
-0.365624,0.257508,2.463,2.50327
-0.357629,0.257508,2.463,2.50211
-0.349635,0.257508,2.463,2.50098
-0.341641,0.257508,2.463,2.49988
-0.336085,0.25939,2.481,2.51706
-0.328032,0.25939,2.481,2.516
-0.319979,0.25939,2.481,2.51496
-0.311927,0.25939,2.481,2.51395
-0.306079,0.261272,2.499,2.5312
-0.297967,0.261272,2.499,2.53023
-0.289856,0.261272,2.499,2.52928
-0.281745,0.261272,2.499,2.52837
-0.273634,0.261272,2.499,2.52748
-0.265523,0.261272,2.499,2.52661
-0.257412,0.261272,2.499,2.52577
-0.249301,0.261272,2.499,2.52496
-0.24119,0.261272,2.499,2.52417
-0.233078,0.261272,2.499,2.52341
-0.224967,0.261272,2.499,2.52267
-0.216856,0.261272,2.499,2.52196
-0.208745,0.261272,2.499,2.52128
-0.200634,0.261272,2.499,2.52062
-0.192523,0.261272,2.499,2.51999
-0.184412,0.261272,2.499,2.51938
-0.1763,0.261272,2.499,2.5188
-0.168189,0.261272,2.499,2.51824
-0.160078,0.261272,2.499,2.51772
-0.151967,0.261272,2.499,2.51721
-0.143856,0.261272,2.499,2.51674
-0.135745,0.261272,2.499,2.51629
-0.127634,0.261272,2.499,2.51586
-0.119523,0.261272,2.499,2.51546
