-0.384691,-0.508377,2.536,2.61491
-0.37364,-0.504568,2.517,2.59413
-0.36547,-0.504568,2.517,2.59296
-0.357301,-0.504568,2.517,2.59182
-0.349131,-0.504568,2.517,2.59071
-0.340961,-0.504568,2.517,2.58962
-0.332792,-0.504568,2.517,2.58856
-0.322301,-0.50096,2.499,2.56902
-0.31419,-0.50096,2.499,2.56801
-0.306079,-0.50096,2.499,2.56703
-0.297967,-0.50096,2.499,2.56608
-0.289856,-0.50096,2.499,2.56515
-0.281745,-0.50096,2.499,2.56424
-0.271663,-0.497351,2.481,2.5449
-0.261698,-0.493743,2.463,2.5256
-0.253704,-0.493743,2.463,2.52478
-0.245709,-0.493743,2.463,2.52399
-0.237715,-0.493743,2.463,2.52322
-0.229721,-0.493743,2.463,2.52248
-0.221726,-0.493743,2.463,2.52177
-0.213732,-0.493743,2.463,2.52108
-0.205738,-0.493743,2.463,2.52041
-0.197744,-0.493743,2.463,2.51977
-0.189749,-0.493743,2.463,2.51916
-0.181755,-0.493743,2.463,2.51857
-0.173761,-0.493743,2.463,2.518
-0.165766,-0.493743,2.463,2.51746
-0.157772,-0.493743,2.463,2.51695
-0.149778,-0.493743,2.463,2.51646
-0.141784,-0.493743,2.463,2.516
-0.133789,-0.493743,2.463,2.51556
-0.125795,-0.493743,2.463,2.51515
-0.117801,-0.493743,2.463,2.51476
-0.109806,-0.493743,2.463,2.5144
-0.102556,-0.497351,2.481,2.53244
-0.0938178,-0.493743,2.463,2.51375
-0.0858236,-0.493743,2.463,2.51347
-0.078398,-0.497351,2.481,2.53157
-0.0703453,-0.497351,2.481,2.53134
-0.0622926,-0.497351,2.481,2.53113
-0.0542399,-0.497351,2.481,2.53094
-0.0461872,-0.497351,2.481,2.53078
-0.0381345,-0.497351,2.481,2.53065
-0.0303,-0.50096,2.499,2.5489
-0.0223487,-0.504568,2.517,2.56717
-0.0141792,-0.504568,2.517,2.56712
-0.00600962,-0.504568,2.517,2.56708
0.00215994,-0.504568,2.517,2.56708
0.0103295,-0.504568,2.517,2.5671
0.0184991,-0.504568,2.517,2.56714
0.0268699,-0.508377,2.536,2.58659
0.0353641,-0.512186,2.555,2.60607
0.043657,-0.512186,2.555,2.6062
0.0519499,-0.512186,2.555,2.60635
0.0602428,-0.512186,2.555,2.60653
0.0685357,-0.512186,2.555,2.60673
0.0768286,-0.512186,2.555,2.60696
0.0857545,-0.515994,2.574,2.62661
0.0941091,-0.515994,2.574,2.6269
0.102464,-0.515994,2.574,2.62721
0.110818,-0.515994,2.574,2.62755
0.119173,-0.515994,2.574,2.62791
0.127527,-0.515994,2.574,2.62831
0.135882,-0.515994,2.574,2.62872
0.145301,-0.519803,2.593,2.64858
0.153717,-0.519803,2.593,2.64905
0.162134,-0.519803,2.593,2.64955
0.17055,-0.519803,2.593,2.65008
0.177655,-0.515994,2.574,2.63121
0.186009,-0.515994,2.574,2.63179
0.194364,-0.515994,2.574,2.6324
0.202718,-0.515994,2.574,2.63303
0.211073,-0.515994,2.574,2.63368
0.221047,-0.519803,2.593,2.65381
0.229463,-0.519803,2.593,2.65452
0.23788,-0.519803,2.593,2.65527
0.244491,-0.515994,2.574,2.63657
0.252846,-0.515994,2.574,2.63736
0.2612,-0.515994,2.574,2.63817
0.269555,-0.515994,2.574,2.63901
0.27791,-0.515994,2.574,2.63988
0.286264,-0.515994,2.574,2.64077
0.294619,-0.515994,2.574,2.64169
0.300737,-0.512186,2.555,2.62313
0.30903,-0.512186,2.555,2.62409
0.317323,-0.512186,2.555,2.62508
0.325615,-0.512186,2.555,2.6261
0.333908,-0.512186,2.555,2.62714
0.342201,-0.512186,2.555,2.6282
0.350494,-0.512186,2.555,2.6293
0.358787,-0.512186,2.555,2.63042
0.36708,-0.512186,2.555,2.63156
0.375373,-0.512186,2.555,2.63273
0.383666,-0.512186,2.555,2.63392
0.389044,-0.508377,2.536,2.61555
0.397275,-0.508377,2.536,2.61679
0.405506,-0.508377,2.536,2.61805
0.413738,-0.508377,2.536,2.61934
0.421969,-0.508377,2.536,2.62065
0.4302,-0.508377,2.536,2.62199
0.438431,-0.508377,2.536,2.62335
0.446662,-0.508377,2.536,2.62474
0.458302,-0.512186,2.555,2.64583
0.466595,-0.512186,2.555,2.64728
0.474888,-0.512186,2.555,2.64875
0.48318,-0.512186,2.555,2.65025
0.491473,-0.512186,2.555,2.65177
0.503483,-0.515994,2.574,2.67305
0.511837,-0.515994,2.574,2.67464
0.520192,-0.515994,2.574,2.67625
0.528546,-0.515994,2.574,2.67789
0.536901,-0.515994,2.574,2.67955
0.545256,-0.515994,2.574,2.68124
0.55361,-0.515994,2.574,2.68295
0.561965,-0.515994,2.574,2.68468
0.570319,-0.515994,2.574,2.68645
0.578674,-0.515994,2.574,2.68823
0.587028,-0.515994,2.574,2.69004
0.595383,-0.515994,2.574,2.69188
0.603738,-0.515994,2.574,2.69374
0.612092,-0.515994,2.574,2.69562
0.620447,-0.515994,2.574,2.69753
0.628801,-0.515994,2.574,2.69947
0.637156,-0.515994,2.574,2.70142
0.64551,-0.515994,2.574,2.70341
0.653865,-0.515994,2.574,2.70541
0.662219,-0.515994,2.574,2.70745
0.670574,-0.515994,2.574,2.7095
0.678929,-0.515994,2.574,2.71158
0.687283,-0.515994,2.574,2.71368
0.695638,-0.515994,2.574,2.71581
0.703992,-0.515994,2.574,2.71796
0.717605,-0.519803,2.593,2.74022
0.726021,-0.519803,2.593,2.74244
0.734438,-0.519803,2.593,2.74468
0.742854,-0.519803,2.593,2.74694
0.75127,-0.519803,2.593,2.74923
0.759686,-0.519803,2.593,2.75154
0.768102,-0.519803,2.593,2.75387
0.776519,-0.519803,2.593,2.75623
0.784935,-0.519803,2.593,2.75862
0.793351,-0.519803,2.593,2.76102
0.801767,-0.519803,2.593,2.76345
0.816433,-0.523812,2.613,2.78724
0.8186,-0.519803,2.593,2.76838
0.827016,-0.519803,2.593,2.77088
0.835432,-0.519803,2.593,2.77341
0.843849,-0.519803,2.593,2.77595
0.852265,-0.519803,2.593,2.77852
0.860681,-0.519803,2.593,2.78112
0.862729,-0.515994,2.574,2.76334
0.864654,-0.512186,2.555,2.74554
0.872947,-0.512186,2.555,2.74816
0.881239,-0.512186,2.555,2.75081
0.889532,-0.512186,2.555,2.75348
0.891149,-0.508377,2.536,2.73567
0.89938,-0.508377,2.536,2.73836
0.907611,-0.508377,2.536,2.74108
0.908981,-0.504568,2.517,2.72326
0.91715,-0.504568,2.517,2.72599
0.92532,-0.504568,2.517,2.72875
nan,nan,nan,NaN
nan,nan,nan,NaN
nan,nan,nan,NaN
nan,nan,nan,NaN
nan,nan,nan,NaN
nan,nan,nan,NaN
nan,nan,nan,NaN
nan,nan,nan,NaN
nan,nan,nan,NaN
nan,nan,nan,NaN
nan,nan,nan,NaN
nan,nan,nan,NaN
nan,nan,nan,NaN
nan,nan,nan,NaN
nan,nan,nan,NaN
nan,nan,nan,NaN
nan,nan,nan,NaN
nan,nan,nan,NaN
nan,nan,nan,NaN
nan,nan,nan,NaN
nan,nan,nan,NaN
nan,nan,nan,NaN
nan,nan,nan,NaN
nan,nan,nan,NaN
nan,nan,nan,NaN
nan,nan,nan,NaN
1.36716,-0.601993,3.003,3.35403
1.3769,-0.601993,3.003,3.35802
1.38665,-0.601993,3.003,3.36202
1.3964,-0.601993,3.003,3.36606
1.40614,-0.601993,3.003,3.37011
1.41589,-0.601993,3.003,3.37419
1.42564,-0.601993,3.003,3.37829
1.44829,-0.607406,3.03,3.41283
1.45812,-0.607406,3.03,3.41701
1.46796,-0.607406,3.03,3.42122
1.47779,-0.607406,3.03,3.42545
1.50089,-0.612819,3.057,3.46027
1.51081,-0.612819,3.057,3.46458
1.52073,-0.612819,3.057,3.46892
1.53065,-0.612819,3.057,3.47328
1.54057,-0.612819,3.057,3.47767
1.5505,-0.612819,3.057,3.48207
1.5742,-0.618231,3.084,3.5173
nan,nan,nan,NaN
nan,nan,nan,NaN
nan,nan,nan,NaN
nan,nan,nan,NaN
nan,nan,nan,NaN
nan,nan,nan,NaN
nan,nan,nan,NaN
nan,nan,nan,NaN
1.9244,-0.714855,3.566,4.11469
1.93598,-0.714855,3.566,4.12012
1.94755,-0.714855,3.566,4.12557
1.95913,-0.714855,3.566,4.13105
1.9707,-0.714855,3.566,4.13655
1.98227,-0.714855,3.566,4.14208
1.99385,-0.714855,3.566,4.14763
1.98461,-0.707438,3.529,4.11011
1.99607,-0.707438,3.529,4.11565
2.00752,-0.707438,3.529,4.12122
1.99838,-0.700221,3.493,4.08471
1.98958,-0.693205,3.458,4.04929
2.00081,-0.693205,3.458,4.05481
2.01203,-0.693205,3.458,4.06036
2.02325,-0.693205,3.458,4.06594
2.03448,-0.693205,3.458,4.07153
2.025,-0.686188,3.423,4.03589
2.01588,-0.679373,3.389,4.00133
2.02688,-0.679373,3.389,4.00688
2.01804,-0.672757,3.356,3.97339
2.00958,-0.666342,3.324,3.94099
1.98147,-0.653513,3.26,3.87052
1.99205,-0.653513,3.26,3.87595
2.00264,-0.653513,3.26,3.8814
1.97555,-0.641284,3.199,3.81414
1.98593,-0.641284,3.199,3.81952
1.96012,-0.629658,3.141,3.75558
1.95212,-0.623844,3.112,3.72619
1.96222,-0.623844,3.112,3.73149
1.93746,-0.612819,3.057,3.67077
1.93019,-0.607406,3.03,3.64355
1.94002,-0.607406,3.03,3.64877
1.93248,-0.601993,3.003,3.62145
1.9086,-0.591569,2.951,3.56386
1.91817,-0.591569,2.951,3.569
1.91142,-0.586558,2.926,3.54388
1.88875,-0.576735,2.877,3.48957
1.89809,-0.576735,2.877,3.49464
1.8756,-0.567113,2.829,3.44133
1.86946,-0.562502,2.806,3.41832
1.86317,-0.557891,2.783,3.39525
1.8722,-0.557891,2.783,3.40022
1.88124,-0.557891,2.783,3.4052
1.86038,-0.549071,2.739,3.35628
-2.42321,-0.688887,3.493,4.30669
-2.41187,-0.688887,3.493,4.30032
-2.37648,-0.681984,3.458,4.25094
-2.36526,-0.681984,3.458,4.24468
-2.35403,-0.681984,3.458,4.23844
-2.3191,-0.675081,3.423,4.18938
-2.30799,-0.675081,3.423,4.18324
-2.27406,-0.668376,3.389,4.13563
-2.26306,-0.668376,3.389,4.12959
-2.23013,-0.661868,3.356,4.08342
-2.21924,-0.661868,3.356,4.07748
-2.20835,-0.661868,3.356,4.07156
-2.19745,-0.661868,3.356,4.06566
-2.18656,-0.661868,3.356,4.05979
-2.17567,-0.661868,3.356,4.05393
-2.16478,-0.661868,3.356,4.04809
-2.15388,-0.661868,3.356,4.04228
-2.12256,-0.655557,3.324,3.998
-2.11177,-0.655557,3.324,3.99228
-2.10098,-0.655557,3.324,3.98658
-2.09019,-0.655557,3.324,3.98091
-2.0794,-0.655557,3.324,3.97525
-2.06861,-0.655557,3.324,3.96962
-2.05782,-0.655557,3.324,3.96401
-2.04703,-0.655557,3.324,3.95842
-2.03625,-0.655557,3.324,3.95285
-2.02546,-0.655557,3.324,3.9473
-2.01467,-0.655557,3.324,3.94178
-2.02317,-0.661868,3.356,3.97417
-2.01228,-0.661868,3.356,3.96864
nan,nan,nan,NaN
nan,nan,nan,NaN
nan,nan,nan,NaN
nan,nan,nan,NaN
nan,nan,nan,NaN
nan,nan,nan,NaN
nan,nan,nan,NaN
nan,nan,nan,NaN
nan,nan,nan,NaN
nan,nan,nan,NaN
nan,nan,nan,NaN
nan,nan,nan,NaN
nan,nan,nan,NaN
nan,nan,nan,NaN
nan,nan,nan,NaN
nan,nan,nan,NaN
nan,nan,nan,NaN
nan,nan,nan,NaN
nan,nan,nan,NaN
nan,nan,nan,NaN
nan,nan,nan,NaN
nan,nan,nan,NaN
nan,nan,nan,NaN
nan,nan,nan,NaN
nan,nan,nan,NaN
nan,nan,nan,NaN
nan,nan,nan,NaN
nan,nan,nan,NaN
nan,nan,nan,NaN
nan,nan,nan,NaN
nan,nan,nan,NaN
nan,nan,nan,NaN
nan,nan,nan,NaN
nan,nan,nan,NaN
nan,nan,nan,NaN
nan,nan,nan,NaN
nan,nan,nan,NaN
nan,nan,nan,NaN
nan,nan,nan,NaN
nan,nan,nan,NaN
nan,nan,nan,NaN
nan,nan,nan,NaN
nan,nan,nan,NaN
nan,nan,nan,NaN
-1.07808,-0.46879,2.377,2.65182
-1.06316,-0.465634,2.361,2.63086
-1.0555,-0.465634,2.361,2.62778
-1.04784,-0.465634,2.361,2.62471
-1.04017,-0.465634,2.361,2.62166
-1.03251,-0.465634,2.361,2.61863
-1.02485,-0.465634,2.361,2.61562
-1.02408,-0.46879,2.377,2.63033
-1.01636,-0.46879,2.377,2.62733
-1.01586,-0.472143,2.394,2.64313
-1.00809,-0.472143,2.394,2.64015
-1.00742,-0.475495,2.411,2.65592
-1.00664,-0.478848,2.428,2.67167
-0.998763,-0.478848,2.428,2.66871
-0.990883,-0.478848,2.428,2.66577
-0.983002,-0.478848,2.428,2.66285
-0.975121,-0.478848,2.428,2.65995
-0.967241,-0.478848,2.428,2.65707
-0.95936,-0.478848,2.428,2.65421
-0.951479,-0.478848,2.428,2.65138
-0.943599,-0.478848,2.428,2.64856
-0.935718,-0.478848,2.428,2.64576
-0.927837,-0.478848,2.428,2.64298
-0.919957,-0.478848,2.428,2.64023
-0.912076,-0.478848,2.428,2.63749
-0.904195,-0.478848,2.428,2.63478
-0.896315,-0.478848,2.428,2.63208
-0.888434,-0.478848,2.428,2.62941
-0.880553,-0.478848,2.428,2.62676
-0.872672,-0.478848,2.428,2.62413
-0.864792,-0.478848,2.428,2.62152
-0.856911,-0.478848,2.428,2.61893
-0.84903,-0.478848,2.428,2.61636
-0.84115,-0.478848,2.428,2.61381
-0.833269,-0.478848,2.428,2.61129
-0.825388,-0.478848,2.428,2.60878
-0.817508,-0.478848,2.428,2.6063
-0.809627,-0.478848,2.428,2.60384
-0.801746,-0.478848,2.428,2.6014
-0.793866,-0.478848,2.428,2.59898
-0.785985,-0.478848,2.428,2.59658
-0.778104,-0.478848,2.428,2.59421
-0.775616,-0.482201,2.445,2.61
-0.767681,-0.482201,2.445,2.60766
-0.759745,-0.482201,2.445,2.60533
-0.751809,-0.482201,2.445,2.60303
-0.743873,-0.482201,2.445,2.60075
-0.735937,-0.482201,2.445,2.59849
-0.728001,-0.482201,2.445,2.59625
-0.720065,-0.482201,2.445,2.59404
-0.712129,-0.482201,2.445,2.59185
-0.704194,-0.482201,2.445,2.58968
-0.696258,-0.482201,2.445,2.58753
-0.688322,-0.482201,2.445,2.58541
-0.685395,-0.485751,2.463,2.60232
-0.682351,-0.489301,2.481,2.61923
-0.674299,-0.489301,2.481,2.61715
-0.666246,-0.489301,2.481,2.61508
-0.658193,-0.489301,2.481,2.61304
-0.65014,-0.489301,2.481,2.61103
-0.646746,-0.492851,2.499,2.62796
-0.638635,-0.492851,2.499,2.62598
-0.635065,-0.496401,2.517,2.64292
-0.626896,-0.496401,2.517,2.64097
-0.618726,-0.496401,2.517,2.63904
-0.610557,-0.496401,2.517,2.63714
-0.602387,-0.496401,2.517,2.63526
-0.594218,-0.496401,2.517,2.6334
-0.586048,-0.496401,2.517,2.63157
-0.577879,-0.496401,2.517,2.62976
-0.569709,-0.496401,2.517,2.62798
-0.565778,-0.500148,2.536,2.64604
-0.557547,-0.500148,2.536,2.6443
-0.549316,-0.500148,2.536,2.64257
-0.541085,-0.500148,2.536,2.64087
-0.532853,-0.500148,2.536,2.6392
-0.524622,-0.500148,2.536,2.63755
-0.516391,-0.500148,2.536,2.63593
-0.50816,-0.500148,2.536,2.63433
-0.499929,-0.500148,2.536,2.63275
-0.491697,-0.500148,2.536,2.6312
-0.483466,-0.500148,2.536,2.62967
-0.475235,-0.500148,2.536,2.62817
-0.467004,-0.500148,2.536,2.6267
-0.458772,-0.500148,2.536,2.62525
-0.450541,-0.500148,2.536,2.62382
-0.44231,-0.500148,2.536,2.62242
-0.434079,-0.500148,2.536,2.62104
-0.429038,-0.503895,2.555,2.63932
-0.420745,-0.503895,2.555,2.63798
-0.409385,-0.500148,2.536,2.61707
-0.401154,-0.500148,2.536,2.61579
-0.392923,-0.500148,2.536,2.61454
-0.384691,-0.500148,2.536,2.61332
-0.37364,-0.496401,2.517,2.59255
-0.36547,-0.496401,2.517,2.59138
-0.357301,-0.496401,2.517,2.59024
-0.349131,-0.496401,2.517,2.58913
-0.340961,-0.496401,2.517,2.58804
-0.332792,-0.496401,2.517,2.58698
-0.322301,-0.492851,2.499,2.56745
-0.31419,-0.492851,2.499,2.56644
-0.306079,-0.492851,2.499,2.56546
-0.297967,-0.492851,2.499,2.56451
-0.289856,-0.492851,2.499,2.56358
-0.281745,-0.492851,2.499,2.56267
-0.271663,-0.489301,2.481,2.54334
-0.261698,-0.485751,2.463,2.52405
-0.253704,-0.485751,2.463,2.52323
-0.245709,-0.485751,2.463,2.52244
-0.237715,-0.485751,2.463,2.52167
-0.2314,-0.489301,2.481,2.53935
-0.221726,-0.485751,2.463,2.52022
-0.213732,-0.485751,2.463,2.51952
-0.205738,-0.485751,2.463,2.51886
-0.197744,-0.485751,2.463,2.51822
-0.189749,-0.485751,2.463,2.5176
-0.181755,-0.485751,2.463,2.51701
-0.173761,-0.485751,2.463,2.51645
-0.165766,-0.485751,2.463,2.51591
-0.156619,-0.482201,2.445,2.49701
-0.148683,-0.482201,2.445,2.49653
-0.140747,-0.482201,2.445,2.49607
-0.132812,-0.482201,2.445,2.49563
-0.124876,-0.482201,2.445,2.49522
-0.11694,-0.482201,2.445,2.49484
-0.109806,-0.485751,2.463,2.51284
-0.101812,-0.485751,2.463,2.51251
-0.0931322,-0.482201,2.445,2.49384
-0.0851963,-0.482201,2.445,2.49355
-0.0778293,-0.485751,2.463,2.51165
-0.069835,-0.485751,2.463,2.51141
-0.0618407,-0.485751,2.463,2.5112
-0.0538464,-0.485751,2.463,2.51102
-0.0461872,-0.489301,2.481,2.52921
-0.0381345,-0.489301,2.481,2.52908
-0.0300818,-0.489301,2.481,2.52897
-0.0220291,-0.489301,2.481,2.52889
-0.0139764,-0.489301,2.481,2.52883
-0.00596664,-0.492851,2.499,2.54714
0.00214449,-0.492851,2.499,2.54714
0.0102556,-0.492851,2.499,2.54716
0.0183668,-0.492851,2.499,2.5472
0.0266686,-0.496401,2.517,2.56562
0.0348382,-0.496401,2.517,2.56572
0.0430077,-0.496401,2.517,2.56584
0.0515636,-0.500148,2.536,2.58536
0.0597948,-0.500148,2.536,2.58554
0.0680261,-0.500148,2.536,2.58574
0.0762573,-0.500148,2.536,2.58597
0.0851215,-0.503895,2.555,2.60561
0.0934144,-0.503895,2.555,2.60589
0.101707,-0.503895,2.555,2.6062
0.11,-0.503895,2.555,2.60654
0.118293,-0.503895,2.555,2.6069
0.126586,-0.503895,2.555,2.60729
0.134879,-0.503895,2.555,2.60771
0.144236,-0.507642,2.574,2.62754
0.151465,-0.503895,2.555,2.60862
0.159758,-0.503895,2.555,2.60911
0.16805,-0.503895,2.555,2.60963
0.176343,-0.503895,2.555,2.61018
0.184636,-0.503895,2.555,2.61075
0.194364,-0.507642,2.574,2.63077
0.202718,-0.507642,2.574,2.6314
0.211073,-0.507642,2.574,2.63206
0.219428,-0.507642,2.574,2.63274
0.227782,-0.507642,2.574,2.63345
0.236137,-0.507642,2.574,2.63419
0.244491,-0.507642,2.574,2.63495
0.252846,-0.507642,2.574,2.63574
0.2612,-0.507642,2.574,2.63655
0.269555,-0.507642,2.574,2.63739
0.27791,-0.507642,2.574,2.63826
0.286264,-0.507642,2.574,2.63915
0.294619,-0.507642,2.574,2.64007
0.300737,-0.503895,2.555,2.62152
0.30903,-0.503895,2.555,2.62249
0.317323,-0.503895,2.555,2.62348
0.325615,-0.503895,2.555,2.62449
0.333908,-0.503895,2.555,2.62553
0.342201,-0.503895,2.555,2.6266
0.347888,-0.500148,2.536,2.60815
0.356119,-0.500148,2.536,2.60927
0.36435,-0.500148,2.536,2.6104
0.372581,-0.500148,2.536,2.61156
0.380813,-0.500148,2.536,2.61275
0.389044,-0.500148,2.536,2.61396
0.397275,-0.500148,2.536,2.6152
0.405506,-0.500148,2.536,2.61646
0.413738,-0.500148,2.536,2.61775
0.421969,-0.500148,2.536,2.61907
0.4302,-0.500148,2.536,2.6204
0.438431,-0.500148,2.536,2.62177
0.446662,-0.500148,2.536,2.62316
0.454894,-0.500148,2.536,2.62457
0.463125,-0.500148,2.536,2.62601
0.471356,-0.500148,2.536,2.62747
0.48318,-0.503895,2.555,2.64866
0.491473,-0.503895,2.555,2.65019
0.499766,-0.503895,2.555,2.65174
0.508059,-0.503895,2.555,2.65331
0.516352,-0.503895,2.555,2.65491
0.524645,-0.503895,2.555,2.65654
0.532938,-0.503895,2.555,2.65819
0.541231,-0.503895,2.555,2.65986
0.549524,-0.503895,2.555,2.66156
0.557817,-0.503895,2.555,2.66329
0.566109,-0.503895,2.555,2.66504
0.574402,-0.503895,2.555,2.66681
0.582695,-0.503895,2.555,2.66861
0.590988,-0.503895,2.555,2.67043
0.599281,-0.503895,2.555,2.67228
0.607574,-0.503895,2.555,2.67415
0.615867,-0.503895,2.555,2.67605
0.62416,-0.503895,2.555,2.67797
0.632453,-0.503895,2.555,2.67991
0.640746,-0.503895,2.555,2.68188
0.649038,-0.503895,2.555,2.68388
0.657331,-0.503895,2.555,2.68589
0.665624,-0.503895,2.555,2.68793
0.673917,-0.503895,2.555,2.69
0.687283,-0.507642,2.574,2.71211
0.695638,-0.507642,2.574,2.71424
0.703992,-0.507642,2.574,2.71639
0.717605,-0.511389,2.593,2.73864
0.726021,-0.511389,2.593,2.74085
0.734438,-0.511389,2.593,2.74309
0.742854,-0.511389,2.593,2.74536
0.75127,-0.511389,2.593,2.74765
0.759686,-0.511389,2.593,2.74996
0.768102,-0.511389,2.593,2.7523
0.776519,-0.511389,2.593,2.75466
0.784935,-0.511389,2.593,2.75704
0.793351,-0.511389,2.593,2.75945
0.801767,-0.511389,2.593,2.76188
0.810184,-0.511389,2.593,2.76434
0.812602,-0.507642,2.574,2.74654
0.820956,-0.507642,2.574,2.74903
0.829311,-0.507642,2.574,2.75153
0.837665,-0.507642,2.574,2.75406
0.84602,-0.507642,2.574,2.75662
0.854374,-0.507642,2.574,2.75919
0.856361,-0.503895,2.555,2.7414
0.864654,-0.503895,2.555,2.744
0.872947,-0.503895,2.555,2.74663
0.881239,-0.503895,2.555,2.74928
0.882918,-0.500148,2.536,2.73148
0.891149,-0.500148,2.536,2.73415
0.89938,-0.500148,2.536,2.73685
0.900811,-0.496401,2.517,2.71904
0.908981,-0.496401,2.517,2.72175
0.91715,-0.496401,2.517,2.72449
0.92532,-0.496401,2.517,2.72726
0.933489,-0.496401,2.517,2.73004
nan,nan,nan,NaN
nan,nan,nan,NaN
nan,nan,nan,NaN
nan,nan,nan,NaN
nan,nan,nan,NaN
nan,nan,nan,NaN
nan,nan,nan,NaN
nan,nan,nan,NaN
nan,nan,nan,NaN
nan,nan,nan,NaN
nan,nan,nan,NaN
nan,nan,nan,NaN
nan,nan,nan,NaN
nan,nan,nan,NaN
nan,nan,nan,NaN
nan,nan,nan,NaN
nan,nan,nan,NaN
nan,nan,nan,NaN
nan,nan,nan,NaN
nan,nan,nan,NaN
nan,nan,nan,NaN
nan,nan,nan,NaN
nan,nan,nan,NaN
nan,nan,nan,NaN
nan,nan,nan,NaN
1.36716,-0.592249,3.003,3.3523
1.3769,-0.592249,3.003,3.35628
1.38665,-0.592249,3.003,3.36029
1.3964,-0.592249,3.003,3.36433
1.40614,-0.592249,3.003,3.36838
1.41589,-0.592249,3.003,3.37246
1.42564,-0.592249,3.003,3.37657
1.44829,-0.597574,3.03,3.41109
1.45812,-0.597574,3.03,3.41528
1.46796,-0.597574,3.03,3.41949
1.47779,-0.597574,3.03,3.42372
1.50089,-0.602899,3.057,3.45852
1.51081,-0.602899,3.057,3.46284
1.52073,-0.602899,3.057,3.46718
1.53065,-0.602899,3.057,3.47155
1.54057,-0.602899,3.057,3.47593
1.5505,-0.602899,3.057,3.48034
1.5742,-0.608224,3.084,3.51555
nan,nan,nan,NaN
nan,nan,nan,NaN
nan,nan,nan,NaN
nan,nan,nan,NaN
nan,nan,nan,NaN
nan,nan,nan,NaN
nan,nan,nan,NaN
nan,nan,nan,NaN
1.9244,-0.703284,3.566,4.1127
1.93598,-0.703284,3.566,4.11813
1.94755,-0.703284,3.566,4.12358
1.95913,-0.703284,3.566,4.12906
1.9707,-0.703284,3.566,4.13456
1.98227,-0.703284,3.566,4.14009
1.99385,-0.703284,3.566,4.14565
1.98461,-0.695987,3.529,4.10815
1.99607,-0.695987,3.529,4.1137
2.00752,-0.695987,3.529,4.11927
1.99838,-0.688887,3.493,4.08279
1.98958,-0.681984,3.458,4.04738
2.00081,-0.681984,3.458,4.05291
2.01203,-0.681984,3.458,4.05846
2.02325,-0.681984,3.458,4.06404
2.03448,-0.681984,3.458,4.06964
2.025,-0.675081,3.423,4.03401
1.99625,-0.661868,3.356,3.96053
2.00714,-0.661868,3.356,3.96604
1.99879,-0.655557,3.324,3.93369
1.99024,-0.649246,3.292,3.90126
1.98147,-0.642935,3.26,3.86875
1.99205,-0.642935,3.26,3.87418
2.00264,-0.642935,3.26,3.87963
1.97555,-0.630904,3.199,3.8124
1.98593,-0.630904,3.199,3.81779
1.96012,-0.619465,3.141,3.75389
1.95212,-0.613746,3.112,3.72451
1.96222,-0.613746,3.112,3.72982
1.93746,-0.602899,3.057,3.66913
1.93019,-0.597574,3.03,3.64193
1.94002,-0.597574,3.03,3.64715
1.91575,-0.587121,2.977,3.5885
1.9086,-0.581994,2.951,3.56228
1.91817,-0.581994,2.951,3.56742
1.89509,-0.572133,2.901,3.51205
1.87299,-0.562666,2.853,3.45895
1.88225,-0.562666,2.853,3.46397
1.8756,-0.557933,2.829,3.43983
1.86946,-0.553397,2.806,3.41684
1.86317,-0.548861,2.783,3.39378
1.8722,-0.548861,2.783,3.39875
1.86637,-0.544522,2.761,3.37682
1.84544,-0.535845,2.717,3.32789
-2.39893,-0.670763,3.458,4.26175
-2.3877,-0.670763,3.458,4.25545
-2.37648,-0.670763,3.458,4.24916
-2.34132,-0.663974,3.423,4.19995
-2.33021,-0.663974,3.423,4.19376
-2.3191,-0.663974,3.423,4.1876
-2.28506,-0.657379,3.389,4.13992
-2.25192,-0.650978,3.356,4.09361
-2.24102,-0.650978,3.356,4.08763
-2.20887,-0.644771,3.324,4.04275
-2.19808,-0.644771,3.324,4.03686
-2.18729,-0.644771,3.324,4.031
-2.1765,-0.644771,3.324,4.02515
-2.16571,-0.644771,3.324,4.01933
-2.15492,-0.644771,3.324,4.01353
-2.14413,-0.644771,3.324,4.00774
-2.15388,-0.650978,3.356,4.04051
-2.12256,-0.644771,3.324,3.99624
-2.11177,-0.644771,3.324,3.99052
-2.10098,-0.644771,3.324,3.98482
-2.09019,-0.644771,3.324,3.97915
-2.0794,-0.644771,3.324,3.97349
-2.06861,-0.644771,3.324,3.96785
-2.05782,-0.644771,3.324,3.96224
-2.04703,-0.644771,3.324,3.95665
-2.03625,-0.644771,3.324,3.95108
-2.02546,-0.644771,3.324,3.94553
-2.01467,-0.644771,3.324,3.94
-2.00388,-0.644771,3.324,3.93449
-1.99309,-0.644771,3.324,3.92901
nan,nan,nan,NaN
nan,nan,nan,NaN
nan,nan,nan,NaN
nan,nan,nan,NaN
nan,nan,nan,NaN
nan,nan,nan,NaN
nan,nan,nan,NaN
nan,nan,nan,NaN
nan,nan,nan,NaN
nan,nan,nan,NaN
nan,nan,nan,NaN
nan,nan,nan,NaN
nan,nan,nan,NaN
nan,nan,nan,NaN
nan,nan,nan,NaN
nan,nan,nan,NaN
nan,nan,nan,NaN
nan,nan,nan,NaN
nan,nan,nan,NaN
nan,nan,nan,NaN
nan,nan,nan,NaN
nan,nan,nan,NaN
nan,nan,nan,NaN
nan,nan,nan,NaN
nan,nan,nan,NaN
nan,nan,nan,NaN
nan,nan,nan,NaN
nan,nan,nan,NaN
nan,nan,nan,NaN
nan,nan,nan,NaN
nan,nan,nan,NaN
nan,nan,nan,NaN
nan,nan,nan,NaN
nan,nan,nan,NaN
nan,nan,nan,NaN
nan,nan,nan,NaN
nan,nan,nan,NaN
nan,nan,nan,NaN
nan,nan,nan,NaN
nan,nan,nan,NaN
nan,nan,nan,NaN
nan,nan,nan,NaN
nan,nan,nan,NaN
nan,nan,nan,NaN
-1.07808,-0.461077,2.377,2.65047
-1.06316,-0.457973,2.361,2.62952
-1.0555,-0.457973,2.361,2.62643
-1.04784,-0.457973,2.361,2.62336
-1.04017,-0.457973,2.361,2.62031
-1.03251,-0.457973,2.361,2.61728
-1.02485,-0.457973,2.361,2.61426
-1.02408,-0.461077,2.377,2.62896
-1.01636,-0.461077,2.377,2.62597
-1.01586,-0.464375,2.394,2.64175
-1.00809,-0.464375,2.394,2.63877
-1.00742,-0.467672,2.411,2.65453
-1.00664,-0.47097,2.428,2.67027
-0.998763,-0.47097,2.428,2.66731
-0.990883,-0.47097,2.428,2.66437
-0.983002,-0.47097,2.428,2.66145
-0.975121,-0.47097,2.428,2.65854
-0.967241,-0.47097,2.428,2.65566
-0.95936,-0.47097,2.428,2.6528
-0.951479,-0.47097,2.428,2.64996
-0.943599,-0.47097,2.428,2.64714
-0.935718,-0.47097,2.428,2.64435
-0.927837,-0.47097,2.428,2.64157
-0.919957,-0.47097,2.428,2.63881
-0.912076,-0.47097,2.428,2.63607
-0.904195,-0.47097,2.428,2.63336
-0.896315,-0.47097,2.428,2.63066
-0.888434,-0.47097,2.428,2.62799
-0.880553,-0.47097,2.428,2.62533
-0.872672,-0.47097,2.428,2.6227
-0.864792,-0.47097,2.428,2.62009
-0.856911,-0.47097,2.428,2.6175
-0.84903,-0.47097,2.428,2.61493
-0.84115,-0.47097,2.428,2.61238
-0.833269,-0.47097,2.428,2.60985
-0.825388,-0.47097,2.428,2.60735
-0.817508,-0.47097,2.428,2.60486
-0.809627,-0.47097,2.428,2.6024
-0.801746,-0.47097,2.428,2.59996
-0.793866,-0.47097,2.428,2.59754
-0.785985,-0.47097,2.428,2.59514
-0.778104,-0.47097,2.428,2.59277
-0.775616,-0.474267,2.445,2.60855
-0.767681,-0.474267,2.445,2.6062
-0.759745,-0.474267,2.445,2.60388
-0.751809,-0.474267,2.445,2.60157
-0.743873,-0.474267,2.445,2.59929
-0.735937,-0.474267,2.445,2.59703
-0.728001,-0.474267,2.445,2.59479
-0.720065,-0.474267,2.445,2.59258
-0.712129,-0.474267,2.445,2.59038
-0.704194,-0.474267,2.445,2.58821
-0.696258,-0.474267,2.445,2.58606
-0.688322,-0.474267,2.445,2.58394
-0.680386,-0.474267,2.445,2.58184
-0.677401,-0.477759,2.463,2.59875
-0.669406,-0.477759,2.463,2.59668
-0.661412,-0.477759,2.463,2.59463
-0.653418,-0.477759,2.463,2.5926
-0.645424,-0.477759,2.463,2.5906
-0.642088,-0.48125,2.481,2.60754
-0.634035,-0.48125,2.481,2.60556
-0.625982,-0.48125,2.481,2.60362
-0.61793,-0.48125,2.481,2.60169
-0.609877,-0.48125,2.481,2.59979
-0.606191,-0.484742,2.499,2.61676
-0.598079,-0.484742,2.499,2.61489
-0.589968,-0.484742,2.499,2.61305
-0.581857,-0.484742,2.499,2.61123
-0.573746,-0.484742,2.499,2.60944
-0.569709,-0.488233,2.517,2.62645
-0.561539,-0.488233,2.517,2.62469
-0.55337,-0.488233,2.517,2.62295
-0.5452,-0.488233,2.517,2.62124
-0.537031,-0.488233,2.517,2.61955
-0.528861,-0.488233,2.517,2.61789
-0.520692,-0.488233,2.517,2.61625
-0.512522,-0.488233,2.517,2.61464
-0.504353,-0.488233,2.517,2.61305
-0.496183,-0.488233,2.517,2.61149
-0.488013,-0.488233,2.517,2.60995
-0.483466,-0.491919,2.536,2.62812
-0.475235,-0.491919,2.536,2.62662
-0.467004,-0.491919,2.536,2.62514
-0.458772,-0.491919,2.536,2.62369
-0.450541,-0.491919,2.536,2.62226
-0.44231,-0.491919,2.536,2.62086
-0.434079,-0.491919,2.536,2.61949
-0.425848,-0.491919,2.536,2.61813
-0.417616,-0.491919,2.536,2.61681
-0.409385,-0.491919,2.536,2.61551
-0.401154,-0.491919,2.536,2.61423
-0.392923,-0.491919,2.536,2.61298
-0.381809,-0.488233,2.517,2.59219
-0.37364,-0.488233,2.517,2.591
-0.36547,-0.488233,2.517,2.58983
-0.357301,-0.488233,2.517,2.58869
-0.346634,-0.484742,2.499,2.56907
-0.338523,-0.484742,2.499,2.56799
-0.330412,-0.484742,2.499,2.56693
-0.322301,-0.484742,2.499,2.5659
-0.31419,-0.484742,2.499,2.5649
-0.306079,-0.484742,2.499,2.56392
-0.295821,-0.48125,2.481,2.5445
-0.287769,-0.48125,2.481,2.54358
-0.279716,-0.48125,2.481,2.54268
-0.271663,-0.48125,2.481,2.5418
-0.261698,-0.477759,2.463,2.52252
-0.253704,-0.477759,2.463,2.5217
-0.245709,-0.477759,2.463,2.52091
-0.237715,-0.477759,2.463,2.52014
-0.229721,-0.477759,2.463,2.5194
-0.221726,-0.477759,2.463,2.51869
-0.213732,-0.477759,2.463,2.518
-0.205738,-0.477759,2.463,2.51733
-0.197744,-0.477759,2.463,2.51669
-0.188363,-0.474267,2.445,2.49769
-0.180427,-0.474267,2.445,2.4971
-0.172491,-0.474267,2.445,2.49654
-0.164555,-0.474267,2.445,2.496
-0.156619,-0.474267,2.445,2.49549
-0.148683,-0.474267,2.445,2.49501
-0.139769,-0.47097,2.428,2.4772
-0.131888,-0.47097,2.428,2.47677
-0.124007,-0.47097,2.428,2.47636
-0.116127,-0.47097,2.428,2.47598
-0.109004,-0.474267,2.445,2.49296
-0.101068,-0.474267,2.445,2.49262
-0.0931322,-0.474267,2.445,2.49231
-0.0851963,-0.474267,2.445,2.49203
-0.0772605,-0.474267,2.445,2.49177
-0.0693246,-0.474267,2.445,2.49154
-0.0613887,-0.474267,2.445,2.49133
-0.0534529,-0.474267,2.445,2.49115
-0.0458521,-0.477759,2.463,2.50933
-0.0378578,-0.477759,2.463,2.50919
-0.0298635,-0.477759,2.463,2.50909
-0.0218693,-0.477759,2.463,2.509
-0.013875,-0.477759,2.463,2.50895
-0.00592366,-0.48125,2.481,2.52725
0.00212905,-0.48125,2.481,2.52725
0.0102556,-0.484742,2.499,2.5456
0.0183668,-0.484742,2.499,2.54565
0.0264779,-0.484742,2.499,2.54572
0.034589,-0.484742,2.499,2.54581
0.0427002,-0.484742,2.499,2.54594
0.0508113,-0.484742,2.499,2.54609
0.0589224,-0.484742,2.499,2.54626
0.0670336,-0.484742,2.499,2.54646
0.075686,-0.488233,2.517,2.56503
0.0838555,-0.488233,2.517,2.56529
0.0920251,-0.488233,2.517,2.56557
0.100195,-0.488233,2.517,2.56587
0.109182,-0.491919,2.536,2.58558
0.117413,-0.491919,2.536,2.58594
0.125645,-0.491919,2.536,2.58632
0.133876,-0.491919,2.536,2.58674
0.143172,-0.495604,2.555,2.60656
0.151465,-0.495604,2.555,2.60703
0.159758,-0.495604,2.555,2.60752
0.16805,-0.495604,2.555,2.60804
0.176343,-0.495604,2.555,2.60859
0.184636,-0.495604,2.555,2.60916
0.192929,-0.495604,2.555,2.60976
0.201222,-0.495604,2.555,2.61039
0.209515,-0.495604,2.555,2.61104
0.217808,-0.495604,2.555,2.61172
0.226101,-0.495604,2.555,2.61243
0.234394,-0.495604,2.555,2.61316
0.242687,-0.495604,2.555,2.61391
0.250979,-0.495604,2.555,2.6147
0.259272,-0.495604,2.555,2.61551
0.267565,-0.495604,2.555,2.61634
0.275858,-0.495604,2.555,2.6172
0.284151,-0.495604,2.555,2.61809
0.292444,-0.495604,2.555,2.619
0.2985,-0.491919,2.536,2.60046
0.306732,-0.491919,2.536,2.60142
0.314963,-0.491919,2.536,2.6024
0.323194,-0.491919,2.536,2.60341
0.331425,-0.491919,2.536,2.60444
0.339657,-0.491919,2.536,2.6055
0.347888,-0.491919,2.536,2.60659
0.356119,-0.491919,2.536,2.6077
0.36435,-0.491919,2.536,2.60884
0.372581,-0.491919,2.536,2.61
0.380813,-0.491919,2.536,2.61119
0.386129,-0.488233,2.517,2.59283
0.394299,-0.488233,2.517,2.59406
0.402468,-0.488233,2.517,2.59531
0.410638,-0.488233,2.517,2.59659
0.418807,-0.488233,2.517,2.5979
0.426977,-0.488233,2.517,2.59923
0.435146,-0.488233,2.517,2.60058
0.443316,-0.488233,2.517,2.60196
0.454894,-0.491919,2.536,2.62302
0.463125,-0.491919,2.536,2.62446
0.471356,-0.491919,2.536,2.62592
0.48318,-0.495604,2.555,2.6471
0.491473,-0.495604,2.555,2.64862
0.499766,-0.495604,2.555,2.65017
0.508059,-0.495604,2.555,2.65175
0.516352,-0.495604,2.555,2.65335
0.524645,-0.495604,2.555,2.65498
0.532938,-0.495604,2.555,2.65663
0.541231,-0.495604,2.555,2.6583
0.549524,-0.495604,2.555,2.66
0.557817,-0.495604,2.555,2.66173
0.566109,-0.495604,2.555,2.66348
0.574402,-0.495604,2.555,2.66526
0.582695,-0.495604,2.555,2.66706
0.590988,-0.495604,2.555,2.66888
0.599281,-0.495604,2.555,2.67073
0.607574,-0.495604,2.555,2.6726
0.615867,-0.495604,2.555,2.6745
0.62416,-0.495604,2.555,2.67642
0.632453,-0.495604,2.555,2.67837
0.640746,-0.495604,2.555,2.68034
0.649038,-0.495604,2.555,2.68233
0.657331,-0.495604,2.555,2.68435
0.665624,-0.495604,2.555,2.68639
0.673917,-0.495604,2.555,2.68846
0.687283,-0.49929,2.574,2.71056
0.695638,-0.49929,2.574,2.71269
0.703992,-0.49929,2.574,2.71484
0.717605,-0.502975,2.593,2.73708
0.726021,-0.502975,2.593,2.7393
0.734438,-0.502975,2.593,2.74154
0.742854,-0.502975,2.593,2.74381
0.75127,-0.502975,2.593,2.7461
0.759686,-0.502975,2.593,2.74841
0.768102,-0.502975,2.593,2.75075
0.776519,-0.502975,2.593,2.75311
0.784935,-0.502975,2.593,2.7555
0.793351,-0.502975,2.593,2.75791
0.801767,-0.502975,2.593,2.76034
0.810184,-0.502975,2.593,2.76279
0.812602,-0.49929,2.574,2.74501
0.820956,-0.49929,2.574,2.7475
0.829311,-0.49929,2.574,2.75
0.837665,-0.49929,2.574,2.75254
0.84602,-0.49929,2.574,2.75509
0.854374,-0.49929,2.574,2.75767
0.856361,-0.495604,2.555,2.73989
0.864654,-0.495604,2.555,2.74249
0.872947,-0.495604,2.555,2.74512
0.881239,-0.495604,2.555,2.74777
0.882918,-0.491919,2.536,2.72999
0.891149,-0.491919,2.536,2.73266
0.89938,-0.491919,2.536,2.73535
0.900811,-0.488233,2.517,2.71756
0.908981,-0.488233,2.517,2.72028
0.91715,-0.488233,2.517,2.72302
0.92532,-0.488233,2.517,2.72578
0.933489,-0.488233,2.517,2.72856
nan,nan,nan,NaN
nan,nan,nan,NaN
nan,nan,nan,NaN
nan,nan,nan,NaN
nan,nan,nan,NaN
nan,nan,nan,NaN
nan,nan,nan,NaN
nan,nan,nan,NaN
nan,nan,nan,NaN
nan,nan,nan,NaN
nan,nan,nan,NaN
nan,nan,nan,NaN
nan,nan,nan,NaN
nan,nan,nan,NaN
nan,nan,nan,NaN
nan,nan,nan,NaN
nan,nan,nan,NaN
nan,nan,nan,NaN
nan,nan,nan,NaN
nan,nan,nan,NaN
nan,nan,nan,NaN
nan,nan,nan,NaN
1.32633,-0.577462,2.977,3.30986
1.33599,-0.577462,2.977,3.31374
1.34566,-0.577462,2.977,3.31765
1.35532,-0.577462,2.977,3.32158
1.3769,-0.582505,3.003,3.35458
1.38665,-0.582505,3.003,3.35859
1.3964,-0.582505,3.003,3.36263
1.40614,-0.582505,3.003,3.36668
1.41589,-0.582505,3.003,3.37077
1.42564,-0.582505,3.003,3.37487
1.43538,-0.582505,3.003,3.379
1.44513,-0.582505,3.003,3.38315
1.45488,-0.582505,3.003,3.38733
1.46463,-0.582505,3.003,3.39153
1.48763,-0.587742,3.03,3.42628
1.49746,-0.587742,3.03,3.43056
1.5073,-0.587742,3.03,3.43486
1.53065,-0.59298,3.057,3.46984
1.54057,-0.59298,3.057,3.47423
1.5505,-0.59298,3.057,3.47864
1.5742,-0.598217,3.084,3.51383
nan,nan,nan,NaN
nan,nan,nan,NaN
nan,nan,nan,NaN
nan,nan,nan,NaN
nan,nan,nan,NaN
nan,nan,nan,NaN
nan,nan,nan,NaN
nan,nan,nan,NaN
1.9244,-0.691712,3.566,4.11074
1.91589,-0.684536,3.529,4.07346
1.92734,-0.684536,3.529,4.07886
1.9388,-0.684536,3.529,4.08428
1.95025,-0.684536,3.529,4.08973
1.96171,-0.684536,3.529,4.09521
1.97316,-0.684536,3.529,4.10071
1.96437,-0.677552,3.493,4.06434
1.97571,-0.677552,3.493,4.06983
1.98704,-0.677552,3.493,4.07535
1.99838,-0.677552,3.493,4.08089
1.98958,-0.670763,3.458,4.04551
2.00081,-0.670763,3.458,4.05104
2.01203,-0.670763,3.458,4.05659
2.02325,-0.670763,3.458,4.06217
2.03448,-0.670763,3.458,4.06777
2.00488,-0.657379,3.389,3.99212
1.99625,-0.650978,3.356,3.95873
2.00714,-0.650978,3.356,3.96423
1.99879,-0.644771,3.324,3.93191
1.99024,-0.638564,3.292,3.8995
1.98147,-0.632356,3.26,3.867
1.99205,-0.632356,3.26,3.87244
2.00264,-0.632356,3.26,3.87789
1.97555,-0.620524,3.199,3.8107
1.98593,-0.620524,3.199,3.81609
1.96012,-0.609273,3.141,3.75222
1.93456,-0.598217,3.084,3.68937
1.94457,-0.598217,3.084,3.69463
1.92035,-0.587742,3.03,3.63512
1.91299,-0.582505,3.003,3.60789
1.92273,-0.582505,3.003,3.61306
1.91575,-0.577462,2.977,3.58693
1.89243,-0.567569,2.926,3.53057
1.90192,-0.567569,2.926,3.53567
1.87941,-0.558064,2.877,3.48149
1.85724,-0.548753,2.829,3.42837
1.86642,-0.548753,2.829,3.43335
1.84511,-0.539831,2.783,3.38244
1.83948,-0.535563,2.761,3.3606
1.84844,-0.535563,2.761,3.36551
1.8574,-0.535563,2.761,3.37045
1.85149,-0.531296,2.739,3.3485
1.83118,-0.522955,2.696,3.30077
-2.39893,-0.659543,3.458,4.26
-2.3877,-0.659543,3.458,4.25369
-2.37648,-0.659543,3.458,4.2474
-2.34132,-0.652867,3.423,4.19821
-2.33021,-0.652867,3.423,4.19202
-2.3191,-0.652867,3.423,4.18585
-2.28506,-0.646382,3.389,4.13819
-2.25192,-0.640088,3.356,4.09189
-2.24102,-0.640088,3.356,4.08591
-2.20887,-0.633985,3.324,4.04104
-2.19808,-0.633985,3.324,4.03515
-2.18729,-0.633985,3.324,4.02929
-2.1765,-0.633985,3.324,4.02344
-2.16571,-0.633985,3.324,4.01761
-2.15492,-0.633985,3.324,4.01181
-2.14413,-0.633985,3.324,4.00602
-2.15388,-0.640088,3.356,4.03877
-2.12256,-0.633985,3.324,3.99452
-2.11177,-0.633985,3.324,3.98879
-2.10098,-0.633985,3.324,3.98309
-2.09019,-0.633985,3.324,3.97741
-2.0794,-0.633985,3.324,3.97175
-2.06861,-0.633985,3.324,3.96612
-2.05782,-0.633985,3.324,3.9605
-2.04703,-0.633985,3.324,3.9549
-2.03625,-0.633985,3.324,3.94933
-2.02546,-0.633985,3.324,3.94378
-2.01467,-0.633985,3.324,3.93825
-2.00388,-0.633985,3.324,3.93274
-1.99309,-0.633985,3.324,3.92725
nan,nan,nan,NaN
nan,nan,nan,NaN
nan,nan,nan,NaN
nan,nan,nan,NaN
nan,nan,nan,NaN
nan,nan,nan,NaN
nan,nan,nan,NaN
nan,nan,nan,NaN
nan,nan,nan,NaN
nan,nan,nan,NaN
nan,nan,nan,NaN
nan,nan,nan,NaN
nan,nan,nan,NaN
nan,nan,nan,NaN
nan,nan,nan,NaN
nan,nan,nan,NaN
nan,nan,nan,NaN
nan,nan,nan,NaN
nan,nan,nan,NaN
nan,nan,nan,NaN
nan,nan,nan,NaN
nan,nan,nan,NaN
nan,nan,nan,NaN
nan,nan,nan,NaN
nan,nan,nan,NaN
nan,nan,nan,NaN
nan,nan,nan,NaN
nan,nan,nan,NaN
nan,nan,nan,NaN
nan,nan,nan,NaN
nan,nan,nan,NaN
nan,nan,nan,NaN
nan,nan,nan,NaN
nan,nan,nan,NaN
nan,nan,nan,NaN
nan,nan,nan,NaN
nan,nan,nan,NaN
nan,nan,nan,NaN
nan,nan,nan,NaN
nan,nan,nan,NaN
-1.10894,-0.453364,2.377,2.66185
-1.09381,-0.450312,2.361,2.64074
-1.08615,-0.450312,2.361,2.63758
-1.07849,-0.450312,2.361,2.63443
-1.07082,-0.450312,2.361,2.63131
-1.06316,-0.450312,2.361,2.6282
-1.0555,-0.450312,2.361,2.62511
-1.04073,-0.447261,2.345,2.60426
-1.03312,-0.447261,2.345,2.60123
-1.02551,-0.447261,2.345,2.59822
-1.0179,-0.447261,2.345,2.59522
-1.01718,-0.450312,2.361,2.60994
-1.01636,-0.453364,2.377,2.62462
-1.00865,-0.453364,2.377,2.62165
-1.00093,-0.453364,2.377,2.61869
-1.00032,-0.456606,2.394,2.63446
-0.992548,-0.456606,2.394,2.63152
-0.984778,-0.456606,2.394,2.6286
-0.977007,-0.456606,2.394,2.62569
-0.969237,-0.456606,2.394,2.62281
-0.961466,-0.456606,2.394,2.61995
-0.960468,-0.459849,2.411,2.63569
-0.952643,-0.459849,2.411,2.63285
-0.944817,-0.459849,2.411,2.63003
-0.936992,-0.459849,2.411,2.62723
-0.929166,-0.459849,2.411,2.62445
-0.921341,-0.459849,2.411,2.62169
-0.913515,-0.459849,2.411,2.61895
-0.90569,-0.459849,2.411,2.61623
-0.897864,-0.459849,2.411,2.61353
-0.890039,-0.459849,2.411,2.61085
-0.882213,-0.459849,2.411,2.6082
-0.874388,-0.459849,2.411,2.60556
-0.866562,-0.459849,2.411,2.60294
-0.858737,-0.459849,2.411,2.60035
-0.850911,-0.459849,2.411,2.59777
-0.843086,-0.459849,2.411,2.59522
-0.83526,-0.459849,2.411,2.59269
-0.827435,-0.459849,2.411,2.59018
-0.819609,-0.459849,2.411,2.58769
-0.811784,-0.459849,2.411,2.58522
-0.803958,-0.459849,2.411,2.58278
-0.796133,-0.459849,2.411,2.58035
-0.788307,-0.459849,2.411,2.57795
-0.785985,-0.463091,2.428,2.59373
-0.778104,-0.463091,2.428,2.59135
-0.770224,-0.463091,2.428,2.58899
-0.762343,-0.463091,2.428,2.58666
-0.754462,-0.463091,2.428,2.58435
-0.746581,-0.463091,2.428,2.58206
-0.738701,-0.463091,2.428,2.57979
-0.73082,-0.463091,2.428,2.57754
-0.722939,-0.463091,2.428,2.57532
-0.715059,-0.463091,2.428,2.57312
-0.707178,-0.463091,2.428,2.57094
-0.699297,-0.463091,2.428,2.56878
-0.691417,-0.463091,2.428,2.56665
-0.683536,-0.463091,2.428,2.56454
-0.675655,-0.463091,2.428,2.56245
-0.667775,-0.463091,2.428,2.56038
-0.659894,-0.463091,2.428,2.55834
-0.656578,-0.466334,2.445,2.57422
-0.648643,-0.466334,2.445,2.5722
-0.640707,-0.466334,2.445,2.57021
-0.632771,-0.466334,2.445,2.56825
-0.629435,-0.469767,2.463,2.5852
-0.621441,-0.469767,2.463,2.58326
-0.613446,-0.469767,2.463,2.58135
-0.605452,-0.469767,2.463,2.57946
-0.601824,-0.4732,2.481,2.59643
-0.593771,-0.4732,2.481,2.59458
-0.585719,-0.4732,2.481,2.59275
-0.577666,-0.4732,2.481,2.59094
-0.569613,-0.4732,2.481,2.58916
-0.565635,-0.476633,2.499,2.60617
-0.557524,-0.476633,2.499,2.60442
-0.549413,-0.476633,2.499,2.6027
-0.541301,-0.476633,2.499,2.601
-0.53319,-0.476633,2.499,2.59932
-0.525079,-0.476633,2.499,2.59767
-0.516968,-0.476633,2.499,2.59604
-0.508857,-0.476633,2.499,2.59444
-0.500746,-0.476633,2.499,2.59286
-0.492635,-0.476633,2.499,2.59131
-0.484524,-0.476633,2.499,2.58978
-0.479844,-0.480066,2.517,2.60691
-0.471674,-0.480066,2.517,2.60542
-0.463505,-0.480066,2.517,2.60396
-0.455335,-0.480066,2.517,2.60251
-0.447166,-0.480066,2.517,2.6011
-0.438996,-0.480066,2.517,2.59971
-0.430827,-0.480066,2.517,2.59834
-0.422657,-0.480066,2.517,2.597
-0.414487,-0.480066,2.517,2.59568
-0.406318,-0.480066,2.517,2.59439
-0.398148,-0.480066,2.517,2.59312
-0.389979,-0.480066,2.517,2.59188
-0.381809,-0.480066,2.517,2.59066
-0.37364,-0.480066,2.517,2.58947
-0.36547,-0.480066,2.517,2.5883
-0.357301,-0.480066,2.517,2.58716
-0.346634,-0.476633,2.499,2.56755
-0.338523,-0.476633,2.499,2.56647
-0.328032,-0.4732,2.481,2.54694
-0.319979,-0.4732,2.481,2.54591
-0.311927,-0.4732,2.481,2.54491
-0.303874,-0.4732,2.481,2.54394
-0.295821,-0.4732,2.481,2.54299
-0.287769,-0.4732,2.481,2.54206
-0.279716,-0.4732,2.481,2.54117
-0.271663,-0.4732,2.481,2.54029
-0.261698,-0.469767,2.463,2.52102
-0.253704,-0.469767,2.463,2.5202
-0.245709,-0.469767,2.463,2.51941
-0.237715,-0.469767,2.463,2.51864
-0.229721,-0.469767,2.463,2.5179
-0.220106,-0.466334,2.445,2.49879
-0.21217,-0.466334,2.445,2.4981
-0.204234,-0.466334,2.445,2.49744
-0.196298,-0.466334,2.445,2.4968
-0.187053,-0.463091,2.428,2.47884
-0.179172,-0.463091,2.428,2.47825
-0.171292,-0.463091,2.428,2.4777
-0.163411,-0.463091,2.428,2.47716
-0.15553,-0.463091,2.428,2.47666
-0.147649,-0.463091,2.428,2.47617
-0.139769,-0.463091,2.428,2.47572
-0.130965,-0.459849,2.411,2.45795
-0.123139,-0.459849,2.411,2.45755
-0.115314,-0.459849,2.411,2.45717
-0.107488,-0.459849,2.411,2.45681
-0.0996626,-0.459849,2.411,2.45648
-0.0918371,-0.459849,2.411,2.45618
-0.084604,-0.463091,2.428,2.47322
-0.0767233,-0.463091,2.428,2.47296
-0.0693246,-0.466334,2.445,2.49004
-0.0613887,-0.466334,2.445,2.48983
-0.0534529,-0.466334,2.445,2.48965
-0.0458521,-0.469767,2.463,2.50782
-0.0378578,-0.469767,2.463,2.50768
-0.0298635,-0.469767,2.463,2.50758
-0.0218693,-0.469767,2.463,2.50749
-0.013875,-0.469767,2.463,2.50744
-0.00592366,-0.4732,2.481,2.52573
0.00212905,-0.4732,2.481,2.52572
0.0102556,-0.476633,2.499,2.54407
0.0183668,-0.476633,2.499,2.54411
0.0264779,-0.476633,2.499,2.54419
0.034589,-0.476633,2.499,2.54428
0.0427002,-0.476633,2.499,2.54441
0.0508113,-0.476633,2.499,2.54456
0.0589224,-0.476633,2.499,2.54473
0.0670336,-0.476633,2.499,2.54493
0.075686,-0.480066,2.517,2.56349
0.0838555,-0.480066,2.517,2.56374
0.0920251,-0.480066,2.517,2.56402
0.100195,-0.480066,2.517,2.56433
0.109182,-0.48369,2.536,2.58402
0.117413,-0.48369,2.536,2.58438
0.125645,-0.48369,2.536,2.58477
0.133876,-0.48369,2.536,2.58518
0.143172,-0.487314,2.555,2.60499
0.151465,-0.487314,2.555,2.60546
0.159758,-0.487314,2.555,2.60596
0.16805,-0.487314,2.555,2.60648
0.176343,-0.487314,2.555,2.60703
0.184636,-0.487314,2.555,2.6076
0.192929,-0.487314,2.555,2.6082
0.201222,-0.487314,2.555,2.60883
0.209515,-0.487314,2.555,2.60948
0.217808,-0.487314,2.555,2.61016
0.226101,-0.487314,2.555,2.61087
0.234394,-0.487314,2.555,2.6116
0.242687,-0.487314,2.555,2.61235
0.250979,-0.487314,2.555,2.61314
0.259272,-0.487314,2.555,2.61395
0.267565,-0.487314,2.555,2.61478
0.275858,-0.487314,2.555,2.61564
0.284151,-0.487314,2.555,2.61653
0.292444,-0.487314,2.555,2.61745
0.2985,-0.48369,2.536,2.59891
0.306732,-0.48369,2.536,2.59987
0.314963,-0.48369,2.536,2.60086
0.323194,-0.48369,2.536,2.60187
0.331425,-0.48369,2.536,2.6029
0.339657,-0.48369,2.536,2.60396
0.347888,-0.48369,2.536,2.60505
0.356119,-0.48369,2.536,2.60616
0.36435,-0.48369,2.536,2.6073
0.372581,-0.48369,2.536,2.60846
0.380813,-0.48369,2.536,2.60965
0.386129,-0.480066,2.517,2.5913
0.394299,-0.480066,2.517,2.59253
0.402468,-0.480066,2.517,2.59379
0.410638,-0.480066,2.517,2.59507
0.418807,-0.480066,2.517,2.59637
0.426977,-0.480066,2.517,2.5977
0.435146,-0.480066,2.517,2.59906
0.443316,-0.480066,2.517,2.60044
0.454894,-0.48369,2.536,2.62148
0.463125,-0.48369,2.536,2.62293
0.471356,-0.48369,2.536,2.62439
0.479587,-0.48369,2.536,2.62588
0.487819,-0.48369,2.536,2.6274
0.499766,-0.487314,2.555,2.64863
0.508059,-0.487314,2.555,2.65021
0.516352,-0.487314,2.555,2.65181
0.524645,-0.487314,2.555,2.65344
0.532938,-0.487314,2.555,2.65509
0.541231,-0.487314,2.555,2.65677
0.549524,-0.487314,2.555,2.65847
0.557817,-0.487314,2.555,2.6602
0.566109,-0.487314,2.555,2.66195
0.574402,-0.487314,2.555,2.66373
0.582695,-0.487314,2.555,2.66553
0.590988,-0.487314,2.555,2.66735
0.599281,-0.487314,2.555,2.6692
0.607574,-0.487314,2.555,2.67108
0.615867,-0.487314,2.555,2.67297
0.62416,-0.487314,2.555,2.6749
0.632453,-0.487314,2.555,2.67684
0.640746,-0.487314,2.555,2.67882
0.649038,-0.487314,2.555,2.68081
0.657331,-0.487314,2.555,2.68283
0.665624,-0.487314,2.555,2.68488
0.673917,-0.487314,2.555,2.68694
0.687283,-0.490938,2.574,2.70903
0.695638,-0.490938,2.574,2.71116
0.703992,-0.490938,2.574,2.71332
0.712347,-0.490938,2.574,2.7155
0.720701,-0.490938,2.574,2.7177
0.729056,-0.490938,2.574,2.71993
0.742854,-0.494562,2.593,2.74228
0.75127,-0.494562,2.593,2.74457
0.759686,-0.494562,2.593,2.74688
0.762474,-0.490938,2.574,2.72908
0.770829,-0.490938,2.574,2.73142
0.779183,-0.490938,2.574,2.73379
0.787538,-0.490938,2.574,2.73619
0.795892,-0.490938,2.574,2.7386
0.804247,-0.490938,2.574,2.74104
0.812602,-0.490938,2.574,2.7435
0.814896,-0.487314,2.555,2.72572
0.823189,-0.487314,2.555,2.72821
0.831482,-0.487314,2.555,2.73073
0.839775,-0.487314,2.555,2.73326
0.848068,-0.487314,2.555,2.73582
0.849993,-0.48369,2.536,2.71804
0.858224,-0.48369,2.536,2.72062
0.866455,-0.48369,2.536,2.72323
0.874686,-0.48369,2.536,2.72586
0.882918,-0.48369,2.536,2.72852
0.884472,-0.480066,2.517,2.71073
0.892642,-0.480066,2.517,2.7134
0.900811,-0.480066,2.517,2.7161
0.908981,-0.480066,2.517,2.71882
0.91715,-0.480066,2.517,2.72157
0.918703,-0.476633,2.499,2.70485
0.926814,-0.476633,2.499,2.70761
0.934925,-0.476633,2.499,2.7104
0.943036,-0.476633,2.499,2.71321
0.951147,-0.476633,2.499,2.71604
nan,nan,nan,NaN
nan,nan,nan,NaN
nan,nan,nan,NaN
nan,nan,nan,NaN
nan,nan,nan,NaN
nan,nan,nan,NaN
nan,nan,nan,NaN
nan,nan,nan,NaN
nan,nan,nan,NaN
nan,nan,nan,NaN
nan,nan,nan,NaN
nan,nan,nan,NaN
nan,nan,nan,NaN
nan,nan,nan,NaN
nan,nan,nan,NaN
nan,nan,nan,NaN
nan,nan,nan,NaN
nan,nan,nan,NaN
1.32817,-0.572761,3.003,3.33318
1.32633,-0.567802,2.977,3.30818
1.32433,-0.562843,2.951,3.28314
1.3339,-0.562843,2.951,3.28702
1.34348,-0.562843,2.951,3.29092
1.36498,-0.567802,2.977,3.32387
1.38665,-0.572761,3.003,3.35691
1.38431,-0.567802,2.977,3.33185
1.39397,-0.567802,2.977,3.33588
1.40363,-0.567802,2.977,3.33993
1.41329,-0.567802,2.977,3.344
1.42296,-0.567802,2.977,3.34809
1.44513,-0.572761,3.003,3.38149
1.44228,-0.567802,2.977,3.35635
1.45195,-0.567802,2.977,3.36052
1.47437,-0.572761,3.003,3.39409
1.49746,-0.57791,3.03,3.42889
1.5073,-0.57791,3.03,3.4332
1.51713,-0.57791,3.03,3.43752
1.52697,-0.57791,3.03,3.44188
1.5368,-0.57791,3.03,3.44625
1.54664,-0.57791,3.03,3.45065
nan,nan,nan,NaN
nan,nan,nan,NaN
nan,nan,nan,NaN
nan,nan,nan,NaN
nan,nan,nan,NaN
nan,nan,nan,NaN
nan,nan,nan,NaN
nan,nan,nan,NaN
1.88501,-0.666218,3.493,4.02469
1.89635,-0.666218,3.493,4.03001
1.90768,-0.666218,3.493,4.03536
1.91902,-0.666218,3.493,4.04073
1.93036,-0.666218,3.493,4.04613
1.94169,-0.666218,3.493,4.05155
1.95303,-0.666218,3.493,4.057
1.94469,-0.659543,3.458,4.02176
1.95591,-0.659543,3.458,4.0272
1.98704,-0.666218,3.493,4.07348
1.97836,-0.659543,3.458,4.03815
1.98958,-0.659543,3.458,4.04366
2.00081,-0.659543,3.458,4.0492
1.99166,-0.652867,3.423,4.01371
2.00277,-0.652867,3.423,4.01924
2.01389,-0.652867,3.423,4.02479
2.00488,-0.646382,3.389,3.99032
1.99625,-0.640088,3.356,3.95695
1.98801,-0.633985,3.324,3.92468
1.99879,-0.633985,3.324,3.93015
1.99024,-0.627882,3.292,3.89776
1.98147,-0.621778,3.26,3.86529
1.99205,-0.621778,3.26,3.87072
2.00264,-0.621778,3.26,3.87618
1.97555,-0.610144,3.199,3.80902
1.98593,-0.610144,3.199,3.81442
1.96012,-0.599081,3.141,3.75058
1.93456,-0.58821,3.084,3.68776
1.94457,-0.58821,3.084,3.69302
1.92035,-0.57791,3.03,3.63354
1.91299,-0.572761,3.003,3.60633
1.92273,-0.572761,3.003,3.61151
1.89902,-0.562843,2.951,3.55408
1.89243,-0.558075,2.926,3.52905
1.90192,-0.558075,2.926,3.53415
1.87941,-0.548729,2.877,3.48
1.85724,-0.539574,2.829,3.42691
1.86642,-0.539574,2.829,3.4319
1.84511,-0.5308,2.783,3.38101
1.83948,-0.526604,2.761,3.35918
1.84844,-0.526604,2.761,3.3641
1.8574,-0.526604,2.761,3.36903
1.85149,-0.522408,2.739,3.3471
1.83118,-0.514207,2.696,3.2994
-2.39893,-0.648322,3.458,4.25828
-2.3877,-0.648322,3.458,4.25197
-2.37648,-0.648322,3.458,4.24567
-2.34132,-0.64176,3.423,4.19649
-2.33021,-0.64176,3.423,4.1903
-2.3191,-0.64176,3.423,4.18414
-2.28506,-0.635386,3.389,4.13649
-2.25192,-0.629199,3.356,4.0902
-2.24102,-0.629199,3.356,4.08422
-2.20887,-0.623199,3.324,4.03936
-2.19808,-0.623199,3.324,4.03347
-2.18729,-0.623199,3.324,4.0276
-2.1765,-0.623199,3.324,4.02175
-2.16571,-0.623199,3.324,4.01593
-2.15492,-0.623199,3.324,4.01012
-2.14413,-0.623199,3.324,4.00433
-2.13335,-0.623199,3.324,3.99856
-2.12256,-0.623199,3.324,3.99282
-2.11177,-0.623199,3.324,3.98709
-2.10098,-0.623199,3.324,3.98139
-2.09019,-0.623199,3.324,3.97571
-2.0794,-0.623199,3.324,3.97005
-2.06861,-0.623199,3.324,3.96441
-2.05782,-0.623199,3.324,3.95879
-2.04703,-0.623199,3.324,3.95319
-2.03625,-0.623199,3.324,3.94761
-2.02546,-0.623199,3.324,3.94206
-2.01467,-0.623199,3.324,3.93653
-2.00388,-0.623199,3.324,3.93102
-1.99309,-0.623199,3.324,3.92553
nan,nan,nan,NaN
nan,nan,nan,NaN
nan,nan,nan,NaN
nan,nan,nan,NaN
nan,nan,nan,NaN
nan,nan,nan,NaN
nan,nan,nan,NaN
nan,nan,nan,NaN
nan,nan,nan,NaN
nan,nan,nan,NaN
nan,nan,nan,NaN
nan,nan,nan,NaN
nan,nan,nan,NaN
nan,nan,nan,NaN
nan,nan,nan,NaN
nan,nan,nan,NaN
nan,nan,nan,NaN
nan,nan,nan,NaN
nan,nan,nan,NaN
nan,nan,nan,NaN
nan,nan,nan,NaN
nan,nan,nan,NaN
nan,nan,nan,NaN
nan,nan,nan,NaN
nan,nan,nan,NaN
nan,nan,nan,NaN
nan,nan,nan,NaN
nan,nan,nan,NaN
nan,nan,nan,NaN
nan,nan,nan,NaN
nan,nan,nan,NaN
nan,nan,nan,NaN
nan,nan,nan,NaN
nan,nan,nan,NaN
nan,nan,nan,NaN
nan,nan,nan,NaN
nan,nan,nan,NaN
nan,nan,nan,NaN
-1.12437,-0.445651,2.377,2.66701
-1.11666,-0.445651,2.377,2.66377
-1.10148,-0.442651,2.361,2.64263
-1.09381,-0.442651,2.361,2.63945
-1.08615,-0.442651,2.361,2.63628
-1.07849,-0.442651,2.361,2.63313
-1.07082,-0.442651,2.361,2.63001
-1.05596,-0.439652,2.345,2.60909
-1.04835,-0.439652,2.345,2.60602
-1.04073,-0.439652,2.345,2.60297
-1.03312,-0.439652,2.345,2.59994
-1.02551,-0.439652,2.345,2.59692
-1.0179,-0.439652,2.345,2.59392
