0.321885,0.10566,2.463,2.48619
0.329879,0.10566,2.463,2.48724
0.337874,0.10566,2.463,2.48831
0.345868,0.10566,2.463,2.48941
0.353862,0.10566,2.463,2.49053
0.361856,0.10566,2.463,2.49168
0.369851,0.10566,2.463,2.49285
0.377845,0.10566,2.463,2.49405
0.385839,0.10566,2.463,2.49528
0.393834,0.10566,2.463,2.49653
0.401828,0.10566,2.463,2.4978
0.409822,0.10566,2.463,2.4991
0.417816,0.10566,2.463,2.50042
0.425811,0.10566,2.463,2.50177
0.433805,0.10566,2.463,2.50314
0.441799,0.10566,2.463,2.50454
0.449794,0.10566,2.463,2.50596
0.457788,0.10566,2.463,2.50741
0.465782,0.10566,2.463,2.50888
0.477239,0.106432,2.481,2.52872
0.485292,0.106432,2.481,2.53026
0.493344,0.106432,2.481,2.53181
0.501397,0.106432,2.481,2.53339
0.50945,0.106432,2.481,2.535
0.517502,0.106432,2.481,2.53663
0.525555,0.106432,2.481,2.53829
0.533608,0.106432,2.481,2.53997
0.541661,0.106432,2.481,2.54167
0.549713,0.106432,2.481,2.5434
0.557766,0.106432,2.481,2.54515
0.565819,0.106432,2.481,2.54693
0.573871,0.106432,2.481,2.54873
0.581924,0.106432,2.481,2.55055
0.589977,0.106432,2.481,2.5524
0.59803,0.106432,2.481,2.55428
0.606082,0.106432,2.481,2.55617
0.609679,0.10566,2.463,2.53954
0.617674,0.10566,2.463,2.54147
0.625668,0.10566,2.463,2.54342
0.633662,0.10566,2.463,2.5454
0.641657,0.10566,2.463,2.5474
0.649651,0.10566,2.463,2.54943
0.657645,0.10566,2.463,2.55148
0.665639,0.10566,2.463,2.55355
0.673634,0.10566,2.463,2.55564
0.681628,0.10566,2.463,2.55776
0.689622,0.10566,2.463,2.5599
0.697617,0.10566,2.463,2.56207
0.705611,0.10566,2.463,2.56426
0.713605,0.10566,2.463,2.56647
0.721599,0.10566,2.463,2.5687
0.729594,0.10566,2.463,2.57096
0.737588,0.10566,2.463,2.57324
0.745582,0.10566,2.463,2.57554
0.753577,0.10566,2.463,2.57787
0.761571,0.10566,2.463,2.58022
0.769565,0.10566,2.463,2.58259
0.777559,0.10566,2.463,2.58498
0.785554,0.10566,2.463,2.5874
0.793548,0.10566,2.463,2.58984
0.801542,0.10566,2.463,2.5923
0.809537,0.10566,2.463,2.59478
0.817531,0.10566,2.463,2.59729
0.831558,0.106432,2.481,2.61881
0.839611,0.106432,2.481,2.62138
0.847664,0.106432,2.481,2.62397
0.855716,0.106432,2.481,2.62658
0.863769,0.106432,2.481,2.62922
0.871822,0.106432,2.481,2.63187
0.879874,0.106432,2.481,2.63455
0.887927,0.106432,2.481,2.63725
0.89598,0.106432,2.481,2.63998
0.904033,0.106432,2.481,2.64272
0.912085,0.106432,2.481,2.64548
0.920138,0.106432,2.481,2.64827
0.928191,0.106432,2.481,2.65108
0.936243,0.106432,2.481,2.65391
0.944296,0.106432,2.481,2.65676
0.945439,0.10566,2.463,2.64034
0.953434,0.10566,2.463,2.64321
0.961428,0.10566,2.463,2.64611
0.969422,0.10566,2.463,2.64902
0.98456,0.106432,2.481,2.67134
0.992612,0.106432,2.481,2.67432
1.00067,0.106432,2.481,2.67732
1.00872,0.106432,2.481,2.68034
1.01677,0.106432,2.481,2.68338
1.02482,0.106432,2.481,2.68644
1.04037,0.107204,2.499,2.70903
1.05603,0.107976,2.517,2.73169
1.0642,0.107976,2.517,2.73486
1.07237,0.107976,2.517,2.73805
1.08054,0.107976,2.517,2.74126
1.08871,0.107976,2.517,2.74449
1.10516,0.108791,2.536,2.76849
1.11339,0.108791,2.536,2.77178
1.13003,0.109606,2.555,2.79589
1.13832,0.109606,2.555,2.79925
1.15514,0.110421,2.574,2.82348
1.16349,0.110421,2.574,2.8269
1.17185,0.110421,2.574,2.83035
1.18891,0.111236,2.593,2.85474
1.19733,0.111236,2.593,2.85826
1.20575,0.111236,2.593,2.86179
1.21416,0.111236,2.593,2.86535
1.22258,0.111236,2.593,2.86892
1.231,0.111236,2.593,2.87252
1.23941,0.111236,2.593,2.87614
1.24783,0.111236,2.593,2.87977
1.25624,0.111236,2.593,2.88343
1.26466,0.111236,2.593,2.88711
1.27308,0.111236,2.593,2.8908
1.28149,0.111236,2.593,2.89452
1.28991,0.111236,2.593,2.89826
1.29833,0.111236,2.593,2.90201
1.31682,0.112094,2.613,2.9282
1.3253,0.112094,2.613,2.93202
1.34399,0.112952,2.633,2.95834
1.36333,0.113853,2.654,2.98586
1.39365,0.115655,2.696,3.03711
1.4024,0.115655,2.696,3.04114
1.44517,0.118443,2.761,3.1186
1.47784,0.120374,2.806,3.17366
1.48694,0.120374,2.806,3.17791
1.52111,0.12239,2.853,3.23549
1.56953,0.125522,2.926,3.32275
1.60655,0.12771,2.977,3.38524
1.61621,0.12771,2.977,3.38983
1.64007,0.128825,3.003,3.4241
1.66465,0.129983,3.03,3.4596
1.67449,0.129983,3.03,3.46435
1.69933,0.131141,3.057,3.50002
1.70925,0.131141,3.057,3.50485
1.70399,0.129983,3.03,3.4787
1.71383,0.129983,3.03,3.48353
1.73902,0.131141,3.057,3.51947
1.74894,0.131141,3.057,3.52438
1.74333,0.129983,3.03,3.49814
1.75316,0.129983,3.03,3.50305
1.763,0.129983,3.03,3.50799
1.75704,0.128825,3.003,3.48163
1.75149,0.12771,2.977,3.45638
1.76115,0.12771,2.977,3.46128
1.74047,0.125522,2.926,3.40683
1.74997,0.125522,2.926,3.41169
1.75947,0.125522,2.926,3.41657
1.75385,0.124449,2.901,3.39224
1.73409,0.12239,2.853,3.34091
1.74335,0.12239,2.853,3.34572
1.73787,0.12136,2.829,3.32237
1.71864,0.119387,2.783,3.27308
1.72768,0.119387,2.783,3.27784
1.70925,0.1175,2.739,3.23071
1.70434,0.116556,2.717,3.20943
1.71316,0.116556,2.717,3.21412
1.69536,0.114754,2.675,3.16908
1.69067,0.113853,2.654,3.14881
1.67303,0.112094,2.613,3.10473
1.68151,0.112094,2.613,3.10931
1.66477,0.110421,2.574,3.06743
1.66077,0.109606,2.555,3.0493
1.66906,0.109606,2.555,3.05382
1.66488,0.108791,2.536,3.03562
1.66058,0.107976,2.517,3.01736
1.66875,0.107976,2.517,3.02187
1.66493,0.107204,2.499,3.00474
1.66099,0.106432,2.481,2.98757
1.66904,0.106432,2.481,2.99205
1.66493,0.10566,2.463,2.97481
1.67292,0.10566,2.463,2.97929
-1.90013,0.126387,2.739,3.33596
-1.89124,0.126387,2.739,3.3309
-1.88235,0.126387,2.739,3.32586
-1.87346,0.126387,2.739,3.32084
-1.86457,0.126387,2.739,3.31583
-1.85568,0.126387,2.739,3.31084
-1.84679,0.126387,2.739,3.30586
-1.8379,0.126387,2.739,3.30091
-1.82901,0.126387,2.739,3.29596
-1.82012,0.126387,2.739,3.29104
-1.79668,0.125372,2.717,3.25974
-1.77405,0.124403,2.696,3.22973
-1.7653,0.124403,2.696,3.22493
-1.74286,0.123434,2.675,3.19506
-1.72057,0.122465,2.654,3.16529
-1.71195,0.122465,2.654,3.16062
-1.68986,0.121496,2.633,3.13099
-1.68132,0.121496,2.633,3.12638
-1.67277,0.121496,2.633,3.1218
-1.65158,0.120573,2.613,3.09355
-1.63052,0.11965,2.593,3.06538
-1.62211,0.11965,2.593,3.06091
-1.61369,0.11965,2.593,3.05646
-1.60528,0.11965,2.593,3.05203
-1.60918,0.120573,2.613,3.07112
-1.61295,0.121496,2.633,3.09015
-1.59221,0.120573,2.613,3.06226
-1.58373,0.120573,2.613,3.05786
-1.57525,0.120573,2.613,3.05348
-1.56677,0.120573,2.613,3.04911
-1.57022,0.121496,2.633,3.06807
-1.54981,0.120573,2.613,3.04043
-1.54133,0.120573,2.613,3.03612
-1.53285,0.120573,2.613,3.03182
-1.5127,0.11965,2.593,3.00437
-1.50428,0.11965,2.593,3.00014
-1.4849,0.118774,2.574,2.97397
-1.46565,0.117897,2.555,2.94789
-1.45736,0.117897,2.555,2.94378
-1.44906,0.117897,2.555,2.93968
-1.43006,0.11702,2.536,2.91377
-1.42183,0.11702,2.536,2.90974
-1.41359,0.11702,2.536,2.90573
-1.40536,0.11702,2.536,2.90173
-1.39713,0.11702,2.536,2.89775
-1.39931,0.117897,2.555,2.91547
-1.39101,0.117897,2.555,2.9115
-1.38272,0.117897,2.555,2.90755
-1.38465,0.118774,2.574,2.92521
-1.37629,0.118774,2.574,2.92126
-1.37804,0.11965,2.593,2.93887
-1.38019,0.120573,2.613,2.95757
-1.3822,0.121496,2.633,2.97623
-1.37366,0.121496,2.633,2.97227
-1.376,0.122465,2.654,2.992
-1.36738,0.122465,2.654,2.98805
-1.35877,0.122465,2.654,2.98412
-1.35016,0.122465,2.654,2.98021
-1.34154,0.122465,2.654,2.97631
-1.32238,0.121496,2.633,2.94892
-1.30385,0.120573,2.613,2.92273
-1.29537,0.120573,2.613,2.91896
-1.27704,0.11965,2.593,2.89289
-1.25003,0.117897,2.555,2.84684
-1.23251,0.11702,2.536,2.82207
-1.22428,0.11702,2.536,2.81848
-1.1983,0.115313,2.499,2.77385
-1.19019,0.115313,2.499,2.77035
-1.18208,0.115313,2.499,2.76688
-1.15706,0.113652,2.463,2.72361
-1.14067,0.112821,2.445,2.70035
-1.13273,0.112821,2.445,2.697
-1.11697,0.112037,2.428,2.67495
-1.10909,0.112037,2.428,2.67167
-1.10121,0.112037,2.428,2.66841
-1.09333,0.112037,2.428,2.66517
-1.08545,0.112037,2.428,2.66194
-1.07003,0.111252,2.411,2.64012
-1.0622,0.111252,2.411,2.63696
-1.05437,0.111252,2.411,2.63382
-1.04655,0.111252,2.411,2.6307
-1.03872,0.111252,2.411,2.62759
-1.0309,0.111252,2.411,2.62451
-1.02307,0.111252,2.411,2.62145
-1.01525,0.111252,2.411,2.6184
-1.00742,0.111252,2.411,2.61538
-0.999596,0.111252,2.411,2.61237
-0.998763,0.112037,2.428,2.62779
-0.990883,0.112037,2.428,2.6248
-0.983002,0.112037,2.428,2.62184
-0.975121,0.112037,2.428,2.61889
-0.967241,0.112037,2.428,2.61597
-0.95936,0.112037,2.428,2.61307
-0.951479,0.112037,2.428,2.61018
-0.943599,0.112037,2.428,2.60732
-0.935718,0.112037,2.428,2.60448
-0.927837,0.112037,2.428,2.60166
-0.919957,0.112037,2.428,2.59886
-0.912076,0.112037,2.428,2.59608
-0.904195,0.112037,2.428,2.59332
-0.896315,0.112037,2.428,2.59058
-0.894654,0.112821,2.445,2.60599
-0.886718,0.112821,2.445,2.60327
-0.878783,0.112821,2.445,2.60058
-0.870847,0.112821,2.445,2.59791
-0.862911,0.112821,2.445,2.59526
-0.854975,0.112821,2.445,2.59263
-0.847039,0.112821,2.445,2.59003
-0.839103,0.112821,2.445,2.58744
-0.831167,0.112821,2.445,2.58488
-0.823232,0.112821,2.445,2.58234
-0.815296,0.112821,2.445,2.57982
-0.80736,0.112821,2.445,2.57732
-0.799424,0.112821,2.445,2.57485
-0.791488,0.112821,2.445,2.57239
-0.783552,0.112821,2.445,2.56996
-0.775616,0.112821,2.445,2.56755
-0.767681,0.112821,2.445,2.56517
-0.759745,0.112821,2.445,2.5628
-0.751809,0.112821,2.445,2.56046
-0.749349,0.113652,2.463,2.57698
-0.741355,0.113652,2.463,2.57466
-0.733361,0.113652,2.463,2.57237
-0.730668,0.114482,2.481,2.58889
-0.722615,0.114482,2.481,2.58663
-0.714562,0.114482,2.481,2.58439
-0.706509,0.114482,2.481,2.58217
-0.698457,0.114482,2.481,2.57998
-0.690404,0.114482,2.481,2.57781
-0.682351,0.114482,2.481,2.57567
-0.679191,0.115313,2.499,2.59222
-0.666246,0.114482,2.481,2.57145
-0.658193,0.114482,2.481,2.56937
-0.65014,0.114482,2.481,2.56732
-0.642088,0.114482,2.481,2.5653
-0.634035,0.114482,2.481,2.56329
-0.621441,0.113652,2.463,2.54273
-0.613446,0.113652,2.463,2.54079
-0.605452,0.113652,2.463,2.53887
-0.597458,0.113652,2.463,2.53697
-0.589464,0.113652,2.463,2.5351
-0.581469,0.113652,2.463,2.53326
-0.569284,0.112821,2.445,2.51293
-0.561348,0.112821,2.445,2.51115
-0.553412,0.112821,2.445,2.50939
-0.545476,0.112821,2.445,2.50765
-0.53754,0.112821,2.445,2.50593
-0.529605,0.112821,2.445,2.50424
-0.521669,0.112821,2.445,2.50258
-0.513733,0.112821,2.445,2.50094
-0.505797,0.112821,2.445,2.49932
-0.497861,0.112821,2.445,2.49772
-0.489925,0.112821,2.445,2.49615
-0.481989,0.112821,2.445,2.49461
-0.474054,0.112821,2.445,2.49309
-0.469549,0.113652,2.463,2.50993
-0.461555,0.113652,2.463,2.50845
-0.453561,0.113652,2.463,2.50699
-0.445566,0.113652,2.463,2.50556
-0.44077,0.114482,2.481,2.52245
-0.432717,0.114482,2.481,2.52105
-0.424665,0.114482,2.481,2.51968
-0.419634,0.115313,2.499,2.53661
-0.411523,0.115313,2.499,2.53528
-0.403412,0.115313,2.499,2.53398
-0.395301,0.115313,2.499,2.5327
-0.389979,0.116143,2.517,2.54968
-0.381809,0.116143,2.517,2.54844
-0.37364,0.116143,2.517,2.54723
-0.368229,0.11702,2.536,2.56526
-0.359998,0.11702,2.536,2.5641
-0.351766,0.11702,2.536,2.56295
-0.343535,0.11702,2.536,2.56184
-0.335304,0.11702,2.536,2.56075
-0.327073,0.11702,2.536,2.55968
-0.318842,0.11702,2.536,2.55864
-0.31061,0.11702,2.536,2.55763
-0.302379,0.11702,2.536,2.55664
-0.294148,0.11702,2.536,2.55568
-0.285917,0.11702,2.536,2.55475
-0.277685,0.11702,2.536,2.55384
-0.269454,0.11702,2.536,2.55296
-0.261223,0.11702,2.536,2.5521
-0.252992,0.11702,2.536,2.55127
-0.242927,0.116143,2.517,2.53136
-0.234757,0.116143,2.517,2.53059
-0.226588,0.116143,2.517,2.52985
-0.218418,0.116143,2.517,2.52913
-0.208745,0.115313,2.499,2.51035
-0.200634,0.115313,2.499,2.50969
-0.192523,0.115313,2.499,2.50906
-0.184412,0.115313,2.499,2.50845
-0.1763,0.115313,2.499,2.50786
-0.168189,0.115313,2.499,2.50731
-0.160078,0.115313,2.499,2.50678
-0.151967,0.115313,2.499,2.50627
-0.143856,0.115313,2.499,2.50579
-0.135745,0.115313,2.499,2.50534
-0.127634,0.115313,2.499,2.50491
-0.119523,0.115313,2.499,2.50451
-0.111411,0.115313,2.499,2.50414
-0.1033,0.115313,2.499,2.50379
-0.0951891,0.115313,2.499,2.50347
-0.087078,0.115313,2.499,2.50317
-0.0789668,0.115313,2.499,2.50291
-0.0708557,0.115313,2.499,2.50266
-0.0627446,0.115313,2.499,2.50245
-0.0546334,0.115313,2.499,2.50226
-0.0465223,0.115313,2.499,2.50209
-0.0384112,0.115313,2.499,2.50195
-0.0303,0.115313,2.499,2.50184
-0.0221889,0.115313,2.499,2.50176
-0.0140778,0.115313,2.499,2.5017
-0.00596664,0.115313,2.499,2.50167
0.00214449,0.115313,2.499,2.50166
0.0102556,0.115313,2.499,2.50168
0.0183668,0.115313,2.499,2.50173
0.0264779,0.115313,2.499,2.5018
0.0343399,0.114482,2.481,2.48388
0.0423926,0.114482,2.481,2.484
0.0504453,0.114482,2.481,2.48415
0.058498,0.114482,2.481,2.48433
0.0665507,0.114482,2.481,2.48453
0.0746034,0.114482,2.481,2.48476
0.0826561,0.114482,2.481,2.48502
0.0907089,0.114482,2.481,2.4853
0.0987616,0.114482,2.481,2.4856
0.106814,0.114482,2.481,2.48594
0.114867,0.114482,2.481,2.48629
0.12292,0.114482,2.481,2.48668
0.130972,0.114482,2.481,2.48709
0.140034,0.115313,2.499,2.50558
0.148145,0.115313,2.499,2.50604
0.156256,0.115313,2.499,2.50653
0.164367,0.115313,2.499,2.50705
0.172478,0.115313,2.499,2.5076
0.180589,0.115313,2.499,2.50817
0.187341,0.114482,2.481,2.4907
0.195394,0.114482,2.481,2.49131
0.203447,0.114482,2.481,2.49196
0.2115,0.114482,2.481,2.49263
0.219552,0.114482,2.481,2.49333
0.227605,0.114482,2.481,2.49405
0.235658,0.114482,2.481,2.4948
0.24371,0.114482,2.481,2.49557
0.251763,0.114482,2.481,2.49637
0.259816,0.114482,2.481,2.49719
0.267868,0.114482,2.481,2.49804
0.275921,0.114482,2.481,2.49892
0.281914,0.113652,2.463,2.48169
0.289908,0.113652,2.463,2.48261
0.297902,0.113652,2.463,2.48355
0.305896,0.113652,2.463,2.48452
0.313891,0.113652,2.463,2.48552
0.321885,0.113652,2.463,2.48654
0.329879,0.113652,2.463,2.48759
0.337874,0.113652,2.463,2.48866
0.345868,0.113652,2.463,2.48976
0.353862,0.113652,2.463,2.49088
0.361856,0.113652,2.463,2.49203
0.369851,0.113652,2.463,2.49321
0.377845,0.113652,2.463,2.4944
0.385839,0.113652,2.463,2.49563
0.393834,0.113652,2.463,2.49688
0.401828,0.113652,2.463,2.49815
0.409822,0.113652,2.463,2.49945
0.417816,0.113652,2.463,2.50077
0.425811,0.113652,2.463,2.50212
0.433805,0.113652,2.463,2.50349
0.441799,0.113652,2.463,2.50489
0.449794,0.113652,2.463,2.50631
0.457788,0.113652,2.463,2.50776
0.465782,0.113652,2.463,2.50923
0.473776,0.113652,2.463,2.51073
0.481771,0.113652,2.463,2.51225
0.489765,0.113652,2.463,2.51379
0.497759,0.113652,2.463,2.51536
0.50945,0.114482,2.481,2.53535
0.517502,0.114482,2.481,2.53698
0.525555,0.114482,2.481,2.53864
0.533608,0.114482,2.481,2.54032
0.541661,0.114482,2.481,2.54202
0.545725,0.113652,2.463,2.52529
0.553719,0.113652,2.463,2.52703
0.561714,0.113652,2.463,2.5288
0.569708,0.113652,2.463,2.53058
0.577702,0.113652,2.463,2.5324
0.585697,0.113652,2.463,2.53423
0.593691,0.113652,2.463,2.53609
0.601685,0.113652,2.463,2.53797
0.609679,0.113652,2.463,2.53988
0.617674,0.113652,2.463,2.54181
0.621095,0.112821,2.445,2.52518
0.629031,0.112821,2.445,2.52714
0.636967,0.112821,2.445,2.52913
0.644903,0.112821,2.445,2.53114
0.652839,0.112821,2.445,2.53317
0.665639,0.113652,2.463,2.55389
0.673634,0.113652,2.463,2.55599
0.676647,0.112821,2.445,2.53941
0.684582,0.112821,2.445,2.54154
0.697617,0.113652,2.463,2.56241
0.705611,0.113652,2.463,2.5646
0.713605,0.113652,2.463,2.56681
0.721599,0.113652,2.463,2.56904
0.729594,0.113652,2.463,2.5713
0.737588,0.113652,2.463,2.57358
0.745582,0.113652,2.463,2.57588
0.753577,0.113652,2.463,2.57821
0.767137,0.114482,2.481,2.59942
0.769565,0.113652,2.463,2.58293
0.777559,0.113652,2.463,2.58532
0.785554,0.113652,2.463,2.58774
0.799347,0.114482,2.481,2.6091
0.8074,0.114482,2.481,2.61158
0.815453,0.114482,2.481,2.61408
0.823505,0.114482,2.481,2.61661
0.831558,0.114482,2.481,2.61915
0.839611,0.114482,2.481,2.62172
0.847664,0.114482,2.481,2.62431
0.855716,0.114482,2.481,2.62692
0.863769,0.114482,2.481,2.62956
0.871822,0.114482,2.481,2.63221
0.879874,0.114482,2.481,2.63489
0.887927,0.114482,2.481,2.63759
0.89598,0.114482,2.481,2.64031
0.904033,0.114482,2.481,2.64306
0.912085,0.114482,2.481,2.64582
0.920138,0.114482,2.481,2.64861
0.928191,0.114482,2.481,2.65142
0.936243,0.114482,2.481,2.65425
0.944296,0.114482,2.481,2.6571
0.952349,0.114482,2.481,2.65997
0.960401,0.114482,2.481,2.66286
0.961428,0.113652,2.463,2.64644
0.969422,0.113652,2.463,2.64935
0.977417,0.113652,2.463,2.65229
0.992612,0.114482,2.481,2.67465
1.00067,0.114482,2.481,2.67765
1.00872,0.114482,2.481,2.68067
1.02415,0.115313,2.499,2.70318
1.03226,0.115313,2.499,2.70626
1.04037,0.115313,2.499,2.70937
1.05603,0.116143,2.517,2.73203
1.0642,0.116143,2.517,2.7352
1.07237,0.116143,2.517,2.73839
1.0887,0.11702,2.536,2.76229
1.09693,0.11702,2.536,2.76555
1.10516,0.11702,2.536,2.76882
1.12173,0.117897,2.555,2.79289
1.13003,0.117897,2.555,2.79623
1.13832,0.117897,2.555,2.79959
1.15514,0.118774,2.574,2.82381
1.16349,0.118774,2.574,2.82724
1.17185,0.118774,2.574,2.83069
1.18891,0.11965,2.593,2.85508
1.19733,0.11965,2.593,2.8586
1.20575,0.11965,2.593,2.86213
1.21416,0.11965,2.593,2.86569
1.22258,0.11965,2.593,2.86926
1.231,0.11965,2.593,2.87286
1.23941,0.11965,2.593,2.87647
1.24783,0.11965,2.593,2.88011
1.25624,0.11965,2.593,2.88377
1.26466,0.11965,2.593,2.88744
1.27308,0.11965,2.593,2.89114
1.28149,0.11965,2.593,2.89486
1.28991,0.11965,2.593,2.89859
1.29833,0.11965,2.593,2.90235
1.31682,0.120573,2.613,2.92854
1.3253,0.120573,2.613,2.93236
1.34399,0.121496,2.633,2.95868
1.36333,0.122465,2.654,2.9862
1.39365,0.124403,2.696,3.03746
1.4024,0.124403,2.696,3.04148
1.44517,0.127402,2.761,3.11896
1.47784,0.129479,2.806,3.17402
1.48694,0.129479,2.806,3.17827
1.52111,0.131648,2.853,3.23585
1.56953,0.135016,2.926,3.32312
1.60655,0.137369,2.977,3.38562
1.61621,0.137369,2.977,3.39021
1.64007,0.138569,3.003,3.42448
1.66465,0.139815,3.03,3.45999
1.67449,0.139815,3.03,3.46473
1.69933,0.141061,3.057,3.50041
1.70925,0.141061,3.057,3.50524
1.70399,0.139815,3.03,3.47909
1.71383,0.139815,3.03,3.48391
1.73902,0.141061,3.057,3.51985
1.74894,0.141061,3.057,3.52476
1.74333,0.139815,3.03,3.49852
1.75316,0.139815,3.03,3.50343
1.763,0.139815,3.03,3.50836
1.75704,0.138569,3.003,3.48201
1.75149,0.137369,2.977,3.45675
1.76115,0.137369,2.977,3.46165
1.74047,0.135016,2.926,3.40719
1.74997,0.135016,2.926,3.41205
1.75947,0.135016,2.926,3.41693
1.73934,0.132755,2.877,3.36453
1.73409,0.131648,2.853,3.34126
1.74335,0.131648,2.853,3.34608
1.72374,0.129479,2.806,3.29571
1.70506,0.127402,2.761,3.24755
1.71402,0.127402,2.761,3.25226
1.70925,0.126387,2.739,3.23104
1.69117,0.124403,2.696,3.18496
1.69992,0.124403,2.696,3.18961
1.69536,0.123434,2.675,3.1694
1.67729,0.121496,2.633,3.12422
1.66022,0.11965,2.593,3.08128
1.66864,0.11965,2.593,3.08583
1.65248,0.117897,2.555,3.0451
1.64842,0.11702,2.536,3.02693
1.65665,0.11702,2.536,3.03142
1.65241,0.116143,2.517,3.01318
1.6487,0.115313,2.499,2.99608
1.65682,0.115313,2.499,3.00056
1.65293,0.114482,2.481,2.9834
1.64894,0.113652,2.463,2.96619
1.65693,0.113652,2.463,2.97064
1.66493,0.113652,2.463,2.97511
1.66069,0.112821,2.445,2.95781
-1.88487,0.134188,2.717,3.30951
-1.87605,0.134188,2.717,3.30449
-1.86723,0.134188,2.717,3.29949
-1.85842,0.134188,2.717,3.29451
-1.8496,0.134188,2.717,3.28955
-1.84078,0.134188,2.717,3.28459
-1.83196,0.134188,2.717,3.27966
-1.82314,0.134188,2.717,3.27474
-1.81432,0.134188,2.717,3.26984
-1.8055,0.134188,2.717,3.26496
-1.7828,0.133151,2.696,3.23489
-1.76023,0.132114,2.675,3.20492
-1.75155,0.132114,2.675,3.20016
-1.72918,0.131077,2.654,3.17033
-1.72057,0.131077,2.654,3.16564
-1.71195,0.131077,2.654,3.16096
-1.68986,0.13004,2.633,3.13133
-1.66854,0.129052,2.613,3.10298
-1.66006,0.129052,2.613,3.09842
-1.63894,0.128064,2.593,3.07021
-1.63052,0.128064,2.593,3.06572
-1.61022,0.127126,2.574,3.03882
-1.60187,0.127126,2.574,3.03441
-1.59351,0.127126,2.574,3.03
-1.59686,0.128064,2.593,3.04795
-1.60069,0.129052,2.613,3.06703
-1.59221,0.129052,2.613,3.06261
-1.57161,0.128064,2.593,3.0348
-1.56319,0.128064,2.593,3.03045
-1.55478,0.128064,2.593,3.02612
-1.54636,0.128064,2.593,3.0218
-1.53795,0.128064,2.593,3.0175
-1.52953,0.128064,2.593,3.01322
-1.52111,0.128064,2.593,3.00896
-1.50161,0.127126,2.574,2.9827
-1.49326,0.127126,2.574,2.9785
-1.4849,0.127126,2.574,2.97432
-1.45475,0.125249,2.536,2.92631
-1.44652,0.125249,2.536,2.92223
-1.43829,0.125249,2.536,2.91816
-1.43006,0.125249,2.536,2.91411
-1.41117,0.124311,2.517,2.88828
-1.403,0.124311,2.517,2.8843
-1.39483,0.124311,2.517,2.88033
-1.38666,0.124311,2.517,2.87638
-1.3785,0.124311,2.517,2.87245
-1.37033,0.124311,2.517,2.86854
-1.38272,0.126187,2.555,2.9079
-1.37443,0.126187,2.555,2.90396
-1.36614,0.126187,2.555,2.90005
-1.36794,0.127126,2.574,2.91769
-1.36962,0.128064,2.593,2.93529
-1.3717,0.129052,2.613,2.95398
-1.36322,0.129052,2.613,2.95005
-1.36511,0.13004,2.633,2.96869
-1.35656,0.13004,2.633,2.96477
-1.34802,0.13004,2.633,2.96087
-1.35016,0.131077,2.654,2.98057
-1.34154,0.131077,2.654,2.97668
-1.32238,0.13004,2.633,2.94929
-1.30385,0.129052,2.613,2.92309
-1.29537,0.129052,2.613,2.91932
-1.27704,0.128064,2.593,2.89325
-1.25933,0.127126,2.574,2.86837
-1.23251,0.125249,2.536,2.82242
-1.22428,0.125249,2.536,2.81884
-1.20693,0.124311,2.517,2.79418
-1.19019,0.123422,2.499,2.7707
-1.18208,0.123422,2.499,2.76723
-1.16551,0.122533,2.481,2.74387
-1.14906,0.121644,2.463,2.72057
-1.14107,0.121644,2.463,2.71721
-1.13308,0.121644,2.463,2.71386
-1.11686,0.120755,2.445,2.69072
-1.10892,0.120755,2.445,2.68744
-1.09333,0.119915,2.428,2.66551
-1.08545,0.119915,2.428,2.66229
-1.07757,0.119915,2.428,2.65908
-1.06969,0.119915,2.428,2.6559
-1.06181,0.119915,2.428,2.65273
-1.04655,0.119075,2.411,2.63104
-1.03872,0.119075,2.411,2.62794
-1.0309,0.119075,2.411,2.62485
-1.02307,0.119075,2.411,2.62179
-1.01525,0.119075,2.411,2.61875
-1.00742,0.119075,2.411,2.61572
-1.00664,0.119915,2.428,2.63114
-0.998763,0.119915,2.428,2.62813
-0.990883,0.119915,2.428,2.62515
-0.983002,0.119915,2.428,2.62219
-0.975121,0.119915,2.428,2.61924
-0.967241,0.119915,2.428,2.61632
-0.95936,0.119915,2.428,2.61341
-0.951479,0.119915,2.428,2.61053
-0.943599,0.119915,2.428,2.60767
-0.935718,0.119915,2.428,2.60483
-0.927837,0.119915,2.428,2.60201
-0.919957,0.119915,2.428,2.59921
-0.912076,0.119915,2.428,2.59643
-0.904195,0.119915,2.428,2.59367
-0.896315,0.119915,2.428,2.59093
-0.894654,0.120755,2.445,2.60634
-0.886718,0.120755,2.445,2.60363
-0.878783,0.120755,2.445,2.60094
-0.870847,0.120755,2.445,2.59827
-0.862911,0.120755,2.445,2.59562
-0.854975,0.120755,2.445,2.59299
-0.847039,0.120755,2.445,2.59038
-0.839103,0.120755,2.445,2.5878
-0.831167,0.120755,2.445,2.58524
-0.823232,0.120755,2.445,2.5827
-0.815296,0.120755,2.445,2.58018
-0.80736,0.120755,2.445,2.57768
-0.799424,0.120755,2.445,2.57521
-0.791488,0.120755,2.445,2.57275
-0.783552,0.120755,2.445,2.57032
-0.775616,0.120755,2.445,2.56792
-0.767681,0.120755,2.445,2.56553
-0.759745,0.120755,2.445,2.56317
-0.751809,0.120755,2.445,2.56082
-0.749349,0.121644,2.463,2.57734
-0.741355,0.121644,2.463,2.57503
-0.733361,0.121644,2.463,2.57274
-0.730668,0.122533,2.481,2.58926
-0.722615,0.122533,2.481,2.587
-0.714562,0.122533,2.481,2.58476
-0.706509,0.122533,2.481,2.58254
-0.703524,0.123422,2.499,2.59907
-0.695413,0.123422,2.499,2.59689
-0.687302,0.123422,2.499,2.59473
-0.679191,0.123422,2.499,2.59259
-0.67108,0.123422,2.499,2.59048
-0.662968,0.123422,2.499,2.58839
-0.654857,0.123422,2.499,2.58632
-0.646746,0.123422,2.499,2.58428
-0.634035,0.122533,2.481,2.56366
-0.621441,0.121644,2.463,2.5431
-0.613446,0.121644,2.463,2.54116
-0.605452,0.121644,2.463,2.53924
-0.597458,0.121644,2.463,2.53735
-0.589464,0.121644,2.463,2.53548
-0.581469,0.121644,2.463,2.53363
-0.573475,0.121644,2.463,2.53181
-0.561348,0.120755,2.445,2.51152
-0.553412,0.120755,2.445,2.50976
-0.545476,0.120755,2.445,2.50802
-0.53754,0.120755,2.445,2.5063
-0.529605,0.120755,2.445,2.50461
-0.521669,0.120755,2.445,2.50295
-0.513733,0.120755,2.445,2.50131
-0.505797,0.120755,2.445,2.49969
-0.497861,0.120755,2.445,2.49809
-0.489925,0.120755,2.445,2.49652
-0.481989,0.120755,2.445,2.49498
-0.474054,0.120755,2.445,2.49346
-0.469549,0.121644,2.463,2.51031
-0.461555,0.121644,2.463,2.50882
-0.453561,0.121644,2.463,2.50737
-0.445566,0.121644,2.463,2.50593
-0.437572,0.121644,2.463,2.50452
-0.432717,0.122533,2.481,2.52143
-0.424665,0.122533,2.481,2.52006
-0.416612,0.122533,2.481,2.51872
-0.411523,0.123422,2.499,2.53566
-0.403412,0.123422,2.499,2.53436
-0.395301,0.123422,2.499,2.53308
-0.389979,0.124311,2.517,2.55006
-0.381809,0.124311,2.517,2.54883
-0.37364,0.124311,2.517,2.54762
-0.368229,0.125249,2.536,2.56565
-0.359998,0.125249,2.536,2.56448
-0.351766,0.125249,2.536,2.56334
-0.343535,0.125249,2.536,2.56223
-0.335304,0.125249,2.536,2.56113
-0.327073,0.125249,2.536,2.56007
-0.318842,0.125249,2.536,2.55903
-0.31061,0.125249,2.536,2.55802
-0.302379,0.125249,2.536,2.55703
-0.294148,0.125249,2.536,2.55607
-0.285917,0.125249,2.536,2.55514
-0.277685,0.125249,2.536,2.55423
-0.269454,0.125249,2.536,2.55335
-0.261223,0.125249,2.536,2.55249
-0.252992,0.125249,2.536,2.55166
-0.242927,0.124311,2.517,2.53175
-0.234757,0.124311,2.517,2.53098
-0.226588,0.124311,2.517,2.53023
-0.218418,0.124311,2.517,2.52952
-0.208745,0.123422,2.499,2.51074
-0.200634,0.123422,2.499,2.51008
-0.192523,0.123422,2.499,2.50944
-0.184412,0.123422,2.499,2.50883
-0.1763,0.123422,2.499,2.50825
-0.168189,0.123422,2.499,2.50769
-0.160078,0.123422,2.499,2.50716
-0.151967,0.123422,2.499,2.50666
-0.143856,0.123422,2.499,2.50618
-0.135745,0.123422,2.499,2.50573
-0.127634,0.123422,2.499,2.5053
-0.119523,0.123422,2.499,2.5049
-0.111411,0.123422,2.499,2.50453
-0.1033,0.123422,2.499,2.50418
-0.0951891,0.123422,2.499,2.50386
-0.087078,0.123422,2.499,2.50356
-0.0789668,0.123422,2.499,2.50329
-0.0708557,0.123422,2.499,2.50305
-0.0627446,0.123422,2.499,2.50283
-0.0546334,0.123422,2.499,2.50264
-0.0465223,0.123422,2.499,2.50248
-0.0384112,0.123422,2.499,2.50234
-0.0303,0.123422,2.499,2.50223
-0.0221889,0.123422,2.499,2.50214
-0.0140778,0.123422,2.499,2.50209
-0.00600962,0.124311,2.517,2.52008
0.00215994,0.124311,2.517,2.52007
0.0102556,0.123422,2.499,2.50207
0.0183668,0.123422,2.499,2.50211
0.0264779,0.123422,2.499,2.50219
0.034589,0.123422,2.499,2.50229
0.0427002,0.123422,2.499,2.50241
0.0508113,0.123422,2.499,2.50256
0.0589224,0.123422,2.499,2.50274
0.0670336,0.123422,2.499,2.50294
0.0751447,0.123422,2.499,2.50317
0.0832558,0.123422,2.499,2.50343
0.0907089,0.122533,2.481,2.48568
0.0987616,0.122533,2.481,2.48599
0.106814,0.122533,2.481,2.48632
0.1157,0.123422,2.499,2.50472
0.123811,0.123422,2.499,2.50511
0.131923,0.123422,2.499,2.50552
0.140034,0.123422,2.499,2.50596
0.148145,0.123422,2.499,2.50643
0.156256,0.123422,2.499,2.50692
0.164367,0.123422,2.499,2.50744
0.172478,0.123422,2.499,2.50798
0.180589,0.123422,2.499,2.50855
0.187341,0.122533,2.481,2.49108
0.195394,0.122533,2.481,2.4917
0.203447,0.122533,2.481,2.49234
0.2115,0.122533,2.481,2.49301
0.219552,0.122533,2.481,2.49371
0.227605,0.122533,2.481,2.49443
0.235658,0.122533,2.481,2.49518
0.24371,0.122533,2.481,2.49595
0.251763,0.122533,2.481,2.49675
0.259816,0.122533,2.481,2.49758
0.267868,0.122533,2.481,2.49843
0.273919,0.121644,2.463,2.48117
0.281914,0.121644,2.463,2.48206
0.289908,0.121644,2.463,2.48298
0.297902,0.121644,2.463,2.48393
0.305896,0.121644,2.463,2.4849
0.313891,0.121644,2.463,2.4859
0.321885,0.121644,2.463,2.48692
0.329879,0.121644,2.463,2.48797
0.337874,0.121644,2.463,2.48904
0.345868,0.121644,2.463,2.49014
0.353862,0.121644,2.463,2.49126
0.361856,0.121644,2.463,2.49241
0.369851,0.121644,2.463,2.49358
0.377845,0.121644,2.463,2.49478
0.385839,0.121644,2.463,2.496
0.393834,0.121644,2.463,2.49725
0.401828,0.121644,2.463,2.49853
0.409822,0.121644,2.463,2.49982
0.417816,0.121644,2.463,2.50115
0.425811,0.121644,2.463,2.5025
0.433805,0.121644,2.463,2.50387
0.441799,0.121644,2.463,2.50526
0.449794,0.121644,2.463,2.50669
0.457788,0.121644,2.463,2.50813
0.465782,0.121644,2.463,2.50961
0.473776,0.121644,2.463,2.5111
0.481771,0.121644,2.463,2.51262
0.489765,0.121644,2.463,2.51417
0.497759,0.121644,2.463,2.51574
0.505754,0.121644,2.463,2.51733
0.517502,0.122533,2.481,2.53736
0.525555,0.122533,2.481,2.53901
0.529737,0.121644,2.463,2.52226
0.537731,0.121644,2.463,2.52395
0.545725,0.121644,2.463,2.52566
0.553719,0.121644,2.463,2.5274
0.561714,0.121644,2.463,2.52917
0.569708,0.121644,2.463,2.53096
0.577702,0.121644,2.463,2.53277
0.585697,0.121644,2.463,2.5346
0.593691,0.121644,2.463,2.53646
0.601685,0.121644,2.463,2.53834
0.609679,0.121644,2.463,2.54025
0.617674,0.121644,2.463,2.54218
0.621095,0.120755,2.445,2.52554
0.629031,0.120755,2.445,2.52751
0.636967,0.120755,2.445,2.52949
0.644903,0.120755,2.445,2.5315
0.652839,0.120755,2.445,2.53354
0.665639,0.121644,2.463,2.55426
0.673634,0.121644,2.463,2.55635
0.676647,0.120755,2.445,2.53978
0.684582,0.120755,2.445,2.5419
0.697617,0.121644,2.463,2.56278
0.705611,0.121644,2.463,2.56497
0.713605,0.121644,2.463,2.56718
0.721599,0.121644,2.463,2.56941
0.729594,0.121644,2.463,2.57167
0.737588,0.121644,2.463,2.57395
0.745582,0.121644,2.463,2.57625
0.753577,0.121644,2.463,2.57857
0.767137,0.122533,2.481,2.59978
0.775189,0.122533,2.481,2.60217
0.783242,0.122533,2.481,2.60458
0.791295,0.122533,2.481,2.60701
0.799347,0.122533,2.481,2.60947
0.8074,0.122533,2.481,2.61195
0.815453,0.122533,2.481,2.61445
0.823505,0.122533,2.481,2.61697
0.831558,0.122533,2.481,2.61952
0.839611,0.122533,2.481,2.62208
0.847664,0.122533,2.481,2.62467
0.861925,0.123422,2.499,2.64635
0.863769,0.122533,2.481,2.62992
0.871822,0.122533,2.481,2.63257
0.879874,0.122533,2.481,2.63525
0.887927,0.122533,2.481,2.63795
0.89598,0.122533,2.481,2.64067
0.904033,0.122533,2.481,2.64342
0.912085,0.122533,2.481,2.64618
0.920138,0.122533,2.481,2.64897
0.928191,0.122533,2.481,2.65178
0.936243,0.122533,2.481,2.65461
0.944296,0.122533,2.481,2.65746
0.952349,0.122533,2.481,2.66033
0.960401,0.122533,2.481,2.66322
0.961428,0.121644,2.463,2.64679
0.969422,0.121644,2.463,2.64971
0.977417,0.121644,2.463,2.65264
0.992612,0.122533,2.481,2.67501
1.00067,0.122533,2.481,2.678
1.00872,0.122533,2.481,2.68102
1.02415,0.123422,2.499,2.70354
1.03226,0.123422,2.499,2.70662
1.04037,0.123422,2.499,2.70972
1.05603,0.124311,2.517,2.73239
1.0642,0.124311,2.517,2.73556
1.07237,0.124311,2.517,2.73875
1.0887,0.125249,2.536,2.76265
1.09693,0.125249,2.536,2.76591
1.10516,0.125249,2.536,2.76918
1.12173,0.126187,2.555,2.79325
1.13003,0.126187,2.555,2.79659
1.13832,0.126187,2.555,2.79995
1.14661,0.126187,2.555,2.80333
1.16349,0.127126,2.574,2.82761
1.17185,0.127126,2.574,2.83105
1.1802,0.127126,2.574,2.83452
1.18856,0.127126,2.574,2.83801
1.19691,0.127126,2.574,2.84152
1.20527,0.127126,2.574,2.84505
1.21362,0.127126,2.574,2.8486
1.22198,0.127126,2.574,2.85217
1.23033,0.127126,2.574,2.85576
1.23868,0.127126,2.574,2.85937
1.24704,0.127126,2.574,2.863
1.25539,0.127126,2.574,2.86664
1.26375,0.127126,2.574,2.87031
1.2721,0.127126,2.574,2.874
1.28046,0.127126,2.574,2.87771
1.28881,0.127126,2.574,2.88144
1.29717,0.127126,2.574,2.88518
1.30552,0.127126,2.574,2.88895
1.33378,0.129052,2.613,2.93656
1.35254,0.13004,2.633,2.96293
1.38279,0.132114,2.675,3.01417
1.39148,0.132114,2.675,3.01816
1.43366,0.135275,2.739,3.09448
1.46572,0.137448,2.783,3.14838
1.47476,0.137448,2.783,3.1526
1.49605,0.138584,2.806,3.18292
1.54324,0.14209,2.877,3.26786
1.55258,0.14209,2.877,3.27228
1.58852,0.14451,2.926,3.33253
1.62587,0.147029,2.977,3.39523
1.64982,0.148313,3.003,3.42956
1.65957,0.148313,3.003,3.43426
1.68432,0.149647,3.03,3.4699
1.69416,0.149647,3.03,3.47469
1.70399,0.149647,3.03,3.47949
1.71383,0.149647,3.03,3.48432
1.72366,0.149647,3.03,3.48917
1.73349,0.149647,3.03,3.49404
1.74333,0.149647,3.03,3.49893
1.73754,0.148313,3.003,3.47262
1.74729,0.148313,3.003,3.4775
1.74182,0.147029,2.977,3.45226
1.73619,0.145745,2.951,3.42695
1.74577,0.145745,2.951,3.43181
1.74047,0.14451,2.926,3.40758
1.73502,0.143276,2.901,3.38329
1.74444,0.143276,2.901,3.38812
1.73934,0.14209,2.877,3.36491
1.7195,0.13972,2.829,3.31353
1.72869,0.13972,2.829,3.3183
1.72374,0.138584,2.806,3.29608
1.70506,0.136361,2.761,3.24791
1.71402,0.136361,2.761,3.25263
1.69552,0.134188,2.717,3.20545
1.69117,0.133151,2.696,3.18531
1.69992,0.133151,2.696,3.18996
1.68205,0.131077,2.654,3.14487
1.66455,0.129052,2.613,3.10083
1.66022,0.128064,2.593,3.08162
1.66864,0.128064,2.593,3.08616
1.65248,0.126187,2.555,3.04543
1.64842,0.125249,2.536,3.02726
1.65665,0.125249,2.536,3.03175
1.65241,0.124311,2.517,3.0135
1.6487,0.123422,2.499,2.99641
1.65682,0.123422,2.499,3.00088
1.65293,0.122533,2.481,2.98372
1.64894,0.121644,2.463,2.96651
1.65693,0.121644,2.463,2.97096
1.65276,0.120755,2.445,2.95368
1.64915,0.119915,2.428,2.93756
-1.8703,0.141899,2.696,3.28429
-1.86155,0.141899,2.696,3.27932
-1.8528,0.141899,2.696,3.27436
-1.84405,0.141899,2.696,3.26942
-1.8353,0.141899,2.696,3.26449
-1.82655,0.141899,2.696,3.25958
-1.8178,0.141899,2.696,3.25468
-1.80905,0.141899,2.696,3.2498
-1.8003,0.141899,2.696,3.24494
-1.79155,0.141899,2.696,3.24009
-1.76891,0.140794,2.675,3.21006
-1.74641,0.139689,2.654,3.18012
-1.7378,0.139689,2.654,3.1754
-1.72918,0.139689,2.654,3.17069
-1.70695,0.138583,2.633,3.14095
-1.69841,0.138583,2.633,3.13632
-1.67703,0.137531,2.613,3.10791
-1.66854,0.137531,2.613,3.10334
-1.66006,0.137531,2.613,3.09879
-1.63894,0.136478,2.593,3.07057
-1.61858,0.135478,2.574,3.04362
-1.59834,0.134478,2.555,3.01675
-1.59004,0.134478,2.555,3.01237
-1.58175,0.134478,2.555,3.008
-1.58516,0.135478,2.574,3.02598
-1.5768,0.135478,2.574,3.02161
-1.56845,0.135478,2.574,3.01726
-1.56009,0.135478,2.574,3.01293
-1.55174,0.135478,2.574,3.00861
-1.54339,0.135478,2.574,3.00431
-1.53503,0.135478,2.574,3.00003
-1.52668,0.135478,2.574,2.99576
-1.51832,0.135478,2.574,2.99151
-1.49882,0.134478,2.555,2.96523
-1.49053,0.134478,2.555,2.96104
-1.48224,0.134478,2.555,2.95688
-1.46298,0.133478,2.536,2.93077
-1.45475,0.133478,2.536,2.92667
-1.44652,0.133478,2.536,2.92259
-1.42751,0.132478,2.517,2.89666
-1.41934,0.132478,2.517,2.89264
-1.40108,0.13153,2.499,2.86798
-1.39297,0.13153,2.499,2.86403
-1.38486,0.13153,2.499,2.86009
-1.37675,0.13153,2.499,2.85618
-1.3785,0.132478,2.517,2.87282
-1.37033,0.132478,2.517,2.86891
-1.38272,0.134478,2.555,2.90827
-1.37443,0.134478,2.555,2.90434
-1.36614,0.134478,2.555,2.90042
-1.36794,0.135478,2.574,2.91806
-1.36962,0.136478,2.593,2.93567
-1.3717,0.137531,2.613,2.95436
-1.36322,0.137531,2.613,2.95043
-1.36511,0.138583,2.633,2.96908
-1.35656,0.138583,2.633,2.96516
-1.34802,0.138583,2.633,2.96126
-1.35016,0.139689,2.654,2.98096
-1.34154,0.139689,2.654,2.97707
-1.32238,0.138583,2.633,2.94968
-1.30385,0.137531,2.613,2.92348
-1.29537,0.137531,2.613,2.9197
-1.27704,0.136478,2.593,2.89363
-1.25933,0.135478,2.574,2.86875
-1.24174,0.134478,2.555,2.84395
-1.23345,0.134478,2.555,2.84034
-1.21605,0.133478,2.536,2.81565
-1.19876,0.132478,2.517,2.79104
-1.1906,0.132478,2.517,2.78754
-1.17397,0.13153,2.499,2.76415
-1.15746,0.130583,2.481,2.74083
-1.14941,0.130583,2.481,2.73744
-1.13308,0.129636,2.463,2.71423
-1.11686,0.128688,2.445,2.69109
-1.10892,0.128688,2.445,2.68781
-1.10099,0.128688,2.445,2.68454
-1.08545,0.127793,2.428,2.66265
-1.07757,0.127793,2.428,2.65945
-1.07718,0.128688,2.445,2.67486
-1.06181,0.127793,2.428,2.6531
-1.05393,0.127793,2.428,2.64996
-1.04605,0.127793,2.428,2.64683
-1.03817,0.127793,2.428,2.64373
-1.03029,0.127793,2.428,2.64065
-1.02241,0.127793,2.428,2.63758
-1.01452,0.127793,2.428,2.63454
-1.00664,0.127793,2.428,2.63151
-0.998763,0.127793,2.428,2.62851
-0.990883,0.127793,2.428,2.62552
-0.983002,0.127793,2.428,2.62256
-0.975121,0.127793,2.428,2.61961
-0.967241,0.127793,2.428,2.61669
-0.95936,0.127793,2.428,2.61379
-0.951479,0.127793,2.428,2.61091
-0.943599,0.127793,2.428,2.60804
-0.935718,0.127793,2.428,2.6052
-0.927837,0.127793,2.428,2.60238
-0.926398,0.128688,2.445,2.61779
-0.918462,0.128688,2.445,2.61499
-0.904195,0.127793,2.428,2.59405
-0.896315,0.127793,2.428,2.59131
-0.888434,0.127793,2.428,2.5886
-0.880553,0.127793,2.428,2.5859
-0.872672,0.127793,2.428,2.58323
-0.864792,0.127793,2.428,2.58058
-0.856911,0.127793,2.428,2.57795
-0.84903,0.127793,2.428,2.57534
-0.84115,0.127793,2.428,2.57275
-0.833269,0.127793,2.428,2.57019
-0.825388,0.127793,2.428,2.56764
-0.817508,0.127793,2.428,2.56512
-0.815296,0.128688,2.445,2.58056
-0.80736,0.128688,2.445,2.57806
-0.799424,0.128688,2.445,2.57559
-0.791488,0.128688,2.445,2.57314
-0.783552,0.128688,2.445,2.57071
-0.775616,0.128688,2.445,2.5683
-0.767681,0.128688,2.445,2.56592
-0.759745,0.128688,2.445,2.56355
-0.751809,0.128688,2.445,2.56121
-0.749349,0.129636,2.463,2.57773
-0.741355,0.129636,2.463,2.57542
-0.733361,0.129636,2.463,2.57313
-0.730668,0.130583,2.481,2.58965
-0.722615,0.130583,2.481,2.58739
-0.714562,0.130583,2.481,2.58515
-0.706509,0.130583,2.481,2.58294
-0.703524,0.13153,2.499,2.59947
-0.695413,0.13153,2.499,2.59729
-0.687302,0.13153,2.499,2.59513
-0.679191,0.13153,2.499,2.59299
-0.67108,0.13153,2.499,2.59088
-0.662968,0.13153,2.499,2.58879
-0.654857,0.13153,2.499,2.58672
-0.646746,0.13153,2.499,2.58468
-0.634035,0.130583,2.481,2.56406
-0.621441,0.129636,2.463,2.54349
-0.613446,0.129636,2.463,2.54155
-0.605452,0.129636,2.463,2.53964
-0.597458,0.129636,2.463,2.53774
-0.589464,0.129636,2.463,2.53587
-0.581469,0.129636,2.463,2.53402
-0.573475,0.129636,2.463,2.5322
-0.561348,0.128688,2.445,2.51191
-0.553412,0.128688,2.445,2.51015
-0.545476,0.128688,2.445,2.50841
-0.53754,0.128688,2.445,2.5067
-0.529605,0.128688,2.445,2.50501
-0.521669,0.128688,2.445,2.50334
-0.513733,0.128688,2.445,2.5017
-0.505797,0.128688,2.445,2.50008
-0.497861,0.128688,2.445,2.49849
-0.489925,0.128688,2.445,2.49692
-0.481989,0.128688,2.445,2.49538
-0.474054,0.128688,2.445,2.49386
-0.466118,0.128688,2.445,2.49236
-0.458182,0.128688,2.445,2.49089
-0.453561,0.129636,2.463,2.50777
-0.445566,0.129636,2.463,2.50633
-0.437572,0.129636,2.463,2.50492
-0.429578,0.129636,2.463,2.50354
-0.421584,0.129636,2.463,2.50218
-0.416612,0.130583,2.481,2.51912
-0.408559,0.130583,2.481,2.5178
-0.400506,0.130583,2.481,2.51651
-0.395301,0.13153,2.499,2.53349
-0.38719,0.13153,2.499,2.53224
-0.381809,0.132478,2.517,2.54924
-0.37364,0.132478,2.517,2.54803
-0.36547,0.132478,2.517,2.54684
-0.359998,0.133478,2.536,2.5649
-0.351766,0.133478,2.536,2.56376
-0.343535,0.133478,2.536,2.56264
-0.335304,0.133478,2.536,2.56155
-0.327073,0.133478,2.536,2.56049
-0.318842,0.133478,2.536,2.55945
-0.31061,0.133478,2.536,2.55844
-0.304645,0.134478,2.555,2.57661
-0.296352,0.134478,2.555,2.57564
-0.288059,0.134478,2.555,2.5747
-0.279766,0.134478,2.555,2.57379
-0.269454,0.133478,2.536,2.55377
-0.261223,0.133478,2.536,2.55291
-0.252992,0.133478,2.536,2.55208
-0.244761,0.133478,2.536,2.55128
-0.234757,0.132478,2.517,2.53139
-0.226588,0.132478,2.517,2.53065
-0.218418,0.132478,2.517,2.52993
-0.210249,0.132478,2.517,2.52924
-0.202079,0.132478,2.517,2.52857
-0.193909,0.132478,2.517,2.52793
-0.184412,0.13153,2.499,2.50924
-0.1763,0.13153,2.499,2.50866
-0.168189,0.13153,2.499,2.5081
-0.160078,0.13153,2.499,2.50757
-0.151967,0.13153,2.499,2.50707
-0.143856,0.13153,2.499,2.50659
-0.135745,0.13153,2.499,2.50614
-0.127634,0.13153,2.499,2.50571
-0.119523,0.13153,2.499,2.50531
-0.112214,0.132478,2.517,2.52298
-0.104044,0.132478,2.517,2.52263
-0.0958747,0.132478,2.517,2.52231
-0.0877052,0.132478,2.517,2.52201
-0.0795356,0.132478,2.517,2.52174
-0.0713661,0.132478,2.517,2.52149
-0.0631965,0.132478,2.517,2.52128
-0.0546334,0.13153,2.499,2.50306
-0.0465223,0.13153,2.499,2.50289
-0.0384112,0.13153,2.499,2.50275
-0.0303,0.13153,2.499,2.50264
-0.0221889,0.13153,2.499,2.50256
-0.0140778,0.13153,2.499,2.5025
-0.00596664,0.13153,2.499,2.50247
0.00214449,0.13153,2.499,2.50246
0.0102556,0.13153,2.499,2.50248
0.0183668,0.13153,2.499,2.50253
0.0264779,0.13153,2.499,2.5026
0.034589,0.13153,2.499,2.5027
0.0427002,0.13153,2.499,2.50282
0.0508113,0.13153,2.499,2.50297
0.0589224,0.13153,2.499,2.50315
0.0670336,0.13153,2.499,2.50336
0.0751447,0.13153,2.499,2.50359
0.0832558,0.13153,2.499,2.50384
0.091367,0.13153,2.499,2.50413
0.0994781,0.13153,2.499,2.50444
0.107589,0.13153,2.499,2.50477
0.1157,0.13153,2.499,2.50513
0.123811,0.13153,2.499,2.50552
0.131923,0.13153,2.499,2.50593
0.140034,0.13153,2.499,2.50637
0.148145,0.13153,2.499,2.50684
0.156256,0.13153,2.499,2.50733
0.164367,0.13153,2.499,2.50785
0.172478,0.13153,2.499,2.5084
0.180589,0.13153,2.499,2.50897
0.187341,0.130583,2.481,2.49149
0.195394,0.130583,2.481,2.49211
0.203447,0.130583,2.481,2.49275
0.2115,0.130583,2.481,2.49342
0.219552,0.130583,2.481,2.49412
0.227605,0.130583,2.481,2.49484
0.235658,0.130583,2.481,2.49559
0.24371,0.130583,2.481,2.49636
0.251763,0.130583,2.481,2.49716
0.259816,0.130583,2.481,2.49798
0.267868,0.130583,2.481,2.49883
0.273919,0.129636,2.463,2.48157
0.281914,0.129636,2.463,2.48247
0.289908,0.129636,2.463,2.48339
0.297902,0.129636,2.463,2.48433
0.305896,0.129636,2.463,2.48531
0.313891,0.129636,2.463,2.4863
0.321885,0.129636,2.463,2.48732
0.329879,0.129636,2.463,2.48837
0.337874,0.129636,2.463,2.48944
0.345868,0.129636,2.463,2.49054
0.353862,0.129636,2.463,2.49166
0.361856,0.129636,2.463,2.49281
0.369851,0.129636,2.463,2.49399
0.377845,0.129636,2.463,2.49518
0.385839,0.129636,2.463,2.49641
0.393834,0.129636,2.463,2.49765
0.401828,0.129636,2.463,2.49893
0.409822,0.129636,2.463,2.50023
0.417816,0.129636,2.463,2.50155
0.425811,0.129636,2.463,2.5029
0.433805,0.129636,2.463,2.50427
0.441799,0.129636,2.463,2.50567
0.449794,0.129636,2.463,2.50709
0.457788,0.129636,2.463,2.50853
0.465782,0.129636,2.463,2.51001
0.473776,0.129636,2.463,2.5115
0.481771,0.129636,2.463,2.51302
0.489765,0.129636,2.463,2.51457
0.497759,0.129636,2.463,2.51614
0.505754,0.129636,2.463,2.51773
0.517502,0.130583,2.481,2.53776
0.525555,0.130583,2.481,2.53941
0.529737,0.129636,2.463,2.52266
0.537731,0.129636,2.463,2.52435
0.545725,0.129636,2.463,2.52606
0.553719,0.129636,2.463,2.5278
0.561714,0.129636,2.463,2.52956
0.569708,0.129636,2.463,2.53135
0.577702,0.129636,2.463,2.53316
0.585697,0.129636,2.463,2.535
0.593691,0.129636,2.463,2.53686
0.597288,0.128688,2.445,2.52019
0.605224,0.128688,2.445,2.52208
0.61316,0.128688,2.445,2.524
0.621095,0.128688,2.445,2.52593
0.624658,0.127793,2.428,2.51032
0.632538,0.127793,2.428,2.51229
0.640419,0.127793,2.428,2.51429
0.6483,0.127793,2.428,2.51631
0.65618,0.127793,2.428,2.51835
0.664061,0.127793,2.428,2.52042
0.671942,0.127793,2.428,2.5225
0.684582,0.128688,2.445,2.54229
0.692518,0.128688,2.445,2.54444
0.700454,0.128688,2.445,2.54661
0.70839,0.128688,2.445,2.5488
0.716326,0.128688,2.445,2.55102
0.724262,0.128688,2.445,2.55326
0.737588,0.129636,2.463,2.57434
0.745582,0.129636,2.463,2.57664
0.753577,0.129636,2.463,2.57896
0.767137,0.130583,2.481,2.60018
0.775189,0.130583,2.481,2.60256
0.783242,0.130583,2.481,2.60497
0.791295,0.130583,2.481,2.6074
0.799347,0.130583,2.481,2.60986
0.8074,0.130583,2.481,2.61234
0.815453,0.130583,2.481,2.61484
0.823505,0.130583,2.481,2.61736
0.831558,0.130583,2.481,2.61991
0.839611,0.130583,2.481,2.62247
0.847664,0.130583,2.481,2.62506
0.855716,0.130583,2.481,2.62767
0.863769,0.130583,2.481,2.63031
0.871822,0.130583,2.481,2.63296
0.879874,0.130583,2.481,2.63564
0.887927,0.130583,2.481,2.63834
0.89598,0.130583,2.481,2.64106
0.904033,0.130583,2.481,2.6438
0.912085,0.130583,2.481,2.64657
0.913462,0.129636,2.463,2.63013
0.921457,0.129636,2.463,2.63292
0.929451,0.129636,2.463,2.63573
0.937445,0.129636,2.463,2.63856
0.945439,0.129636,2.463,2.64141
0.953434,0.129636,2.463,2.64428
0.961428,0.129636,2.463,2.64717
0.969422,0.129636,2.463,2.65009
0.977417,0.129636,2.463,2.65302
0.985411,0.129636,2.463,2.65598
0.993405,0.129636,2.463,2.65895
1.00872,0.130583,2.481,2.6814
1.01677,0.130583,2.481,2.68444
1.02482,0.130583,2.481,2.6875
1.04037,0.13153,2.499,2.71011
1.04848,0.13153,2.499,2.71323
1.05659,0.13153,2.499,2.71637
1.07237,0.132478,2.517,2.73913
1.08054,0.132478,2.517,2.74234
1.08871,0.132478,2.517,2.74557
1.10516,0.133478,2.536,2.76957
1.11339,0.133478,2.536,2.77286
1.13003,0.134478,2.555,2.79697
1.13832,0.134478,2.555,2.80034
1.14661,0.134478,2.555,2.80372
1.1549,0.134478,2.555,2.80712
1.1632,0.134478,2.555,2.81054
1.17149,0.134478,2.555,2.81398
1.17978,0.134478,2.555,2.81745
1.18808,0.134478,2.555,2.82093
1.19637,0.134478,2.555,2.82443
1.20466,0.134478,2.555,2.82795
1.21296,0.134478,2.555,2.8315
1.22125,0.134478,2.555,2.83506
1.22954,0.134478,2.555,2.83864
1.23783,0.134478,2.555,2.84224
1.24613,0.134478,2.555,2.84586
1.25442,0.134478,2.555,2.8495
1.26271,0.134478,2.555,2.85317
1.27101,0.134478,2.555,2.85685
1.2793,0.134478,2.555,2.86054
1.28759,0.134478,2.555,2.86426
1.29588,0.134478,2.555,2.868
1.31388,0.135478,2.574,2.89311
1.34226,0.137531,2.613,2.94081
1.36108,0.138583,2.633,2.96723
1.36963,0.138583,2.633,2.97116
1.40016,0.140794,2.675,3.02256
1.44255,0.144162,2.739,3.09901
1.45144,0.144162,2.739,3.10316
1.48379,0.146478,2.783,3.15724
1.50516,0.147689,2.806,3.18762
1.51427,0.147689,2.806,3.19194
1.56192,0.151426,2.877,3.27714
1.59802,0.154005,2.926,3.33749
1.62125,0.155321,2.951,3.37061
1.63083,0.155321,2.951,3.37522
1.66931,0.158058,3.003,3.43942
1.67906,0.158058,3.003,3.44416
1.68881,0.158058,3.003,3.44892
1.69855,0.158058,3.003,3.4537
1.7083,0.158058,3.003,3.45851
1.71805,0.158058,3.003,3.46333
1.72779,0.158058,3.003,3.46818
1.7225,0.156689,2.977,3.44298
1.73216,0.156689,2.977,3.44782
1.72661,0.155321,2.951,3.42253
1.73619,0.155321,2.951,3.42737
1.74577,0.155321,2.951,3.43223
1.74047,0.154005,2.926,3.408
1.73502,0.152689,2.901,3.3837
1.74444,0.152689,2.901,3.38854
1.72483,0.150163,2.853,3.33725
1.7195,0.148899,2.829,3.31393
1.72869,0.148899,2.829,3.3187
1.70961,0.146478,2.783,3.26945
1.69147,0.144162,2.739,3.22242
1.70036,0.144162,2.739,3.22709
1.69552,0.143004,2.717,3.20583
1.678,0.140794,2.675,3.16087
1.68668,0.140794,2.675,3.16549
1.66874,0.138583,2.633,3.12035
1.66455,0.137531,2.613,3.10119
1.66022,0.136478,2.593,3.08198
1.66864,0.136478,2.593,3.08652
1.65248,0.134478,2.555,3.04578
1.64842,0.133478,2.536,3.02761
1.65665,0.133478,2.536,3.0321
1.65241,0.132478,2.517,3.01385
1.6487,0.13153,2.499,2.99675
1.65682,0.13153,2.499,3.00122
1.65293,0.130583,2.481,2.98406
1.64894,0.129636,2.463,2.96684
1.65693,0.129636,2.463,2.9713
1.65276,0.128688,2.445,2.95401
1.64915,0.127793,2.428,2.93789
-1.8703,0.150647,2.696,3.28468
-1.86155,0.150647,2.696,3.27971
-1.8528,0.150647,2.696,3.27475
-1.84405,0.150647,2.696,3.26981
-1.8353,0.150647,2.696,3.26488
-1.82655,0.150647,2.696,3.25997
-1.8178,0.150647,2.696,3.25507
-1.80905,0.150647,2.696,3.2502
-1.8003,0.150647,2.696,3.24533
-1.79155,0.150647,2.696,3.24049
-1.76891,0.149474,2.675,3.21045
-1.74641,0.1483,2.654,3.18051
-1.7378,0.1483,2.654,3.17579
-1.72918,0.1483,2.654,3.17108
-1.70695,0.147127,2.633,3.14134
-1.69841,0.147127,2.633,3.13671
-1.67703,0.146009,2.613,3.1083
-1.66854,0.146009,2.613,3.10373
-1.66006,0.146009,2.613,3.09918
-1.63894,0.144892,2.593,3.07096
-1.61858,0.14383,2.574,3.044
-1.59834,0.142768,2.555,3.01713
-1.59004,0.142768,2.555,3.01275
-1.58175,0.142768,2.555,3.00838
-1.58516,0.14383,2.574,3.02637
-1.5768,0.14383,2.574,3.022
-1.56845,0.14383,2.574,3.01765
-1.56009,0.14383,2.574,3.01331
-1.55174,0.14383,2.574,3.009
-1.54339,0.14383,2.574,3.0047
-1.53503,0.14383,2.574,3.00041
-1.52668,0.14383,2.574,2.99615
-1.51832,0.14383,2.574,2.9919
-1.49882,0.142768,2.555,2.96562
-1.49053,0.142768,2.555,2.96143
-1.48224,0.142768,2.555,2.95727
-1.46298,0.141707,2.536,2.93116
-1.45475,0.141707,2.536,2.92706
-1.44652,0.141707,2.536,2.92298
-1.42751,0.140645,2.517,2.89704
-1.41934,0.140645,2.517,2.89303
-1.40108,0.139639,2.499,2.86837
-1.39297,0.139639,2.499,2.86441
-1.38486,0.139639,2.499,2.86048
-1.37675,0.139639,2.499,2.85656
-1.3785,0.140645,2.517,2.87321
-1.37033,0.140645,2.517,2.8693
-1.37244,0.141707,2.536,2.88703
-1.37443,0.142768,2.555,2.90473
-1.36614,0.142768,2.555,2.90082
-1.35784,0.142768,2.555,2.89692
-1.35959,0.14383,2.574,2.91456
-1.3612,0.144892,2.593,2.93215
-1.35279,0.144892,2.593,2.92826
-1.36511,0.147127,2.633,2.96949
-1.35656,0.147127,2.633,2.96557
-1.34802,0.147127,2.633,2.96167
-1.35016,0.1483,2.654,2.98138
-1.34154,0.1483,2.654,2.97749
-1.32238,0.147127,2.633,2.95009
-1.30385,0.146009,2.613,2.92389
-1.29537,0.146009,2.613,2.92012
-1.27704,0.144892,2.593,2.89404
-1.25933,0.14383,2.574,2.86916
-1.24174,0.142768,2.555,2.84435
-1.23345,0.142768,2.555,2.84074
-1.21605,0.141707,2.536,2.81605
-1.19876,0.140645,2.517,2.79143
-1.1906,0.140645,2.517,2.78794
-1.17397,0.139639,2.499,2.76454
-1.15746,0.138633,2.481,2.74122
