1.84723,-1.18601,3.423,4.06642
1.89635,-1.21026,3.493,4.15475
1.90768,-1.21026,3.493,4.15993
1.91902,-1.21026,3.493,4.16514
1.95025,-1.22273,3.529,4.21336
1.98227,-1.23555,3.566,4.26291
1.99385,-1.23555,3.566,4.2683
2.00542,-1.23555,3.566,4.27372
2.03849,-1.24872,3.604,4.32476
2.05019,-1.24872,3.604,4.33029
2.06189,-1.24872,3.604,4.33584
2.07358,-1.24872,3.604,4.34141
2.08528,-1.24872,3.604,4.34701
2.09698,-1.24872,3.604,4.35264
2.10868,-1.24872,3.604,4.35828
2.12037,-1.24872,3.604,4.36396
2.10959,-1.23555,3.566,4.32358
2.09916,-1.22273,3.529,4.28432
2.11061,-1.22273,3.529,4.28994
2.07937,-1.19813,3.458,4.20917
2.06944,-1.18601,3.423,4.17206
2.08055,-1.18601,3.423,4.17758
2.07088,-1.17423,3.389,4.14158
2.06161,-1.16279,3.356,4.10671
2.0725,-1.16279,3.356,4.11219
2.0238,-1.12953,3.26,3.9999
1.97821,-1.09835,3.17,3.89469
1.9885,-1.09835,3.17,3.89992
1.92754,-1.05919,3.057,3.76597
1.93746,-1.05919,3.057,3.77106
nan,nan,nan,NaN
1.87343,-1.01381,2.926,3.61926
1.8514,-0.996828,2.877,3.56349
1.84521,-0.988512,2.853,3.53858
1.85447,-0.988512,2.853,3.54342
1.83303,-0.972228,2.806,3.48982
1.84214,-0.972228,2.806,3.49462
1.85125,-0.972228,2.806,3.49943
1.84511,-0.964258,2.783,3.47553
1.85414,-0.964258,2.783,3.48033
1.86317,-0.964258,2.783,3.48515
1.8722,-0.964258,2.783,3.48999
1.86637,-0.956636,2.761,3.46722
1.87533,-0.956636,2.761,3.47205
-2.35106,-1.16323,3.389,4.28555
-2.31727,-1.1519,3.356,4.23785
-2.28439,-1.14092,3.324,4.19155
-2.2736,-1.14092,3.324,4.18568
-2.24103,-1.12994,3.292,4.13959
-2.23034,-1.12994,3.292,4.13382
-2.21966,-1.12994,3.292,4.12806
-2.20897,-1.12994,3.292,4.12233
-2.19829,-1.12994,3.292,4.11661
-2.1876,-1.12994,3.292,4.11092
-2.17692,-1.12994,3.292,4.10524
-2.16623,-1.12994,3.292,4.09958
-2.15555,-1.12994,3.292,4.09395
-2.14486,-1.12994,3.292,4.08833
-2.13418,-1.12994,3.292,4.08274
-2.12349,-1.12994,3.292,4.07716
-2.13335,-1.14092,3.324,4.11118
-2.12256,-1.14092,3.324,4.1056
-2.11177,-1.14092,3.324,4.10003
-2.10098,-1.14092,3.324,4.09448
-2.09019,-1.14092,3.324,4.08896
-2.0794,-1.14092,3.324,4.08345
-2.06861,-1.14092,3.324,4.07797
-2.05782,-1.14092,3.324,4.07251
-2.02733,-1.12994,3.292,4.02791
-2.01664,-1.12994,3.292,4.02254
-2.00596,-1.12994,3.292,4.0172
-1.99527,-1.12994,3.292,4.01187
-1.98459,-1.12994,3.292,4.00657
nan,nan,nan,NaN
nan,nan,nan,NaN
nan,nan,nan,NaN
nan,nan,nan,NaN
nan,nan,nan,NaN
nan,nan,nan,NaN
nan,nan,nan,NaN
nan,nan,nan,NaN
nan,nan,nan,NaN
nan,nan,nan,NaN
nan,nan,nan,NaN
nan,nan,nan,NaN
nan,nan,nan,NaN
nan,nan,nan,NaN
nan,nan,nan,NaN
nan,nan,nan,NaN
nan,nan,nan,NaN
nan,nan,nan,NaN
nan,nan,nan,NaN
nan,nan,nan,NaN
nan,nan,nan,NaN
nan,nan,nan,NaN
nan,nan,nan,NaN
nan,nan,nan,NaN
nan,nan,nan,NaN
nan,nan,nan,NaN
nan,nan,nan,NaN
nan,nan,nan,NaN
nan,nan,nan,NaN
nan,nan,nan,NaN
nan,nan,nan,NaN
-1.23799,-0.851571,2.481,2.90054
-1.22994,-0.851571,2.481,2.89712
-1.22188,-0.851571,2.481,2.89371
-1.21383,-0.851571,2.481,2.89031
-1.20578,-0.851571,2.481,2.88694
-1.20641,-0.857749,2.499,2.90451
-1.1983,-0.857749,2.499,2.90115
-1.19019,-0.857749,2.499,2.89781
-1.1906,-0.863927,2.517,2.91533
-1.18243,-0.863927,2.517,2.91201
-1.17426,-0.863927,2.517,2.9087
-1.16609,-0.863927,2.517,2.90541
-1.15792,-0.863927,2.517,2.90214
-1.14975,-0.863927,2.517,2.89889
-1.1502,-0.870449,2.536,2.91752
-1.16763,-0.890013,2.593,2.97979
-1.15922,-0.890013,2.593,2.9765
-1.17787,-0.910951,2.654,3.04318
-1.16926,-0.910951,2.654,3.03985
-1.16064,-0.910951,2.654,3.03655
-1.15203,-0.910951,2.654,3.03327
-1.16151,-0.925366,2.696,3.07796
-1.16174,-0.932574,2.717,3.09862
-1.15292,-0.932574,2.717,3.09532
-1.1441,-0.932574,2.717,3.09205
-1.14447,-0.940126,2.739,3.1138
-1.13558,-0.940126,2.739,3.11055
-1.11764,-0.932574,2.717,3.08236
-1.10883,-0.932574,2.717,3.07917
-1.10001,-0.932574,2.717,3.076
-1.09119,-0.932574,2.717,3.07286
-1.08237,-0.932574,2.717,3.06974
-1.07355,-0.932574,2.717,3.06664
-1.06473,-0.932574,2.717,3.06357
-1.05591,-0.932574,2.717,3.06051
-1.04709,-0.932574,2.717,3.05748
-1.03025,-0.925366,2.696,3.03086
-1.00559,-0.910951,2.654,2.98073
-0.989084,-0.903743,2.633,2.95427
-0.980538,-0.903743,2.633,2.95142
-0.964609,-0.896878,2.613,2.9262
-0.956128,-0.896878,2.613,2.92341
-0.947646,-0.896878,2.613,2.92065
-0.931977,-0.890013,2.593,2.89558
-0.916793,-0.883492,2.574,2.87168
-0.908439,-0.883492,2.574,2.86902
-0.900084,-0.883492,2.574,2.86639
-0.878565,-0.870449,2.536,2.8215
-0.870334,-0.870449,2.536,2.81895
-0.862103,-0.870449,2.536,2.81642
-0.853871,-0.870449,2.536,2.81391
-0.84564,-0.870449,2.536,2.81142
-0.837409,-0.870449,2.536,2.80896
-0.829178,-0.870449,2.536,2.80651
-0.827097,-0.87697,2.555,2.8251
-0.818804,-0.87697,2.555,2.82268
-0.810511,-0.87697,2.555,2.82029
-0.802218,-0.87697,2.555,2.81792
-0.799829,-0.883492,2.574,2.83651
-0.791475,-0.883492,2.574,2.83416
-0.788901,-0.890013,2.593,2.85274
-0.786505,-0.896878,2.613,2.87241
-0.783978,-0.903743,2.633,2.89207
-0.775432,-0.903743,2.633,2.88976
-0.773003,-0.910951,2.654,2.91051
-0.770437,-0.918159,2.675,2.93125
-0.761754,-0.918159,2.675,2.92898
-0.753072,-0.918159,2.675,2.92673
-0.74439,-0.918159,2.675,2.92451
-0.735707,-0.918159,2.675,2.92231
-0.73844,-0.932574,2.717,2.96599
-0.729621,-0.932574,2.717,2.9638
-0.720802,-0.932574,2.717,2.96165
-0.711984,-0.932574,2.717,2.95951
-0.69773,-0.925366,2.696,2.93454
-0.68898,-0.925366,2.696,2.93248
-0.674931,-0.918159,2.675,2.90761
-0.661018,-0.910951,2.654,2.88279
-0.652404,-0.910951,2.654,2.88083
-0.638695,-0.903743,2.633,2.85611
-0.625363,-0.896878,2.613,2.83253
-0.616882,-0.896878,2.613,2.83067
-0.603744,-0.890013,2.593,2.80718
-0.586603,-0.87697,2.555,2.76427
-0.57831,-0.87697,2.555,2.76252
-0.570017,-0.87697,2.555,2.7608
-0.557547,-0.870449,2.536,2.73858
-0.5452,-0.863927,2.517,2.71641
-0.537031,-0.863927,2.517,2.71479
-0.528861,-0.863927,2.517,2.71318
-0.520692,-0.863927,2.517,2.7116
-0.512522,-0.863927,2.517,2.71004
-0.500746,-0.857749,2.499,2.68914
-0.492635,-0.857749,2.499,2.68764
-0.484524,-0.857749,2.499,2.68617
-0.476412,-0.857749,2.499,2.68472
-0.464928,-0.851571,2.481,2.66396
-0.456875,-0.851571,2.481,2.66257
-0.448823,-0.851571,2.481,2.6612
-0.44077,-0.851571,2.481,2.65985
-0.432717,-0.851571,2.481,2.65853
-0.424665,-0.851571,2.481,2.65723
-0.416612,-0.851571,2.481,2.65596
-0.408559,-0.851571,2.481,2.6547
-0.400506,-0.851571,2.481,2.65348
-0.392454,-0.851571,2.481,2.65227
-0.38719,-0.857749,2.499,2.67033
-0.379079,-0.857749,2.499,2.66916
-0.370968,-0.857749,2.499,2.66802
-0.362857,-0.857749,2.499,2.66691
-0.357301,-0.863927,2.517,2.68502
-0.349131,-0.863927,2.517,2.68394
-0.340961,-0.863927,2.517,2.68289
-0.332792,-0.863927,2.517,2.68187
-0.327073,-0.870449,2.536,2.7011
-0.318842,-0.870449,2.536,2.70012
-0.31061,-0.870449,2.536,2.69916
-0.302379,-0.870449,2.536,2.69822
-0.294148,-0.870449,2.536,2.69731
-0.283775,-0.863927,2.517,2.67623
-0.275605,-0.863927,2.517,2.67537
-0.267435,-0.863927,2.517,2.67454
-0.259266,-0.863927,2.517,2.67374
-0.249301,-0.857749,2.499,2.65384
-0.24119,-0.857749,2.499,2.65309
-0.233078,-0.857749,2.499,2.65237
-0.224967,-0.857749,2.499,2.65167
-0.216856,-0.857749,2.499,2.65099
-0.208745,-0.857749,2.499,2.65034
-0.200634,-0.857749,2.499,2.64971
-0.191136,-0.851571,2.481,2.63003
-0.183083,-0.851571,2.481,2.62946
-0.175031,-0.851571,2.481,2.62891
-0.166978,-0.851571,2.481,2.62839
-0.160078,-0.857749,2.499,2.64695
-0.151967,-0.857749,2.499,2.64647
-0.143856,-0.857749,2.499,2.64602
-0.135745,-0.857749,2.499,2.64559
-0.127634,-0.857749,2.499,2.64519
-0.120383,-0.863927,2.517,2.66386
-0.112214,-0.863927,2.517,2.6635
-0.10483,-0.870449,2.536,2.68328
-0.0965985,-0.870449,2.536,2.68297
-0.0883672,-0.870449,2.536,2.68268
-0.0807364,-0.87697,2.555,2.70252
-0.0724435,-0.87697,2.555,2.70229
-0.0641506,-0.87697,2.555,2.70208
-0.0558577,-0.87697,2.555,2.70189
-0.0475648,-0.87697,2.555,2.70173
-0.039564,-0.883492,2.574,2.72169
-0.0312094,-0.883492,2.574,2.72158
-0.0228548,-0.883492,2.574,2.7215
-0.0145003,-0.883492,2.574,2.72144
-0.00614571,-0.883492,2.574,2.72141
0.00220886,-0.883492,2.574,2.7214
0.0105634,-0.883492,2.574,2.72142
0.018918,-0.883492,2.574,2.72147
0.0272725,-0.883492,2.574,2.72154
0.0356271,-0.883492,2.574,2.72164
0.0439817,-0.883492,2.574,2.72176
0.0523362,-0.883492,2.574,2.72191
0.0606908,-0.883492,2.574,2.72208
0.0690454,-0.883492,2.574,2.72228
0.0779713,-0.890013,2.593,2.7426
0.0863875,-0.890013,2.593,2.74285
0.0941091,-0.883492,2.574,2.72303
0.102464,-0.883492,2.574,2.72333
0.111636,-0.890013,2.593,2.74376
0.120052,-0.890013,2.593,2.74412
0.128469,-0.890013,2.593,2.7445
0.136885,-0.890013,2.593,2.74491
0.145301,-0.890013,2.593,2.74534
0.153717,-0.890013,2.593,2.7458
0.162134,-0.890013,2.593,2.74628
0.17055,-0.890013,2.593,2.74679
0.178966,-0.890013,2.593,2.74733
0.187382,-0.890013,2.593,2.74789
0.195799,-0.890013,2.593,2.74847
0.204215,-0.890013,2.593,2.74909
0.212631,-0.890013,2.593,2.74972
0.221047,-0.890013,2.593,2.75039
0.229463,-0.890013,2.593,2.75108
0.23788,-0.890013,2.593,2.75179
0.246296,-0.890013,2.593,2.75253
0.252846,-0.883492,2.574,2.73312
0.2612,-0.883492,2.574,2.73391
0.269555,-0.883492,2.574,2.73472
0.27791,-0.883492,2.574,2.73556
0.286264,-0.883492,2.574,2.73642
0.294619,-0.883492,2.574,2.7373
0.302973,-0.883492,2.574,2.73822
0.311328,-0.883492,2.574,2.73915
0.319682,-0.883492,2.574,2.74012
0.328037,-0.883492,2.574,2.7411
0.336391,-0.883492,2.574,2.74211
0.344746,-0.883492,2.574,2.74315
0.353101,-0.883492,2.574,2.74421
0.364123,-0.890013,2.593,2.76557
0.372539,-0.890013,2.593,2.76669
0.380956,-0.890013,2.593,2.76783
0.389372,-0.890013,2.593,2.769
0.397788,-0.890013,2.593,2.7702
0.406204,-0.890013,2.593,2.77142
0.417819,-0.896878,2.613,2.79405
0.4263,-0.896878,2.613,2.79533
0.434781,-0.896878,2.613,2.79664
0.443262,-0.896878,2.613,2.79797
0.451743,-0.896878,2.613,2.79933
0.460224,-0.896878,2.613,2.80071
0.468706,-0.896878,2.613,2.80211
0.480839,-0.903743,2.633,2.825
0.485668,-0.896878,2.613,2.805
0.494149,-0.896878,2.613,2.80648
0.50263,-0.896878,2.613,2.80799
0.507199,-0.890013,2.593,2.78801
0.511837,-0.883492,2.574,2.76912
0.520192,-0.883492,2.574,2.77067
0.528546,-0.883492,2.574,2.77225
0.532938,-0.87697,2.555,2.75338
0.541231,-0.87697,2.555,2.755
0.549524,-0.87697,2.555,2.75664
0.553668,-0.870449,2.536,2.7378
0.5619,-0.870449,2.536,2.73947
0.570131,-0.870449,2.536,2.74117
0.578362,-0.870449,2.536,2.7429
0.586593,-0.870449,2.536,2.74464
0.594824,-0.870449,2.536,2.74641
0.603056,-0.870449,2.536,2.74821
0.611287,-0.870449,2.536,2.75003
0.619518,-0.870449,2.536,2.75187
0.627749,-0.870449,2.536,2.75373
0.635981,-0.870449,2.536,2.75562
0.644212,-0.870449,2.536,2.75753
0.647555,-0.863927,2.517,2.73879
0.655725,-0.863927,2.517,2.74074
0.663894,-0.863927,2.517,2.7427
0.672064,-0.863927,2.517,2.74469
0.680233,-0.863927,2.517,2.7467
0.68348,-0.857749,2.499,2.72908
0.691591,-0.857749,2.499,2.73112
0.699702,-0.857749,2.499,2.73319
0.707813,-0.857749,2.499,2.73528
0.715924,-0.857749,2.499,2.73739
0.71882,-0.851571,2.481,2.71979
0.721599,-0.845392,2.463,2.70218
0.729594,-0.845392,2.463,2.70432
0.737588,-0.845392,2.463,2.70649
0.745582,-0.845392,2.463,2.70868
0.753577,-0.845392,2.463,2.71089
0.767137,-0.851571,2.481,2.73295
0.775189,-0.851571,2.481,2.73522
0.783242,-0.851571,2.481,2.73752
0.791295,-0.851571,2.481,2.73983
0.799347,-0.851571,2.481,2.74217
0.8074,-0.851571,2.481,2.74453
0.815453,-0.851571,2.481,2.74691
0.823505,-0.851571,2.481,2.74931
0.837591,-0.857749,2.499,2.7717
0.845702,-0.857749,2.499,2.77416
0.853814,-0.857749,2.499,2.77664
0.861925,-0.857749,2.499,2.77915
0.870036,-0.857749,2.499,2.78167
nan,nan,nan,NaN
nan,nan,nan,NaN
nan,nan,nan,NaN
nan,nan,nan,NaN
nan,nan,nan,NaN
nan,nan,nan,NaN
nan,nan,nan,NaN
nan,nan,nan,NaN
nan,nan,nan,NaN
nan,nan,nan,NaN
nan,nan,nan,NaN
nan,nan,nan,NaN
nan,nan,nan,NaN
nan,nan,nan,NaN
nan,nan,nan,NaN
nan,nan,nan,NaN
nan,nan,nan,NaN
nan,nan,nan,NaN
nan,nan,nan,NaN
nan,nan,nan,NaN
nan,nan,nan,NaN
nan,nan,nan,NaN
nan,nan,nan,NaN
nan,nan,nan,NaN
nan,nan,nan,NaN
nan,nan,nan,NaN
nan,nan,nan,NaN
nan,nan,nan,NaN
1.41485,-1.09801,3.199,3.6662
1.42524,-1.09801,3.199,3.67022
1.44953,-1.10865,3.23,3.70987
1.446,-1.09801,3.199,3.67834
1.45639,-1.09801,3.199,3.68243
1.46677,-1.09801,3.199,3.68655
1.47715,-1.09801,3.199,3.69069
1.48754,-1.09801,3.199,3.69486
1.51244,-1.10865,3.23,3.7349
1.52292,-1.10865,3.23,3.73916
1.5334,-1.10865,3.23,3.74344
1.54389,-1.10865,3.23,3.74775
1.55437,-1.10865,3.23,3.75208
1.54984,-1.09801,3.199,3.72038
1.56022,-1.09801,3.199,3.72472
1.58582,-1.10865,3.23,3.76522
1.59631,-1.10865,3.23,3.76964
1.60679,-1.10865,3.23,3.77409
1.61727,-1.10865,3.23,3.77857
1.64288,-1.11895,3.26,3.81821
1.65346,-1.11895,3.26,3.82277
1.66404,-1.11895,3.26,3.82736
1.69106,-1.12994,3.292,3.86959
1.70174,-1.12994,3.292,3.87427
1.72907,-1.14092,3.324,3.91668
1.73986,-1.14092,3.324,3.92145
1.75065,-1.14092,3.324,3.92625
1.7784,-1.1519,3.356,3.96892
1.80688,-1.16323,3.389,4.01289
1.81788,-1.16323,3.389,4.01785
1.82888,-1.16323,3.389,4.02284
1.87734,-1.18691,3.458,4.10986
1.90768,-1.19893,3.493,4.15665
1.91902,-1.19893,3.493,4.16186
1.95025,-1.21128,3.529,4.21005
1.98227,-1.22398,3.566,4.25957
1.99385,-1.22398,3.566,4.26496
2.00542,-1.22398,3.566,4.27039
2.03849,-1.23703,3.604,4.3214
2.05019,-1.23703,3.604,4.32693
2.06189,-1.23703,3.604,4.33248
2.07358,-1.23703,3.604,4.33806
2.08528,-1.23703,3.604,4.34367
2.09698,-1.23703,3.604,4.3493
2.08644,-1.22398,3.566,4.30903
2.09802,-1.22398,3.566,4.31465
2.10959,-1.22398,3.566,4.32029
2.09916,-1.21128,3.529,4.28106
2.11061,-1.21128,3.529,4.28669
2.07937,-1.18691,3.458,4.20599
2.04888,-1.16323,3.389,4.12751
2.05988,-1.16323,3.389,4.13298
2.05072,-1.1519,3.356,4.09818
2.04195,-1.14092,3.324,4.06451
2.05274,-1.14092,3.324,4.06994
2.0238,-1.11895,3.26,3.99693
1.97821,-1.08806,3.17,3.8918
1.9885,-1.08806,3.17,3.89704
1.92754,-1.04928,3.057,3.7632
1.93746,-1.04928,3.057,3.76829
1.87986,-1.01289,2.951,3.64256
1.87343,-1.00431,2.926,3.61661
1.8514,-0.987492,2.877,3.56089
1.84521,-0.979255,2.853,3.53601
1.85447,-0.979255,2.853,3.54085
1.84806,-0.971017,2.829,3.51588
1.84214,-0.963123,2.806,3.49209
1.85125,-0.963123,2.806,3.49691
1.86035,-0.963123,2.806,3.50174
1.85414,-0.955228,2.783,3.47784
1.86317,-0.955228,2.783,3.48267
1.8722,-0.955228,2.783,3.48751
1.86637,-0.947677,2.761,3.46476
1.87533,-0.947677,2.761,3.46959
-2.35106,-1.15223,3.389,4.28257
-2.31727,-1.14101,3.356,4.2349
-2.28439,-1.13013,3.324,4.18863
-2.2736,-1.13013,3.324,4.18276
-2.24103,-1.11925,3.292,4.13669
-2.23034,-1.11925,3.292,4.13091
-2.21966,-1.11925,3.292,4.12515
-2.20897,-1.11925,3.292,4.11941
-2.19829,-1.11925,3.292,4.11369
-2.1876,-1.11925,3.292,4.10799
-2.17692,-1.11925,3.292,4.10231
-2.16623,-1.11925,3.292,4.09665
-2.15555,-1.11925,3.292,4.09101
-2.14486,-1.11925,3.292,4.08539
-2.13418,-1.11925,3.292,4.07979
-2.12349,-1.11925,3.292,4.07421
-2.13335,-1.13013,3.324,4.1082
-2.12256,-1.13013,3.324,4.10261
-2.11177,-1.13013,3.324,4.09704
-2.10098,-1.13013,3.324,4.09149
-2.09019,-1.13013,3.324,4.08596
-2.0794,-1.13013,3.324,4.08045
-2.06861,-1.13013,3.324,4.07496
-2.05782,-1.13013,3.324,4.0695
-2.04703,-1.13013,3.324,4.06405
-2.01664,-1.11925,3.292,4.01956
-2.00596,-1.11925,3.292,4.01421
-1.99527,-1.11925,3.292,4.00888
-1.98459,-1.11925,3.292,4.00357
nan,nan,nan,NaN
nan,nan,nan,NaN
nan,nan,nan,NaN
nan,nan,nan,NaN
nan,nan,nan,NaN
nan,nan,nan,NaN
nan,nan,nan,NaN
nan,nan,nan,NaN
nan,nan,nan,NaN
nan,nan,nan,NaN
nan,nan,nan,NaN
nan,nan,nan,NaN
nan,nan,nan,NaN
nan,nan,nan,NaN
nan,nan,nan,NaN
nan,nan,nan,NaN
nan,nan,nan,NaN
nan,nan,nan,NaN
nan,nan,nan,NaN
nan,nan,nan,NaN
nan,nan,nan,NaN
nan,nan,nan,NaN
nan,nan,nan,NaN
nan,nan,nan,NaN
nan,nan,nan,NaN
nan,nan,nan,NaN
nan,nan,nan,NaN
nan,nan,nan,NaN
nan,nan,nan,NaN
-1.2819,-0.86222,2.536,2.96951
-1.27366,-0.86222,2.536,2.96596
-1.23799,-0.84352,2.481,2.89819
-1.22994,-0.84352,2.481,2.89476
-1.22188,-0.84352,2.481,2.89135
-1.21383,-0.84352,2.481,2.88795
-1.20578,-0.84352,2.481,2.88458
-1.19772,-0.84352,2.481,2.88122
-1.18967,-0.84352,2.481,2.87788
-1.17305,-0.8374,2.463,2.85371
-1.16505,-0.8374,2.463,2.85043
-1.15706,-0.8374,2.463,2.84717
-1.14906,-0.8374,2.463,2.84393
-1.14107,-0.8374,2.463,2.84071
-1.13308,-0.8374,2.463,2.83751
-1.12508,-0.8374,2.463,2.83433
-1.12525,-0.84352,2.481,2.85186
-1.14196,-0.86222,2.536,2.91184
-1.13373,-0.86222,2.536,2.90862
-1.14237,-0.875139,2.574,2.94896
-1.14238,-0.881599,2.593,2.96747
-1.16064,-0.902339,2.654,3.03398
-1.14291,-0.895199,2.633,3.00671
-1.13437,-0.895199,2.633,3.00347
-1.1348,-0.902339,2.654,3.02419
-1.12619,-0.902339,2.654,3.02096
-1.12641,-0.909479,2.675,3.04164
-1.12651,-0.916618,2.696,3.06229
-1.11776,-0.916618,2.696,3.05908
-1.10901,-0.916618,2.696,3.0559
-1.10026,-0.916618,2.696,3.05273
-1.0915,-0.916618,2.696,3.04959
-1.08275,-0.916618,2.696,3.04647
-1.08237,-0.923758,2.717,3.06707
-1.07355,-0.923758,2.717,3.06397
-1.06473,-0.923758,2.717,3.06089
-1.05591,-0.923758,2.717,3.05784
-1.04709,-0.923758,2.717,3.0548
-1.03025,-0.916618,2.696,3.0282
-1.00559,-0.902339,2.654,2.97811
-0.989084,-0.895199,2.633,2.95167
-0.980538,-0.895199,2.633,2.94882
-0.964609,-0.888399,2.613,2.92361
-0.956128,-0.888399,2.613,2.92082
-0.947646,-0.888399,2.613,2.91806
-0.931977,-0.881599,2.593,2.893
-0.916793,-0.875139,2.574,2.86912
-0.908439,-0.875139,2.574,2.86646
-0.89344,-0.86868,2.555,2.84269
-0.878565,-0.86222,2.536,2.81897
-0.870334,-0.86222,2.536,2.81642
-0.862103,-0.86222,2.536,2.81388
-0.853871,-0.86222,2.536,2.81137
-0.84564,-0.86222,2.536,2.80888
-0.837409,-0.86222,2.536,2.80642
-0.829178,-0.86222,2.536,2.80397
-0.827097,-0.86868,2.555,2.82254
-0.824893,-0.875139,2.574,2.84109
-0.816539,-0.875139,2.574,2.83868
-0.808184,-0.875139,2.574,2.83628
-0.805733,-0.881599,2.593,2.85483
-0.797317,-0.881599,2.593,2.85247
-0.794986,-0.888399,2.613,2.87211
-0.792524,-0.895199,2.633,2.89174
-0.790231,-0.902339,2.654,2.91246
-0.781617,-0.902339,2.654,2.91013
-0.779119,-0.909479,2.675,2.93084
-0.776485,-0.916618,2.696,2.95153
-0.767735,-0.916618,2.696,2.94924
-0.758984,-0.916618,2.696,2.94697
-0.750233,-0.916618,2.696,2.94473
-0.741483,-0.916618,2.696,2.94252
-0.73844,-0.923758,2.717,2.96323
-0.735529,-0.931238,2.739,2.98502
-0.726639,-0.931238,2.739,2.98284
-0.711984,-0.923758,2.717,2.95674
-0.703165,-0.923758,2.717,2.95463
-0.694346,-0.923758,2.717,2.95255
-0.680229,-0.916618,2.696,2.92768
-0.666248,-0.909479,2.675,2.90287
-0.657566,-0.909479,2.675,2.90089
-0.643789,-0.902339,2.654,2.87618
-0.630149,-0.895199,2.633,2.85152
-0.616882,-0.888399,2.613,2.828
-0.6084,-0.888399,2.613,2.82616
-0.590965,-0.875139,2.574,2.78219
-0.57831,-0.86868,2.555,2.7599
-0.570017,-0.86868,2.555,2.75818
-0.557547,-0.86222,2.536,2.73598
-0.549316,-0.86222,2.536,2.73431
-0.541085,-0.86222,2.536,2.73267
-0.528861,-0.85576,2.517,2.71059
-0.520692,-0.85576,2.517,2.70901
-0.512522,-0.85576,2.517,2.70745
-0.500746,-0.84964,2.499,2.68657
-0.489086,-0.84352,2.481,2.66573
-0.481034,-0.84352,2.481,2.66426
-0.472981,-0.84352,2.481,2.66282
-0.464928,-0.84352,2.481,2.6614
-0.456875,-0.84352,2.481,2.66
-0.448823,-0.84352,2.481,2.65863
-0.44077,-0.84352,2.481,2.65729
-0.432717,-0.84352,2.481,2.65596
-0.424665,-0.84352,2.481,2.65466
-0.416612,-0.84352,2.481,2.65339
-0.408559,-0.84352,2.481,2.65213
-0.400506,-0.84352,2.481,2.6509
-0.392454,-0.84352,2.481,2.6497
-0.38719,-0.84964,2.499,2.66773
-0.379079,-0.84964,2.499,2.66657
-0.370968,-0.84964,2.499,2.66543
-0.362857,-0.84964,2.499,2.66431
-0.357301,-0.85576,2.517,2.6824
-0.349131,-0.85576,2.517,2.68133
-0.340961,-0.85576,2.517,2.68027
-0.332792,-0.85576,2.517,2.67925
-0.327073,-0.86222,2.536,2.69846
-0.318842,-0.86222,2.536,2.69748
-0.308283,-0.85576,2.517,2.67631
-0.300114,-0.85576,2.517,2.67538
-0.291944,-0.85576,2.517,2.67448
-0.283775,-0.85576,2.517,2.6736
-0.275605,-0.85576,2.517,2.67275
-0.267435,-0.85576,2.517,2.67192
-0.257412,-0.84964,2.499,2.65201
-0.249301,-0.84964,2.499,2.65123
-0.24119,-0.84964,2.499,2.65048
-0.233078,-0.84964,2.499,2.64976
-0.223347,-0.84352,2.481,2.62998
-0.215294,-0.84352,2.481,2.6293
-0.207241,-0.84352,2.481,2.62866
-0.200634,-0.84964,2.499,2.6471
-0.192523,-0.84964,2.499,2.6465
-0.184412,-0.84964,2.499,2.64592
-0.1763,-0.84964,2.499,2.64537
-0.168189,-0.84964,2.499,2.64484
-0.160078,-0.84964,2.499,2.64434
-0.151967,-0.84964,2.499,2.64386
-0.143856,-0.84964,2.499,2.6434
-0.135745,-0.84964,2.499,2.64297
-0.127634,-0.84964,2.499,2.64257
-0.120383,-0.85576,2.517,2.66122
-0.112214,-0.85576,2.517,2.66087
-0.104044,-0.85576,2.517,2.66053
-0.0958747,-0.85576,2.517,2.66023
-0.0883672,-0.86222,2.536,2.68002
-0.0807364,-0.86868,2.555,2.69984
-0.0724435,-0.86868,2.555,2.69961
-0.0641506,-0.86868,2.555,2.6994
-0.0558577,-0.86868,2.555,2.69921
-0.0475648,-0.86868,2.555,2.69905
-0.039564,-0.875139,2.574,2.71899
-0.0312094,-0.875139,2.574,2.71888
-0.0228548,-0.875139,2.574,2.7188
-0.0145003,-0.875139,2.574,2.71874
-0.00614571,-0.875139,2.574,2.71871
0.00220886,-0.875139,2.574,2.7187
0.0105634,-0.875139,2.574,2.71872
0.018918,-0.875139,2.574,2.71877
0.0272725,-0.875139,2.574,2.71884
0.0356271,-0.875139,2.574,2.71894
0.0439817,-0.875139,2.574,2.71906
0.0523362,-0.875139,2.574,2.71921
0.0606908,-0.875139,2.574,2.71938
0.0690454,-0.875139,2.574,2.71958
0.0779713,-0.881599,2.593,2.73988
0.0863875,-0.881599,2.593,2.74013
0.0941091,-0.875139,2.574,2.72033
0.102464,-0.875139,2.574,2.72063
0.111636,-0.881599,2.593,2.74105
0.120052,-0.881599,2.593,2.7414
0.128469,-0.881599,2.593,2.74178
0.136885,-0.881599,2.593,2.74219
0.145301,-0.881599,2.593,2.74262
0.153717,-0.881599,2.593,2.74308
0.162134,-0.881599,2.593,2.74357
0.17055,-0.881599,2.593,2.74408
0.178966,-0.881599,2.593,2.74461
0.187382,-0.881599,2.593,2.74517
0.195799,-0.881599,2.593,2.74576
0.204215,-0.881599,2.593,2.74637
0.212631,-0.881599,2.593,2.74701
0.221047,-0.881599,2.593,2.74768
0.229463,-0.881599,2.593,2.74837
0.23788,-0.881599,2.593,2.74908
0.246296,-0.881599,2.593,2.74982
0.252846,-0.875139,2.574,2.73044
0.2612,-0.875139,2.574,2.73122
0.269555,-0.875139,2.574,2.73203
0.27791,-0.875139,2.574,2.73287
0.286264,-0.875139,2.574,2.73373
0.294619,-0.875139,2.574,2.73462
0.302973,-0.875139,2.574,2.73553
0.311328,-0.875139,2.574,2.73647
0.319682,-0.875139,2.574,2.73743
0.328037,-0.875139,2.574,2.73842
0.336391,-0.875139,2.574,2.73944
0.344746,-0.875139,2.574,2.74047
0.353101,-0.875139,2.574,2.74154
0.364123,-0.881599,2.593,2.76287
0.372539,-0.881599,2.593,2.76399
0.380956,-0.881599,2.593,2.76514
0.389372,-0.881599,2.593,2.76631
0.397788,-0.881599,2.593,2.76751
0.406204,-0.881599,2.593,2.76873
0.417819,-0.888399,2.613,2.79134
0.4263,-0.888399,2.613,2.79262
0.434781,-0.888399,2.613,2.79393
0.443262,-0.888399,2.613,2.79526
0.451743,-0.888399,2.613,2.79662
0.460224,-0.888399,2.613,2.798
0.468706,-0.888399,2.613,2.79941
0.477187,-0.888399,2.613,2.80084
0.485668,-0.888399,2.613,2.8023
0.490367,-0.881599,2.593,2.78232
0.498783,-0.881599,2.593,2.78382
0.503483,-0.875139,2.574,2.76493
0.508059,-0.86868,2.555,2.74604
0.516352,-0.86868,2.555,2.74759
0.524645,-0.86868,2.555,2.74916
0.528975,-0.86222,2.536,2.7303
0.537206,-0.86222,2.536,2.73191
0.545437,-0.86222,2.536,2.73354
0.54952,-0.85576,2.517,2.7147
0.55769,-0.85576,2.517,2.71636
0.565859,-0.85576,2.517,2.71805
0.569924,-0.84964,2.499,2.70032
0.578035,-0.84964,2.499,2.70204
0.586146,-0.84964,2.499,2.70379
0.594257,-0.84964,2.499,2.70556
0.602368,-0.84964,2.499,2.70735
0.610479,-0.84964,2.499,2.70916
0.618591,-0.84964,2.499,2.711
0.626702,-0.84964,2.499,2.71287
0.634813,-0.84964,2.499,2.71475
0.642924,-0.84964,2.499,2.71666
0.651035,-0.84964,2.499,2.71859
0.659146,-0.84964,2.499,2.72054
0.667257,-0.84964,2.499,2.72252
0.670504,-0.84352,2.481,2.7049
0.678557,-0.84352,2.481,2.7069
0.686609,-0.84352,2.481,2.70893
0.694662,-0.84352,2.481,2.71099
0.702715,-0.84352,2.481,2.71306
0.710768,-0.84352,2.481,2.71516
0.713605,-0.8374,2.463,2.69756
0.716326,-0.83128,2.445,2.67996
0.724262,-0.83128,2.445,2.68209
0.732198,-0.83128,2.445,2.68424
0.740133,-0.83128,2.445,2.68642
0.748069,-0.83128,2.445,2.68862
0.756005,-0.83128,2.445,2.69084
0.763941,-0.83128,2.445,2.69308
0.771877,-0.83128,2.445,2.69534
0.785554,-0.8374,2.463,2.71748
0.793548,-0.8374,2.463,2.7198
0.801542,-0.8374,2.463,2.72215
0.809537,-0.8374,2.463,2.72451
0.817531,-0.8374,2.463,2.7269
0.825525,-0.8374,2.463,2.7293
0.839611,-0.84352,2.481,2.7517
0.847664,-0.84352,2.481,2.75416
0.855716,-0.84352,2.481,2.75665
0.863769,-0.84352,2.481,2.75916
0.878147,-0.84964,2.499,2.78173
0.886258,-0.84964,2.499,2.7843
0.900811,-0.85576,2.517,2.80697
0.908981,-0.85576,2.517,2.8096
0.91715,-0.85576,2.517,2.81226
0.932305,-0.86222,2.536,2.83618
0.940536,-0.86222,2.536,2.8389
0.948767,-0.86222,2.536,2.84163
0.956999,-0.86222,2.536,2.84439
nan,nan,nan,NaN
nan,nan,nan,NaN
nan,nan,nan,NaN
nan,nan,nan,NaN
nan,nan,nan,NaN
nan,nan,nan,NaN
nan,nan,nan,NaN
nan,nan,nan,NaN
nan,nan,nan,NaN
nan,nan,nan,NaN
nan,nan,nan,NaN
nan,nan,nan,NaN
nan,nan,nan,NaN
nan,nan,nan,NaN
nan,nan,nan,NaN
nan,nan,nan,NaN
nan,nan,nan,NaN
nan,nan,nan,NaN
nan,nan,nan,NaN
nan,nan,nan,NaN
nan,nan,nan,NaN
nan,nan,nan,NaN
1.446,-1.08763,3.199,3.67525
1.45639,-1.08763,3.199,3.67935
1.46677,-1.08763,3.199,3.68347
1.47715,-1.08763,3.199,3.68762
1.48754,-1.08763,3.199,3.69179
1.51244,-1.09817,3.23,3.7318
1.52292,-1.09817,3.23,3.73606
1.5334,-1.09817,3.23,3.74035
1.54389,-1.09817,3.23,3.74466
1.55437,-1.09817,3.23,3.74899
1.56485,-1.09817,3.23,3.75335
1.57534,-1.09817,3.23,3.75774
1.58582,-1.09817,3.23,3.76214
1.59631,-1.09817,3.23,3.76657
1.60679,-1.09817,3.23,3.77103
1.61727,-1.09817,3.23,3.77551
1.64288,-1.10837,3.26,3.81512
1.65346,-1.10837,3.26,3.81969
1.66404,-1.10837,3.26,3.82428
1.69106,-1.11925,3.292,3.86648
1.70174,-1.11925,3.292,3.87117
1.72907,-1.13013,3.324,3.91355
1.73986,-1.13013,3.324,3.91833
1.75065,-1.13013,3.324,3.92313
1.7784,-1.14101,3.356,3.96577
1.80688,-1.15223,3.389,4.00971
1.81788,-1.15223,3.389,4.01468
1.82888,-1.15223,3.389,4.01967
1.87734,-1.17569,3.458,4.10663
1.90768,-1.18759,3.493,4.15339
1.91902,-1.18759,3.493,4.15861
1.95025,-1.19983,3.529,4.20677
1.98227,-1.21241,3.566,4.25626
1.99385,-1.21241,3.566,4.26166
2.00542,-1.21241,3.566,4.26709
2.03849,-1.22533,3.604,4.31807
2.05019,-1.22533,3.604,4.3236
2.06189,-1.22533,3.604,4.32916
2.07358,-1.22533,3.604,4.33474
2.08528,-1.22533,3.604,4.34035
2.09698,-1.22533,3.604,4.34598
2.08644,-1.21241,3.566,4.30576
2.09802,-1.21241,3.566,4.31138
2.0877,-1.19983,3.529,4.27223
2.07774,-1.18759,3.493,4.2342
2.08908,-1.18759,3.493,4.23977
2.05833,-1.16379,3.423,4.16029
2.04888,-1.15223,3.389,4.12442
2.05988,-1.15223,3.389,4.1299
2.05072,-1.14101,3.356,4.09513
2.04195,-1.13013,3.324,4.06149
2.05274,-1.13013,3.324,4.06693
2.00517,-1.09817,3.23,3.95722
1.97821,-1.07777,3.17,3.88894
1.9885,-1.07777,3.17,3.89418
1.94457,-1.04854,3.084,3.79366
1.92035,-1.03018,3.03,3.73228
1.87986,-1.00332,2.951,3.63991
1.88944,-1.00332,2.951,3.64486
1.88293,-0.994817,2.926,3.61892
1.86074,-0.978157,2.877,3.56318
1.87007,-0.978157,2.877,3.56807
1.86373,-0.969997,2.853,3.54316
1.85724,-0.961837,2.829,3.5182
1.86642,-0.961837,2.829,3.52305
1.8756,-0.961837,2.829,3.52793
1.86946,-0.954018,2.806,3.50409
1.87857,-0.954018,2.806,3.50896
1.8722,-0.946198,2.783,3.48504
1.88124,-0.946198,2.783,3.4899
1.89027,-0.946198,2.783,3.49478
-2.35106,-1.14124,3.389,4.27963
-2.31727,-1.13012,3.356,4.23198
-2.28439,-1.11935,3.324,4.18573
-2.2736,-1.11935,3.324,4.17985
-2.24103,-1.10857,3.292,4.13381
-2.20866,-1.0978,3.26,4.0879
-2.19808,-1.0978,3.26,4.0822
-2.1875,-1.0978,3.26,4.07651
-2.17692,-1.0978,3.26,4.07084
-2.16634,-1.0978,3.26,4.06519
-2.15576,-1.0978,3.26,4.05956
-2.14518,-1.0978,3.26,4.05395
-2.15555,-1.10857,3.292,4.0881
-2.14486,-1.10857,3.292,4.08248
-2.13418,-1.10857,3.292,4.07688
-2.12349,-1.10857,3.292,4.07129
-2.11281,-1.10857,3.292,4.06573
-2.10212,-1.10857,3.292,4.06019
-2.09144,-1.10857,3.292,4.05467
-2.08075,-1.10857,3.292,4.04916
-2.07007,-1.10857,3.292,4.04368
-2.05938,-1.10857,3.292,4.03822
-2.0487,-1.10857,3.292,4.03279
-2.03801,-1.10857,3.292,4.02737
-2.02733,-1.10857,3.292,4.02197
-2.01664,-1.10857,3.292,4.0166
-2.00596,-1.10857,3.292,4.01124
-1.99527,-1.10857,3.292,4.00591
-1.98459,-1.10857,3.292,4.0006
nan,nan,nan,NaN
nan,nan,nan,NaN
nan,nan,nan,NaN
nan,nan,nan,NaN
nan,nan,nan,NaN
nan,nan,nan,NaN
nan,nan,nan,NaN
nan,nan,nan,NaN
nan,nan,nan,NaN
nan,nan,nan,NaN
nan,nan,nan,NaN
nan,nan,nan,NaN
nan,nan,nan,NaN
nan,nan,nan,NaN
nan,nan,nan,NaN
nan,nan,nan,NaN
nan,nan,nan,NaN
nan,nan,nan,NaN
nan,nan,nan,NaN
nan,nan,nan,NaN
nan,nan,nan,NaN
nan,nan,nan,NaN
nan,nan,nan,NaN
nan,nan,nan,NaN
nan,nan,nan,NaN
nan,nan,nan,NaN
nan,nan,nan,NaN
nan,nan,nan,NaN
-1.31912,-0.873185,2.593,3.03746
-1.2819,-0.853991,2.536,2.96713
-1.27366,-0.853991,2.536,2.96358
-1.25595,-0.847593,2.517,2.93788
-1.23886,-0.841531,2.499,2.91341
-1.23075,-0.841531,2.499,2.90997
-1.22264,-0.841531,2.499,2.90655
-1.20578,-0.83547,2.481,2.88223
-1.19772,-0.83547,2.481,2.87887
-1.18104,-0.829408,2.463,2.85467
-1.16447,-0.823347,2.445,2.83053
-1.15654,-0.823347,2.445,2.82728
-1.1486,-0.823347,2.445,2.82404
-1.14067,-0.823347,2.445,2.82082
-1.13273,-0.823347,2.445,2.81762
-1.13308,-0.829408,2.463,2.83516
-1.11686,-0.823347,2.445,2.81128
-1.10892,-0.823347,2.445,2.80814
-1.10909,-0.829408,2.463,2.82566
-1.1011,-0.829408,2.463,2.82254
-1.11707,-0.847593,2.517,2.88124
-1.14238,-0.873185,2.593,2.96499
nan,nan,nan,NaN
-1.12555,-0.873185,2.593,2.95854
-1.11713,-0.873185,2.593,2.95535
-1.11727,-0.87992,2.613,2.97495
-1.10879,-0.87992,2.613,2.97177
-1.12641,-0.900799,2.675,3.03906
-1.12651,-0.90787,2.696,3.05968
-1.11776,-0.90787,2.696,3.05647
-1.10037,-0.900799,2.675,3.0295
-1.09169,-0.900799,2.675,3.02636
-1.083,-0.900799,2.675,3.02324
-1.07432,-0.900799,2.675,3.02014
-1.074,-0.90787,2.696,3.04074
-1.07355,-0.914942,2.717,3.06133
-1.06473,-0.914942,2.717,3.05825
-1.04775,-0.90787,2.696,3.03157
-1.039,-0.90787,2.696,3.02856
-1.03025,-0.90787,2.696,3.02557
-1.00559,-0.893727,2.654,2.97551
-0.989084,-0.886655,2.633,2.94909
-0.980538,-0.886655,2.633,2.94624
-0.971992,-0.886655,2.633,2.9434
-0.956128,-0.87992,2.613,2.91825
-0.947646,-0.87992,2.613,2.91549
-0.931977,-0.873185,2.593,2.89045
-0.916793,-0.866787,2.574,2.86658
-0.908439,-0.866787,2.574,2.86392
-0.89344,-0.860389,2.555,2.84016
-0.878565,-0.853991,2.536,2.81646
-0.870334,-0.853991,2.536,2.81391
-0.862103,-0.853991,2.536,2.81137
-0.853871,-0.853991,2.536,2.80886
-0.84564,-0.853991,2.536,2.80637
-0.837409,-0.853991,2.536,2.8039
-0.829178,-0.853991,2.536,2.80145
-0.833248,-0.866787,2.574,2.84097
-0.824893,-0.866787,2.574,2.83853
-0.816539,-0.866787,2.574,2.83611
-0.808184,-0.866787,2.574,2.83372
-0.805733,-0.873185,2.593,2.85225
-0.797317,-0.873185,2.593,2.84988
-0.801071,-0.886655,2.633,2.89146
-0.798845,-0.893727,2.654,2.91215
-0.796484,-0.900799,2.675,2.93282
-0.787802,-0.900799,2.675,2.93048
-0.785236,-0.90787,2.696,2.95114
-0.782533,-0.914942,2.717,2.9718
-0.773715,-0.914942,2.717,2.96949
-0.764896,-0.914942,2.717,2.9672
-0.756077,-0.914942,2.717,2.96494
-0.747259,-0.914942,2.717,2.9627
-0.73844,-0.914942,2.717,2.96049
-0.735529,-0.92235,2.739,2.98226
-0.726639,-0.92235,2.739,2.98008
-0.711984,-0.914942,2.717,2.954
-0.703165,-0.914942,2.717,2.95189
-0.694346,-0.914942,2.717,2.9498
-0.680229,-0.90787,2.696,2.92495
-0.666248,-0.900799,2.675,2.90016
-0.657566,-0.900799,2.675,2.89818
-0.643789,-0.893727,2.654,2.87349
-0.630149,-0.886655,2.633,2.84885
-0.616882,-0.87992,2.613,2.82534
-0.6084,-0.87992,2.613,2.8235
-0.595327,-0.873185,2.593,2.80009
-0.57831,-0.860389,2.555,2.75731
-0.570017,-0.860389,2.555,2.75558
-0.557547,-0.853991,2.536,2.7334
-0.549316,-0.853991,2.536,2.73173
-0.541085,-0.853991,2.536,2.73009
-0.528861,-0.847593,2.517,2.70802
-0.520692,-0.847593,2.517,2.70644
-0.512522,-0.847593,2.517,2.70488
-0.500746,-0.841531,2.499,2.68401
-0.489086,-0.83547,2.481,2.66319
-0.481034,-0.83547,2.481,2.66172
-0.472981,-0.83547,2.481,2.66028
-0.464928,-0.83547,2.481,2.65886
-0.456875,-0.83547,2.481,2.65746
-0.448823,-0.83547,2.481,2.65609
-0.44077,-0.83547,2.481,2.65474
-0.432717,-0.83547,2.481,2.65342
-0.424665,-0.83547,2.481,2.65211
-0.416612,-0.83547,2.481,2.65084
-0.408559,-0.83547,2.481,2.64958
-0.403412,-0.841531,2.499,2.66757
-0.395301,-0.841531,2.499,2.66635
-0.38719,-0.841531,2.499,2.66516
-0.379079,-0.841531,2.499,2.664
-0.370968,-0.841531,2.499,2.66285
-0.362857,-0.841531,2.499,2.66174
-0.357301,-0.847593,2.517,2.67981
-0.349131,-0.847593,2.517,2.67873
-0.340961,-0.847593,2.517,2.67768
-0.332792,-0.847593,2.517,2.67665
-0.327073,-0.853991,2.536,2.69584
-0.318842,-0.853991,2.536,2.69486
-0.308283,-0.847593,2.517,2.67371
-0.300114,-0.847593,2.517,2.67278
-0.291944,-0.847593,2.517,2.67188
-0.283775,-0.847593,2.517,2.671
-0.275605,-0.847593,2.517,2.67014
-0.267435,-0.847593,2.517,2.66931
-0.257412,-0.841531,2.499,2.64942
-0.249301,-0.841531,2.499,2.64865
-0.24119,-0.841531,2.499,2.6479
-0.233078,-0.841531,2.499,2.64717
-0.223347,-0.83547,2.481,2.6274
-0.215294,-0.83547,2.481,2.62673
-0.207241,-0.83547,2.481,2.62608
-0.200634,-0.841531,2.499,2.64451
-0.192523,-0.841531,2.499,2.64391
-0.184412,-0.841531,2.499,2.64333
-0.1763,-0.841531,2.499,2.64277
-0.168189,-0.841531,2.499,2.64225
-0.160078,-0.841531,2.499,2.64174
-0.151967,-0.841531,2.499,2.64126
-0.143856,-0.841531,2.499,2.64081
-0.136723,-0.847593,2.517,2.6594
-0.128553,-0.847593,2.517,2.65899
-0.120383,-0.847593,2.517,2.65861
-0.112214,-0.847593,2.517,2.65825
-0.104044,-0.847593,2.517,2.65792
-0.0958747,-0.847593,2.517,2.65761
-0.0883672,-0.853991,2.536,2.67739
-0.0807364,-0.860389,2.555,2.69719
-0.0724435,-0.860389,2.555,2.69695
-0.0641506,-0.860389,2.555,2.69674
-0.0558577,-0.860389,2.555,2.69656
-0.0475648,-0.860389,2.555,2.6964
-0.0392719,-0.860389,2.555,2.69626
-0.0312094,-0.866787,2.574,2.71621
-0.0228548,-0.866787,2.574,2.71612
-0.0145003,-0.866787,2.574,2.71606
-0.00614571,-0.866787,2.574,2.71603
0.00220886,-0.866787,2.574,2.71603
0.0105634,-0.866787,2.574,2.71605
0.018918,-0.866787,2.574,2.71609
0.0272725,-0.866787,2.574,2.71616
0.0356271,-0.866787,2.574,2.71626
0.0439817,-0.866787,2.574,2.71638
0.0523362,-0.866787,2.574,2.71653
0.0606908,-0.866787,2.574,2.7167
0.0690454,-0.866787,2.574,2.7169
0.0779713,-0.873185,2.593,2.73719
0.0863875,-0.873185,2.593,2.73744
0.0941091,-0.866787,2.574,2.71766
0.102464,-0.866787,2.574,2.71796
0.111636,-0.873185,2.593,2.73835
0.120052,-0.873185,2.593,2.73871
0.128469,-0.873185,2.593,2.73909
0.136885,-0.873185,2.593,2.7395
0.145301,-0.873185,2.593,2.73993
0.153717,-0.873185,2.593,2.74039
0.162134,-0.873185,2.593,2.74087
0.17055,-0.873185,2.593,2.74138
0.178966,-0.873185,2.593,2.74192
0.187382,-0.873185,2.593,2.74248
0.195799,-0.873185,2.593,2.74307
0.204215,-0.873185,2.593,2.74368
0.212631,-0.873185,2.593,2.74432
0.221047,-0.873185,2.593,2.74499
0.229463,-0.873185,2.593,2.74568
0.236137,-0.866787,2.574,2.72627
0.244491,-0.866787,2.574,2.72701
0.252846,-0.866787,2.574,2.72777
0.2612,-0.866787,2.574,2.72856
0.269555,-0.866787,2.574,2.72937
0.27791,-0.866787,2.574,2.73021
0.286264,-0.866787,2.574,2.73107
0.294619,-0.866787,2.574,2.73196
0.302973,-0.866787,2.574,2.73287
0.311328,-0.866787,2.574,2.73381
0.319682,-0.866787,2.574,2.73477
0.328037,-0.866787,2.574,2.73576
0.336391,-0.866787,2.574,2.73678
0.344746,-0.866787,2.574,2.73782
0.353101,-0.866787,2.574,2.73888
0.364123,-0.873185,2.593,2.7602
0.372539,-0.873185,2.593,2.76132
0.378164,-0.866787,2.574,2.74223
0.386519,-0.866787,2.574,2.74339
0.394873,-0.866787,2.574,2.74458
0.406204,-0.873185,2.593,2.76606
0.414621,-0.873185,2.593,2.76731
0.423037,-0.873185,2.593,2.76858
0.434781,-0.87992,2.613,2.79125
0.443262,-0.87992,2.613,2.79258
0.451743,-0.87992,2.613,2.79394
0.460224,-0.87992,2.613,2.79532
0.468706,-0.87992,2.613,2.79673
0.477187,-0.87992,2.613,2.79817
0.481951,-0.873185,2.593,2.7782
0.486774,-0.866787,2.574,2.7593
0.495128,-0.866787,2.574,2.76079
0.499766,-0.860389,2.555,2.74191
0.504281,-0.853991,2.536,2.72303
0.512512,-0.853991,2.536,2.72457
0.516842,-0.847593,2.517,2.7057
0.525012,-0.847593,2.517,2.70728
0.533181,-0.847593,2.517,2.70887
0.541351,-0.847593,2.517,2.71049
0.54559,-0.841531,2.499,2.69274
0.553702,-0.841531,2.499,2.69439
0.561813,-0.841531,2.499,2.69607
0.569924,-0.841531,2.499,2.69777
0.578035,-0.841531,2.499,2.6995
0.586146,-0.841531,2.499,2.70125
0.589977,-0.83547,2.481,2.68355
0.59803,-0.83547,2.481,2.68533
0.606082,-0.83547,2.481,2.68714
0.614135,-0.83547,2.481,2.68897
0.622188,-0.83547,2.481,2.69082
0.63024,-0.83547,2.481,2.69269
0.638293,-0.83547,2.481,2.69459
0.646346,-0.83547,2.481,2.6965
0.649651,-0.829408,2.463,2.67887
0.657645,-0.829408,2.463,2.68082
0.665639,-0.829408,2.463,2.68279
0.673634,-0.829408,2.463,2.68478
0.681628,-0.829408,2.463,2.6868
0.689622,-0.829408,2.463,2.68884
0.697617,-0.829408,2.463,2.6909
0.705611,-0.829408,2.463,2.69299
0.70839,-0.823347,2.445,2.6754
0.716326,-0.823347,2.445,2.67751
0.724262,-0.823347,2.445,2.67964
0.727107,-0.817622,2.428,2.66315
0.734987,-0.817622,2.428,2.66531
0.742868,-0.817622,2.428,2.6675
0.750749,-0.817622,2.428,2.6697
0.758629,-0.817622,2.428,2.67193
0.76651,-0.817622,2.428,2.67418
0.779813,-0.823347,2.445,2.69519
0.787749,-0.823347,2.445,2.69749
0.795684,-0.823347,2.445,2.69982
0.80362,-0.823347,2.445,2.70217
0.811556,-0.823347,2.445,2.70454
0.819492,-0.823347,2.445,2.70693
0.833519,-0.829408,2.463,2.72929
0.841514,-0.829408,2.463,2.73175
0.849508,-0.829408,2.463,2.73422
0.857502,-0.829408,2.463,2.73671
0.871822,-0.83547,2.481,2.75925
0.879874,-0.83547,2.481,2.7618
0.894369,-0.841531,2.499,2.78443
0.90248,-0.841531,2.499,2.78705
0.910591,-0.841531,2.499,2.78969
0.92532,-0.847593,2.517,2.81246
0.933489,-0.847593,2.517,2.81516
0.941659,-0.847593,2.517,2.81788
0.949829,-0.847593,2.517,2.82062
nan,nan,nan,NaN
nan,nan,nan,NaN
nan,nan,nan,NaN
nan,nan,nan,NaN
nan,nan,nan,NaN
nan,nan,nan,NaN
nan,nan,nan,NaN
nan,nan,nan,NaN
nan,nan,nan,NaN
nan,nan,nan,NaN
nan,nan,nan,NaN
nan,nan,nan,NaN
nan,nan,nan,NaN
nan,nan,nan,NaN
nan,nan,nan,NaN
nan,nan,nan,NaN
nan,nan,nan,NaN
nan,nan,nan,NaN
nan,nan,nan,NaN
nan,nan,nan,NaN
nan,nan,nan,NaN
nan,nan,nan,NaN
nan,nan,nan,NaN
1.45639,-1.07725,3.199,3.67629
1.46677,-1.07725,3.199,3.68042
1.47715,-1.07725,3.199,3.68457
1.48754,-1.07725,3.199,3.68875
1.51244,-1.08769,3.23,3.72873
1.52292,-1.08769,3.23,3.733
1.5334,-1.08769,3.23,3.73729
1.54389,-1.08769,3.23,3.7416
1.55437,-1.08769,3.23,3.74594
1.56485,-1.08769,3.23,3.7503
1.57534,-1.08769,3.23,3.75469
1.58582,-1.08769,3.23,3.7591
1.59631,-1.08769,3.23,3.76353
1.60679,-1.08769,3.23,3.76799
1.61727,-1.08769,3.23,3.77247
1.64288,-1.0978,3.26,3.81206
1.65346,-1.0978,3.26,3.81663
1.66404,-1.0978,3.26,3.82123
1.69106,-1.10857,3.292,3.8634
1.70174,-1.10857,3.292,3.86809
1.72907,-1.11935,3.324,3.91045
1.73986,-1.11935,3.324,3.91523
1.75065,-1.11935,3.324,3.92004
1.7784,-1.13012,3.356,3.96265
1.80688,-1.14124,3.389,4.00657
1.81788,-1.14124,3.389,4.01154
1.82888,-1.14124,3.389,4.01654
1.87734,-1.16447,3.458,4.10344
1.90768,-1.17626,3.493,4.15017
1.91902,-1.17626,3.493,4.15539
1.95025,-1.18838,3.529,4.20352
1.98227,-1.20084,3.566,4.25297
1.99385,-1.20084,3.566,4.25838
2.00542,-1.20084,3.566,4.26381
2.03849,-1.21364,3.604,4.31476
2.05019,-1.21364,3.604,4.3203
2.06189,-1.21364,3.604,4.32586
2.07358,-1.21364,3.604,4.33145
2.08528,-1.21364,3.604,4.33706
2.09698,-1.21364,3.604,4.3427
2.08644,-1.20084,3.566,4.30251
2.09802,-1.20084,3.566,4.30814
2.0877,-1.18838,3.529,4.26903
2.07774,-1.17626,3.493,4.23103
2.08908,-1.17626,3.493,4.23661
2.05833,-1.15269,3.423,4.1572
2.04888,-1.14124,3.389,4.12137
2.05988,-1.14124,3.389,4.12684
2.05072,-1.13012,3.356,4.09211
2.04195,-1.11935,3.324,4.05851
2.05274,-1.11935,3.324,4.06395
2.00517,-1.08769,3.23,3.95433
1.97821,-1.06749,3.17,3.8861
1.9885,-1.06749,3.17,3.89135
1.94457,-1.03853,3.084,3.7909
1.92035,-1.02034,3.03,3.72958
1.89642,-1.0025,2.977,3.66933
1.90609,-1.0025,2.977,3.67433
1.88293,-0.985322,2.926,3.61632
1.86074,-0.968822,2.877,3.56063
1.87007,-0.968822,2.877,3.56552
1.86373,-0.96074,2.853,3.54064
1.87299,-0.96074,2.853,3.54552
1.88225,-0.96074,2.853,3.55042
1.8756,-0.952658,2.829,3.52543
1.86946,-0.944912,2.806,3.50163
1.87857,-0.944912,2.806,3.5065
1.88768,-0.944912,2.806,3.51138
1.88124,-0.937167,2.783,3.48747
1.89027,-0.937167,2.783,3.49235
-2.35106,-1.13024,3.389,4.27671
-2.31727,-1.11923,3.356,4.22909
-2.28439,-1.10856,3.324,4.18286
-2.2736,-1.10856,3.324,4.17698
-2.24103,-1.09789,3.292,4.13096
-2.20866,-1.08722,3.26,4.08507
-2.19808,-1.08722,3.26,4.07936
-2.1875,-1.08722,3.26,4.07367
-2.17692,-1.08722,3.26,4.068
-2.16634,-1.08722,3.26,4.06235
-2.15576,-1.08722,3.26,4.05671
-2.14518,-1.08722,3.26,4.0511
-2.13459,-1.08722,3.26,4.04551
-2.12401,-1.08722,3.26,4.03994
-2.11343,-1.08722,3.26,4.03438
-2.10285,-1.08722,3.26,4.02885
-2.09227,-1.08722,3.26,4.02334
-2.08169,-1.08722,3.26,4.01784
-2.07111,-1.08722,3.26,4.01237
-2.08075,-1.09789,3.292,4.04625
-2.07007,-1.09789,3.292,4.04077
-2.05938,-1.09789,3.292,4.0353
-2.0487,-1.09789,3.292,4.02986
-2.03801,-1.09789,3.292,4.02444
-2.02733,-1.09789,3.292,4.01904
-2.01664,-1.09789,3.292,4.01366
-2.02546,-1.10856,3.324,4.04727
nan,nan,nan,NaN
nan,nan,nan,NaN
nan,nan,nan,NaN
nan,nan,nan,NaN
nan,nan,nan,NaN
nan,nan,nan,NaN
nan,nan,nan,NaN
nan,nan,nan,NaN
nan,nan,nan,NaN
nan,nan,nan,NaN
nan,nan,nan,NaN
nan,nan,nan,NaN
nan,nan,nan,NaN
nan,nan,nan,NaN
nan,nan,nan,NaN
nan,nan,nan,NaN
nan,nan,nan,NaN
nan,nan,nan,NaN
nan,nan,nan,NaN
nan,nan,nan,NaN
nan,nan,nan,NaN
nan,nan,nan,NaN
nan,nan,nan,NaN
nan,nan,nan,NaN
nan,nan,nan,NaN
nan,nan,nan,NaN
nan,nan,nan,NaN
nan,nan,nan,NaN
-1.35656,-0.878112,2.633,3.08934
-1.34802,-0.878112,2.633,3.0856
-1.31912,-0.864772,2.593,3.03506
-1.2915,-0.852098,2.555,2.98698
-1.28321,-0.852098,2.555,2.98341
-1.26543,-0.845762,2.536,2.95769
-1.24778,-0.839425,2.517,2.93204
-1.23961,-0.839425,2.517,2.92858
-1.22264,-0.833422,2.499,2.90421
-1.20578,-0.827419,2.481,2.87991
-1.19772,-0.827419,2.481,2.87655
-1.18104,-0.821416,2.463,2.85236
-1.16447,-0.815413,2.445,2.82824
-1.15654,-0.815413,2.445,2.82498
-1.1486,-0.815413,2.445,2.82174
-1.14067,-0.815413,2.445,2.81852
-1.13273,-0.815413,2.445,2.81532
nan,nan,nan,NaN
-1.11686,-0.815413,2.445,2.80897
-1.10892,-0.815413,2.445,2.80582
-1.10909,-0.821416,2.463,2.82333
-1.1011,-0.821416,2.463,2.8202
-1.11707,-0.839425,2.517,2.87885
nan,nan,nan,NaN
nan,nan,nan,NaN
-1.12555,-0.864772,2.593,2.95607
-1.11713,-0.864772,2.593,2.95287
-1.11727,-0.871441,2.613,2.97245
-1.10879,-0.871441,2.613,2.96927
nan,nan,nan,NaN
nan,nan,nan,NaN
nan,nan,nan,NaN
-1.10037,-0.892119,2.675,3.02693
-1.09169,-0.892119,2.675,3.02379
-1.083,-0.892119,2.675,3.02066
-1.07432,-0.892119,2.675,3.01756
-1.074,-0.899122,2.696,3.03814
-1.07355,-0.906126,2.717,3.0587
-1.06473,-0.906126,2.717,3.05562
-1.04775,-0.899122,2.696,3.02896
-1.039,-0.899122,2.696,3.02595
-1.03025,-0.899122,2.696,3.02295
-1.00559,-0.885115,2.654,2.97294
-0.989084,-0.878112,2.633,2.94653
-0.980538,-0.878112,2.633,2.94368
-0.971992,-0.878112,2.633,2.94084
-0.956128,-0.871441,2.613,2.91571
-0.947646,-0.871441,2.613,2.91294
-0.931977,-0.864772,2.593,2.88792
-0.916793,-0.858435,2.574,2.86407
-0.908439,-0.858435,2.574,2.86141
-0.89344,-0.852098,2.555,2.83766
-0.885147,-0.852098,2.555,2.83506
-0.876854,-0.852098,2.555,2.83248
-0.862103,-0.845762,2.536,2.80888
-0.853871,-0.845762,2.536,2.80637
-0.84564,-0.845762,2.536,2.80388
-0.843683,-0.852098,2.555,2.82239
-0.83539,-0.852098,2.555,2.81992
-0.833248,-0.858435,2.574,2.83843
-0.824893,-0.858435,2.574,2.83599
-0.816539,-0.858435,2.574,2.83357
-0.81415,-0.864772,2.593,2.85207
-0.811948,-0.871441,2.613,2.87166
-0.803467,-0.871441,2.613,2.86927
-0.801071,-0.878112,2.633,2.88885
-0.798845,-0.885115,2.654,2.90952
-0.796484,-0.892119,2.675,2.93017
-0.787802,-0.892119,2.675,2.92782
-0.785236,-0.899122,2.696,2.94846
-0.782533,-0.906126,2.717,2.96909
-0.773715,-0.906126,2.717,2.96678
-0.764896,-0.906126,2.717,2.96449
-0.756077,-0.906126,2.717,2.96223
-0.753309,-0.913463,2.739,2.98396
-0.744419,-0.913463,2.739,2.98173
-0.735529,-0.913463,2.739,2.97952
-0.726639,-0.913463,2.739,2.97734
-0.711984,-0.906126,2.717,2.95128
-0.69773,-0.899122,2.696,2.92637
-0.68898,-0.899122,2.696,2.9243
-0.680229,-0.899122,2.696,2.92225
-0.666248,-0.892119,2.675,2.89748
-0.657566,-0.892119,2.675,2.8955
-0.643789,-0.885115,2.654,2.87082
-0.630149,-0.878112,2.633,2.8462
-0.61216,-0.864772,2.593,2.80111
-0.603744,-0.864772,2.593,2.79928
-0.590965,-0.858435,2.574,2.77698
-0.57831,-0.852098,2.555,2.75473
-0.570017,-0.852098,2.555,2.753
-0.557547,-0.845762,2.536,2.73084
-0.549316,-0.845762,2.536,2.72917
-0.541085,-0.845762,2.536,2.72752
-0.528861,-0.839425,2.517,2.70548
-0.520692,-0.839425,2.517,2.70389
-0.512522,-0.839425,2.517,2.70233
-0.500746,-0.833422,2.499,2.68148
-0.489086,-0.827419,2.481,2.66067
-0.481034,-0.827419,2.481,2.65921
-0.472981,-0.827419,2.481,2.65776
-0.464928,-0.827419,2.481,2.65634
-0.456875,-0.827419,2.481,2.65494
-0.448823,-0.827419,2.481,2.65357
-0.44077,-0.827419,2.481,2.65222
-0.432717,-0.827419,2.481,2.65089
-0.424665,-0.827419,2.481,2.64959
-0.416612,-0.827419,2.481,2.64831
-0.408559,-0.827419,2.481,2.64706
-0.403412,-0.833422,2.499,2.66502
-0.395301,-0.833422,2.499,2.66381
-0.38719,-0.833422,2.499,2.66261
-0.379079,-0.833422,2.499,2.66145
-0.370968,-0.833422,2.499,2.6603
-0.362857,-0.833422,2.499,2.65918
-0.357301,-0.839425,2.517,2.67724
-0.349131,-0.839425,2.517,2.67616
-0.340961,-0.839425,2.517,2.6751
-0.332792,-0.839425,2.517,2.67407
-0.324622,-0.839425,2.517,2.67307
-0.316453,-0.839425,2.517,2.67209
-0.308283,-0.839425,2.517,2.67114
-0.300114,-0.839425,2.517,2.6702
-0.291944,-0.839425,2.517,2.6693
-0.283775,-0.839425,2.517,2.66842
-0.275605,-0.839425,2.517,2.66756
-0.267435,-0.839425,2.517,2.66673
-0.257412,-0.833422,2.499,2.64686
-0.249301,-0.833422,2.499,2.64608
-0.24119,-0.833422,2.499,2.64533
-0.233078,-0.833422,2.499,2.6446
-0.223347,-0.827419,2.481,2.62486
-0.215294,-0.827419,2.481,2.62418
-0.207241,-0.827419,2.481,2.62353
-0.200634,-0.833422,2.499,2.64194
-0.192523,-0.833422,2.499,2.64134
-0.184412,-0.833422,2.499,2.64076
-0.1763,-0.833422,2.499,2.6402
-0.168189,-0.833422,2.499,2.63967
-0.160078,-0.833422,2.499,2.63917
-0.151967,-0.833422,2.499,2.63869
-0.143856,-0.833422,2.499,2.63824
-0.136723,-0.839425,2.517,2.65681
-0.128553,-0.839425,2.517,2.6564
-0.120383,-0.839425,2.517,2.65602
-0.112214,-0.839425,2.517,2.65566
-0.104044,-0.839425,2.517,2.65532
-0.0958747,-0.839425,2.517,2.65502
-0.0883672,-0.845762,2.536,2.67477
-0.080136,-0.845762,2.536,2.67452
-0.0719048,-0.845762,2.536,2.67428
-0.0636736,-0.845762,2.536,2.67407
-0.0558577,-0.852098,2.555,2.69392
-0.0475648,-0.852098,2.555,2.69376
-0.0392719,-0.852098,2.555,2.69363
-0.030979,-0.852098,2.555,2.69352
-0.0228548,-0.858435,2.574,2.71347
-0.0145003,-0.858435,2.574,2.71341
-0.00614571,-0.858435,2.574,2.71338
0.00220886,-0.858435,2.574,2.71337
0.0105634,-0.858435,2.574,2.71339
0.018918,-0.858435,2.574,2.71344
0.0272725,-0.858435,2.574,2.71351
0.0356271,-0.858435,2.574,2.71361
0.0439817,-0.858435,2.574,2.71373
0.0527226,-0.864772,2.593,2.73391
0.0611388,-0.864772,2.593,2.73408
0.069555,-0.864772,2.593,2.73429
0.0779713,-0.864772,2.593,2.73451
0.0863875,-0.864772,2.593,2.73477
0.0948037,-0.864772,2.593,2.73504
0.10322,-0.864772,2.593,2.73535
0.111636,-0.864772,2.593,2.73568
0.120052,-0.864772,2.593,2.73604
0.128469,-0.864772,2.593,2.73642
0.136885,-0.864772,2.593,2.73683
0.145301,-0.864772,2.593,2.73726
0.153717,-0.864772,2.593,2.73772
0.162134,-0.864772,2.593,2.7382
0.17055,-0.864772,2.593,2.73872
0.178966,-0.864772,2.593,2.73925
0.187382,-0.864772,2.593,2.73982
0.195799,-0.864772,2.593,2.7404
0.204215,-0.864772,2.593,2.74102
0.212631,-0.864772,2.593,2.74166
0.221047,-0.864772,2.593,2.74232
0.229463,-0.864772,2.593,2.74302
0.236137,-0.858435,2.574,2.72363
0.244491,-0.858435,2.574,2.72436
0.252846,-0.858435,2.574,2.72513
0.2612,-0.858435,2.574,2.72592
0.269555,-0.858435,2.574,2.72673
0.27791,-0.858435,2.574,2.72757
0.286264,-0.858435,2.574,2.72843
0.294619,-0.858435,2.574,2.72932
0.302973,-0.858435,2.574,2.73023
0.311328,-0.858435,2.574,2.73117
0.319682,-0.858435,2.574,2.73214
0.328037,-0.858435,2.574,2.73313
0.336391,-0.858435,2.574,2.73414
0.344746,-0.858435,2.574,2.73519
0.353101,-0.858435,2.574,2.73625
0.364123,-0.864772,2.593,2.75755
0.372539,-0.864772,2.593,2.75867
0.378164,-0.858435,2.574,2.7396
