1.82832,-0.0176506,3.057,3.56207
1.83824,-0.0176506,3.057,3.56717
1.83184,-0.0174947,3.03,3.54074
1.82526,-0.0173388,3.003,3.51424
1.83501,-0.0173388,3.003,3.51932
1.84476,-0.0173388,3.003,3.52441
1.82239,-0.0170386,2.951,3.4684
1.83197,-0.0170386,2.951,3.47344
1.82595,-0.0168942,2.926,3.44904
1.81976,-0.0167499,2.901,3.42456
1.82918,-0.0167499,2.901,3.42957
1.82338,-0.0166113,2.877,3.40619
1.80215,-0.0163341,2.829,3.35429
1.7966,-0.0162014,2.806,3.33192
1.80571,-0.0162014,2.806,3.33684
1.79994,-0.0160686,2.783,3.31438
1.78037,-0.0158145,2.739,3.26682
1.78926,-0.0158145,2.739,3.27167
1.76992,-0.0155662,2.696,3.2251
1.76482,-0.015445,2.675,3.20475
1.7735,-0.015445,2.675,3.20954
1.7542,-0.0152025,2.633,3.16388
1.73597,-0.0149715,2.593,3.12049
1.74439,-0.0149715,2.593,3.12518
1.73996,-0.0148618,2.574,3.10695
1.73541,-0.0147521,2.555,3.08867
-1.94661,-0.00709634,2.806,3.41511
-1.92163,-0.00703817,2.783,3.38198
-1.91259,-0.00703817,2.783,3.37685
-1.88851,-0.00698254,2.761,3.34509
-1.86457,-0.0069269,2.739,3.31343
-1.85568,-0.0069269,2.739,3.30843
-1.83196,-0.00687126,2.717,3.27692
-1.80905,-0.00681815,2.696,3.24671
-1.8003,-0.00681815,2.696,3.24184
-1.77759,-0.00676504,2.675,3.21178
-1.76891,-0.00676504,2.675,3.20698
-1.76023,-0.00676504,2.675,3.2022
-1.75155,-0.00676504,2.675,3.19743
-1.74286,-0.00676504,2.675,3.19269
-1.73418,-0.00676504,2.675,3.18796
-1.7255,-0.00676504,2.675,3.18324
-1.70334,-0.00671193,2.654,3.15359
-1.69472,-0.00671193,2.654,3.14894
-1.69945,-0.00676504,2.675,3.1692
-1.69077,-0.00676504,2.675,3.16455
-1.69529,-0.00681815,2.696,3.18473
-1.68654,-0.00681815,2.696,3.18008
-1.70455,-0.0069269,2.739,3.22609
-1.69566,-0.0069269,2.739,3.2214
-1.70032,-0.00698254,2.761,3.24257
-1.70483,-0.00703817,2.783,3.26368
-1.6958,-0.00703817,2.783,3.25897
-1.70071,-0.00709634,2.806,3.28117
-1.70547,-0.00715451,2.829,3.30332
-1.69629,-0.00715451,2.829,3.29859
-1.70142,-0.0072152,2.853,3.32182
-1.69216,-0.0072152,2.853,3.31708
-1.6829,-0.0072152,2.853,3.31237
-1.65956,-0.00715451,2.829,3.27985
-1.63696,-0.00709634,2.806,3.24859
-1.62785,-0.00709634,2.806,3.24401
-1.60547,-0.00703817,2.783,3.21289
-1.58382,-0.00698254,2.761,3.18303
-1.57486,-0.00698254,2.761,3.17858
-1.55342,-0.0069269,2.739,3.14885
-1.52028,-0.00681815,2.696,3.09511
-1.51153,-0.00681815,2.696,3.09082
-1.49107,-0.00676504,2.675,3.06251
-1.48239,-0.00676504,2.675,3.05829
-1.47371,-0.00676504,2.675,3.05409
-1.46503,-0.00676504,2.675,3.04991
-1.45635,-0.00676504,2.675,3.04575
-1.44766,-0.00676504,2.675,3.04161
-1.45028,-0.00681815,2.696,3.06133
-1.44153,-0.00681815,2.696,3.0572
-1.44394,-0.00687126,2.717,3.07686
-1.43512,-0.00687126,2.717,3.07274
-1.4263,-0.00687126,2.717,3.06863
-1.42896,-0.0069269,2.739,3.08935
-1.43147,-0.00698254,2.761,3.11003
-1.42251,-0.00698254,2.761,3.10592
-1.41355,-0.00698254,2.761,3.10182
-1.40459,-0.00698254,2.761,3.09775
-1.39563,-0.00698254,2.761,3.09369
-1.37562,-0.0069269,2.739,3.06504
-1.34527,-0.00681815,2.696,3.01301
-1.33652,-0.00681815,2.696,3.00911
-1.30708,-0.00671193,2.654,2.95842
-1.27841,-0.00660825,2.613,2.90898
-1.26993,-0.00660825,2.613,2.90526
-1.25179,-0.00655767,2.593,2.87935
-1.22516,-0.00646156,2.555,2.83356
-1.20781,-0.00641351,2.536,2.80894
-1.19958,-0.00641351,2.536,2.80541
-1.18243,-0.00636546,2.517,2.78091
-1.17426,-0.00636546,2.517,2.77745
-1.16609,-0.00636546,2.517,2.774
-1.14964,-0.00631994,2.499,2.75076
-1.1333,-0.00627442,2.481,2.7276
-1.12525,-0.00627442,2.481,2.72426
-1.10909,-0.0062289,2.463,2.7012
-1.1011,-0.0062289,2.463,2.69793
-1.0931,-0.0062289,2.463,2.69468
-1.08511,-0.0062289,2.463,2.69144
-1.07712,-0.0062289,2.463,2.68823
-1.06912,-0.0062289,2.463,2.68504
-1.06113,-0.0062289,2.463,2.68186
-1.04544,-0.00618338,2.445,2.65914
-1.0375,-0.00618338,2.445,2.65603
-1.02956,-0.00618338,2.445,2.65294
-1.02163,-0.00618338,2.445,2.64987
-1.00664,-0.00614038,2.428,2.62841
-0.998763,-0.00614038,2.428,2.62541
-0.990883,-0.00614038,2.428,2.62242
-0.983002,-0.00614038,2.428,2.61945
-0.975121,-0.00614038,2.428,2.6165
-0.967241,-0.00614038,2.428,2.61358
-0.952643,-0.00609739,2.411,2.59239
-0.944817,-0.00609739,2.411,2.58952
-0.936992,-0.00609739,2.411,2.58668
-0.929166,-0.00609739,2.411,2.58386
-0.921341,-0.00609739,2.411,2.58105
-0.913515,-0.00609739,2.411,2.57827
-0.90569,-0.00609739,2.411,2.57551
-0.897864,-0.00609739,2.411,2.57276
-0.890039,-0.00609739,2.411,2.57004
-0.882213,-0.00609739,2.411,2.56734
-0.874388,-0.00609739,2.411,2.56467
-0.866562,-0.00609739,2.411,2.56201
-0.858737,-0.00609739,2.411,2.55937
-0.850911,-0.00609739,2.411,2.55676
-0.843086,-0.00609739,2.411,2.55416
-0.83526,-0.00609739,2.411,2.55159
-0.827435,-0.00609739,2.411,2.54904
-0.819609,-0.00609739,2.411,2.54651
-0.817508,-0.00614038,2.428,2.56194
-0.809627,-0.00614038,2.428,2.55944
-0.801746,-0.00614038,2.428,2.55696
-0.793866,-0.00614038,2.428,2.5545
-0.785985,-0.00614038,2.428,2.55206
-0.778104,-0.00614038,2.428,2.54964
-0.770224,-0.00614038,2.428,2.54725
-0.762343,-0.00614038,2.428,2.54488
-0.754462,-0.00614038,2.428,2.54253
-0.746581,-0.00614038,2.428,2.5402
-0.738701,-0.00614038,2.428,2.53789
-0.73082,-0.00614038,2.428,2.53561
-0.728001,-0.00618338,2.445,2.55109
-0.720065,-0.00618338,2.445,2.54883
-0.712129,-0.00618338,2.445,2.5466
-0.704194,-0.00618338,2.445,2.5444
-0.701384,-0.0062289,2.463,2.56093
-0.693389,-0.0062289,2.463,2.55875
-0.685395,-0.0062289,2.463,2.55659
-0.677401,-0.0062289,2.463,2.55446
-0.669406,-0.0062289,2.463,2.55235
-0.661412,-0.0062289,2.463,2.55027
-0.648643,-0.00618338,2.445,2.52959
-0.640707,-0.00618338,2.445,2.52756
-0.632771,-0.00618338,2.445,2.52556
-0.624835,-0.00618338,2.445,2.52359
-0.616899,-0.00618338,2.445,2.52163
-0.608963,-0.00618338,2.445,2.5197
-0.601027,-0.00618338,2.445,2.5178
-0.593092,-0.00618338,2.445,2.51591
-0.585156,-0.00618338,2.445,2.51405
-0.57722,-0.00618338,2.445,2.51222
-0.569284,-0.00618338,2.445,2.51041
-0.561348,-0.00618338,2.445,2.50862
-0.553412,-0.00618338,2.445,2.50686
-0.545476,-0.00618338,2.445,2.50512
-0.53754,-0.00618338,2.445,2.5034
-0.533504,-0.0062289,2.463,2.52013
-0.525509,-0.0062289,2.463,2.51845
-0.517515,-0.0062289,2.463,2.51679
-0.509521,-0.0062289,2.463,2.51516
-0.501526,-0.0062289,2.463,2.51355
-0.497139,-0.00627442,2.481,2.53033
-0.489086,-0.00627442,2.481,2.52876
-0.481034,-0.00627442,2.481,2.52721
-0.472981,-0.00627442,2.481,2.52569
-0.464928,-0.00627442,2.481,2.52419
-0.456875,-0.00627442,2.481,2.52272
-0.452079,-0.00631994,2.499,2.53957
-0.443968,-0.00631994,2.499,2.53814
-0.435857,-0.00631994,2.499,2.53673
-0.427746,-0.00631994,2.499,2.53535
-0.422657,-0.00636546,2.517,2.55225
-0.414487,-0.00636546,2.517,2.55091
-0.406318,-0.00636546,2.517,2.54959
-0.398148,-0.00636546,2.517,2.5483
-0.389979,-0.00636546,2.517,2.54704
-0.381809,-0.00636546,2.517,2.5458
-0.37364,-0.00636546,2.517,2.54459
-0.36547,-0.00636546,2.517,2.5434
-0.357301,-0.00636546,2.517,2.54224
-0.349131,-0.00636546,2.517,2.54111
-0.340961,-0.00636546,2.517,2.54
-0.335304,-0.00641351,2.536,2.55808
-0.327073,-0.00641351,2.536,2.55701
-0.316453,-0.00636546,2.517,2.53682
-0.308283,-0.00636546,2.517,2.53582
-0.300114,-0.00636546,2.517,2.53484
-0.291944,-0.00636546,2.517,2.53388
-0.283775,-0.00636546,2.517,2.53295
-0.275605,-0.00636546,2.517,2.53205
-0.267435,-0.00636546,2.517,2.53118
-0.259266,-0.00636546,2.517,2.53033
-0.251096,-0.00636546,2.517,2.5295
-0.242927,-0.00636546,2.517,2.5287
-0.233078,-0.00631994,2.499,2.50985
-0.224967,-0.00631994,2.499,2.50911
-0.216856,-0.00631994,2.499,2.5084
-0.208745,-0.00631994,2.499,2.50771
-0.200634,-0.00631994,2.499,2.50705
-0.192523,-0.00631994,2.499,2.50641
-0.184412,-0.00631994,2.499,2.5058
-0.1763,-0.00631994,2.499,2.50522
-0.168189,-0.00631994,2.499,2.50466
-0.160078,-0.00631994,2.499,2.50413
-0.151967,-0.00631994,2.499,2.50362
-0.143856,-0.00631994,2.499,2.50315
-0.135745,-0.00631994,2.499,2.50269
-0.128553,-0.00636546,2.517,2.52029
-0.120383,-0.00636546,2.517,2.51989
-0.112214,-0.00636546,2.517,2.51951
-0.104044,-0.00636546,2.517,2.51916
-0.0958747,-0.00636546,2.517,2.51883
-0.0883672,-0.00641351,2.536,2.53755
-0.080136,-0.00641351,2.536,2.53727
-0.0719048,-0.00641351,2.536,2.53703
-0.0636736,-0.00641351,2.536,2.53681
-0.0554423,-0.00641351,2.536,2.53661
-0.0472111,-0.00641351,2.536,2.53645
-0.0392719,-0.00646156,2.555,2.55531
-0.030979,-0.00646156,2.555,2.5552
-0.0226861,-0.00646156,2.555,2.55511
-0.0143932,-0.00646156,2.555,2.55505
-0.00610034,-0.00646156,2.555,2.55502
0.00217625,-0.00641351,2.536,2.53601
0.0104075,-0.00641351,2.536,2.53603
0.0186387,-0.00641351,2.536,2.53608
0.0268699,-0.00641351,2.536,2.53615
0.0351011,-0.00641351,2.536,2.53625
0.0433324,-0.00641351,2.536,2.53638
0.0511773,-0.00636546,2.517,2.51753
0.0593468,-0.00636546,2.517,2.51771
0.0675164,-0.00636546,2.517,2.51791
0.075686,-0.00636546,2.517,2.51815
0.0838555,-0.00636546,2.517,2.5184
0.0920251,-0.00636546,2.517,2.51869
0.100195,-0.00636546,2.517,2.519
0.108364,-0.00636546,2.517,2.51934
0.116534,-0.00636546,2.517,2.5197
0.125645,-0.00641351,2.536,2.53912
0.133876,-0.00641351,2.536,2.53954
0.142107,-0.00641351,2.536,2.53999
0.150338,-0.00641351,2.536,2.54046
0.15857,-0.00641351,2.536,2.54096
0.166801,-0.00641351,2.536,2.54149
0.175032,-0.00641351,2.536,2.54204
0.183263,-0.00641351,2.536,2.54262
0.191494,-0.00641351,2.536,2.54323
0.199726,-0.00641351,2.536,2.54386
0.207957,-0.00641351,2.536,2.54452
0.216188,-0.00641351,2.536,2.54521
0.224419,-0.00641351,2.536,2.54592
0.232651,-0.00641351,2.536,2.54666
0.239077,-0.00636546,2.517,2.52834
0.247247,-0.00636546,2.517,2.52912
0.255416,-0.00636546,2.517,2.52993
0.263586,-0.00636546,2.517,2.53077
0.269812,-0.00631994,2.499,2.51353
0.277923,-0.00631994,2.499,2.51441
0.286034,-0.00631994,2.499,2.51532
0.292027,-0.00627442,2.481,2.49814
0.297902,-0.0062289,2.463,2.48096
0.305896,-0.0062289,2.463,2.48193
0.313891,-0.0062289,2.463,2.48293
0.319533,-0.00618338,2.445,2.4658
0.327469,-0.00618338,2.445,2.46684
0.333072,-0.00614038,2.428,2.45075
0.340953,-0.00614038,2.428,2.45183
0.348834,-0.00614038,2.428,2.45294
0.356714,-0.00614038,2.428,2.45407
0.362042,-0.00609739,2.411,2.43804
0.369868,-0.00609739,2.411,2.43921
0.377693,-0.00609739,2.411,2.44041
0.385519,-0.00609739,2.411,2.44164
0.390571,-0.0060544,2.394,2.42566
0.398341,-0.0060544,2.394,2.42692
0.406112,-0.0060544,2.394,2.42821
0.416821,-0.00609739,2.411,2.44677
0.424646,-0.00609739,2.411,2.44812
0.432472,-0.00609739,2.411,2.44949
0.440297,-0.00609739,2.411,2.45088
0.448123,-0.00609739,2.411,2.4523
0.455948,-0.00609739,2.411,2.45374
0.467044,-0.00614038,2.428,2.47252
0.474925,-0.00614038,2.428,2.47402
0.482805,-0.00614038,2.428,2.47555
0.490686,-0.00614038,2.428,2.47709
0.502058,-0.00618338,2.445,2.49602
0.509993,-0.00618338,2.445,2.49763
0.517929,-0.00618338,2.445,2.49926
0.529737,-0.0062289,2.463,2.51933
0.537731,-0.0062289,2.463,2.52102
0.545725,-0.0062289,2.463,2.52274
0.557766,-0.00627442,2.481,2.54293
0.569924,-0.00631994,2.499,2.56317
0.573871,-0.00627442,2.481,2.54651
0.581924,-0.00627442,2.481,2.54834
0.594257,-0.00631994,2.499,2.56869
0.606707,-0.00636546,2.517,2.5891
0.614877,-0.00636546,2.517,2.59102
0.623046,-0.00636546,2.517,2.59297
0.631216,-0.00636546,2.517,2.59495
0.639385,-0.00636546,2.517,2.59695
0.647555,-0.00636546,2.517,2.59897
0.655725,-0.00636546,2.517,2.60102
0.663894,-0.00636546,2.517,2.60309
0.672064,-0.00636546,2.517,2.60519
0.680233,-0.00636546,2.517,2.60731
0.688403,-0.00636546,2.517,2.60945
0.696572,-0.00636546,2.517,2.61162
0.704742,-0.00636546,2.517,2.61381
0.712911,-0.00636546,2.517,2.61602
0.721081,-0.00636546,2.517,2.61826
0.729251,-0.00636546,2.517,2.62052
0.73742,-0.00636546,2.517,2.62281
0.74559,-0.00636546,2.517,2.62512
0.753759,-0.00636546,2.517,2.62745
0.761929,-0.00636546,2.517,2.6298
0.770098,-0.00636546,2.517,2.63218
0.778268,-0.00636546,2.517,2.63458
0.786437,-0.00636546,2.517,2.63701
0.794607,-0.00636546,2.517,2.63946
0.802777,-0.00636546,2.517,2.64193
0.810946,-0.00636546,2.517,2.64442
0.819116,-0.00636546,2.517,2.64694
0.821369,-0.00631994,2.499,2.63053
0.82948,-0.00631994,2.499,2.63307
0.837591,-0.00631994,2.499,2.63564
0.845702,-0.00631994,2.499,2.63823
0.847664,-0.00627442,2.481,2.62182
0.855716,-0.00627442,2.481,2.62443
0.863769,-0.00627442,2.481,2.62707
0.871822,-0.00627442,2.481,2.62973
0.879874,-0.00627442,2.481,2.63241
0.881485,-0.0062289,2.463,2.61599
0.882979,-0.00618338,2.445,2.59956
0.890915,-0.00618338,2.445,2.60227
0.898851,-0.00618338,2.445,2.60499
0.900482,-0.00614038,2.428,2.58961
0.902002,-0.00609739,2.411,2.57421
0.909828,-0.00609739,2.411,2.57696
0.917653,-0.00609739,2.411,2.57974
0.918953,-0.0060544,2.394,2.56432
0.926724,-0.0060544,2.394,2.56712
0.934494,-0.0060544,2.394,2.56993
0.942264,-0.0060544,2.394,2.57277
0.950035,-0.0060544,2.394,2.57562
0.957805,-0.0060544,2.394,2.5785
0.965575,-0.0060544,2.394,2.5814
0.973346,-0.0060544,2.394,2.58431
0.988083,-0.00609739,2.411,2.60562
0.995908,-0.00609739,2.411,2.6086
1.01081,-0.00614038,2.428,2.63001
1.01869,-0.00614038,2.428,2.63305
1.02657,-0.00614038,2.428,2.63611
1.0417,-0.00618338,2.445,2.65767
1.05736,-0.0062289,2.463,2.68038
1.06535,-0.0062289,2.463,2.68354
1.08904,-0.00631994,2.499,2.72599
1.10505,-0.00636546,2.517,2.7489
1.13843,-0.00650962,2.574,2.81452
1.14678,-0.00650962,2.574,2.81791
1.17264,-0.00660825,2.613,2.86407
1.19965,-0.00671193,2.654,2.91255
1.20827,-0.00671193,2.654,2.91611
1.23614,-0.00681815,2.696,2.96589
1.27491,-0.00698254,2.761,3.04114
1.28387,-0.00698254,2.761,3.04491
1.3139,-0.00709634,2.806,3.09839
1.33385,-0.00715451,2.829,3.12769
1.35443,-0.0072152,2.853,3.15819
1.36369,-0.0072152,2.853,3.16217
1.3845,-0.0072759,2.877,3.19281
1.40546,-0.00733659,2.901,3.22354
1.41488,-0.00733659,2.901,3.22765
1.43657,-0.00739982,2.926,3.25964
1.44607,-0.00739982,2.926,3.26384
1.45556,-0.00739982,2.926,3.26806
1.46506,-0.00739982,2.926,3.2723
1.48716,-0.00746304,2.951,3.30456
1.50992,-0.0075288,2.977,3.33803
1.51958,-0.0075288,2.977,3.34241
1.5426,-0.00759455,3.003,3.37605
1.58026,-0.00773112,3.057,3.4413
1.59019,-0.00773112,3.057,3.44587
1.60011,-0.00773112,3.057,3.45046
1.62425,-0.0077994,3.084,3.48559
1.63426,-0.0077994,3.084,3.49026
1.6592,-0.00787021,3.112,3.52669
1.6693,-0.00787021,3.112,3.53145
1.69505,-0.00794355,3.141,3.56919
1.70524,-0.00794355,3.141,3.57405
1.73128,-0.00801689,3.17,3.61196
1.74157,-0.00801689,3.17,3.61691
1.75186,-0.00801689,3.17,3.62187
1.76214,-0.00801689,3.17,3.62686
1.77243,-0.00801689,3.17,3.63187
1.78272,-0.00801689,3.17,3.6369
1.79301,-0.00801689,3.17,3.64196
1.8033,-0.00801689,3.17,3.64703
1.81359,-0.00801689,3.17,3.65213
1.80719,-0.00794355,3.141,3.6238
1.81739,-0.00794355,3.141,3.62889
1.82758,-0.00794355,3.141,3.63401
1.83778,-0.00794355,3.141,3.63914
1.83091,-0.00787021,3.112,3.61066
1.84101,-0.00787021,3.112,3.61579
1.83446,-0.0077994,3.084,3.58836
1.82832,-0.00773112,3.057,3.56203
1.83824,-0.00773112,3.057,3.56713
1.83184,-0.00766283,3.03,3.54071
1.82526,-0.00759455,3.003,3.51421
1.83501,-0.00759455,3.003,3.51928
1.84476,-0.00759455,3.003,3.52437
1.83845,-0.0075288,2.977,3.49893
1.84811,-0.0075288,2.977,3.50401
1.84155,-0.00746304,2.951,3.47847
1.81976,-0.00733659,2.901,3.42453
1.82918,-0.00733659,2.901,3.42954
1.82338,-0.0072759,2.877,3.40616
1.80215,-0.00715451,2.829,3.35425
1.7966,-0.00709634,2.806,3.33189
1.80571,-0.00709634,2.806,3.33681
1.79994,-0.00703817,2.783,3.31435
1.78037,-0.0069269,2.739,3.26679
1.78926,-0.0069269,2.739,3.27164
1.78371,-0.00687126,2.717,3.25019
1.76482,-0.00676504,2.675,3.20472
1.7735,-0.00676504,2.675,3.20951
1.76819,-0.00671193,2.654,3.18909
1.74936,-0.00660825,2.613,3.14453
1.75784,-0.00660825,2.613,3.14926
1.73996,-0.00650962,2.574,3.10692
1.73541,-0.00646156,2.555,3.08864
-1.94661,0.00200867,2.806,3.41511
-1.92163,0.00199221,2.783,3.38197
-1.91259,0.00199221,2.783,3.37685
-1.88851,0.00197646,2.761,3.34509
-1.86457,0.00196071,2.739,3.31342
-1.85568,0.00196071,2.739,3.30843
-1.83196,0.00194496,2.717,3.27691
-1.80905,0.00192993,2.696,3.2467
-1.8003,0.00192993,2.696,3.24184
-1.77759,0.00191489,2.675,3.21177
-1.76891,0.00191489,2.675,3.20697
-1.76023,0.00191489,2.675,3.20219
-1.75155,0.00191489,2.675,3.19743
-1.72918,0.00189986,2.654,3.16762
-1.72057,0.00189986,2.654,3.16292
-1.71195,0.00189986,2.654,3.15824
-1.70334,0.00189986,2.654,3.15358
-1.69472,0.00189986,2.654,3.14894
-1.68611,0.00189986,2.654,3.14431
-1.6775,0.00189986,2.654,3.1397
-1.68209,0.00191489,2.675,3.15991
-1.68654,0.00192993,2.696,3.18007
-1.70455,0.00196071,2.739,3.22608
-1.69566,0.00196071,2.739,3.2214
-1.70032,0.00197646,2.761,3.24256
-1.70483,0.00199221,2.783,3.26367
-1.6958,0.00199221,2.783,3.25896
-1.70071,0.00200867,2.806,3.28117
-1.70547,0.00202514,2.829,3.30331
-1.69629,0.00202514,2.829,3.29858
-1.70142,0.00204232,2.853,3.32181
-1.69216,0.00204232,2.853,3.31708
-1.6829,0.00204232,2.853,3.31236
-1.65956,0.00202514,2.829,3.27984
-1.63696,0.00200867,2.806,3.24858
-1.62785,0.00200867,2.806,3.244
-1.60547,0.00199221,2.783,3.21289
-1.58382,0.00197646,2.761,3.18302
-1.57486,0.00197646,2.761,3.17857
-1.55342,0.00196071,2.739,3.14885
-1.52028,0.00192993,2.696,3.09511
-1.51153,0.00192993,2.696,3.09082
-1.49107,0.00191489,2.675,3.0625
-1.48239,0.00191489,2.675,3.05829
-1.47371,0.00191489,2.675,3.05409
-1.46503,0.00191489,2.675,3.04991
-1.45635,0.00191489,2.675,3.04575
-1.44766,0.00191489,2.675,3.0416
-1.45028,0.00192993,2.696,3.06133
-1.44153,0.00192993,2.696,3.05719
-1.44394,0.00194496,2.717,3.07686
-1.43512,0.00194496,2.717,3.07273
-1.4263,0.00194496,2.717,3.06862
-1.42896,0.00196071,2.739,3.08934
-1.43147,0.00197646,2.761,3.11002
-1.42251,0.00197646,2.761,3.10591
-1.41355,0.00197646,2.761,3.10181
-1.40459,0.00197646,2.761,3.09774
-1.39563,0.00197646,2.761,3.09369
-1.37562,0.00196071,2.739,3.06504
-1.34527,0.00192993,2.696,3.013
-1.33652,0.00192993,2.696,3.0091
-1.30708,0.00189986,2.654,2.95841
-1.27841,0.00187051,2.613,2.90897
-1.26993,0.00187051,2.613,2.90525
-1.25179,0.0018562,2.593,2.87935
-1.23427,0.00184259,2.574,2.85463
-1.20781,0.00181539,2.536,2.80893
-1.19958,0.00181539,2.536,2.80541
-1.18243,0.00180179,2.517,2.7809
-1.17426,0.00180179,2.517,2.77744
-1.16609,0.00180179,2.517,2.774
-1.14964,0.00178891,2.499,2.75076
-1.1333,0.00177602,2.481,2.72759
-1.12525,0.00177602,2.481,2.72425
-1.10909,0.00176313,2.463,2.7012
-1.1011,0.00176313,2.463,2.69792
-1.0931,0.00176313,2.463,2.69467
-1.07718,0.00175025,2.445,2.67177
-1.06924,0.00175025,2.445,2.66858
-1.06131,0.00175025,2.445,2.66541
-1.05337,0.00175025,2.445,2.66226
-1.03817,0.00173808,2.428,2.64064
-1.03029,0.00173808,2.428,2.63755
-1.02241,0.00173808,2.428,2.63448
-1.01452,0.00173808,2.428,2.63143
-0.999596,0.00172591,2.411,2.61
-0.99177,0.00172591,2.411,2.60702
-0.983945,0.00172591,2.411,2.60405
-0.976119,0.00172591,2.411,2.6011
-0.968294,0.00172591,2.411,2.59818
-0.960468,0.00172591,2.411,2.59527
-0.945926,0.00171374,2.394,2.5741
-0.938156,0.00171374,2.394,2.57126
-0.930385,0.00171374,2.394,2.56843
-0.922615,0.00171374,2.394,2.56563
-0.914845,0.00171374,2.394,2.56285
-0.907074,0.00171374,2.394,2.56008
-0.899304,0.00171374,2.394,2.55734
-0.891534,0.00171374,2.394,2.55462
-0.883763,0.00171374,2.394,2.55192
-0.875993,0.00171374,2.394,2.54924
-0.868223,0.00171374,2.394,2.54658
-0.860452,0.00171374,2.394,2.54394
-0.852682,0.00171374,2.394,2.54132
-0.844912,0.00171374,2.394,2.53872
-0.837141,0.00171374,2.394,2.53615
-0.83526,0.00172591,2.411,2.55158
-0.827435,0.00172591,2.411,2.54903
-0.819609,0.00172591,2.411,2.5465
-0.811784,0.00172591,2.411,2.544
-0.803958,0.00172591,2.411,2.54151
-0.796133,0.00172591,2.411,2.53905
-0.793866,0.00173808,2.428,2.55449
-0.785985,0.00173808,2.428,2.55205
-0.778104,0.00173808,2.428,2.54963
-0.770224,0.00173808,2.428,2.54724
-0.762343,0.00173808,2.428,2.54487
-0.754462,0.00173808,2.428,2.54252
-0.746581,0.00173808,2.428,2.54019
-0.738701,0.00173808,2.428,2.53789
-0.73082,0.00173808,2.428,2.5356
-0.728001,0.00175025,2.445,2.55108
-0.720065,0.00175025,2.445,2.54883
-0.712129,0.00175025,2.445,2.5466
-0.704194,0.00175025,2.445,2.54439
-0.701384,0.00176313,2.463,2.56092
-0.693389,0.00176313,2.463,2.55874
-0.685395,0.00176313,2.463,2.55659
-0.677401,0.00176313,2.463,2.55446
-0.669406,0.00176313,2.463,2.55235
-0.661412,0.00176313,2.463,2.55026
-0.653418,0.00176313,2.463,2.5482
-0.645424,0.00176313,2.463,2.54616
-0.632771,0.00175025,2.445,2.52555
-0.624835,0.00175025,2.445,2.52358
-0.616899,0.00175025,2.445,2.52163
-0.608963,0.00175025,2.445,2.5197
-0.601027,0.00175025,2.445,2.51779
-0.593092,0.00175025,2.445,2.51591
-0.585156,0.00175025,2.445,2.51405
-0.57722,0.00175025,2.445,2.51221
-0.573475,0.00176313,2.463,2.52888
-0.565481,0.00176313,2.463,2.52708
-0.557486,0.00176313,2.463,2.5253
-0.549492,0.00176313,2.463,2.52355
-0.541498,0.00176313,2.463,2.52182
-0.533504,0.00176313,2.463,2.52012
-0.525509,0.00176313,2.463,2.51844
-0.521297,0.00177602,2.481,2.53518
-0.513244,0.00177602,2.481,2.53353
-0.505192,0.00177602,2.481,2.53191
-0.497139,0.00177602,2.481,2.53032
-0.492635,0.00178891,2.499,2.5471
-0.484524,0.00178891,2.499,2.54554
-0.476412,0.00178891,2.499,2.54401
-0.468301,0.00178891,2.499,2.5425
-0.463505,0.00180179,2.517,2.55932
-0.455335,0.00180179,2.517,2.55786
-0.447166,0.00180179,2.517,2.55641
-0.438996,0.00180179,2.517,2.555
-0.430827,0.00180179,2.517,2.55361
-0.422657,0.00180179,2.517,2.55224
-0.414487,0.00180179,2.517,2.5509
-0.406318,0.00180179,2.517,2.54959
-0.398148,0.00180179,2.517,2.5483
-0.392923,0.00181539,2.536,2.56626
-0.384691,0.00181539,2.536,2.56501
-0.37646,0.00181539,2.536,2.56379
-0.36547,0.00180179,2.517,2.5434
-0.357301,0.00180179,2.517,2.54223
-0.349131,0.00180179,2.517,2.5411
-0.343535,0.00181539,2.536,2.55916
-0.335304,0.00181539,2.536,2.55807
-0.324622,0.00180179,2.517,2.53785
-0.316453,0.00180179,2.517,2.53682
-0.308283,0.00180179,2.517,2.53581
-0.300114,0.00180179,2.517,2.53483
-0.291944,0.00180179,2.517,2.53388
-0.283775,0.00180179,2.517,2.53295
-0.275605,0.00180179,2.517,2.53204
-0.267435,0.00180179,2.517,2.53117
-0.257412,0.00178891,2.499,2.51222
-0.249301,0.00178891,2.499,2.5114
-0.24119,0.00178891,2.499,2.51061
-0.233078,0.00178891,2.499,2.50985
-0.224967,0.00178891,2.499,2.50911
-0.216856,0.00178891,2.499,2.50839
-0.208745,0.00178891,2.499,2.5077
-0.200634,0.00178891,2.499,2.50704
-0.192523,0.00178891,2.499,2.50641
-0.184412,0.00178891,2.499,2.5058
-0.1763,0.00178891,2.499,2.50521
-0.168189,0.00178891,2.499,2.50465
-0.160078,0.00178891,2.499,2.50412
-0.151967,0.00178891,2.499,2.50362
-0.143856,0.00178891,2.499,2.50314
-0.135745,0.00178891,2.499,2.50268
-0.127634,0.00178891,2.499,2.50226
-0.120383,0.00180179,2.517,2.51988
-0.112214,0.00180179,2.517,2.5195
-0.104044,0.00180179,2.517,2.51915
-0.0958747,0.00180179,2.517,2.51883
-0.0877052,0.00180179,2.517,2.51853
-0.0795356,0.00180179,2.517,2.51826
-0.0719048,0.00181539,2.536,2.53702
-0.0636736,0.00181539,2.536,2.5368
-0.0554423,0.00181539,2.536,2.53661
-0.0472111,0.00181539,2.536,2.53644
-0.0392719,0.00182899,2.555,2.5553
-0.030979,0.00182899,2.555,2.55519
-0.0226861,0.00182899,2.555,2.5551
-0.0143932,0.00182899,2.555,2.55504
-0.00610034,0.00182899,2.555,2.55501
0.00217625,0.00181539,2.536,2.536
0.0104075,0.00181539,2.536,2.53602
0.0186387,0.00181539,2.536,2.53607
0.0268699,0.00181539,2.536,2.53614
0.0351011,0.00181539,2.536,2.53624
0.0433324,0.00181539,2.536,2.53637
0.0515636,0.00181539,2.536,2.53652
0.0597948,0.00181539,2.536,2.53671
0.0680261,0.00181539,2.536,2.53691
0.075686,0.00180179,2.517,2.51814
0.0838555,0.00180179,2.517,2.5184
0.0920251,0.00180179,2.517,2.51868
0.100195,0.00180179,2.517,2.51899
0.108364,0.00180179,2.517,2.51933
0.117413,0.00181539,2.536,2.53872
0.125645,0.00181539,2.536,2.53911
0.133876,0.00181539,2.536,2.53953
0.142107,0.00181539,2.536,2.53998
0.150338,0.00181539,2.536,2.54045
0.15857,0.00181539,2.536,2.54095
0.166801,0.00181539,2.536,2.54148
0.175032,0.00181539,2.536,2.54203
0.183263,0.00181539,2.536,2.54261
0.191494,0.00181539,2.536,2.54322
0.199726,0.00181539,2.536,2.54385
0.207957,0.00181539,2.536,2.54451
0.216188,0.00181539,2.536,2.5452
0.224419,0.00181539,2.536,2.54591
0.232651,0.00181539,2.536,2.54665
0.240882,0.00181539,2.536,2.54742
0.247247,0.00180179,2.517,2.52912
0.255416,0.00180179,2.517,2.52993
0.263586,0.00180179,2.517,2.53076
0.269812,0.00178891,2.499,2.51352
0.277923,0.00178891,2.499,2.51441
0.286034,0.00178891,2.499,2.51532
0.292027,0.00177602,2.481,2.49813
0.297902,0.00176313,2.463,2.48095
0.305896,0.00176313,2.463,2.48192
0.313891,0.00176313,2.463,2.48292
0.319533,0.00175025,2.445,2.46579
0.327469,0.00175025,2.445,2.46683
0.333072,0.00173808,2.428,2.45074
0.340953,0.00173808,2.428,2.45182
0.348834,0.00173808,2.428,2.45293
0.356714,0.00173808,2.428,2.45406
0.362042,0.00172591,2.411,2.43803
0.369868,0.00172591,2.411,2.43921
0.377693,0.00172591,2.411,2.4404
0.385519,0.00172591,2.411,2.44163
0.390571,0.00171374,2.394,2.42565
0.398341,0.00171374,2.394,2.42691
0.406112,0.00171374,2.394,2.4282
0.413882,0.00171374,2.394,2.42951
0.424646,0.00172591,2.411,2.44811
0.432472,0.00172591,2.411,2.44948
0.440297,0.00172591,2.411,2.45087
0.448123,0.00172591,2.411,2.45229
0.455948,0.00172591,2.411,2.45373
0.463774,0.00172591,2.411,2.4552
0.474925,0.00173808,2.428,2.47401
0.482805,0.00173808,2.428,2.47554
0.490686,0.00173808,2.428,2.47709
0.502058,0.00175025,2.445,2.49601
0.509993,0.00175025,2.445,2.49762
0.517929,0.00175025,2.445,2.49926
0.529737,0.00176313,2.463,2.51932
0.537731,0.00176313,2.463,2.52102
0.545725,0.00176313,2.463,2.52273
0.557766,0.00177602,2.481,2.54293
0.569924,0.00178891,2.499,2.56317
0.573871,0.00177602,2.481,2.54651
0.581924,0.00177602,2.481,2.54833
0.594257,0.00178891,2.499,2.56869
0.602368,0.00178891,2.499,2.57057
0.610479,0.00178891,2.499,2.57249
0.623046,0.00180179,2.517,2.59297
0.631216,0.00180179,2.517,2.59494
0.639385,0.00180179,2.517,2.59694
0.647555,0.00180179,2.517,2.59897
0.655725,0.00180179,2.517,2.60101
0.663894,0.00180179,2.517,2.60308
0.672064,0.00180179,2.517,2.60518
0.680233,0.00180179,2.517,2.6073
0.688403,0.00180179,2.517,2.60944
0.696572,0.00180179,2.517,2.61161
0.704742,0.00180179,2.517,2.6138
0.712911,0.00180179,2.517,2.61602
0.721081,0.00180179,2.517,2.61825
0.729251,0.00180179,2.517,2.62052
0.73742,0.00180179,2.517,2.6228
0.74559,0.00180179,2.517,2.62511
0.753759,0.00180179,2.517,2.62744
0.761929,0.00180179,2.517,2.6298
0.770098,0.00180179,2.517,2.63217
0.778268,0.00180179,2.517,2.63458
0.786437,0.00180179,2.517,2.637
0.794607,0.00180179,2.517,2.63945
0.802777,0.00180179,2.517,2.64192
0.805147,0.00178891,2.499,2.6255
0.813258,0.00178891,2.499,2.628
0.821369,0.00178891,2.499,2.63052
0.82948,0.00178891,2.499,2.63307
0.837591,0.00178891,2.499,2.63563
0.845702,0.00178891,2.499,2.63822
0.847664,0.00177602,2.481,2.62181
0.855716,0.00177602,2.481,2.62443
0.863769,0.00177602,2.481,2.62706
0.865497,0.00176313,2.463,2.61064
0.873491,0.00176313,2.463,2.6133
0.881485,0.00176313,2.463,2.61599
0.882979,0.00175025,2.445,2.59955
0.88472,0.00173808,2.428,2.58417
0.892601,0.00173808,2.428,2.58688
0.900482,0.00173808,2.428,2.58961
0.902002,0.00172591,2.411,2.57421
0.909828,0.00172591,2.411,2.57696
0.911183,0.00171374,2.394,2.56154
0.918953,0.00171374,2.394,2.56432
0.926724,0.00171374,2.394,2.56711
0.934494,0.00171374,2.394,2.56993
0.935573,0.00170157,2.377,2.55449
0.943288,0.00170157,2.377,2.55733
0.951003,0.00170157,2.377,2.56018
0.965575,0.00171374,2.394,2.58139
0.973346,0.00171374,2.394,2.58431
0.988083,0.00172591,2.411,2.60562
0.995908,0.00172591,2.411,2.60859
1.00373,0.00172591,2.411,2.61159
1.01156,0.00172591,2.411,2.61461
1.01938,0.00172591,2.411,2.61765
1.03445,0.00173808,2.428,2.63918
1.04963,0.00175025,2.445,2.66078
1.05757,0.00175025,2.445,2.66392
1.08119,0.00177602,2.481,2.70635
1.10505,0.00180179,2.517,2.7489
1.13003,0.00182899,2.555,2.79374
1.13832,0.00182899,2.555,2.79711
1.16367,0.0018562,2.593,2.84214
1.19016,0.00188483,2.633,2.88949
1.19871,0.00188483,2.633,2.89303
1.22651,0.00191489,2.675,2.94278
1.26475,0.00196071,2.739,3.0169
1.27364,0.00196071,2.739,3.02064
1.30313,0.00199221,2.783,3.07299
1.32301,0.00200867,2.806,3.10226
1.34303,0.00202514,2.829,3.13161
1.35222,0.00202514,2.829,3.13556
1.37295,0.00204232,2.853,3.16616
1.39384,0.0020595,2.877,3.19686
1.40317,0.0020595,2.877,3.20094
1.42429,0.00207668,2.901,3.23178
1.43371,0.00207668,2.901,3.23594
1.44313,0.00207668,2.901,3.24013
1.46506,0.00209457,2.926,3.27229
1.48716,0.00211247,2.951,3.30455
1.49673,0.00211247,2.951,3.30887
1.50631,0.00211247,2.951,3.31321
1.5426,0.00214969,3.003,3.37604
1.56631,0.00216902,3.03,3.4109
1.57614,0.00216902,3.03,3.41542
1.60011,0.00218835,3.057,3.45045
1.62425,0.00220768,3.084,3.48558
1.63426,0.00220768,3.084,3.49025
1.6592,0.00222772,3.112,3.52668
1.68485,0.00224848,3.141,3.56435
1.69505,0.00224848,3.141,3.56918
1.70524,0.00224848,3.141,3.57404
1.71544,0.00224848,3.141,3.57891
1.74157,0.00226924,3.17,3.6169
1.75186,0.00226924,3.17,3.62186
1.76214,0.00226924,3.17,3.62685
1.77243,0.00226924,3.17,3.63186
1.78272,0.00226924,3.17,3.6369
1.79301,0.00226924,3.17,3.64195
1.8033,0.00226924,3.17,3.64703
1.81359,0.00226924,3.17,3.65212
1.80719,0.00224848,3.141,3.62379
1.81739,0.00224848,3.141,3.62888
1.82758,0.00224848,3.141,3.634
1.83778,0.00224848,3.141,3.63914
1.83091,0.00222772,3.112,3.61065
1.84101,0.00222772,3.112,3.61578
1.83446,0.00220768,3.084,3.58836
1.82832,0.00218835,3.057,3.56202
1.83824,0.00218835,3.057,3.56713
1.83184,0.00216902,3.03,3.5407
1.84168,0.00216902,3.03,3.5458
1.85151,0.00216902,3.03,3.55091
1.84476,0.00214969,3.003,3.52436
1.83845,0.00213108,2.977,3.49892
1.84811,0.00213108,2.977,3.50401
1.84155,0.00211247,2.951,3.47846
1.81976,0.00207668,2.901,3.42452
1.82918,0.00207668,2.901,3.42953
1.82338,0.0020595,2.877,3.40615
1.80215,0.00202514,2.829,3.35425
1.7966,0.00200867,2.806,3.33188
1.80571,0.00200867,2.806,3.3368
1.79994,0.00199221,2.783,3.31434
1.78037,0.00196071,2.739,3.26678
1.78926,0.00196071,2.739,3.27163
1.78371,0.00194496,2.717,3.25019
1.76482,0.00191489,2.675,3.20472
1.7735,0.00191489,2.675,3.20951
1.76819,0.00189986,2.654,3.18908
1.74936,0.00187051,2.613,3.14452
1.75784,0.00187051,2.613,3.14925
1.7528,0.0018562,2.593,3.12985
1.74831,0.00184259,2.574,3.1116
-1.94661,0.0111137,2.806,3.41512
-1.92163,0.0110226,2.783,3.38199
-1.91259,0.0110226,2.783,3.37687
-1.88851,0.0109355,2.761,3.3451
-1.86457,0.0108483,2.739,3.31344
-1.85568,0.0108483,2.739,3.30844
-1.83196,0.0107612,2.717,3.27693
-1.80905,0.010678,2.696,3.24672
-1.8003,0.010678,2.696,3.24185
-1.79155,0.010678,2.696,3.237
-1.76891,0.0105948,2.675,3.20699
-1.76023,0.0105948,2.675,3.20221
-1.75155,0.0105948,2.675,3.19744
-1.72918,0.0105117,2.654,3.16763
-1.72057,0.0105117,2.654,3.16294
-1.71195,0.0105117,2.654,3.15826
-1.70334,0.0105117,2.654,3.1536
-1.69472,0.0105117,2.654,3.14896
-1.68611,0.0105117,2.654,3.14433
-1.6775,0.0105117,2.654,3.13972
-1.68209,0.0105948,2.675,3.15993
-1.68654,0.010678,2.696,3.18009
-1.70455,0.0108483,2.739,3.2261
-1.69566,0.0108483,2.739,3.22141
-1.68677,0.0108483,2.739,3.21674
-1.70483,0.0110226,2.783,3.26369
-1.6958,0.0110226,2.783,3.25898
-1.68677,0.0110226,2.783,3.25429
-1.70547,0.0112048,2.829,3.30333
-1.69629,0.0112048,2.829,3.2986
-1.70142,0.0112998,2.853,3.32183
-1.67792,0.0112048,2.829,3.28919
-1.66874,0.0112048,2.829,3.28452
-1.65956,0.0112048,2.829,3.27986
-1.63696,0.0111137,2.806,3.2486
-1.62785,0.0111137,2.806,3.24402
-1.59278,0.0109355,2.761,3.18751
-1.5712,0.0108483,2.739,3.15767
-1.56231,0.0108483,2.739,3.15326
-1.55342,0.0108483,2.739,3.14887
-1.52028,0.010678,2.696,3.09512
-1.51153,0.010678,2.696,3.09083
-1.49107,0.0105948,2.675,3.06252
-1.48239,0.0105948,2.675,3.0583
-1.47371,0.0105948,2.675,3.05411
-1.46503,0.0105948,2.675,3.04993
-1.45635,0.0105948,2.675,3.04576
-1.44766,0.0105948,2.675,3.04162
-1.45028,0.010678,2.696,3.06135
-1.44153,0.010678,2.696,3.05721
-1.44394,0.0107612,2.717,3.07687
-1.43512,0.0107612,2.717,3.07275
-1.4263,0.0107612,2.717,3.06864
-1.42896,0.0108483,2.739,3.08936
-1.43147,0.0109355,2.761,3.11004
-1.42251,0.0109355,2.761,3.10593
-1.41355,0.0109355,2.761,3.10183
-1.40459,0.0109355,2.761,3.09776
-1.39563,0.0109355,2.761,3.09371
-1.37562,0.0108483,2.739,3.06505
-1.34527,0.010678,2.696,3.01302
-1.33652,0.010678,2.696,3.00912
-1.30708,0.0105117,2.654,2.95843
-1.27841,0.0103493,2.613,2.90899
-1.26993,0.0103493,2.613,2.90527
-1.25179,0.0102701,2.593,2.87936
-1.23427,0.0101948,2.574,2.85464
-1.20781,0.0100443,2.536,2.80895
-1.19958,0.0100443,2.536,2.80542
-1.18243,0.00996904,2.517,2.78092
-1.16586,0.00989775,2.499,2.75759
-1.15775,0.00989775,2.499,2.75417
-1.14136,0.00982646,2.481,2.73096
-1.12508,0.00975517,2.463,2.70782
-1.11709,0.00975517,2.463,2.7045
-1.10099,0.00968387,2.445,2.68147
-1.09305,0.00968387,2.445,2.67822
-1.08512,0.00968387,2.445,2.67499
-1.07718,0.00968387,2.445,2.67178
-1.06181,0.00961654,2.428,2.65004
-1.05393,0.00961654,2.428,2.64689
-1.04605,0.00961654,2.428,2.64376
-1.03817,0.00961654,2.428,2.64066
-1.03029,0.00961654,2.428,2.63757
-1.02241,0.00961654,2.428,2.6345
-1.00742,0.00954921,2.411,2.61303
-0.999596,0.00954921,2.411,2.61002
-0.99177,0.00954921,2.411,2.60703
-0.983945,0.00954921,2.411,2.60407
-0.976119,0.00954921,2.411,2.60112
-0.961466,0.00948188,2.394,2.57987
-0.953696,0.00948188,2.394,2.57699
-0.945926,0.00948188,2.394,2.57412
-0.938156,0.00948188,2.394,2.57128
-0.930385,0.00948188,2.394,2.56845
-0.922615,0.00948188,2.394,2.56565
-0.914845,0.00948188,2.394,2.56286
-0.907074,0.00948188,2.394,2.5601
-0.899304,0.00948188,2.394,2.55736
-0.891534,0.00948188,2.394,2.55463
-0.883763,0.00948188,2.394,2.55193
-0.875993,0.00948188,2.394,2.54925
-0.868223,0.00948188,2.394,2.54659
-0.860452,0.00948188,2.394,2.54395
-0.852682,0.00948188,2.394,2.54134
-0.844912,0.00948188,2.394,2.53874
-0.837141,0.00948188,2.394,2.53616
-0.829371,0.00948188,2.394,2.53361
-0.821601,0.00948188,2.394,2.53108
-0.819609,0.00954921,2.411,2.54652
-0.811784,0.00954921,2.411,2.54401
-0.803958,0.00954921,2.411,2.54153
-0.796133,0.00954921,2.411,2.53906
-0.788307,0.00954921,2.411,2.53662
-0.785985,0.00961654,2.428,2.55207
-0.778104,0.00961654,2.428,2.54965
-0.770224,0.00961654,2.428,2.54726
-0.762343,0.00961654,2.428,2.54489
-0.754462,0.00961654,2.428,2.54254
-0.746581,0.00961654,2.428,2.54021
-0.743873,0.00968387,2.445,2.55567
-0.735937,0.00968387,2.445,2.55337
-0.728001,0.00968387,2.445,2.5511
-0.720065,0.00968387,2.445,2.54885
-0.717372,0.00975517,2.463,2.56536
-0.709378,0.00975517,2.463,2.56314
-0.701384,0.00975517,2.463,2.56094
-0.693389,0.00975517,2.463,2.55876
-0.685395,0.00975517,2.463,2.55661
-0.677401,0.00975517,2.463,2.55447
-0.669406,0.00975517,2.463,2.55237
-0.661412,0.00975517,2.463,2.55028
-0.653418,0.00975517,2.463,2.54822
-0.645424,0.00975517,2.463,2.54618
-0.637429,0.00975517,2.463,2.54417
-0.624835,0.00968387,2.445,2.5236
-0.616899,0.00968387,2.445,2.52164
-0.613446,0.00975517,2.463,2.53826
-0.601027,0.00968387,2.445,2.51781
-0.593092,0.00968387,2.445,2.51592
-0.589464,0.00975517,2.463,2.53257
-0.581469,0.00975517,2.463,2.53073
-0.573475,0.00975517,2.463,2.5289
-0.565481,0.00975517,2.463,2.5271
-0.557486,0.00975517,2.463,2.52532
-0.549492,0.00975517,2.463,2.52357
-0.541498,0.00975517,2.463,2.52184
-0.537403,0.00982646,2.481,2.53855
-0.52935,0.00982646,2.481,2.53686
-0.521297,0.00982646,2.481,2.53519
-0.516968,0.00989775,2.499,2.55193
-0.508857,0.00989775,2.499,2.5503
-0.500746,0.00989775,2.499,2.54869
-0.492635,0.00989775,2.499,2.54711
-0.484524,0.00989775,2.499,2.54556
-0.479844,0.00996904,2.517,2.56235
-0.471674,0.00996904,2.517,2.56083
-0.463505,0.00996904,2.517,2.55934
-0.455335,0.00996904,2.517,2.55787
-0.447166,0.00996904,2.517,2.55643
-0.44231,0.0100443,2.536,2.5743
-0.434079,0.0100443,2.536,2.5729
-0.425848,0.0100443,2.536,2.57153
-0.417616,0.0100443,2.536,2.57018
-0.409385,0.0100443,2.536,2.56885
-0.401154,0.0100443,2.536,2.56755
-0.392923,0.0100443,2.536,2.56628
-0.384691,0.0100443,2.536,2.56503
-0.37646,0.0100443,2.536,2.56381
-0.36547,0.00996904,2.517,2.54341
-0.357301,0.00996904,2.517,2.54225
-0.349131,0.00996904,2.517,2.54112
-0.343535,0.0100443,2.536,2.55918
-0.335304,0.0100443,2.536,2.55809
-0.324622,0.00996904,2.517,2.53787
-0.316453,0.00996904,2.517,2.53683
-0.308283,0.00996904,2.517,2.53583
-0.300114,0.00996904,2.517,2.53485
-0.291944,0.00996904,2.517,2.53389
-0.283775,0.00996904,2.517,2.53297
-0.275605,0.00996904,2.517,2.53206
-0.267435,0.00996904,2.517,2.53119
-0.257412,0.00989775,2.499,2.51224
-0.249301,0.00989775,2.499,2.51142
-0.24119,0.00989775,2.499,2.51063
-0.233078,0.00989775,2.499,2.50987
-0.224967,0.00989775,2.499,2.50913
-0.216856,0.00989775,2.499,2.50841
-0.208745,0.00989775,2.499,2.50772
-0.200634,0.00989775,2.499,2.50706
-0.192523,0.00989775,2.499,2.50642
-0.184412,0.00989775,2.499,2.50581
-0.1763,0.00989775,2.499,2.50523
-0.168189,0.00989775,2.499,2.50467
-0.160078,0.00989775,2.499,2.50414
-0.151967,0.00989775,2.499,2.50364
-0.143856,0.00989775,2.499,2.50316
-0.135745,0.00989775,2.499,2.5027
-0.127634,0.00989775,2.499,2.50228
-0.120383,0.00996904,2.517,2.5199
-0.112214,0.00996904,2.517,2.51952
-0.104044,0.00996904,2.517,2.51917
-0.0958747,0.00996904,2.517,2.51885
-0.0877052,0.00996904,2.517,2.51855
-0.0795356,0.00996904,2.517,2.51828
-0.0719048,0.0100443,2.536,2.53704
-0.0636736,0.0100443,2.536,2.53682
-0.0554423,0.0100443,2.536,2.53663
-0.0472111,0.0100443,2.536,2.53646
-0.0389799,0.0100443,2.536,2.53632
-0.0307487,0.0100443,2.536,2.53621
-0.0225174,0.0100443,2.536,2.53612
-0.0142862,0.0100443,2.536,2.53606
-0.00605498,0.0100443,2.536,2.53603
0.00217625,0.0100443,2.536,2.53602
0.0104075,0.0100443,2.536,2.53604
0.0186387,0.0100443,2.536,2.53609
0.0268699,0.0100443,2.536,2.53616
0.0351011,0.0100443,2.536,2.53626
0.0433324,0.0100443,2.536,2.53639
0.0515636,0.0100443,2.536,2.53654
0.0597948,0.0100443,2.536,2.53672
0.0680261,0.0100443,2.536,2.53693
0.075686,0.00996904,2.517,2.51816
0.0838555,0.00996904,2.517,2.51842
0.0920251,0.00996904,2.517,2.5187
0.100195,0.00996904,2.517,2.51901
0.108364,0.00996904,2.517,2.51935
0.117413,0.0100443,2.536,2.53874
0.125645,0.0100443,2.536,2.53913
0.133876,0.0100443,2.536,2.53955
0.142107,0.0100443,2.536,2.54
0.150338,0.0100443,2.536,2.54047
0.15857,0.0100443,2.536,2.54097
0.166801,0.0100443,2.536,2.5415
0.175032,0.0100443,2.536,2.54205
0.183263,0.0100443,2.536,2.54263
0.191494,0.0100443,2.536,2.54324
0.199726,0.0100443,2.536,2.54387
0.207957,0.0100443,2.536,2.54453
0.216188,0.0100443,2.536,2.54522
0.224419,0.0100443,2.536,2.54593
0.232651,0.0100443,2.536,2.54667
0.240882,0.0100443,2.536,2.54743
0.247247,0.00996904,2.517,2.52913
0.255416,0.00996904,2.517,2.52995
0.263586,0.00996904,2.517,2.53078
0.269812,0.00989775,2.499,2.51354
0.277923,0.00989775,2.499,2.51443
0.286034,0.00989775,2.499,2.51534
0.292027,0.00982646,2.481,2.49815
0.297902,0.00975517,2.463,2.48097
0.305896,0.00975517,2.463,2.48194
0.311597,0.00968387,2.445,2.46479
0.319533,0.00968387,2.445,2.46581
0.327469,0.00968387,2.445,2.46685
0.333072,0.00961654,2.428,2.45076
0.338566,0.00954921,2.411,2.43467
0.346391,0.00954921,2.411,2.43577
0.354217,0.00954921,2.411,2.4369
0.362042,0.00954921,2.411,2.43805
0.369868,0.00954921,2.411,2.43922
0.377693,0.00954921,2.411,2.44042
0.385519,0.00954921,2.411,2.44165
0.390571,0.00948188,2.394,2.42567
0.398341,0.00948188,2.394,2.42693
0.406112,0.00948188,2.394,2.42822
0.413882,0.00948188,2.394,2.42953
0.424646,0.00954921,2.411,2.44813
0.432472,0.00954921,2.411,2.4495
0.440297,0.00954921,2.411,2.45089
0.448123,0.00954921,2.411,2.45231
0.455948,0.00954921,2.411,2.45375
0.463774,0.00954921,2.411,2.45522
0.474925,0.00961654,2.428,2.47403
0.482805,0.00961654,2.428,2.47556
0.490686,0.00961654,2.428,2.47711
0.498567,0.00961654,2.428,2.47868
0.509993,0.00968387,2.445,2.49764
0.517929,0.00968387,2.445,2.49927
0.529737,0.00975517,2.463,2.51934
0.537731,0.00975517,2.463,2.52104
0.545725,0.00975517,2.463,2.52275
0.557766,0.00982646,2.481,2.54294
0.565819,0.00982646,2.481,2.54472
0.573871,0.00982646,2.481,2.54652
0.581924,0.00982646,2.481,2.54835
0.594257,0.00989775,2.499,2.5687
0.602368,0.00989775,2.499,2.57059
0.610479,0.00989775,2.499,2.57251
0.618591,0.00989775,2.499,2.57444
0.626702,0.00989775,2.499,2.5764
0.634813,0.00989775,2.499,2.57839
0.642924,0.00989775,2.499,2.5804
0.651035,0.00989775,2.499,2.58243
0.659146,0.00989775,2.499,2.58449
0.667257,0.00989775,2.499,2.58657
0.675369,0.00989775,2.499,2.58867
0.68348,0.00989775,2.499,2.5908
0.696572,0.00996904,2.517,2.61163
0.704742,0.00996904,2.517,2.61382
0.712911,0.00996904,2.517,2.61603
0.721081,0.00996904,2.517,2.61827
0.729251,0.00996904,2.517,2.62053
0.73742,0.00996904,2.517,2.62282
0.74559,0.00996904,2.517,2.62513
0.753759,0.00996904,2.517,2.62746
0.761929,0.00996904,2.517,2.62981
0.770098,0.00996904,2.517,2.63219
0.778268,0.00996904,2.517,2.63459
0.786437,0.00996904,2.517,2.63702
0.794607,0.00996904,2.517,2.63947
0.797036,0.00989775,2.499,2.62304
0.805147,0.00989775,2.499,2.62552
0.813258,0.00989775,2.499,2.62802
0.821369,0.00989775,2.499,2.63054
0.82948,0.00989775,2.499,2.63309
0.837591,0.00989775,2.499,2.63565
0.845702,0.00989775,2.499,2.63824
0.847664,0.00982646,2.481,2.62183
0.855716,0.00982646,2.481,2.62444
0.863769,0.00982646,2.481,2.62708
0.865497,0.00975517,2.463,2.61066
0.873491,0.00975517,2.463,2.61332
0.875043,0.00968387,2.445,2.59689
0.882979,0.00968387,2.445,2.59957
0.88472,0.00961654,2.428,2.58418
0.892601,0.00961654,2.428,2.58689
0.894177,0.00954921,2.411,2.57149
0.902002,0.00954921,2.411,2.57422
0.909828,0.00954921,2.411,2.57697
0.911183,0.00948188,2.394,2.56156
0.918953,0.00948188,2.394,2.56433
0.926724,0.00948188,2.394,2.56713
0.927858,0.00941455,2.377,2.55169
0.935573,0.00941455,2.377,2.55451
0.943288,0.00941455,2.377,2.55734
0.951003,0.00941455,2.377,2.5602
0.965575,0.00948188,2.394,2.58141
0.973346,0.00948188,2.394,2.58432
0.988083,0.00954921,2.411,2.60563
0.995908,0.00954921,2.411,2.60861
1.00373,0.00954921,2.411,2.61161
1.01156,0.00954921,2.411,2.61463
1.01938,0.00954921,2.411,2.61766
1.03445,0.00961654,2.428,2.6392
1.04963,0.00968387,2.445,2.6608
1.05757,0.00968387,2.445,2.66394
1.08119,0.00982646,2.481,2.70637
1.10505,0.00996904,2.517,2.74891
1.13003,0.0101195,2.555,2.79376
1.13832,0.0101195,2.555,2.79712
1.16367,0.0102701,2.593,2.84216
1.19016,0.0104285,2.633,2.88951
1.19871,0.0104285,2.633,2.89304
1.22651,0.0105948,2.675,2.9428
1.26475,0.0108483,2.739,3.01692
1.27364,0.0108483,2.739,3.02066
1.30313,0.0110226,2.783,3.073
1.32301,0.0111137,2.806,3.10227
1.34303,0.0112048,2.829,3.13163
1.35222,0.0112048,2.829,3.13558
1.37295,0.0112998,2.853,3.16618
1.39384,0.0113949,2.877,3.19688
1.40317,0.0113949,2.877,3.20096
1.42429,0.0114899,2.901,3.2318
1.43371,0.0114899,2.901,3.23596
1.44313,0.0114899,2.901,3.24015
1.46506,0.011589,2.926,3.27231
1.48716,0.011688,2.951,3.30457
1.49673,0.011688,2.951,3.30889
1.50631,0.011688,2.951,3.31323
1.5426,0.0118939,3.003,3.37606
1.56631,0.0120009,3.03,3.41092
1.57614,0.0120009,3.03,3.41544
1.60011,0.0121078,3.057,3.45047
1.62425,0.0122148,3.084,3.4856
1.63426,0.0122148,3.084,3.49027
1.6592,0.0123257,3.112,3.5267
1.68485,0.0124405,3.141,3.56438
1.69505,0.0124405,3.141,3.56921
1.70524,0.0124405,3.141,3.57406
1.71544,0.0124405,3.141,3.57893
1.74157,0.0125554,3.17,3.61692
1.75186,0.0125554,3.17,3.62189
1.77827,0.0126702,3.199,3.66005
1.78865,0.0126702,3.199,3.66511
1.78272,0.0125554,3.17,3.63692
1.79301,0.0125554,3.17,3.64197
1.8033,0.0125554,3.17,3.64705
1.81359,0.0125554,3.17,3.65215
1.82388,0.0125554,3.17,3.65727
1.81739,0.0124405,3.141,3.6289
1.82758,0.0124405,3.141,3.63402
1.83778,0.0124405,3.141,3.63916
1.83091,0.0123257,3.112,3.61067
1.84101,0.0123257,3.112,3.6158
1.83446,0.0122148,3.084,3.58838
1.82832,0.0121078,3.057,3.56204
1.83824,0.0121078,3.057,3.56715
1.83184,0.0120009,3.03,3.54072
1.82526,0.0118939,3.003,3.51422
1.83501,0.0118939,3.003,3.51929
1.82879,0.011791,2.977,3.49387
1.82239,0.011688,2.951,3.46838
1.83197,0.011688,2.951,3.47342
1.82595,0.011589,2.926,3.44901
1.81976,0.0114899,2.901,3.42454
1.82918,0.0114899,2.901,3.42955
1.82338,0.0113949,2.877,3.40617
1.80215,0.0112048,2.829,3.35427
1.7966,0.0111137,2.806,3.3319
1.80571,0.0111137,2.806,3.33682
1.78571,0.0109355,2.761,3.28816
1.78037,0.0108483,2.739,3.2668
1.78926,0.0108483,2.739,3.27165
1.76992,0.010678,2.696,3.22508
1.76482,0.0105948,2.675,3.20474
1.7735,0.0105948,2.675,3.20952
1.7542,0.0104285,2.633,3.16386
1.74936,0.0103493,2.613,3.14454
1.75784,0.0103493,2.613,3.14927
1.7528,0.0102701,2.593,3.12987
1.74831,0.0101948,2.574,3.11162
-1.93066,0.020053,2.783,3.38717
-1.92163,0.020053,2.783,3.38203
-1.91259,0.020053,2.783,3.37691
-1.88851,0.0198944,2.761,3.34514
-1.86457,0.0197359,2.739,3.31348
-1.85568,0.0197359,2.739,3.30848
-1.83196,0.0195774,2.717,3.27697
-1.80905,0.0194261,2.696,3.24676
-1.8003,0.0194261,2.696,3.24189
-1.77759,0.0192748,2.675,3.21183
-1.76891,0.0192748,2.675,3.20703
-1.76023,0.0192748,2.675,3.20225
-1.75155,0.0192748,2.675,3.19749
-1.72918,0.0191235,2.654,3.16767
-1.72057,0.0191235,2.654,3.16298
-1.71195,0.0191235,2.654,3.1583
-1.70334,0.0191235,2.654,3.15364
-1.69472,0.0191235,2.654,3.149
-1.68611,0.0191235,2.654,3.14437
-1.6775,0.0191235,2.654,3.13976
-1.68209,0.0192748,2.675,3.15997
-1.6734,0.0192748,2.675,3.15536
-1.67779,0.0194261,2.696,3.1755
-1.66904,0.0194261,2.696,3.17088
-1.68677,0.0197359,2.739,3.21679
-1.67788,0.0197359,2.739,3.21213
-1.66899,0.0197359,2.739,3.2075
-1.68677,0.020053,2.783,3.25433
-1.6916,0.0202187,2.806,3.27652
-1.68249,0.0202187,2.806,3.27182
-1.6871,0.0203844,2.829,3.29393
-1.67792,0.0203844,2.829,3.28924
-1.66874,0.0203844,2.829,3.28456
-1.64606,0.0202187,2.806,3.25324
-1.62354,0.020053,2.783,3.22201
-1.61451,0.020053,2.783,3.21747
-1.59278,0.0198944,2.761,3.18755
-1.5712,0.0197359,2.739,3.15772
-1.56231,0.0197359,2.739,3.1533
-1.54094,0.0195774,2.717,3.12362
-1.52028,0.0194261,2.696,3.09517
-1.51153,0.0194261,2.696,3.09088
-1.49107,0.0192748,2.675,3.06256
-1.48239,0.0192748,2.675,3.05835
-1.47371,0.0192748,2.675,3.05415
-1.46503,0.0192748,2.675,3.04997
-1.45635,0.0192748,2.675,3.04581
-1.45903,0.0194261,2.696,3.06554
-1.45028,0.0194261,2.696,3.06139
-1.44153,0.0194261,2.696,3.05725
-1.45563,0.0197359,2.739,3.10183
-1.44674,0.0197359,2.739,3.09767
-1.43785,0.0197359,2.739,3.09353
-1.42896,0.0197359,2.739,3.08941
-1.43147,0.0198944,2.761,3.11009
-1.42251,0.0198944,2.761,3.10597
-1.41355,0.0198944,2.761,3.10188
-1.40459,0.0198944,2.761,3.0978
-1.39563,0.0198944,2.761,3.09375
-1.37562,0.0197359,2.739,3.0651
-1.34527,0.0194261,2.696,3.01306
-1.33652,0.0194261,2.696,3.00917
-1.30708,0.0191235,2.654,2.95847
-1.27841,0.018828,2.613,2.90903
-1.26993,0.018828,2.613,2.90531
-1.25179,0.0186839,2.593,2.87941
-1.22516,0.0184101,2.555,2.83361
-1.20781,0.0182732,2.536,2.80899
-1.19958,0.0182732,2.536,2.80546
-1.18243,0.0181363,2.517,2.78096
-1.16586,0.0180066,2.499,2.75764
-1.15775,0.0180066,2.499,2.75422
-1.14136,0.0178769,2.481,2.731
-1.11686,0.0176175,2.445,2.68807
-1.10892,0.0176175,2.445,2.68478
-1.10099,0.0176175,2.445,2.68151
-1.08545,0.017495,2.428,2.65964
-1.07757,0.017495,2.428,2.65644
-1.06969,0.017495,2.428,2.65325
-1.06181,0.017495,2.428,2.65008
-1.04655,0.0173725,2.411,2.6284
-1.03872,0.0173725,2.411,2.62529
-1.0309,0.0173725,2.411,2.62221
-1.02307,0.0173725,2.411,2.61914
-1.01525,0.0173725,2.411,2.61609
-1.00742,0.0173725,2.411,2.61307
-0.999596,0.0173725,2.411,2.61006
-0.99177,0.0173725,2.411,2.60707
-0.977007,0.01725,2.394,2.58575
-0.969237,0.01725,2.394,2.58282
-0.954639,0.0171275,2.377,2.56159
-0.946924,0.0171275,2.377,2.55873
-0.939209,0.0171275,2.377,2.55588
-0.931494,0.0171275,2.377,2.55306
-0.930385,0.01725,2.394,2.56849
-0.922615,0.01725,2.394,2.56569
-0.914845,0.01725,2.394,2.5629
-0.907074,0.01725,2.394,2.56014
-0.899304,0.01725,2.394,2.5574
-0.891534,0.01725,2.394,2.55468
-0.883763,0.01725,2.394,2.55197
-0.875993,0.01725,2.394,2.54929
-0.868223,0.01725,2.394,2.54663
-0.860452,0.01725,2.394,2.544
-0.852682,0.01725,2.394,2.54138
-0.844912,0.01725,2.394,2.53878
-0.837141,0.01725,2.394,2.53621
-0.829371,0.01725,2.394,2.53365
-0.821601,0.01725,2.394,2.53112
-0.819609,0.0173725,2.411,2.54656
-0.811784,0.0173725,2.411,2.54405
-0.803958,0.0173725,2.411,2.54157
-0.796133,0.0173725,2.411,2.5391
-0.788307,0.0173725,2.411,2.53666
-0.785985,0.017495,2.428,2.55211
-0.778104,0.017495,2.428,2.54969
-0.770224,0.017495,2.428,2.5473
