-1.42595,0.76096,2.167,2.70338
-1.41892,0.76096,2.167,2.69968
-1.41188,0.76096,2.167,2.69599
-1.39577,0.756044,2.153,2.67492
-1.38879,0.756044,2.153,2.67128
-1.3818,0.756044,2.153,2.66765
-1.36651,0.751479,2.14,2.64795
-1.35067,0.746562,2.126,2.62708
-1.32733,0.737432,2.1,2.59145
-1.32052,0.737432,2.1,2.58797
-1.3137,0.737432,2.1,2.5845
-1.29133,0.728653,2.075,2.55031
-1.28459,0.728653,2.075,2.54691
-1.27786,0.728653,2.075,2.54352
-1.26316,0.724088,2.062,2.52423
-1.25647,0.724088,2.062,2.52088
-1.2425,0.719874,2.05,2.5029
-1.23585,0.719874,2.05,2.49961
-1.22919,0.719874,2.05,2.49632
-1.22254,0.719874,2.05,2.49305
-1.20877,0.71566,2.038,2.47522
-1.20215,0.71566,2.038,2.472
-1.19554,0.71566,2.038,2.46879
-1.18192,0.711446,2.026,2.45108
-1.17535,0.711446,2.026,2.44791
-1.18954,0.724088,2.062,2.4882
-1.17596,0.719874,2.05,2.47055
-1.16931,0.719874,2.05,2.46739
-1.16265,0.719874,2.05,2.46424
-1.156,0.719874,2.05,2.46111
-1.14935,0.719874,2.05,2.45799
-1.14269,0.719874,2.05,2.45489
-1.13604,0.719874,2.05,2.4518
-1.12939,0.719874,2.05,2.44872
-1.12273,0.719874,2.05,2.44566
-1.12969,0.728653,2.075,2.4724
-1.11592,0.724088,2.062,2.45386
-1.10923,0.724088,2.062,2.45082
-1.10948,0.728653,2.075,2.46323
-1.10275,0.728653,2.075,2.46021
-1.09601,0.728653,2.075,2.45719
-1.08928,0.728653,2.075,2.4542
-1.08254,0.728653,2.075,2.45122
-1.07581,0.728653,2.075,2.44825
-1.06238,0.724088,2.062,2.42998
-1.05568,0.724088,2.062,2.42706
-1.04899,0.724088,2.062,2.42416
-1.03623,0.719874,2.05,2.40718
-1.02958,0.719874,2.05,2.40432
-1.01694,0.71566,2.038,2.38742
-1.00437,0.711446,2.026,2.37057
-0.997797,0.711446,2.026,2.36779
-0.991221,0.711446,2.026,2.36503
-0.978813,0.707233,2.014,2.34829
-0.966483,0.703019,2.002,2.33159
-0.959985,0.703019,2.002,2.32891
-0.947772,0.698805,1.99,2.31229
-0.941313,0.698805,1.99,2.30965
-0.934854,0.698805,1.99,2.30703
-0.923263,0.694942,1.979,2.29168
-0.91684,0.694942,1.979,2.2891
-0.910416,0.694942,1.979,2.28654
-0.903993,0.694942,1.979,2.28399
-0.887138,0.686865,1.956,2.25494
-0.880789,0.686865,1.956,2.25245
-0.869523,0.683003,1.945,2.23732
-0.86321,0.683003,1.945,2.23487
-0.856897,0.683003,1.945,2.23244
-0.850584,0.683003,1.945,2.23003
-0.839496,0.67914,1.934,2.21503
-0.833219,0.67914,1.934,2.21265
-0.826942,0.67914,1.934,2.2103
-0.820665,0.67914,1.934,2.20796
-0.814387,0.67914,1.934,2.20563
-0.80811,0.67914,1.934,2.20332
-0.801833,0.67914,1.934,2.20103
-0.795555,0.67914,1.934,2.19875
-0.789278,0.67914,1.934,2.19649
-0.783001,0.67914,1.934,2.19424
-0.776724,0.67914,1.934,2.19201
-0.770446,0.67914,1.934,2.18979
-0.768515,0.683003,1.945,2.20003
-0.762202,0.683003,1.945,2.19783
-0.751614,0.67914,1.934,2.18323
-0.745337,0.67914,1.934,2.18108
-0.73906,0.67914,1.934,2.17894
-0.728615,0.675277,1.923,2.16444
-0.722373,0.675277,1.923,2.16235
-0.716132,0.675277,1.923,2.16027
-0.70989,0.675277,1.923,2.15821
-0.703648,0.675277,1.923,2.15617
-0.697407,0.675277,1.923,2.15414
-0.687212,0.671414,1.912,2.13981
-0.681006,0.671414,1.912,2.13783
-0.6748,0.671414,1.912,2.13586
-0.668594,0.671414,1.912,2.13391
-0.658924,0.667903,1.902,2.12082
-0.65275,0.667903,1.902,2.11891
-0.646577,0.667903,1.902,2.11702
-0.6367,0.66404,1.891,2.10291
-0.630562,0.66404,1.891,2.10106
-0.621122,0.660529,1.881,2.08812
-0.611747,0.657017,1.871,2.07522
-0.605675,0.657017,1.871,2.07344
-0.599602,0.657017,1.871,2.07167
-0.590357,0.653505,1.861,2.05886
-0.580863,0.649643,1.85,2.04498
-0.574858,0.649643,1.85,2.04328
-0.566086,0.646482,1.841,2.03167
-0.557068,0.642971,1.831,2.01898
-0.551125,0.642971,1.831,2.01735
-0.545182,0.642971,1.831,2.01574
-0.536294,0.639459,1.821,2.00314
-0.530384,0.639459,1.821,2.00156
-0.524473,0.639459,1.821,2.00001
-0.515715,0.635948,1.811,1.98749
-0.509837,0.635948,1.811,1.98597
-0.503959,0.635948,1.811,1.98447
-0.495605,0.632787,1.802,1.97313
-0.489757,0.632787,1.802,1.97167
-0.483908,0.632787,1.802,1.97023
-0.478059,0.632787,1.802,1.9688
-0.47221,0.632787,1.802,1.96739
-0.466361,0.632787,1.802,1.96599
-0.460512,0.632787,1.802,1.96461
-0.454664,0.632787,1.802,1.96325
-0.448815,0.632787,1.802,1.9619
-0.442966,0.632787,1.802,1.96057
-0.437117,0.632787,1.802,1.95926
-0.431268,0.632787,1.802,1.95796
-0.427544,0.635948,1.811,1.96645
-0.421666,0.635948,1.811,1.96519
-0.415788,0.635948,1.811,1.96393
-0.40991,0.635948,1.811,1.9627
-0.404032,0.635948,1.811,1.96148
-0.398154,0.635948,1.811,1.96027
-0.394442,0.639459,1.821,1.96991
-0.388531,0.639459,1.821,1.96873
-0.382621,0.639459,1.821,1.96757
-0.37671,0.639459,1.821,1.96643
-0.3708,0.639459,1.821,1.96531
-0.364889,0.639459,1.821,1.9642
-0.36095,0.642971,1.831,1.97389
-0.355007,0.642971,1.831,1.97282
-0.349064,0.642971,1.831,1.97176
-0.344995,0.646482,1.841,1.98147
-0.33902,0.646482,1.841,1.98044
-0.333044,0.646482,1.841,1.97943
-0.327069,0.646482,1.841,1.97843
-0.321093,0.646482,1.841,1.97745
-0.315118,0.646482,1.841,1.97649
-0.309142,0.646482,1.841,1.97555
-0.303167,0.646482,1.841,1.97462
-0.297192,0.646482,1.841,1.97371
-0.291216,0.646482,1.841,1.97282
-0.285241,0.646482,1.841,1.97195
-0.279265,0.646482,1.841,1.97109
-0.271805,0.642971,1.831,1.95955
-0.265862,0.642971,1.831,1.95874
-0.259919,0.642971,1.831,1.95794
-0.252589,0.639459,1.821,1.94647
-0.245324,0.635948,1.811,1.93503
-0.239446,0.635948,1.811,1.93429
-0.233568,0.635948,1.811,1.93357
-0.226559,0.632787,1.802,1.92327
-0.219485,0.629276,1.792,1.91192
-0.213669,0.629276,1.792,1.91126
-0.207852,0.629276,1.792,1.91062
-0.201021,0.626115,1.783,1.9004
-0.195234,0.626115,1.783,1.8998
-0.189447,0.626115,1.783,1.89921
-0.18366,0.626115,1.783,1.89864
-0.177872,0.626115,1.783,1.89809
-0.172085,0.626115,1.783,1.89756
-0.165459,0.622955,1.774,1.88747
-0.159701,0.622955,1.774,1.88697
-0.153943,0.622955,1.774,1.88649
-0.148936,0.626115,1.783,1.8956
-0.143149,0.626115,1.783,1.89515
-0.137362,0.626115,1.783,1.89472
-0.131575,0.626115,1.783,1.89431
-0.126423,0.629276,1.792,1.90348
-0.120606,0.629276,1.792,1.9031
-0.11479,0.629276,1.792,1.90274
-0.108974,0.629276,1.792,1.9024
-0.103157,0.629276,1.792,1.90208
-0.0973408,0.629276,1.792,1.90177
-0.0924948,0.635948,1.811,1.92164
-0.0866168,0.635948,1.811,1.92137
-0.0807387,0.635948,1.811,1.92111
-0.0748606,0.635948,1.811,1.92087
-0.0689826,0.635948,1.811,1.92065
-0.0631045,0.635948,1.811,1.92045
-0.0569421,0.632787,1.802,1.91072
-0.0510932,0.632787,1.802,1.91056
-0.0452444,0.632787,1.802,1.91041
-0.0393955,0.632787,1.802,1.91028
-0.0333605,0.629276,1.792,1.89957
-0.0275441,0.629276,1.792,1.89948
-0.0217278,0.629276,1.792,1.8994
-0.0159114,0.629276,1.792,1.89934
-0.010095,0.629276,1.792,1.8993
-0.0042786,0.629276,1.792,1.89928
0.00153779,0.629276,1.792,1.89928
0.00735418,0.629276,1.792,1.89929
0.0131706,0.629276,1.792,1.89932
0.0188916,0.626115,1.783,1.88983
0.0246788,0.626115,1.783,1.8899
0.0304659,0.626115,1.783,1.88998
0.0362531,0.626115,1.783,1.89009
0.0420403,0.626115,1.783,1.89021
0.0478275,0.626115,1.783,1.89034
0.0536146,0.626115,1.783,1.8905
0.0594018,0.626115,1.783,1.89067
0.065189,0.626115,1.783,1.89086
0.0709762,0.626115,1.783,1.89107
0.0767633,0.626115,1.783,1.8913
0.0825505,0.626115,1.783,1.89154
0.0887836,0.629276,1.792,1.90135
0.0941249,0.626115,1.783,1.89208
0.099912,0.626115,1.783,1.89238
0.105699,0.626115,1.783,1.89269
0.111486,0.626115,1.783,1.89302
0.116682,0.622955,1.774,1.88382
0.12244,0.622955,1.774,1.88418
0.128198,0.622955,1.774,1.88456
0.133956,0.622955,1.774,1.88496
0.139713,0.622955,1.774,1.88538
0.145471,0.622955,1.774,1.88582
0.150462,0.619794,1.765,1.8767
0.156191,0.619794,1.765,1.87717
0.16192,0.619794,1.765,1.87765
0.166794,0.616634,1.756,1.86858
0.172493,0.616634,1.756,1.8691
0.178193,0.616634,1.756,1.86963
0.183892,0.616634,1.756,1.87018
0.18862,0.613473,1.747,1.86117
0.19429,0.613473,1.747,1.86175
0.199961,0.613473,1.747,1.86235
0.205631,0.613473,1.747,1.86297
0.211301,0.613473,1.747,1.8636
0.216972,0.613473,1.747,1.86425
0.222642,0.613473,1.747,1.86492
0.228312,0.613473,1.747,1.86561
0.235188,0.616634,1.756,1.87592
0.240888,0.616634,1.756,1.87665
0.246587,0.616634,1.756,1.87739
0.25358,0.619794,1.765,1.88777
0.259308,0.619794,1.765,1.88855
0.266389,0.622955,1.774,1.89898
0.273527,0.626115,1.783,1.90943
0.280724,0.629276,1.792,1.91991
0.286541,0.629276,1.792,1.92077
0.293989,0.632787,1.802,1.93237
0.301335,0.635948,1.811,1.94292
0.307213,0.635948,1.811,1.94384
0.313091,0.635948,1.811,1.94478
0.32073,0.639459,1.821,1.95648
0.326641,0.639459,1.821,1.95746
0.332551,0.639459,1.821,1.95845
0.340321,0.642971,1.831,1.97023
0.346264,0.642971,1.831,1.97126
0.352207,0.642971,1.831,1.97231
0.356194,0.639459,1.821,1.96261
0.362104,0.639459,1.821,1.96369
0.368015,0.639459,1.821,1.96479
0.373925,0.639459,1.821,1.9659
0.379836,0.639459,1.821,1.96703
0.385746,0.639459,1.821,1.96818
0.389506,0.635948,1.811,1.95854
0.395384,0.635948,1.811,1.95971
0.401262,0.635948,1.811,1.96091
0.405117,0.632787,1.802,1.95237
0.410966,0.632787,1.802,1.95359
0.416814,0.632787,1.802,1.95483
0.422663,0.632787,1.802,1.95608
0.428512,0.632787,1.802,1.95736
0.434361,0.632787,1.802,1.95865
0.44021,0.632787,1.802,1.95995
0.446059,0.632787,1.802,1.96127
0.451907,0.632787,1.802,1.96261
0.457756,0.632787,1.802,1.96397
0.463605,0.632787,1.802,1.96534
0.469454,0.632787,1.802,1.96673
0.475303,0.632787,1.802,1.96813
0.478482,0.629276,1.792,1.95862
0.484298,0.629276,1.792,1.96005
0.490114,0.629276,1.792,1.9615
0.495931,0.629276,1.792,1.96296
0.501747,0.629276,1.792,1.96443
0.507563,0.629276,1.792,1.96593
0.51338,0.629276,1.792,1.96744
0.519196,0.629276,1.792,1.96896
0.525013,0.629276,1.792,1.9705
0.530829,0.629276,1.792,1.97206
0.53964,0.632787,1.802,1.98465
0.545489,0.632787,1.802,1.98625
0.551338,0.632787,1.802,1.98786
0.557187,0.632787,1.802,1.98949
0.565848,0.635948,1.811,2.00108
0.571726,0.635948,1.811,2.00275
0.580793,0.639459,1.821,2.01551
0.586704,0.639459,1.821,2.01722
0.595868,0.642971,1.831,2.03003
0.601811,0.642971,1.831,2.03178
0.611074,0.646482,1.841,2.04466
0.617049,0.646482,1.841,2.04645
0.623024,0.646482,1.841,2.04826
0.629,0.646482,1.841,2.05009
0.638079,0.649643,1.85,2.06196
0.644084,0.649643,1.85,2.06383
0.650089,0.649643,1.85,2.06571
0.652902,0.646482,1.841,2.05755
0.658877,0.646482,1.841,2.05945
0.664852,0.646482,1.841,2.06137
0.667184,0.642971,1.831,2.0521
0.673127,0.642971,1.831,2.05404
0.67907,0.642971,1.831,2.05599
0.681272,0.639459,1.821,2.04672
0.687182,0.639459,1.821,2.0487
0.689287,0.635948,1.811,2.03943
0.69171,0.632787,1.802,2.03128
0.697559,0.632787,1.802,2.03328
0.699504,0.629276,1.792,2.024
0.701778,0.626115,1.783,2.01584
0.707565,0.626115,1.783,2.01786
0.713353,0.626115,1.783,2.0199
0.71551,0.622955,1.774,2.01174
0.717609,0.619794,1.765,2.00358
0.723337,0.619794,1.765,2.00564
0.729066,0.619794,1.765,2.00771
0.731048,0.616634,1.756,1.99955
0.736748,0.616634,1.756,2.00164
0.742447,0.616634,1.756,2.00375
0.748147,0.616634,1.756,2.00587
0.753846,0.616634,1.756,2.008
0.759546,0.616634,1.756,2.01014
0.761323,0.613473,1.747,2.00199
0.766994,0.613473,1.747,2.00416
0.772664,0.613473,1.747,2.00633
0.778334,0.613473,1.747,2.00852
0.784005,0.613473,1.747,2.01073
0.785607,0.610313,1.738,2.00257
0.791248,0.610313,1.738,2.00479
0.796889,0.610313,1.738,2.00703
0.80253,0.610313,1.738,2.00927
0.808171,0.610313,1.738,2.01153
0.818026,0.613473,1.747,2.02423
0.832184,0.619794,1.765,2.04741
0.837912,0.619794,1.765,2.04975
0.843641,0.619794,1.765,2.0521
0.84937,0.619794,1.765,2.05446
0.855099,0.619794,1.765,2.05683
0.865217,0.622955,1.774,2.06972
0.870975,0.622955,1.774,2.07214
0.876733,0.622955,1.774,2.07456
0.882491,0.622955,1.774,2.077
0.892755,0.626115,1.783,2.09001
0.903078,0.629276,1.792,2.10305
0.908894,0.629276,1.792,2.10555
0.914711,0.629276,1.792,2.10807
0.925664,0.632787,1.802,2.12238
0.931513,0.632787,1.802,2.12493
0.937362,0.632787,1.802,2.1275
0.947921,0.635948,1.811,2.14073
0.953799,0.635948,1.811,2.14333
0.959677,0.635948,1.811,2.14596
0.970887,0.639459,1.821,2.16046
0.982162,0.642971,1.831,2.175
0.988105,0.642971,1.831,2.17769
0.994047,0.642971,1.831,2.18039
1.00545,0.646482,1.841,2.19503
1.01143,0.646482,1.841,2.19777
1.02238,0.649643,1.85,2.21129
1.02838,0.649643,1.85,2.21407
1.03439,0.649643,1.85,2.21687
1.04039,0.649643,1.85,2.21967
1.0464,0.649643,1.85,2.22249
1.0524,0.649643,1.85,2.22533
1.0584,0.649643,1.85,2.22817
1.06441,0.649643,1.85,2.23103
1.07041,0.649643,1.85,2.2339
1.07642,0.649643,1.85,2.23679
1.07716,0.646482,1.841,2.22879
1.08313,0.646482,1.841,2.23168
1.08319,0.642971,1.831,2.22245
1.08914,0.642971,1.831,2.22535
1.09508,0.642971,1.831,2.22827
1.10102,0.642971,1.831,2.23119
1.10696,0.642971,1.831,2.23413
1.11291,0.642971,1.831,2.23708
1.11885,0.642971,1.831,2.24004
1.12479,0.642971,1.831,2.24302
1.13074,0.642971,1.831,2.246
1.13668,0.642971,1.831,2.249
1.14262,0.642971,1.831,2.25201
1.14856,0.642971,1.831,2.25503
1.16081,0.646482,1.841,2.2704
1.16679,0.646482,1.841,2.27346
1.17276,0.646482,1.841,2.27653
1.17874,0.646482,1.841,2.27962
1.18471,0.646482,1.841,2.28271
1.19651,0.649643,1.85,2.29699
1.20252,0.649643,1.85,2.30013
1.20852,0.649643,1.85,2.30327
1.21452,0.649643,1.85,2.30643
1.22053,0.649643,1.85,2.30959
1.23383,0.653505,1.861,2.32653
1.23987,0.653505,1.861,2.32973
1.24591,0.653505,1.861,2.33295
1.25195,0.653505,1.861,2.33619
1.25799,0.653505,1.861,2.33943
1.26403,0.653505,1.861,2.34268
-1.54217,0.787838,2.223,2.81792
-1.52529,0.782876,2.209,2.79626
-1.51812,0.782876,2.209,2.79236
-1.51095,0.782876,2.209,2.78846
-1.50378,0.782876,2.209,2.78459
-1.49661,0.782876,2.209,2.78072
-1.47932,0.77756,2.194,2.75801
-1.4722,0.77756,2.194,2.7542
-1.46508,0.77756,2.194,2.7504
-1.44866,0.772599,2.18,2.72909
-1.44158,0.772599,2.18,2.72534
-1.42595,0.767991,2.167,2.70537
-1.41892,0.767991,2.167,2.70167
-1.41188,0.767991,2.167,2.69798
-1.39577,0.76303,2.153,2.6769
-1.38879,0.76303,2.153,2.67327
-1.3818,0.76303,2.153,2.66964
-1.36651,0.758422,2.14,2.64993
-1.35067,0.753461,2.126,2.62905
-1.32733,0.744246,2.1,2.5934
-1.32052,0.744246,2.1,2.58992
-1.3137,0.744246,2.1,2.58645
-1.29133,0.735386,2.075,2.55224
-1.28459,0.735386,2.075,2.54884
-1.27786,0.735386,2.075,2.54545
-1.26316,0.730779,2.062,2.52615
-1.25647,0.730779,2.062,2.52281
-1.2425,0.726526,2.05,2.50482
-1.23585,0.726526,2.05,2.50153
-1.22919,0.726526,2.05,2.49825
-1.22254,0.726526,2.05,2.49498
-1.20877,0.722273,2.038,2.47714
-1.20215,0.722273,2.038,2.47392
-1.19554,0.722273,2.038,2.47072
-1.18192,0.71802,2.026,2.45299
-1.17535,0.71802,2.026,2.44983
-1.16877,0.71802,2.026,2.44668
-1.16219,0.71802,2.026,2.44355
-1.15562,0.71802,2.026,2.44043
-1.14904,0.71802,2.026,2.43732
-1.14247,0.71802,2.026,2.43423
-1.12916,0.713768,2.014,2.41675
-1.12263,0.713768,2.014,2.4137
-1.11609,0.713768,2.014,2.41067
-1.10955,0.713768,2.014,2.40765
-1.10959,0.71802,2.026,2.41897
-1.10301,0.71802,2.026,2.41596
-1.09644,0.71802,2.026,2.41297
-1.08986,0.71802,2.026,2.40998
-1.08328,0.71802,2.026,2.40702
-1.07671,0.71802,2.026,2.40407
-1.07647,0.722273,2.038,2.41535
-1.06986,0.722273,2.038,2.41241
-1.06324,0.722273,2.038,2.40948
-1.0504,0.71802,2.026,2.3924
-1.04383,0.71802,2.026,2.38952
-1.03725,0.71802,2.026,2.38666
-1.02457,0.713768,2.014,2.36969
-1.01804,0.713768,2.014,2.36687
-1.0115,0.713768,2.014,2.36406
-0.998973,0.709515,2.002,2.3472
-0.986526,0.705262,1.99,2.33039
-0.980067,0.705262,1.99,2.32767
-0.968226,0.701364,1.979,2.3121
-0.961803,0.701364,1.979,2.30942
-0.95538,0.701364,1.979,2.30675
-0.943202,0.697111,1.967,2.29013
-0.936818,0.697111,1.967,2.28751
-0.92523,0.693212,1.956,2.27212
-0.918882,0.693212,1.956,2.26954
-0.912533,0.693212,1.956,2.26698
-0.901088,0.689314,1.945,2.2517
-0.894775,0.689314,1.945,2.24918
-0.888462,0.689314,1.945,2.24667
-0.87716,0.685415,1.934,2.23149
-0.870883,0.685415,1.934,2.22903
-0.864605,0.685415,1.934,2.22659
-0.848564,0.677619,1.912,2.19886
-0.842359,0.677619,1.912,2.19647
-0.836153,0.677619,1.912,2.1941
-0.829947,0.677619,1.912,2.19174
-0.823741,0.677619,1.912,2.1894
-0.817535,0.677619,1.912,2.18707
-0.811329,0.677619,1.912,2.18476
-0.805123,0.677619,1.912,2.18246
-0.798917,0.677619,1.912,2.18018
-0.792711,0.677619,1.912,2.17791
-0.791031,0.681517,1.923,2.18818
-0.784789,0.681517,1.923,2.18593
-0.778547,0.681517,1.923,2.1837
-0.772306,0.681517,1.923,2.18148
-0.770446,0.685415,1.934,2.19174
-0.764169,0.685415,1.934,2.18954
-0.757892,0.685415,1.934,2.18736
-0.747339,0.681517,1.923,2.17277
-0.741098,0.681517,1.923,2.17063
-0.734856,0.681517,1.923,2.1685
-0.724447,0.677619,1.912,2.154
-0.718241,0.677619,1.912,2.15193
-0.712035,0.677619,1.912,2.14986
-0.705829,0.677619,1.912,2.14781
-0.699623,0.677619,1.912,2.14578
-0.689791,0.674075,1.902,2.13256
-0.683617,0.674075,1.902,2.13057
-0.677444,0.674075,1.902,2.12859
-0.671271,0.674075,1.902,2.12664
-0.661251,0.670176,1.891,2.11241
-0.655113,0.670176,1.891,2.1105
-0.648975,0.670176,1.891,2.1086
-0.639438,0.666632,1.881,2.09558
-0.629966,0.663088,1.871,2.08259
-0.623893,0.663088,1.871,2.08076
-0.614518,0.659544,1.861,2.06784
-0.608478,0.659544,1.861,2.06605
-0.602437,0.659544,1.861,2.06428
-0.592872,0.655646,1.85,2.05033
-0.584012,0.652456,1.841,2.03864
-0.578037,0.652456,1.841,2.03694
-0.572061,0.652456,1.841,2.03525
-0.563011,0.648912,1.831,2.02253
-0.554026,0.645368,1.821,2.00985
-0.548115,0.645368,1.821,2.00823
-0.539227,0.641824,1.811,1.9956
-0.530699,0.638634,1.802,1.98411
-0.52485,0.638634,1.802,1.98256
-0.519001,0.638634,1.802,1.98101
-0.510304,0.63509,1.792,1.96851
-0.504488,0.63509,1.792,1.96701
-0.498672,0.63509,1.792,1.96552
-0.492855,0.63509,1.792,1.96405
-0.484593,0.631901,1.783,1.95275
-0.478805,0.631901,1.783,1.95132
-0.473018,0.631901,1.783,1.94991
-0.467231,0.631901,1.783,1.94851
-0.461444,0.631901,1.783,1.94713
-0.455657,0.631901,1.783,1.94577
-0.44987,0.631901,1.783,1.94442
-0.444082,0.631901,1.783,1.94309
-0.438295,0.631901,1.783,1.94178
-0.432508,0.631901,1.783,1.94048
-0.426721,0.631901,1.783,1.9392
-0.420934,0.631901,1.783,1.93793
-0.415147,0.631901,1.783,1.93668
-0.409359,0.631901,1.783,1.93545
-0.403572,0.631901,1.783,1.93423
-0.397785,0.631901,1.783,1.93303
-0.393977,0.63509,1.792,1.9416
-0.38816,0.63509,1.792,1.94043
-0.382344,0.63509,1.792,1.93928
-0.382621,0.645368,1.821,1.9695
-0.37671,0.645368,1.821,1.96836
-0.3708,0.645368,1.821,1.96724
-0.364889,0.645368,1.821,1.96613
-0.36095,0.648912,1.831,1.97584
-0.355007,0.648912,1.831,1.97476
-0.349064,0.648912,1.831,1.9737
-0.344995,0.652456,1.841,1.98343
-0.33902,0.652456,1.841,1.9824
-0.333044,0.652456,1.841,1.98139
-0.327069,0.652456,1.841,1.98039
-0.321093,0.652456,1.841,1.97941
-0.315118,0.652456,1.841,1.97845
-0.309142,0.652456,1.841,1.97751
-0.303167,0.652456,1.841,1.97659
-0.297192,0.652456,1.841,1.97568
-0.291216,0.652456,1.841,1.97479
-0.285241,0.652456,1.841,1.97392
-0.279265,0.652456,1.841,1.97306
-0.271805,0.648912,1.831,1.96151
-0.265862,0.648912,1.831,1.9607
-0.259919,0.648912,1.831,1.9599
-0.252589,0.645368,1.821,1.94842
-0.245324,0.641824,1.811,1.93697
-0.239446,0.641824,1.811,1.93623
-0.233568,0.641824,1.811,1.93551
-0.226559,0.638634,1.802,1.9252
-0.219485,0.63509,1.792,1.91384
-0.213669,0.63509,1.792,1.91318
-0.207852,0.63509,1.792,1.91254
-0.201021,0.631901,1.783,1.90231
-0.195234,0.631901,1.783,1.90171
-0.189447,0.631901,1.783,1.90113
-0.18366,0.631901,1.783,1.90056
-0.177872,0.631901,1.783,1.90001
-0.172085,0.631901,1.783,1.89947
-0.165459,0.628711,1.774,1.88937
-0.159701,0.628711,1.774,1.88888
-0.153943,0.628711,1.774,1.8884
-0.148936,0.631901,1.783,1.89752
-0.143149,0.631901,1.783,1.89707
-0.137362,0.631901,1.783,1.89664
-0.131575,0.631901,1.783,1.89623
-0.126423,0.63509,1.792,1.90541
-0.120606,0.63509,1.792,1.90503
-0.11479,0.63509,1.792,1.90467
-0.108974,0.63509,1.792,1.90433
-0.103157,0.63509,1.792,1.90401
-0.0973408,0.63509,1.792,1.9037
-0.0915244,0.63509,1.792,1.90341
-0.085708,0.63509,1.792,1.90314
-0.0798916,0.63509,1.792,1.90289
-0.0737032,0.631901,1.783,1.8931
-0.067916,0.631901,1.783,1.89288
-0.0621289,0.631901,1.783,1.89268
-0.0560573,0.628711,1.774,1.88295
-0.0502993,0.628711,1.774,1.88279
-0.0445414,0.628711,1.774,1.88264
-0.0387834,0.628711,1.774,1.88251
-0.0328579,0.625521,1.765,1.87285
-0.0271291,0.625521,1.765,1.87276
-0.0214004,0.625521,1.765,1.87269
-0.0156716,0.625521,1.765,1.87263
-0.00994288,0.625521,1.765,1.87259
-0.00419264,0.622332,1.756,1.86302
0.0015069,0.622332,1.756,1.86302
0.00720644,0.622332,1.756,1.86303
0.012906,0.622332,1.756,1.86306
0.0186055,0.622332,1.756,1.86311
0.0243051,0.622332,1.756,1.86318
0.0300046,0.622332,1.756,1.86326
0.0357041,0.622332,1.756,1.86336
0.0414037,0.622332,1.756,1.86348
0.0471032,0.622332,1.756,1.86361
0.0528028,0.622332,1.756,1.86377
0.0585023,0.622332,1.756,1.86394
0.0642018,0.622332,1.756,1.86412
0.0699014,0.622332,1.756,1.86433
0.0752134,0.619142,1.747,1.85499
0.0808838,0.619142,1.747,1.85523
0.087,0.622332,1.756,1.86505
0.0926995,0.622332,1.756,1.86532
0.0983991,0.622332,1.756,1.86561
0.104099,0.622332,1.756,1.86592
0.109235,0.619142,1.747,1.85668
0.114906,0.619142,1.747,1.85703
0.120576,0.619142,1.747,1.85739
0.126246,0.619142,1.747,1.85776
0.131917,0.619142,1.747,1.85816
0.136878,0.615952,1.738,1.84899
0.142519,0.615952,1.738,1.84942
0.14816,0.615952,1.738,1.84986
0.153802,0.615952,1.738,1.85032
0.159443,0.615952,1.738,1.8508
0.164229,0.612763,1.729,1.84171
0.169841,0.612763,1.729,1.84222
0.175453,0.612763,1.729,1.84274
0.181065,0.612763,1.729,1.84329
0.185705,0.609573,1.72,1.83425
0.191288,0.609573,1.72,1.83482
0.19687,0.609573,1.72,1.83541
0.202453,0.609573,1.72,1.83602
0.208036,0.609573,1.72,1.83664
0.213618,0.609573,1.72,1.83728
0.219201,0.609573,1.72,1.83794
0.224784,0.609573,1.72,1.83862
0.231572,0.612763,1.729,1.84893
0.237184,0.612763,1.729,1.84964
0.242796,0.612763,1.729,1.85037
0.249701,0.615952,1.738,1.86075
0.255342,0.615952,1.738,1.86152
0.262334,0.619142,1.747,1.87194
0.268005,0.619142,1.747,1.87274
0.273675,0.619142,1.747,1.87356
0.282223,0.625521,1.765,1.89371
0.287952,0.625521,1.765,1.89458
0.295178,0.628711,1.774,1.90512
0.300936,0.628711,1.774,1.90602
0.306694,0.628711,1.774,1.90694
0.314038,0.631901,1.783,1.91755
0.319825,0.631901,1.783,1.91851
0.325612,0.631901,1.783,1.91948
0.333072,0.63509,1.792,1.93017
0.338888,0.63509,1.792,1.93118
0.344705,0.63509,1.792,1.93221
0.350521,0.63509,1.792,1.93325
0.356337,0.63509,1.792,1.93432
0.362154,0.63509,1.792,1.9354
0.366122,0.631901,1.783,1.92677
0.371909,0.631901,1.783,1.92788
0.377696,0.631901,1.783,1.929
0.381548,0.628711,1.774,1.9204
0.387306,0.628711,1.774,1.92155
0.393064,0.628711,1.774,1.92272
0.398822,0.628711,1.774,1.92391
0.40458,0.628711,1.774,1.92511
0.410338,0.628711,1.774,1.92633
0.416096,0.628711,1.774,1.92756
0.421854,0.628711,1.774,1.92881
0.427612,0.628711,1.774,1.93008
0.43337,0.628711,1.774,1.93136
0.439128,0.628711,1.774,1.93266
0.444886,0.628711,1.774,1.93398
0.450644,0.628711,1.774,1.93531
0.456401,0.628711,1.774,1.93666
0.462159,0.628711,1.774,1.93803
0.467917,0.628711,1.774,1.93941
0.473675,0.628711,1.774,1.9408
0.479433,0.628711,1.774,1.94222
0.48273,0.625521,1.765,1.93379
0.488459,0.625521,1.765,1.93522
0.494187,0.625521,1.765,1.93668
0.499916,0.625521,1.765,1.93815
0.505645,0.625521,1.765,1.93963
0.511374,0.625521,1.765,1.94114
0.517102,0.625521,1.765,1.94265
0.522831,0.625521,1.765,1.94418
0.52856,0.625521,1.765,1.94573
0.537013,0.628711,1.774,1.95723
0.542771,0.628711,1.774,1.95881
0.548529,0.628711,1.774,1.96042
0.565848,0.641824,1.811,2.00296
0.571726,0.641824,1.811,2.00463
0.580793,0.645368,1.821,2.01739
0.586704,0.645368,1.821,2.0191
0.595868,0.648912,1.831,2.03192
0.601811,0.648912,1.831,2.03367
0.611074,0.652456,1.841,2.04656
0.617049,0.652456,1.841,2.04835
0.623024,0.652456,1.841,2.05016
0.629,0.652456,1.841,2.05198
0.638079,0.655646,1.85,2.06386
0.644084,0.655646,1.85,2.06572
0.650089,0.655646,1.85,2.0676
0.652902,0.652456,1.841,2.05943
0.658877,0.652456,1.841,2.06133
0.664852,0.652456,1.841,2.06325
0.667184,0.648912,1.831,2.05397
0.673127,0.648912,1.831,2.05591
0.67907,0.648912,1.831,2.05786
0.681272,0.645368,1.821,2.04858
0.687182,0.645368,1.821,2.05055
0.689287,0.641824,1.811,2.04127
0.69171,0.638634,1.802,2.03311
0.697559,0.638634,1.802,2.0351
0.699504,0.63509,1.792,2.02581
0.701778,0.631901,1.783,2.01764
0.707565,0.631901,1.783,2.01966
0.713353,0.631901,1.783,2.0217
0.71551,0.628711,1.774,2.01353
0.717609,0.625521,1.765,2.00536
0.723337,0.625521,1.765,2.00742
0.729066,0.625521,1.765,2.00949
0.731048,0.622332,1.756,2.00132
0.736748,0.622332,1.756,2.0034
0.742447,0.622332,1.756,2.00551
0.748147,0.622332,1.756,2.00762
0.753846,0.622332,1.756,2.00976
0.759546,0.622332,1.756,2.0119
0.761323,0.619142,1.747,2.00374
0.766994,0.619142,1.747,2.0059
0.772664,0.619142,1.747,2.00807
0.778334,0.619142,1.747,2.01026
0.784005,0.619142,1.747,2.01246
0.785607,0.615952,1.738,2.0043
0.791248,0.615952,1.738,2.00652
0.796889,0.615952,1.738,2.00875
0.80253,0.615952,1.738,2.01099
0.808171,0.615952,1.738,2.01325
0.818026,0.619142,1.747,2.02596
0.823697,0.619142,1.747,2.02826
0.829367,0.619142,1.747,2.03057
0.835037,0.619142,1.747,2.03289
0.840708,0.619142,1.747,2.03522
0.846378,0.619142,1.747,2.03757
0.856438,0.622332,1.756,2.05044
0.862137,0.622332,1.756,2.05283
0.867837,0.622332,1.756,2.05523
0.873537,0.622332,1.756,2.05764
0.883742,0.625521,1.765,2.07063
0.889471,0.625521,1.765,2.07308
0.8952,0.625521,1.765,2.07554
0.905523,0.628711,1.774,2.08862
0.911281,0.628711,1.774,2.09112
0.917039,0.628711,1.774,2.09364
0.927478,0.631901,1.783,2.1068
0.933265,0.631901,1.783,2.10935
0.939052,0.631901,1.783,2.11192
0.949609,0.63509,1.792,2.12517
0.955425,0.63509,1.792,2.12778
0.971433,0.641824,1.811,2.15298
0.977311,0.641824,1.811,2.15564
0.98319,0.641824,1.811,2.15831
0.989068,0.641824,1.811,2.161
0.994946,0.641824,1.811,2.1637
1.00082,0.641824,1.811,2.1664
1.01226,0.645368,1.821,2.1811
1.01817,0.645368,1.821,2.18385
1.01846,0.641824,1.811,2.17461
1.02434,0.641824,1.811,2.17737
1.03021,0.641824,1.811,2.18014
1.04181,0.645368,1.821,2.19498
1.04197,0.641824,1.811,2.18572
1.04785,0.641824,1.811,2.18853
1.05373,0.641824,1.811,2.19135
1.05434,0.638634,1.802,2.18327
1.06019,0.638634,1.802,2.18611
1.06604,0.638634,1.802,2.18895
1.07188,0.638634,1.802,2.1918
1.07773,0.638634,1.802,2.19467
1.08358,0.638634,1.802,2.19755
1.08943,0.638634,1.802,2.20044
1.09528,0.638634,1.802,2.20334
1.10113,0.638634,1.802,2.20625
1.10698,0.638634,1.802,2.20918
1.11283,0.638634,1.802,2.21211
1.11247,0.63509,1.792,2.20277
1.11828,0.63509,1.792,2.20571
1.13037,0.638634,1.802,2.22099
1.13622,0.638634,1.802,2.22397
1.14207,0.638634,1.802,2.22697
1.14792,0.638634,1.802,2.22997
1.15377,0.638634,1.802,2.23299
1.15962,0.638634,1.802,2.23602
1.16547,0.638634,1.802,2.23906
1.17717,0.641824,1.811,2.2533
1.18304,0.641824,1.811,2.25638
1.18301,0.638634,1.802,2.24824
1.18886,0.638634,1.802,2.25132
1.19471,0.638634,1.802,2.25442
1.20056,0.638634,1.802,2.25752
1.20641,0.638634,1.802,2.26064
1.21831,0.641824,1.811,2.27507
1.22419,0.641824,1.811,2.27822
1.23007,0.641824,1.811,2.28139
-1.46586,0.75571,2.113,2.68041
-1.459,0.75571,2.113,2.67667
-1.46107,0.760359,2.126,2.68938
-1.45417,0.760359,2.126,2.68564
-1.44727,0.760359,2.126,2.68191
-1.44986,0.765366,2.14,2.69583
-1.44291,0.765366,2.14,2.6921
-1.43597,0.765366,2.14,2.68838
-1.42902,0.765366,2.14,2.68468
-1.41277,0.760359,2.126,2.66345
-1.40587,0.760359,2.126,2.65979
-1.39897,0.760359,2.126,2.65615
-1.38356,0.75571,2.113,2.6363
-1.3767,0.75571,2.113,2.63271
-1.36984,0.75571,2.113,2.62913
-1.3546,0.75106,2.1,2.60941
-1.34778,0.75106,2.1,2.60588
-1.33266,0.746411,2.087,2.58625
-1.31827,0.742119,2.075,2.56792
-1.29573,0.733178,2.05,2.53357
-1.28908,0.733178,2.05,2.53017
-1.28242,0.733178,2.05,2.52679
-1.2683,0.728886,2.038,2.50865
-1.26169,0.728886,2.038,2.50531
-1.24768,0.724595,2.026,2.48725
-1.23375,0.720303,2.014,2.46925
-1.22722,0.720303,2.014,2.46599
-1.22068,0.720303,2.014,2.46274
-1.20691,0.716011,2.002,2.44485
-1.20041,0.716011,2.002,2.44165
-1.19391,0.716011,2.002,2.43846
-1.18742,0.716011,2.002,2.43529
-1.18092,0.716011,2.002,2.43213
-1.17442,0.716011,2.002,2.42898
-1.16792,0.716011,2.002,2.42584
-1.15446,0.711719,1.99,2.4082
-1.148,0.711719,1.99,2.40511
-1.14154,0.711719,1.99,2.40203
-1.12881,0.707785,1.979,2.38571
-1.12239,0.707785,1.979,2.38268
-1.11596,0.707785,1.979,2.37966
-1.10954,0.707785,1.979,2.37665
-1.10925,0.711719,1.99,2.38685
-1.10279,0.711719,1.99,2.38386
-1.09633,0.711719,1.99,2.38088
-1.08987,0.711719,1.99,2.37791
-1.08995,0.716011,2.002,2.38928
-1.07695,0.711719,1.99,2.37202
-1.07049,0.711719,1.99,2.36909
-1.06403,0.711719,1.99,2.36618
-1.05758,0.711719,1.99,2.36328
-1.05746,0.716011,2.002,2.37463
-1.05096,0.716011,2.002,2.37175
-1.04446,0.716011,2.002,2.36888
-1.03796,0.716011,2.002,2.36602
-1.02528,0.711719,1.99,2.34901
-1.01882,0.711719,1.99,2.3462
-1.00677,0.707785,1.979,2.33045
-1.00034,0.707785,1.979,2.32768
-0.99392,0.707785,1.979,2.32493
-0.981509,0.703493,1.967,2.30811
-0.969671,0.699559,1.956,2.29251
-0.963322,0.699559,1.956,2.28983
-0.956974,0.699559,1.956,2.28716
-0.945279,0.695625,1.945,2.27167
-0.938966,0.695625,1.945,2.26905
-0.927378,0.691691,1.934,2.25362
-0.921101,0.691691,1.934,2.25105
-0.909621,0.687757,1.923,2.2357
-0.903379,0.687757,1.923,2.23317
-0.892006,0.683823,1.912,2.21789
-0.8858,0.683823,1.912,2.2154
-0.884654,0.687757,1.923,2.22566
-0.873388,0.683823,1.912,2.21047
-0.862647,0.680246,1.902,2.19647
-0.856473,0.680246,1.902,2.19406
-0.8503,0.680246,1.902,2.19165
-0.839244,0.676312,1.891,2.17661
-0.833107,0.676312,1.891,2.17425
-0.826969,0.676312,1.891,2.1719
-0.820831,0.676312,1.891,2.16957
-0.810385,0.672736,1.881,2.1558
-0.80428,0.672736,1.881,2.15351
-0.798175,0.672736,1.881,2.15124
-0.79628,0.676312,1.891,2.1604
-0.790143,0.676312,1.891,2.15815
-0.784005,0.676312,1.891,2.15591
-0.782392,0.680246,1.902,2.16621
-0.776219,0.680246,1.902,2.16399
-0.770045,0.680246,1.902,2.16178
-0.763872,0.680246,1.902,2.15959
-0.761682,0.683823,1.912,2.16876
-0.755476,0.683823,1.912,2.16659
-0.74927,0.683823,1.912,2.16443
-0.743065,0.683823,1.912,2.16229
-0.736859,0.683823,1.912,2.16017
-0.726831,0.680246,1.902,2.14677
-0.720658,0.680246,1.902,2.14469
-0.718241,0.683823,1.912,2.15389
-0.712035,0.683823,1.912,2.15183
-0.705829,0.683823,1.912,2.14978
-0.699623,0.683823,1.912,2.14775
-0.689791,0.680246,1.902,2.13451
-0.683617,0.680246,1.902,2.13253
-0.677444,0.680246,1.902,2.13056
-0.671271,0.680246,1.902,2.1286
-0.661251,0.676312,1.891,2.11436
-0.655113,0.676312,1.891,2.11245
-0.648975,0.676312,1.891,2.11056
-0.639438,0.672736,1.881,2.09753
-0.629966,0.669159,1.871,2.08453
-0.623893,0.669159,1.871,2.0827
-0.614518,0.665583,1.861,2.06977
-0.608478,0.665583,1.861,2.06799
-0.602437,0.665583,1.861,2.06622
-0.592872,0.661649,1.85,2.05226
-0.584012,0.65843,1.841,2.04056
-0.578037,0.65843,1.841,2.03886
-0.572061,0.65843,1.841,2.03717
-0.563011,0.654853,1.831,2.02444
-0.554026,0.651277,1.821,2.01175
-0.548115,0.651277,1.821,2.01013
-0.539227,0.6477,1.811,1.9975
-0.530699,0.644481,1.802,1.986
-0.52485,0.644481,1.802,1.98445
-0.519001,0.644481,1.802,1.98291
-0.510304,0.640905,1.792,1.97039
-0.504488,0.640905,1.792,1.96889
-0.498672,0.640905,1.792,1.96741
-0.492855,0.640905,1.792,1.96594
-0.484593,0.637686,1.783,1.95463
-0.478805,0.637686,1.783,1.9532
-0.473018,0.637686,1.783,1.95179
-0.467231,0.637686,1.783,1.95039
-0.461444,0.637686,1.783,1.94902
-0.455657,0.637686,1.783,1.94765
-0.44987,0.637686,1.783,1.94631
-0.444082,0.637686,1.783,1.94498
-0.438295,0.637686,1.783,1.94367
-0.432508,0.637686,1.783,1.94237
-0.426721,0.637686,1.783,1.94109
-0.420934,0.637686,1.783,1.93982
-0.415147,0.637686,1.783,1.93858
-0.409359,0.637686,1.783,1.93735
-0.403572,0.637686,1.783,1.93613
-0.397785,0.637686,1.783,1.93493
-0.393977,0.640905,1.792,1.94351
-0.38816,0.640905,1.792,1.94234
-0.382344,0.640905,1.792,1.94119
-0.376527,0.640905,1.792,1.94005
-0.370711,0.640905,1.792,1.93893
-0.364895,0.640905,1.792,1.93783
-0.361082,0.644481,1.802,1.94755
-0.355233,0.644481,1.802,1.94647
-0.351129,0.6477,1.811,1.95513
-0.345251,0.6477,1.811,1.95408
-0.339373,0.6477,1.811,1.95305
-0.333495,0.6477,1.811,1.95204
-0.327617,0.6477,1.811,1.95104
-0.323516,0.651277,1.821,1.96083
-0.317605,0.651277,1.821,1.95987
-0.311695,0.651277,1.821,1.95892
-0.305784,0.651277,1.821,1.95799
-0.298227,0.6477,1.811,1.94632
-0.292349,0.6477,1.811,1.94543
-0.286471,0.6477,1.811,1.94456
-0.280593,0.6477,1.811,1.9437
-0.274715,0.6477,1.811,1.94286
-0.2675,0.644481,1.802,1.93239
-0.261652,0.644481,1.802,1.93159
-0.255803,0.644481,1.802,1.9308
-0.248567,0.640905,1.792,1.91933
-0.241531,0.637686,1.783,1.90894
-0.235744,0.637686,1.783,1.90822
-0.229957,0.637686,1.783,1.90751
-0.223038,0.634467,1.774,1.8972
-0.21728,0.634467,1.774,1.89653
-0.211522,0.634467,1.774,1.89588
-0.20472,0.631248,1.765,1.88563
-0.198992,0.631248,1.765,1.88502
-0.193263,0.631248,1.765,1.88442
-0.187534,0.631248,1.765,1.88384
-0.181805,0.631248,1.765,1.88328
-0.176077,0.631248,1.765,1.88274
-0.169479,0.62803,1.756,1.87261
-0.16378,0.62803,1.756,1.87211
-0.15808,0.62803,1.756,1.87162
-0.152381,0.62803,1.756,1.87114
-0.146681,0.62803,1.756,1.87069
-0.140982,0.62803,1.756,1.87025
-0.135975,0.631248,1.765,1.87941
-0.130247,0.631248,1.765,1.87901
-0.124518,0.631248,1.765,1.87862
-0.118789,0.631248,1.765,1.87825
-0.11306,0.631248,1.765,1.87789
-0.107332,0.631248,1.765,1.87756
-0.101603,0.631248,1.765,1.87724
-0.0958742,0.631248,1.765,1.87694
-0.0901454,0.631248,1.765,1.87665
-0.0844167,0.631248,1.765,1.87639
-0.0786879,0.631248,1.765,1.87614
-0.0725871,0.62803,1.756,1.86634
-0.0668876,0.62803,1.756,1.86613
-0.061188,0.62803,1.756,1.86593
-0.0552041,0.624811,1.747,1.85619
-0.0495338,0.624811,1.747,1.85603
-0.0438635,0.624811,1.747,1.85589
-0.0381931,0.624811,1.747,1.85576
-0.0323552,0.621592,1.738,1.8461
-0.0267141,0.621592,1.738,1.846
-0.021073,0.621592,1.738,1.84593
-0.015352,0.618373,1.729,1.83632
-0.00974008,0.618373,1.729,1.83628
-0.00412818,0.618373,1.729,1.83626
0.00148373,0.618373,1.729,1.83625
0.00709563,0.618373,1.729,1.83627
0.0127075,0.618373,1.729,1.8363
0.0183194,0.618373,1.729,1.83634
0.0239313,0.618373,1.729,1.83641
0.0295433,0.618373,1.729,1.83649
0.0351552,0.618373,1.729,1.83659
0.0407671,0.618373,1.729,1.83671
0.046379,0.618373,1.729,1.83684
0.0517202,0.615154,1.72,1.82743
0.0573029,0.615154,1.72,1.82759
0.0628856,0.615154,1.72,1.82778
0.0684683,0.615154,1.72,1.82798
0.074051,0.615154,1.72,1.8282
0.0796337,0.615154,1.72,1.82843
0.0852164,0.615154,1.72,1.82868
0.0907991,0.615154,1.72,1.82895
0.0963818,0.615154,1.72,1.82924
0.101964,0.615154,1.72,1.82954
0.107547,0.615154,1.72,1.82986
0.11313,0.615154,1.72,1.83019
0.118713,0.615154,1.72,1.83055
0.123717,0.612293,1.712,1.8224
0.129274,0.612293,1.712,1.82279
0.134831,0.612293,1.712,1.82319
0.140387,0.612293,1.712,1.82361
0.145944,0.612293,1.712,1.82405
0.151501,0.612293,1.712,1.8245
0.157057,0.612293,1.712,1.82497
0.161759,0.609074,1.703,1.81586
0.167287,0.609074,1.703,1.81636
0.172814,0.609074,1.703,1.81688
0.178342,0.609074,1.703,1.81741
0.183869,0.609074,1.703,1.81796
0.189397,0.609074,1.703,1.81853
0.194009,0.606213,1.695,1.81057
0.19951,0.606213,1.695,1.81117
0.205012,0.606213,1.695,1.81178
0.210513,0.606213,1.695,1.81241
0.216015,0.606213,1.695,1.81306
0.221517,0.606213,1.695,1.81372
0.22809,0.609074,1.703,1.82297
0.233617,0.609074,1.703,1.82367
0.239145,0.609074,1.703,1.82438
0.245965,0.612293,1.712,1.83476
0.251522,0.612293,1.712,1.83551
0.262334,0.624811,1.747,1.87382
0.268005,0.624811,1.747,1.87463
0.273675,0.624811,1.747,1.87545
0.282223,0.631248,1.765,1.89561
0.287952,0.631248,1.765,1.89647
0.295178,0.634467,1.774,1.90703
0.300936,0.634467,1.774,1.90793
0.306694,0.634467,1.774,1.90884
0.314038,0.637686,1.783,1.91947
0.319825,0.637686,1.783,1.92042
0.325612,0.637686,1.783,1.92139
0.333072,0.640905,1.792,1.93209
0.338888,0.640905,1.792,1.9331
0.344705,0.640905,1.792,1.93413
0.350521,0.640905,1.792,1.93517
0.356337,0.640905,1.792,1.93623
0.362154,0.640905,1.792,1.93731
0.366122,0.637686,1.783,1.92867
0.371909,0.637686,1.783,1.92978
0.377696,0.637686,1.783,1.9309
0.381548,0.634467,1.774,1.92229
0.387306,0.634467,1.774,1.92344
0.393064,0.634467,1.774,1.92461
0.398822,0.634467,1.774,1.92579
0.40458,0.634467,1.774,1.927
0.410338,0.634467,1.774,1.92821
0.416096,0.634467,1.774,1.92945
0.421854,0.634467,1.774,1.9307
0.427612,0.634467,1.774,1.93196
0.43337,0.634467,1.774,1.93324
0.439128,0.634467,1.774,1.93454
0.444886,0.634467,1.774,1.93586
0.450644,0.634467,1.774,1.93719
0.456401,0.634467,1.774,1.93854
0.462159,0.634467,1.774,1.9399
0.467917,0.634467,1.774,1.94128
0.473675,0.634467,1.774,1.94268
0.479433,0.634467,1.774,1.94409
0.48273,0.631248,1.765,1.93565
0.488459,0.631248,1.765,1.93708
0.494187,0.631248,1.765,1.93854
0.499916,0.631248,1.765,1.94
0.505645,0.631248,1.765,1.94149
0.511374,0.631248,1.765,1.94299
0.517102,0.631248,1.765,1.9445
0.522831,0.631248,1.765,1.94604
0.52856,0.631248,1.765,1.94758
0.537013,0.634467,1.774,1.95908
0.542771,0.634467,1.774,1.96067
0.548529,0.634467,1.774,1.96227
0.557099,0.637686,1.783,1.97385
0.562886,0.637686,1.783,1.97549
0.571544,0.640905,1.792,1.98713
0.57736,0.640905,1.792,1.98881
0.586431,0.644481,1.802,2.00161
0.59228,0.644481,1.802,2.00334
0.601116,0.6477,1.811,2.01509
0.606994,0.6477,1.811,2.01685
0.612872,0.6477,1.811,2.01863
0.61875,0.6477,1.811,2.02042
0.624628,0.6477,1.811,2.02223
0.630506,0.6477,1.811,2.02405
0.636384,0.6477,1.811,2.02589
0.642262,0.6477,1.811,2.02774
0.64814,0.6477,1.811,2.02961
0.654018,0.6477,1.811,2.0315
0.656617,0.644481,1.802,2.02329
0.662466,0.644481,1.802,2.0252
0.664606,0.640905,1.792,2.01587
0.667055,0.637686,1.783,2.00766
0.672842,0.637686,1.783,2.00959
0.675204,0.634467,1.774,2.00138
0.680962,0.634467,1.774,2.00333
0.68672,0.634467,1.774,2.0053
0.688965,0.631248,1.765,1.99709
0.691151,0.62803,1.756,1.98888
0.696851,0.62803,1.756,1.99087
0.70255,0.62803,1.756,1.99287
0.70462,0.624811,1.747,1.98466
0.71029,0.624811,1.747,1.98668
0.712272,0.621592,1.738,1.97847
0.717913,0.621592,1.738,1.98051
0.719808,0.618373,1.729,1.9723
0.725419,0.618373,1.729,1.97435
0.731031,0.618373,1.729,1.97642
0.736643,0.618373,1.729,1.9785
0.742255,0.618373,1.729,1.9806
0.747867,0.618373,1.729,1.98271
0.753479,0.618373,1.729,1.98483
0.759091,0.618373,1.729,1.98697
0.760722,0.615154,1.72,1.97877
0.766305,0.615154,1.72,1.98092
0.771888,0.615154,1.72,1.98308
0.77747,0.615154,1.72,1.98526
0.783053,0.615154,1.72,1.98746
0.788636,0.615154,1.72,1.98966
0.794218,0.615154,1.72,1.99188
0.799801,0.615154,1.72,1.99412
0.805384,0.615154,1.72,1.99636
0.81521,0.618373,1.729,2.00908
0.820822,0.618373,1.729,2.01136
0.826434,0.618373,1.729,2.01366
0.832046,0.618373,1.729,2.01597
0.837658,0.618373,1.729,2.01829
0.843269,0.618373,1.729,2.02063
0.8533,0.621592,1.738,2.0335
0.858941,0.621592,1.738,2.03588
0.864582,0.621592,1.738,2.03826
0.87473,0.624811,1.747,2.05123
0.8804,0.624811,1.747,2.05366
0.88607,0.624811,1.747,2.05609
0.896335,0.62803,1.756,2.06915
0.902034,0.62803,1.756,2.07162
0.907734,0.62803,1.756,2.07411
0.918115,0.631248,1.765,2.08726
0.923844,0.631248,1.765,2.08978
0.929572,0.631248,1.765,2.09232
0.935301,0.631248,1.765,2.09487
0.945828,0.634467,1.774,2.10813
0.956414,0.637686,1.783,2.12143
0.962201,0.637686,1.783,2.12404
0.967988,0.637686,1.783,2.12667
0.973776,0.637686,1.783,2.12931
0.979563,0.637686,1.783,2.13197
0.98535,0.637686,1.783,2.13463
0.991137,0.637686,1.783,2.13731
0.996924,0.637686,1.783,2.14
1.00271,0.637686,1.783,2.1427
1.0085,0.637686,1.783,2.14541
1.01429,0.637686,1.783,2.14814
1.02007,0.637686,1.783,2.15088
1.02586,0.637686,1.783,2.15363
1.02644,0.634467,1.774,2.14551
1.0322,0.634467,1.774,2.14827
1.03796,0.634467,1.774,2.15104
1.04371,0.634467,1.774,2.15383
1.04415,0.631248,1.765,2.14568
1.04988,0.631248,1.765,2.14847
1.0556,0.631248,1.765,2.15128
1.06133,0.631248,1.765,2.1541
1.06706,0.631248,1.765,2.15692
1.07279,0.631248,1.765,2.15976
1.07852,0.631248,1.765,2.16262
1.07872,0.62803,1.756,2.15444
1.08442,0.62803,1.756,2.1573
1.09012,0.62803,1.756,2.16017
1.09582,0.62803,1.756,2.16305
1.10152,0.62803,1.756,2.16594
1.11857,0.634467,1.774,2.19108
1.11862,0.631248,1.765,2.18289
1.12435,0.631248,1.765,2.18583
1.13008,0.631248,1.765,2.18878
1.13581,0.631248,1.765,2.19175
1.14154,0.631248,1.765,2.19472
1.15312,0.634467,1.774,2.20891
1.15887,0.634467,1.774,2.21192
1.16463,0.634467,1.774,2.21495
1.17039,0.634467,1.774,2.21798
1.17615,0.634467,1.774,2.22102
1.1819,0.634467,1.774,2.22408
1.18766,0.634467,1.774,2.22714
1.19342,0.634467,1.774,2.23022
1.19918,0.634467,1.774,2.23331
1.23007,0.6477,1.811,2.28305
-1.38885,0.722507,2.002,2.54144
-1.38235,0.722507,2.002,2.5379
-1.3841,0.726838,2.014,2.54956
-1.39398,0.735499,2.038,2.57635
-1.38737,0.735499,2.038,2.57278
-1.38888,0.73983,2.05,2.58435
-1.39032,0.744161,2.062,2.59588
-1.38363,0.744161,2.062,2.5923
-1.38562,0.748852,2.075,2.60506
-1.37888,0.748852,2.075,2.60148
-1.37215,0.748852,2.075,2.59792
-1.35686,0.744161,2.062,2.57812
-1.35016,0.744161,2.062,2.5746
-1.34347,0.744161,2.062,2.5711
-1.33678,0.744161,2.062,2.56761
-1.32235,0.73983,2.05,2.54921
-1.31569,0.73983,2.05,2.54576
-1.30138,0.735499,2.038,2.52745
-1.28714,0.731169,2.026,2.50918
-1.28056,0.731169,2.026,2.50582
-1.26644,0.726838,2.014,2.48764
-1.2524,0.722507,2.002,2.46952
-1.2459,0.722507,2.002,2.46623
-1.2394,0.722507,2.002,2.46295
-1.22551,0.718176,1.99,2.44494
-1.21905,0.718176,1.99,2.44171
-1.21259,0.718176,1.99,2.4385
-1.20613,0.718176,1.99,2.43529
-1.18581,0.709876,1.967,2.40399
-1.17942,0.709876,1.967,2.40084
-1.17304,0.709876,1.967,2.39772
-1.16666,0.709876,1.967,2.3946
-1.16027,0.709876,1.967,2.39149
-1.15389,0.709876,1.967,2.3884
-1.1475,0.709876,1.967,2.38533
-1.14112,0.709876,1.967,2.38226
-1.13473,0.709876,1.967,2.37921
-1.12835,0.709876,1.967,2.37617
-1.12197,0.709876,1.967,2.37315
-1.11558,0.709876,1.967,2.37013
-1.1092,0.709876,1.967,2.36714
-1.09664,0.705906,1.956,2.35093
-1.0903,0.705906,1.956,2.34797
-1.08395,0.705906,1.956,2.34503
-1.0776,0.705906,1.956,2.34211
-1.07125,0.705906,1.956,2.33919
-1.07089,0.709876,1.967,2.34943
-1.05855,0.705906,1.956,2.3334
-1.0522,0.705906,1.956,2.33053
-1.06403,0.718176,1.99,2.36813
-1.05758,0.718176,1.99,2.36524
-1.05746,0.722507,2.002,2.3766
-1.05096,0.722507,2.002,2.37372
-1.04446,0.722507,2.002,2.37085
-1.03796,0.722507,2.002,2.36799
-1.02528,0.718176,1.99,2.35097
-1.01882,0.718176,1.99,2.34816
-1.00677,0.714207,1.979,2.3324
-1.00034,0.714207,1.979,2.32964
-0.99392,0.714207,1.979,2.32689
-0.981509,0.709876,1.967,2.31006
-0.969671,0.705906,1.956,2.29445
-0.963322,0.705906,1.956,2.29177
-0.956974,0.705906,1.956,2.28911
-0.945279,0.701936,1.945,2.27361
-0.938966,0.701936,1.945,2.27099
-0.927378,0.697966,1.934,2.25556
-0.921101,0.697966,1.934,2.25298
-0.909621,0.693997,1.923,2.23763
-0.903379,0.693997,1.923,2.2351
-0.892006,0.690027,1.912,2.21981
-0.8858,0.690027,1.912,2.21732
-0.884654,0.693997,1.923,2.22759
-0.873388,0.690027,1.912,2.21239
-0.862647,0.686418,1.902,2.19839
-0.856473,0.686418,1.902,2.19598
-0.8503,0.686418,1.902,2.19358
-0.839244,0.682448,1.891,2.17852
-0.833107,0.682448,1.891,2.17616
-0.826969,0.682448,1.891,2.17382
-0.820831,0.682448,1.891,2.17149
-0.810385,0.678839,1.881,2.15771
-0.80428,0.678839,1.881,2.15542
-0.798175,0.678839,1.881,2.15315
-0.79628,0.682448,1.891,2.16233
-0.790143,0.682448,1.891,2.16008
-0.784005,0.682448,1.891,2.15784
-0.782392,0.686418,1.902,2.16816
-0.776219,0.686418,1.902,2.16594
-0.770045,0.686418,1.902,2.16373
-0.763872,0.686418,1.902,2.16154
-0.761682,0.690027,1.912,2.17072
-0.755476,0.690027,1.912,2.16855
-0.74927,0.690027,1.912,2.1664
-0.743065,0.690027,1.912,2.16426
-0.736859,0.690027,1.912,2.16214
-0.726831,0.686418,1.902,2.14873
-0.720658,0.686418,1.902,2.14665
-0.714485,0.686418,1.902,2.14459
-0.708311,0.686418,1.902,2.14254
-0.702138,0.686418,1.902,2.14051
-0.695964,0.686418,1.902,2.13849
-0.685802,0.682448,1.891,2.12413
-0.679664,0.682448,1.891,2.12216
-0.669964,0.678839,1.881,2.10899
-0.663859,0.678839,1.881,2.10706
-0.654257,0.67523,1.871,2.09395
-0.648184,0.67523,1.871,2.09206
-0.642111,0.67523,1.871,2.09019
-0.636039,0.67523,1.871,2.08833
-0.622895,0.667651,1.85,2.06307
-0.61689,0.667651,1.85,2.06126
-0.610886,0.667651,1.85,2.05948
-0.601938,0.664403,1.841,2.04769
-0.595963,0.664403,1.841,2.04594
-0.586783,0.660795,1.831,2.03311
-0.577668,0.657186,1.821,2.02031
-0.568617,0.653577,1.811,2.00754
-0.562739,0.653577,1.811,2.00588
-0.554094,0.650329,1.802,1.99428
-0.548245,0.650329,1.802,1.99266
-0.542396,0.650329,1.802,1.99106
-0.53357,0.64672,1.792,1.97844
-0.525103,0.643472,1.783,1.96695
-0.519316,0.643472,1.783,1.96541
-0.513529,0.643472,1.783,1.96389
-0.505178,0.640224,1.774,1.95248
-0.49942,0.640224,1.774,1.951
-0.493663,0.640224,1.774,1.94953
-0.485429,0.636976,1.765,1.9382
-0.479701,0.636976,1.765,1.93677
-0.473972,0.636976,1.765,1.93536
-0.468243,0.636976,1.765,1.93396
-0.460156,0.633728,1.756,1.92273
-0.454456,0.633728,1.756,1.92137
-0.448757,0.633728,1.756,1.92003
-0.443057,0.633728,1.756,1.91871
-0.437358,0.633728,1.756,1.9174
-0.431658,0.633728,1.756,1.91611
-0.425959,0.633728,1.756,1.91483
-0.420259,0.633728,1.756,1.91357
-0.41456,0.633728,1.756,1.91233
-0.40886,0.633728,1.756,1.9111
-0.40316,0.633728,1.756,1.90989
-0.399498,0.636976,1.765,1.91848
-0.393769,0.636976,1.765,1.91729
-0.38804,0.636976,1.765,1.91613
-0.382312,0.636976,1.765,1.91497
-0.376583,0.636976,1.765,1.91384
-0.370854,0.636976,1.765,1.91272
-0.366987,0.640224,1.774,1.92136
-0.361229,0.640224,1.774,1.92027
-0.355471,0.640224,1.774,1.9192
-0.351488,0.643472,1.783,1.92787
-0.3457,0.643472,1.783,1.92682
-0.339913,0.643472,1.783,1.92579
-0.334126,0.643472,1.783,1.92478
-0.329996,0.64672,1.792,1.9335
-0.32418,0.64672,1.792,1.93251
-0.318364,0.64672,1.792,1.93155
-0.312547,0.64672,1.792,1.93059
-0.306731,0.64672,1.792,1.92966
-0.300914,0.64672,1.792,1.92875
-0.293616,0.643472,1.783,1.91816
-0.287829,0.643472,1.783,1.91729
-0.282042,0.643472,1.783,1.91643
-0.276254,0.643472,1.783,1.91558
-0.270467,0.643472,1.783,1.91476
-0.26468,0.643472,1.783,1.91395
-0.257586,0.640224,1.774,1.9035
-0.251828,0.640224,1.774,1.90273
-0.244822,0.636976,1.765,1.89233
-0.239093,0.636976,1.765,1.89159
-0.233364,0.636976,1.765,1.89088
-0.226475,0.633728,1.756,1.88054
-0.220775,0.633728,1.756,1.87986
-0.213973,0.63048,1.747,1.86957
-0.208303,0.63048,1.747,1.86893
-0.202633,0.63048,1.747,1.86831
-0.196962,0.63048,1.747,1.8677
-0.191292,0.63048,1.747,1.86711
-0.184665,0.627232,1.738,1.85692
-0.179024,0.627232,1.738,1.85637
-0.173383,0.627232,1.738,1.85584
-0.167742,0.627232,1.738,1.85532
-0.162101,0.627232,1.738,1.85482
-0.15646,0.627232,1.738,1.85433
-0.150819,0.627232,1.738,1.85386
-0.145178,0.627232,1.738,1.85341
-0.139536,0.627232,1.738,1.85298
-0.133895,0.627232,1.738,1.85256
-0.128254,0.627232,1.738,1.85216
-0.122613,0.627232,1.738,1.85178
-0.116972,0.627232,1.738,1.85142
-0.111331,0.627232,1.738,1.85107
-0.10569,0.627232,1.738,1.85074
-0.100049,0.627232,1.738,1.85043
-0.0944075,0.627232,1.738,1.85013
-0.0887664,0.627232,1.738,1.84985
-0.0831253,0.627232,1.738,1.84959
-0.0774842,0.627232,1.738,1.84934
-0.071471,0.623984,1.729,1.83954
-0.0658591,0.623984,1.729,1.83933
-0.0602472,0.623984,1.729,1.83914
-0.0546353,0.623984,1.729,1.83896
-0.0487682,0.620735,1.72,1.82923
-0.0431855,0.620735,1.72,1.82909
-0.037428,0.617848,1.712,1.82046
-0.0318712,0.617848,1.712,1.82036
-0.0263145,0.617848,1.712,1.82027
-0.0207578,0.617848,1.712,1.8202
-0.015352,0.623984,1.729,1.83821
-0.00974008,0.623984,1.729,1.83818
-0.00412818,0.623984,1.729,1.83816
0.00148373,0.623984,1.729,1.83815
0.00709563,0.623984,1.729,1.83816
0.0127075,0.623984,1.729,1.83819
0.0183194,0.623984,1.729,1.83824
0.0239313,0.623984,1.729,1.83831
0.0295433,0.623984,1.729,1.83839
0.0351552,0.623984,1.729,1.83849
0.0407671,0.623984,1.729,1.8386
0.046379,0.623984,1.729,1.83874
0.0517202,0.620735,1.72,1.82931
0.0573029,0.620735,1.72,1.82948
0.0628856,0.620735,1.72,1.82966
0.0684683,0.620735,1.72,1.82986
0.074051,0.620735,1.72,1.83008
0.0796337,0.620735,1.72,1.83032
0.0852164,0.620735,1.72,1.83057
0.0907991,0.620735,1.72,1.83084
0.0963818,0.620735,1.72,1.83112
0.101964,0.620735,1.72,1.83142
0.107547,0.620735,1.72,1.83174
0.11313,0.620735,1.72,1.83208
0.118713,0.620735,1.72,1.83243
0.123717,0.617848,1.712,1.82428
0.129274,0.617848,1.712,1.82466
0.134831,0.617848,1.712,1.82506
