-1.79516,-0.0521901,2.783,3.31216
-1.78613,-0.0521901,2.783,3.30728
-1.7771,-0.0521901,2.783,3.30241
-1.78268,-0.0526214,2.806,3.32481
-1.77357,-0.0526214,2.806,3.31993
-1.77893,-0.0530527,2.829,3.34225
-1.78476,-0.0535028,2.853,3.36568
-1.7755,-0.0535028,2.853,3.36078
-1.76624,-0.0535028,2.853,3.3559
-1.77176,-0.0539529,2.877,3.37922
-1.76242,-0.0539529,2.877,3.37434
-1.75308,-0.0539529,2.877,3.36947
-1.75829,-0.0544029,2.901,3.39269
-1.74887,-0.0544029,2.901,3.38782
-1.73946,-0.0544029,2.901,3.38297
-1.74495,-0.0548718,2.926,3.40725
-1.73545,-0.0548718,2.926,3.40239
-1.7407,-0.0553406,2.951,3.42659
-1.73112,-0.0553406,2.951,3.42173
-1.70696,-0.0548718,2.926,3.38795
-1.69746,-0.0548718,2.926,3.38318
-1.68797,-0.0548718,2.926,3.37842
-1.67847,-0.0548718,2.926,3.37368
nan,nan,nan,NaN
nan,nan,nan,NaN
nan,nan,nan,NaN
nan,nan,nan,NaN
nan,nan,nan,NaN
nan,nan,nan,NaN
nan,nan,nan,NaN
nan,nan,nan,NaN
nan,nan,nan,NaN
nan,nan,nan,NaN
nan,nan,nan,NaN
nan,nan,nan,NaN
nan,nan,nan,NaN
nan,nan,nan,NaN
nan,nan,nan,NaN
nan,nan,nan,NaN
nan,nan,nan,NaN
nan,nan,nan,NaN
nan,nan,nan,NaN
nan,nan,nan,NaN
nan,nan,nan,NaN
-1.37562,-0.0513649,2.739,3.06547
-1.33479,-0.0501647,2.675,2.98995
-1.32611,-0.0501647,2.675,2.98609
-1.28689,-0.049002,2.613,2.91312
-1.25933,-0.0482707,2.574,2.86596
-1.25098,-0.0482707,2.574,2.8623
-1.23345,-0.0479144,2.555,2.83755
-1.21605,-0.047558,2.536,2.81289
-1.20781,-0.047558,2.536,2.80934
-1.1906,-0.0472017,2.517,2.78479
-1.17397,-0.0468642,2.499,2.76141
-1.15746,-0.0465266,2.481,2.73811
-1.14941,-0.0465266,2.481,2.73472
-1.13308,-0.0461891,2.463,2.71152
-1.11686,-0.0458515,2.445,2.6884
-1.10892,-0.0458515,2.445,2.68511
-1.09333,-0.0455327,2.428,2.6632
-1.08545,-0.0455327,2.428,2.65997
-1.07757,-0.0455327,2.428,2.65677
-1.0622,-0.0452139,2.411,2.635
-1.04694,-0.0448951,2.394,2.6133
-1.03917,-0.0448951,2.394,2.6102
-1.0314,-0.0448951,2.394,2.60711
-1.01636,-0.0445763,2.377,2.58556
-1.00865,-0.0445763,2.377,2.58253
-1.00093,-0.0445763,2.377,2.57953
-0.993215,-0.0445763,2.377,2.57655
-0.9855,-0.0445763,2.377,2.57358
-0.977785,-0.0445763,2.377,2.57064
-0.970069,-0.0445763,2.377,2.56771
-0.962354,-0.0445763,2.377,2.56481
-0.954639,-0.0445763,2.377,2.56192
-0.946924,-0.0445763,2.377,2.55906
-0.939209,-0.0445763,2.377,2.55621
-0.931494,-0.0445763,2.377,2.55339
-0.923778,-0.0445763,2.377,2.55058
-0.916063,-0.0445763,2.377,2.5478
-0.908348,-0.0445763,2.377,2.54504
-0.900633,-0.0445763,2.377,2.54229
-0.892918,-0.0445763,2.377,2.53957
-0.885203,-0.0445763,2.377,2.53687
-0.877488,-0.0445763,2.377,2.53419
-0.869772,-0.0445763,2.377,2.53153
-0.862057,-0.0445763,2.377,2.52888
-0.854342,-0.0445763,2.377,2.52627
-0.846627,-0.0445763,2.377,2.52367
-0.838912,-0.0445763,2.377,2.52109
-0.831197,-0.0445763,2.377,2.51853
-0.823481,-0.0445763,2.377,2.516
-0.815766,-0.0445763,2.377,2.51348
-0.81383,-0.0448951,2.394,2.52895
-0.80606,-0.0448951,2.394,2.52646
-0.79829,-0.0448951,2.394,2.52399
-0.790519,-0.0448951,2.394,2.52154
-0.788307,-0.0452139,2.411,2.537
-0.780482,-0.0452139,2.411,2.53458
-0.772656,-0.0452139,2.411,2.53219
-0.764831,-0.0452139,2.411,2.52981
-0.762343,-0.0455327,2.428,2.54527
-0.754462,-0.0455327,2.428,2.54293
-0.746581,-0.0455327,2.428,2.5406
-0.743873,-0.0458515,2.445,2.55607
-0.735937,-0.0458515,2.445,2.55377
-0.728001,-0.0458515,2.445,2.55149
-0.720065,-0.0458515,2.445,2.54924
-0.712129,-0.0458515,2.445,2.54701
-0.709378,-0.0461891,2.463,2.56354
-0.701384,-0.0461891,2.463,2.56134
-0.693389,-0.0461891,2.463,2.55916
-0.685395,-0.0461891,2.463,2.557
-0.677401,-0.0461891,2.463,2.55487
-0.669406,-0.0461891,2.463,2.55276
-0.661412,-0.0461891,2.463,2.55068
-0.658193,-0.0465266,2.481,2.56724
-0.65014,-0.0465266,2.481,2.56519
-0.642088,-0.0465266,2.481,2.56316
-0.629435,-0.0461891,2.463,2.54258
-0.621441,-0.0461891,2.463,2.54061
-0.613446,-0.0461891,2.463,2.53866
-0.605452,-0.0461891,2.463,2.53674
-0.597458,-0.0461891,2.463,2.53485
-0.589464,-0.0461891,2.463,2.53298
-0.581469,-0.0461891,2.463,2.53113
-0.573475,-0.0461891,2.463,2.5293
-0.565481,-0.0461891,2.463,2.5275
-0.557486,-0.0461891,2.463,2.52573
-0.549492,-0.0461891,2.463,2.52397
-0.545455,-0.0465266,2.481,2.54068
-0.537403,-0.0465266,2.481,2.53896
-0.52935,-0.0465266,2.481,2.53727
-0.521297,-0.0465266,2.481,2.5356
-0.513244,-0.0465266,2.481,2.53396
-0.505192,-0.0465266,2.481,2.53234
-0.497139,-0.0465266,2.481,2.53075
-0.492635,-0.0468642,2.499,2.54753
-0.484524,-0.0468642,2.499,2.54597
-0.476412,-0.0468642,2.499,2.54444
-0.468301,-0.0468642,2.499,2.54293
-0.46019,-0.0468642,2.499,2.54145
-0.452079,-0.0468642,2.499,2.53999
-0.443968,-0.0468642,2.499,2.53856
-0.435857,-0.0468642,2.499,2.53716
-0.427746,-0.0468642,2.499,2.53578
-0.419634,-0.0468642,2.499,2.53442
-0.411523,-0.0468642,2.499,2.53309
-0.403412,-0.0468642,2.499,2.53179
-0.395301,-0.0468642,2.499,2.53051
-0.38719,-0.0468642,2.499,2.52925
-0.379079,-0.0468642,2.499,2.52802
-0.37364,-0.0472017,2.517,2.54502
-0.36547,-0.0472017,2.517,2.54383
-0.357301,-0.0472017,2.517,2.54267
-0.349131,-0.0472017,2.517,2.54154
-0.340961,-0.0472017,2.517,2.54043
-0.332792,-0.0472017,2.517,2.53934
-0.324622,-0.0472017,2.517,2.53829
-0.318842,-0.047558,2.536,2.55641
-0.31061,-0.047558,2.536,2.55539
-0.302379,-0.047558,2.536,2.55441
-0.294148,-0.047558,2.536,2.55344
-0.285917,-0.047558,2.536,2.55251
-0.275605,-0.0472017,2.517,2.53248
-0.267435,-0.0472017,2.517,2.53161
-0.259266,-0.0472017,2.517,2.53076
-0.251096,-0.0472017,2.517,2.52993
-0.242927,-0.0472017,2.517,2.52914
-0.234757,-0.0472017,2.517,2.52836
-0.226588,-0.0472017,2.517,2.52762
-0.218418,-0.0472017,2.517,2.5269
-0.210249,-0.0472017,2.517,2.52621
-0.202079,-0.0472017,2.517,2.52554
-0.192523,-0.0468642,2.499,2.50684
-0.184412,-0.0468642,2.499,2.50623
-0.1763,-0.0468642,2.499,2.50565
-0.168189,-0.0468642,2.499,2.50509
-0.160078,-0.0468642,2.499,2.50456
-0.151967,-0.0468642,2.499,2.50406
-0.143856,-0.0468642,2.499,2.50358
-0.135745,-0.0468642,2.499,2.50312
-0.127634,-0.0468642,2.499,2.5027
-0.119523,-0.0468642,2.499,2.5023
-0.111411,-0.0468642,2.499,2.50192
-0.1033,-0.0468642,2.499,2.50157
-0.0951891,-0.0468642,2.499,2.50125
-0.087078,-0.0468642,2.499,2.50096
-0.0789668,-0.0468642,2.499,2.50069
-0.0708557,-0.0468642,2.499,2.50044
-0.0627446,-0.0468642,2.499,2.50023
-0.0546334,-0.0468642,2.499,2.50004
-0.0465223,-0.0468642,2.499,2.49987
-0.0384112,-0.0468642,2.499,2.49973
-0.0303,-0.0468642,2.499,2.49962
-0.0221889,-0.0468642,2.499,2.49954
-0.0140778,-0.0468642,2.499,2.49948
-0.00596664,-0.0468642,2.499,2.49945
0.00214449,-0.0468642,2.499,2.49944
0.0102556,-0.0468642,2.499,2.49946
0.0182345,-0.0465266,2.481,2.4815
0.0262872,-0.0465266,2.481,2.48158
0.0343399,-0.0465266,2.481,2.48167
0.0423926,-0.0465266,2.481,2.4818
0.0504453,-0.0465266,2.481,2.48195
0.058498,-0.0465266,2.481,2.48213
0.0665507,-0.0465266,2.481,2.48233
0.0746034,-0.0465266,2.481,2.48256
0.0826561,-0.0465266,2.481,2.48281
0.0907089,-0.0465266,2.481,2.48309
0.0987616,-0.0465266,2.481,2.4834
0.106814,-0.0465266,2.481,2.48373
0.114867,-0.0465266,2.481,2.48409
0.12292,-0.0465266,2.481,2.48448
0.130972,-0.0465266,2.481,2.48489
0.139025,-0.0465266,2.481,2.48533
0.147078,-0.0465266,2.481,2.48579
0.154005,-0.0461891,2.463,2.46824
0.161999,-0.0461891,2.463,2.46875
0.169994,-0.0461891,2.463,2.46929
0.177988,-0.0461891,2.463,2.46985
0.185982,-0.0461891,2.463,2.47044
0.193976,-0.0461891,2.463,2.47106
0.201971,-0.0461891,2.463,2.4717
0.209965,-0.0461891,2.463,2.47236
0.217959,-0.0461891,2.463,2.47306
0.227605,-0.0465266,2.481,2.49185
0.235658,-0.0465266,2.481,2.4926
0.24371,-0.0465266,2.481,2.49338
0.251763,-0.0465266,2.481,2.49418
0.259816,-0.0465266,2.481,2.495
0.267868,-0.0465266,2.481,2.49585
0.275921,-0.0465266,2.481,2.49673
0.283974,-0.0465266,2.481,2.49763
0.289908,-0.0461891,2.463,2.48043
0.297902,-0.0461891,2.463,2.48138
0.305896,-0.0461891,2.463,2.48235
0.313891,-0.0461891,2.463,2.48335
0.321885,-0.0461891,2.463,2.48437
0.329879,-0.0461891,2.463,2.48542
0.337874,-0.0461891,2.463,2.4865
0.345868,-0.0461891,2.463,2.48759
0.353862,-0.0461891,2.463,2.48872
0.361856,-0.0461891,2.463,2.48987
0.369851,-0.0461891,2.463,2.49104
0.377845,-0.0461891,2.463,2.49224
0.385839,-0.0461891,2.463,2.49347
0.393834,-0.0461891,2.463,2.49472
0.401828,-0.0461891,2.463,2.49599
0.409822,-0.0461891,2.463,2.49729
0.417816,-0.0461891,2.463,2.49861
0.425811,-0.0461891,2.463,2.49996
0.433805,-0.0461891,2.463,2.50134
0.441799,-0.0461891,2.463,2.50274
0.449794,-0.0461891,2.463,2.50416
0.457788,-0.0461891,2.463,2.50561
0.465782,-0.0461891,2.463,2.50708
0.473776,-0.0461891,2.463,2.50858
0.485292,-0.0465266,2.481,2.52845
0.493344,-0.0465266,2.481,2.53
0.501397,-0.0465266,2.481,2.53159
0.50945,-0.0465266,2.481,2.53319
0.521257,-0.0468642,2.499,2.55322
0.529368,-0.0468642,2.499,2.55488
0.537479,-0.0468642,2.499,2.55658
0.54559,-0.0468642,2.499,2.55829
0.553702,-0.0468642,2.499,2.56004
0.561813,-0.0468642,2.499,2.5618
0.569924,-0.0468642,2.499,2.56359
0.578035,-0.0468642,2.499,2.56541
0.590368,-0.0472017,2.517,2.58574
0.598538,-0.0472017,2.517,2.58762
0.606707,-0.0472017,2.517,2.58952
0.614877,-0.0472017,2.517,2.59145
0.623046,-0.0472017,2.517,2.5934
0.635981,-0.047558,2.536,2.61496
0.644212,-0.047558,2.536,2.61698
0.652443,-0.047558,2.536,2.61901
0.660674,-0.047558,2.536,2.62108
0.668906,-0.047558,2.536,2.62316
0.677137,-0.047558,2.536,2.62528
0.685368,-0.047558,2.536,2.62741
0.693599,-0.047558,2.536,2.62957
0.70183,-0.047558,2.536,2.63175
0.710062,-0.047558,2.536,2.63396
0.718293,-0.047558,2.536,2.63619
0.726524,-0.047558,2.536,2.63845
0.734755,-0.047558,2.536,2.64072
0.742987,-0.047558,2.536,2.64303
0.751218,-0.047558,2.536,2.64535
0.759449,-0.047558,2.536,2.6477
0.76768,-0.047558,2.536,2.65007
0.775912,-0.047558,2.536,2.65247
0.784143,-0.047558,2.536,2.65489
0.792374,-0.047558,2.536,2.65733
0.800605,-0.047558,2.536,2.6598
0.808836,-0.047558,2.536,2.66229
0.817068,-0.047558,2.536,2.6648
0.825299,-0.047558,2.536,2.66734
0.83353,-0.047558,2.536,2.66989
0.835455,-0.0472017,2.517,2.65245
0.843624,-0.0472017,2.517,2.65504
0.851794,-0.0472017,2.517,2.65764
0.859963,-0.0472017,2.517,2.66027
0.868133,-0.0472017,2.517,2.66293
0.876303,-0.0472017,2.517,2.6656
0.878147,-0.0468642,2.499,2.64921
0.886258,-0.0468642,2.499,2.65191
0.894369,-0.0468642,2.499,2.65464
0.89598,-0.0465266,2.481,2.63824
0.904033,-0.0465266,2.481,2.64099
0.912085,-0.0465266,2.481,2.64375
0.920138,-0.0465266,2.481,2.64654
0.928191,-0.0465266,2.481,2.64935
0.936243,-0.0465266,2.481,2.65218
0.937445,-0.0461891,2.463,2.63577
0.945439,-0.0461891,2.463,2.63863
0.953434,-0.0461891,2.463,2.6415
0.961428,-0.0461891,2.463,2.6444
0.969422,-0.0461891,2.463,2.64732
0.977417,-0.0461891,2.463,2.65025
0.985411,-0.0461891,2.463,2.65321
0.993405,-0.0461891,2.463,2.65619
1.00872,-0.0465266,2.481,2.67863
1.01677,-0.0465266,2.481,2.68167
1.02482,-0.0465266,2.481,2.68473
1.03288,-0.0465266,2.481,2.68782
1.04093,-0.0465266,2.481,2.69092
1.04898,-0.0465266,2.481,2.69405
1.07237,-0.0472017,2.517,2.73633
1.08054,-0.0472017,2.517,2.73954
1.08871,-0.0472017,2.517,2.74277
1.11344,-0.0479144,2.555,2.78748
1.13008,-0.0482707,2.574,2.81156
1.14683,-0.048627,2.593,2.83571
1.15525,-0.048627,2.593,2.83912
1.17264,-0.049002,2.613,2.86448
1.19965,-0.0497709,2.654,2.91297
1.20827,-0.0497709,2.654,2.91652
1.22651,-0.0501647,2.675,2.94321
1.25459,-0.0509524,2.717,2.9931
1.26341,-0.0509524,2.717,2.99681
1.28253,-0.0513649,2.739,3.02484
1.31216,-0.0521901,2.783,3.07727
1.33211,-0.0526214,2.806,3.1066
1.34122,-0.0526214,2.806,3.11051
1.35033,-0.0526214,2.806,3.11445
1.37058,-0.0530527,2.829,3.14397
1.37976,-0.0530527,2.829,3.14798
1.40073,-0.0535028,2.853,3.17876
1.42185,-0.0539529,2.877,3.20963
1.43119,-0.0539529,2.877,3.21377
1.45254,-0.0544029,2.901,3.24479
1.47456,-0.0548718,2.926,3.27701
1.48405,-0.0548718,2.926,3.2813
1.49355,-0.0548718,2.926,3.2856
1.51589,-0.0553406,2.951,3.31804
1.52547,-0.0553406,2.951,3.32243
1.53505,-0.0553406,2.951,3.32684
1.55823,-0.0558282,2.977,3.36062
1.58159,-0.0563158,3.003,3.3945
1.59134,-0.0563158,3.003,3.39905
1.61548,-0.0568221,3.03,3.43423
1.6398,-0.0573284,3.057,3.46951
1.64972,-0.0573284,3.057,3.47421
1.6743,-0.0578348,3.084,3.50966
1.6996,-0.0583599,3.112,3.54635
1.72563,-0.0589037,3.141,3.58429
1.73583,-0.0589037,3.141,3.58921
1.74602,-0.0589037,3.141,3.59416
1.75622,-0.0589037,3.141,3.59912
1.76641,-0.0589037,3.141,3.6041
1.77661,-0.0589037,3.141,3.60911
1.7868,-0.0589037,3.141,3.61414
1.78041,-0.0583599,3.112,3.58578
1.7744,-0.0578348,3.084,3.5585
1.78441,-0.0578348,3.084,3.5635
1.77871,-0.0573284,3.057,3.53728
1.78863,-0.0573284,3.057,3.54228
1.78267,-0.0568221,3.03,3.51597
1.7925,-0.0568221,3.03,3.52097
1.78628,-0.0563158,3.003,3.49456
1.79602,-0.0563158,3.003,3.49955
1.80577,-0.0563158,3.003,3.50457
1.81552,-0.0563158,3.003,3.5096
1.79366,-0.0553406,2.951,3.45379
1.80324,-0.0553406,2.951,3.45878
1.79746,-0.0548718,2.926,3.43443
1.80695,-0.0548718,2.926,3.43941
1.81645,-0.0548718,2.926,3.44441
1.81035,-0.0544029,2.901,3.41996
1.80471,-0.0539529,2.877,3.39662
1.81405,-0.0539529,2.877,3.40159
1.79296,-0.0530527,2.829,3.34974
1.77284,-0.0521901,2.783,3.30012
1.76779,-0.0517775,2.761,3.27885
1.77675,-0.0517775,2.761,3.28369
1.75725,-0.0509524,2.717,3.23614
1.73877,-0.0501647,2.675,3.19084
1.74746,-0.0501647,2.675,3.19558
1.74235,-0.0497709,2.654,3.17521
1.72392,-0.049002,2.613,3.13082
1.7324,-0.049002,2.613,3.1355
1.71489,-0.0482707,2.574,3.09333
1.69781,-0.047558,2.536,3.05223
1.70604,-0.047558,2.536,3.05682
1.70143,-0.0472017,2.517,3.03848
1.69737,-0.0468642,2.499,3.0213
-1.97922,-0.0442453,2.853,3.47259
-1.95339,-0.0438731,2.829,3.43815
-1.94421,-0.0438731,2.829,3.43294
-1.91929,-0.0435164,2.806,3.39988
-1.89453,-0.0431597,2.783,3.36693
-1.88549,-0.0431597,2.783,3.36185
-1.87646,-0.0431597,2.783,3.35679
-1.85267,-0.0428185,2.761,3.32526
-1.8437,-0.0428185,2.761,3.32027
-1.83474,-0.0428185,2.761,3.3153
-1.82578,-0.0428185,2.761,3.31035
-1.81682,-0.0428185,2.761,3.30542
-1.80786,-0.0428185,2.761,3.3005
-1.7989,-0.0428185,2.761,3.2956
-1.78993,-0.0428185,2.761,3.29072
-1.78097,-0.0428185,2.761,3.28585
-1.77201,-0.0428185,2.761,3.281
-1.76305,-0.0428185,2.761,3.27617
-1.76807,-0.0431597,2.783,3.29742
-1.75903,-0.0431597,2.783,3.29259
-1.75,-0.0431597,2.783,3.28777
-1.76974,-0.0438731,2.829,3.33724
-1.7755,-0.0442453,2.853,3.36065
-1.76624,-0.0442453,2.853,3.35577
-1.75698,-0.0442453,2.853,3.3509
-1.76242,-0.0446175,2.877,3.3742
-1.75308,-0.0446175,2.877,3.36933
-1.74374,-0.0446175,2.877,3.36448
-1.74887,-0.0449897,2.901,3.38768
-1.73946,-0.0449897,2.901,3.38283
-1.74495,-0.0453774,2.926,3.40711
-1.73545,-0.0453774,2.926,3.40225
-1.7407,-0.0457651,2.951,3.42645
-1.73112,-0.0457651,2.951,3.42159
-1.70696,-0.0453774,2.926,3.38781
-1.69746,-0.0453774,2.926,3.38303
-1.68797,-0.0453774,2.926,3.37828
-1.67847,-0.0453774,2.926,3.37354
nan,nan,nan,NaN
nan,nan,nan,NaN
nan,nan,nan,NaN
nan,nan,nan,NaN
nan,nan,nan,NaN
-1.50567,-0.0421361,2.717,3.10659
-1.49685,-0.0421361,2.717,3.10233
-1.50008,-0.0424773,2.739,3.12317
-1.49119,-0.0424773,2.739,3.11891
-1.4823,-0.0424773,2.739,3.11466
-1.48524,-0.0428185,2.761,3.13543
-1.47628,-0.0428185,2.761,3.13119
-1.47901,-0.0431597,2.783,3.15189
-1.46998,-0.0431597,2.783,3.14766
-1.46095,-0.0431597,2.783,3.14346
-1.45191,-0.0431597,2.783,3.13927
-1.4548,-0.0435164,2.806,3.16101
-1.45755,-0.0438731,2.829,3.1827
-1.44836,-0.0438731,2.829,3.17851
-1.40459,-0.0428185,2.761,3.09804
-1.39563,-0.0428185,2.761,3.09398
-1.37562,-0.0424773,2.739,3.06533
-1.33479,-0.0414848,2.675,2.98982
-1.32611,-0.0414848,2.675,2.98595
-1.28689,-0.0405233,2.613,2.91299
-1.25933,-0.0399185,2.574,2.86583
-1.25098,-0.0399185,2.574,2.86217
-1.23345,-0.0396238,2.555,2.83743
-1.21605,-0.0393291,2.536,2.81276
-1.20781,-0.0393291,2.536,2.80921
-1.1906,-0.0390345,2.517,2.78466
-1.17397,-0.0387553,2.499,2.76129
-1.15746,-0.0384762,2.481,2.73798
-1.14941,-0.0384762,2.481,2.73459
-1.13308,-0.038197,2.463,2.7114
-1.11686,-0.0379179,2.445,2.68828
-1.10892,-0.0379179,2.445,2.68499
-1.09333,-0.0376542,2.428,2.66308
-1.07785,-0.0373906,2.411,2.64123
-1.07003,-0.0373906,2.411,2.63804
-1.0622,-0.0373906,2.411,2.63488
-1.04694,-0.037127,2.394,2.61318
-1.03917,-0.037127,2.394,2.61007
-1.0314,-0.037127,2.394,2.60699
-1.01636,-0.0368633,2.377,2.58544
-1.00865,-0.0368633,2.377,2.58241
-1.00093,-0.0368633,2.377,2.57941
-0.993215,-0.0368633,2.377,2.57642
-0.9855,-0.0368633,2.377,2.57346
-0.977785,-0.0368633,2.377,2.57052
-0.970069,-0.0368633,2.377,2.56759
-0.962354,-0.0368633,2.377,2.56469
-0.954639,-0.0368633,2.377,2.5618
-0.946924,-0.0368633,2.377,2.55894
-0.939209,-0.0368633,2.377,2.55609
-0.931494,-0.0368633,2.377,2.55327
-0.923778,-0.0368633,2.377,2.55046
-0.916063,-0.0368633,2.377,2.54768
-0.908348,-0.0368633,2.377,2.54491
-0.900633,-0.0368633,2.377,2.54217
-0.892918,-0.0368633,2.377,2.53945
-0.885203,-0.0368633,2.377,2.53674
-0.877488,-0.0368633,2.377,2.53406
-0.869772,-0.0368633,2.377,2.5314
-0.862057,-0.0368633,2.377,2.52876
-0.854342,-0.0368633,2.377,2.52614
-0.846627,-0.0368633,2.377,2.52354
-0.838912,-0.0368633,2.377,2.52096
-0.837141,-0.037127,2.394,2.53642
-0.829371,-0.037127,2.394,2.53386
-0.821601,-0.037127,2.394,2.53133
-0.81383,-0.037127,2.394,2.52882
-0.80606,-0.037127,2.394,2.52633
-0.79829,-0.037127,2.394,2.52386
-0.790519,-0.037127,2.394,2.52142
-0.788307,-0.0373906,2.411,2.53688
-0.780482,-0.0373906,2.411,2.53446
-0.772656,-0.0373906,2.411,2.53206
-0.764831,-0.0373906,2.411,2.52968
-0.762343,-0.0376542,2.428,2.54515
-0.754462,-0.0376542,2.428,2.5428
-0.746581,-0.0376542,2.428,2.54047
-0.743873,-0.0379179,2.445,2.55594
-0.735937,-0.0379179,2.445,2.55364
-0.728001,-0.0379179,2.445,2.55136
-0.725366,-0.038197,2.463,2.56788
-0.717372,-0.038197,2.463,2.56563
-0.709378,-0.038197,2.463,2.56341
-0.701384,-0.038197,2.463,2.5612
-0.693389,-0.038197,2.463,2.55903
-0.685395,-0.038197,2.463,2.55687
-0.677401,-0.038197,2.463,2.55474
-0.674299,-0.0384762,2.481,2.57129
-0.666246,-0.0384762,2.481,2.56919
-0.658193,-0.0384762,2.481,2.56711
-0.65014,-0.0384762,2.481,2.56506
-0.642088,-0.0384762,2.481,2.56303
-0.629435,-0.038197,2.463,2.54244
-0.621441,-0.038197,2.463,2.54048
-0.613446,-0.038197,2.463,2.53853
-0.605452,-0.038197,2.463,2.53661
-0.597458,-0.038197,2.463,2.53472
-0.589464,-0.038197,2.463,2.53284
-0.581469,-0.038197,2.463,2.53099
-0.573475,-0.038197,2.463,2.52917
-0.565481,-0.038197,2.463,2.52737
-0.557486,-0.038197,2.463,2.52559
-0.549492,-0.038197,2.463,2.52384
-0.545455,-0.0384762,2.481,2.54054
-0.537403,-0.0384762,2.481,2.53883
-0.52935,-0.0384762,2.481,2.53713
-0.521297,-0.0384762,2.481,2.53547
-0.513244,-0.0384762,2.481,2.53382
-0.505192,-0.0384762,2.481,2.5322
-0.500746,-0.0387553,2.499,2.54897
-0.492635,-0.0387553,2.499,2.54739
-0.484524,-0.0387553,2.499,2.54583
-0.476412,-0.0387553,2.499,2.5443
-0.468301,-0.0387553,2.499,2.5428
-0.46019,-0.0387553,2.499,2.54131
-0.452079,-0.0387553,2.499,2.53986
-0.443968,-0.0387553,2.499,2.53843
-0.435857,-0.0387553,2.499,2.53702
-0.427746,-0.0387553,2.499,2.53564
-0.419634,-0.0387553,2.499,2.53428
-0.411523,-0.0387553,2.499,2.53295
-0.403412,-0.0387553,2.499,2.53165
-0.395301,-0.0387553,2.499,2.53037
-0.389979,-0.0390345,2.517,2.54733
-0.381809,-0.0390345,2.517,2.54609
-0.37364,-0.0390345,2.517,2.54488
-0.36547,-0.0390345,2.517,2.54369
-0.357301,-0.0390345,2.517,2.54253
-0.349131,-0.0390345,2.517,2.5414
-0.340961,-0.0390345,2.517,2.54029
-0.332792,-0.0390345,2.517,2.53921
-0.324622,-0.0390345,2.517,2.53815
-0.318842,-0.0393291,2.536,2.55627
-0.31061,-0.0393291,2.536,2.55525
-0.302379,-0.0393291,2.536,2.55427
-0.291944,-0.0390345,2.517,2.53418
-0.283775,-0.0390345,2.517,2.53325
-0.275605,-0.0390345,2.517,2.53235
-0.267435,-0.0390345,2.517,2.53147
-0.259266,-0.0390345,2.517,2.53062
-0.251096,-0.0390345,2.517,2.52979
-0.242927,-0.0390345,2.517,2.529
-0.234757,-0.0390345,2.517,2.52823
-0.226588,-0.0390345,2.517,2.52748
-0.218418,-0.0390345,2.517,2.52676
-0.208745,-0.0387553,2.499,2.508
-0.200634,-0.0387553,2.499,2.50734
-0.192523,-0.0387553,2.499,2.5067
-0.184412,-0.0387553,2.499,2.50609
-0.1763,-0.0387553,2.499,2.50551
-0.168189,-0.0387553,2.499,2.50495
-0.160078,-0.0387553,2.499,2.50442
-0.151967,-0.0387553,2.499,2.50392
-0.143856,-0.0387553,2.499,2.50344
-0.135745,-0.0387553,2.499,2.50298
-0.127634,-0.0387553,2.499,2.50256
-0.119523,-0.0387553,2.499,2.50216
-0.111411,-0.0387553,2.499,2.50178
-0.1033,-0.0387553,2.499,2.50143
-0.0951891,-0.0387553,2.499,2.50111
-0.087078,-0.0387553,2.499,2.50082
-0.0789668,-0.0387553,2.499,2.50055
-0.0708557,-0.0387553,2.499,2.5003
-0.0627446,-0.0387553,2.499,2.50009
-0.0546334,-0.0387553,2.499,2.4999
-0.0465223,-0.0387553,2.499,2.49973
-0.0384112,-0.0387553,2.499,2.4996
-0.0303,-0.0387553,2.499,2.49948
-0.0221889,-0.0387553,2.499,2.4994
-0.0140778,-0.0387553,2.499,2.49934
-0.00596664,-0.0387553,2.499,2.49931
0.00214449,-0.0387553,2.499,2.4993
0.0102556,-0.0387553,2.499,2.49932
0.0182345,-0.0384762,2.481,2.48137
0.0262872,-0.0384762,2.481,2.48144
0.0343399,-0.0384762,2.481,2.48154
0.0423926,-0.0384762,2.481,2.48166
0.0504453,-0.0384762,2.481,2.48181
0.058498,-0.0384762,2.481,2.48199
0.0665507,-0.0384762,2.481,2.48219
0.0746034,-0.0384762,2.481,2.48242
0.0826561,-0.0384762,2.481,2.48267
0.0907089,-0.0384762,2.481,2.48296
0.0987616,-0.0384762,2.481,2.48326
0.106814,-0.0384762,2.481,2.4836
0.114867,-0.0384762,2.481,2.48396
0.12292,-0.0384762,2.481,2.48434
0.130972,-0.0384762,2.481,2.48475
0.139025,-0.0384762,2.481,2.48519
0.147078,-0.0384762,2.481,2.48565
0.154005,-0.038197,2.463,2.46811
0.161999,-0.038197,2.463,2.46862
0.169994,-0.038197,2.463,2.46915
0.177988,-0.038197,2.463,2.46972
0.185982,-0.038197,2.463,2.47031
0.193976,-0.038197,2.463,2.47092
0.201971,-0.038197,2.463,2.47156
0.209965,-0.038197,2.463,2.47223
0.219552,-0.0384762,2.481,2.49099
0.227605,-0.0384762,2.481,2.49172
0.235658,-0.0384762,2.481,2.49246
0.24371,-0.0384762,2.481,2.49324
0.251763,-0.0384762,2.481,2.49404
0.259816,-0.0384762,2.481,2.49486
0.267868,-0.0384762,2.481,2.49572
0.275921,-0.0384762,2.481,2.49659
0.283974,-0.0384762,2.481,2.4975
0.289908,-0.038197,2.463,2.4803
0.297902,-0.038197,2.463,2.48124
0.305896,-0.038197,2.463,2.48222
0.313891,-0.038197,2.463,2.48321
0.321885,-0.038197,2.463,2.48424
0.329879,-0.038197,2.463,2.48529
0.337874,-0.038197,2.463,2.48636
0.345868,-0.038197,2.463,2.48746
0.353862,-0.038197,2.463,2.48858
0.361856,-0.038197,2.463,2.48973
0.369851,-0.038197,2.463,2.49091
0.377845,-0.038197,2.463,2.49211
0.385839,-0.038197,2.463,2.49333
0.393834,-0.038197,2.463,2.49458
0.401828,-0.038197,2.463,2.49586
0.409822,-0.038197,2.463,2.49715
0.417816,-0.038197,2.463,2.49848
0.425811,-0.038197,2.463,2.49983
0.433805,-0.038197,2.463,2.5012
0.441799,-0.038197,2.463,2.5026
0.449794,-0.038197,2.463,2.50403
0.461134,-0.0384762,2.481,2.52378
0.469186,-0.0384762,2.481,2.52527
0.477239,-0.0384762,2.481,2.52678
0.485292,-0.0384762,2.481,2.52831
0.493344,-0.0384762,2.481,2.52987
0.501397,-0.0384762,2.481,2.53145
0.50945,-0.0384762,2.481,2.53306
0.521257,-0.0387553,2.499,2.55308
0.529368,-0.0387553,2.499,2.55475
0.537479,-0.0387553,2.499,2.55644
0.54559,-0.0387553,2.499,2.55816
0.553702,-0.0387553,2.499,2.5599
0.561813,-0.0387553,2.499,2.56167
0.569924,-0.0387553,2.499,2.56346
0.578035,-0.0387553,2.499,2.56527
0.590368,-0.0390345,2.517,2.5856
0.598538,-0.0390345,2.517,2.58748
0.606707,-0.0390345,2.517,2.58938
0.614877,-0.0390345,2.517,2.59131
0.623046,-0.0390345,2.517,2.59326
0.635981,-0.0393291,2.536,2.61483
0.644212,-0.0393291,2.536,2.61684
0.652443,-0.0393291,2.536,2.61888
0.660674,-0.0393291,2.536,2.62094
0.668906,-0.0393291,2.536,2.62303
0.677137,-0.0393291,2.536,2.62514
0.685368,-0.0393291,2.536,2.62727
0.693599,-0.0393291,2.536,2.62943
0.70183,-0.0393291,2.536,2.63162
0.710062,-0.0393291,2.536,2.63382
0.718293,-0.0393291,2.536,2.63606
0.726524,-0.0393291,2.536,2.63831
0.729251,-0.0390345,2.517,2.62081
0.73742,-0.0390345,2.517,2.62309
0.74559,-0.0390345,2.517,2.6254
0.753759,-0.0390345,2.517,2.62773
0.761929,-0.0390345,2.517,2.63009
0.770098,-0.0390345,2.517,2.63246
0.784143,-0.0393291,2.536,2.65475
0.792374,-0.0393291,2.536,2.6572
0.800605,-0.0393291,2.536,2.65966
0.808836,-0.0393291,2.536,2.66215
0.817068,-0.0393291,2.536,2.66467
0.825299,-0.0393291,2.536,2.6672
0.83353,-0.0393291,2.536,2.66976
0.835455,-0.0390345,2.517,2.65232
0.843624,-0.0390345,2.517,2.6549
0.851794,-0.0390345,2.517,2.65751
0.859963,-0.0390345,2.517,2.66014
0.868133,-0.0390345,2.517,2.66279
0.876303,-0.0390345,2.517,2.66547
0.878147,-0.0387553,2.499,2.64908
0.886258,-0.0387553,2.499,2.65178
0.894369,-0.0387553,2.499,2.65451
0.89598,-0.0384762,2.481,2.63811
0.904033,-0.0384762,2.481,2.64086
0.912085,-0.0384762,2.481,2.64362
0.920138,-0.0384762,2.481,2.64641
0.928191,-0.0384762,2.481,2.64922
0.936243,-0.0384762,2.481,2.65205
0.944296,-0.0384762,2.481,2.65491
0.945439,-0.038197,2.463,2.6385
0.953434,-0.038197,2.463,2.64138
0.961428,-0.038197,2.463,2.64427
0.969422,-0.038197,2.463,2.64719
0.977417,-0.038197,2.463,2.65013
0.985411,-0.038197,2.463,2.65309
0.993405,-0.038197,2.463,2.65606
1.00872,-0.0384762,2.481,2.6785
1.01677,-0.0384762,2.481,2.68154
1.02482,-0.0384762,2.481,2.68461
1.03288,-0.0384762,2.481,2.68769
1.04093,-0.0384762,2.481,2.69079
1.04898,-0.0384762,2.481,2.69392
1.07237,-0.0390345,2.517,2.7362
1.08054,-0.0390345,2.517,2.73941
1.08871,-0.0390345,2.517,2.74265
1.11344,-0.0396238,2.555,2.78735
1.13008,-0.0399185,2.574,2.81143
1.14683,-0.0402131,2.593,2.83558
1.15525,-0.0402131,2.593,2.83899
1.17264,-0.0405233,2.613,2.86435
1.19965,-0.0411591,2.654,2.91283
1.20827,-0.0411591,2.654,2.91639
1.22651,-0.0414848,2.675,2.94307
1.25459,-0.0421361,2.717,2.99297
1.26341,-0.0421361,2.717,2.99668
1.28253,-0.0424773,2.739,3.0247
1.31216,-0.0431597,2.783,3.07713
1.33211,-0.0435164,2.806,3.10645
1.34122,-0.0435164,2.806,3.11037
1.35033,-0.0435164,2.806,3.11431
1.37058,-0.0438731,2.829,3.14383
1.37976,-0.0438731,2.829,3.14784
1.40073,-0.0442453,2.853,3.17862
1.42185,-0.0446175,2.877,3.20948
1.43119,-0.0446175,2.877,3.21363
1.45254,-0.0449897,2.901,3.24464
1.46196,-0.0449897,2.901,3.24887
1.48405,-0.0453774,2.926,3.28115
1.49355,-0.0453774,2.926,3.28546
1.51589,-0.0457651,2.951,3.31789
1.52547,-0.0457651,2.951,3.32228
1.53505,-0.0457651,2.951,3.32669
1.55823,-0.0461683,2.977,3.36047
1.58159,-0.0465715,3.003,3.39435
1.59134,-0.0465715,3.003,3.3989
1.61548,-0.0469903,3.03,3.43408
1.6398,-0.047409,3.057,3.46936
1.64972,-0.047409,3.057,3.47406
1.6743,-0.0478277,3.084,3.5095
1.68431,-0.0478277,3.084,3.51429
1.7097,-0.0482619,3.112,3.55105
1.7198,-0.0482619,3.112,3.55592
1.7299,-0.0482619,3.112,3.56082
1.74,-0.0482619,3.112,3.56574
1.75011,-0.0482619,3.112,3.57068
1.76021,-0.0482619,3.112,3.57564
1.77031,-0.0482619,3.112,3.58062
1.76439,-0.0478277,3.084,3.55337
1.7744,-0.0478277,3.084,3.55835
1.78441,-0.0478277,3.084,3.56335
1.77871,-0.047409,3.057,3.53713
1.77283,-0.0469903,3.03,3.51085
1.78267,-0.0469903,3.03,3.51582
1.7925,-0.0469903,3.03,3.52082
1.78628,-0.0465715,3.003,3.49442
1.79602,-0.0465715,3.003,3.49941
1.80577,-0.0465715,3.003,3.50442
1.7998,-0.0461683,2.977,3.47907
1.79366,-0.0457651,2.951,3.45365
1.80324,-0.0457651,2.951,3.45864
1.79746,-0.0453774,2.926,3.4343
1.80695,-0.0453774,2.926,3.43928
1.81645,-0.0453774,2.926,3.44428
1.81035,-0.0449897,2.901,3.41982
1.80471,-0.0446175,2.877,3.39648
1.81405,-0.0446175,2.877,3.40145
1.79296,-0.0438731,2.829,3.34961
1.77284,-0.0431597,2.783,3.29999
1.76779,-0.0428185,2.761,3.27872
1.77675,-0.0428185,2.761,3.28356
1.75725,-0.0421361,2.717,3.23602
1.73877,-0.0414848,2.675,3.19072
1.74746,-0.0414848,2.675,3.19546
1.74235,-0.0411591,2.654,3.17509
1.72392,-0.0405233,2.613,3.1307
1.7324,-0.0405233,2.613,3.13538
1.71489,-0.0399185,2.574,3.09321
1.69781,-0.0393291,2.536,3.05211
1.70604,-0.0393291,2.536,3.0567
1.70143,-0.0390345,2.517,3.03837
1.69737,-0.0387553,2.499,3.02119
-1.97922,-0.0349878,2.853,3.47248
-1.95339,-0.0346934,2.829,3.43805
-1.94421,-0.0346934,2.829,3.43284
-1.91929,-0.0344114,2.806,3.39978
-1.89453,-0.0341293,2.783,3.36682
-1.88549,-0.0341293,2.783,3.36175
-1.86163,-0.0338595,2.761,3.33015
-1.85267,-0.0338595,2.761,3.32515
-1.8437,-0.0338595,2.761,3.32017
-1.82012,-0.0335897,2.739,3.28878
-1.81123,-0.0335897,2.739,3.28387
-1.80234,-0.0335897,2.739,3.27898
-1.79345,-0.0335897,2.739,3.2741
-1.78456,-0.0335897,2.739,3.26924
-1.77567,-0.0335897,2.739,3.26439
-1.76678,-0.0335897,2.739,3.25957
-1.75789,-0.0335897,2.739,3.25476
-1.76305,-0.0338595,2.761,3.27607
-1.75409,-0.0338595,2.761,3.27125
-1.74513,-0.0338595,2.761,3.26646
-1.75,-0.0341293,2.783,3.28767
-1.74097,-0.0341293,2.783,3.28287
-1.74625,-0.0344114,2.806,3.30518
-1.73714,-0.0344114,2.806,3.30038
-1.7422,-0.0346934,2.829,3.3226
-1.74772,-0.0349878,2.853,3.34594
-1.73846,-0.0349878,2.853,3.34112
-1.7292,-0.0349878,2.853,3.33631
-1.71994,-0.0349878,2.853,3.33152
-1.71068,-0.0349878,2.853,3.32675
-1.71573,-0.0352821,2.877,3.34994
-1.70639,-0.0352821,2.877,3.34517
-1.69705,-0.0352821,2.877,3.34041
-1.68771,-0.0352821,2.877,3.33568
-1.66438,-0.0349878,2.853,3.30318
-1.65511,-0.0349878,2.853,3.29852
-1.63201,-0.0346934,2.829,3.26618
-1.60963,-0.0344114,2.806,3.23508
-1.60053,-0.0344114,2.806,3.23056
-1.59142,-0.0344114,2.806,3.22606
nan,nan,nan,NaN
nan,nan,nan,NaN
nan,nan,nan,NaN
-1.50567,-0.0333199,2.717,3.10648
-1.49685,-0.0333199,2.717,3.10222
-1.50008,-0.0335897,2.739,3.12306
-1.47921,-0.0333199,2.717,3.09375
-1.47039,-0.0333199,2.717,3.08954
-1.48524,-0.0338595,2.761,3.13532
-1.47628,-0.0338595,2.761,3.13108
-1.47901,-0.0341293,2.783,3.15178
-1.46998,-0.0341293,2.783,3.14755
-1.46095,-0.0341293,2.783,3.14335
-1.45191,-0.0341293,2.783,3.13916
-1.4548,-0.0344114,2.806,3.1609
-1.45755,-0.0346934,2.829,3.18259
-1.44836,-0.0346934,2.829,3.1784
-1.40459,-0.0338595,2.761,3.09792
-1.39563,-0.0338595,2.761,3.09387
-1.37562,-0.0335897,2.739,3.06522
-1.33479,-0.0328049,2.675,2.98971
-1.32611,-0.0328049,2.675,2.98584
-1.29674,-0.0322898,2.633,2.93518
-1.26863,-0.0317992,2.593,2.88688
-1.26021,-0.0317992,2.593,2.88319
-1.24262,-0.0315662,2.574,2.85842
-1.22516,-0.0313332,2.555,2.83373
-1.20781,-0.0311002,2.536,2.80911
-1.19958,-0.0311002,2.536,2.80558
-1.17397,-0.0306465,2.499,2.76119
-1.15746,-0.0304257,2.481,2.73788
-1.14941,-0.0304257,2.481,2.73449
-1.13308,-0.030205,2.463,2.7113
-1.11686,-0.0299843,2.445,2.68818
-1.10892,-0.0299843,2.445,2.68489
-1.09333,-0.0297758,2.428,2.66298
-1.07785,-0.0295673,2.411,2.64113
-1.07003,-0.0295673,2.411,2.63794
-1.0622,-0.0295673,2.411,2.63478
-1.04694,-0.0293588,2.394,2.61308
-1.03917,-0.0293588,2.394,2.60998
-1.0314,-0.0293588,2.394,2.60689
-1.01636,-0.0291503,2.377,2.58534
-1.00865,-0.0291503,2.377,2.58231
-1.00093,-0.0291503,2.377,2.57931
-0.993215,-0.0291503,2.377,2.57633
-0.9855,-0.0291503,2.377,2.57336
-0.977785,-0.0291503,2.377,2.57042
-0.970069,-0.0291503,2.377,2.56749
-0.962354,-0.0291503,2.377,2.56459
-0.954639,-0.0291503,2.377,2.5617
-0.946924,-0.0291503,2.377,2.55884
-0.939209,-0.0291503,2.377,2.55599
-0.931494,-0.0291503,2.377,2.55317
-0.923778,-0.0291503,2.377,2.55036
-0.916063,-0.0291503,2.377,2.54758
-0.908348,-0.0291503,2.377,2.54481
-0.900633,-0.0291503,2.377,2.54207
-0.892918,-0.0291503,2.377,2.53935
-0.885203,-0.0291503,2.377,2.53664
-0.877488,-0.0291503,2.377,2.53396
-0.869772,-0.0291503,2.377,2.5313
-0.862057,-0.0291503,2.377,2.52866
-0.854342,-0.0291503,2.377,2.52604
-0.852682,-0.0293588,2.394,2.54149
-0.844912,-0.0293588,2.394,2.53889
-0.837141,-0.0293588,2.394,2.53632
-0.829371,-0.0293588,2.394,2.53376
-0.821601,-0.0293588,2.394,2.53123
-0.81383,-0.0293588,2.394,2.52872
-0.80606,-0.0293588,2.394,2.52623
-0.79829,-0.0293588,2.394,2.52376
-0.790519,-0.0293588,2.394,2.52131
-0.788307,-0.0295673,2.411,2.53677
-0.780482,-0.0295673,2.411,2.53435
-0.772656,-0.0295673,2.411,2.53195
-0.770224,-0.0297758,2.428,2.54741
-0.762343,-0.0297758,2.428,2.54504
-0.754462,-0.0297758,2.428,2.54269
-0.746581,-0.0297758,2.428,2.54037
-0.743873,-0.0299843,2.445,2.55583
-0.735937,-0.0299843,2.445,2.55353
-0.728001,-0.0299843,2.445,2.55126
-0.725366,-0.030205,2.463,2.56777
-0.717372,-0.030205,2.463,2.56552
-0.709378,-0.030205,2.463,2.5633
-0.701384,-0.030205,2.463,2.5611
-0.693389,-0.030205,2.463,2.55892
-0.685395,-0.030205,2.463,2.55677
-0.677401,-0.030205,2.463,2.55463
-0.674299,-0.0304257,2.481,2.57118
-0.666246,-0.0304257,2.481,2.56908
-0.658193,-0.0304257,2.481,2.567
-0.65014,-0.0304257,2.481,2.56495
-0.642088,-0.0304257,2.481,2.56292
-0.629435,-0.030205,2.463,2.54234
-0.621441,-0.030205,2.463,2.54037
-0.613446,-0.030205,2.463,2.53842
-0.605452,-0.030205,2.463,2.5365
-0.597458,-0.030205,2.463,2.53461
-0.589464,-0.030205,2.463,2.53274
-0.581469,-0.030205,2.463,2.53089
-0.573475,-0.030205,2.463,2.52906
-0.565481,-0.030205,2.463,2.52726
-0.557486,-0.030205,2.463,2.52548
-0.549492,-0.030205,2.463,2.52373
-0.541498,-0.030205,2.463,2.522
-0.537403,-0.0304257,2.481,2.53872
-0.52935,-0.0304257,2.481,2.53703
-0.521297,-0.0304257,2.481,2.53536
-0.513244,-0.0304257,2.481,2.53371
-0.505192,-0.0304257,2.481,2.5321
-0.500746,-0.0306465,2.499,2.54886
-0.492635,-0.0306465,2.499,2.54728
-0.484524,-0.0306465,2.499,2.54572
-0.476412,-0.0306465,2.499,2.54419
-0.468301,-0.0306465,2.499,2.54269
-0.46019,-0.0306465,2.499,2.5412
-0.452079,-0.0306465,2.499,2.53975
-0.443968,-0.0306465,2.499,2.53832
-0.435857,-0.0306465,2.499,2.53691
-0.427746,-0.0306465,2.499,2.53553
-0.419634,-0.0306465,2.499,2.53417
-0.411523,-0.0306465,2.499,2.53284
-0.403412,-0.0306465,2.499,2.53154
-0.395301,-0.0306465,2.499,2.53026
-0.389979,-0.0308672,2.517,2.54722
-0.381809,-0.0308672,2.517,2.54598
-0.37364,-0.0308672,2.517,2.54477
-0.36547,-0.0308672,2.517,2.54358
-0.357301,-0.0308672,2.517,2.54242
-0.349131,-0.0308672,2.517,2.54129
-0.340961,-0.0308672,2.517,2.54018
-0.332792,-0.0308672,2.517,2.53909
-0.324622,-0.0308672,2.517,2.53804
-0.318842,-0.0311002,2.536,2.55615
-0.31061,-0.0311002,2.536,2.55514
-0.302379,-0.0311002,2.536,2.55415
-0.291944,-0.0308672,2.517,2.53406
-0.283775,-0.0308672,2.517,2.53313
-0.275605,-0.0308672,2.517,2.53223
-0.267435,-0.0308672,2.517,2.53136
-0.259266,-0.0308672,2.517,2.53051
-0.251096,-0.0308672,2.517,2.52968
-0.242927,-0.0308672,2.517,2.52888
-0.234757,-0.0308672,2.517,2.52811
-0.226588,-0.0308672,2.517,2.52737
-0.216856,-0.0306465,2.499,2.50858
-0.208745,-0.0306465,2.499,2.50789
-0.200634,-0.0306465,2.499,2.50723
-0.192523,-0.0306465,2.499,2.50659
-0.184412,-0.0306465,2.499,2.50598
-0.1763,-0.0306465,2.499,2.5054
-0.168189,-0.0306465,2.499,2.50484
-0.160078,-0.0306465,2.499,2.50431
-0.151967,-0.0306465,2.499,2.5038
-0.143856,-0.0306465,2.499,2.50332
-0.135745,-0.0306465,2.499,2.50287
-0.127634,-0.0306465,2.499,2.50244
-0.120383,-0.0308672,2.517,2.52007
-0.112214,-0.0308672,2.517,2.51969
-0.104044,-0.0308672,2.517,2.51934
-0.0958747,-0.0308672,2.517,2.51901
-0.087078,-0.0306465,2.499,2.5007
-0.0789668,-0.0306465,2.499,2.50044
-0.0708557,-0.0306465,2.499,2.50019
-0.0627446,-0.0306465,2.499,2.49998
-0.0546334,-0.0306465,2.499,2.49978
-0.0468574,-0.0308672,2.517,2.51763
-0.0386878,-0.0308672,2.517,2.51749
-0.0305183,-0.0308672,2.517,2.51737
-0.0221889,-0.0306465,2.499,2.49929
-0.0140778,-0.0306465,2.499,2.49923
-0.00596664,-0.0306465,2.499,2.4992
0.00214449,-0.0306465,2.499,2.49919
0.0102556,-0.0306465,2.499,2.49921
0.0183668,-0.0306465,2.499,2.49926
0.0264779,-0.0306465,2.499,2.49933
0.034589,-0.0306465,2.499,2.49943
0.0427002,-0.0306465,2.499,2.49955
0.0504453,-0.0304257,2.481,2.4817
0.058498,-0.0304257,2.481,2.48188
0.0665507,-0.0304257,2.481,2.48208
0.0746034,-0.0304257,2.481,2.48231
0.0826561,-0.0304257,2.481,2.48256
0.0907089,-0.0304257,2.481,2.48284
0.0987616,-0.0304257,2.481,2.48315
0.106814,-0.0304257,2.481,2.48348
0.114867,-0.0304257,2.481,2.48384
0.12292,-0.0304257,2.481,2.48423
0.130972,-0.0304257,2.481,2.48464
0.139025,-0.0304257,2.481,2.48508
0.147078,-0.0304257,2.481,2.48554
0.155131,-0.0304257,2.481,2.48603
0.163183,-0.0304257,2.481,2.48655
0.171236,-0.0304257,2.481,2.48709
0.179289,-0.0304257,2.481,2.48766
0.187341,-0.0304257,2.481,2.48825
0.195394,-0.0304257,2.481,2.48887
0.203447,-0.0304257,2.481,2.48951
0.2115,-0.0304257,2.481,2.49018
0.219552,-0.0304257,2.481,2.49088
0.227605,-0.0304257,2.481,2.4916
0.235658,-0.0304257,2.481,2.49235
0.24371,-0.0304257,2.481,2.49313
0.251763,-0.0304257,2.481,2.49393
0.259816,-0.0304257,2.481,2.49475
0.267868,-0.0304257,2.481,2.4956
0.275921,-0.0304257,2.481,2.49648
0.283974,-0.0304257,2.481,2.49738
0.289908,-0.030205,2.463,2.48019
0.297902,-0.030205,2.463,2.48113
0.305896,-0.030205,2.463,2.48211
0.313891,-0.030205,2.463,2.4831
0.321885,-0.030205,2.463,2.48413
0.329879,-0.030205,2.463,2.48518
0.337874,-0.030205,2.463,2.48625
0.345868,-0.030205,2.463,2.48735
0.353862,-0.030205,2.463,2.48847
0.361856,-0.030205,2.463,2.48962
0.369851,-0.030205,2.463,2.4908
0.377845,-0.030205,2.463,2.492
0.385839,-0.030205,2.463,2.49322
0.393834,-0.030205,2.463,2.49447
0.401828,-0.030205,2.463,2.49575
0.409822,-0.030205,2.463,2.49705
0.417816,-0.030205,2.463,2.49837
0.425811,-0.030205,2.463,2.49972
0.433805,-0.030205,2.463,2.50109
0.441799,-0.030205,2.463,2.50249
0.449794,-0.030205,2.463,2.50392
0.461134,-0.0304257,2.481,2.52367
0.469186,-0.0304257,2.481,2.52516
0.477239,-0.0304257,2.481,2.52667
0.485292,-0.0304257,2.481,2.5282
0.493344,-0.0304257,2.481,2.52976
0.501397,-0.0304257,2.481,2.53134
0.50945,-0.0304257,2.481,2.53295
0.521257,-0.0306465,2.499,2.55297
0.529368,-0.0306465,2.499,2.55464
0.537479,-0.0306465,2.499,2.55633
0.54559,-0.0306465,2.499,2.55805
0.553702,-0.0306465,2.499,2.55979
0.561813,-0.0306465,2.499,2.56156
0.574029,-0.0308672,2.517,2.58181
0.582199,-0.0308672,2.517,2.58364
0.590368,-0.0308672,2.517,2.58549
0.598538,-0.0308672,2.517,2.58737
0.606707,-0.0308672,2.517,2.58927
0.614877,-0.0308672,2.517,2.5912
0.623046,-0.0308672,2.517,2.59315
0.635981,-0.0311002,2.536,2.61471
0.644212,-0.0311002,2.536,2.61673
0.652443,-0.0311002,2.536,2.61877
0.660674,-0.0311002,2.536,2.62083
0.668906,-0.0311002,2.536,2.62292
0.677137,-0.0311002,2.536,2.62503
0.685368,-0.0311002,2.536,2.62716
0.693599,-0.0311002,2.536,2.62932
0.70183,-0.0311002,2.536,2.63151
0.710062,-0.0311002,2.536,2.63371
0.718293,-0.0311002,2.536,2.63595
0.726524,-0.0311002,2.536,2.6382
0.729251,-0.0308672,2.517,2.6207
0.73742,-0.0308672,2.517,2.62298
0.74559,-0.0308672,2.517,2.62529
0.753759,-0.0308672,2.517,2.62762
0.761929,-0.0308672,2.517,2.62998
0.770098,-0.0308672,2.517,2.63236
0.778268,-0.0308672,2.517,2.63476
0.786437,-0.0308672,2.517,2.63718
0.794607,-0.0308672,2.517,2.63963
0.808836,-0.0311002,2.536,2.66204
0.817068,-0.0311002,2.536,2.66456
0.825299,-0.0311002,2.536,2.66709
0.83353,-0.0311002,2.536,2.66965
0.835455,-0.0308672,2.517,2.65221
0.843624,-0.0308672,2.517,2.6548
0.851794,-0.0308672,2.517,2.6574
0.859963,-0.0308672,2.517,2.66003
0.868133,-0.0308672,2.517,2.66269
0.876303,-0.0308672,2.517,2.66536
0.878147,-0.0306465,2.499,2.64898
0.886258,-0.0306465,2.499,2.65168
0.894369,-0.0306465,2.499,2.6544
0.89598,-0.0304257,2.481,2.638
0.904033,-0.0304257,2.481,2.64075
0.912085,-0.0304257,2.481,2.64352
0.920138,-0.0304257,2.481,2.64631
0.928191,-0.0304257,2.481,2.64912
0.936243,-0.0304257,2.481,2.65195
0.944296,-0.0304257,2.481,2.6548
0.945439,-0.030205,2.463,2.6384
0.953434,-0.030205,2.463,2.64127
0.961428,-0.030205,2.463,2.64417
0.969422,-0.030205,2.463,2.64709
0.977417,-0.030205,2.463,2.65002
0.985411,-0.030205,2.463,2.65298
0.993405,-0.030205,2.463,2.65596
1.00872,-0.0304257,2.481,2.6784
1.01677,-0.0304257,2.481,2.68144
1.02482,-0.0304257,2.481,2.6845
1.03288,-0.0304257,2.481,2.68759
1.04093,-0.0304257,2.481,2.69069
1.04898,-0.0304257,2.481,2.69382
1.07237,-0.0308672,2.517,2.7361
1.08054,-0.0308672,2.517,2.73931
1.08871,-0.0308672,2.517,2.74254
1.10516,-0.0311002,2.536,2.76652
1.12173,-0.0313332,2.555,2.79057
1.13843,-0.0315662,2.574,2.81469
1.14678,-0.0315662,2.574,2.81808
1.16367,-0.0317992,2.593,2.84232
1.19016,-0.0322898,2.633,2.88967
1.19871,-0.0322898,2.633,2.8932
1.21688,-0.0325473,2.654,2.91986
1.24489,-0.0330624,2.696,2.96972
1.25364,-0.0330624,2.696,2.9734
1.27223,-0.0333199,2.717,3.00029
1.29142,-0.0335897,2.739,3.02837
1.3212,-0.0341293,2.783,3.08088
1.33023,-0.0341293,2.783,3.08476
1.35033,-0.0344114,2.806,3.1142
1.37058,-0.0346934,2.829,3.14371
1.37976,-0.0346934,2.829,3.14773
1.38894,-0.0346934,2.829,3.15176
1.40999,-0.0349878,2.853,3.18259
1.41925,-0.0349878,2.853,3.18671
1.45254,-0.0355764,2.901,3.24453
1.46196,-0.0355764,2.901,3.24875
1.48405,-0.035883,2.926,3.28103
1.49355,-0.035883,2.926,3.28534
1.50305,-0.035883,2.926,3.28967
1.52547,-0.0361896,2.951,3.32216
1.53505,-0.0361896,2.951,3.32657
1.55823,-0.0365084,2.977,3.36035
1.58159,-0.0368273,3.003,3.39423
1.59134,-0.0368273,3.003,3.39878
1.61548,-0.0371584,3.03,3.43396
1.6398,-0.0374895,3.057,3.46923
1.64972,-0.0374895,3.057,3.47394
1.65964,-0.0374895,3.057,3.47866
1.68431,-0.0378206,3.084,3.51417
1.7097,-0.038164,3.112,3.55093
1.7198,-0.038164,3.112,3.5558
1.7299,-0.038164,3.112,3.5607
1.74,-0.038164,3.112,3.56562
1.75011,-0.038164,3.112,3.57056
1.74437,-0.0378206,3.084,3.54335
1.75438,-0.0378206,3.084,3.54829
1.74894,-0.0374895,3.057,3.52214
1.75886,-0.0374895,3.057,3.52708
1.76879,-0.0374895,3.057,3.53203
1.763,-0.0371584,3.03,3.50577
1.77283,-0.0371584,3.03,3.51073
1.78267,-0.0371584,3.03,3.51571
1.7925,-0.0371584,3.03,3.5207
1.78628,-0.0368273,3.003,3.4943
1.79602,-0.0368273,3.003,3.4993
1.80577,-0.0368273,3.003,3.50431
1.7998,-0.0365084,2.977,3.47896
1.79366,-0.0361896,2.951,3.45354
1.80324,-0.0361896,2.951,3.45852
1.81281,-0.0361896,2.951,3.46353
1.80695,-0.035883,2.926,3.43916
1.81645,-0.035883,2.926,3.44416
1.81035,-0.0355764,2.901,3.41971
1.80471,-0.0352821,2.877,3.39637
1.81405,-0.0352821,2.877,3.40134
1.80817,-0.0349878,2.853,3.37792
1.80215,-0.0346934,2.829,3.35443
1.78187,-0.0341293,2.783,3.30474
1.79091,-0.0341293,2.783,3.30962
1.77148,-0.0335897,2.739,3.26212
1.75242,-0.0330624,2.696,3.21566
1.76117,-0.0330624,2.696,3.22044
1.75614,-0.0328049,2.675,3.20011
1.73711,-0.0322898,2.633,3.15457
1.74566,-0.0322898,2.633,3.15928
1.72755,-0.0317992,2.593,3.11594
1.72325,-0.0315662,2.574,3.09775
1.7316,-0.0315662,2.574,3.10241
1.71427,-0.0311002,2.536,3.06121
1.69737,-0.0306465,2.499,3.02109
-1.99587,-0.0259467,2.877,3.50161
-1.95339,-0.0255138,2.829,3.43797
-1.94421,-0.0255138,2.829,3.43276
-1.91929,-0.0253064,2.806,3.3997
-1.89453,-0.0250989,2.783,3.36674
-1.88549,-0.0250989,2.783,3.36167
-1.86163,-0.0249005,2.761,3.33007
-1.85267,-0.0249005,2.761,3.32507
-1.8437,-0.0249005,2.761,3.32009
-1.82012,-0.0247021,2.739,3.2887
-1.81123,-0.0247021,2.739,3.28379
-1.80234,-0.0247021,2.739,3.2789
-1.79345,-0.0247021,2.739,3.27402
-1.78456,-0.0247021,2.739,3.26916
-1.77567,-0.0247021,2.739,3.26431
-1.76678,-0.0247021,2.739,3.25949
-1.75789,-0.0247021,2.739,3.25468
-1.76305,-0.0249005,2.761,3.27599
-1.75409,-0.0249005,2.761,3.27117
-1.74513,-0.0249005,2.761,3.26638
-1.75,-0.0250989,2.783,3.28759
-1.74097,-0.0250989,2.783,3.28279
-1.74625,-0.0253064,2.806,3.3051
-1.73714,-0.0253064,2.806,3.30029
-1.7422,-0.0255138,2.829,3.32252
-1.74772,-0.0257302,2.853,3.34586
-1.73846,-0.0257302,2.853,3.34103
-1.7292,-0.0257302,2.853,3.33622
-1.71994,-0.0257302,2.853,3.33143
-1.71068,-0.0257302,2.853,3.32666
-1.71573,-0.0259467,2.877,3.34985
-1.70639,-0.0259467,2.877,3.34508
-1.69705,-0.0259467,2.877,3.34033
-1.68771,-0.0259467,2.877,3.33559
-1.66438,-0.0257302,2.853,3.30309
-1.65511,-0.0257302,2.853,3.29844
-1.63201,-0.0255138,2.829,3.26609
-1.60963,-0.0253064,2.806,3.235
-1.60053,-0.0253064,2.806,3.23047
-1.59142,-0.0253064,2.806,3.22597
nan,nan,nan,NaN
nan,nan,nan,NaN
nan,nan,nan,NaN
nan,nan,nan,NaN
nan,nan,nan,NaN
nan,nan,nan,NaN
-1.47921,-0.0245037,2.717,3.09366
-1.47039,-0.0245037,2.717,3.08946
-1.48524,-0.0249005,2.761,3.13523
-1.47628,-0.0249005,2.761,3.131
-1.47901,-0.0250989,2.783,3.1517
-1.46998,-0.0250989,2.783,3.14747
-1.46095,-0.0250989,2.783,3.14326
-1.45191,-0.0250989,2.783,3.13907
-1.4548,-0.0253064,2.806,3.16081
-1.45755,-0.0255138,2.829,3.1825
-1.44836,-0.0255138,2.829,3.17831
-1.42748,-0.0253064,2.806,3.14833
-1.41837,-0.0253064,2.806,3.14421
-1.37562,-0.0247021,2.739,3.06514
-1.33479,-0.0241249,2.675,2.98963
-1.32611,-0.0241249,2.675,2.98576
-1.29674,-0.0237461,2.633,2.9351
-1.26863,-0.0233854,2.593,2.8868
-1.26021,-0.0233854,2.593,2.88311
-1.24262,-0.023214,2.574,2.85834
-1.22516,-0.0230427,2.555,2.83365
-1.20781,-0.0228713,2.536,2.80903
-1.19958,-0.0228713,2.536,2.8055
-1.17397,-0.0225376,2.499,2.76111
-1.15746,-0.0223753,2.481,2.73781
-1.14941,-0.0223753,2.481,2.73441
-1.13308,-0.022213,2.463,2.71122
-1.11686,-0.0220506,2.445,2.6881
-1.10892,-0.0220506,2.445,2.68481
-1.09333,-0.0218973,2.428,2.6629
-1.07785,-0.021744,2.411,2.64105
-1.07003,-0.021744,2.411,2.63787
-1.05471,-0.0215907,2.394,2.61613
-1.04694,-0.0215907,2.394,2.613
-1.03917,-0.0215907,2.394,2.6099
-1.0314,-0.0215907,2.394,2.60682
-1.01636,-0.0214374,2.377,2.58526
-1.00865,-0.0214374,2.377,2.58224
-1.00093,-0.0214374,2.377,2.57923
-0.993215,-0.0214374,2.377,2.57625
-0.9855,-0.0214374,2.377,2.57329
-0.977785,-0.0214374,2.377,2.57034
-0.970069,-0.0214374,2.377,2.56742
-0.962354,-0.0214374,2.377,2.56451
-0.954639,-0.0214374,2.377,2.56163
-0.946924,-0.0214374,2.377,2.55876
-0.939209,-0.0214374,2.377,2.55592
-0.931494,-0.0214374,2.377,2.55309
-0.923778,-0.0214374,2.377,2.55029
-0.916063,-0.0214374,2.377,2.5475
-0.908348,-0.0214374,2.377,2.54474
-0.900633,-0.0214374,2.377,2.54199
-0.892918,-0.0214374,2.377,2.53927
-0.885203,-0.0214374,2.377,2.53657
-0.877488,-0.0214374,2.377,2.53389
-0.869772,-0.0214374,2.377,2.53122
-0.862057,-0.0214374,2.377,2.52858
-0.854342,-0.0214374,2.377,2.52596
-0.852682,-0.0215907,2.394,2.54141
-0.844912,-0.0215907,2.394,2.53881
-0.837141,-0.0215907,2.394,2.53624
-0.829371,-0.0215907,2.394,2.53368
-0.821601,-0.0215907,2.394,2.53115
-0.81383,-0.0215907,2.394,2.52864
-0.80606,-0.0215907,2.394,2.52615
-0.79829,-0.0215907,2.394,2.52368
-0.790519,-0.0215907,2.394,2.52123
-0.788307,-0.021744,2.411,2.5367
-0.780482,-0.021744,2.411,2.53427
-0.772656,-0.021744,2.411,2.53188
-0.770224,-0.0218973,2.428,2.54733
-0.762343,-0.0218973,2.428,2.54496
-0.754462,-0.0218973,2.428,2.54261
-0.746581,-0.0218973,2.428,2.54029
-0.743873,-0.0220506,2.445,2.55575
-0.735937,-0.0220506,2.445,2.55345
-0.728001,-0.0220506,2.445,2.55118
-0.725366,-0.022213,2.463,2.56769
-0.717372,-0.022213,2.463,2.56544
-0.709378,-0.022213,2.463,2.56322
-0.701384,-0.022213,2.463,2.56102
-0.693389,-0.022213,2.463,2.55884
-0.685395,-0.022213,2.463,2.55668
-0.682351,-0.0223753,2.481,2.57322
-0.674299,-0.0223753,2.481,2.5711
-0.666246,-0.0223753,2.481,2.569
-0.658193,-0.0223753,2.481,2.56692
-0.65014,-0.0223753,2.481,2.56487
-0.637429,-0.022213,2.463,2.54424
-0.629435,-0.022213,2.463,2.54225
-0.621441,-0.022213,2.463,2.54029
-0.613446,-0.022213,2.463,2.53834
-0.605452,-0.022213,2.463,2.53642
-0.597458,-0.022213,2.463,2.53453
-0.589464,-0.022213,2.463,2.53265
-0.581469,-0.022213,2.463,2.5308
-0.573475,-0.022213,2.463,2.52898
-0.565481,-0.022213,2.463,2.52718
-0.557486,-0.022213,2.463,2.5254
-0.549492,-0.022213,2.463,2.52365
-0.541498,-0.022213,2.463,2.52192
-0.537403,-0.0223753,2.481,2.53863
-0.52935,-0.0223753,2.481,2.53694
-0.521297,-0.0223753,2.481,2.53527
-0.513244,-0.0223753,2.481,2.53363
-0.505192,-0.0223753,2.481,2.53201
-0.500746,-0.0225376,2.499,2.54878
-0.492635,-0.0225376,2.499,2.54719
-0.484524,-0.0225376,2.499,2.54564
-0.476412,-0.0225376,2.499,2.54411
-0.468301,-0.0225376,2.499,2.5426
-0.46019,-0.0225376,2.499,2.54112
-0.455335,-0.0227,2.517,2.55796
-0.447166,-0.0227,2.517,2.55651
-0.438996,-0.0227,2.517,2.5551
-0.430827,-0.0227,2.517,2.55371
-0.422657,-0.0227,2.517,2.55234
-0.414487,-0.0227,2.517,2.551
-0.406318,-0.0227,2.517,2.54969
-0.398148,-0.0227,2.517,2.5484
-0.389979,-0.0227,2.517,2.54713
-0.381809,-0.0227,2.517,2.5459
-0.37364,-0.0227,2.517,2.54468
-0.36547,-0.0227,2.517,2.5435
-0.357301,-0.0227,2.517,2.54234
-0.349131,-0.0227,2.517,2.5412
-0.340961,-0.0227,2.517,2.54009
-0.332792,-0.0227,2.517,2.53901
-0.324622,-0.0227,2.517,2.53795
-0.316453,-0.0227,2.517,2.53692
-0.31061,-0.0228713,2.536,2.55505
-0.300114,-0.0227,2.517,2.53493
-0.291944,-0.0227,2.517,2.53398
-0.283775,-0.0227,2.517,2.53305
-0.275605,-0.0227,2.517,2.53215
-0.267435,-0.0227,2.517,2.53127
