-1.0314,0.0250182,2.394,2.60685
-1.02363,0.0250182,2.394,2.60378
-1.01586,0.0250182,2.394,2.60074
-1.00809,0.0250182,2.394,2.59771
-0.993215,0.0248405,2.377,2.57628
-0.9855,0.0248405,2.377,2.57332
-0.977785,0.0248405,2.377,2.57037
-0.970069,0.0248405,2.377,2.56745
-0.962354,0.0248405,2.377,2.56454
-0.954639,0.0248405,2.377,2.56166
-0.946924,0.0248405,2.377,2.55879
-0.939209,0.0248405,2.377,2.55595
-0.931494,0.0248405,2.377,2.55312
-0.923778,0.0248405,2.377,2.55032
-0.916063,0.0248405,2.377,2.54753
-0.908348,0.0248405,2.377,2.54477
-0.900633,0.0248405,2.377,2.54202
-0.892918,0.0248405,2.377,2.5393
-0.885203,0.0248405,2.377,2.5366
-0.877488,0.0248405,2.377,2.53392
-0.869772,0.0248405,2.377,2.53125
-0.868223,0.0250182,2.394,2.5467
-0.860452,0.0250182,2.394,2.54406
-0.858737,0.0251958,2.411,2.55949
-0.850911,0.0251958,2.411,2.55687
-0.843086,0.0251958,2.411,2.55428
-0.84115,0.0253735,2.428,2.5697
-0.833269,0.0253735,2.428,2.56713
-0.825388,0.0253735,2.428,2.56458
-0.823232,0.0255511,2.445,2.58
-0.815296,0.0255511,2.445,2.57748
-0.80736,0.0255511,2.445,2.57498
-0.805309,0.0257392,2.463,2.59144
-0.797315,0.0257392,2.463,2.58897
-0.789321,0.0257392,2.463,2.58651
-0.781326,0.0257392,2.463,2.58409
-0.778984,0.0259273,2.481,2.60055
-0.770931,0.0259273,2.481,2.59815
-0.762878,0.0259273,2.481,2.59577
-0.754826,0.0259273,2.481,2.59341
-0.746773,0.0259273,2.481,2.59108
-0.73872,0.0259273,2.481,2.58877
-0.730668,0.0259273,2.481,2.58649
-0.722615,0.0259273,2.481,2.58422
-0.714562,0.0259273,2.481,2.58198
-0.706509,0.0259273,2.481,2.57977
-0.698457,0.0259273,2.481,2.57757
-0.690404,0.0259273,2.481,2.5754
-0.682351,0.0259273,2.481,2.57325
-0.674299,0.0259273,2.481,2.57113
-0.666246,0.0259273,2.481,2.56903
-0.658193,0.0259273,2.481,2.56695
-0.65014,0.0259273,2.481,2.5649
-0.642088,0.0259273,2.481,2.56287
-0.634035,0.0259273,2.481,2.56087
-0.625982,0.0259273,2.481,2.55888
-0.61793,0.0259273,2.481,2.55693
-0.609877,0.0259273,2.481,2.55499
-0.601824,0.0259273,2.481,2.55308
-0.593771,0.0259273,2.481,2.5512
-0.585719,0.0259273,2.481,2.54933
-0.577666,0.0259273,2.481,2.5475
-0.569613,0.0259273,2.481,2.54568
-0.561561,0.0259273,2.481,2.54389
-0.549492,0.0257392,2.463,2.52368
-0.541498,0.0257392,2.463,2.52195
-0.533504,0.0257392,2.463,2.52025
-0.525509,0.0257392,2.463,2.51857
-0.517515,0.0257392,2.463,2.51691
-0.509521,0.0257392,2.463,2.51528
-0.501526,0.0257392,2.463,2.51367
-0.493532,0.0257392,2.463,2.51209
-0.485538,0.0257392,2.463,2.51053
-0.477544,0.0257392,2.463,2.509
-0.469549,0.0257392,2.463,2.50749
-0.461555,0.0257392,2.463,2.50601
-0.453561,0.0257392,2.463,2.50455
-0.445566,0.0257392,2.463,2.50311
-0.44077,0.0259273,2.481,2.51998
-0.432717,0.0259273,2.481,2.51859
-0.424665,0.0259273,2.481,2.51722
-0.416612,0.0259273,2.481,2.51587
-0.408559,0.0259273,2.481,2.51455
-0.400506,0.0259273,2.481,2.51325
-0.392454,0.0259273,2.481,2.51198
-0.38719,0.0261154,2.499,2.52895
-0.379079,0.0261154,2.499,2.52772
-0.370968,0.0261154,2.499,2.52652
-0.362857,0.0261154,2.499,2.52534
-0.354745,0.0261154,2.499,2.52419
-0.346634,0.0261154,2.499,2.52306
-0.338523,0.0261154,2.499,2.52196
-0.330412,0.0261154,2.499,2.52088
-0.322301,0.0261154,2.499,2.51983
-0.31419,0.0261154,2.499,2.51881
-0.306079,0.0261154,2.499,2.51781
-0.295821,0.0259273,2.481,2.49871
-0.287769,0.0259273,2.481,2.49777
-0.279716,0.0259273,2.481,2.49685
-0.271663,0.0259273,2.481,2.49596
-0.26361,0.0259273,2.481,2.4951
-0.255558,0.0259273,2.481,2.49426
-0.247505,0.0259273,2.481,2.49345
-0.237715,0.0257392,2.463,2.47458
-0.229721,0.0257392,2.463,2.47382
-0.221726,0.0257392,2.463,2.47309
-0.213732,0.0257392,2.463,2.47239
-0.205738,0.0257392,2.463,2.47171
-0.197744,0.0257392,2.463,2.47106
-0.189749,0.0257392,2.463,2.47043
-0.181755,0.0257392,2.463,2.46983
-0.173761,0.0257392,2.463,2.46926
-0.165766,0.0257392,2.463,2.46871
-0.157772,0.0257392,2.463,2.46818
-0.149778,0.0257392,2.463,2.46768
-0.141784,0.0257392,2.463,2.46721
-0.133789,0.0257392,2.463,2.46677
-0.125795,0.0257392,2.463,2.46634
-0.117801,0.0257392,2.463,2.46595
-0.109806,0.0257392,2.463,2.46558
-0.101812,0.0257392,2.463,2.46524
-0.0938178,0.0257392,2.463,2.46492
-0.0858236,0.0257392,2.463,2.46463
-0.0778293,0.0257392,2.463,2.46436
-0.069835,0.0257392,2.463,2.46412
-0.0622926,0.0259273,2.481,2.48192
-0.0542399,0.0259273,2.481,2.48173
-0.0461872,0.0259273,2.481,2.48157
-0.0381345,0.0259273,2.481,2.48143
-0.0300818,0.0259273,2.481,2.48132
-0.0220291,0.0259273,2.481,2.48123
-0.0139764,0.0259273,2.481,2.48117
-0.00592366,0.0259273,2.481,2.48114
0.0021136,0.0257392,2.463,2.46314
0.0101079,0.0257392,2.463,2.46316
0.0181022,0.0257392,2.463,2.4632
0.0260965,0.0257392,2.463,2.46327
0.0340907,0.0257392,2.463,2.46337
0.042085,0.0257392,2.463,2.46349
0.0500793,0.0257392,2.463,2.46364
0.0580736,0.0257392,2.463,2.46382
0.0660679,0.0257392,2.463,2.46402
0.0740622,0.0257392,2.463,2.46425
0.0820565,0.0257392,2.463,2.4645
0.0900507,0.0257392,2.463,2.46478
0.098045,0.0257392,2.463,2.46509
0.106039,0.0257392,2.463,2.46542
0.114034,0.0257392,2.463,2.46577
0.122028,0.0257392,2.463,2.46616
0.130022,0.0257392,2.463,2.46656
0.139025,0.0259273,2.481,2.48503
0.147078,0.0259273,2.481,2.48549
0.155131,0.0259273,2.481,2.48598
0.163183,0.0259273,2.481,2.4865
0.172478,0.0261154,2.499,2.50508
0.180589,0.0261154,2.499,2.50565
0.187341,0.0259273,2.481,2.4882
0.195394,0.0259273,2.481,2.48882
0.204923,0.0261154,2.499,2.50752
0.213034,0.0261154,2.499,2.5082
0.221145,0.0261154,2.499,2.5089
0.229256,0.0261154,2.499,2.50963
0.237367,0.0261154,2.499,2.51038
0.24371,0.0259273,2.481,2.49308
0.251763,0.0259273,2.481,2.49388
0.259816,0.0259273,2.481,2.4947
0.267868,0.0259273,2.481,2.49555
0.275921,0.0259273,2.481,2.49643
0.283974,0.0259273,2.481,2.49733
0.292027,0.0259273,2.481,2.49826
0.297902,0.0257392,2.463,2.48108
0.305896,0.0257392,2.463,2.48206
0.313891,0.0257392,2.463,2.48305
0.321885,0.0257392,2.463,2.48408
0.329879,0.0257392,2.463,2.48513
0.337874,0.0257392,2.463,2.4862
0.34334,0.0255511,2.445,2.46912
0.351276,0.0255511,2.445,2.47024
0.359212,0.0255511,2.445,2.47138
0.364595,0.0253735,2.428,2.45535
0.372476,0.0253735,2.428,2.45654
0.380356,0.0253735,2.428,2.45774
0.388237,0.0253735,2.428,2.45897
0.396118,0.0253735,2.428,2.46023
0.403999,0.0253735,2.428,2.46151
0.408995,0.0251958,2.411,2.44557
0.416821,0.0251958,2.411,2.4469
0.427641,0.0253735,2.428,2.4655
0.432472,0.0251958,2.411,2.44961
0.440297,0.0251958,2.411,2.451
0.448123,0.0251958,2.411,2.45242
0.455948,0.0251958,2.411,2.45386
0.463774,0.0251958,2.411,2.45533
0.471599,0.0251958,2.411,2.45682
0.479425,0.0251958,2.411,2.45833
0.48725,0.0251958,2.411,2.45987
0.495076,0.0251958,2.411,2.46143
0.506447,0.0253735,2.428,2.48039
0.514328,0.0253735,2.428,2.48201
0.522209,0.0253735,2.428,2.48365
0.530089,0.0253735,2.428,2.48532
0.53797,0.0253735,2.428,2.48701
0.545851,0.0253735,2.428,2.48873
0.553732,0.0253735,2.428,2.49047
0.561612,0.0253735,2.428,2.49224
0.57348,0.0255511,2.445,2.51149
0.581416,0.0255511,2.445,2.51331
0.589352,0.0255511,2.445,2.51516
0.597288,0.0255511,2.445,2.51703
0.605224,0.0255511,2.445,2.51892
0.617674,0.0257392,2.463,2.5394
0.625668,0.0257392,2.463,2.54136
0.633662,0.0257392,2.463,2.54334
0.641657,0.0257392,2.463,2.54534
0.649651,0.0257392,2.463,2.54737
0.657645,0.0257392,2.463,2.54942
0.665639,0.0257392,2.463,2.55149
0.673634,0.0257392,2.463,2.55359
0.686609,0.0259273,2.481,2.57439
0.694662,0.0259273,2.481,2.57655
0.702715,0.0259273,2.481,2.57873
0.710768,0.0259273,2.481,2.58093
0.71882,0.0259273,2.481,2.58316
0.726873,0.0259273,2.481,2.58542
0.734926,0.0259273,2.481,2.58769
0.742978,0.0259273,2.481,2.58999
0.751031,0.0259273,2.481,2.59231
0.759084,0.0259273,2.481,2.59466
0.772702,0.0261154,2.499,2.61587
0.780813,0.0261154,2.499,2.61827
0.788924,0.0261154,2.499,2.6207
0.797036,0.0261154,2.499,2.62316
0.805147,0.0261154,2.499,2.62563
0.813258,0.0261154,2.499,2.62813
0.821369,0.0261154,2.499,2.63065
0.823505,0.0259273,2.481,2.61423
0.831558,0.0259273,2.481,2.61678
0.839611,0.0259273,2.481,2.61935
0.841514,0.0257392,2.463,2.60292
0.849508,0.0257392,2.463,2.60551
0.857502,0.0257392,2.463,2.60813
0.859171,0.0255511,2.445,2.59169
0.867107,0.0255511,2.445,2.59433
0.875043,0.0255511,2.445,2.59699
0.87684,0.0253735,2.428,2.5816
0.88472,0.0253735,2.428,2.58429
0.892601,0.0253735,2.428,2.587
0.894177,0.0251958,2.411,2.5716
0.902002,0.0251958,2.411,2.57433
0.909828,0.0251958,2.411,2.57708
0.911183,0.0250182,2.394,2.56166
0.912428,0.0248405,2.377,2.54623
0.920143,0.0248405,2.377,2.549
0.927858,0.0248405,2.377,2.5518
0.935573,0.0248405,2.377,2.55461
0.943288,0.0248405,2.377,2.55745
0.951003,0.0248405,2.377,2.5603
0.958719,0.0248405,2.377,2.56318
0.966434,0.0248405,2.377,2.56607
0.981116,0.0250182,2.394,2.58736
0.988886,0.0250182,2.394,2.59032
0.996657,0.0250182,2.394,2.5933
1.01156,0.0251958,2.411,2.61473
1.01938,0.0251958,2.411,2.61777
1.03445,0.0253735,2.428,2.6393
1.04233,0.0253735,2.428,2.6424
1.05021,0.0253735,2.428,2.64552
1.07335,0.0257392,2.463,2.68684
1.08924,0.0259273,2.481,2.7097
1.0973,0.0259273,2.481,2.71295
1.12139,0.0263036,2.517,2.75563
1.13809,0.0265021,2.536,2.77979
1.14632,0.0265021,2.536,2.78317
1.15455,0.0265021,2.536,2.78657
1.17149,0.0267007,2.555,2.81089
1.18856,0.0268992,2.574,2.83529
1.19691,0.0268992,2.574,2.8388
1.22353,0.0273068,2.613,2.8854
1.24144,0.0275158,2.633,2.91112
1.24998,0.0275158,2.633,2.91477
1.26857,0.0277353,2.654,2.94173
1.27718,0.0277353,2.654,2.94545
1.29597,0.0279547,2.675,2.97253
1.30465,0.0279547,2.675,2.97633
1.32365,0.0281742,2.696,3.00354
1.34278,0.0283936,2.717,3.03083
1.35159,0.0283936,2.717,3.03475
1.38244,0.0288534,2.761,3.0879
1.40249,0.0290833,2.783,3.11656
1.41152,0.0290833,2.783,3.12063
1.44404,0.0295641,2.829,3.17638
1.47788,0.0300657,2.877,3.23453
1.51254,0.0305777,2.926,3.29396
1.52204,0.0305777,2.926,3.29834
1.55823,0.0311107,2.977,3.3603
1.59581,0.0316646,3.03,3.42469
1.60564,0.0316646,3.03,3.42929
1.62987,0.0319467,3.057,3.4645
1.6693,0.0325215,3.112,3.53159
1.69505,0.0328246,3.141,3.56933
1.70524,0.0328246,3.141,3.57419
1.73128,0.0331276,3.17,3.61211
1.7575,0.0334307,3.199,3.65014
1.76788,0.0334307,3.199,3.65515
1.77827,0.0334307,3.199,3.66018
1.80598,0.0337547,3.23,3.70076
1.81647,0.0337547,3.23,3.70589
1.82695,0.0337547,3.23,3.71104
1.83743,0.0337547,3.23,3.71621
1.84792,0.0337547,3.23,3.7214
1.8584,0.0337547,3.23,3.72662
1.85095,0.0334307,3.199,3.69604
1.86133,0.0334307,3.199,3.70125
1.85475,0.0331276,3.17,3.67288
1.86504,0.0331276,3.17,3.67809
1.87532,0.0331276,3.17,3.68332
1.86836,0.0328246,3.141,3.65482
1.87856,0.0328246,3.141,3.66005
1.88875,0.0328246,3.141,3.66529
1.86449,0.0322289,3.084,3.60394
1.8745,0.0322289,3.084,3.60913
1.88451,0.0322289,3.084,3.61434
1.86134,0.0316646,3.03,3.55619
1.85451,0.0313824,3.003,3.52962
1.86425,0.0313824,3.003,3.53475
1.85777,0.0311107,2.977,3.50925
1.85113,0.030839,2.951,3.48368
1.82918,0.0303165,2.901,3.42967
1.8386,0.0303165,2.901,3.4347
1.83272,0.0300657,2.877,3.41129
1.81133,0.0295641,2.829,3.35932
1.82051,0.0295641,2.829,3.36428
1.79994,0.0290833,2.783,3.31447
1.79467,0.0288534,2.761,3.29315
1.80364,0.0288534,2.761,3.29804
1.78371,0.0283936,2.717,3.25031
1.76482,0.0279547,2.675,3.20484
1.7735,0.0279547,2.675,3.20963
1.7542,0.0275158,2.633,3.16396
1.73597,0.0270978,2.593,3.12057
1.74439,0.0270978,2.593,3.12526
1.73996,0.0268992,2.574,3.10703
1.7225,0.0265021,2.536,3.06578
-1.94661,0.0384287,2.806,3.41532
-1.92163,0.0381137,2.783,3.38219
-1.91259,0.0381137,2.783,3.37706
-1.90356,0.0381137,2.783,3.37196
-1.87955,0.0378124,2.761,3.34025
-1.87059,0.0378124,2.761,3.33521
-1.84679,0.0375111,2.739,3.30366
-1.8379,0.0375111,2.739,3.2987
-1.82901,0.0375111,2.739,3.29375
-1.8055,0.0372098,2.717,3.26241
-1.79668,0.0372098,2.717,3.25754
-1.78787,0.0372098,2.717,3.25268
-1.77905,0.0372098,2.717,3.24784
-1.75655,0.0369222,2.696,3.21795
-1.7478,0.0369222,2.696,3.21319
-1.73905,0.0369222,2.696,3.20844
-1.71682,0.0366346,2.675,3.17875
-1.70813,0.0366346,2.675,3.17407
-1.69945,0.0366346,2.675,3.1694
-1.69077,0.0366346,2.675,3.16475
-1.68209,0.0366346,2.675,3.16012
-1.68654,0.0369222,2.696,3.18028
-1.67779,0.0369222,2.696,3.17565
-1.66904,0.0369222,2.696,3.17104
-1.67322,0.0372098,2.717,3.1911
-1.69136,0.0378124,2.761,3.23809
-1.6824,0.0378124,2.761,3.23342
-1.70071,0.0384287,2.806,3.28139
-1.71994,0.0390724,2.853,3.33156
-1.72507,0.0394011,2.877,3.35478
-1.71573,0.0394011,2.877,3.34999
-1.70639,0.0394011,2.877,3.34521
-1.69705,0.0394011,2.877,3.34046
-1.68771,0.0394011,2.877,3.33572
-1.66438,0.0390724,2.853,3.30322
-1.65511,0.0390724,2.853,3.29857
-1.63201,0.0387437,2.829,3.26622
-1.60963,0.0384287,2.806,3.23513
-1.60053,0.0384287,2.806,3.2306
-1.57837,0.0381137,2.783,3.19966
-1.54453,0.0375111,2.739,3.14469
-1.5233,0.0372098,2.717,3.11511
-1.51449,0.0372098,2.717,3.11081
-1.49403,0.0369222,2.696,3.08252
-1.47371,0.0366346,2.675,3.05431
-1.46503,0.0366346,2.675,3.05013
-1.44491,0.036347,2.654,3.02205
-1.4363,0.036347,2.654,3.01794
-1.42768,0.036347,2.654,3.01385
-1.40784,0.0360594,2.633,2.98597
-1.3993,0.0360594,2.633,2.98195
-1.39075,0.0360594,2.633,2.97795
-1.3822,0.0360594,2.633,2.97397
-1.36322,0.0357855,2.613,2.94744
-1.35474,0.0357855,2.613,2.94353
-1.34626,0.0357855,2.613,2.93964
-1.33778,0.0357855,2.613,2.93576
-1.31912,0.0355116,2.593,2.90947
-1.31071,0.0355116,2.593,2.90566
-1.29275,0.0352514,2.574,2.88061
-1.27491,0.0349912,2.555,2.85564
-1.26662,0.0349912,2.555,2.85194
-1.23961,0.0344708,2.517,2.80591
-1.23144,0.0344708,2.517,2.80231
-1.22327,0.0344708,2.517,2.79873
-1.19772,0.0339778,2.481,2.75519
-1.18967,0.0339778,2.481,2.7517
-1.17305,0.0337313,2.463,2.72829
-1.16505,0.0337313,2.463,2.72486
-1.1486,0.0334848,2.445,2.70156
-1.14067,0.0334848,2.445,2.6982
-1.13273,0.0334848,2.445,2.69485
-1.11697,0.0332519,2.428,2.67281
-1.10909,0.0332519,2.428,2.66953
-1.10121,0.0332519,2.428,2.66626
-1.08568,0.0330191,2.411,2.64437
-1.07785,0.0330191,2.411,2.64117
-1.07003,0.0330191,2.411,2.63799
-1.0622,0.0330191,2.411,2.63482
-1.04694,0.0327863,2.394,2.61312
-1.03917,0.0327863,2.394,2.61002
-1.0314,0.0327863,2.394,2.60693
-1.02363,0.0327863,2.394,2.60387
-1.01586,0.0327863,2.394,2.60082
-1.00809,0.0327863,2.394,2.5978
-0.993215,0.0325535,2.377,2.57637
-0.9855,0.0325535,2.377,2.5734
-0.977785,0.0325535,2.377,2.57046
-0.970069,0.0325535,2.377,2.56753
-0.962354,0.0325535,2.377,2.56463
-0.954639,0.0325535,2.377,2.56174
-0.946924,0.0325535,2.377,2.55888
-0.939209,0.0325535,2.377,2.55603
-0.931494,0.0325535,2.377,2.55321
-0.923778,0.0325535,2.377,2.5504
-0.916063,0.0325535,2.377,2.54762
-0.908348,0.0325535,2.377,2.54485
-0.900633,0.0325535,2.377,2.54211
-0.892918,0.0325535,2.377,2.53939
-0.885203,0.0325535,2.377,2.53669
-0.883763,0.0327863,2.394,2.55213
-0.875993,0.0327863,2.394,2.54945
-0.868223,0.0327863,2.394,2.54679
-0.866562,0.0330191,2.411,2.56221
-0.858737,0.0330191,2.411,2.55958
-0.850911,0.0330191,2.411,2.55696
-0.84903,0.0332519,2.428,2.57238
-0.84115,0.0332519,2.428,2.56979
-0.833269,0.0332519,2.428,2.56722
-0.831167,0.0334848,2.445,2.58263
-0.823232,0.0334848,2.445,2.58009
-0.815296,0.0334848,2.445,2.57757
-0.813304,0.0337313,2.463,2.59403
-0.805309,0.0337313,2.463,2.59153
-0.803142,0.0339778,2.481,2.60798
-0.795089,0.0339778,2.481,2.60551
-0.787037,0.0339778,2.481,2.60306
-0.778984,0.0339778,2.481,2.60064
-0.770931,0.0339778,2.481,2.59824
-0.762878,0.0339778,2.481,2.59586
-0.754826,0.0339778,2.481,2.59351
-0.746773,0.0339778,2.481,2.59117
-0.73872,0.0339778,2.481,2.58887
-0.735969,0.0342243,2.499,2.60535
-0.727858,0.0342243,2.499,2.60307
-0.719746,0.0342243,2.499,2.60081
-0.706509,0.0339778,2.481,2.57986
-0.698457,0.0339778,2.481,2.57767
-0.690404,0.0339778,2.481,2.5755
-0.682351,0.0339778,2.481,2.57335
-0.674299,0.0339778,2.481,2.57122
-0.666246,0.0339778,2.481,2.56912
-0.658193,0.0339778,2.481,2.56705
-0.65014,0.0339778,2.481,2.565
-0.642088,0.0339778,2.481,2.56297
-0.634035,0.0339778,2.481,2.56096
-0.625982,0.0339778,2.481,2.55898
-0.61793,0.0339778,2.481,2.55702
-0.609877,0.0339778,2.481,2.55509
-0.601824,0.0339778,2.481,2.55318
-0.593771,0.0339778,2.481,2.55129
-0.585719,0.0339778,2.481,2.54943
-0.577666,0.0339778,2.481,2.54759
-0.569613,0.0339778,2.481,2.54578
-0.561561,0.0339778,2.481,2.54399
-0.553508,0.0339778,2.481,2.54222
-0.541498,0.0337313,2.463,2.52205
-0.533504,0.0337313,2.463,2.52034
-0.525509,0.0337313,2.463,2.51866
-0.517515,0.0337313,2.463,2.51701
-0.509521,0.0337313,2.463,2.51538
-0.501526,0.0337313,2.463,2.51377
-0.493532,0.0337313,2.463,2.51219
-0.485538,0.0337313,2.463,2.51063
-0.477544,0.0337313,2.463,2.50909
-0.469549,0.0337313,2.463,2.50759
-0.461555,0.0337313,2.463,2.5061
-0.456875,0.0339778,2.481,2.52294
-0.448823,0.0339778,2.481,2.5215
-0.44077,0.0339778,2.481,2.52008
-0.432717,0.0339778,2.481,2.51868
-0.424665,0.0339778,2.481,2.51731
-0.416612,0.0339778,2.481,2.51597
-0.408559,0.0339778,2.481,2.51464
-0.400506,0.0339778,2.481,2.51335
-0.395301,0.0342243,2.499,2.5303
-0.38719,0.0342243,2.499,2.52905
-0.379079,0.0342243,2.499,2.52782
-0.370968,0.0342243,2.499,2.52662
-0.362857,0.0342243,2.499,2.52544
-0.354745,0.0342243,2.499,2.52429
-0.346634,0.0342243,2.499,2.52316
-0.338523,0.0342243,2.499,2.52206
-0.330412,0.0342243,2.499,2.52098
-0.322301,0.0342243,2.499,2.51993
-0.31419,0.0342243,2.499,2.51891
-0.306079,0.0342243,2.499,2.51791
-0.297967,0.0342243,2.499,2.51693
-0.289856,0.0342243,2.499,2.51599
-0.279716,0.0339778,2.481,2.49695
-0.271663,0.0339778,2.481,2.49606
-0.26361,0.0339778,2.481,2.4952
-0.255558,0.0339778,2.481,2.49436
-0.247505,0.0339778,2.481,2.49355
-0.239452,0.0339778,2.481,2.49276
-0.229721,0.0337313,2.463,2.47392
-0.221726,0.0337313,2.463,2.47319
-0.213732,0.0337313,2.463,2.47249
-0.205738,0.0337313,2.463,2.47181
-0.197744,0.0337313,2.463,2.47116
-0.189749,0.0337313,2.463,2.47053
-0.181755,0.0337313,2.463,2.46993
-0.173761,0.0337313,2.463,2.46935
-0.165766,0.0337313,2.463,2.4688
-0.157772,0.0337313,2.463,2.46828
-0.149778,0.0337313,2.463,2.46778
-0.141784,0.0337313,2.463,2.46731
-0.133789,0.0337313,2.463,2.46686
-0.125795,0.0337313,2.463,2.46644
-0.117801,0.0337313,2.463,2.46605
-0.109806,0.0337313,2.463,2.46568
-0.101812,0.0337313,2.463,2.46533
-0.0938178,0.0337313,2.463,2.46502
-0.0858236,0.0337313,2.463,2.46473
-0.0778293,0.0337313,2.463,2.46446
-0.069835,0.0337313,2.463,2.46422
-0.0622926,0.0339778,2.481,2.48201
-0.0542399,0.0339778,2.481,2.48183
-0.0461872,0.0339778,2.481,2.48166
-0.0381345,0.0339778,2.481,2.48153
-0.0300818,0.0339778,2.481,2.48142
-0.0220291,0.0339778,2.481,2.48133
-0.0139764,0.0339778,2.481,2.48127
-0.00592366,0.0339778,2.481,2.48124
0.00212905,0.0339778,2.481,2.48123
0.0101079,0.0337313,2.463,2.46325
0.0181022,0.0337313,2.463,2.4633
0.0260965,0.0337313,2.463,2.46337
0.0340907,0.0337313,2.463,2.46347
0.042085,0.0337313,2.463,2.46359
0.0500793,0.0337313,2.463,2.46374
0.0580736,0.0337313,2.463,2.46392
0.0660679,0.0337313,2.463,2.46412
0.0740622,0.0337313,2.463,2.46434
0.0820565,0.0337313,2.463,2.4646
0.0900507,0.0337313,2.463,2.46488
0.098045,0.0337313,2.463,2.46518
0.106039,0.0337313,2.463,2.46551
0.114034,0.0337313,2.463,2.46587
0.122028,0.0337313,2.463,2.46625
0.130022,0.0337313,2.463,2.46666
0.139025,0.0339778,2.481,2.48512
0.147078,0.0339778,2.481,2.48559
0.155131,0.0339778,2.481,2.48608
0.163183,0.0339778,2.481,2.48659
0.172478,0.0342243,2.499,2.50518
0.180589,0.0342243,2.499,2.50575
0.187341,0.0339778,2.481,2.4883
0.195394,0.0339778,2.481,2.48891
0.204923,0.0342243,2.499,2.50762
0.213034,0.0342243,2.499,2.5083
0.221145,0.0342243,2.499,2.509
0.229256,0.0342243,2.499,2.50973
0.237367,0.0342243,2.499,2.51048
0.24371,0.0339778,2.481,2.49317
0.251763,0.0339778,2.481,2.49397
0.259816,0.0339778,2.481,2.4948
0.267868,0.0339778,2.481,2.49565
0.275921,0.0339778,2.481,2.49653
0.283974,0.0339778,2.481,2.49743
0.289908,0.0337313,2.463,2.48023
0.297902,0.0337313,2.463,2.48118
0.305896,0.0337313,2.463,2.48215
0.311597,0.0334848,2.445,2.465
0.317311,0.0332519,2.428,2.44887
0.325192,0.0332519,2.428,2.44991
0.333072,0.0332519,2.428,2.45096
0.340953,0.0332519,2.428,2.45205
0.348834,0.0332519,2.428,2.45316
0.356714,0.0332519,2.428,2.45429
0.362042,0.0330191,2.411,2.43825
0.369868,0.0330191,2.411,2.43943
0.377693,0.0330191,2.411,2.44063
0.385519,0.0330191,2.411,2.44185
0.393344,0.0330191,2.411,2.4431
0.40117,0.0330191,2.411,2.44437
0.408995,0.0330191,2.411,2.44567
0.416821,0.0330191,2.411,2.44699
0.424646,0.0330191,2.411,2.44833
0.432472,0.0330191,2.411,2.4497
0.440297,0.0330191,2.411,2.4511
0.448123,0.0330191,2.411,2.45251
0.455948,0.0330191,2.411,2.45396
0.463774,0.0330191,2.411,2.45542
0.471599,0.0330191,2.411,2.45691
0.479425,0.0330191,2.411,2.45843
0.48725,0.0330191,2.411,2.45996
0.495076,0.0330191,2.411,2.46153
0.506447,0.0332519,2.428,2.48048
0.514328,0.0332519,2.428,2.4821
0.522209,0.0332519,2.428,2.48375
0.530089,0.0332519,2.428,2.48541
0.53797,0.0332519,2.428,2.48711
0.545851,0.0332519,2.428,2.48882
0.553732,0.0332519,2.428,2.49056
0.561612,0.0332519,2.428,2.49233
0.569493,0.0332519,2.428,2.49412
0.581416,0.0334848,2.445,2.5134
0.589352,0.0334848,2.445,2.51525
0.597288,0.0334848,2.445,2.51712
0.605224,0.0334848,2.445,2.51902
0.617674,0.0337313,2.463,2.53949
0.625668,0.0337313,2.463,2.54145
0.633662,0.0337313,2.463,2.54343
0.641657,0.0337313,2.463,2.54543
0.649651,0.0337313,2.463,2.54746
0.657645,0.0337313,2.463,2.54951
0.665639,0.0337313,2.463,2.55158
0.673634,0.0337313,2.463,2.55368
0.681628,0.0337313,2.463,2.5558
0.694662,0.0339778,2.481,2.57664
0.702715,0.0339778,2.481,2.57882
0.710768,0.0339778,2.481,2.58103
0.71882,0.0339778,2.481,2.58326
0.726873,0.0339778,2.481,2.58551
0.734926,0.0339778,2.481,2.58779
0.742978,0.0339778,2.481,2.59008
0.751031,0.0339778,2.481,2.59241
0.759084,0.0339778,2.481,2.59475
0.767137,0.0339778,2.481,2.59712
0.775189,0.0339778,2.481,2.59951
0.783242,0.0339778,2.481,2.60192
0.797036,0.0342243,2.499,2.62325
0.805147,0.0342243,2.499,2.62573
0.813258,0.0342243,2.499,2.62822
0.815453,0.0339778,2.481,2.6118
0.823505,0.0339778,2.481,2.61432
0.831558,0.0339778,2.481,2.61687
0.839611,0.0339778,2.481,2.61944
0.841514,0.0337313,2.463,2.60301
0.849508,0.0337313,2.463,2.6056
0.857502,0.0337313,2.463,2.60822
0.859171,0.0334848,2.445,2.59178
0.867107,0.0334848,2.445,2.59442
0.875043,0.0334848,2.445,2.59708
0.87684,0.0332519,2.428,2.58169
0.88472,0.0332519,2.428,2.58438
0.892601,0.0332519,2.428,2.58709
0.894177,0.0330191,2.411,2.57169
0.902002,0.0330191,2.411,2.57442
0.909828,0.0330191,2.411,2.57717
0.911183,0.0327863,2.394,2.56175
0.912428,0.0325535,2.377,2.54631
0.920143,0.0325535,2.377,2.54909
0.927858,0.0325535,2.377,2.55188
0.935573,0.0325535,2.377,2.5547
0.943288,0.0325535,2.377,2.55753
0.951003,0.0325535,2.377,2.56039
0.958719,0.0325535,2.377,2.56327
0.966434,0.0325535,2.377,2.56616
0.981116,0.0327863,2.394,2.58745
0.988886,0.0327863,2.394,2.59041
0.996657,0.0327863,2.394,2.59338
1.01156,0.0330191,2.411,2.61482
1.01938,0.0330191,2.411,2.61785
1.03445,0.0332519,2.428,2.63939
1.04963,0.0334848,2.445,2.66099
1.05757,0.0334848,2.445,2.66413
1.07335,0.0337313,2.463,2.68693
1.08924,0.0339778,2.481,2.70979
1.11322,0.0344708,2.517,2.75241
1.12139,0.0344708,2.517,2.75572
1.13809,0.034731,2.536,2.77988
1.1549,0.0349912,2.555,2.80411
1.1632,0.0349912,2.555,2.80754
1.1802,0.0352514,2.574,2.83189
1.19733,0.0355116,2.593,2.85631
1.20575,0.0355116,2.593,2.85985
1.22353,0.0357855,2.613,2.88549
1.24144,0.0360594,2.633,2.91121
1.25995,0.036347,2.654,2.93812
1.26857,0.036347,2.654,2.94182
1.28729,0.0366346,2.675,2.96885
1.29597,0.0366346,2.675,2.97263
1.30465,0.0366346,2.675,2.97642
1.32365,0.0369222,2.696,3.00363
1.34278,0.0372098,2.717,3.03093
1.35159,0.0372098,2.717,3.03484
1.38244,0.0378124,2.761,3.08799
1.40249,0.0381137,2.783,3.11665
1.41152,0.0381137,2.783,3.12073
1.44404,0.0387437,2.829,3.17647
1.47788,0.0394011,2.877,3.23463
1.51254,0.0400721,2.926,3.29407
1.52204,0.0400721,2.926,3.29844
1.55823,0.0407706,2.977,3.3604
1.59581,0.0414964,3.03,3.4248
1.60564,0.0414964,3.03,3.42939
1.62987,0.0418662,3.057,3.46461
1.6693,0.0426194,3.112,3.5317
1.69505,0.0430166,3.141,3.56944
1.70524,0.0430166,3.141,3.5743
1.73128,0.0434138,3.17,3.61222
1.7575,0.0438109,3.199,3.65025
1.76788,0.0438109,3.199,3.65526
1.77827,0.0438109,3.199,3.66029
1.80598,0.0442355,3.23,3.70087
1.81647,0.0442355,3.23,3.706
1.82695,0.0442355,3.23,3.71115
1.83743,0.0442355,3.23,3.71632
1.84792,0.0442355,3.23,3.72151
1.8584,0.0442355,3.23,3.72673
1.85095,0.0438109,3.199,3.69615
1.86133,0.0438109,3.199,3.70136
1.85475,0.0434138,3.17,3.67299
1.86504,0.0434138,3.17,3.6782
1.87532,0.0434138,3.17,3.68343
1.86836,0.0430166,3.141,3.65493
1.87856,0.0430166,3.141,3.66015
1.88875,0.0430166,3.141,3.66539
1.86449,0.042236,3.084,3.60405
1.8745,0.042236,3.084,3.60924
1.88451,0.042236,3.084,3.61444
1.86134,0.0414964,3.03,3.55629
1.85451,0.0411267,3.003,3.52972
1.86425,0.0411267,3.003,3.53485
1.85777,0.0407706,2.977,3.50935
1.85113,0.0404145,2.951,3.48378
1.82918,0.0397298,2.901,3.42976
1.8386,0.0397298,2.901,3.43479
1.83272,0.0394011,2.877,3.41139
1.81133,0.0387437,2.829,3.35941
1.82051,0.0387437,2.829,3.36437
1.79994,0.0381137,2.783,3.31456
1.78037,0.0375111,2.739,3.267
1.78926,0.0375111,2.739,3.27185
1.76992,0.0369222,2.696,3.22528
1.75097,0.036347,2.654,3.17977
1.75958,0.036347,2.654,3.18452
1.7542,0.0360594,2.633,3.16405
1.73597,0.0355116,2.593,3.12066
1.74439,0.0355116,2.593,3.12535
1.73996,0.0352514,2.574,3.10712
1.7225,0.034731,2.536,3.06586
-1.93066,0.0471441,2.783,3.38744
-1.92163,0.0471441,2.783,3.3823
-1.91259,0.0471441,2.783,3.37718
-1.90356,0.0471441,2.783,3.37207
-1.87955,0.0467714,2.761,3.34036
-1.87059,0.0467714,2.761,3.33533
-1.84679,0.0463987,2.739,3.30377
-1.82314,0.0460261,2.717,3.27232
-1.81432,0.0460261,2.717,3.26741
-1.8055,0.0460261,2.717,3.26252
-1.79668,0.0460261,2.717,3.25765
-1.77405,0.0456703,2.696,3.22765
-1.7653,0.0456703,2.696,3.22285
-1.74286,0.0453146,2.675,3.193
-1.73418,0.0453146,2.675,3.18827
-1.7255,0.0453146,2.675,3.18356
-1.70334,0.0449588,2.654,3.1539
-1.69472,0.0449588,2.654,3.14926
-1.68611,0.0449588,2.654,3.14463
-1.6775,0.0449588,2.654,3.14002
-1.66888,0.0449588,2.654,3.13543
-1.6734,0.0453146,2.675,3.15562
-1.67779,0.0456703,2.696,3.17577
-1.66904,0.0456703,2.696,3.17115
-1.67322,0.0460261,2.717,3.19122
-1.69136,0.0467714,2.761,3.23821
-1.6824,0.0467714,2.761,3.23354
-1.68677,0.0471441,2.783,3.25461
-1.70547,0.0479233,2.829,3.30366
-1.71068,0.0483299,2.853,3.32691
-1.70142,0.0483299,2.853,3.32216
-1.69216,0.0483299,2.853,3.31743
-1.6829,0.0483299,2.853,3.31272
-1.67364,0.0483299,2.853,3.30802
-1.66438,0.0483299,2.853,3.30335
-1.65511,0.0483299,2.853,3.29869
-1.61874,0.0475337,2.806,3.23979
-1.59644,0.0471441,2.783,3.20873
-1.58741,0.0471441,2.783,3.20424
-1.5659,0.0467714,2.761,3.17448
-1.53212,0.0460261,2.717,3.11955
-1.51153,0.0456703,2.696,3.09115
-1.50278,0.0456703,2.696,3.08688
-1.49403,0.0456703,2.696,3.08263
-1.47371,0.0453146,2.675,3.05442
-1.46503,0.0453146,2.675,3.05024
-1.44491,0.0449588,2.654,3.02217
-1.42493,0.0446031,2.633,2.99418
-1.41639,0.0446031,2.633,2.99012
-1.40784,0.0446031,2.633,2.98608
-1.3993,0.0446031,2.633,2.98206
-1.39075,0.0446031,2.633,2.97806
-1.3822,0.0446031,2.633,2.97408
-1.36322,0.0442643,2.613,2.94756
-1.35474,0.0442643,2.613,2.94365
-1.34626,0.0442643,2.613,2.93975
-1.32754,0.0439255,2.593,2.91341
-1.31912,0.0439255,2.593,2.90958
-1.31071,0.0439255,2.593,2.90578
-1.28321,0.0432818,2.555,2.85946
-1.26543,0.0429599,2.536,2.83451
-1.2572,0.0429599,2.536,2.83085
-1.23961,0.0426381,2.517,2.80602
-1.22264,0.0423331,2.499,2.78238
-1.21453,0.0423331,2.499,2.77882
-1.19772,0.0420282,2.481,2.7553
-1.18967,0.0420282,2.481,2.75181
-1.17305,0.0417233,2.463,2.7284
-1.16505,0.0417233,2.463,2.72497
-1.1486,0.0414184,2.445,2.70167
-1.14067,0.0414184,2.445,2.69831
-1.13273,0.0414184,2.445,2.69496
-1.11697,0.0411304,2.428,2.67292
-1.10909,0.0411304,2.428,2.66964
-1.10121,0.0411304,2.428,2.66637
-1.08568,0.0408424,2.411,2.64448
-1.07785,0.0408424,2.411,2.64128
-1.07003,0.0408424,2.411,2.63809
-1.0622,0.0408424,2.411,2.63493
-1.04694,0.0405544,2.394,2.61323
-1.03917,0.0405544,2.394,2.61013
-1.0314,0.0405544,2.394,2.60704
-1.02363,0.0405544,2.394,2.60398
-1.01586,0.0405544,2.394,2.60093
-1.00809,0.0405544,2.394,2.59791
-0.993215,0.0402665,2.377,2.57648
-0.9855,0.0402665,2.377,2.57351
-0.977785,0.0402665,2.377,2.57057
-0.970069,0.0402665,2.377,2.56764
-0.962354,0.0402665,2.377,2.56474
-0.954639,0.0402665,2.377,2.56185
-0.946924,0.0402665,2.377,2.55899
-0.939209,0.0402665,2.377,2.55614
-0.931494,0.0402665,2.377,2.55332
-0.923778,0.0402665,2.377,2.55051
-0.916063,0.0402665,2.377,2.54773
-0.908348,0.0402665,2.377,2.54497
-0.900633,0.0402665,2.377,2.54222
-0.892918,0.0402665,2.377,2.5395
-0.891534,0.0405544,2.394,2.55494
-0.883763,0.0405544,2.394,2.55224
-0.875993,0.0405544,2.394,2.54956
-0.868223,0.0405544,2.394,2.5469
-0.866562,0.0408424,2.411,2.56233
-0.858737,0.0408424,2.411,2.55969
-0.850911,0.0408424,2.411,2.55708
-0.84903,0.0411304,2.428,2.57249
-0.847039,0.0414184,2.445,2.5879
-0.839103,0.0414184,2.445,2.58531
-0.831167,0.0414184,2.445,2.58275
-0.829292,0.0417233,2.463,2.5992
-0.821298,0.0417233,2.463,2.59666
-0.813304,0.0417233,2.463,2.59414
-0.805309,0.0417233,2.463,2.59165
-0.803142,0.0420282,2.481,2.6081
-0.795089,0.0420282,2.481,2.60563
-0.787037,0.0420282,2.481,2.60318
-0.778984,0.0420282,2.481,2.60076
-0.770931,0.0420282,2.481,2.59836
-0.768413,0.0423331,2.499,2.61481
-0.760302,0.0423331,2.499,2.61244
-0.752191,0.0423331,2.499,2.61009
-0.74408,0.0423331,2.499,2.60777
-0.735969,0.0423331,2.499,2.60546
-0.727858,0.0423331,2.499,2.60318
-0.719746,0.0423331,2.499,2.60093
-0.711635,0.0423331,2.499,2.5987
-0.703524,0.0423331,2.499,2.59649
-0.695413,0.0423331,2.499,2.5943
-0.687302,0.0423331,2.499,2.59214
-0.679191,0.0423331,2.499,2.59
-0.67108,0.0423331,2.499,2.58788
-0.662968,0.0423331,2.499,2.58579
-0.654857,0.0423331,2.499,2.58372
-0.646746,0.0423331,2.499,2.58168
-0.638635,0.0423331,2.499,2.57966
-0.630524,0.0423331,2.499,2.57766
-0.622413,0.0423331,2.499,2.57569
-0.614302,0.0423331,2.499,2.57374
-0.606191,0.0423331,2.499,2.57182
-0.598079,0.0423331,2.499,2.56992
-0.589968,0.0423331,2.499,2.56805
-0.581857,0.0423331,2.499,2.56619
-0.573746,0.0423331,2.499,2.56437
-0.561561,0.0420282,2.481,2.54411
-0.553508,0.0420282,2.481,2.54234
-0.545455,0.0420282,2.481,2.5406
-0.537403,0.0420282,2.481,2.53888
-0.52935,0.0420282,2.481,2.53719
-0.521297,0.0420282,2.481,2.53552
-0.513244,0.0420282,2.481,2.53388
-0.505192,0.0420282,2.481,2.53226
-0.497139,0.0420282,2.481,2.53067
-0.489086,0.0420282,2.481,2.5291
-0.481034,0.0420282,2.481,2.52755
-0.472981,0.0420282,2.481,2.52603
-0.464928,0.0420282,2.481,2.52454
-0.456875,0.0420282,2.481,2.52307
-0.448823,0.0420282,2.481,2.52162
-0.44077,0.0420282,2.481,2.5202
-0.432717,0.0420282,2.481,2.5188
-0.424665,0.0420282,2.481,2.51743
-0.416612,0.0420282,2.481,2.51609
-0.408559,0.0420282,2.481,2.51477
-0.400506,0.0420282,2.481,2.51347
-0.395301,0.0423331,2.499,2.53043
-0.38719,0.0423331,2.499,2.52917
-0.379079,0.0423331,2.499,2.52794
-0.370968,0.0423331,2.499,2.52674
-0.362857,0.0423331,2.499,2.52556
-0.354745,0.0423331,2.499,2.52441
-0.346634,0.0423331,2.499,2.52328
-0.338523,0.0423331,2.499,2.52218
-0.330412,0.0423331,2.499,2.5211
-0.322301,0.0423331,2.499,2.52005
-0.31419,0.0423331,2.499,2.51903
-0.306079,0.0423331,2.499,2.51803
-0.297967,0.0423331,2.499,2.51706
-0.289856,0.0423331,2.499,2.51611
-0.279716,0.0420282,2.481,2.49707
-0.271663,0.0420282,2.481,2.49618
-0.26361,0.0420282,2.481,2.49532
-0.255558,0.0420282,2.481,2.49448
-0.247505,0.0420282,2.481,2.49367
-0.239452,0.0420282,2.481,2.49288
-0.229721,0.0417233,2.463,2.47404
-0.221726,0.0417233,2.463,2.47331
-0.213732,0.0417233,2.463,2.47261
-0.205738,0.0417233,2.463,2.47193
-0.197744,0.0417233,2.463,2.47128
-0.189749,0.0417233,2.463,2.47065
-0.181755,0.0417233,2.463,2.47005
-0.173761,0.0417233,2.463,2.46947
-0.165766,0.0417233,2.463,2.46892
-0.157772,0.0417233,2.463,2.4684
-0.149778,0.0417233,2.463,2.4679
-0.141784,0.0417233,2.463,2.46743
-0.133789,0.0417233,2.463,2.46698
-0.125795,0.0417233,2.463,2.46656
-0.117801,0.0417233,2.463,2.46617
-0.109806,0.0417233,2.463,2.4658
-0.101812,0.0417233,2.463,2.46546
-0.0938178,0.0417233,2.463,2.46514
-0.0858236,0.0417233,2.463,2.46485
-0.0778293,0.0417233,2.463,2.46458
-0.069835,0.0417233,2.463,2.46434
-0.0622926,0.0420282,2.481,2.48214
-0.0542399,0.0420282,2.481,2.48195
-0.0461872,0.0420282,2.481,2.48179
-0.0381345,0.0420282,2.481,2.48165
-0.0300818,0.0420282,2.481,2.48154
-0.0220291,0.0420282,2.481,2.48145
-0.0139764,0.0420282,2.481,2.4814
-0.00592366,0.0420282,2.481,2.48136
0.00212905,0.0420282,2.481,2.48136
0.0101079,0.0417233,2.463,2.46337
0.0181022,0.0417233,2.463,2.46342
0.0260965,0.0417233,2.463,2.46349
0.0340907,0.0417233,2.463,2.46359
0.042085,0.0417233,2.463,2.46371
0.0500793,0.0417233,2.463,2.46386
0.0580736,0.0417233,2.463,2.46404
0.0660679,0.0417233,2.463,2.46424
0.0740622,0.0417233,2.463,2.46447
0.0820565,0.0417233,2.463,2.46472
0.0900507,0.0417233,2.463,2.465
0.098045,0.0417233,2.463,2.4653
0.106039,0.0417233,2.463,2.46563
0.114034,0.0417233,2.463,2.46599
0.12292,0.0420282,2.481,2.4844
0.130972,0.0420282,2.481,2.48481
0.139025,0.0420282,2.481,2.48525
0.147078,0.0420282,2.481,2.48571
0.155131,0.0420282,2.481,2.4862
0.164367,0.0423331,2.499,2.50476
0.172478,0.0423331,2.499,2.5053
0.180589,0.0423331,2.499,2.50587
0.188701,0.0423331,2.499,2.50647
0.196812,0.0423331,2.499,2.5071
0.204923,0.0423331,2.499,2.50775
0.213034,0.0423331,2.499,2.50842
0.222738,0.0426381,2.517,2.5272
0.230908,0.0426381,2.517,2.52793
0.237367,0.0423331,2.499,2.5106
0.245479,0.0423331,2.499,2.51138
0.25359,0.0423331,2.499,2.51219
0.259816,0.0420282,2.481,2.49492
0.267868,0.0420282,2.481,2.49577
0.275921,0.0420282,2.481,2.49665
0.281914,0.0417233,2.463,2.47943
0.289908,0.0417233,2.463,2.48035
0.295725,0.0414184,2.445,2.46317
0.303661,0.0414184,2.445,2.46413
0.30943,0.0411304,2.428,2.44798
0.315089,0.0408424,2.411,2.43184
0.322915,0.0408424,2.411,2.43287
0.33074,0.0408424,2.411,2.43392
0.338566,0.0408424,2.411,2.435
0.346391,0.0408424,2.411,2.4361
0.351719,0.0405544,2.394,2.42004
0.35949,0.0405544,2.394,2.42118
0.36726,0.0405544,2.394,2.42235
0.37503,0.0405544,2.394,2.42354
0.382801,0.0405544,2.394,2.42475
0.390571,0.0405544,2.394,2.42599
0.398341,0.0405544,2.394,2.42725
0.406112,0.0405544,2.394,2.42854
0.416821,0.0408424,2.411,2.44711
0.424646,0.0408424,2.411,2.44845
0.432472,0.0408424,2.411,2.44982
0.440297,0.0408424,2.411,2.45121
0.448123,0.0408424,2.411,2.45263
0.455948,0.0408424,2.411,2.45407
0.463774,0.0408424,2.411,2.45554
0.471599,0.0408424,2.411,2.45703
0.479425,0.0408424,2.411,2.45854
0.48725,0.0408424,2.411,2.46008
0.495076,0.0408424,2.411,2.46164
0.502901,0.0408424,2.411,2.46323
0.510727,0.0408424,2.411,2.46484
0.522209,0.0411304,2.428,2.48386
0.530089,0.0411304,2.428,2.48553
0.53797,0.0411304,2.428,2.48723
0.545851,0.0411304,2.428,2.48894
0.553732,0.0411304,2.428,2.49068
0.561612,0.0411304,2.428,2.49245
0.569493,0.0411304,2.428,2.49423
0.581416,0.0414184,2.445,2.51352
0.589352,0.0414184,2.445,2.51537
0.597288,0.0414184,2.445,2.51724
0.605224,0.0414184,2.445,2.51913
0.61316,0.0414184,2.445,2.52105
0.621095,0.0414184,2.445,2.52299
0.629031,0.0414184,2.445,2.52496
0.636967,0.0414184,2.445,2.52695
0.644903,0.0414184,2.445,2.52896
0.657645,0.0417233,2.463,2.54963
0.665639,0.0417233,2.463,2.5517
0.673634,0.0417233,2.463,2.5538
0.681628,0.0417233,2.463,2.55592
0.694662,0.0420282,2.481,2.57676
0.702715,0.0420282,2.481,2.57894
0.710768,0.0420282,2.481,2.58115
0.71882,0.0420282,2.481,2.58338
0.726873,0.0420282,2.481,2.58563
0.734926,0.0420282,2.481,2.5879
0.742978,0.0420282,2.481,2.5902
0.751031,0.0420282,2.481,2.59252
0.759084,0.0420282,2.481,2.59487
0.767137,0.0420282,2.481,2.59723
0.775189,0.0420282,2.481,2.59962
0.783242,0.0420282,2.481,2.60204
0.797036,0.0423331,2.499,2.62337
0.805147,0.0423331,2.499,2.62584
0.813258,0.0423331,2.499,2.62834
0.815453,0.0420282,2.481,2.61191
0.823505,0.0420282,2.481,2.61444
0.831558,0.0420282,2.481,2.61699
0.839611,0.0420282,2.481,2.61956
0.841514,0.0417233,2.463,2.60312
0.849508,0.0417233,2.463,2.60572
0.857502,0.0417233,2.463,2.60834
0.859171,0.0414184,2.445,2.59189
0.867107,0.0414184,2.445,2.59454
0.875043,0.0414184,2.445,2.5972
0.87684,0.0411304,2.428,2.58181
0.88472,0.0411304,2.428,2.58449
0.892601,0.0411304,2.428,2.5872
0.900482,0.0411304,2.428,2.58993
0.902002,0.0408424,2.411,2.57453
0.909828,0.0408424,2.411,2.57728
0.911183,0.0405544,2.394,2.56186
0.912428,0.0402665,2.377,2.54642
0.920143,0.0402665,2.377,2.5492
0.927858,0.0402665,2.377,2.55199
0.935573,0.0402665,2.377,2.55481
0.943288,0.0402665,2.377,2.55764
0.951003,0.0402665,2.377,2.5605
0.958719,0.0402665,2.377,2.56337
0.966434,0.0402665,2.377,2.56627
0.981116,0.0405544,2.394,2.58756
0.988886,0.0405544,2.394,2.59052
1.00373,0.0408424,2.411,2.61191
1.01156,0.0408424,2.411,2.61493
1.01938,0.0408424,2.411,2.61796
1.03445,0.0411304,2.428,2.6395
1.04963,0.0414184,2.445,2.6611
1.05757,0.0414184,2.445,2.66424
1.07335,0.0417233,2.463,2.68704
1.09715,0.0423331,2.499,2.72957
1.11322,0.0426381,2.517,2.75252
1.12139,0.0426381,2.517,2.75583
1.13809,0.0429599,2.536,2.78
1.1549,0.0432818,2.555,2.80423
1.1632,0.0432818,2.555,2.80766
1.1802,0.0436036,2.574,2.83201
1.19733,0.0439255,2.593,2.85643
1.20575,0.0439255,2.593,2.85997
1.22353,0.0442643,2.613,2.88561
1.24144,0.0446031,2.633,2.91133
1.25995,0.0449588,2.654,2.93823
1.26857,0.0449588,2.654,2.94194
1.28729,0.0453146,2.675,2.96897
1.29597,0.0453146,2.675,2.97275
1.30465,0.0453146,2.675,2.97654
1.32365,0.0456703,2.696,3.00375
1.34278,0.0460261,2.717,3.03105
1.35159,0.0460261,2.717,3.03497
1.37143,0.0463987,2.739,3.06351
1.3914,0.0467714,2.761,3.09214
1.40037,0.0467714,2.761,3.09618
1.4323,0.0475337,2.806,3.15077
1.46555,0.0483299,2.853,3.20777
1.49962,0.049143,2.901,3.26605
1.50904,0.049143,2.901,3.27038
1.54462,0.04999,2.951,3.33118
1.58159,0.0508709,3.003,3.39441
1.59134,0.0508709,3.003,3.39896
1.61548,0.0513283,3.03,3.43414
1.65428,0.0522431,3.084,3.50006
1.69505,0.0532086,3.141,3.56958
1.70524,0.0532086,3.141,3.57443
1.73128,0.0536999,3.17,3.61235
1.7575,0.0541912,3.199,3.65039
1.76788,0.0541912,3.199,3.6554
1.77827,0.0541912,3.199,3.66043
1.80598,0.0547163,3.23,3.70101
1.81647,0.0547163,3.23,3.70614
1.82695,0.0547163,3.23,3.71129
1.83743,0.0547163,3.23,3.71646
1.84792,0.0547163,3.23,3.72165
1.84056,0.0541912,3.199,3.6911
1.85095,0.0541912,3.199,3.69629
1.86133,0.0541912,3.199,3.7015
1.85475,0.0536999,3.17,3.67313
1.86504,0.0536999,3.17,3.67833
1.87532,0.0536999,3.17,3.68356
1.86836,0.0532086,3.141,3.65506
1.86121,0.0527174,3.112,3.62649
1.87131,0.0527174,3.112,3.63169
1.86449,0.0522431,3.084,3.60418
1.85809,0.0517857,3.057,3.57777
1.86801,0.0517857,3.057,3.58293
1.86134,0.0513283,3.03,3.55642
1.85451,0.0508709,3.003,3.52984
1.86425,0.0508709,3.003,3.53497
1.85777,0.0504305,2.977,3.50947
1.83545,0.0495665,2.926,3.45439
1.81405,0.0487365,2.877,3.40151
1.82338,0.0487365,2.877,3.4065
1.81743,0.0483299,2.853,3.38305
1.7966,0.0475337,2.806,3.33222
1.80571,0.0475337,2.806,3.33714
1.78571,0.0467714,2.761,3.28848
1.76607,0.0460261,2.717,3.24087
1.77489,0.0460261,2.717,3.24568
1.75614,0.0453146,2.675,3.20027
1.73711,0.0446031,2.633,3.15472
1.74566,0.0446031,2.633,3.15943
1.74088,0.0442643,2.613,3.14013
1.73597,0.0439255,2.593,3.12076
1.74439,0.0439255,2.593,3.12545
1.72711,0.0432818,2.555,3.08429
1.7225,0.0429599,2.536,3.06597
-1.93066,0.0561745,2.783,3.38758
-1.92163,0.0561745,2.783,3.38244
-1.91259,0.0561745,2.783,3.37731
-1.88851,0.0557304,2.761,3.34555
-1.87955,0.0557304,2.761,3.3405
-1.87059,0.0557304,2.761,3.33547
-1.84679,0.0552864,2.739,3.30391
-1.82314,0.0548423,2.717,3.27245
-1.81432,0.0548423,2.717,3.26755
-1.8055,0.0548423,2.717,3.26266
-1.7828,0.0544184,2.696,3.23261
-1.77405,0.0544184,2.696,3.22779
-1.7653,0.0544184,2.696,3.22299
-1.74286,0.0539945,2.675,3.19314
-1.72057,0.0535706,2.654,3.16337
-1.71195,0.0535706,2.654,3.1587
-1.68986,0.0531468,2.633,3.12908
-1.68132,0.0531468,2.633,3.12447
-1.67277,0.0531468,2.633,3.11988
-1.66422,0.0531468,2.633,3.11531
-1.66888,0.0535706,2.654,3.13556
-1.66027,0.0535706,2.654,3.13099
-1.66472,0.0539945,2.675,3.15117
-1.65604,0.0539945,2.675,3.14659
-1.67322,0.0548423,2.717,3.19136
-1.67788,0.0552864,2.739,3.21255
-1.66899,0.0552864,2.739,3.20791
-1.68677,0.0561745,2.783,3.25476
-1.70547,0.057103,2.829,3.3038
-1.69629,0.057103,2.829,3.29907
-1.6871,0.057103,2.829,3.29436
-1.67792,0.057103,2.829,3.28967
-1.66874,0.057103,2.829,3.28499
-1.65956,0.057103,2.829,3.28034
-1.65037,0.057103,2.829,3.2757
-1.64119,0.057103,2.829,3.27109
-1.60547,0.0561745,2.783,3.21338
-1.58382,0.0557304,2.761,3.18351
-1.57486,0.0557304,2.761,3.17906
-1.55342,0.0552864,2.739,3.14933
-1.52028,0.0544184,2.696,3.09558
-1.49976,0.0539945,2.675,3.06722
-1.49107,0.0539945,2.675,3.06298
-1.47075,0.0535706,2.654,3.03475
-1.46214,0.0535706,2.654,3.03058
-1.45353,0.0535706,2.654,3.02644
-1.43348,0.0531468,2.633,2.9984
-1.41411,0.0527431,2.613,2.97158
-1.40563,0.0527431,2.613,2.96755
-1.39715,0.0527431,2.613,2.96354
-1.37804,0.0523394,2.593,2.9369
-1.36962,0.0523394,2.593,2.93296
-1.3612,0.0523394,2.593,2.92904
-1.35279,0.0523394,2.593,2.92514
-1.35474,0.0527431,2.613,2.94379
-1.34626,0.0527431,2.613,2.93989
-1.32754,0.0523394,2.593,2.91355
-1.31912,0.0523394,2.593,2.90972
-1.31071,0.0523394,2.593,2.90592
-1.28321,0.0515723,2.555,2.8596
-1.26543,0.0511888,2.536,2.83465
-1.2572,0.0511888,2.536,2.83098
-1.23961,0.0508053,2.517,2.80616
-1.22264,0.050442,2.499,2.78251
-1.21453,0.050442,2.499,2.77896
-1.19772,0.0500787,2.481,2.75543
-1.18967,0.0500787,2.481,2.75194
-1.17305,0.0497153,2.463,2.72853
-1.16505,0.0497153,2.463,2.7251
-1.15706,0.0497153,2.463,2.72169
-1.14067,0.049352,2.445,2.69844
-1.13273,0.049352,2.445,2.6951
-1.11697,0.0490089,2.428,2.67305
-1.10909,0.0490089,2.428,2.66977
-1.10121,0.0490089,2.428,2.66651
-1.08568,0.0486657,2.411,2.64461
-1.07785,0.0486657,2.411,2.64141
-1.07003,0.0486657,2.411,2.63823
-1.0622,0.0486657,2.411,2.63506
-1.04694,0.0483226,2.394,2.61336
-1.03917,0.0483226,2.394,2.61026
-1.0314,0.0483226,2.394,2.60717
-1.02363,0.0483226,2.394,2.60411
-1.01586,0.0483226,2.394,2.60107
-1.00809,0.0483226,2.394,2.59804
-1.00032,0.0483226,2.394,2.59504
-0.9855,0.0479794,2.377,2.57364
-0.977785,0.0479794,2.377,2.5707
-0.970069,0.0479794,2.377,2.56777
-0.969237,0.0483226,2.394,2.58321
-0.961466,0.0483226,2.394,2.58031
-0.953696,0.0483226,2.394,2.57742
-0.945926,0.0483226,2.394,2.57456
-0.931494,0.0479794,2.377,2.55345
-0.923778,0.0479794,2.377,2.55065
-0.916063,0.0479794,2.377,2.54786
-0.908348,0.0479794,2.377,2.5451
-0.900633,0.0479794,2.377,2.54236
-0.892918,0.0479794,2.377,2.53963
-0.891534,0.0483226,2.394,2.55507
-0.883763,0.0483226,2.394,2.55237
-0.882213,0.0486657,2.411,2.5678
-0.874388,0.0486657,2.411,2.56512
-0.866562,0.0486657,2.411,2.56246
-0.864792,0.0490089,2.428,2.57788
-0.856911,0.0490089,2.428,2.57524
-0.84903,0.0490089,2.428,2.57263
-0.847039,0.049352,2.445,2.58804
-0.839103,0.049352,2.445,2.58545
-0.831167,0.049352,2.445,2.58289
-0.829292,0.0497153,2.463,2.59934
-0.821298,0.0497153,2.463,2.5968
-0.813304,0.0497153,2.463,2.59428
-0.805309,0.0497153,2.463,2.59179
-0.803142,0.0500787,2.481,2.60824
-0.795089,0.0500787,2.481,2.60577
-0.787037,0.0500787,2.481,2.60332
-0.778984,0.0500787,2.481,2.6009
-0.770931,0.0500787,2.481,2.5985
-0.768413,0.050442,2.499,2.61496
-0.760302,0.050442,2.499,2.61259
-0.752191,0.050442,2.499,2.61024
-0.74408,0.050442,2.499,2.60791
-0.735969,0.050442,2.499,2.60561
-0.727858,0.050442,2.499,2.60333
-0.719746,0.050442,2.499,2.60107
-0.711635,0.050442,2.499,2.59884
-0.703524,0.050442,2.499,2.59663
-0.695413,0.050442,2.499,2.59444
-0.687302,0.050442,2.499,2.59228
-0.679191,0.050442,2.499,2.59014
-0.67108,0.050442,2.499,2.58803
-0.662968,0.050442,2.499,2.58594
-0.654857,0.050442,2.499,2.58387
-0.646746,0.050442,2.499,2.58183
-0.638635,0.050442,2.499,2.57981
-0.630524,0.050442,2.499,2.57781
-0.622413,0.050442,2.499,2.57584
-0.614302,0.050442,2.499,2.57389
-0.606191,0.050442,2.499,2.57197
-0.598079,0.050442,2.499,2.57007
-0.589968,0.050442,2.499,2.56819
-0.581857,0.050442,2.499,2.56634
-0.573746,0.050442,2.499,2.56451
-0.561561,0.0500787,2.481,2.54425
-0.553508,0.0500787,2.481,2.54249
-0.545455,0.0500787,2.481,2.54075
-0.537403,0.0500787,2.481,2.53903
-0.52935,0.0500787,2.481,2.53734
-0.521297,0.0500787,2.481,2.53567
-0.513244,0.0500787,2.481,2.53403
-0.505192,0.0500787,2.481,2.53241
-0.497139,0.0500787,2.481,2.53081
-0.489086,0.0500787,2.481,2.52924
-0.481034,0.0500787,2.481,2.5277
-0.472981,0.0500787,2.481,2.52618
-0.464928,0.0500787,2.481,2.52468
-0.456875,0.0500787,2.481,2.52321
-0.448823,0.0500787,2.481,2.52177
-0.44077,0.0500787,2.481,2.52035
-0.432717,0.0500787,2.481,2.51895
-0.424665,0.0500787,2.481,2.51758
-0.416612,0.0500787,2.481,2.51623
-0.408559,0.0500787,2.481,2.51491
-0.400506,0.0500787,2.481,2.51362
-0.392454,0.0500787,2.481,2.51235
-0.38719,0.050442,2.499,2.52932
-0.379079,0.050442,2.499,2.52809
-0.370968,0.050442,2.499,2.52689
-0.362857,0.050442,2.499,2.52571
-0.354745,0.050442,2.499,2.52456
-0.346634,0.050442,2.499,2.52343
-0.338523,0.050442,2.499,2.52233
-0.332792,0.0508053,2.517,2.53941
-0.322301,0.050442,2.499,2.5202
-0.31419,0.050442,2.499,2.51918
-0.306079,0.050442,2.499,2.51818
-0.297967,0.050442,2.499,2.51721
-0.289856,0.050442,2.499,2.51626
-0.281745,0.050442,2.499,2.51534
-0.273634,0.050442,2.499,2.51444
-0.265523,0.050442,2.499,2.51357
-0.257412,0.050442,2.499,2.51273
-0.249301,0.050442,2.499,2.51191
-0.239452,0.0500787,2.481,2.49303
-0.2314,0.0500787,2.481,2.49227
-0.223347,0.0500787,2.481,2.49154
-0.215294,0.0500787,2.481,2.49083
-0.207241,0.0500787,2.481,2.49014
-0.199189,0.0500787,2.481,2.48949
-0.189749,0.0497153,2.463,2.4708
-0.181755,0.0497153,2.463,2.4702
-0.173761,0.0497153,2.463,2.46962
-0.165766,0.0497153,2.463,2.46907
-0.157772,0.0497153,2.463,2.46855
-0.149778,0.0497153,2.463,2.46805
-0.141784,0.0497153,2.463,2.46758
-0.133789,0.0497153,2.463,2.46713
-0.125795,0.0497153,2.463,2.46671
-0.117801,0.0497153,2.463,2.46632
-0.109806,0.0497153,2.463,2.46595
-0.101812,0.0497153,2.463,2.4656
-0.0938178,0.0497153,2.463,2.46529
-0.0858236,0.0497153,2.463,2.465
-0.0778293,0.0497153,2.463,2.46473
-0.0703453,0.0500787,2.481,2.4825
-0.0622926,0.0500787,2.481,2.48229
-0.0542399,0.0500787,2.481,2.4821
-0.0461872,0.0500787,2.481,2.48194
-0.0381345,0.0500787,2.481,2.4818
-0.0300818,0.0500787,2.481,2.48169
-0.0220291,0.0500787,2.481,2.4816
-0.0139764,0.0500787,2.481,2.48154
-0.00592366,0.0500787,2.481,2.48151
0.00212905,0.0500787,2.481,2.48151
0.0101079,0.0497153,2.463,2.46352
0.0181022,0.0497153,2.463,2.46357
0.0260965,0.0497153,2.463,2.46364
0.0340907,0.0497153,2.463,2.46374
0.042085,0.0497153,2.463,2.46386
0.0497133,0.049352,2.445,2.446
0.0576492,0.049352,2.445,2.44618
0.0660679,0.0497153,2.463,2.46439
0.0740622,0.0497153,2.463,2.46461
0.0820565,0.0497153,2.463,2.46487
0.0900507,0.0497153,2.463,2.46515
0.098045,0.0497153,2.463,2.46545
0.106039,0.0497153,2.463,2.46578
0.114034,0.0497153,2.463,2.46614
0.12292,0.0500787,2.481,2.48455
0.130972,0.0500787,2.481,2.48496
0.139025,0.0500787,2.481,2.4854
0.148145,0.050442,2.499,2.5039
0.156256,0.050442,2.499,2.50439
0.164367,0.050442,2.499,2.50491
0.172478,0.050442,2.499,2.50545
0.180589,0.050442,2.499,2.50602
0.19006,0.0508053,2.517,2.52468
0.198229,0.0508053,2.517,2.52531
0.206399,0.0508053,2.517,2.52596
0.214568,0.0508053,2.517,2.52664
0.222738,0.0508053,2.517,2.52735
0.230908,0.0508053,2.517,2.52808
0.239077,0.0508053,2.517,2.52884
0.245479,0.050442,2.499,2.51153
0.25359,0.050442,2.499,2.51234
0.259816,0.0500787,2.481,2.49507
0.267868,0.0500787,2.481,2.49592
0.275921,0.0500787,2.481,2.4968
0.281914,0.0497153,2.463,2.47958
0.289908,0.0497153,2.463,2.4805
0.295725,0.049352,2.445,2.46331
0.303661,0.049352,2.445,2.46428
0.30943,0.0490089,2.428,2.44813
0.315089,0.0486657,2.411,2.43199
0.322915,0.0486657,2.411,2.43302
0.33074,0.0486657,2.411,2.43407
0.338566,0.0486657,2.411,2.43514
0.346391,0.0486657,2.411,2.43624
0.351719,0.0483226,2.394,2.42018
0.35949,0.0483226,2.394,2.42132
0.36726,0.0483226,2.394,2.42249
0.37503,0.0483226,2.394,2.42368
0.382801,0.0483226,2.394,2.42489
0.390571,0.0483226,2.394,2.42613
