0.676647,-0.323528,2.445,2.55745
0.684582,-0.323528,2.445,2.55956
0.692518,-0.323528,2.445,2.56169
0.705611,-0.32591,2.463,2.58273
0.713605,-0.32591,2.463,2.58492
0.716326,-0.323528,2.445,2.56823
0.724262,-0.323528,2.445,2.57046
0.737588,-0.32591,2.463,2.59164
0.745582,-0.32591,2.463,2.59393
0.753577,-0.32591,2.463,2.59624
0.761571,-0.32591,2.463,2.59857
0.769565,-0.32591,2.463,2.60093
0.777559,-0.32591,2.463,2.6033
0.785554,-0.32591,2.463,2.6057
0.793548,-0.32591,2.463,2.60812
0.801542,-0.32591,2.463,2.61057
0.809537,-0.32591,2.463,2.61303
0.817531,-0.32591,2.463,2.61552
0.825525,-0.32591,2.463,2.61803
0.833519,-0.32591,2.463,2.62056
0.841514,-0.32591,2.463,2.62311
0.8433,-0.323528,2.445,2.6065
0.851236,-0.323528,2.445,2.60908
0.859171,-0.323528,2.445,2.61168
0.867107,-0.323528,2.445,2.6143
0.868959,-0.321279,2.428,2.59875
0.87684,-0.321279,2.428,2.60139
0.88472,-0.321279,2.428,2.60406
0.892601,-0.321279,2.428,2.60675
0.900482,-0.321279,2.428,2.60946
0.908362,-0.321279,2.428,2.61219
0.909828,-0.319029,2.411,2.59663
0.917653,-0.319029,2.411,2.59938
0.925479,-0.319029,2.411,2.60216
0.933304,-0.319029,2.411,2.60495
0.94113,-0.319029,2.411,2.60776
0.948955,-0.319029,2.411,2.6106
0.956781,-0.319029,2.411,2.61345
0.964606,-0.319029,2.411,2.61633
0.972432,-0.319029,2.411,2.61922
0.980257,-0.319029,2.411,2.62214
0.988083,-0.319029,2.411,2.62507
0.995908,-0.319029,2.411,2.62803
1.00373,-0.319029,2.411,2.631
1.01156,-0.319029,2.411,2.634
nan,nan,nan,NaN
nan,nan,nan,NaN
nan,nan,nan,NaN
nan,nan,nan,NaN
nan,nan,nan,NaN
nan,nan,nan,NaN
nan,nan,nan,NaN
nan,nan,nan,NaN
nan,nan,nan,NaN
nan,nan,nan,NaN
nan,nan,nan,NaN
1.45347,-0.419462,3.17,3.51247
1.46376,-0.419462,3.17,3.51674
1.47405,-0.419462,3.17,3.52103
1.49792,-0.4233,3.199,3.5576
1.52292,-0.427402,3.23,3.59651
1.54765,-0.431371,3.26,3.6344
1.55823,-0.431371,3.26,3.63892
1.58421,-0.435606,3.292,3.67923
1.6104,-0.43984,3.324,3.71965
1.62118,-0.43984,3.324,3.72434
1.63197,-0.43984,3.324,3.72904
1.64276,-0.43984,3.324,3.73378
1.65355,-0.43984,3.324,3.73854
1.66434,-0.43984,3.324,3.74332
1.67513,-0.43984,3.324,3.74813
1.63824,-0.427402,3.23,3.64684
1.64872,-0.427402,3.23,3.65156
1.67462,-0.431371,3.26,3.69026
1.6852,-0.431371,3.26,3.69508
1.69578,-0.431371,3.26,3.69991
1.72311,-0.435606,3.292,3.74114
1.75065,-0.43984,3.324,3.78249
1.76144,-0.43984,3.324,3.78749
1.78929,-0.444074,3.356,3.82903
1.83612,-0.45294,3.423,3.91068
1.84723,-0.45294,3.423,3.91591
1.87734,-0.457571,3.458,3.96126
1.90768,-0.462202,3.493,4.00674
1.9388,-0.466966,3.529,4.0535
1.95025,-0.466966,3.529,4.05899
1.98227,-0.471862,3.566,4.10712
2.0151,-0.47689,3.604,4.15654
2.02679,-0.47689,3.604,4.16223
2.03849,-0.47689,3.604,4.16794
2.07181,-0.481918,3.642,4.21768
2.08363,-0.481918,3.642,4.2235
2.07358,-0.47689,3.604,4.18521
2.08528,-0.47689,3.604,4.19102
2.09698,-0.47689,3.604,4.19685
2.08644,-0.471862,3.566,4.1584
2.07625,-0.466966,3.529,4.12101
2.0877,-0.466966,3.529,4.12679
2.07774,-0.462202,3.493,4.09044
2.06815,-0.457571,3.458,4.05517
2.07937,-0.457571,3.458,4.0609
2.04888,-0.448441,3.389,3.98552
2.03982,-0.444074,3.356,3.95232
2.05072,-0.444074,3.356,3.95795
2.02229,-0.435606,3.292,3.88802
1.99469,-0.427402,3.23,3.82026
2.00517,-0.427402,3.23,3.82574
1.97821,-0.419462,3.17,3.76008
1.93456,-0.408082,3.084,3.66335
1.94457,-0.408082,3.084,3.66864
1.92035,-0.400937,3.03,3.60963
1.89642,-0.393924,2.977,3.55164
1.90609,-0.393924,2.977,3.55681
1.88293,-0.387176,2.926,3.50097
1.86074,-0.380692,2.877,3.44738
1.87007,-0.380692,2.877,3.45242
1.84806,-0.37434,2.829,3.39981
1.82704,-0.368253,2.783,3.34944
1.82156,-0.365342,2.761,3.32786
1.83052,-0.365342,2.761,3.33278
1.82482,-0.362431,2.739,3.31111
1.83371,-0.362431,2.739,3.31602
1.8426,-0.362431,2.739,3.32094
1.83662,-0.35952,2.717,3.29917
1.84544,-0.35952,2.717,3.30409
-2.44818,-0.455515,3.529,4.31914
-2.41187,-0.450868,3.493,4.26866
-2.40053,-0.450868,3.493,4.26226
-2.36526,-0.44635,3.458,4.21324
-2.35403,-0.44635,3.458,4.20695
-2.34281,-0.44635,3.458,4.20068
-2.30799,-0.441833,3.423,4.15198
-2.27406,-0.437444,3.389,4.10464
-2.26306,-0.437444,3.389,4.09855
-2.25206,-0.437444,3.389,4.09249
-2.21924,-0.433184,3.356,4.04665
-2.20835,-0.433184,3.356,4.04069
-2.21906,-0.437444,3.389,4.07442
-2.18656,-0.433184,3.356,4.02883
-2.17567,-0.433184,3.356,4.02292
-2.18606,-0.437444,3.389,4.05654
-2.17506,-0.437444,3.389,4.05063
-2.16406,-0.437444,3.389,4.04473
-2.15306,-0.437444,3.389,4.03886
-2.14206,-0.437444,3.389,4.033
-2.13106,-0.437444,3.389,4.02717
-2.12006,-0.437444,3.389,4.02136
-2.10906,-0.437444,3.389,4.01557
-2.09806,-0.437444,3.389,4.00981
-2.06674,-0.433184,3.356,3.96507
-2.05585,-0.433184,3.356,3.95941
-2.04496,-0.433184,3.356,3.95376
-2.03406,-0.433184,3.356,3.94814
-2.02317,-0.433184,3.356,3.94254
-2.01228,-0.433184,3.356,3.93696
-2.00138,-0.433184,3.356,3.9314
nan,nan,nan,NaN
nan,nan,nan,NaN
nan,nan,nan,NaN
nan,nan,nan,NaN
nan,nan,nan,NaN
nan,nan,nan,NaN
nan,nan,nan,NaN
nan,nan,nan,NaN
nan,nan,nan,NaN
nan,nan,nan,NaN
nan,nan,nan,NaN
nan,nan,nan,NaN
nan,nan,nan,NaN
nan,nan,nan,NaN
nan,nan,nan,NaN
nan,nan,nan,NaN
nan,nan,nan,NaN
nan,nan,nan,NaN
nan,nan,nan,NaN
nan,nan,nan,NaN
nan,nan,nan,NaN
nan,nan,nan,NaN
nan,nan,nan,NaN
nan,nan,nan,NaN
nan,nan,nan,NaN
nan,nan,nan,NaN
nan,nan,nan,NaN
nan,nan,nan,NaN
nan,nan,nan,NaN
nan,nan,nan,NaN
nan,nan,nan,NaN
-1.17904,-0.309012,2.394,2.68642
-1.17127,-0.309012,2.394,2.68302
-1.1635,-0.309012,2.394,2.67964
-1.15572,-0.309012,2.394,2.67627
-1.14795,-0.309012,2.394,2.67292
-1.14018,-0.309012,2.394,2.6696
-1.13241,-0.309012,2.394,2.66629
-1.11666,-0.306818,2.377,2.64409
-1.10894,-0.306818,2.377,2.64084
-1.10123,-0.306818,2.377,2.63761
-1.09351,-0.306818,2.377,2.63439
-1.0858,-0.306818,2.377,2.6312
-1.07808,-0.306818,2.377,2.62803
-1.07037,-0.306818,2.377,2.62487
-1.06265,-0.306818,2.377,2.62173
-1.04784,-0.304752,2.361,2.60099
-1.04017,-0.304752,2.361,2.59791
-1.02551,-0.302687,2.345,2.57727
-1.0179,-0.302687,2.345,2.57425
-1.01029,-0.302687,2.345,2.57125
-1.00268,-0.302687,2.345,2.56827
-0.995066,-0.302687,2.345,2.56531
-0.987455,-0.302687,2.345,2.56236
-0.979844,-0.302687,2.345,2.55944
-0.972232,-0.302687,2.345,2.55654
-0.964621,-0.302687,2.345,2.55365
-0.95701,-0.302687,2.345,2.55079
-0.949399,-0.302687,2.345,2.54794
-0.941787,-0.302687,2.345,2.54511
-0.934176,-0.302687,2.345,2.54231
-0.932887,-0.304752,2.361,2.55685
-0.925224,-0.304752,2.361,2.55406
-0.91756,-0.304752,2.361,2.5513
-0.909897,-0.304752,2.361,2.54855
-0.902234,-0.304752,2.361,2.54582
-0.894571,-0.304752,2.361,2.54312
-0.886907,-0.304752,2.361,2.54043
-0.879244,-0.304752,2.361,2.53777
-0.871581,-0.304752,2.361,2.53512
-0.863918,-0.304752,2.361,2.5325
-0.862057,-0.306818,2.377,2.54704
-0.854342,-0.306818,2.377,2.54444
-0.846627,-0.306818,2.377,2.54186
-0.838912,-0.306818,2.377,2.5393
-0.831197,-0.306818,2.377,2.53676
-0.823481,-0.306818,2.377,2.53424
-0.821601,-0.309012,2.394,2.54985
-0.81383,-0.309012,2.394,2.54736
-0.80606,-0.309012,2.394,2.54489
-0.79829,-0.309012,2.394,2.54244
-0.790519,-0.309012,2.394,2.54001
-0.782749,-0.309012,2.394,2.5376
-0.774979,-0.309012,2.394,2.53522
-0.767208,-0.309012,2.394,2.53285
-0.759438,-0.309012,2.394,2.53051
-0.751668,-0.309012,2.394,2.52819
-0.743897,-0.309012,2.394,2.52589
-0.736127,-0.309012,2.394,2.52361
-0.728357,-0.309012,2.394,2.52135
-0.720586,-0.309012,2.394,2.51912
-0.712816,-0.309012,2.394,2.51691
-0.705046,-0.309012,2.394,2.51472
-0.697275,-0.309012,2.394,2.51255
-0.689505,-0.309012,2.394,2.51041
-0.686576,-0.311206,2.411,2.5261
-0.67875,-0.311206,2.411,2.52398
-0.670925,-0.311206,2.411,2.52189
-0.663099,-0.311206,2.411,2.51982
-0.655274,-0.311206,2.411,2.51777
-0.647448,-0.311206,2.411,2.51574
-0.644133,-0.3134,2.428,2.53146
-0.636252,-0.3134,2.428,2.52947
-0.628371,-0.3134,2.428,2.5275
-0.620491,-0.3134,2.428,2.52555
-0.61261,-0.3134,2.428,2.52363
-0.604729,-0.3134,2.428,2.52173
-0.596848,-0.3134,2.428,2.51985
-0.588968,-0.3134,2.428,2.51799
-0.581087,-0.3134,2.428,2.51616
-0.573206,-0.3134,2.428,2.51435
-0.569284,-0.315595,2.445,2.53016
-0.561348,-0.315595,2.445,2.52839
-0.553412,-0.315595,2.445,2.52664
-0.545476,-0.315595,2.445,2.52491
-0.53754,-0.315595,2.445,2.52321
-0.529605,-0.315595,2.445,2.52153
-0.521669,-0.315595,2.445,2.51987
-0.517515,-0.317918,2.463,2.53678
-0.509521,-0.317918,2.463,2.53516
-0.501526,-0.317918,2.463,2.53357
-0.493532,-0.317918,2.463,2.532
-0.485538,-0.317918,2.463,2.53045
-0.477544,-0.317918,2.463,2.52893
-0.469549,-0.317918,2.463,2.52743
-0.461555,-0.317918,2.463,2.52596
-0.453561,-0.317918,2.463,2.52451
-0.445566,-0.317918,2.463,2.52309
-0.437572,-0.317918,2.463,2.52169
-0.429578,-0.317918,2.463,2.52031
-0.421584,-0.317918,2.463,2.51896
-0.413589,-0.317918,2.463,2.51764
-0.405595,-0.317918,2.463,2.51634
-0.397601,-0.317918,2.463,2.51506
-0.389606,-0.317918,2.463,2.51381
-0.381612,-0.317918,2.463,2.51258
-0.373618,-0.317918,2.463,2.51138
-0.362952,-0.315595,2.445,2.49186
-0.355016,-0.315595,2.445,2.49072
-0.34708,-0.315595,2.445,2.4896
-0.339144,-0.315595,2.445,2.4885
-0.331208,-0.315595,2.445,2.48743
-0.323272,-0.315595,2.445,2.48639
-0.315336,-0.315595,2.445,2.48537
-0.3074,-0.315595,2.445,2.48438
-0.299465,-0.315595,2.445,2.48341
-0.291529,-0.315595,2.445,2.48246
-0.283593,-0.315595,2.445,2.48154
-0.275657,-0.315595,2.445,2.48065
-0.267721,-0.315595,2.445,2.47978
-0.259785,-0.315595,2.445,2.47893
-0.251849,-0.315595,2.445,2.47812
-0.242218,-0.3134,2.428,2.4601
-0.234337,-0.3134,2.428,2.45933
-0.226456,-0.3134,2.428,2.45859
-0.218576,-0.3134,2.428,2.45788
-0.210695,-0.3134,2.428,2.45719
-0.202814,-0.3134,2.428,2.45653
-0.194934,-0.3134,2.428,2.45589
-0.187053,-0.3134,2.428,2.45528
-0.179172,-0.3134,2.428,2.45469
-0.171292,-0.3134,2.428,2.45413
-0.163411,-0.3134,2.428,2.45359
-0.15553,-0.3134,2.428,2.45308
-0.147649,-0.3134,2.428,2.45259
-0.139769,-0.3134,2.428,2.45213
-0.131888,-0.3134,2.428,2.45169
-0.124007,-0.3134,2.428,2.45128
-0.116127,-0.3134,2.428,2.4509
-0.108246,-0.3134,2.428,2.45054
-0.100365,-0.3134,2.428,2.4502
-0.0924847,-0.3134,2.428,2.44989
-0.084604,-0.3134,2.428,2.4496
-0.0767233,-0.3134,2.428,2.44935
-0.0688426,-0.3134,2.428,2.44911
-0.0609619,-0.3134,2.428,2.4489
-0.0530812,-0.3134,2.428,2.44872
-0.0452005,-0.3134,2.428,2.44856
-0.0373199,-0.3134,2.428,2.44843
-0.0294392,-0.3134,2.428,2.44832
-0.0215585,-0.3134,2.428,2.44824
-0.0136778,-0.3134,2.428,2.44818
-0.00579712,-0.3134,2.428,2.44815
0.00208357,-0.3134,2.428,2.44814
0.00996425,-0.3134,2.428,2.44816
0.0178449,-0.3134,2.428,2.44821
0.0255455,-0.311206,2.411,2.43114
0.033371,-0.311206,2.411,2.43123
0.0411965,-0.311206,2.411,2.43135
0.049022,-0.311206,2.411,2.4315
0.0568475,-0.311206,2.411,2.43167
0.064673,-0.311206,2.411,2.43186
0.0724985,-0.311206,2.411,2.43208
0.0803241,-0.311206,2.411,2.43233
0.0881496,-0.311206,2.411,2.4326
0.0959751,-0.311206,2.411,2.4329
0.104532,-0.3134,2.428,2.45037
0.112413,-0.3134,2.428,2.45072
0.120294,-0.3134,2.428,2.4511
0.128175,-0.3134,2.428,2.4515
0.136055,-0.3134,2.428,2.45192
0.143936,-0.3134,2.428,2.45237
0.151817,-0.3134,2.428,2.45285
0.160815,-0.315595,2.445,2.47052
0.168751,-0.315595,2.445,2.47105
0.176687,-0.315595,2.445,2.47161
0.185982,-0.317918,2.463,2.49039
0.193976,-0.317918,2.463,2.491
0.201971,-0.317918,2.463,2.49163
0.209965,-0.317918,2.463,2.49229
0.219552,-0.320242,2.481,2.5112
0.227605,-0.320242,2.481,2.51192
0.235658,-0.320242,2.481,2.51266
0.24371,-0.320242,2.481,2.51343
0.251763,-0.320242,2.481,2.51422
0.259816,-0.320242,2.481,2.51504
0.267868,-0.320242,2.481,2.51588
0.277923,-0.322565,2.499,2.53501
0.286034,-0.322565,2.499,2.53591
0.294145,-0.322565,2.499,2.53684
0.302256,-0.322565,2.499,2.5378
0.310368,-0.322565,2.499,2.53877
0.316185,-0.320242,2.481,2.52149
0.324237,-0.320242,2.481,2.52251
0.33229,-0.320242,2.481,2.52356
0.340343,-0.320242,2.481,2.52463
0.348396,-0.320242,2.481,2.52573
0.356448,-0.320242,2.481,2.52685
0.364501,-0.320242,2.481,2.528
0.372554,-0.320242,2.481,2.52917
0.380606,-0.320242,2.481,2.53037
0.388659,-0.320242,2.481,2.53159
0.396712,-0.320242,2.481,2.53284
0.404765,-0.320242,2.481,2.53412
0.412817,-0.320242,2.481,2.53542
0.42087,-0.320242,2.481,2.53674
0.428923,-0.320242,2.481,2.53809
0.436975,-0.320242,2.481,2.53946
0.445028,-0.320242,2.481,2.54086
0.449794,-0.317918,2.463,2.52384
0.457788,-0.317918,2.463,2.52527
0.465782,-0.317918,2.463,2.52674
0.473776,-0.317918,2.463,2.52822
0.481771,-0.317918,2.463,2.52973
0.489765,-0.317918,2.463,2.53127
0.497759,-0.317918,2.463,2.53283
0.505754,-0.317918,2.463,2.53441
0.513748,-0.317918,2.463,2.53602
0.517929,-0.315595,2.445,2.5191
0.525865,-0.315595,2.445,2.52075
0.533801,-0.315595,2.445,2.52241
0.541737,-0.315595,2.445,2.5241
0.549673,-0.315595,2.445,2.52582
0.557609,-0.315595,2.445,2.52756
0.565544,-0.315595,2.445,2.52932
0.57348,-0.315595,2.445,2.53111
0.581416,-0.315595,2.445,2.53292
0.589352,-0.315595,2.445,2.53475
0.593135,-0.3134,2.428,2.51897
0.601016,-0.3134,2.428,2.52084
0.608896,-0.3134,2.428,2.52273
0.621095,-0.315595,2.445,2.54232
0.629031,-0.315595,2.445,2.54427
0.636967,-0.315595,2.445,2.54624
0.644903,-0.315595,2.445,2.54824
0.652839,-0.315595,2.445,2.55026
0.660775,-0.315595,2.445,2.5523
0.668711,-0.315595,2.445,2.55437
0.676647,-0.315595,2.445,2.55646
0.684582,-0.315595,2.445,2.55857
0.692518,-0.315595,2.445,2.5607
0.705611,-0.317918,2.463,2.58173
0.713605,-0.317918,2.463,2.58393
0.721599,-0.317918,2.463,2.58615
0.729594,-0.317918,2.463,2.58839
0.737588,-0.317918,2.463,2.59065
0.745582,-0.317918,2.463,2.59294
0.753577,-0.317918,2.463,2.59525
0.761571,-0.317918,2.463,2.59758
0.769565,-0.317918,2.463,2.59994
0.777559,-0.317918,2.463,2.60231
0.785554,-0.317918,2.463,2.60471
0.793548,-0.317918,2.463,2.60714
0.801542,-0.317918,2.463,2.60958
0.809537,-0.317918,2.463,2.61205
0.817531,-0.317918,2.463,2.61454
0.825525,-0.317918,2.463,2.61705
0.827428,-0.315595,2.445,2.60044
0.835364,-0.315595,2.445,2.60297
0.8433,-0.315595,2.445,2.60553
0.845317,-0.3134,2.428,2.58997
0.853198,-0.3134,2.428,2.59256
0.861078,-0.3134,2.428,2.59516
0.868959,-0.3134,2.428,2.59779
0.87684,-0.3134,2.428,2.60043
0.88472,-0.3134,2.428,2.6031
0.886351,-0.311206,2.411,2.58754
0.894177,-0.311206,2.411,2.59024
0.902002,-0.311206,2.411,2.59295
0.909828,-0.311206,2.411,2.59568
0.917653,-0.311206,2.411,2.59843
0.925479,-0.311206,2.411,2.60121
0.933304,-0.311206,2.411,2.604
0.94113,-0.311206,2.411,2.60682
0.948955,-0.311206,2.411,2.60965
0.956781,-0.311206,2.411,2.61251
0.964606,-0.311206,2.411,2.61538
0.965575,-0.309012,2.394,2.59982
0.973346,-0.309012,2.394,2.60272
0.981116,-0.309012,2.394,2.60563
0.988886,-0.309012,2.394,2.60857
1.00373,-0.311206,2.411,2.63007
1.01156,-0.311206,2.411,2.63306
nan,nan,nan,NaN
nan,nan,nan,NaN
nan,nan,nan,NaN
nan,nan,nan,NaN
nan,nan,nan,NaN
nan,nan,nan,NaN
nan,nan,nan,NaN
nan,nan,nan,NaN
nan,nan,nan,NaN
nan,nan,nan,NaN
nan,nan,nan,NaN
1.45347,-0.409176,3.17,3.51126
1.46376,-0.409176,3.17,3.51553
1.47405,-0.409176,3.17,3.51982
1.49792,-0.412919,3.199,3.55638
1.52292,-0.416921,3.23,3.59528
1.54765,-0.420793,3.26,3.63316
1.55823,-0.420793,3.26,3.63768
1.58421,-0.424924,3.292,3.67798
1.6104,-0.429054,3.324,3.71839
1.62118,-0.429054,3.324,3.72308
1.63197,-0.429054,3.324,3.72779
1.64276,-0.429054,3.324,3.73252
1.65355,-0.429054,3.324,3.73728
1.66434,-0.429054,3.324,3.74207
1.67513,-0.429054,3.324,3.74688
1.68592,-0.429054,3.324,3.75172
1.69671,-0.429054,3.324,3.75658
1.7075,-0.429054,3.324,3.76146
1.71828,-0.429054,3.324,3.76637
1.72907,-0.429054,3.324,3.77131
1.73986,-0.429054,3.324,3.77627
1.7675,-0.433184,3.356,3.81765
1.7784,-0.433184,3.356,3.82271
1.80688,-0.437444,3.389,3.86542
1.83612,-0.441833,3.423,3.90941
1.84723,-0.441833,3.423,3.91464
1.87734,-0.44635,3.458,3.95998
1.90768,-0.450868,3.493,4.00544
1.9388,-0.455515,3.529,4.05219
1.95025,-0.455515,3.529,4.05769
1.98227,-0.460291,3.566,4.1058
2.0151,-0.465196,3.604,4.15522
2.02679,-0.465196,3.604,4.1609
2.05998,-0.470101,3.642,4.21055
2.07181,-0.470101,3.642,4.21634
2.08363,-0.470101,3.642,4.22216
2.09545,-0.470101,3.642,4.22801
2.10727,-0.470101,3.642,4.23388
2.09698,-0.465196,3.604,4.19554
2.10868,-0.465196,3.604,4.2014
2.09802,-0.460291,3.566,4.16292
2.10959,-0.460291,3.566,4.16877
2.09916,-0.455515,3.529,4.13132
2.06815,-0.44635,3.458,4.05392
2.07937,-0.44635,3.458,4.05965
2.06944,-0.441833,3.423,4.02427
2.03982,-0.433184,3.356,3.95111
2.05072,-0.433184,3.356,3.95674
2.02229,-0.424924,3.292,3.88684
2.01322,-0.420793,3.26,3.85457
2.0238,-0.420793,3.26,3.86011
1.97821,-0.409176,3.17,3.75894
1.95212,-0.40169,3.112,3.69549
1.96222,-0.40169,3.112,3.70084
1.92035,-0.391105,3.03,3.60855
1.89642,-0.384264,2.977,3.55058
1.90609,-0.384264,2.977,3.55575
1.88293,-0.377681,2.926,3.49994
1.86074,-0.371356,2.877,3.44636
1.87007,-0.371356,2.877,3.45141
1.86373,-0.368258,2.853,3.42764
1.84214,-0.362192,2.806,3.37614
1.83607,-0.359223,2.783,3.3534
1.84511,-0.359223,2.783,3.35835
1.83948,-0.356383,2.761,3.33674
1.83371,-0.353544,2.739,3.31506
1.8426,-0.353544,2.739,3.31999
1.83662,-0.350704,2.717,3.29822
1.83118,-0.347993,2.696,3.27761
-2.44818,-0.444064,3.529,4.31794
-2.41187,-0.439534,3.493,4.26748
-2.40053,-0.439534,3.493,4.26108
-2.36526,-0.43513,3.458,4.21207
-2.35403,-0.43513,3.458,4.20578
-2.34281,-0.43513,3.458,4.19951
-2.30799,-0.430726,3.423,4.15081
-2.27406,-0.426447,3.389,4.10348
-2.26306,-0.426447,3.389,4.09739
-2.25206,-0.426447,3.389,4.09133
-2.21924,-0.422295,3.356,4.0455
-2.20835,-0.422295,3.356,4.03954
-2.21906,-0.426447,3.389,4.07326
-2.18656,-0.422295,3.356,4.02767
-2.17567,-0.422295,3.356,4.02177
-2.18606,-0.426447,3.389,4.05537
-2.17506,-0.426447,3.389,4.04945
-2.16406,-0.426447,3.389,4.04356
-2.15306,-0.426447,3.389,4.03768
-2.14206,-0.426447,3.389,4.03183
-2.13106,-0.426447,3.389,4.02599
-2.12006,-0.426447,3.389,4.02018
-2.10906,-0.426447,3.389,4.01439
-2.09806,-0.426447,3.389,4.00862
-2.06674,-0.422295,3.356,3.9639
-2.05585,-0.422295,3.356,3.95823
-2.04496,-0.422295,3.356,3.95258
-2.03406,-0.422295,3.356,3.94696
-2.02317,-0.422295,3.356,3.94136
-2.01228,-0.422295,3.356,3.93578
-2.00138,-0.422295,3.356,3.93022
nan,nan,nan,NaN
nan,nan,nan,NaN
nan,nan,nan,NaN
nan,nan,nan,NaN
nan,nan,nan,NaN
nan,nan,nan,NaN
nan,nan,nan,NaN
nan,nan,nan,NaN
nan,nan,nan,NaN
nan,nan,nan,NaN
nan,nan,nan,NaN
nan,nan,nan,NaN
nan,nan,nan,NaN
nan,nan,nan,NaN
nan,nan,nan,NaN
nan,nan,nan,NaN
nan,nan,nan,NaN
nan,nan,nan,NaN
nan,nan,nan,NaN
nan,nan,nan,NaN
nan,nan,nan,NaN
nan,nan,nan,NaN
nan,nan,nan,NaN
nan,nan,nan,NaN
nan,nan,nan,NaN
nan,nan,nan,NaN
nan,nan,nan,NaN
nan,nan,nan,NaN
nan,nan,nan,NaN
nan,nan,nan,NaN
nan,nan,nan,NaN
-1.17904,-0.301244,2.394,2.68554
-1.17127,-0.301244,2.394,2.68213
-1.1635,-0.301244,2.394,2.67875
-1.15572,-0.301244,2.394,2.67538
-1.14795,-0.301244,2.394,2.67204
-1.14018,-0.301244,2.394,2.66871
-1.12437,-0.299105,2.377,2.64647
-1.11666,-0.299105,2.377,2.6432
-1.10894,-0.299105,2.377,2.63995
-1.10123,-0.299105,2.377,2.63672
-1.09351,-0.299105,2.377,2.63351
-1.0858,-0.299105,2.377,2.63031
-1.07808,-0.299105,2.377,2.62714
-1.07037,-0.299105,2.377,2.62398
-1.06265,-0.299105,2.377,2.62084
-1.04784,-0.297091,2.361,2.6001
-1.04017,-0.297091,2.361,2.59703
-1.02551,-0.295078,2.345,2.57639
-1.0179,-0.295078,2.345,2.57337
-1.01029,-0.295078,2.345,2.57037
-1.00268,-0.295078,2.345,2.56738
-0.995066,-0.295078,2.345,2.56442
-0.987455,-0.295078,2.345,2.56148
-0.979844,-0.295078,2.345,2.55855
-0.972232,-0.295078,2.345,2.55565
-0.964621,-0.295078,2.345,2.55276
-0.95701,-0.295078,2.345,2.5499
-0.949399,-0.295078,2.345,2.54705
-0.941787,-0.295078,2.345,2.54422
-0.934176,-0.295078,2.345,2.54141
-0.926565,-0.295078,2.345,2.53863
-0.925224,-0.297091,2.361,2.55316
-0.91756,-0.297091,2.361,2.55039
-0.909897,-0.297091,2.361,2.54765
-0.902234,-0.297091,2.361,2.54492
-0.888508,-0.295078,2.345,2.52498
-0.880897,-0.295078,2.345,2.52232
-0.879244,-0.297091,2.361,2.53686
-0.871581,-0.297091,2.361,2.53421
-0.863918,-0.297091,2.361,2.53159
-0.856255,-0.297091,2.361,2.52898
-0.854342,-0.299105,2.377,2.54352
-0.846627,-0.299105,2.377,2.54094
-0.838912,-0.299105,2.377,2.53838
-0.831197,-0.299105,2.377,2.53584
-0.823481,-0.299105,2.377,2.53332
-0.815766,-0.299105,2.377,2.53082
-0.808051,-0.299105,2.377,2.52835
-0.800336,-0.299105,2.377,2.52589
-0.79829,-0.301244,2.394,2.54151
-0.784906,-0.299105,2.377,2.52105
-0.777191,-0.299105,2.377,2.51865
-0.769475,-0.299105,2.377,2.51628
-0.76176,-0.299105,2.377,2.51394
-0.754045,-0.299105,2.377,2.51161
-0.74633,-0.299105,2.377,2.5093
-0.738615,-0.299105,2.377,2.50702
-0.736127,-0.301244,2.394,2.52267
-0.728357,-0.301244,2.394,2.52041
-0.720586,-0.301244,2.394,2.51818
-0.712816,-0.301244,2.394,2.51597
-0.705046,-0.301244,2.394,2.51378
-0.697275,-0.301244,2.394,2.51161
-0.689505,-0.301244,2.394,2.50946
-0.681735,-0.301244,2.394,2.50734
-0.673964,-0.301244,2.394,2.50524
-0.666194,-0.301244,2.394,2.50316
-0.663099,-0.303383,2.411,2.51886
-0.655274,-0.303383,2.411,2.51681
-0.647448,-0.303383,2.411,2.51479
-0.639623,-0.303383,2.411,2.51278
-0.631797,-0.303383,2.411,2.5108
-0.623972,-0.303383,2.411,2.50884
-0.616146,-0.303383,2.411,2.50691
-0.61261,-0.305522,2.428,2.52266
-0.604729,-0.305522,2.428,2.52076
-0.596848,-0.305522,2.428,2.51888
-0.588968,-0.305522,2.428,2.51702
-0.581087,-0.305522,2.428,2.51519
-0.573206,-0.305522,2.428,2.51338
-0.569284,-0.307661,2.445,2.52918
-0.561348,-0.307661,2.445,2.52741
-0.553412,-0.307661,2.445,2.52566
-0.545476,-0.307661,2.445,2.52393
-0.53754,-0.307661,2.445,2.52223
-0.529605,-0.307661,2.445,2.52055
-0.521669,-0.307661,2.445,2.51889
-0.513733,-0.307661,2.445,2.51726
-0.505797,-0.307661,2.445,2.51565
-0.497861,-0.307661,2.445,2.51407
-0.489925,-0.307661,2.445,2.51251
-0.481989,-0.307661,2.445,2.51097
-0.474054,-0.307661,2.445,2.50946
-0.466118,-0.307661,2.445,2.50798
-0.458182,-0.307661,2.445,2.50651
-0.450246,-0.307661,2.445,2.50508
-0.44231,-0.307661,2.445,2.50366
-0.434374,-0.307661,2.445,2.50227
-0.426438,-0.307661,2.445,2.50091
-0.418503,-0.307661,2.445,2.49957
-0.410567,-0.307661,2.445,2.49825
-0.402631,-0.307661,2.445,2.49696
-0.394695,-0.307661,2.445,2.49569
-0.386759,-0.307661,2.445,2.49445
-0.378823,-0.307661,2.445,2.49323
-0.370887,-0.307661,2.445,2.49204
-0.362952,-0.307661,2.445,2.49087
-0.355016,-0.307661,2.445,2.48972
-0.344667,-0.305522,2.428,2.4713
-0.336786,-0.305522,2.428,2.47021
-0.328905,-0.305522,2.428,2.46915
-0.321025,-0.305522,2.428,2.46811
-0.313144,-0.305522,2.428,2.4671
-0.305263,-0.305522,2.428,2.46611
-0.297382,-0.305522,2.428,2.46515
-0.289502,-0.305522,2.428,2.46421
-0.281621,-0.305522,2.428,2.4633
-0.27374,-0.305522,2.428,2.46241
-0.26586,-0.305522,2.428,2.46155
-0.257979,-0.305522,2.428,2.46071
-0.250098,-0.305522,2.428,2.45989
-0.242218,-0.305522,2.428,2.45911
-0.234337,-0.305522,2.428,2.45834
-0.226456,-0.305522,2.428,2.4576
-0.217045,-0.303383,2.411,2.43969
-0.20922,-0.303383,2.411,2.439
-0.202814,-0.305522,2.428,2.45554
-0.194934,-0.305522,2.428,2.4549
-0.187053,-0.305522,2.428,2.45429
-0.179172,-0.305522,2.428,2.4537
-0.171292,-0.305522,2.428,2.45313
-0.163411,-0.305522,2.428,2.4526
-0.15553,-0.305522,2.428,2.45208
-0.147649,-0.305522,2.428,2.4516
-0.139769,-0.305522,2.428,2.45114
-0.131888,-0.305522,2.428,2.4507
-0.124007,-0.305522,2.428,2.45029
-0.116127,-0.305522,2.428,2.4499
-0.108246,-0.305522,2.428,2.44954
-0.100365,-0.305522,2.428,2.4492
-0.0924847,-0.305522,2.428,2.44889
-0.084604,-0.305522,2.428,2.44861
-0.0767233,-0.305522,2.428,2.44835
-0.0688426,-0.305522,2.428,2.44812
-0.0609619,-0.305522,2.428,2.44791
-0.0530812,-0.305522,2.428,2.44772
-0.0452005,-0.305522,2.428,2.44756
-0.0373199,-0.305522,2.428,2.44743
-0.0294392,-0.305522,2.428,2.44732
-0.0215585,-0.305522,2.428,2.44724
-0.0136778,-0.305522,2.428,2.44719
-0.00579712,-0.305522,2.428,2.44715
0.00208357,-0.305522,2.428,2.44715
0.00996425,-0.305522,2.428,2.44717
0.0178449,-0.305522,2.428,2.44721
0.0255455,-0.303383,2.411,2.43015
0.033371,-0.303383,2.411,2.43024
0.0411965,-0.303383,2.411,2.43036
0.049022,-0.303383,2.411,2.43051
0.0568475,-0.303383,2.411,2.43068
0.064673,-0.303383,2.411,2.43087
0.0724985,-0.303383,2.411,2.43109
0.0803241,-0.303383,2.411,2.43134
0.0881496,-0.303383,2.411,2.43161
0.0959751,-0.303383,2.411,2.43191
0.104532,-0.305522,2.428,2.44938
0.112413,-0.305522,2.428,2.44973
0.120294,-0.305522,2.428,2.4501
0.128175,-0.305522,2.428,2.4505
0.136055,-0.305522,2.428,2.45093
0.143936,-0.305522,2.428,2.45138
0.151817,-0.305522,2.428,2.45185
0.160815,-0.307661,2.445,2.46952
0.168751,-0.307661,2.445,2.47005
0.176687,-0.307661,2.445,2.47061
0.185982,-0.309926,2.463,2.48938
0.193976,-0.309926,2.463,2.48999
0.201971,-0.309926,2.463,2.49063
0.209965,-0.309926,2.463,2.49129
0.219552,-0.312191,2.481,2.51019
0.227605,-0.312191,2.481,2.5109
0.235658,-0.312191,2.481,2.51164
0.24371,-0.312191,2.481,2.51241
0.251763,-0.312191,2.481,2.51321
0.259816,-0.312191,2.481,2.51403
0.267868,-0.312191,2.481,2.51487
0.275921,-0.312191,2.481,2.51574
0.283974,-0.312191,2.481,2.51664
0.292027,-0.312191,2.481,2.51756
0.300079,-0.312191,2.481,2.51851
0.308132,-0.312191,2.481,2.51948
0.313891,-0.309926,2.463,2.50219
0.321885,-0.309926,2.463,2.5032
0.329879,-0.309926,2.463,2.50425
0.337874,-0.309926,2.463,2.50531
0.345868,-0.309926,2.463,2.5064
0.353862,-0.309926,2.463,2.50752
0.361856,-0.309926,2.463,2.50866
0.369851,-0.309926,2.463,2.50982
0.377845,-0.309926,2.463,2.51101
0.385839,-0.309926,2.463,2.51223
0.393834,-0.309926,2.463,2.51347
0.401828,-0.309926,2.463,2.51473
0.409822,-0.309926,2.463,2.51602
0.417816,-0.309926,2.463,2.51734
0.425811,-0.309926,2.463,2.51868
0.433805,-0.309926,2.463,2.52004
0.441799,-0.309926,2.463,2.52143
0.449794,-0.309926,2.463,2.52284
0.457788,-0.309926,2.463,2.52428
0.465782,-0.309926,2.463,2.52574
0.473776,-0.309926,2.463,2.52723
0.481771,-0.309926,2.463,2.52874
0.489765,-0.309926,2.463,2.53028
0.494122,-0.307661,2.445,2.51333
0.502058,-0.307661,2.445,2.5149
0.509993,-0.307661,2.445,2.5165
0.517929,-0.307661,2.445,2.51812
0.525865,-0.307661,2.445,2.51976
0.533801,-0.307661,2.445,2.52143
0.53797,-0.305522,2.428,2.50558
0.545851,-0.305522,2.428,2.50729
0.553732,-0.305522,2.428,2.50901
0.561612,-0.305522,2.428,2.51076
0.569493,-0.305522,2.428,2.51254
0.577374,-0.305522,2.428,2.51434
0.585254,-0.305522,2.428,2.51616
0.593135,-0.305522,2.428,2.518
0.601016,-0.305522,2.428,2.51987
0.608896,-0.305522,2.428,2.52176
0.616777,-0.305522,2.428,2.52368
0.624658,-0.305522,2.428,2.52561
0.632538,-0.305522,2.428,2.52757
0.644903,-0.307661,2.445,2.54727
0.652839,-0.307661,2.445,2.54929
0.660775,-0.307661,2.445,2.55133
0.668711,-0.307661,2.445,2.5534
0.676647,-0.307661,2.445,2.55549
0.684582,-0.307661,2.445,2.5576
0.692518,-0.307661,2.445,2.55974
0.705611,-0.309926,2.463,2.58076
0.713605,-0.309926,2.463,2.58295
0.721599,-0.309926,2.463,2.58517
0.729594,-0.309926,2.463,2.58742
0.737588,-0.309926,2.463,2.58968
0.745582,-0.309926,2.463,2.59197
0.753577,-0.309926,2.463,2.59428
0.761571,-0.309926,2.463,2.59662
0.769565,-0.309926,2.463,2.59897
0.777559,-0.309926,2.463,2.60135
0.785554,-0.309926,2.463,2.60375
0.793548,-0.309926,2.463,2.60617
0.801542,-0.309926,2.463,2.60862
0.80362,-0.307661,2.445,2.592
0.811556,-0.307661,2.445,2.59448
0.819492,-0.307661,2.445,2.59697
0.827428,-0.307661,2.445,2.59948
0.835364,-0.307661,2.445,2.60202
0.837436,-0.305522,2.428,2.58647
0.845317,-0.305522,2.428,2.58903
0.853198,-0.305522,2.428,2.59162
0.861078,-0.305522,2.428,2.59422
0.862875,-0.303383,2.411,2.57867
0.8707,-0.303383,2.411,2.58129
0.878526,-0.303383,2.411,2.58394
0.886351,-0.303383,2.411,2.58662
0.887872,-0.301244,2.394,2.57105
0.895642,-0.301244,2.394,2.57374
0.903413,-0.301244,2.394,2.57646
0.911183,-0.301244,2.394,2.57919
0.918953,-0.301244,2.394,2.58195
0.926724,-0.301244,2.394,2.58472
0.934494,-0.301244,2.394,2.58752
0.942264,-0.301244,2.394,2.59034
0.956781,-0.303383,2.411,2.61159
0.951003,-0.299105,2.377,2.5776
0.958719,-0.299105,2.377,2.58045
0.973346,-0.301244,2.394,2.6018
0.974149,-0.299105,2.377,2.58622
0.981864,-0.299105,2.377,2.58914
nan,nan,nan,NaN
nan,nan,nan,NaN
nan,nan,nan,NaN
nan,nan,nan,NaN
nan,nan,nan,NaN
nan,nan,nan,NaN
nan,nan,nan,NaN
nan,nan,nan,NaN
nan,nan,nan,NaN
nan,nan,nan,NaN
nan,nan,nan,NaN
nan,nan,nan,NaN
nan,nan,nan,NaN
1.55389,-0.426447,3.389,3.75257
1.56489,-0.426447,3.389,3.75713
1.57589,-0.426447,3.389,3.76173
1.58689,-0.426447,3.389,3.76635
1.63042,-0.43513,3.458,3.84777
1.64164,-0.43513,3.458,3.85254
1.65287,-0.43513,3.458,3.85734
1.66409,-0.43513,3.458,3.86216
1.69227,-0.439534,3.493,3.90615
1.70361,-0.439534,3.493,3.91108
1.71495,-0.439534,3.493,3.91603
1.72628,-0.439534,3.493,3.92101
1.7028,-0.430726,3.423,3.84733
1.71391,-0.430726,3.423,3.85226
1.72502,-0.430726,3.423,3.85722
1.73613,-0.430726,3.423,3.8622
1.74724,-0.430726,3.423,3.86721
1.75835,-0.430726,3.423,3.87224
1.76946,-0.430726,3.423,3.8773
1.78057,-0.430726,3.423,3.88238
1.79168,-0.430726,3.423,3.88749
1.80279,-0.430726,3.423,3.89262
1.8139,-0.430726,3.423,3.89778
1.82501,-0.430726,3.423,3.90296
1.87367,-0.439534,3.493,3.98809
1.88501,-0.439534,3.493,3.99343
1.91589,-0.444064,3.529,4.04001
1.94755,-0.44872,3.566,4.08787
1.98,-0.453501,3.604,4.13701
1.9917,-0.453501,3.604,4.14263
2.0034,-0.453501,3.604,4.14826
2.03634,-0.458283,3.642,4.19772
2.04816,-0.458283,3.642,4.20347
2.08204,-0.46319,3.681,4.25432
2.09399,-0.46319,3.681,4.26018
2.10594,-0.46319,3.681,4.26606
2.11789,-0.46319,3.681,4.27197
2.10727,-0.458283,3.642,4.23258
2.11909,-0.458283,3.642,4.23848
2.13091,-0.458283,3.642,4.2444
2.12037,-0.453501,3.604,4.206
2.13207,-0.453501,3.604,4.21191
2.12117,-0.44872,3.566,4.17337
2.08908,-0.439534,3.493,4.09371
2.10042,-0.439534,3.493,4.09951
2.06944,-0.430726,3.423,4.02306
2.03982,-0.422295,3.356,3.94993
2.05072,-0.422295,3.356,3.95557
2.04195,-0.418268,3.324,3.92345
2.01322,-0.410215,3.26,3.85343
2.0238,-0.410215,3.26,3.85897
1.97821,-0.39889,3.17,3.75784
1.95212,-0.391592,3.112,3.69441
1.96222,-0.391592,3.112,3.69976
1.93746,-0.384671,3.057,3.63964
1.91299,-0.377876,3.003,3.58055
1.92273,-0.377876,3.003,3.58576
1.88293,-0.368187,2.926,3.49892
1.86074,-0.362021,2.877,3.44536
1.87007,-0.362021,2.877,3.45042
1.86373,-0.359001,2.853,3.42666
1.84214,-0.353087,2.806,3.37517
1.83607,-0.350193,2.783,3.35245
1.84511,-0.350193,2.783,3.3574
1.83948,-0.347424,2.761,3.33579
1.83371,-0.344656,2.739,3.31412
1.8426,-0.344656,2.739,3.31905
1.83662,-0.341888,2.717,3.2973
1.83118,-0.339245,2.696,3.27669
-2.42321,-0.4282,3.493,4.27274
-2.3877,-0.423909,3.458,4.22358
-2.37648,-0.423909,3.458,4.21724
-2.34132,-0.419619,3.423,4.16831
-2.33021,-0.419619,3.423,4.16208
-2.3191,-0.419619,3.423,4.15587
-2.28506,-0.415451,3.389,4.10846
-2.25192,-0.411405,3.356,4.0624
-2.24102,-0.411405,3.356,4.05638
-2.23013,-0.411405,3.356,4.05037
-2.21924,-0.411405,3.356,4.04438
-2.20835,-0.411405,3.356,4.03841
-2.19745,-0.411405,3.356,4.03247
-2.18656,-0.411405,3.356,4.02654
-2.17567,-0.411405,3.356,4.02064
-2.18606,-0.415451,3.389,4.05423
-2.17506,-0.415451,3.389,4.04831
-2.16406,-0.415451,3.389,4.04241
-2.15306,-0.415451,3.389,4.03653
-2.14206,-0.415451,3.389,4.03068
-2.13106,-0.415451,3.389,4.02484
-2.12006,-0.415451,3.389,4.01903
-2.10906,-0.415451,3.389,4.01324
-2.09806,-0.415451,3.389,4.00747
-2.06674,-0.411405,3.356,3.96275
-2.05585,-0.411405,3.356,3.95708
-2.04496,-0.411405,3.356,3.95143
-2.03406,-0.411405,3.356,3.94581
-2.02317,-0.411405,3.356,3.9402
-2.01228,-0.411405,3.356,3.93462
-2.00138,-0.411405,3.356,3.92906
nan,nan,nan,NaN
nan,nan,nan,NaN
nan,nan,nan,NaN
nan,nan,nan,NaN
nan,nan,nan,NaN
nan,nan,nan,NaN
nan,nan,nan,NaN
nan,nan,nan,NaN
nan,nan,nan,NaN
nan,nan,nan,NaN
nan,nan,nan,NaN
nan,nan,nan,NaN
nan,nan,nan,NaN
nan,nan,nan,NaN
nan,nan,nan,NaN
nan,nan,nan,NaN
nan,nan,nan,NaN
nan,nan,nan,NaN
nan,nan,nan,NaN
nan,nan,nan,NaN
nan,nan,nan,NaN
nan,nan,nan,NaN
nan,nan,nan,NaN
nan,nan,nan,NaN
nan,nan,nan,NaN
nan,nan,nan,NaN
nan,nan,nan,NaN
nan,nan,nan,NaN
nan,nan,nan,NaN
nan,nan,nan,NaN
nan,nan,nan,NaN
nan,nan,nan,NaN
nan,nan,nan,NaN
-1.1635,-0.293476,2.394,2.67789
-1.15572,-0.293476,2.394,2.67452
-1.14795,-0.293476,2.394,2.67117
-1.14018,-0.293476,2.394,2.66784
-1.12437,-0.291392,2.377,2.64561
-1.11666,-0.291392,2.377,2.64234
-1.10894,-0.291392,2.377,2.63909
-1.10123,-0.291392,2.377,2.63586
-1.09351,-0.291392,2.377,2.63264
-1.0858,-0.291392,2.377,2.62945
-1.07082,-0.28943,2.361,2.60859
-1.06316,-0.28943,2.361,2.60546
-1.0555,-0.28943,2.361,2.60234
-1.04784,-0.28943,2.361,2.59924
-1.03312,-0.287469,2.345,2.57857
-1.02551,-0.287469,2.345,2.57553
-1.0179,-0.287469,2.345,2.57251
-1.01029,-0.287469,2.345,2.5695
-1.00268,-0.287469,2.345,2.56652
-0.995066,-0.287469,2.345,2.56356
-0.987455,-0.287469,2.345,2.56061
-0.979844,-0.287469,2.345,2.55769
-0.972232,-0.287469,2.345,2.55478
-0.964621,-0.287469,2.345,2.55189
-0.95701,-0.287469,2.345,2.54903
-0.949399,-0.287469,2.345,2.54618
-0.941787,-0.287469,2.345,2.54335
-0.934176,-0.287469,2.345,2.54054
-0.926565,-0.287469,2.345,2.53775
-0.918953,-0.287469,2.345,2.53498
-0.911342,-0.287469,2.345,2.53223
-0.903731,-0.287469,2.345,2.5295
-0.89612,-0.287469,2.345,2.5268
-0.888508,-0.287469,2.345,2.52411
-0.880897,-0.287469,2.345,2.52144
-0.873286,-0.287469,2.345,2.51879
-0.871581,-0.28943,2.361,2.53333
-0.863918,-0.28943,2.361,2.5307
-0.856255,-0.28943,2.361,2.52809
-0.848591,-0.28943,2.361,2.52551
-0.840928,-0.28943,2.361,2.52294
-0.838912,-0.291392,2.377,2.53748
-0.831197,-0.291392,2.377,2.53494
-0.823481,-0.291392,2.377,2.53242
-0.815766,-0.291392,2.377,2.52992
-0.808051,-0.291392,2.377,2.52745
-0.800336,-0.291392,2.377,2.52499
-0.792621,-0.291392,2.377,2.52256
-0.784906,-0.291392,2.377,2.52014
-0.777191,-0.291392,2.377,2.51775
-0.769475,-0.291392,2.377,2.51538
-0.76176,-0.291392,2.377,2.51303
-0.754045,-0.291392,2.377,2.5107
-0.74633,-0.291392,2.377,2.5084
-0.738615,-0.291392,2.377,2.50611
-0.7309,-0.291392,2.377,2.50385
-0.723184,-0.291392,2.377,2.50161
-0.715469,-0.291392,2.377,2.49939
-0.712816,-0.293476,2.394,2.51505
-0.705046,-0.293476,2.394,2.51286
-0.697275,-0.293476,2.394,2.51069
-0.689505,-0.293476,2.394,2.50854
-0.681735,-0.293476,2.394,2.50642
-0.673964,-0.293476,2.394,2.50431
-0.666194,-0.293476,2.394,2.50223
-0.663099,-0.29556,2.411,2.51793
-0.655274,-0.29556,2.411,2.51588
-0.647448,-0.29556,2.411,2.51385
-0.639623,-0.29556,2.411,2.51185
-0.631797,-0.29556,2.411,2.50987
-0.623972,-0.29556,2.411,2.50791
-0.616146,-0.29556,2.411,2.50598
-0.61261,-0.297644,2.428,2.52172
-0.604729,-0.297644,2.428,2.51982
-0.596848,-0.297644,2.428,2.51794
-0.588968,-0.297644,2.428,2.51608
-0.581087,-0.297644,2.428,2.51425
-0.573206,-0.297644,2.428,2.51244
-0.569284,-0.299727,2.445,2.52823
-0.561348,-0.299727,2.445,2.52645
-0.553412,-0.299727,2.445,2.5247
-0.545476,-0.299727,2.445,2.52298
-0.53754,-0.299727,2.445,2.52127
-0.529605,-0.299727,2.445,2.51959
-0.521669,-0.299727,2.445,2.51794
-0.513733,-0.299727,2.445,2.5163
-0.505797,-0.299727,2.445,2.5147
-0.497861,-0.299727,2.445,2.51311
-0.489925,-0.299727,2.445,2.51155
-0.481989,-0.299727,2.445,2.51002
-0.474054,-0.299727,2.445,2.5085
-0.466118,-0.299727,2.445,2.50702
-0.458182,-0.299727,2.445,2.50555
-0.450246,-0.299727,2.445,2.50411
-0.44231,-0.299727,2.445,2.5027
-0.434374,-0.299727,2.445,2.50131
-0.426438,-0.299727,2.445,2.49994
-0.418503,-0.299727,2.445,2.4986
-0.410567,-0.299727,2.445,2.49728
-0.402631,-0.299727,2.445,2.49599
-0.394695,-0.299727,2.445,2.49472
-0.386759,-0.299727,2.445,2.49348
-0.378823,-0.299727,2.445,2.49226
-0.370887,-0.299727,2.445,2.49107
-0.362952,-0.299727,2.445,2.4899
-0.355016,-0.299727,2.445,2.48875
-0.344667,-0.297644,2.428,2.47034
-0.336786,-0.297644,2.428,2.46925
-0.328905,-0.297644,2.428,2.46819
-0.321025,-0.297644,2.428,2.46715
-0.313144,-0.297644,2.428,2.46614
-0.305263,-0.297644,2.428,2.46515
-0.297382,-0.297644,2.428,2.46419
-0.289502,-0.297644,2.428,2.46325
-0.281621,-0.297644,2.428,2.46233
-0.27374,-0.297644,2.428,2.46144
-0.26586,-0.297644,2.428,2.46058
-0.257979,-0.297644,2.428,2.45974
-0.250098,-0.297644,2.428,2.45893
-0.242218,-0.297644,2.428,2.45814
-0.234337,-0.297644,2.428,2.45737
-0.226456,-0.297644,2.428,2.45664
-0.217045,-0.29556,2.411,2.43873
-0.20922,-0.29556,2.411,2.43804
-0.202814,-0.297644,2.428,2.45457
-0.194934,-0.297644,2.428,2.45393
-0.185743,-0.29556,2.411,2.43614
-0.177918,-0.29556,2.411,2.43556
-0.170092,-0.29556,2.411,2.435
-0.162267,-0.29556,2.411,2.43446
-0.154441,-0.29556,2.411,2.43395
-0.146616,-0.29556,2.411,2.43347
-0.13879,-0.29556,2.411,2.43301
-0.130965,-0.29556,2.411,2.43258
-0.123139,-0.29556,2.411,2.43217
-0.115314,-0.29556,2.411,2.43178
-0.107488,-0.29556,2.411,2.43143
-0.0996626,-0.29556,2.411,2.43109
-0.0918371,-0.29556,2.411,2.43078
-0.0840116,-0.29556,2.411,2.4305
-0.0761861,-0.29556,2.411,2.43024
-0.0683606,-0.29556,2.411,2.43001
-0.0605351,-0.29556,2.411,2.4298
-0.0527096,-0.29556,2.411,2.42962
-0.0448841,-0.29556,2.411,2.42946
-0.0370586,-0.29556,2.411,2.42933
-0.029233,-0.29556,2.411,2.42922
-0.0214075,-0.29556,2.411,2.42914
-0.013582,-0.29556,2.411,2.42909
-0.00575653,-0.29556,2.411,2.42906
0.00206898,-0.29556,2.411,2.42905
0.00989449,-0.29556,2.411,2.42907
0.01772,-0.29556,2.411,2.42911
0.0255455,-0.29556,2.411,2.42918
0.033371,-0.29556,2.411,2.42928
0.0411965,-0.29556,2.411,2.4294
0.049022,-0.29556,2.411,2.42954
0.0568475,-0.29556,2.411,2.42971
0.064673,-0.29556,2.411,2.42991
0.0724985,-0.29556,2.411,2.43013
0.0803241,-0.29556,2.411,2.43038
0.0881496,-0.29556,2.411,2.43065
0.0959751,-0.29556,2.411,2.43094
0.103801,-0.29556,2.411,2.43127
0.111626,-0.29556,2.411,2.43161
0.119452,-0.29556,2.411,2.43198
0.127277,-0.29556,2.411,2.43238
0.135103,-0.29556,2.411,2.4328
0.142928,-0.29556,2.411,2.43325
0.151817,-0.297644,2.428,2.45088
0.159697,-0.297644,2.428,2.45138
0.168751,-0.299727,2.445,2.46908
0.176687,-0.299727,2.445,2.46963
0.184623,-0.299727,2.445,2.47021
0.192559,-0.299727,2.445,2.47082
0.200495,-0.299727,2.445,2.47145
0.209965,-0.301934,2.463,2.4903
0.217959,-0.301934,2.463,2.49099
0.225954,-0.301934,2.463,2.4917
0.233948,-0.301934,2.463,2.49244
0.241942,-0.301934,2.463,2.4932
0.249936,-0.301934,2.463,2.49399
0.257931,-0.301934,2.463,2.49481
0.265925,-0.301934,2.463,2.49565
0.273919,-0.301934,2.463,2.49651
0.281914,-0.301934,2.463,2.4974
0.289908,-0.301934,2.463,2.49832
0.297902,-0.301934,2.463,2.49926
0.305896,-0.301934,2.463,2.50022
0.311597,-0.299727,2.445,2.48293
0.319533,-0.299727,2.445,2.48394
0.327469,-0.299727,2.445,2.48497
0.335404,-0.299727,2.445,2.48603
0.34334,-0.299727,2.445,2.48712
0.351276,-0.299727,2.445,2.48822
0.359212,-0.299727,2.445,2.48936
0.367148,-0.299727,2.445,2.49051
0.375084,-0.299727,2.445,2.4917
0.38302,-0.299727,2.445,2.4929
0.390955,-0.299727,2.445,2.49413
0.398891,-0.299727,2.445,2.49539
0.406827,-0.299727,2.445,2.49667
0.414763,-0.299727,2.445,2.49798
0.422699,-0.299727,2.445,2.49931
0.430635,-0.299727,2.445,2.50066
0.438571,-0.299727,2.445,2.50204
0.446507,-0.299727,2.445,2.50344
0.454442,-0.299727,2.445,2.50487
0.462378,-0.299727,2.445,2.50632
0.470314,-0.299727,2.445,2.5078
0.47825,-0.299727,2.445,2.5093
0.486186,-0.299727,2.445,2.51082
0.494122,-0.299727,2.445,2.51237
0.502058,-0.299727,2.445,2.51395
0.509993,-0.299727,2.445,2.51554
0.514328,-0.297644,2.428,2.49966
0.522209,-0.297644,2.428,2.5013
0.530089,-0.297644,2.428,2.50295
0.53797,-0.297644,2.428,2.50463
0.545851,-0.297644,2.428,2.50634
0.553732,-0.297644,2.428,2.50807
0.561612,-0.297644,2.428,2.50982
0.569493,-0.297644,2.428,2.51159
0.577374,-0.297644,2.428,2.51339
0.585254,-0.297644,2.428,2.51521
0.593135,-0.297644,2.428,2.51706
0.601016,-0.297644,2.428,2.51893
0.608896,-0.297644,2.428,2.52082
0.616777,-0.297644,2.428,2.52273
0.624658,-0.297644,2.428,2.52467
0.632538,-0.297644,2.428,2.52663
0.644903,-0.299727,2.445,2.54632
0.652839,-0.299727,2.445,2.54834
0.660775,-0.299727,2.445,2.55039
0.668711,-0.299727,2.445,2.55246
0.676647,-0.299727,2.445,2.55455
0.684582,-0.299727,2.445,2.55666
0.692518,-0.299727,2.445,2.5588
0.705611,-0.301934,2.463,2.57981
0.713605,-0.301934,2.463,2.58201
0.721599,-0.301934,2.463,2.58423
0.729594,-0.301934,2.463,2.58647
0.737588,-0.301934,2.463,2.58874
0.745582,-0.301934,2.463,2.59103
0.753577,-0.301934,2.463,2.59334
0.761571,-0.301934,2.463,2.59567
0.769565,-0.301934,2.463,2.59803
0.771877,-0.299727,2.445,2.58141
0.779813,-0.299727,2.445,2.58379
0.787749,-0.299727,2.445,2.5862
0.795684,-0.299727,2.445,2.58862
0.80362,-0.299727,2.445,2.59107
0.811556,-0.299727,2.445,2.59355
0.819492,-0.299727,2.445,2.59604
0.821675,-0.297644,2.428,2.58049
0.829556,-0.297644,2.428,2.58301
0.837436,-0.297644,2.428,2.58555
0.839398,-0.29556,2.411,2.56999
0.847224,-0.29556,2.411,2.57256
0.855049,-0.29556,2.411,2.57515
0.862875,-0.29556,2.411,2.57776
0.8707,-0.29556,2.411,2.58039
0.878526,-0.29556,2.411,2.58304
0.886351,-0.29556,2.411,2.58571
0.887872,-0.293476,2.394,2.57015
0.895642,-0.293476,2.394,2.57285
0.903413,-0.293476,2.394,2.57556
0.911183,-0.293476,2.394,2.5783
0.918953,-0.293476,2.394,2.58105
0.926724,-0.293476,2.394,2.58383
0.934494,-0.293476,2.394,2.58663
0.942264,-0.293476,2.394,2.58945
nan,nan,nan,NaN
0.951003,-0.291392,2.377,2.57671
0.958719,-0.291392,2.377,2.57957
0.973346,-0.293476,2.394,2.60092
0.974149,-0.291392,2.377,2.58534
0.981864,-0.291392,2.377,2.58826
nan,nan,nan,NaN
nan,nan,nan,NaN
nan,nan,nan,NaN
nan,nan,nan,NaN
nan,nan,nan,NaN
nan,nan,nan,NaN
nan,nan,nan,NaN
nan,nan,nan,NaN
nan,nan,nan,NaN
nan,nan,nan,NaN
nan,nan,nan,NaN
nan,nan,nan,NaN
nan,nan,nan,NaN
1.63504,-0.437149,3.566,3.94726
1.64662,-0.437149,3.566,3.95206
1.65819,-0.437149,3.566,3.9569
1.66977,-0.437149,3.566,3.96176
1.68134,-0.437149,3.566,3.96666
nan,nan,nan,NaN
1.72265,-0.441807,3.604,4.0189
1.73435,-0.441807,3.604,4.02393
1.76446,-0.446465,3.642,4.07146
1.77628,-0.446465,3.642,4.0766
1.76944,-0.441807,3.604,4.03918
1.78114,-0.441807,3.604,4.04431
1.77394,-0.437149,3.566,4.00678
1.78551,-0.437149,3.566,4.01192
nan,nan,nan,NaN
nan,nan,nan,NaN
1.78297,-0.4282,3.493,3.94505
1.79431,-0.4282,3.493,3.95018
1.80565,-0.4282,3.493,3.95535
1.81698,-0.4282,3.493,3.96053
1.81,-0.423909,3.458,3.92601
1.82122,-0.423909,3.458,3.9312
1.83245,-0.423909,3.458,3.93641
1.86233,-0.4282,3.493,3.98154
1.89298,-0.432613,3.529,4.02795
1.90444,-0.432613,3.529,4.03334
1.93598,-0.437149,3.566,4.08111
1.9683,-0.441807,3.604,4.13016
2.00088,-0.446465,3.642,4.17936
2.0127,-0.446465,3.642,4.18503
2.0462,-0.451246,3.681,4.2356
2.08051,-0.45615,3.721,4.28748
2.0701,-0.451246,3.681,4.2472
2.08204,-0.451246,3.681,4.25303
2.09399,-0.451246,3.681,4.25889
2.10594,-0.451246,3.681,4.26478
2.11789,-0.451246,3.681,4.27069
2.10727,-0.446465,3.642,4.23132
2.11909,-0.446465,3.642,4.23722
2.13091,-0.446465,3.642,4.24314
2.12037,-0.441807,3.604,4.20476
2.13207,-0.441807,3.604,4.21067
2.12117,-0.437149,3.566,4.17215
2.08908,-0.4282,3.493,4.09251
2.10042,-0.4282,3.493,4.09831
2.06944,-0.419619,3.423,4.02189
2.03982,-0.411405,3.356,3.94878
2.05072,-0.411405,3.356,3.95442
2.04195,-0.407482,3.324,3.92232
2.01322,-0.399637,3.26,3.85232
2.0238,-0.399637,3.26,3.85786
1.97821,-0.388604,3.17,3.75676
1.95212,-0.381494,3.112,3.69335
1.96222,-0.381494,3.112,3.6987
1.93746,-0.374751,3.057,3.63861
1.91299,-0.368132,3.003,3.57953
1.92273,-0.368132,3.003,3.58475
1.88293,-0.358692,2.926,3.49794
1.86074,-0.352685,2.877,3.44439
1.87007,-0.352685,2.877,3.44945
1.86373,-0.349743,2.853,3.4257
1.84214,-0.343982,2.806,3.37423
1.83607,-0.341162,2.783,3.35151
1.84511,-0.341162,2.783,3.35647
1.83948,-0.338465,2.761,3.33487
1.81899,-0.333071,2.717,3.2866
1.8278,-0.333071,2.717,3.29149
1.82243,-0.330497,2.696,3.27092
1.83118,-0.330497,2.696,3.2758
-2.42321,-0.416865,3.493,4.27162
-2.3877,-0.412688,3.458,4.22246
-2.37648,-0.412688,3.458,4.21613
-2.34132,-0.408511,3.423,4.1672
-2.30706,-0.404454,3.389,4.11964
-2.29606,-0.404454,3.389,4.11349
-2.28506,-0.404454,3.389,4.10736
-2.25192,-0.400515,3.356,4.06132
-2.24102,-0.400515,3.356,4.05529
-2.23013,-0.400515,3.356,4.04928
-2.21924,-0.400515,3.356,4.04329
-2.20835,-0.400515,3.356,4.03732
-2.19745,-0.400515,3.356,4.03137
-2.18656,-0.400515,3.356,4.02544
-2.17567,-0.400515,3.356,4.01954
-2.16478,-0.400515,3.356,4.01365
-2.15388,-0.400515,3.356,4.00779
-2.14299,-0.400515,3.356,4.00194
-2.1321,-0.400515,3.356,3.99612
-2.1212,-0.400515,3.356,3.99032
-2.13106,-0.404454,3.389,4.02372
-2.12006,-0.404454,3.389,4.01791
-2.10906,-0.404454,3.389,4.01211
-2.09806,-0.404454,3.389,4.00634
-2.08706,-0.404454,3.389,4.00059
-2.07606,-0.404454,3.389,3.99486
-2.06506,-0.404454,3.389,3.98916
-2.05406,-0.404454,3.389,3.98348
-2.04306,-0.404454,3.389,3.97782
-2.03206,-0.404454,3.389,3.97218
-2.02106,-0.404454,3.389,3.96656
nan,nan,nan,NaN
nan,nan,nan,NaN
nan,nan,nan,NaN
nan,nan,nan,NaN
nan,nan,nan,NaN
nan,nan,nan,NaN
nan,nan,nan,NaN
nan,nan,nan,NaN
nan,nan,nan,NaN
nan,nan,nan,NaN
nan,nan,nan,NaN
nan,nan,nan,NaN
nan,nan,nan,NaN
nan,nan,nan,NaN
nan,nan,nan,NaN
nan,nan,nan,NaN
nan,nan,nan,NaN
nan,nan,nan,NaN
nan,nan,nan,NaN
nan,nan,nan,NaN
nan,nan,nan,NaN
nan,nan,nan,NaN
nan,nan,nan,NaN
nan,nan,nan,NaN
nan,nan,nan,NaN
nan,nan,nan,NaN
nan,nan,nan,NaN
nan,nan,nan,NaN
nan,nan,nan,NaN
nan,nan,nan,NaN
nan,nan,nan,NaN
-1.17904,-0.285707,2.394,2.68384
-1.17127,-0.285707,2.394,2.68043
-1.1635,-0.285707,2.394,2.67705
-1.15572,-0.285707,2.394,2.67368
-1.14795,-0.285707,2.394,2.67033
-1.14018,-0.285707,2.394,2.667
-1.12437,-0.283679,2.377,2.64477
-1.11666,-0.283679,2.377,2.6415
-1.10894,-0.283679,2.377,2.63825
-1.10123,-0.283679,2.377,2.63502
-1.09351,-0.283679,2.377,2.6318
-1.0858,-0.283679,2.377,2.6286
-1.07082,-0.281769,2.361,2.60775
-1.06316,-0.281769,2.361,2.60462
-1.0555,-0.281769,2.361,2.6015
-1.04784,-0.281769,2.361,2.5984
-1.03312,-0.27986,2.345,2.57773
-1.02551,-0.27986,2.345,2.57469
-1.0179,-0.27986,2.345,2.57167
-1.01029,-0.27986,2.345,2.56866
-1.00268,-0.27986,2.345,2.56568
-0.995066,-0.27986,2.345,2.56271
-0.987455,-0.27986,2.345,2.55977
-0.979844,-0.27986,2.345,2.55684
-0.972232,-0.27986,2.345,2.55393
-0.964621,-0.27986,2.345,2.55105
-0.95701,-0.27986,2.345,2.54818
-0.949399,-0.27986,2.345,2.54533
-0.941787,-0.27986,2.345,2.5425
-0.934176,-0.27986,2.345,2.53969
-0.926565,-0.27986,2.345,2.5369
-0.918953,-0.27986,2.345,2.53413
-0.911342,-0.27986,2.345,2.53138
-0.903731,-0.27986,2.345,2.52865
-0.89612,-0.27986,2.345,2.52594
-0.888508,-0.27986,2.345,2.52325
-0.880897,-0.27986,2.345,2.52058
-0.873286,-0.27986,2.345,2.51793
-0.871581,-0.281769,2.361,2.53246
-0.863918,-0.281769,2.361,2.52984
-0.856255,-0.281769,2.361,2.52723
-0.848591,-0.281769,2.361,2.52464
-0.840928,-0.281769,2.361,2.52208
-0.838912,-0.283679,2.377,2.53661
-0.831197,-0.283679,2.377,2.53407
-0.823481,-0.283679,2.377,2.53155
-0.815766,-0.283679,2.377,2.52905
-0.808051,-0.283679,2.377,2.52657
-0.800336,-0.283679,2.377,2.52411
-0.792621,-0.283679,2.377,2.52168
-0.784906,-0.283679,2.377,2.51926
-0.777191,-0.283679,2.377,2.51687
-0.769475,-0.283679,2.377,2.5145
-0.76176,-0.283679,2.377,2.51215
-0.754045,-0.283679,2.377,2.50982
-0.74633,-0.283679,2.377,2.50751
-0.738615,-0.283679,2.377,2.50523
-0.7309,-0.283679,2.377,2.50296
-0.723184,-0.283679,2.377,2.50072
-0.715469,-0.283679,2.377,2.4985
-0.712816,-0.285707,2.394,2.51415
-0.705046,-0.285707,2.394,2.51196
-0.697275,-0.285707,2.394,2.50979
-0.689505,-0.285707,2.394,2.50764
-0.681735,-0.285707,2.394,2.50552
-0.673964,-0.285707,2.394,2.50342
-0.666194,-0.285707,2.394,2.50134
-0.658424,-0.285707,2.394,2.49928
-0.650653,-0.285707,2.394,2.49724
-0.642883,-0.285707,2.394,2.49523
-0.635113,-0.285707,2.394,2.49324
-0.631797,-0.287736,2.411,2.50896
-0.623972,-0.287736,2.411,2.507
-0.616146,-0.287736,2.411,2.50506
-0.608321,-0.287736,2.411,2.50315
-0.600495,-0.287736,2.411,2.50126
-0.59267,-0.287736,2.411,2.49939
-0.584844,-0.287736,2.411,2.49755
-0.577019,-0.287736,2.411,2.49573
-0.569193,-0.287736,2.411,2.49393
-0.565326,-0.289765,2.428,2.50973
-0.557445,-0.289765,2.428,2.50797
-0.549564,-0.289765,2.428,2.50623
-0.541684,-0.289765,2.428,2.50451
-0.533803,-0.289765,2.428,2.50282
-0.525922,-0.289765,2.428,2.50115
-0.518042,-0.289765,2.428,2.4995
-0.510161,-0.289765,2.428,2.49788
-0.50228,-0.289765,2.428,2.49628
-0.4944,-0.289765,2.428,2.49471
-0.486519,-0.289765,2.428,2.49316
-0.478638,-0.289765,2.428,2.49163
-0.470758,-0.289765,2.428,2.49013
-0.462877,-0.289765,2.428,2.48866
-0.454996,-0.289765,2.428,2.4872
-0.447115,-0.289765,2.428,2.48577
-0.439235,-0.289765,2.428,2.48437
