1.73754,0.274989,3.003,3.48033
1.74729,0.274989,3.003,3.4852
1.74182,0.272608,2.977,3.45988
1.75149,0.272608,2.977,3.46476
1.76115,0.272608,2.977,3.46965
1.77081,0.272608,2.977,3.47457
1.76492,0.270227,2.951,3.44911
1.7745,0.270227,2.951,3.45402
1.76897,0.267938,2.926,3.42965
1.76327,0.265648,2.901,3.40521
1.77268,0.265648,2.901,3.4101
1.75261,0.261253,2.853,3.3585
1.73285,0.256949,2.806,3.30793
1.74196,0.256949,2.806,3.31271
1.72298,0.252828,2.761,3.26431
1.69117,0.246876,2.696,3.19209
1.67344,0.24303,2.654,3.14693
1.68205,0.24303,2.654,3.15152
1.66455,0.239276,2.613,3.10737
1.64806,0.235704,2.574,3.06547
1.65641,0.235704,2.574,3.06997
1.64019,0.232225,2.536,3.0291
1.62437,0.228837,2.499,2.98931
1.63248,0.228837,2.499,2.99372
1.62878,0.227188,2.481,2.97656
1.61308,0.223892,2.445,2.93772
1.62101,0.223892,2.445,2.94208
1.61762,0.222335,2.428,2.92597
1.61412,0.220778,2.411,2.90982
1.62195,0.220778,2.411,2.91417
1.62977,0.220778,2.411,2.91853
1.62605,0.219222,2.394,2.9023
-1.77249,0.242255,2.555,3.11904
-1.77731,0.244057,2.574,3.1375
-1.76896,0.244057,2.574,3.13277
-1.7606,0.244057,2.574,3.12806
-1.76518,0.245858,2.593,3.14642
-1.77032,0.247754,2.613,3.16594
-1.77532,0.249651,2.633,3.1854
-1.76678,0.249651,2.633,3.18065
-1.77225,0.251642,2.654,3.20124
-1.77759,0.253633,2.675,3.22177
-1.76891,0.253633,2.675,3.21699
-1.76023,0.253633,2.675,3.21222
-1.75155,0.253633,2.675,3.20747
-1.74286,0.253633,2.675,3.20274
-1.73418,0.253633,2.675,3.19802
-1.71195,0.251642,2.654,3.16825
-1.70334,0.251642,2.654,3.16361
-1.68132,0.249651,2.633,3.13398
-1.66006,0.247754,2.613,3.10563
-1.65158,0.247754,2.613,3.10111
-1.63052,0.245858,2.593,3.0729
-1.61022,0.244057,2.574,3.04596
-1.60187,0.244057,2.574,3.04155
-1.59351,0.244057,2.574,3.03716
-1.56176,0.240454,2.536,2.98801
-1.55353,0.240454,2.536,2.98372
-1.54529,0.240454,2.536,2.97944
-1.51464,0.236945,2.499,2.93177
-1.49568,0.235239,2.481,2.9065
-1.48762,0.235239,2.481,2.90236
-1.46884,0.233532,2.463,2.87722
-1.45016,0.231825,2.445,2.85215
-1.44223,0.231825,2.445,2.84812
-1.42432,0.230214,2.428,2.82434
-1.40652,0.228602,2.411,2.80062
-1.3987,0.228602,2.411,2.7967
-1.38106,0.22699,2.394,2.7731
-1.36354,0.225378,2.377,2.74958
-1.35583,0.225378,2.377,2.74576
-1.34811,0.225378,2.377,2.74196
-1.3404,0.225378,2.377,2.73817
-1.33268,0.225378,2.377,2.7344
-1.33444,0.22699,2.394,2.75018
-1.32667,0.22699,2.394,2.74642
-1.32827,0.228602,2.411,2.76215
-1.32975,0.230214,2.428,2.77785
-1.32187,0.230214,2.428,2.77408
-1.34267,0.235239,2.481,2.83081
-1.35399,0.238652,2.517,2.86802
-1.34582,0.238652,2.517,2.86417
-1.35784,0.242255,2.555,2.90352
-1.35959,0.244057,2.574,2.92122
-1.3612,0.245858,2.593,2.93887
-1.35279,0.245858,2.593,2.93498
-1.36511,0.249651,2.633,2.97633
-1.3782,0.253633,2.675,3.01983
-1.36952,0.253633,2.675,3.01588
-1.37152,0.255624,2.696,3.03559
-1.35216,0.253633,2.675,3.00804
-1.34347,0.253633,2.675,3.00414
-1.33479,0.253633,2.675,3.00027
-1.3157,0.251642,2.654,2.97289
-1.30708,0.251642,2.654,2.96909
-1.2882,0.249651,2.633,2.94185
-1.26993,0.247754,2.613,2.9158
-1.26145,0.247754,2.613,2.91211
-1.24338,0.245858,2.593,2.88619
-1.21686,0.242255,2.555,2.84033
-1.20857,0.242255,2.555,2.83679
-1.18243,0.238652,2.517,2.79112
-1.16586,0.236945,2.499,2.76774
-1.15775,0.236945,2.499,2.76433
-1.14136,0.235239,2.481,2.74106
-1.11686,0.231825,2.445,2.69799
-1.10121,0.230214,2.428,2.67598
-1.09333,0.230214,2.428,2.67274
-1.08545,0.230214,2.428,2.66953
-1.07003,0.228602,2.411,2.64767
-1.0622,0.228602,2.411,2.64451
-1.05437,0.228602,2.411,2.64138
-1.04655,0.228602,2.411,2.63827
-1.03872,0.228602,2.411,2.63517
-1.02363,0.22699,2.394,2.61354
-1.01586,0.22699,2.394,2.6105
-1.00809,0.22699,2.394,2.60749
-1.00032,0.22699,2.394,2.6045
-0.992548,0.22699,2.394,2.60152
-0.984778,0.22699,2.394,2.59857
-0.977007,0.22699,2.394,2.59563
-0.969237,0.22699,2.394,2.59272
-0.961466,0.22699,2.394,2.58982
-0.953696,0.22699,2.394,2.58695
-0.945926,0.22699,2.394,2.58409
-0.938156,0.22699,2.394,2.58126
-0.936992,0.228602,2.411,2.59675
-0.929166,0.228602,2.411,2.59394
-0.921341,0.228602,2.411,2.59115
-0.913515,0.228602,2.411,2.58838
-0.90569,0.228602,2.411,2.58562
-0.897864,0.228602,2.411,2.58289
-0.890039,0.228602,2.411,2.58018
-0.882213,0.228602,2.411,2.57749
-0.874388,0.228602,2.411,2.57483
-0.866562,0.228602,2.411,2.57218
-0.858737,0.228602,2.411,2.56955
-0.850911,0.228602,2.411,2.56695
-0.843086,0.228602,2.411,2.56437
-0.83526,0.228602,2.411,2.5618
-0.827435,0.228602,2.411,2.55926
-0.819609,0.228602,2.411,2.55674
-0.811784,0.228602,2.411,2.55425
-0.803958,0.228602,2.411,2.55177
-0.796133,0.228602,2.411,2.54931
-0.788307,0.228602,2.411,2.54688
-0.780482,0.228602,2.411,2.54447
-0.772656,0.228602,2.411,2.54208
-0.764831,0.228602,2.411,2.53971
-0.762343,0.230214,2.428,2.55526
-0.754462,0.230214,2.428,2.55292
-0.746581,0.230214,2.428,2.5506
-0.738701,0.230214,2.428,2.54831
-0.73082,0.230214,2.428,2.54603
-0.722939,0.230214,2.428,2.54378
-0.715059,0.230214,2.428,2.54155
-0.707178,0.230214,2.428,2.53935
-0.699297,0.230214,2.428,2.53716
-0.691417,0.230214,2.428,2.535
-0.683536,0.230214,2.428,2.53287
-0.675655,0.230214,2.428,2.53075
-0.67245,0.231825,2.445,2.54636
-0.664514,0.231825,2.445,2.54428
-0.656578,0.231825,2.445,2.54222
-0.644133,0.230214,2.428,2.52252
-0.636252,0.230214,2.428,2.52052
-0.628371,0.230214,2.428,2.51854
-0.620491,0.230214,2.428,2.51658
-0.616899,0.231825,2.445,2.53226
-0.608963,0.231825,2.445,2.53034
-0.601027,0.231825,2.445,2.52844
-0.593092,0.231825,2.445,2.52656
-0.585156,0.231825,2.445,2.52471
-0.57722,0.231825,2.445,2.52289
-0.569284,0.231825,2.445,2.52108
-0.561348,0.231825,2.445,2.5193
-0.553412,0.231825,2.445,2.51755
-0.545476,0.231825,2.445,2.51581
-0.53754,0.231825,2.445,2.5141
-0.529605,0.231825,2.445,2.51242
-0.521669,0.231825,2.445,2.51076
-0.513733,0.231825,2.445,2.50912
-0.505797,0.231825,2.445,2.50751
-0.497861,0.231825,2.445,2.50592
-0.489925,0.231825,2.445,2.50436
-0.485538,0.233532,2.463,2.52124
-0.477544,0.233532,2.463,2.51971
-0.469549,0.233532,2.463,2.51821
-0.461555,0.233532,2.463,2.51673
-0.453561,0.233532,2.463,2.51528
-0.445566,0.233532,2.463,2.51385
-0.437572,0.233532,2.463,2.51244
-0.429578,0.233532,2.463,2.51106
-0.421584,0.233532,2.463,2.50971
-0.416612,0.235239,2.481,2.52671
-0.408559,0.235239,2.481,2.5254
-0.400506,0.235239,2.481,2.5241
-0.392454,0.235239,2.481,2.52284
-0.384401,0.235239,2.481,2.5216
-0.376348,0.235239,2.481,2.52038
-0.368296,0.235239,2.481,2.51919
-0.360243,0.235239,2.481,2.51803
-0.35219,0.235239,2.481,2.51689
-0.344137,0.235239,2.481,2.51578
-0.336085,0.235239,2.481,2.51469
-0.330412,0.236945,2.499,2.53186
-0.322301,0.236945,2.499,2.53081
-0.31419,0.236945,2.499,2.52979
-0.306079,0.236945,2.499,2.5288
-0.300114,0.238652,2.517,2.54604
-0.291944,0.238652,2.517,2.54509
-0.283775,0.238652,2.517,2.54416
-0.275605,0.238652,2.517,2.54327
-0.267435,0.238652,2.517,2.54239
-0.259266,0.238652,2.517,2.54155
-0.251096,0.238652,2.517,2.54073
-0.242927,0.238652,2.517,2.53993
-0.234757,0.238652,2.517,2.53916
-0.226588,0.238652,2.517,2.53842
-0.218418,0.238652,2.517,2.53771
-0.210249,0.238652,2.517,2.53702
-0.202079,0.238652,2.517,2.53635
-0.195373,0.240454,2.536,2.55486
-0.187142,0.240454,2.536,2.55424
-0.178911,0.240454,2.536,2.55365
-0.170679,0.240454,2.536,2.55309
-0.162448,0.240454,2.536,2.55255
-0.154217,0.240454,2.536,2.55204
-0.145986,0.240454,2.536,2.55155
-0.137755,0.240454,2.536,2.5511
-0.128553,0.238652,2.517,2.53155
-0.120383,0.238652,2.517,2.53115
-0.112214,0.238652,2.517,2.53078
-0.104044,0.238652,2.517,2.53043
-0.0958747,0.238652,2.517,2.53011
-0.0877052,0.238652,2.517,2.52981
-0.0795356,0.238652,2.517,2.52954
-0.0713661,0.238652,2.517,2.5293
-0.0631965,0.238652,2.517,2.52908
-0.055027,0.238652,2.517,2.52889
-0.0468574,0.238652,2.517,2.52872
-0.0386878,0.238652,2.517,2.52858
-0.0305183,0.238652,2.517,2.52847
-0.0223487,0.238652,2.517,2.52839
-0.0141792,0.238652,2.517,2.52833
-0.00600962,0.238652,2.517,2.5283
0.00214449,0.236945,2.499,2.51021
0.0102556,0.236945,2.499,2.51023
0.0183668,0.236945,2.499,2.51028
0.0264779,0.236945,2.499,2.51035
0.034589,0.236945,2.499,2.51045
0.0427002,0.236945,2.499,2.51057
0.0508113,0.236945,2.499,2.51072
0.0589224,0.236945,2.499,2.5109
0.0665507,0.235239,2.481,2.49302
0.0746034,0.235239,2.481,2.49324
0.0826561,0.235239,2.481,2.4935
0.0907089,0.235239,2.481,2.49378
0.0987616,0.235239,2.481,2.49408
0.106814,0.235239,2.481,2.49442
0.114867,0.235239,2.481,2.49477
0.12292,0.235239,2.481,2.49516
0.130972,0.235239,2.481,2.49557
0.139025,0.235239,2.481,2.496
0.147078,0.235239,2.481,2.49646
0.155131,0.235239,2.481,2.49695
0.163183,0.235239,2.481,2.49746
0.171236,0.235239,2.481,2.498
0.179289,0.235239,2.481,2.49857
0.187341,0.235239,2.481,2.49916
0.196812,0.236945,2.499,2.51791
0.204923,0.236945,2.499,2.51856
0.213034,0.236945,2.499,2.51923
0.221145,0.236945,2.499,2.51993
0.229256,0.236945,2.499,2.52066
0.237367,0.236945,2.499,2.52141
0.245479,0.236945,2.499,2.52218
0.25359,0.236945,2.499,2.52298
0.261701,0.236945,2.499,2.52381
0.269812,0.236945,2.499,2.52467
0.277923,0.236945,2.499,2.52555
0.286034,0.236945,2.499,2.52645
0.294145,0.236945,2.499,2.52738
0.302256,0.236945,2.499,2.52834
0.310368,0.236945,2.499,2.52932
0.318479,0.236945,2.499,2.53033
0.32659,0.236945,2.499,2.53136
0.334701,0.236945,2.499,2.53242
0.342812,0.236945,2.499,2.53351
0.350923,0.236945,2.499,2.53462
0.359034,0.236945,2.499,2.53575
0.367146,0.236945,2.499,2.53692
0.375257,0.236945,2.499,2.5381
0.383368,0.236945,2.499,2.53931
0.391479,0.236945,2.499,2.54055
0.39959,0.236945,2.499,2.54181
0.407701,0.236945,2.499,2.5431
0.415812,0.236945,2.499,2.54441
0.423923,0.236945,2.499,2.54575
0.432035,0.236945,2.499,2.54712
0.440146,0.236945,2.499,2.5485
0.448257,0.236945,2.499,2.54992
0.456368,0.236945,2.499,2.55136
0.461134,0.235239,2.481,2.53443
0.469186,0.235239,2.481,2.53591
0.477239,0.235239,2.481,2.53741
0.485292,0.235239,2.481,2.53894
0.493344,0.235239,2.481,2.54049
0.501397,0.235239,2.481,2.54207
0.50945,0.235239,2.481,2.54367
0.517502,0.235239,2.481,2.54529
0.525555,0.235239,2.481,2.54694
0.529737,0.233532,2.463,2.53012
0.537731,0.233532,2.463,2.53181
0.545725,0.233532,2.463,2.53352
0.553719,0.233532,2.463,2.53525
0.561714,0.233532,2.463,2.53701
0.569708,0.233532,2.463,2.53879
0.577702,0.233532,2.463,2.5406
0.581416,0.231825,2.445,2.52385
0.589352,0.231825,2.445,2.52569
0.597288,0.231825,2.445,2.52755
0.605224,0.231825,2.445,2.52944
0.61316,0.231825,2.445,2.53135
0.616777,0.230214,2.428,2.51567
0.620284,0.228602,2.411,2.49999
0.62811,0.228602,2.411,2.50194
0.631451,0.22699,2.394,2.48626
0.634682,0.225378,2.377,2.47058
0.642397,0.225378,2.377,2.47257
0.650113,0.225378,2.377,2.47459
0.6534,0.223861,2.361,2.45995
0.661063,0.223861,2.361,2.462
0.668726,0.223861,2.361,2.46407
0.671806,0.222344,2.345,2.44945
0.679417,0.222344,2.345,2.45154
0.687028,0.222344,2.345,2.45366
0.69464,0.222344,2.345,2.45581
0.702251,0.222344,2.345,2.45797
0.709862,0.222344,2.345,2.46016
0.717473,0.222344,2.345,2.46236
0.725085,0.222344,2.345,2.46459
0.732696,0.222344,2.345,2.46684
0.745358,0.223861,2.361,2.48596
0.753022,0.223861,2.361,2.48827
0.760685,0.223861,2.361,2.4906
0.768348,0.223861,2.361,2.49295
0.776011,0.223861,2.361,2.49532
0.783674,0.223861,2.361,2.49771
0.791338,0.223861,2.361,2.50013
0.799001,0.223861,2.361,2.50257
0.806664,0.223861,2.361,2.50502
0.819846,0.225378,2.377,2.52449
0.827561,0.225378,2.377,2.52701
0.84125,0.22699,2.394,2.54764
0.84902,0.22699,2.394,2.55022
0.862875,0.228602,2.411,2.57094
0.8707,0.228602,2.411,2.57358
0.88472,0.230214,2.428,2.5944
0.892601,0.230214,2.428,2.5971
0.900482,0.230214,2.428,2.59982
0.914722,0.231825,2.445,2.62078
0.929451,0.233532,2.463,2.64287
0.937445,0.233532,2.463,2.6457
0.945439,0.233532,2.463,2.64854
0.953434,0.233532,2.463,2.6514
0.961428,0.233532,2.463,2.65429
0.969422,0.233532,2.463,2.6572
0.977417,0.233532,2.463,2.66012
0.985411,0.233532,2.463,2.66307
0.993405,0.233532,2.463,2.66604
1.0014,0.233532,2.463,2.66903
1.00939,0.233532,2.463,2.67204
1.01739,0.233532,2.463,2.67507
1.02538,0.233532,2.463,2.67812
1.03338,0.233532,2.463,2.68119
1.03376,0.231825,2.445,2.66466
1.0417,0.231825,2.445,2.66775
1.04963,0.231825,2.445,2.67086
1.05757,0.231825,2.445,2.67399
1.0655,0.231825,2.445,2.67714
1.06598,0.230214,2.428,2.66167
1.07386,0.230214,2.428,2.66484
1.08174,0.230214,2.428,2.66802
1.08962,0.230214,2.428,2.67123
1.0975,0.230214,2.428,2.67445
1.10538,0.230214,2.428,2.67769
1.11326,0.230214,2.428,2.68096
1.12114,0.230214,2.428,2.68424
1.12902,0.230214,2.428,2.68754
1.1369,0.230214,2.428,2.69086
1.14478,0.230214,2.428,2.6942
1.15266,0.230214,2.428,2.69756
1.16054,0.230214,2.428,2.70093
1.16842,0.230214,2.428,2.70433
1.17631,0.230214,2.428,2.70774
1.18419,0.230214,2.428,2.71118
1.19207,0.230214,2.428,2.71463
1.19995,0.230214,2.428,2.7181
1.20783,0.230214,2.428,2.72159
1.21571,0.230214,2.428,2.72509
1.22359,0.230214,2.428,2.72862
1.23147,0.230214,2.428,2.73216
1.24803,0.231825,2.445,2.75488
1.26521,0.233532,2.463,2.77879
1.27321,0.233532,2.463,2.78244
1.2812,0.233532,2.463,2.7861
1.29862,0.235239,2.481,2.81018
1.31615,0.236945,2.499,2.83432
1.32426,0.236945,2.499,2.8381
1.36223,0.242255,2.555,2.90558
1.41236,0.249651,2.633,2.9983
1.42091,0.249651,2.633,3.00233
1.46365,0.255624,2.696,3.07832
1.49589,0.259701,2.739,3.13165
1.54159,0.266054,2.806,3.21262
1.5507,0.266054,2.806,3.217
1.59927,0.272786,2.877,3.30291
1.64999,0.279802,2.951,3.39251
1.65956,0.279802,2.951,3.39718
1.69855,0.284733,3.003,3.46182
1.72366,0.287293,3.03,3.49778
1.73349,0.287293,3.03,3.50263
1.74333,0.287293,3.03,3.50751
1.75316,0.287293,3.03,3.51241
1.763,0.287293,3.03,3.51733
1.77283,0.287293,3.03,3.52227
1.76678,0.284733,3.003,3.4958
1.77653,0.284733,3.003,3.50073
1.78628,0.284733,3.003,3.50569
1.78047,0.282268,2.977,3.48027
1.79014,0.282268,2.977,3.48522
1.78408,0.279802,2.951,3.45972
1.77846,0.277432,2.926,3.43531
1.78796,0.277432,2.926,3.44024
1.76736,0.272786,2.877,3.38749
1.74705,0.268235,2.829,3.33577
1.75623,0.268235,2.829,3.34059
1.73671,0.263873,2.783,3.29103
1.70434,0.257615,2.717,3.21764
1.68668,0.253633,2.675,3.17251
1.69536,0.253633,2.675,3.17714
1.66455,0.247754,2.613,3.10803
1.64806,0.244057,2.574,3.06613
1.65641,0.244057,2.574,3.07063
1.64019,0.240454,2.536,3.02974
1.62437,0.236945,2.499,2.98994
1.63248,0.236945,2.499,2.99435
1.62878,0.235239,2.481,2.97718
1.61308,0.231825,2.445,2.93833
1.62101,0.231825,2.445,2.9427
1.61762,0.230214,2.428,2.92658
1.61412,0.228602,2.411,2.91043
1.62195,0.228602,2.411,2.91477
1.62977,0.228602,2.411,2.91913
1.62605,0.22699,2.394,2.9029
-1.77249,0.250546,2.555,3.1197
-1.77731,0.252409,2.574,3.13816
-1.76896,0.252409,2.574,3.13343
-1.7606,0.252409,2.574,3.12872
-1.76518,0.254272,2.593,3.14709
-1.77032,0.256233,2.613,3.16662
-1.77532,0.258194,2.633,3.18608
-1.76678,0.258194,2.633,3.18133
-1.77225,0.260254,2.654,3.20193
-1.77759,0.262313,2.675,3.22246
-1.76891,0.262313,2.675,3.21768
-1.77405,0.264372,2.696,3.23814
-1.7653,0.264372,2.696,3.23335
-1.75655,0.264372,2.696,3.22859
-1.7478,0.264372,2.696,3.22383
-1.7255,0.262313,2.675,3.19402
-1.71682,0.262313,2.675,3.18934
-1.69472,0.260254,2.654,3.15967
-1.67277,0.258194,2.633,3.1301
-1.66422,0.258194,2.633,3.12554
-1.6431,0.256233,2.613,3.09729
-1.62211,0.254272,2.593,3.06913
-1.61369,0.254272,2.593,3.06469
-1.60528,0.254272,2.593,3.06026
-1.58516,0.252409,2.574,3.03347
-1.5768,0.252409,2.574,3.02911
-1.55687,0.250546,2.555,3.00244
-1.52555,0.246819,2.517,2.95356
-1.50653,0.245054,2.499,2.92825
-1.49842,0.245054,2.499,2.92409
-1.46884,0.241524,2.463,2.87788
-1.45016,0.239759,2.445,2.8528
-1.44223,0.239759,2.445,2.84878
-1.42432,0.238092,2.428,2.82499
-1.40652,0.236425,2.411,2.80127
-1.3987,0.236425,2.411,2.79735
-1.38106,0.234758,2.394,2.77375
-1.36354,0.233091,2.377,2.75022
-1.35583,0.233091,2.377,2.7464
-1.34811,0.233091,2.377,2.7426
-1.3404,0.233091,2.377,2.73882
-1.33268,0.233091,2.377,2.73505
-1.33444,0.234758,2.394,2.75083
-1.32667,0.234758,2.394,2.74707
-1.32827,0.236425,2.411,2.76281
-1.32975,0.238092,2.428,2.77851
-1.32187,0.238092,2.428,2.77475
-1.34267,0.243289,2.481,2.83149
-1.35399,0.246819,2.517,2.86871
-1.34582,0.246819,2.517,2.86486
-1.35784,0.250546,2.555,2.90423
-1.36962,0.254272,2.593,2.9435
-1.3612,0.254272,2.593,2.93959
-1.35279,0.254272,2.593,2.9357
-1.36511,0.258194,2.633,2.97706
-1.3782,0.262313,2.675,3.02058
-1.36952,0.262313,2.675,3.01662
-1.37152,0.264372,2.696,3.03634
-1.35216,0.262313,2.675,3.00878
-1.34347,0.262313,2.675,3.00489
-1.33479,0.262313,2.675,3.00102
-1.3157,0.260254,2.654,2.97364
-1.30708,0.260254,2.654,2.96983
-1.2882,0.258194,2.633,2.94258
-1.26993,0.256233,2.613,2.91653
-1.26145,0.256233,2.613,2.91285
-1.24338,0.254272,2.593,2.88692
-1.21686,0.250546,2.555,2.84105
-1.20857,0.250546,2.555,2.83751
-1.18243,0.246819,2.517,2.79183
-1.16586,0.245054,2.499,2.76844
-1.15775,0.245054,2.499,2.76504
-1.14136,0.243289,2.481,2.74176
-1.11686,0.239759,2.445,2.69868
-1.10121,0.238092,2.428,2.67667
-1.09333,0.238092,2.428,2.67343
-1.08545,0.238092,2.428,2.67022
-1.07003,0.236425,2.411,2.64835
-1.0622,0.236425,2.411,2.6452
-1.05437,0.236425,2.411,2.64207
-1.04655,0.236425,2.411,2.63895
-1.03872,0.236425,2.411,2.63586
-1.02363,0.234758,2.394,2.61422
-1.01586,0.234758,2.394,2.61119
-1.00809,0.234758,2.394,2.60818
-1.00032,0.234758,2.394,2.60518
-0.992548,0.234758,2.394,2.60221
-0.984778,0.234758,2.394,2.59926
-0.977007,0.234758,2.394,2.59632
-0.969237,0.234758,2.394,2.59341
-0.961466,0.234758,2.394,2.59051
-0.953696,0.234758,2.394,2.58764
-0.945926,0.234758,2.394,2.58479
-0.938156,0.234758,2.394,2.58195
-0.936992,0.236425,2.411,2.59745
-0.929166,0.236425,2.411,2.59464
-0.921341,0.236425,2.411,2.59185
-0.913515,0.236425,2.411,2.58908
-0.90569,0.236425,2.411,2.58633
-0.897864,0.236425,2.411,2.5836
-0.890039,0.236425,2.411,2.58089
-0.882213,0.236425,2.411,2.5782
-0.874388,0.236425,2.411,2.57553
-0.866562,0.236425,2.411,2.57289
-0.858737,0.236425,2.411,2.57026
-0.850911,0.236425,2.411,2.56766
-0.843086,0.236425,2.411,2.56508
-0.83526,0.236425,2.411,2.56251
-0.827435,0.236425,2.411,2.55997
-0.819609,0.236425,2.411,2.55746
-0.811784,0.236425,2.411,2.55496
-0.803958,0.236425,2.411,2.55248
-0.796133,0.236425,2.411,2.55003
-0.788307,0.236425,2.411,2.5476
-0.780482,0.236425,2.411,2.54519
-0.772656,0.236425,2.411,2.5428
-0.770224,0.238092,2.428,2.55834
-0.762343,0.238092,2.428,2.55598
-0.754462,0.238092,2.428,2.55364
-0.746581,0.238092,2.428,2.55132
-0.738701,0.238092,2.428,2.54903
-0.73082,0.238092,2.428,2.54676
-0.722939,0.238092,2.428,2.54451
-0.715059,0.238092,2.428,2.54228
-0.707178,0.238092,2.428,2.54007
-0.699297,0.238092,2.428,2.53789
-0.691417,0.238092,2.428,2.53573
-0.683536,0.238092,2.428,2.53359
-0.675655,0.238092,2.428,2.53148
-0.67245,0.239759,2.445,2.5471
-0.664514,0.239759,2.445,2.54501
-0.656578,0.239759,2.445,2.54295
-0.644133,0.238092,2.428,2.52325
-0.636252,0.238092,2.428,2.52125
-0.628371,0.238092,2.428,2.51927
-0.620491,0.238092,2.428,2.51732
-0.61261,0.238092,2.428,2.51539
-0.604729,0.238092,2.428,2.51348
-0.596848,0.238092,2.428,2.51159
-0.588968,0.238092,2.428,2.50973
-0.585156,0.239759,2.445,2.52545
-0.57722,0.239759,2.445,2.52363
-0.569284,0.239759,2.445,2.52182
-0.561348,0.239759,2.445,2.52004
-0.553412,0.239759,2.445,2.51829
-0.545476,0.239759,2.445,2.51656
-0.53754,0.239759,2.445,2.51485
-0.533504,0.241524,2.463,2.53167
-0.525509,0.241524,2.463,2.52999
-0.513733,0.239759,2.445,2.50987
-0.505797,0.239759,2.445,2.50825
-0.497861,0.239759,2.445,2.50667
-0.489925,0.239759,2.445,2.5051
-0.485538,0.241524,2.463,2.52199
-0.477544,0.241524,2.463,2.52047
-0.469549,0.241524,2.463,2.51896
-0.461555,0.241524,2.463,2.51749
-0.453561,0.241524,2.463,2.51603
-0.445566,0.241524,2.463,2.5146
-0.437572,0.241524,2.463,2.5132
-0.429578,0.241524,2.463,2.51182
-0.421584,0.241524,2.463,2.51047
-0.413589,0.241524,2.463,2.50914
-0.408559,0.243289,2.481,2.52616
-0.400506,0.243289,2.481,2.52487
-0.392454,0.243289,2.481,2.5236
-0.384401,0.243289,2.481,2.52236
-0.376348,0.243289,2.481,2.52115
-0.368296,0.243289,2.481,2.51996
-0.360243,0.243289,2.481,2.51879
-0.35219,0.243289,2.481,2.51766
-0.344137,0.243289,2.481,2.51654
-0.336085,0.243289,2.481,2.51545
-0.328032,0.243289,2.481,2.51439
-0.322301,0.245054,2.499,2.53159
-0.31419,0.245054,2.499,2.53057
-0.306079,0.245054,2.499,2.52957
-0.297967,0.245054,2.499,2.5286
-0.289856,0.245054,2.499,2.52766
-0.283775,0.246819,2.517,2.54494
-0.275605,0.246819,2.517,2.54405
-0.267435,0.246819,2.517,2.54317
-0.259266,0.246819,2.517,2.54233
-0.251096,0.246819,2.517,2.54151
-0.242927,0.246819,2.517,2.54071
-0.234757,0.246819,2.517,2.53995
-0.226588,0.246819,2.517,2.5392
-0.218418,0.246819,2.517,2.53849
-0.210249,0.246819,2.517,2.5378
-0.203604,0.248683,2.536,2.55629
-0.195373,0.248683,2.536,2.55564
-0.187142,0.248683,2.536,2.55503
-0.178911,0.248683,2.536,2.55444
-0.170679,0.248683,2.536,2.55387
-0.162448,0.248683,2.536,2.55334
-0.154217,0.248683,2.536,2.55283
-0.145986,0.248683,2.536,2.55234
-0.137755,0.248683,2.536,2.55188
-0.128553,0.246819,2.517,2.53234
-0.120383,0.246819,2.517,2.53194
-0.112214,0.246819,2.517,2.53156
-0.104044,0.246819,2.517,2.53121
-0.0958747,0.246819,2.517,2.53089
-0.0877052,0.246819,2.517,2.53059
-0.0795356,0.246819,2.517,2.53032
-0.0713661,0.246819,2.517,2.53008
-0.0631965,0.246819,2.517,2.52986
-0.055027,0.246819,2.517,2.52967
-0.0468574,0.246819,2.517,2.52951
-0.0386878,0.246819,2.517,2.52937
-0.0305183,0.246819,2.517,2.52926
-0.0223487,0.246819,2.517,2.52917
-0.0141792,0.246819,2.517,2.52911
-0.00600962,0.246819,2.517,2.52908
0.00215994,0.246819,2.517,2.52907
0.0102556,0.245054,2.499,2.51101
0.0183668,0.245054,2.499,2.51105
0.0264779,0.245054,2.499,2.51113
0.034589,0.245054,2.499,2.51122
0.0427002,0.245054,2.499,2.51135
0.0508113,0.245054,2.499,2.5115
0.0589224,0.245054,2.499,2.51168
0.0665507,0.243289,2.481,2.49379
0.0746034,0.243289,2.481,2.49402
0.0826561,0.243289,2.481,2.49427
0.0907089,0.243289,2.481,2.49455
0.0987616,0.243289,2.481,2.49486
0.106814,0.243289,2.481,2.49519
0.114867,0.243289,2.481,2.49555
0.12292,0.243289,2.481,2.49593
0.130972,0.243289,2.481,2.49634
0.139025,0.243289,2.481,2.49677
0.147078,0.243289,2.481,2.49724
0.155131,0.243289,2.481,2.49772
0.163183,0.243289,2.481,2.49824
0.171236,0.243289,2.481,2.49877
0.179289,0.243289,2.481,2.49934
0.187341,0.243289,2.481,2.49993
0.196812,0.245054,2.499,2.51869
0.204923,0.245054,2.499,2.51933
0.213034,0.245054,2.499,2.52001
0.221145,0.245054,2.499,2.52071
0.229256,0.245054,2.499,2.52143
0.237367,0.245054,2.499,2.52218
0.245479,0.245054,2.499,2.52296
0.25359,0.245054,2.499,2.52376
0.261701,0.245054,2.499,2.52459
0.269812,0.245054,2.499,2.52544
0.277923,0.245054,2.499,2.52632
0.286034,0.245054,2.499,2.52723
0.294145,0.245054,2.499,2.52816
0.302256,0.245054,2.499,2.52911
0.310368,0.245054,2.499,2.5301
0.318479,0.245054,2.499,2.5311
0.32659,0.245054,2.499,2.53214
0.334701,0.245054,2.499,2.5332
0.342812,0.245054,2.499,2.53428
0.350923,0.245054,2.499,2.53539
0.359034,0.245054,2.499,2.53653
0.367146,0.245054,2.499,2.53769
0.375257,0.245054,2.499,2.53887
0.383368,0.245054,2.499,2.54008
0.391479,0.245054,2.499,2.54132
0.39959,0.245054,2.499,2.54258
0.407701,0.245054,2.499,2.54387
0.415812,0.245054,2.499,2.54518
0.423923,0.245054,2.499,2.54652
0.432035,0.245054,2.499,2.54788
0.440146,0.245054,2.499,2.54927
0.448257,0.245054,2.499,2.55068
0.456368,0.245054,2.499,2.55212
0.461134,0.243289,2.481,2.53519
0.469186,0.243289,2.481,2.53667
0.477239,0.243289,2.481,2.53817
0.485292,0.243289,2.481,2.5397
0.493344,0.243289,2.481,2.54125
0.501397,0.243289,2.481,2.54282
0.50945,0.243289,2.481,2.54442
0.517502,0.243289,2.481,2.54605
0.525555,0.243289,2.481,2.5477
0.529737,0.241524,2.463,2.53087
0.537731,0.241524,2.463,2.53256
0.545725,0.241524,2.463,2.53427
0.553719,0.241524,2.463,2.536
0.561714,0.241524,2.463,2.53776
0.569708,0.241524,2.463,2.53954
0.57348,0.239759,2.445,2.52277
0.581416,0.239759,2.445,2.52459
0.589352,0.239759,2.445,2.52643
0.597288,0.239759,2.445,2.52829
0.601016,0.238092,2.428,2.51259
0.608896,0.238092,2.428,2.51448
0.616777,0.238092,2.428,2.5164
0.620284,0.236425,2.411,2.50071
0.62811,0.236425,2.411,2.50267
0.631451,0.234758,2.394,2.48698
0.634682,0.233091,2.377,2.47129
0.642397,0.233091,2.377,2.47328
0.650113,0.233091,2.377,2.4753
0.6534,0.231522,2.361,2.46066
0.661063,0.231522,2.361,2.46271
0.668726,0.231522,2.361,2.46478
0.671806,0.229953,2.345,2.45015
0.679417,0.229953,2.345,2.45225
0.687028,0.229953,2.345,2.45437
0.69464,0.229953,2.345,2.45651
0.702251,0.229953,2.345,2.45867
0.709862,0.229953,2.345,2.46086
0.717473,0.229953,2.345,2.46306
0.725085,0.229953,2.345,2.46529
0.732696,0.229953,2.345,2.46754
0.740307,0.229953,2.345,2.46981
0.747919,0.229953,2.345,2.4721
0.75553,0.229953,2.345,2.47441
0.763141,0.229953,2.345,2.47675
0.770752,0.229953,2.345,2.47911
0.778364,0.229953,2.345,2.48148
0.785975,0.229953,2.345,2.48388
0.793586,0.229953,2.345,2.4863
0.801198,0.229953,2.345,2.48874
0.814327,0.231522,2.361,2.5082
0.821991,0.231522,2.361,2.5107
0.835276,0.233091,2.377,2.53025
0.84902,0.234758,2.394,2.55092
0.856791,0.234758,2.394,2.55351
0.864561,0.234758,2.394,2.55613
0.872331,0.234758,2.394,2.55877
0.892601,0.238092,2.428,2.59781
0.900482,0.238092,2.428,2.60053
0.908362,0.238092,2.428,2.60327
0.922658,0.239759,2.445,2.62427
0.930594,0.239759,2.445,2.62707
0.945439,0.241524,2.463,2.64926
0.953434,0.241524,2.463,2.65212
0.961428,0.241524,2.463,2.655
0.969422,0.241524,2.463,2.65791
0.977417,0.241524,2.463,2.66084
0.985411,0.241524,2.463,2.66378
0.993405,0.241524,2.463,2.66675
1.0014,0.241524,2.463,2.66974
1.00939,0.241524,2.463,2.67275
1.00995,0.239759,2.445,2.65622
1.01789,0.239759,2.445,2.65925
1.02582,0.239759,2.445,2.6623
1.03376,0.239759,2.445,2.66536
1.03445,0.238092,2.428,2.6499
1.04233,0.238092,2.428,2.65299
1.05021,0.238092,2.428,2.65609
1.0581,0.238092,2.428,2.65922
1.06598,0.238092,2.428,2.66236
1.07386,0.238092,2.428,2.66553
1.08174,0.238092,2.428,2.66871
1.08962,0.238092,2.428,2.67192
1.0975,0.238092,2.428,2.67514
1.10538,0.238092,2.428,2.67838
1.11326,0.238092,2.428,2.68165
1.12114,0.238092,2.428,2.68493
1.12902,0.238092,2.428,2.68823
1.1369,0.238092,2.428,2.69155
1.14478,0.238092,2.428,2.69488
1.15266,0.238092,2.428,2.69824
1.16054,0.238092,2.428,2.70162
1.16842,0.238092,2.428,2.70501
1.17631,0.238092,2.428,2.70843
1.18419,0.238092,2.428,2.71186
1.19207,0.238092,2.428,2.71531
1.19995,0.238092,2.428,2.71878
1.20783,0.238092,2.428,2.72226
1.21571,0.238092,2.428,2.72577
1.22359,0.238092,2.428,2.72929
1.23147,0.238092,2.428,2.73284
1.24803,0.239759,2.445,2.75556
1.26521,0.241524,2.463,2.77947
1.27321,0.241524,2.463,2.78312
1.2812,0.241524,2.463,2.78679
1.29862,0.243289,2.481,2.81086
1.31615,0.245054,2.499,2.83501
1.32426,0.245054,2.499,2.83879
1.36223,0.250546,2.555,2.90628
1.41236,0.258194,2.633,2.99902
1.42091,0.258194,2.633,3.00305
1.46365,0.264372,2.696,3.07906
1.49589,0.268589,2.739,3.1324
1.54159,0.275159,2.806,3.21339
1.5507,0.275159,2.806,3.21776
1.59927,0.282121,2.877,3.30369
1.64999,0.289378,2.951,3.39332
1.65956,0.289378,2.951,3.39798
1.69855,0.294477,3.003,3.46263
1.73902,0.299772,3.057,3.52977
1.74894,0.299772,3.057,3.53467
1.75886,0.299772,3.057,3.53959
1.76879,0.299772,3.057,3.54453
1.77871,0.299772,3.057,3.5495
1.77283,0.297125,3.03,3.52308
1.78267,0.297125,3.03,3.52804
1.7925,0.297125,3.03,3.53302
1.78628,0.294477,3.003,3.5065
1.78047,0.291927,2.977,3.48107
1.79014,0.291927,2.977,3.48602
1.78408,0.289378,2.951,3.4605
1.77846,0.286926,2.926,3.43609
1.78796,0.286926,2.926,3.44102
1.76736,0.282121,2.877,3.38825
1.74705,0.277414,2.829,3.33652
1.75623,0.277414,2.829,3.34134
1.73671,0.272904,2.783,3.29177
1.70434,0.266432,2.717,3.21836
1.68668,0.262313,2.675,3.17322
1.69536,0.262313,2.675,3.17784
1.66455,0.256233,2.613,3.10872
1.64806,0.252409,2.574,3.0668
1.65641,0.252409,2.574,3.0713
1.64019,0.248683,2.536,3.03041
1.62437,0.245054,2.499,2.99059
1.63248,0.245054,2.499,2.995
1.61696,0.241524,2.463,2.95622
1.60186,0.238092,2.428,2.91853
1.60974,0.238092,2.428,2.92287
1.61762,0.238092,2.428,2.92721
1.61412,0.236425,2.411,2.91105
1.62195,0.236425,2.411,2.9154
1.61828,0.234758,2.394,2.89917
1.61451,0.233091,2.377,2.8829
-1.75931,0.256911,2.536,3.09717
-1.75107,0.256911,2.536,3.0925
-1.74284,0.256911,2.536,3.08785
-1.73461,0.256911,2.536,3.08321
-1.75225,0.260761,2.574,3.12472
-1.75677,0.262686,2.593,3.14307
-1.76184,0.264712,2.613,3.16258
-1.75336,0.264712,2.613,3.15786
-1.77225,0.268866,2.654,3.20264
-1.77759,0.270993,2.675,3.22318
-1.76891,0.270993,2.675,3.2184
-1.77405,0.27312,2.696,3.23887
-1.7653,0.27312,2.696,3.23408
-1.75655,0.27312,2.696,3.22931
-1.7478,0.27312,2.696,3.22456
-1.7255,0.270993,2.675,3.19475
-1.71682,0.270993,2.675,3.19007
-1.69472,0.268866,2.654,3.1604
-1.67277,0.266738,2.633,3.13081
-1.66422,0.266738,2.633,3.12626
-1.6431,0.264712,2.613,3.098
-1.62211,0.262686,2.593,3.06984
-1.61369,0.262686,2.593,3.0654
-1.60528,0.262686,2.593,3.06097
-1.58516,0.260761,2.574,3.03417
-1.5768,0.260761,2.574,3.02982
-1.55687,0.258836,2.555,3.00314
-1.52555,0.254987,2.517,2.95425
-1.50653,0.253163,2.499,2.92894
-1.49842,0.253163,2.499,2.92478
-1.46884,0.249516,2.463,2.87856
-1.45016,0.247693,2.445,2.85348
-1.44223,0.247693,2.445,2.84946
-1.42432,0.24597,2.428,2.82566
-1.39661,0.242526,2.394,2.78219
-1.38883,0.242526,2.394,2.77829
-1.37126,0.240804,2.377,2.75472
-1.36354,0.240804,2.377,2.75088
-1.35583,0.240804,2.377,2.74707
-1.34811,0.240804,2.377,2.74327
-1.3404,0.240804,2.377,2.73949
-1.33268,0.240804,2.377,2.73572
-1.32497,0.240804,2.377,2.73197
-1.31725,0.240804,2.377,2.72824
-1.32827,0.244248,2.411,2.76349
-1.32975,0.24597,2.428,2.7792
-1.32187,0.24597,2.428,2.77543
-1.34267,0.25134,2.481,2.83219
-1.35399,0.254987,2.517,2.86942
-1.34582,0.254987,2.517,2.86558
-1.35784,0.258836,2.555,2.90495
-1.36962,0.262686,2.593,2.94423
-1.3717,0.264712,2.613,2.96301
-1.36322,0.264712,2.613,2.95909
-1.376,0.268866,2.654,3.00156
-1.3782,0.270993,2.675,3.02134
-1.36952,0.270993,2.675,3.01739
-1.37152,0.27312,2.696,3.03712
-1.36277,0.27312,2.696,3.03318
-1.35402,0.27312,2.696,3.02925
-1.34527,0.27312,2.696,3.02535
-1.32611,0.270993,2.675,2.99794
-1.31743,0.270993,2.675,2.99411
-1.2882,0.266738,2.633,2.94335
-1.27965,0.266738,2.633,2.93962
-1.2711,0.266738,2.633,2.93591
-1.24338,0.262686,2.593,2.88767
-1.21686,0.258836,2.555,2.84179
-1.20857,0.258836,2.555,2.83825
-1.18243,0.254987,2.517,2.79257
-1.16586,0.253163,2.499,2.76917
-1.14941,0.25134,2.481,2.74585
-1.14136,0.25134,2.481,2.74249
-1.11686,0.247693,2.445,2.6994
-1.10121,0.24597,2.428,2.67738
-1.09333,0.24597,2.428,2.67415
-1.08545,0.24597,2.428,2.67093
-1.07757,0.24597,2.428,2.66774
-1.06969,0.24597,2.428,2.66457
-1.05437,0.244248,2.411,2.64278
-1.04655,0.244248,2.411,2.63967
-1.03872,0.244248,2.411,2.63657
-1.0309,0.244248,2.411,2.6335
-1.02307,0.244248,2.411,2.63045
-1.00809,0.242526,2.394,2.60889
-1.00032,0.242526,2.394,2.6059
-0.992548,0.242526,2.394,2.60292
-0.984778,0.242526,2.394,2.59997
-0.977007,0.242526,2.394,2.59704
-0.969237,0.242526,2.394,2.59412
-0.961466,0.242526,2.394,2.59123
-0.953696,0.242526,2.394,2.58836
-0.945926,0.242526,2.394,2.5855
-0.944817,0.244248,2.411,2.60101
-0.936992,0.244248,2.411,2.59818
-0.929166,0.244248,2.411,2.59537
-0.921341,0.244248,2.411,2.59258
-0.913515,0.244248,2.411,2.5898
-0.90569,0.244248,2.411,2.58705
-0.897864,0.244248,2.411,2.58433
-0.890039,0.244248,2.411,2.58162
-0.882213,0.244248,2.411,2.57893
-0.874388,0.244248,2.411,2.57626
-0.866562,0.244248,2.411,2.57362
-0.864792,0.24597,2.428,2.58912
-0.856911,0.24597,2.428,2.5865
-0.84903,0.24597,2.428,2.5839
-0.84115,0.24597,2.428,2.58132
-0.833269,0.24597,2.428,2.57876
-0.825388,0.24597,2.428,2.57623
-0.817508,0.24597,2.428,2.57371
-0.809627,0.24597,2.428,2.57122
-0.801746,0.24597,2.428,2.56875
-0.793866,0.24597,2.428,2.5663
-0.785985,0.24597,2.428,2.56388
-0.778104,0.24597,2.428,2.56147
-0.770224,0.24597,2.428,2.55909
-0.762343,0.24597,2.428,2.55673
-0.754462,0.24597,2.428,2.55439
-0.746581,0.24597,2.428,2.55207
-0.738701,0.24597,2.428,2.54978
-0.73082,0.24597,2.428,2.54751
-0.722939,0.24597,2.428,2.54526
-0.715059,0.24597,2.428,2.54303
-0.707178,0.24597,2.428,2.54082
-0.699297,0.24597,2.428,2.53864
-0.691417,0.24597,2.428,2.53648
-0.683536,0.24597,2.428,2.53435
-0.675655,0.24597,2.428,2.53223
-0.67245,0.247693,2.445,2.54786
-0.664514,0.247693,2.445,2.54577
-0.656578,0.247693,2.445,2.54371
-0.644133,0.24597,2.428,2.524
-0.636252,0.24597,2.428,2.522
-0.628371,0.24597,2.428,2.52003
-0.620491,0.24597,2.428,2.51807
-0.61261,0.24597,2.428,2.51614
-0.604729,0.24597,2.428,2.51424
-0.596848,0.24597,2.428,2.51235
-0.588968,0.24597,2.428,2.51049
-0.585156,0.247693,2.445,2.52622
-0.57722,0.247693,2.445,2.52439
-0.569284,0.247693,2.445,2.52259
-0.561348,0.247693,2.445,2.52081
-0.553412,0.247693,2.445,2.51906
-0.545476,0.247693,2.445,2.51732
-0.53754,0.247693,2.445,2.51562
-0.533504,0.249516,2.463,2.53244
-0.525509,0.249516,2.463,2.53077
-0.517515,0.249516,2.463,2.52912
-0.509521,0.249516,2.463,2.5275
-0.501526,0.249516,2.463,2.5259
-0.493532,0.249516,2.463,2.52432
-0.485538,0.249516,2.463,2.52277
-0.477544,0.249516,2.463,2.52124
-0.469549,0.249516,2.463,2.51974
-0.461555,0.249516,2.463,2.51827
-0.453561,0.249516,2.463,2.51681
-0.445566,0.249516,2.463,2.51538
-0.437572,0.249516,2.463,2.51398
-0.429578,0.249516,2.463,2.5126
-0.421584,0.249516,2.463,2.51125
-0.413589,0.249516,2.463,2.50992
-0.408559,0.25134,2.481,2.52695
-0.400506,0.25134,2.481,2.52566
-0.392454,0.25134,2.481,2.52439
-0.384401,0.25134,2.481,2.52315
-0.376348,0.25134,2.481,2.52194
-0.368296,0.25134,2.481,2.52075
-0.360243,0.25134,2.481,2.51958
-0.35219,0.25134,2.481,2.51845
-0.344137,0.25134,2.481,2.51733
-0.336085,0.25134,2.481,2.51624
-0.328032,0.25134,2.481,2.51518
-0.322301,0.253163,2.499,2.53238
-0.31419,0.253163,2.499,2.53136
-0.306079,0.253163,2.499,2.53037
-0.297967,0.253163,2.499,2.5294
-0.289856,0.253163,2.499,2.52846
-0.283775,0.254987,2.517,2.54575
-0.275605,0.254987,2.517,2.54485
-0.267435,0.254987,2.517,2.54398
-0.259266,0.254987,2.517,2.54313
-0.251096,0.254987,2.517,2.54231
-0.242927,0.254987,2.517,2.54152
-0.234757,0.254987,2.517,2.54075
-0.226588,0.254987,2.517,2.54001
-0.218418,0.254987,2.517,2.53929
-0.210249,0.254987,2.517,2.5386
-0.203604,0.256911,2.536,2.5571
-0.195373,0.256911,2.536,2.55646
-0.187142,0.256911,2.536,2.55584
-0.178911,0.256911,2.536,2.55525
-0.170679,0.256911,2.536,2.55469
-0.162448,0.256911,2.536,2.55415
-0.154217,0.256911,2.536,2.55364
-0.145986,0.256911,2.536,2.55316
-0.137755,0.256911,2.536,2.5527
-0.128553,0.254987,2.517,2.53315
-0.120383,0.254987,2.517,2.53275
-0.112214,0.254987,2.517,2.53237
-0.104044,0.254987,2.517,2.53202
-0.0958747,0.254987,2.517,2.5317
-0.0877052,0.254987,2.517,2.5314
-0.0795356,0.254987,2.517,2.53113
-0.0713661,0.254987,2.517,2.53089
-0.0631965,0.254987,2.517,2.53067
-0.055027,0.254987,2.517,2.53048
-0.0468574,0.254987,2.517,2.53032
-0.0386878,0.254987,2.517,2.53018
-0.0305183,0.254987,2.517,2.53007
-0.0223487,0.254987,2.517,2.52998
-0.0141792,0.254987,2.517,2.52992
-0.00600962,0.254987,2.517,2.52989
0.00215994,0.254987,2.517,2.52988
0.0102556,0.253163,2.499,2.51181
0.0183668,0.253163,2.499,2.51186
0.0264779,0.253163,2.499,2.51193
0.034589,0.253163,2.499,2.51203
0.0427002,0.253163,2.499,2.51215
0.0508113,0.253163,2.499,2.5123
0.0589224,0.253163,2.499,2.51248
0.0665507,0.25134,2.481,2.49459
0.0746034,0.25134,2.481,2.49481
0.0826561,0.25134,2.481,2.49507
0.0907089,0.25134,2.481,2.49535
0.0987616,0.25134,2.481,2.49565
0.106814,0.25134,2.481,2.49599
0.114867,0.25134,2.481,2.49634
0.12292,0.25134,2.481,2.49673
0.130972,0.25134,2.481,2.49714
0.139025,0.25134,2.481,2.49757
0.147078,0.25134,2.481,2.49803
0.155131,0.25134,2.481,2.49852
0.164367,0.253163,2.499,2.51716
0.172478,0.253163,2.499,2.51771
0.180589,0.253163,2.499,2.51827
0.188701,0.253163,2.499,2.51887
0.196812,0.253163,2.499,2.51949
0.204923,0.253163,2.499,2.52014
0.213034,0.253163,2.499,2.52081
0.221145,0.253163,2.499,2.52151
0.230908,0.254987,2.517,2.5404
0.239077,0.254987,2.517,2.54115
0.245479,0.253163,2.499,2.52376
0.25359,0.253163,2.499,2.52456
0.261701,0.253163,2.499,2.52539
0.269812,0.253163,2.499,2.52624
0.277923,0.253163,2.499,2.52712
0.286034,0.253163,2.499,2.52802
0.294145,0.253163,2.499,2.52896
0.302256,0.253163,2.499,2.52991
0.310368,0.253163,2.499,2.53089
0.318479,0.253163,2.499,2.5319
0.32659,0.253163,2.499,2.53293
0.334701,0.253163,2.499,2.53399
0.342812,0.253163,2.499,2.53508
0.350923,0.253163,2.499,2.53619
0.359034,0.253163,2.499,2.53732
0.367146,0.253163,2.499,2.53848
0.375257,0.253163,2.499,2.53967
0.383368,0.253163,2.499,2.54088
0.391479,0.253163,2.499,2.54211
0.39959,0.253163,2.499,2.54338
0.407701,0.253163,2.499,2.54466
0.415812,0.253163,2.499,2.54598
0.423923,0.253163,2.499,2.54731
0.432035,0.253163,2.499,2.54868
0.440146,0.253163,2.499,2.55006
0.448257,0.253163,2.499,2.55148
0.453081,0.25134,2.481,2.53452
0.461134,0.25134,2.481,2.53598
0.469186,0.25134,2.481,2.53745
0.477239,0.25134,2.481,2.53895
0.485292,0.25134,2.481,2.54048
0.493344,0.25134,2.481,2.54203
0.501397,0.25134,2.481,2.54361
0.50945,0.25134,2.481,2.54521
0.517502,0.25134,2.481,2.54683
0.525555,0.25134,2.481,2.54848
0.529737,0.249516,2.463,2.53165
0.537731,0.249516,2.463,2.53333
0.545725,0.249516,2.463,2.53504
0.553719,0.249516,2.463,2.53678
0.561714,0.249516,2.463,2.53853
0.569708,0.249516,2.463,2.54031
0.57348,0.247693,2.445,2.52354
0.581416,0.247693,2.445,2.52536
0.589352,0.247693,2.445,2.52719
0.597288,0.247693,2.445,2.52906
0.601016,0.24597,2.428,2.51335
0.608896,0.24597,2.428,2.51524
0.616777,0.24597,2.428,2.51716
0.620284,0.244248,2.411,2.50147
0.62811,0.244248,2.411,2.50342
0.631451,0.242526,2.394,2.48773
0.639221,0.242526,2.394,2.48971
0.642397,0.240804,2.377,2.47402
0.650113,0.240804,2.377,2.47604
0.6534,0.239183,2.361,2.46139
0.661063,0.239183,2.361,2.46344
0.668726,0.239183,2.361,2.46551
0.671806,0.237562,2.345,2.45087
0.679417,0.237562,2.345,2.45297
0.687028,0.237562,2.345,2.45509
0.69464,0.237562,2.345,2.45723
0.702251,0.237562,2.345,2.45939
0.709862,0.237562,2.345,2.46158
0.717473,0.237562,2.345,2.46378
0.725085,0.237562,2.345,2.46601
0.732696,0.237562,2.345,2.46826
0.740307,0.237562,2.345,2.47053
0.747919,0.237562,2.345,2.47282
0.75553,0.237562,2.345,2.47513
0.763141,0.237562,2.345,2.47747
0.770752,0.237562,2.345,2.47982
0.778364,0.237562,2.345,2.4822
0.785975,0.237562,2.345,2.4846
0.793586,0.237562,2.345,2.48701
0.801198,0.237562,2.345,2.48945
0.814327,0.239183,2.361,2.50892
0.821991,0.239183,2.361,2.51141
0.835276,0.240804,2.377,2.53097
0.84902,0.242526,2.394,2.55164
0.856791,0.242526,2.394,2.55424
0.864561,0.242526,2.394,2.55686
0.872331,0.242526,2.394,2.5595
0.892601,0.24597,2.428,2.59854
0.900482,0.24597,2.428,2.60126
0.908362,0.24597,2.428,2.604
0.922658,0.247693,2.445,2.62501
0.930594,0.247693,2.445,2.62781
0.945439,0.249516,2.463,2.65
0.953434,0.249516,2.463,2.65286
0.961428,0.249516,2.463,2.65574
0.969422,0.249516,2.463,2.65865
0.977417,0.249516,2.463,2.66157
0.985411,0.249516,2.463,2.66452
0.993405,0.249516,2.463,2.66749
1.0014,0.249516,2.463,2.67047
1.00939,0.249516,2.463,2.67348
1.00995,0.247693,2.445,2.65695
1.01789,0.247693,2.445,2.65998
1.02582,0.247693,2.445,2.66302
1.03376,0.247693,2.445,2.66609
1.03445,0.24597,2.428,2.65062
1.04233,0.24597,2.428,2.6537
1.05021,0.24597,2.428,2.65681
1.0581,0.24597,2.428,2.65993
1.06598,0.24597,2.428,2.66308
1.07386,0.24597,2.428,2.66624
1.08174,0.24597,2.428,2.66943
1.08962,0.24597,2.428,2.67263
1.0975,0.24597,2.428,2.67585
1.10538,0.24597,2.428,2.6791
1.11326,0.24597,2.428,2.68236
1.12114,0.24597,2.428,2.68564
1.12902,0.24597,2.428,2.68894
1.1369,0.24597,2.428,2.69225
1.14478,0.24597,2.428,2.69559
1.15266,0.24597,2.428,2.69895
1.16054,0.24597,2.428,2.70232
1.16842,0.24597,2.428,2.70572
1.17631,0.24597,2.428,2.70913
1.18419,0.24597,2.428,2.71256
1.19207,0.24597,2.428,2.71601
1.19995,0.24597,2.428,2.71948
1.20783,0.24597,2.428,2.72296
1.21571,0.24597,2.428,2.72647
1.22359,0.24597,2.428,2.72999
1.23147,0.24597,2.428,2.73353
1.24803,0.247693,2.445,2.75626
1.25596,0.247693,2.445,2.75986
1.2639,0.247693,2.445,2.76348
1.27184,0.247693,2.445,2.76712
1.28919,0.249516,2.463,2.79117
1.31615,0.253163,2.499,2.83573
1.32426,0.253163,2.499,2.8395
1.36223,0.258836,2.555,2.90701
1.40163,0.264712,2.613,2.97698
1.41011,0.264712,2.613,2.98098
1.45225,0.270993,2.675,3.05583
1.49589,0.277477,2.739,3.13318
1.54159,0.284264,2.806,3.21418
1.5507,0.284264,2.806,3.21856
1.59927,0.291457,2.877,3.3045
1.64999,0.298953,2.951,3.39415
1.65956,0.298953,2.951,3.39881
1.69855,0.304221,3.003,3.46347
1.73902,0.309692,3.057,3.53063
1.74894,0.309692,3.057,3.53553
1.75886,0.309692,3.057,3.54045
1.76879,0.309692,3.057,3.54539
1.77871,0.309692,3.057,3.55035
1.77283,0.306957,3.03,3.52393
1.78267,0.306957,3.03,3.52888
1.7925,0.306957,3.03,3.53386
1.78628,0.304221,3.003,3.50733
1.78047,0.301587,2.977,3.48189
1.79014,0.301587,2.977,3.48684
1.78408,0.298953,2.951,3.46132
1.77846,0.296421,2.926,3.4369
1.78796,0.296421,2.926,3.44182
1.76736,0.291457,2.877,3.38904
1.74705,0.286594,2.829,3.3373
1.72768,0.281934,2.783,3.28777
1.73671,0.281934,2.783,3.29253
1.70434,0.275248,2.717,3.2191
1.68668,0.270993,2.675,3.17395
1.69536,0.270993,2.675,3.17857
1.66455,0.264712,2.613,3.10943
1.64806,0.260761,2.574,3.0675
1.65641,0.260761,2.574,3.072
1.6279,0.254987,2.517,3.00838
1.61267,0.25134,2.481,2.96972
1.62072,0.25134,2.481,2.9741
1.60514,0.247693,2.445,2.93528
1.60186,0.24597,2.428,2.91919
1.60974,0.24597,2.428,2.92352
1.6063,0.244248,2.411,2.90737
1.60274,0.242526,2.394,2.89117
1.61051,0.242526,2.394,2.89548
1.60679,0.240804,2.377,2.87922
1.60364,0.239183,2.361,2.86412
-1.74613,0.263154,2.517,3.07465
-1.73796,0.263154,2.517,3.07002
-1.74284,0.26514,2.536,3.08854
-1.73461,0.26514,2.536,3.08391
-1.73932,0.267127,2.555,3.10235
-1.7439,0.269113,2.574,3.12075
-1.74835,0.2711,2.593,3.13909
-1.73994,0.2711,2.593,3.13441
-1.75823,0.275282,2.633,3.17802
-1.76364,0.277477,2.654,3.19861
-1.75502,0.277477,2.654,3.19387
-1.76023,0.279673,2.675,3.21438
-1.7653,0.281868,2.696,3.23483
-1.75655,0.281868,2.696,3.23007
-1.7478,0.281868,2.696,3.22531
-1.73905,0.281868,2.696,3.22058
-1.73029,0.281868,2.696,3.21586
-1.70813,0.279673,2.675,3.18615
-1.69945,0.279673,2.675,3.18151
-1.69077,0.279673,2.675,3.17688
-1.66888,0.277477,2.654,3.14736
-1.64713,0.275282,2.633,3.11793
-1.63858,0.275282,2.633,3.11343
-1.61766,0.273191,2.613,3.08532
-1.59686,0.2711,2.593,3.0573
-1.58844,0.2711,2.593,3.05292
-1.56845,0.269113,2.574,3.02621
-1.53706,0.26514,2.536,2.97727
-1.51738,0.263154,2.517,2.95076
-1.50921,0.263154,2.517,2.94657
-1.47957,0.25939,2.481,2.90031
-1.45016,0.255626,2.445,2.85418
-1.44223,0.255626,2.445,2.85016
-1.42432,0.253849,2.428,2.82636
-1.39661,0.250294,2.394,2.78287
-1.38883,0.250294,2.394,2.77898
-1.37126,0.248517,2.377,2.7554
-1.36354,0.248517,2.377,2.75157
-1.35583,0.248517,2.377,2.74775
-1.34811,0.248517,2.377,2.74396
-1.3404,0.248517,2.377,2.74017
-1.33268,0.248517,2.377,2.73641
-1.32497,0.248517,2.377,2.73266
-1.31725,0.248517,2.377,2.72893
-1.32827,0.252072,2.411,2.76419
-1.33906,0.255626,2.445,2.79937
-1.33113,0.255626,2.445,2.79558
-1.34267,0.25939,2.481,2.83292
-1.36421,0.26514,2.536,2.89183
-1.37629,0.269113,2.574,2.93123
-1.36794,0.269113,2.574,2.92731
-1.36962,0.2711,2.593,2.945
-1.3822,0.275282,2.633,2.98646
-1.37366,0.275282,2.633,2.98252
-1.38689,0.279673,2.675,3.0261
-1.38902,0.281868,2.696,3.04586
-1.38027,0.281868,2.696,3.04188
-1.37152,0.281868,2.696,3.03792
-1.36277,0.281868,2.696,3.03398
-1.35402,0.281868,2.696,3.03006
-1.34527,0.281868,2.696,3.02616
-1.32611,0.279673,2.675,2.99873
-1.31743,0.279673,2.675,2.99491
-1.29847,0.277477,2.654,2.96761
-1.27965,0.275282,2.633,2.9404
-1.2711,0.275282,2.633,2.93669
-1.24338,0.2711,2.593,2.88845
-1.22591,0.269113,2.574,2.8637
-1.21756,0.269113,2.574,2.86013
-1.19135,0.26514,2.536,2.81441
-1.17426,0.263154,2.517,2.78988
-1.14941,0.25939,2.481,2.7466
-1.14136,0.25939,2.481,2.74323
-1.11686,0.255626,2.445,2.70014
-1.10121,0.253849,2.428,2.67811
-1.09333,0.253849,2.428,2.67488
-1.08545,0.253849,2.428,2.67167
-1.07757,0.253849,2.428,2.66848
-1.06969,0.253849,2.428,2.66531
-1.06181,0.253849,2.428,2.66215
-1.04655,0.252072,2.411,2.6404
-1.03872,0.252072,2.411,2.63731
-1.0309,0.252072,2.411,2.63424
-1.02307,0.252072,2.411,2.63119
-1.01525,0.252072,2.411,2.62815
-1.00742,0.252072,2.411,2.62514
-0.999596,0.252072,2.411,2.62215
-0.99177,0.252072,2.411,2.61917
-0.983945,0.252072,2.411,2.61622
-0.976119,0.252072,2.411,2.61329
-0.968294,0.252072,2.411,2.61037
-0.960468,0.252072,2.411,2.60748
-0.952643,0.252072,2.411,2.60461
-0.944817,0.252072,2.411,2.60176
-0.936992,0.252072,2.411,2.59893
-0.929166,0.252072,2.411,2.59611
-0.921341,0.252072,2.411,2.59332
-0.913515,0.252072,2.411,2.59055
-0.912076,0.253849,2.428,2.60605
-0.904195,0.253849,2.428,2.6033
-0.896315,0.253849,2.428,2.60058
-0.888434,0.253849,2.428,2.59787
-0.880553,0.253849,2.428,2.59519
-0.872672,0.253849,2.428,2.59252
-0.864792,0.253849,2.428,2.58988
-0.856911,0.253849,2.428,2.58726
-0.84903,0.253849,2.428,2.58466
-0.84115,0.253849,2.428,2.58208
-0.833269,0.253849,2.428,2.57953
-0.825388,0.253849,2.428,2.57699
-0.817508,0.253849,2.428,2.57448
-0.809627,0.253849,2.428,2.57199
-0.801746,0.253849,2.428,2.56952
-0.793866,0.253849,2.428,2.56707
-0.785985,0.253849,2.428,2.56464
-0.778104,0.253849,2.428,2.56224
-0.770224,0.253849,2.428,2.55986
-0.762343,0.253849,2.428,2.5575
-0.754462,0.253849,2.428,2.55516
-0.746581,0.253849,2.428,2.55284
-0.738701,0.253849,2.428,2.55055
-0.73082,0.253849,2.428,2.54828
-0.722939,0.253849,2.428,2.54603
-0.715059,0.253849,2.428,2.5438
-0.707178,0.253849,2.428,2.5416
-0.699297,0.253849,2.428,2.53942
-0.691417,0.253849,2.428,2.53726
-0.683536,0.253849,2.428,2.53512
-0.675655,0.253849,2.428,2.53301
-0.667775,0.253849,2.428,2.53092
-0.664514,0.255626,2.445,2.54656
-0.656578,0.255626,2.445,2.5445
-0.644133,0.253849,2.428,2.52478
-0.636252,0.253849,2.428,2.52278
-0.628371,0.253849,2.428,2.52081
-0.620491,0.253849,2.428,2.51886
-0.61261,0.253849,2.428,2.51693
-0.604729,0.253849,2.428,2.51502
-0.596848,0.253849,2.428,2.51314
-0.588968,0.253849,2.428,2.51128
-0.585156,0.255626,2.445,2.52701
-0.57722,0.255626,2.445,2.52518
-0.569284,0.255626,2.445,2.52338
-0.561348,0.255626,2.445,2.5216
-0.553412,0.255626,2.445,2.51985
-0.545476,0.255626,2.445,2.51812
-0.53754,0.255626,2.445,2.51641
-0.533504,0.257508,2.463,2.53324
-0.525509,0.257508,2.463,2.53157
-0.517515,0.257508,2.463,2.52992
-0.509521,0.257508,2.463,2.5283
-0.501526,0.257508,2.463,2.5267
-0.493532,0.257508,2.463,2.52512
-0.485538,0.257508,2.463,2.52357
-0.477544,0.257508,2.463,2.52205
-0.469549,0.257508,2.463,2.52055
-0.461555,0.257508,2.463,2.51907
-0.453561,0.257508,2.463,2.51762
-0.445566,0.257508,2.463,2.51619
-0.437572,0.257508,2.463,2.51479
-0.429578,0.257508,2.463,2.51341
-0.421584,0.257508,2.463,2.51205
-0.413589,0.257508,2.463,2.51072
-0.408559,0.25939,2.481,2.52776
-0.400506,0.25939,2.481,2.52647
-0.392454,0.25939,2.481,2.52521
-0.384401,0.25939,2.481,2.52397
-0.376348,0.25939,2.481,2.52275
-0.368296,0.25939,2.481,2.52156
-0.360243,0.25939,2.481,2.5204
-0.35219,0.25939,2.481,2.51926
-0.344137,0.25939,2.481,2.51815
-0.336085,0.25939,2.481,2.51706
-0.328032,0.25939,2.481,2.516
-0.322301,0.261272,2.499,2.53321
-0.31419,0.261272,2.499,2.53219
-0.306079,0.261272,2.499,2.5312
-0.297967,0.261272,2.499,2.53023
-0.289856,0.261272,2.499,2.52928
-0.281745,0.261272,2.499,2.52837
-0.275605,0.263154,2.517,2.54568
-0.267435,0.263154,2.517,2.54481
-0.259266,0.263154,2.517,2.54397
-0.251096,0.263154,2.517,2.54315
-0.242927,0.263154,2.517,2.54235
-0.234757,0.263154,2.517,2.54158
-0.226588,0.263154,2.517,2.54084
-0.218418,0.263154,2.517,2.54013
-0.210249,0.263154,2.517,2.53944
-0.203604,0.26514,2.536,2.55794
-0.195373,0.26514,2.536,2.5573
-0.187142,0.26514,2.536,2.55668
-0.178911,0.26514,2.536,2.55609
-0.170679,0.26514,2.536,2.55553
-0.162448,0.26514,2.536,2.55499
-0.154217,0.26514,2.536,2.55448
-0.145986,0.26514,2.536,2.554
-0.137755,0.26514,2.536,2.55354
-0.128553,0.263154,2.517,2.53398
-0.120383,0.263154,2.517,2.53358
-0.112214,0.263154,2.517,2.53321
-0.104044,0.263154,2.517,2.53286
-0.0958747,0.263154,2.517,2.53253
