1.32698,0.064174,2.739,3.04419
1.33587,0.064174,2.739,3.04808
1.34476,0.064174,2.739,3.05199
1.35365,0.064174,2.739,3.05591
1.35159,0.0636585,2.717,3.03528
1.36041,0.0636585,2.717,3.03922
1.38032,0.064174,2.739,3.06782
1.38921,0.064174,2.739,3.07183
1.4323,0.0657437,2.806,3.1511
1.46555,0.0668449,2.853,3.2081
1.49962,0.0679696,2.901,3.26639
1.50904,0.0679696,2.901,3.27072
1.54462,0.0691411,2.951,3.33152
1.58159,0.0703594,3.003,3.39476
1.59134,0.0703594,3.003,3.39931
1.62987,0.0716246,3.057,3.46509
1.65428,0.0722572,3.084,3.50042
1.6794,0.0729132,3.112,3.53698
1.6895,0.0729132,3.112,3.54179
1.71544,0.0735927,3.141,3.57967
1.72563,0.0735927,3.141,3.58457
1.73583,0.0735927,3.141,3.58948
1.74602,0.0735927,3.141,3.59443
1.75622,0.0735927,3.141,3.59939
1.76641,0.0735927,3.141,3.60437
1.77661,0.0735927,3.141,3.60938
1.7868,0.0735927,3.141,3.61441
1.78041,0.0729132,3.112,3.58604
1.79051,0.0729132,3.112,3.59107
1.78441,0.0722572,3.084,3.56376
1.79442,0.0722572,3.084,3.56878
1.80443,0.0722572,3.084,3.57383
1.79855,0.0716246,3.057,3.54756
1.80848,0.0716246,3.057,3.5526
1.8184,0.0716246,3.057,3.55766
1.81217,0.070992,3.03,3.53128
1.82201,0.070992,3.03,3.53633
1.81552,0.0703594,3.003,3.50985
1.80946,0.0697502,2.977,3.48447
1.81912,0.0697502,2.977,3.4895
1.81281,0.0691411,2.951,3.46403
1.80695,0.0685553,2.926,3.43966
1.81645,0.0685553,2.926,3.44466
1.79537,0.0674073,2.877,3.39191
1.78965,0.0668449,2.853,3.36852
1.79891,0.0668449,2.853,3.37345
1.77839,0.0657437,2.806,3.32274
1.75883,0.0646894,2.761,3.27426
1.73962,0.0636585,2.717,3.22683
1.74844,0.0636585,2.717,3.23159
1.73009,0.0626745,2.675,3.18634
1.72512,0.0621824,2.654,3.16601
1.73374,0.0621824,2.654,3.17071
1.71543,0.0612218,2.613,3.12638
1.71072,0.0607532,2.593,3.10707
1.71914,0.0607532,2.593,3.11172
1.71489,0.0603081,2.574,3.09354
1.71053,0.0598629,2.555,3.07531
1.71882,0.0598629,2.555,3.07993
1.71427,0.0594177,2.536,3.06163
1.7096,0.0589726,2.517,3.04327
-1.90013,0.0730616,2.739,3.33436
-1.89124,0.0730616,2.739,3.3293
-1.88235,0.0730616,2.739,3.32426
-1.87346,0.0730616,2.739,3.31924
-1.8496,0.0724747,2.717,3.28761
-1.84078,0.0724747,2.717,3.28265
-1.83196,0.0724747,2.717,3.27772
-1.79496,0.0713544,2.675,3.2222
-1.78628,0.0713544,2.675,3.21737
-1.77759,0.0713544,2.675,3.21256
-1.75502,0.0707942,2.654,3.18258
-1.74641,0.0707942,2.654,3.17784
-1.7378,0.0707942,2.654,3.17312
-1.7155,0.0702341,2.633,3.14334
-1.69399,0.0697006,2.613,3.11484
-1.68551,0.0697006,2.613,3.11023
-1.66419,0.0691671,2.593,3.08188
-1.63151,0.0681534,2.555,3.03224
-1.62322,0.0681534,2.555,3.02779
-1.61492,0.0681534,2.555,3.02335
-1.60663,0.0681534,2.555,3.01893
-1.59834,0.0681534,2.555,3.01452
-1.60187,0.0686603,2.574,3.03252
-1.59351,0.0686603,2.574,3.02811
-1.59686,0.0691671,2.593,3.04605
-1.60069,0.0697006,2.613,3.0651
-1.59221,0.0697006,2.613,3.06068
-1.60858,0.0707942,2.654,3.10423
-1.61263,0.0713544,2.675,3.12431
-1.60395,0.0713544,2.675,3.11983
-1.62031,0.0724747,2.717,3.16429
-1.63759,0.0736484,2.761,3.21096
-1.62863,0.0736484,2.761,3.2064
-1.61967,0.0736484,2.761,3.20185
-1.6107,0.0736484,2.761,3.19733
-1.60174,0.0736484,2.761,3.19282
-1.58009,0.0730616,2.739,3.16293
-1.5712,0.0730616,2.739,3.1585
-1.56231,0.0730616,2.739,3.15409
-1.54094,0.0724747,2.717,3.1244
-1.52028,0.0719146,2.696,3.09594
-1.49976,0.0713544,2.675,3.06757
-1.49107,0.0713544,2.675,3.06334
-1.47075,0.0707942,2.654,3.0351
-1.46214,0.0707942,2.654,3.03094
-1.45353,0.0707942,2.654,3.02679
-1.44491,0.0707942,2.654,3.02266
-1.4363,0.0707942,2.654,3.01856
-1.42768,0.0707942,2.654,3.01447
-1.41907,0.0707942,2.654,3.0104
-1.41046,0.0707942,2.654,3.00635
-1.41293,0.0713544,2.675,3.02607
-1.40425,0.0713544,2.675,3.02203
-1.39557,0.0713544,2.675,3.018
-1.38689,0.0713544,2.675,3.014
-1.3782,0.0713544,2.675,3.01001
-1.36952,0.0713544,2.675,3.00604
-1.35016,0.0707942,2.654,2.97853
-1.34154,0.0707942,2.654,2.97464
-1.32238,0.0702341,2.633,2.94726
-1.30385,0.0697006,2.613,2.92107
-1.29537,0.0697006,2.613,2.9173
-1.27704,0.0691671,2.593,2.89124
-1.25933,0.0686603,2.574,2.86637
-1.24174,0.0681534,2.555,2.84158
-1.23345,0.0681534,2.555,2.83797
-1.21605,0.0676466,2.536,2.8133
-1.19876,0.0671398,2.517,2.7887
-1.1906,0.0671398,2.517,2.7852
-1.17397,0.0666597,2.499,2.76182
-1.16586,0.0666597,2.499,2.75838
-1.15775,0.0666597,2.499,2.75496
-1.14136,0.0661795,2.481,2.73175
-1.1333,0.0661795,2.481,2.72839
-1.12525,0.0661795,2.481,2.72506
-1.1172,0.0661795,2.481,2.72174
-1.1011,0.0656994,2.463,2.69872
-1.0931,0.0656994,2.463,2.69547
-1.08511,0.0656994,2.463,2.69224
-1.07712,0.0656994,2.463,2.68903
-1.06131,0.0652193,2.445,2.66621
-1.05337,0.0652193,2.445,2.66306
-1.04544,0.0652193,2.445,2.65993
-1.03029,0.0647658,2.428,2.63835
-1.02241,0.0647658,2.428,2.63528
-1.01452,0.0647658,2.428,2.63223
-1.00664,0.0647658,2.428,2.6292
-0.998763,0.0647658,2.428,2.6262
-0.990883,0.0647658,2.428,2.62321
-0.983002,0.0647658,2.428,2.62024
-0.975121,0.0647658,2.428,2.6173
-0.967241,0.0647658,2.428,2.61437
-0.95936,0.0647658,2.428,2.61147
-0.951479,0.0647658,2.428,2.60858
-0.943599,0.0647658,2.428,2.60572
-0.935718,0.0647658,2.428,2.60287
-0.921341,0.0643123,2.411,2.58185
-0.913515,0.0643123,2.411,2.57906
-0.90569,0.0643123,2.411,2.5763
-0.897864,0.0643123,2.411,2.57356
-0.896315,0.0647658,2.428,2.58897
-0.888434,0.0647658,2.428,2.58625
-0.880553,0.0647658,2.428,2.58355
-0.872672,0.0647658,2.428,2.58088
-0.870847,0.0652193,2.445,2.59628
-0.862911,0.0652193,2.445,2.59363
-0.854975,0.0652193,2.445,2.591
-0.847039,0.0652193,2.445,2.58839
-0.839103,0.0652193,2.445,2.5858
-0.837286,0.0656994,2.463,2.60226
-0.829292,0.0656994,2.463,2.59969
-0.821298,0.0656994,2.463,2.59716
-0.813304,0.0656994,2.463,2.59464
-0.805309,0.0656994,2.463,2.59214
-0.803142,0.0661795,2.481,2.6086
-0.795089,0.0661795,2.481,2.60613
-0.787037,0.0661795,2.481,2.60368
-0.778984,0.0661795,2.481,2.60126
-0.770931,0.0661795,2.481,2.59886
-0.762878,0.0661795,2.481,2.59648
-0.754826,0.0661795,2.481,2.59413
-0.746773,0.0661795,2.481,2.5918
-0.73872,0.0661795,2.481,2.58949
-0.730668,0.0661795,2.481,2.5872
-0.722615,0.0661795,2.481,2.58494
-0.714562,0.0661795,2.481,2.5827
-0.706509,0.0661795,2.481,2.58048
-0.698457,0.0661795,2.481,2.57829
-0.690404,0.0661795,2.481,2.57612
-0.682351,0.0661795,2.481,2.57397
-0.674299,0.0661795,2.481,2.57185
-0.666246,0.0661795,2.481,2.56975
-0.658193,0.0661795,2.481,2.56768
-0.654857,0.0666597,2.499,2.58424
-0.646746,0.0666597,2.499,2.58219
-0.638635,0.0666597,2.499,2.58017
-0.630524,0.0666597,2.499,2.57818
-0.622413,0.0666597,2.499,2.57621
-0.614302,0.0666597,2.499,2.57426
-0.606191,0.0666597,2.499,2.57234
-0.598079,0.0666597,2.499,2.57044
-0.589968,0.0666597,2.499,2.56856
-0.581857,0.0666597,2.499,2.56671
-0.573746,0.0666597,2.499,2.56488
-0.565635,0.0666597,2.499,2.56308
-0.557524,0.0666597,2.499,2.5613
-0.549413,0.0666597,2.499,2.55955
-0.541301,0.0666597,2.499,2.55782
-0.53319,0.0666597,2.499,2.55612
-0.525079,0.0666597,2.499,2.55444
-0.516968,0.0666597,2.499,2.55278
-0.508857,0.0666597,2.499,2.55115
-0.504353,0.0671398,2.517,2.56791
-0.496183,0.0671398,2.517,2.56632
-0.488013,0.0671398,2.517,2.56475
-0.479844,0.0671398,2.517,2.56321
-0.471674,0.0671398,2.517,2.56169
-0.463505,0.0671398,2.517,2.5602
-0.455335,0.0671398,2.517,2.55874
-0.450541,0.0676466,2.536,2.5766
-0.44231,0.0676466,2.536,2.57517
-0.434079,0.0676466,2.536,2.57377
-0.425848,0.0676466,2.536,2.5724
-0.417616,0.0676466,2.536,2.57105
-0.409385,0.0676466,2.536,2.56972
-0.401154,0.0676466,2.536,2.56842
-0.392923,0.0676466,2.536,2.56715
-0.384691,0.0676466,2.536,2.5659
-0.37646,0.0676466,2.536,2.56468
-0.368229,0.0676466,2.536,2.56349
-0.359998,0.0676466,2.536,2.56232
-0.351766,0.0676466,2.536,2.56117
-0.340961,0.0671398,2.517,2.54088
-0.332792,0.0671398,2.517,2.53979
-0.324622,0.0671398,2.517,2.53874
-0.316453,0.0671398,2.517,2.5377
-0.308283,0.0671398,2.517,2.5367
-0.300114,0.0671398,2.517,2.53572
-0.291944,0.0671398,2.517,2.53476
-0.283775,0.0671398,2.517,2.53384
-0.275605,0.0671398,2.517,2.53293
-0.265523,0.0666597,2.499,2.51395
-0.257412,0.0666597,2.499,2.51311
-0.249301,0.0666597,2.499,2.51229
-0.24119,0.0666597,2.499,2.5115
-0.233078,0.0666597,2.499,2.51073
-0.224967,0.0666597,2.499,2.50999
-0.216856,0.0666597,2.499,2.50928
-0.208745,0.0666597,2.499,2.50859
-0.200634,0.0666597,2.499,2.50793
-0.193909,0.0671398,2.517,2.52535
-0.18574,0.0671398,2.517,2.52474
-0.17757,0.0671398,2.517,2.52415
-0.169401,0.0671398,2.517,2.52359
-0.161231,0.0671398,2.517,2.52305
-0.153062,0.0671398,2.517,2.52254
-0.144892,0.0671398,2.517,2.52206
-0.136723,0.0671398,2.517,2.5216
-0.129523,0.0676466,2.536,2.54021
-0.121292,0.0676466,2.536,2.5398
-0.113061,0.0676466,2.536,2.53942
-0.10483,0.0676466,2.536,2.53907
-0.0965985,0.0676466,2.536,2.53874
-0.0883672,0.0676466,2.536,2.53844
-0.080136,0.0676466,2.536,2.53817
-0.0719048,0.0676466,2.536,2.53792
-0.0636736,0.0676466,2.536,2.5377
-0.0554423,0.0676466,2.536,2.53751
-0.0472111,0.0676466,2.536,2.53734
-0.0389799,0.0676466,2.536,2.5372
-0.0307487,0.0676466,2.536,2.53709
-0.0225174,0.0676466,2.536,2.537
-0.0142862,0.0676466,2.536,2.53694
-0.00605498,0.0676466,2.536,2.53691
0.00215994,0.0671398,2.517,2.5179
0.0103295,0.0671398,2.517,2.51792
0.0184991,0.0671398,2.517,2.51796
0.0264779,0.0666597,2.499,2.50003
0.034589,0.0666597,2.499,2.50013
0.0427002,0.0666597,2.499,2.50025
0.0504453,0.0661795,2.481,2.4824
0.058498,0.0661795,2.481,2.48257
0.0665507,0.0661795,2.481,2.48277
0.0746034,0.0661795,2.481,2.483
0.0826561,0.0661795,2.481,2.48326
0.0907089,0.0661795,2.481,2.48354
0.0987616,0.0661795,2.481,2.48385
0.106814,0.0661795,2.481,2.48418
0.114867,0.0661795,2.481,2.48454
0.12292,0.0661795,2.481,2.48492
0.130972,0.0661795,2.481,2.48534
0.139025,0.0661795,2.481,2.48577
0.147078,0.0661795,2.481,2.48624
0.155131,0.0661795,2.481,2.48673
0.163183,0.0661795,2.481,2.48724
0.172478,0.0666597,2.499,2.50583
0.180589,0.0666597,2.499,2.5064
0.188701,0.0666597,2.499,2.507
0.196812,0.0666597,2.499,2.50762
0.204923,0.0666597,2.499,2.50827
0.213034,0.0666597,2.499,2.50895
0.221145,0.0666597,2.499,2.50965
0.229256,0.0666597,2.499,2.51038
0.237367,0.0666597,2.499,2.51113
0.245479,0.0666597,2.499,2.51191
0.25359,0.0666597,2.499,2.51272
0.259816,0.0661795,2.481,2.49545
0.267868,0.0661795,2.481,2.4963
0.275921,0.0661795,2.481,2.49717
0.283974,0.0661795,2.481,2.49808
0.292027,0.0661795,2.481,2.499
0.300079,0.0661795,2.481,2.49996
0.308132,0.0661795,2.481,2.50094
0.313891,0.0656994,2.463,2.48379
0.321885,0.0656994,2.463,2.48481
0.33229,0.0661795,2.481,2.50403
0.340343,0.0661795,2.481,2.50511
0.348396,0.0661795,2.481,2.50622
0.356448,0.0661795,2.481,2.50735
0.364501,0.0661795,2.481,2.50851
0.372554,0.0661795,2.481,2.50969
0.380606,0.0661795,2.481,2.5109
0.391479,0.0666597,2.499,2.53036
0.39959,0.0666597,2.499,2.53162
0.407701,0.0666597,2.499,2.53292
0.418807,0.0671398,2.517,2.55249
0.426977,0.0671398,2.517,2.55384
0.435146,0.0671398,2.517,2.55522
0.446662,0.0676466,2.536,2.57592
0.454894,0.0676466,2.536,2.57736
0.463125,0.0676466,2.536,2.57883
0.471356,0.0676466,2.536,2.58032
0.479587,0.0676466,2.536,2.58184
0.487819,0.0676466,2.536,2.58338
0.49605,0.0676466,2.536,2.58494
0.504281,0.0676466,2.536,2.58654
0.512512,0.0676466,2.536,2.58815
0.520743,0.0676466,2.536,2.5898
0.528975,0.0676466,2.536,2.59146
0.537206,0.0676466,2.536,2.59316
0.545437,0.0676466,2.536,2.59487
0.553668,0.0676466,2.536,2.59662
0.5619,0.0676466,2.536,2.59838
0.570131,0.0676466,2.536,2.60018
0.578362,0.0676466,2.536,2.60199
0.586593,0.0676466,2.536,2.60384
0.594824,0.0676466,2.536,2.6057
0.603056,0.0676466,2.536,2.60759
0.611287,0.0676466,2.536,2.60951
0.619518,0.0676466,2.536,2.61145
0.627749,0.0676466,2.536,2.61342
0.635981,0.0676466,2.536,2.61541
0.644212,0.0676466,2.536,2.61742
0.652443,0.0676466,2.536,2.61946
0.660674,0.0676466,2.536,2.62152
0.668906,0.0676466,2.536,2.62361
0.677137,0.0676466,2.536,2.62572
0.685368,0.0676466,2.536,2.62785
0.693599,0.0676466,2.536,2.63001
0.70183,0.0676466,2.536,2.63219
0.710062,0.0676466,2.536,2.6344
0.718293,0.0676466,2.536,2.63663
0.726524,0.0676466,2.536,2.63888
0.729251,0.0671398,2.517,2.62137
0.73742,0.0671398,2.517,2.62366
0.74559,0.0671398,2.517,2.62597
0.748369,0.0666597,2.499,2.6095
0.75648,0.0666597,2.499,2.61184
0.764591,0.0666597,2.499,2.6142
0.772702,0.0666597,2.499,2.61658
0.780813,0.0666597,2.499,2.61899
0.783242,0.0661795,2.481,2.60254
0.791295,0.0661795,2.481,2.60497
0.799347,0.0661795,2.481,2.60743
0.8074,0.0661795,2.481,2.60991
0.815453,0.0661795,2.481,2.61241
0.823505,0.0661795,2.481,2.61494
0.831558,0.0661795,2.481,2.61749
0.839611,0.0661795,2.481,2.62005
0.847664,0.0661795,2.481,2.62265
0.855716,0.0661795,2.481,2.62526
0.863769,0.0661795,2.481,2.6279
0.871822,0.0661795,2.481,2.63055
0.879874,0.0661795,2.481,2.63323
0.887927,0.0661795,2.481,2.63594
0.89598,0.0661795,2.481,2.63866
0.904033,0.0661795,2.481,2.6414
0.912085,0.0661795,2.481,2.64417
0.920138,0.0661795,2.481,2.64696
0.928191,0.0661795,2.481,2.64977
0.936243,0.0661795,2.481,2.6526
0.944296,0.0661795,2.481,2.65545
0.952349,0.0661795,2.481,2.65833
0.960401,0.0661795,2.481,2.66122
0.961428,0.0656994,2.463,2.64481
0.969422,0.0656994,2.463,2.64773
0.977417,0.0656994,2.463,2.65067
0.985411,0.0656994,2.463,2.65362
0.993405,0.0656994,2.463,2.6566
1.0014,0.0656994,2.463,2.6596
1.00939,0.0656994,2.463,2.66262
1.01739,0.0656994,2.463,2.66566
1.02538,0.0656994,2.463,2.66873
1.04093,0.0661795,2.481,2.69133
1.04898,0.0661795,2.481,2.69446
1.05703,0.0661795,2.481,2.6976
1.08054,0.0671398,2.517,2.73996
1.08871,0.0671398,2.517,2.74319
1.10516,0.0676466,2.536,2.76717
1.12173,0.0681534,2.555,2.79123
1.14683,0.0691671,2.593,2.83613
1.15525,0.0691671,2.593,2.83955
1.17264,0.0697006,2.613,2.86491
1.19016,0.0702341,2.633,2.89035
1.19871,0.0702341,2.633,2.89388
1.21688,0.0707942,2.654,2.92054
1.24489,0.0719146,2.696,2.97041
1.25364,0.0719146,2.696,2.97409
1.27223,0.0724747,2.717,3.00098
1.29142,0.0730616,2.739,3.02906
1.30031,0.0730616,2.739,3.03286
1.3092,0.0730616,2.739,3.03669
1.31809,0.0730616,2.739,3.04053
1.32698,0.0730616,2.739,3.04439
1.33587,0.0730616,2.739,3.04828
1.34476,0.0730616,2.739,3.05218
1.35365,0.0730616,2.739,3.05611
1.35159,0.0724747,2.717,3.03548
1.36041,0.0724747,2.717,3.03942
1.38032,0.0730616,2.739,3.06802
1.38921,0.0730616,2.739,3.07203
1.42056,0.0742353,2.783,3.12547
1.44141,0.0748488,2.806,3.15545
1.47481,0.0761025,2.853,3.21255
1.48407,0.0761025,2.853,3.21681
1.51845,0.0773828,2.901,3.27528
1.5542,0.0787166,2.951,3.33619
1.56378,0.0787166,2.951,3.34066
1.60108,0.0801036,3.003,3.4041
1.6398,0.0815441,3.057,3.46999
1.6794,0.0830112,3.112,3.53721
1.6895,0.0830112,3.112,3.54201
1.6996,0.0830112,3.112,3.54684
1.72563,0.0837847,3.141,3.58479
1.73583,0.0837847,3.141,3.58971
1.74602,0.0837847,3.141,3.59465
1.75622,0.0837847,3.141,3.59961
1.76641,0.0837847,3.141,3.6046
1.76021,0.0830112,3.112,3.57628
1.77031,0.0830112,3.112,3.58126
1.78041,0.0830112,3.112,3.58626
1.7744,0.0822643,3.084,3.55898
1.78441,0.0822643,3.084,3.56398
1.79442,0.0822643,3.084,3.569
1.78863,0.0815441,3.057,3.54275
1.78267,0.0808239,3.03,3.51644
1.7925,0.0808239,3.03,3.52143
1.80234,0.0808239,3.03,3.52645
1.81217,0.0808239,3.03,3.53149
1.82201,0.0808239,3.03,3.53654
1.7998,0.0794101,2.977,3.47967
1.80946,0.0794101,2.977,3.48468
1.81912,0.0794101,2.977,3.48971
1.81281,0.0787166,2.951,3.46423
1.79152,0.0773828,2.901,3.41047
1.80093,0.0773828,2.901,3.41543
1.79537,0.0767427,2.877,3.3921
1.7746,0.0754623,2.829,3.34038
1.78378,0.0754623,2.829,3.34527
1.76381,0.0742353,2.783,3.2957
1.74481,0.0730616,2.739,3.24836
1.72617,0.0719146,2.696,3.20207
1.73492,0.0719146,2.696,3.2068
1.71651,0.0707942,2.654,3.16151
1.71147,0.0702341,2.633,3.14114
1.72002,0.0702341,2.633,3.1458
1.7023,0.0691671,2.593,3.10262
1.69819,0.0686603,2.574,3.08448
1.70654,0.0686603,2.574,3.08909
1.70224,0.0681534,2.555,3.07088
1.69781,0.0676466,2.536,3.05261
1.70604,0.0676466,2.536,3.0572
1.70143,0.0671398,2.517,3.03886
1.69737,0.0666597,2.499,3.02167
-1.88487,0.081291,2.717,3.30778
-1.87605,0.081291,2.717,3.30277
-1.86723,0.081291,2.717,3.29777
-1.85842,0.081291,2.717,3.29278
-1.8496,0.081291,2.717,3.28781
-1.84078,0.081291,2.717,3.28286
-1.8178,0.0806626,2.696,3.25259
-1.79496,0.0800343,2.675,3.22241
-1.78628,0.0800343,2.675,3.21758
-1.76364,0.079406,2.654,3.18754
-1.75502,0.079406,2.654,3.18279
-1.71943,0.0781793,2.613,3.12895
-1.71095,0.0781793,2.613,3.1243
-1.70247,0.0781793,2.613,3.11966
-1.68102,0.0775809,2.593,3.0912
-1.67261,0.0775809,2.593,3.08663
-1.6398,0.076444,2.555,3.03691
-1.61938,0.0758755,2.536,3.00989
-1.61114,0.0758755,2.536,3.00547
-1.60291,0.0758755,2.536,3.00106
-1.59468,0.0758755,2.536,2.99668
-1.58645,0.0758755,2.536,2.9923
-1.57822,0.0758755,2.536,2.98795
-1.56999,0.0758755,2.536,2.98361
-1.58516,0.0770125,2.574,3.02393
-1.58844,0.0775809,2.593,3.04184
-1.58003,0.0775809,2.593,3.03746
-1.58373,0.0781793,2.613,3.05648
-1.59997,0.079406,2.654,3.09999
-1.59135,0.079406,2.654,3.09555
-1.60779,0.0806626,2.696,3.14005
-1.62454,0.0819492,2.739,3.18559
-1.61565,0.0819492,2.739,3.18106
-1.60676,0.0819492,2.739,3.17656
-1.6107,0.0826074,2.761,3.19755
-1.60174,0.0826074,2.761,3.19304
-1.58009,0.0819492,2.739,3.16315
-1.5712,0.0819492,2.739,3.15872
-1.56231,0.0819492,2.739,3.15431
-1.54094,0.081291,2.717,3.12461
-1.52028,0.0806626,2.696,3.09616
-1.48798,0.079406,2.654,3.0437
-1.47937,0.079406,2.654,3.0395
-1.47075,0.079406,2.654,3.03532
-1.46214,0.079406,2.654,3.03115
-1.45353,0.079406,2.654,3.02701
-1.43348,0.0787777,2.633,2.99896
-1.42493,0.0787777,2.633,2.99488
-1.41639,0.0787777,2.633,2.99083
-1.40784,0.0787777,2.633,2.98679
-1.3993,0.0787777,2.633,2.98277
-1.39075,0.0787777,2.633,2.97877
-1.3822,0.0787777,2.633,2.97479
-1.37366,0.0787777,2.633,2.97083
-1.376,0.079406,2.654,2.99055
-1.36738,0.079406,2.654,2.9866
-1.35877,0.079406,2.654,2.98266
-1.33947,0.0787777,2.633,2.95518
-1.33093,0.0787777,2.633,2.95132
-1.31234,0.0781793,2.613,2.92508
-1.30385,0.0781793,2.613,2.92129
-1.29537,0.0781793,2.613,2.91751
-1.27704,0.0775809,2.593,2.89145
-1.25933,0.0770125,2.574,2.86659
-1.24174,0.076444,2.555,2.84179
-1.23345,0.076444,2.555,2.83818
-1.21605,0.0758755,2.536,2.81351
-1.19876,0.0753071,2.517,2.78891
-1.1906,0.0753071,2.517,2.7854
-1.17397,0.0747685,2.499,2.76203
-1.16586,0.0747685,2.499,2.75859
-1.15775,0.0747685,2.499,2.75517
-1.14136,0.07423,2.481,2.73195
-1.1333,0.07423,2.481,2.7286
-1.12525,0.07423,2.481,2.72526
-1.1172,0.07423,2.481,2.72195
-1.1011,0.0736914,2.463,2.69893
-1.0931,0.0736914,2.463,2.69568
-1.08511,0.0736914,2.463,2.69245
-1.07712,0.0736914,2.463,2.68923
-1.06131,0.0731529,2.445,2.66641
-1.05337,0.0731529,2.445,2.66326
-1.04544,0.0731529,2.445,2.66013
-1.0375,0.0731529,2.445,2.65703
-1.02956,0.0731529,2.445,2.65394
-1.01452,0.0726442,2.428,2.63244
-1.00664,0.0726442,2.428,2.62941
-0.998763,0.0726442,2.428,2.6264
-0.990883,0.0726442,2.428,2.62342
-0.983002,0.0726442,2.428,2.62045
-0.975121,0.0726442,2.428,2.6175
-0.967241,0.0726442,2.428,2.61458
-0.95936,0.0726442,2.428,2.61167
-0.951479,0.0726442,2.428,2.60879
-0.943599,0.0726442,2.428,2.60592
-0.935718,0.0726442,2.428,2.60308
-0.927837,0.0726442,2.428,2.60026
-0.919957,0.0726442,2.428,2.59746
-0.912076,0.0726442,2.428,2.59468
-0.904195,0.0726442,2.428,2.59192
-0.896315,0.0726442,2.428,2.58918
-0.888434,0.0726442,2.428,2.58646
-0.880553,0.0726442,2.428,2.58376
-0.872672,0.0726442,2.428,2.58109
-0.870847,0.0731529,2.445,2.59649
-0.862911,0.0731529,2.445,2.59384
-0.854975,0.0731529,2.445,2.59121
-0.853275,0.0736914,2.463,2.60766
-0.845281,0.0736914,2.463,2.60505
-0.837286,0.0736914,2.463,2.60247
-0.829292,0.0736914,2.463,2.59991
-0.821298,0.0736914,2.463,2.59737
-0.813304,0.0736914,2.463,2.59485
-0.811195,0.07423,2.481,2.6113
-0.803142,0.07423,2.481,2.60881
-0.795089,0.07423,2.481,2.60635
-0.787037,0.07423,2.481,2.6039
-0.778984,0.07423,2.481,2.60148
-0.770931,0.07423,2.481,2.59908
-0.762878,0.07423,2.481,2.5967
-0.754826,0.07423,2.481,2.59435
-0.746773,0.07423,2.481,2.59202
-0.73872,0.07423,2.481,2.58971
-0.730668,0.07423,2.481,2.58742
-0.722615,0.07423,2.481,2.58516
-0.714562,0.07423,2.481,2.58292
-0.706509,0.07423,2.481,2.5807
-0.698457,0.07423,2.481,2.57851
-0.690404,0.07423,2.481,2.57634
-0.682351,0.07423,2.481,2.57419
-0.674299,0.07423,2.481,2.57207
-0.666246,0.07423,2.481,2.56997
-0.658193,0.07423,2.481,2.5679
-0.654857,0.0747685,2.499,2.58446
-0.646746,0.0747685,2.499,2.58242
-0.638635,0.0747685,2.499,2.5804
-0.630524,0.0747685,2.499,2.5784
-0.622413,0.0747685,2.499,2.57643
-0.614302,0.0747685,2.499,2.57448
-0.606191,0.0747685,2.499,2.57256
-0.598079,0.0747685,2.499,2.57066
-0.589968,0.0747685,2.499,2.56878
-0.581857,0.0747685,2.499,2.56693
-0.573746,0.0747685,2.499,2.56511
-0.565635,0.0747685,2.499,2.56331
-0.557524,0.0747685,2.499,2.56153
-0.549413,0.0747685,2.499,2.55977
-0.541301,0.0747685,2.499,2.55805
-0.53319,0.0747685,2.499,2.55634
-0.525079,0.0747685,2.499,2.55466
-0.516968,0.0747685,2.499,2.55301
-0.508857,0.0747685,2.499,2.55138
-0.500746,0.0747685,2.499,2.54977
-0.496183,0.0753071,2.517,2.56655
-0.488013,0.0753071,2.517,2.56498
-0.479844,0.0753071,2.517,2.56344
-0.471674,0.0753071,2.517,2.56192
-0.463505,0.0753071,2.517,2.56043
-0.455335,0.0753071,2.517,2.55896
-0.447166,0.0753071,2.517,2.55752
-0.44231,0.0758755,2.536,2.5754
-0.434079,0.0758755,2.536,2.574
-0.425848,0.0758755,2.536,2.57262
-0.417616,0.0758755,2.536,2.57128
-0.409385,0.0758755,2.536,2.56995
-0.401154,0.0758755,2.536,2.56865
-0.392923,0.0758755,2.536,2.56738
-0.384691,0.0758755,2.536,2.56613
-0.37646,0.0758755,2.536,2.56491
-0.368229,0.0758755,2.536,2.56372
-0.359998,0.0758755,2.536,2.56255
-0.351766,0.0758755,2.536,2.5614
-0.340961,0.0753071,2.517,2.54111
-0.332792,0.0753071,2.517,2.54002
-0.324622,0.0753071,2.517,2.53896
-0.316453,0.0753071,2.517,2.53793
-0.308283,0.0753071,2.517,2.53693
-0.300114,0.0753071,2.517,2.53595
-0.291944,0.0753071,2.517,2.53499
-0.283775,0.0753071,2.517,2.53407
-0.275605,0.0753071,2.517,2.53316
-0.265523,0.0747685,2.499,2.51418
-0.257412,0.0747685,2.499,2.51333
-0.249301,0.0747685,2.499,2.51252
-0.24119,0.0747685,2.499,2.51173
-0.233078,0.0747685,2.499,2.51096
-0.224967,0.0747685,2.499,2.51022
-0.216856,0.0747685,2.499,2.50951
-0.208745,0.0747685,2.499,2.50882
-0.202079,0.0753071,2.517,2.52622
-0.193909,0.0753071,2.517,2.52558
-0.18574,0.0753071,2.517,2.52497
-0.17757,0.0753071,2.517,2.52438
-0.169401,0.0753071,2.517,2.52382
-0.161231,0.0753071,2.517,2.52328
-0.153062,0.0753071,2.517,2.52277
-0.144892,0.0753071,2.517,2.52229
-0.136723,0.0753071,2.517,2.52184
-0.129523,0.0758755,2.536,2.54044
-0.121292,0.0758755,2.536,2.54003
-0.113061,0.0758755,2.536,2.53965
-0.10483,0.0758755,2.536,2.5393
-0.0965985,0.0758755,2.536,2.53897
-0.0883672,0.0758755,2.536,2.53867
-0.080136,0.0758755,2.536,2.5384
-0.0719048,0.0758755,2.536,2.53815
-0.0636736,0.0758755,2.536,2.53793
-0.0554423,0.0758755,2.536,2.53774
-0.0472111,0.0758755,2.536,2.53757
-0.0389799,0.0758755,2.536,2.53743
-0.0307487,0.0758755,2.536,2.53732
-0.0225174,0.0758755,2.536,2.53723
-0.0142862,0.0758755,2.536,2.53718
-0.00605498,0.0758755,2.536,2.53714
0.00215994,0.0753071,2.517,2.51813
0.0102556,0.0747685,2.499,2.50014
0.0183668,0.0747685,2.499,2.50019
0.0264779,0.0747685,2.499,2.50026
0.034589,0.0747685,2.499,2.50036
0.0427002,0.0747685,2.499,2.50048
0.0504453,0.07423,2.481,2.48262
0.058498,0.07423,2.481,2.4828
0.0665507,0.07423,2.481,2.483
0.0746034,0.07423,2.481,2.48323
0.0826561,0.07423,2.481,2.48349
0.0900507,0.0736914,2.463,2.46575
0.098045,0.0736914,2.463,2.46605
0.106039,0.0736914,2.463,2.46638
0.114034,0.0736914,2.463,2.46674
0.122028,0.0736914,2.463,2.46712
0.130022,0.0736914,2.463,2.46753
0.138016,0.0736914,2.463,2.46796
0.147078,0.07423,2.481,2.48646
0.155131,0.07423,2.481,2.48695
0.163183,0.07423,2.481,2.48747
0.171236,0.07423,2.481,2.48801
0.179289,0.07423,2.481,2.48858
0.188701,0.0747685,2.499,2.50723
0.196812,0.0747685,2.499,2.50785
0.204923,0.0747685,2.499,2.5085
0.213034,0.0747685,2.499,2.50918
0.221145,0.0747685,2.499,2.50988
0.229256,0.0747685,2.499,2.51061
0.237367,0.0747685,2.499,2.51136
0.245479,0.0747685,2.499,2.51214
0.25359,0.0747685,2.499,2.51295
0.261701,0.0747685,2.499,2.51378
0.267868,0.07423,2.481,2.49652
0.275921,0.07423,2.481,2.4974
0.283974,0.07423,2.481,2.4983
0.292027,0.07423,2.481,2.49923
0.300079,0.07423,2.481,2.50018
0.308132,0.07423,2.481,2.50116
0.316185,0.07423,2.481,2.50217
0.324237,0.07423,2.481,2.5032
0.33229,0.07423,2.481,2.50425
0.340343,0.07423,2.481,2.50534
0.348396,0.07423,2.481,2.50644
0.356448,0.07423,2.481,2.50757
0.364501,0.07423,2.481,2.50873
0.372554,0.07423,2.481,2.50991
0.380606,0.07423,2.481,2.51112
0.391479,0.0747685,2.499,2.53058
0.39959,0.0747685,2.499,2.53185
0.410638,0.0753071,2.517,2.55139
0.418807,0.0753071,2.517,2.55272
0.426977,0.0753071,2.517,2.55407
0.435146,0.0753071,2.517,2.55545
0.446662,0.0758755,2.536,2.57615
0.454894,0.0758755,2.536,2.57759
0.463125,0.0758755,2.536,2.57906
0.471356,0.0758755,2.536,2.58055
0.479587,0.0758755,2.536,2.58206
0.487819,0.0758755,2.536,2.58361
0.499766,0.076444,2.555,2.60454
0.508059,0.076444,2.555,2.60615
0.512512,0.0758755,2.536,2.58838
0.520743,0.0758755,2.536,2.59002
0.528975,0.0758755,2.536,2.59169
0.537206,0.0758755,2.536,2.59338
0.545437,0.0758755,2.536,2.5951
0.553668,0.0758755,2.536,2.59684
0.5619,0.0758755,2.536,2.59861
0.570131,0.0758755,2.536,2.6004
0.578362,0.0758755,2.536,2.60222
0.586593,0.0758755,2.536,2.60406
0.594824,0.0758755,2.536,2.60593
0.603056,0.0758755,2.536,2.60782
0.611287,0.0758755,2.536,2.60974
0.619518,0.0758755,2.536,2.61168
0.627749,0.0758755,2.536,2.61364
0.640746,0.076444,2.555,2.63523
0.649038,0.076444,2.555,2.63726
0.652443,0.0758755,2.536,2.61968
0.660674,0.0758755,2.536,2.62174
0.668906,0.0758755,2.536,2.62383
0.677137,0.0758755,2.536,2.62594
0.685368,0.0758755,2.536,2.62808
0.693599,0.0758755,2.536,2.63023
0.70183,0.0758755,2.536,2.63242
0.710062,0.0758755,2.536,2.63462
0.718293,0.0758755,2.536,2.63685
0.726524,0.0758755,2.536,2.63911
0.729251,0.0753071,2.517,2.6216
0.73742,0.0753071,2.517,2.62388
0.74559,0.0753071,2.517,2.62619
0.748369,0.0747685,2.499,2.60972
0.75648,0.0747685,2.499,2.61206
0.764591,0.0747685,2.499,2.61442
0.772702,0.0747685,2.499,2.6168
0.780813,0.0747685,2.499,2.61921
0.783242,0.07423,2.481,2.60276
0.791295,0.07423,2.481,2.60519
0.799347,0.07423,2.481,2.60765
0.8074,0.07423,2.481,2.61013
0.815453,0.07423,2.481,2.61263
0.823505,0.07423,2.481,2.61515
0.831558,0.07423,2.481,2.6177
0.839611,0.07423,2.481,2.62027
0.847664,0.07423,2.481,2.62286
0.855716,0.07423,2.481,2.62548
0.863769,0.07423,2.481,2.62811
0.871822,0.07423,2.481,2.63077
0.879874,0.07423,2.481,2.63345
0.887927,0.07423,2.481,2.63615
0.89598,0.07423,2.481,2.63887
0.904033,0.07423,2.481,2.64162
0.912085,0.07423,2.481,2.64438
0.920138,0.07423,2.481,2.64717
0.928191,0.07423,2.481,2.64998
0.936243,0.07423,2.481,2.65281
0.944296,0.07423,2.481,2.65567
0.952349,0.07423,2.481,2.65854
0.960401,0.07423,2.481,2.66144
0.961428,0.0736914,2.463,2.64502
0.969422,0.0736914,2.463,2.64794
0.977417,0.0736914,2.463,2.65088
0.985411,0.0736914,2.463,2.65383
0.993405,0.0736914,2.463,2.65681
1.0014,0.0736914,2.463,2.65981
1.00939,0.0736914,2.463,2.66283
1.01739,0.0736914,2.463,2.66587
1.02538,0.0736914,2.463,2.66893
1.04093,0.07423,2.481,2.69154
1.04898,0.07423,2.481,2.69467
1.05703,0.07423,2.481,2.69781
1.08054,0.0753071,2.517,2.74017
1.08871,0.0753071,2.517,2.7434
1.10516,0.0758755,2.536,2.76739
1.12173,0.076444,2.555,2.79144
1.13843,0.0770125,2.574,2.81557
1.14678,0.0770125,2.574,2.81896
1.17264,0.0781793,2.613,2.86513
1.19016,0.0787777,2.633,2.89057
1.19871,0.0787777,2.633,2.8941
1.21688,0.079406,2.654,2.92076
1.23519,0.0800343,2.675,2.9475
1.24388,0.0800343,2.675,2.95115
1.26239,0.0806626,2.696,2.97801
1.27114,0.0806626,2.696,2.98173
1.27989,0.0806626,2.696,2.98547
1.28864,0.0806626,2.696,2.98923
1.29739,0.0806626,2.696,2.99302
1.30614,0.0806626,2.696,2.99682
1.30465,0.0800343,2.675,2.97727
1.31334,0.0800343,2.675,2.98109
1.32202,0.0800343,2.675,2.98492
1.3307,0.0800343,2.675,2.98878
1.33938,0.0800343,2.675,2.99265
1.35865,0.0806626,2.696,3.02007
1.3674,0.0806626,2.696,3.02402
1.3981,0.0819492,2.739,3.07628
1.41829,0.0826074,2.761,3.10508
1.45051,0.0839538,2.806,3.15985
1.45962,0.0839538,2.806,3.16404
1.49333,0.08536,2.853,3.22132
1.52787,0.0867961,2.901,3.2799
1.53729,0.0867961,2.901,3.28429
1.58722,0.08907,2.977,3.37487
1.62531,0.0906557,3.03,3.43959
1.66429,0.0922714,3.084,3.50563
1.6743,0.0922714,3.084,3.51039
1.6996,0.0931091,3.112,3.54709
1.7097,0.0931091,3.112,3.55194
1.7198,0.0931091,3.112,3.55682
1.7299,0.0931091,3.112,3.56171
1.74,0.0931091,3.112,3.56663
1.75011,0.0931091,3.112,3.57157
1.76021,0.0931091,3.112,3.57653
1.77031,0.0931091,3.112,3.58151
1.76439,0.0922714,3.084,3.55424
1.75886,0.0914635,3.057,3.52806
1.76879,0.0914635,3.057,3.53302
1.77871,0.0914635,3.057,3.538
1.77283,0.0906557,3.03,3.5117
1.78267,0.0906557,3.03,3.51668
1.7925,0.0906557,3.03,3.52167
1.80234,0.0906557,3.03,3.52669
1.79602,0.0898479,3.003,3.50025
1.80577,0.0898479,3.003,3.50527
1.7998,0.08907,2.977,3.47991
1.79366,0.0882921,2.951,3.45448
1.80324,0.0882921,2.951,3.45946
1.79746,0.0875441,2.926,3.43511
1.79152,0.0867961,2.901,3.4107
1.80093,0.0867961,2.901,3.41565
1.78039,0.08536,2.853,3.36403
1.76017,0.0839538,2.806,3.31344
1.76928,0.0839538,2.806,3.31829
1.76381,0.0832656,2.783,3.29591
1.74481,0.0819492,2.739,3.24857
1.72617,0.0806626,2.696,3.20228
1.73492,0.0806626,2.696,3.207
1.71651,0.079406,2.654,3.16171
1.69847,0.0781793,2.613,3.11748
1.70695,0.0781793,2.613,3.12211
1.7023,0.0775809,2.593,3.10282
1.68565,0.076444,2.555,3.06191
1.69394,0.076444,2.555,3.06648
1.68958,0.0758755,2.536,3.04823
1.68509,0.0753071,2.517,3.02993
1.69326,0.0753071,2.517,3.03448
1.68926,0.0747685,2.499,3.01732
1.68515,0.07423,2.481,3.0001
-1.88487,0.0901072,2.717,3.30801
-1.87605,0.0901072,2.717,3.303
-1.86723,0.0901072,2.717,3.298
-1.85842,0.0901072,2.717,3.29301
-1.8353,0.0894107,2.696,3.26263
-1.82655,0.0894107,2.696,3.25771
-1.8178,0.0894107,2.696,3.25282
-1.78087,0.0880178,2.654,3.19734
-1.77225,0.0880178,2.654,3.19254
-1.76364,0.0880178,2.654,3.18777
-1.74114,0.0873214,2.633,3.15783
-1.71943,0.0866581,2.613,3.12917
-1.71095,0.0866581,2.613,3.12452
-1.70247,0.0866581,2.613,3.11988
-1.68102,0.0859948,2.593,3.09142
-1.67261,0.0859948,2.593,3.08685
-1.6398,0.0847346,2.555,3.03713
-1.61938,0.0841044,2.536,3.01011
-1.61114,0.0841044,2.536,3.00569
-1.60291,0.0841044,2.536,3.00128
-1.59468,0.0841044,2.536,2.99689
-1.58645,0.0841044,2.536,2.99252
-1.57822,0.0841044,2.536,2.98817
-1.56999,0.0841044,2.536,2.98383
-1.58516,0.0853647,2.574,3.02415
-1.58844,0.0859948,2.593,3.04207
-1.58003,0.0859948,2.593,3.03768
-1.58373,0.0866581,2.613,3.05671
-1.59997,0.0880178,2.654,3.10022
-1.59135,0.0880178,2.654,3.09578
-1.60779,0.0894107,2.696,3.14028
-1.62454,0.0908368,2.739,3.18583
-1.61565,0.0908368,2.739,3.1813
-1.60676,0.0908368,2.739,3.1768
-1.6107,0.0915664,2.761,3.19779
-1.60174,0.0915664,2.761,3.19329
-1.58009,0.0908368,2.739,3.16339
-1.5712,0.0908368,2.739,3.15896
-1.56231,0.0908368,2.739,3.15455
-1.54094,0.0901072,2.717,3.12485
-1.52028,0.0894107,2.696,3.0964
-1.48798,0.0880178,2.654,3.04394
-1.47937,0.0880178,2.654,3.03974
-1.47075,0.0880178,2.654,3.03555
-1.46214,0.0880178,2.654,3.03139
-1.45353,0.0880178,2.654,3.02724
-1.43348,0.0873214,2.633,2.9992
-1.42493,0.0873214,2.633,2.99512
-1.41639,0.0873214,2.633,2.99106
-1.40784,0.0873214,2.633,2.98703
-1.3993,0.0873214,2.633,2.98301
-1.39075,0.0873214,2.633,2.97901
-1.3822,0.0873214,2.633,2.97503
-1.37366,0.0873214,2.633,2.97107
-1.376,0.0880178,2.654,2.99079
-1.36738,0.0880178,2.654,2.98684
-1.35877,0.0880178,2.654,2.9829
-1.33947,0.0873214,2.633,2.95542
-1.33093,0.0873214,2.633,2.95156
-1.31234,0.0866581,2.613,2.92532
-1.30385,0.0866581,2.613,2.92153
-1.29537,0.0866581,2.613,2.91775
-1.27704,0.0859948,2.593,2.89169
-1.25933,0.0853647,2.574,2.86682
-1.24174,0.0847346,2.555,2.84203
-1.23345,0.0847346,2.555,2.83842
-1.21605,0.0841044,2.536,2.81374
-1.19876,0.0834743,2.517,2.78914
-1.1906,0.0834743,2.517,2.78564
-1.17397,0.0828774,2.499,2.76226
-1.16586,0.0828774,2.499,2.75882
-1.15775,0.0828774,2.499,2.7554
-1.14136,0.0822804,2.481,2.73218
-1.1333,0.0822804,2.481,2.72883
-1.12525,0.0822804,2.481,2.72549
-1.1172,0.0822804,2.481,2.72218
-1.1011,0.0816835,2.463,2.69916
-1.0931,0.0816835,2.463,2.69591
-1.08511,0.0816835,2.463,2.69268
-1.07712,0.0816835,2.463,2.68946
-1.06131,0.0810865,2.445,2.66664
-1.05337,0.0810865,2.445,2.66349
-1.04544,0.0810865,2.445,2.66036
-1.0375,0.0810865,2.445,2.65726
-1.02956,0.0810865,2.445,2.65417
-1.01452,0.0805227,2.428,2.63267
-1.00664,0.0805227,2.428,2.62964
-0.998763,0.0805227,2.428,2.62663
-0.990883,0.0805227,2.428,2.62365
-0.983002,0.0805227,2.428,2.62068
-0.975121,0.0805227,2.428,2.61773
-0.967241,0.0805227,2.428,2.61481
-0.95936,0.0805227,2.428,2.6119
-0.951479,0.0805227,2.428,2.60902
-0.943599,0.0805227,2.428,2.60616
-0.935718,0.0805227,2.428,2.60331
-0.927837,0.0805227,2.428,2.60049
-0.919957,0.0805227,2.428,2.59769
-0.912076,0.0805227,2.428,2.59491
-0.904195,0.0805227,2.428,2.59215
-0.896315,0.0805227,2.428,2.58941
-0.888434,0.0805227,2.428,2.58669
-0.880553,0.0805227,2.428,2.584
-0.872672,0.0805227,2.428,2.58132
-0.870847,0.0810865,2.445,2.59672
-0.862911,0.0810865,2.445,2.59407
-0.854975,0.0810865,2.445,2.59144
-0.853275,0.0816835,2.463,2.6079
-0.845281,0.0816835,2.463,2.60529
-0.837286,0.0816835,2.463,2.60271
-0.829292,0.0816835,2.463,2.60015
-0.821298,0.0816835,2.463,2.59761
-0.813304,0.0816835,2.463,2.59509
-0.811195,0.0822804,2.481,2.61155
-0.803142,0.0822804,2.481,2.60906
-0.795089,0.0822804,2.481,2.60659
-0.787037,0.0822804,2.481,2.60414
-0.778984,0.0822804,2.481,2.60172
-0.770931,0.0822804,2.481,2.59932
-0.762878,0.0822804,2.481,2.59694
-0.754826,0.0822804,2.481,2.59459
-0.746773,0.0822804,2.481,2.59226
-0.73872,0.0822804,2.481,2.58995
-0.730668,0.0822804,2.481,2.58766
-0.727858,0.0828774,2.499,2.60416
-0.714562,0.0822804,2.481,2.58316
-0.706509,0.0822804,2.481,2.58095
-0.698457,0.0822804,2.481,2.57875
-0.690404,0.0822804,2.481,2.57659
-0.682351,0.0822804,2.481,2.57444
-0.674299,0.0822804,2.481,2.57232
-0.666246,0.0822804,2.481,2.57022
-0.658193,0.0822804,2.481,2.56814
-0.654857,0.0828774,2.499,2.58471
-0.646746,0.0828774,2.499,2.58266
-0.638635,0.0828774,2.499,2.58064
-0.630524,0.0828774,2.499,2.57865
-0.622413,0.0828774,2.499,2.57668
-0.614302,0.0828774,2.499,2.57473
-0.606191,0.0828774,2.499,2.57281
-0.598079,0.0828774,2.499,2.57091
-0.589968,0.0828774,2.499,2.56903
-0.581857,0.0828774,2.499,2.56718
-0.573746,0.0828774,2.499,2.56536
-0.565635,0.0828774,2.499,2.56355
-0.557524,0.0828774,2.499,2.56178
-0.549413,0.0828774,2.499,2.56002
-0.541301,0.0828774,2.499,2.5583
-0.53319,0.0828774,2.499,2.55659
-0.525079,0.0828774,2.499,2.55491
-0.516968,0.0828774,2.499,2.55326
-0.508857,0.0828774,2.499,2.55163
-0.500746,0.0828774,2.499,2.55002
-0.496183,0.0834743,2.517,2.5668
-0.488013,0.0834743,2.517,2.56523
-0.479844,0.0834743,2.517,2.56369
-0.471674,0.0834743,2.517,2.56217
-0.463505,0.0834743,2.517,2.56068
-0.455335,0.0834743,2.517,2.55922
-0.447166,0.0834743,2.517,2.55778
-0.44231,0.0841044,2.536,2.57566
-0.434079,0.0841044,2.536,2.57426
-0.425848,0.0841044,2.536,2.57288
-0.417616,0.0841044,2.536,2.57153
-0.409385,0.0841044,2.536,2.57021
-0.398148,0.0834743,2.517,2.54966
-0.389979,0.0834743,2.517,2.5484
-0.381809,0.0834743,2.517,2.54716
-0.37364,0.0834743,2.517,2.54595
-0.368229,0.0841044,2.536,2.56397
-0.359998,0.0841044,2.536,2.5628
-0.351766,0.0841044,2.536,2.56166
-0.340961,0.0834743,2.517,2.54136
-0.332792,0.0834743,2.517,2.54028
-0.324622,0.0834743,2.517,2.53922
-0.316453,0.0834743,2.517,2.53819
-0.308283,0.0834743,2.517,2.53718
-0.300114,0.0834743,2.517,2.5362
-0.291944,0.0834743,2.517,2.53525
-0.283775,0.0834743,2.517,2.53432
-0.275605,0.0834743,2.517,2.53342
-0.265523,0.0828774,2.499,2.51443
-0.257412,0.0828774,2.499,2.51359
-0.249301,0.0828774,2.499,2.51277
-0.24119,0.0828774,2.499,2.51198
-0.233078,0.0828774,2.499,2.51121
-0.224967,0.0828774,2.499,2.51047
-0.216856,0.0828774,2.499,2.50976
-0.208745,0.0828774,2.499,2.50907
-0.202079,0.0834743,2.517,2.52648
-0.193909,0.0834743,2.517,2.52584
-0.18574,0.0834743,2.517,2.52522
-0.17757,0.0834743,2.517,2.52464
-0.169401,0.0834743,2.517,2.52408
-0.161231,0.0834743,2.517,2.52354
-0.153062,0.0834743,2.517,2.52303
-0.144892,0.0834743,2.517,2.52255
-0.136723,0.0834743,2.517,2.52209
-0.129523,0.0841044,2.536,2.5407
-0.121292,0.0841044,2.536,2.54029
-0.113061,0.0841044,2.536,2.53991
-0.10483,0.0841044,2.536,2.53956
-0.0965985,0.0841044,2.536,2.53923
-0.0883672,0.0841044,2.536,2.53893
-0.080136,0.0841044,2.536,2.53866
-0.0719048,0.0841044,2.536,2.53841
-0.0636736,0.0841044,2.536,2.53819
-0.0554423,0.0841044,2.536,2.538
-0.0472111,0.0841044,2.536,2.53783
-0.0389799,0.0841044,2.536,2.53769
-0.0307487,0.0841044,2.536,2.53758
-0.0225174,0.0841044,2.536,2.53749
-0.0142862,0.0841044,2.536,2.53743
-0.00605498,0.0841044,2.536,2.5374
0.00215994,0.0834743,2.517,2.51838
0.0102556,0.0828774,2.499,2.5004
0.0183668,0.0828774,2.499,2.50044
0.0264779,0.0828774,2.499,2.50051
0.034589,0.0828774,2.499,2.50061
0.0427002,0.0828774,2.499,2.50074
0.0504453,0.0822804,2.481,2.48288
0.058498,0.0822804,2.481,2.48305
0.0665507,0.0822804,2.481,2.48326
0.0746034,0.0822804,2.481,2.48348
0.0826561,0.0822804,2.481,2.48374
0.0900507,0.0816835,2.463,2.466
0.098045,0.0816835,2.463,2.4663
0.106039,0.0816835,2.463,2.46663
0.114034,0.0816835,2.463,2.46699
0.122028,0.0816835,2.463,2.46737
0.130022,0.0816835,2.463,2.46778
0.138016,0.0816835,2.463,2.46822
0.147078,0.0822804,2.481,2.48672
0.155131,0.0822804,2.481,2.48721
0.163183,0.0822804,2.481,2.48772
0.171236,0.0822804,2.481,2.48826
0.179289,0.0822804,2.481,2.48883
0.188701,0.0828774,2.499,2.50748
0.196812,0.0828774,2.499,2.50811
0.204923,0.0828774,2.499,2.50876
0.213034,0.0828774,2.499,2.50943
0.221145,0.0828774,2.499,2.51013
0.229256,0.0828774,2.499,2.51086
0.237367,0.0828774,2.499,2.51162
0.245479,0.0828774,2.499,2.5124
0.25359,0.0828774,2.499,2.5132
0.261701,0.0828774,2.499,2.51403
0.267868,0.0822804,2.481,2.49678
0.275921,0.0822804,2.481,2.49765
0.283974,0.0822804,2.481,2.49855
0.292027,0.0822804,2.481,2.49948
0.302256,0.0828774,2.499,2.51858
0.310368,0.0828774,2.499,2.51956
0.316185,0.0822804,2.481,2.50242
0.324237,0.0822804,2.481,2.50345
0.33229,0.0822804,2.481,2.50451
0.340343,0.0822804,2.481,2.50559
0.348396,0.0822804,2.481,2.50669
0.356448,0.0822804,2.481,2.50783
0.364501,0.0822804,2.481,2.50898
0.372554,0.0822804,2.481,2.51016
0.380606,0.0822804,2.481,2.51137
0.391479,0.0828774,2.499,2.53083
0.39959,0.0828774,2.499,2.5321
0.407701,0.0828774,2.499,2.5334
0.418807,0.0834743,2.517,2.55297
0.426977,0.0834743,2.517,2.55432
0.435146,0.0834743,2.517,2.5557
0.446662,0.0841044,2.536,2.57641
0.454894,0.0841044,2.536,2.57785
0.463125,0.0841044,2.536,2.57931
0.471356,0.0841044,2.536,2.5808
0.479587,0.0841044,2.536,2.58232
0.487819,0.0841044,2.536,2.58386
0.49605,0.0841044,2.536,2.58543
0.504281,0.0841044,2.536,2.58702
0.512512,0.0841044,2.536,2.58864
0.520743,0.0841044,2.536,2.59028
0.528975,0.0841044,2.536,2.59195
0.537206,0.0841044,2.536,2.59364
0.545437,0.0841044,2.536,2.59536
0.553668,0.0841044,2.536,2.5971
0.5619,0.0841044,2.536,2.59887
0.570131,0.0841044,2.536,2.60066
0.578362,0.0841044,2.536,2.60247
0.586593,0.0841044,2.536,2.60432
0.594824,0.0841044,2.536,2.60618
0.603056,0.0841044,2.536,2.60807
0.611287,0.0841044,2.536,2.60999
0.619518,0.0841044,2.536,2.61193
0.627749,0.0841044,2.536,2.61389
0.635981,0.0841044,2.536,2.61588
0.644212,0.0841044,2.536,2.6179
0.652443,0.0841044,2.536,2.61993
0.660674,0.0841044,2.536,2.622
0.668906,0.0841044,2.536,2.62408
0.677137,0.0841044,2.536,2.62619
0.685368,0.0841044,2.536,2.62833
0.693599,0.0841044,2.536,2.63048
0.70183,0.0841044,2.536,2.63267
0.704742,0.0834743,2.517,2.61513
0.712911,0.0834743,2.517,2.61735
0.721081,0.0834743,2.517,2.61958
0.729251,0.0834743,2.517,2.62184
0.73742,0.0834743,2.517,2.62413
0.740258,0.0828774,2.499,2.60765
0.748369,0.0828774,2.499,2.60997
0.75648,0.0828774,2.499,2.6123
0.764591,0.0828774,2.499,2.61466
0.767137,0.0822804,2.481,2.5982
0.775189,0.0822804,2.481,2.60059
0.783242,0.0822804,2.481,2.603
0.791295,0.0822804,2.481,2.60543
0.793548,0.0816835,2.463,2.58897
0.801542,0.0816835,2.463,2.59143
0.809537,0.0816835,2.463,2.59391
0.817531,0.0816835,2.463,2.59642
0.831558,0.0822804,2.481,2.61794
0.839611,0.0822804,2.481,2.62051
0.847664,0.0822804,2.481,2.6231
0.855716,0.0822804,2.481,2.62572
0.863769,0.0822804,2.481,2.62835
0.871822,0.0822804,2.481,2.63101
0.879874,0.0822804,2.481,2.63369
0.887927,0.0822804,2.481,2.63639
0.89598,0.0822804,2.481,2.63911
0.904033,0.0822804,2.481,2.64186
0.912085,0.0822804,2.481,2.64462
0.920138,0.0822804,2.481,2.64741
0.928191,0.0822804,2.481,2.65022
0.936243,0.0822804,2.481,2.65305
0.944296,0.0822804,2.481,2.6559
0.952349,0.0822804,2.481,2.65878
0.960401,0.0822804,2.481,2.66167
0.968454,0.0822804,2.481,2.66459
0.969422,0.0816835,2.463,2.64817
0.977417,0.0816835,2.463,2.65111
0.985411,0.0816835,2.463,2.65407
0.993405,0.0816835,2.463,2.65705
1.0014,0.0816835,2.463,2.66005
1.00939,0.0816835,2.463,2.66307
1.01739,0.0816835,2.463,2.66611
1.03288,0.0822804,2.481,2.68867
1.04093,0.0822804,2.481,2.69178
1.04898,0.0822804,2.481,2.6949
1.0647,0.0828774,2.499,2.71762
1.08054,0.0834743,2.517,2.74041
1.08871,0.0834743,2.517,2.74364
1.10516,0.0841044,2.536,2.76763
1.12173,0.0847346,2.555,2.79168
1.13843,0.0853647,2.574,2.81581
1.14678,0.0853647,2.574,2.8192
1.16367,0.0859948,2.593,2.84344
1.17208,0.0859948,2.593,2.8469
1.1805,0.0859948,2.593,2.85037
1.19808,0.0866581,2.613,2.87588
1.2158,0.0873214,2.633,2.90146
1.22435,0.0873214,2.633,2.90505
1.24273,0.0880178,2.654,2.93186
1.25134,0.0880178,2.654,2.93553
1.25995,0.0880178,2.654,2.93921
1.26857,0.0880178,2.654,2.94291
1.27718,0.0880178,2.654,2.94664
1.2858,0.0880178,2.654,2.95038
1.29441,0.0880178,2.654,2.95414
1.29272,0.0873214,2.633,2.93452
1.30126,0.0873214,2.633,2.9383
1.30981,0.0873214,2.633,2.94209
1.31835,0.0873214,2.633,2.94591
1.33748,0.0880178,2.654,2.97327
1.3461,0.0880178,2.654,2.97715
1.36543,0.0887143,2.675,3.00465
1.39569,0.0901072,2.717,3.05584
1.42725,0.0915664,2.761,3.10943
1.43621,0.0915664,2.761,3.11355
1.46873,0.0930588,2.806,3.16851
1.51523,0.0954134,2.877,3.25302
1.52457,0.0954134,2.877,3.25738
1.56003,0.0970385,2.926,3.31732
1.59688,0.0987299,2.977,3.37969
1.64972,0.101383,3.057,3.47521
1.65964,0.101383,3.057,3.47993
1.68431,0.102278,3.084,3.51545
1.69432,0.102278,3.084,3.52026
1.70433,0.102278,3.084,3.52509
1.7299,0.103207,3.112,3.56199
1.74,0.103207,3.112,3.56691
1.75011,0.103207,3.112,3.57184
1.76021,0.103207,3.112,3.5768
1.77031,0.103207,3.112,3.58178
1.76439,0.102278,3.084,3.55452
1.75886,0.101383,3.057,3.52833
1.76879,0.101383,3.057,3.53329
1.77871,0.101383,3.057,3.53827
1.77283,0.100488,3.03,3.51197
1.78267,0.100488,3.03,3.51695
1.7925,0.100488,3.03,3.52194
1.80234,0.100488,3.03,3.52696
1.79602,0.0995921,3.003,3.50052
1.80577,0.0995921,3.003,3.50553
1.7998,0.0987299,2.977,3.48017
1.79366,0.0978676,2.951,3.45473
1.80324,0.0978676,2.951,3.45972
1.79746,0.0970385,2.926,3.43537
1.79152,0.0962094,2.901,3.41095
1.80093,0.0962094,2.901,3.41591
1.78039,0.0946175,2.853,3.36428
1.76017,0.0930588,2.806,3.31368
1.76928,0.0930588,2.806,3.31853
1.76381,0.092296,2.783,3.29615
1.74481,0.0908368,2.739,3.24881
1.72617,0.0894107,2.696,3.20251
1.73492,0.0894107,2.696,3.20724
1.71651,0.0880178,2.654,3.16194
1.69847,0.0866581,2.613,3.11771
1.70695,0.0866581,2.613,3.12233
1.7023,0.0859948,2.593,3.10304
1.68565,0.0847346,2.555,3.06213
1.69394,0.0847346,2.555,3.0667
1.68958,0.0841044,2.536,3.04845
1.68509,0.0834743,2.517,3.03015
1.69326,0.0834743,2.517,3.0347
1.68926,0.0828774,2.499,3.01753
1.68515,0.0822804,2.481,3.00031
-1.90013,0.0997244,2.739,3.33505
-1.87605,0.0989234,2.717,3.30325
-1.86723,0.0989234,2.717,3.29825
-1.85842,0.0989234,2.717,3.29326
-1.8353,0.0981588,2.696,3.26288
-1.82655,0.0981588,2.696,3.25797
-1.8178,0.0981588,2.696,3.25307
-1.78087,0.0966296,2.654,3.19758
-1.77225,0.0966296,2.654,3.19279
-1.76364,0.0966296,2.654,3.18802
-1.74114,0.095865,2.633,3.15808
-1.71943,0.0951369,2.613,3.12942
-1.71095,0.0951369,2.613,3.12477
-1.68944,0.0944087,2.593,3.09625
-1.6687,0.0937169,2.574,3.06901
-1.66035,0.0937169,2.574,3.06448
-1.6398,0.0930251,2.555,3.03737
-1.60724,0.0916416,2.517,2.98779
-1.59907,0.0916416,2.517,2.98341
-1.5909,0.0916416,2.517,2.97904
-1.58273,0.0916416,2.517,2.97468
-1.57456,0.0916416,2.517,2.97034
-1.5664,0.0916416,2.517,2.96602
-1.55823,0.0916416,2.517,2.96171
-1.56176,0.0923334,2.536,2.97975
-1.5768,0.0937169,2.574,3.02003
-1.56845,0.0937169,2.574,3.01567
-1.57161,0.0944087,2.593,3.03357
-1.58731,0.095865,2.633,3.07594
-1.57876,0.095865,2.633,3.07154
-1.59526,0.0973942,2.675,3.11608
-1.59904,0.0981588,2.696,3.13608
-1.60267,0.0989234,2.717,3.15602
-1.59385,0.0989234,2.717,3.15155
-1.59787,0.0997244,2.739,3.17258
-1.58898,0.0997244,2.739,3.16811
-1.58009,0.0997244,2.739,3.16366
-1.55858,0.0989234,2.717,3.13385
-1.54976,0.0989234,2.717,3.12948
-1.52903,0.0981588,2.696,3.10097
-1.50844,0.0973942,2.675,3.07254
-1.48798,0.0966296,2.654,3.0442
-1.47937,0.0966296,2.654,3.04
-1.45912,0.095865,2.633,3.01179
-1.45057,0.095865,2.633,3.00766
-1.44203,0.095865,2.633,3.00355
-1.42259,0.0951369,2.613,2.97667
-1.41411,0.0951369,2.613,2.97263
-1.40563,0.0951369,2.613,2.9686
-1.39715,0.0951369,2.613,2.9646
-1.38867,0.0951369,2.613,2.96061
-1.38019,0.0951369,2.613,2.95664
-1.3717,0.0951369,2.613,2.95269
-1.36322,0.0951369,2.613,2.94876
-1.35474,0.0951369,2.613,2.94485
-1.35656,0.095865,2.633,2.96347
-1.34802,0.095865,2.633,2.95957
-1.3293,0.0951369,2.613,2.93323
-1.32082,0.0951369,2.613,2.9294
-1.31234,0.0951369,2.613,2.92558
-1.29387,0.0944087,2.593,2.89943
-1.28546,0.0944087,2.593,2.89568
-1.27704,0.0944087,2.593,2.89195
-1.25933,0.0937169,2.574,2.86708
-1.24174,0.0930251,2.555,2.84229
-1.23345,0.0930251,2.555,2.83867
-1.21605,0.0923334,2.536,2.814
-1.19876,0.0916416,2.517,2.7894
-1.1906,0.0916416,2.517,2.78589
-1.17397,0.0909862,2.499,2.76251
-1.16586,0.0909862,2.499,2.75908
-1.15775,0.0909862,2.499,2.75566
-1.14136,0.0903309,2.481,2.73244
-1.1333,0.0903309,2.481,2.72908
-1.12525,0.0903309,2.481,2.72575
-1.1172,0.0903309,2.481,2.72243
-1.1011,0.0896755,2.463,2.69941
-1.0931,0.0896755,2.463,2.69616
-1.08511,0.0896755,2.463,2.69293
-1.07712,0.0896755,2.463,2.68972
-1.06131,0.0890201,2.445,2.66689
-1.05337,0.0890201,2.445,2.66375
-1.04544,0.0890201,2.445,2.66062
-1.0375,0.0890201,2.445,2.65751
-1.02956,0.0890201,2.445,2.65442
-1.01452,0.0884012,2.428,2.63292
-1.00664,0.0884012,2.428,2.62989
-0.998763,0.0884012,2.428,2.62689
-0.990883,0.0884012,2.428,2.6239
-0.983002,0.0884012,2.428,2.62093
-0.968294,0.0877822,2.411,2.59966
-0.960468,0.0877822,2.411,2.59675
-0.952643,0.0877822,2.411,2.59387
-0.944817,0.0877822,2.411,2.59101
-0.936992,0.0877822,2.411,2.58816
-0.929166,0.0877822,2.411,2.58534
-0.927837,0.0884012,2.428,2.60075
-0.919957,0.0884012,2.428,2.59795
-0.912076,0.0884012,2.428,2.59517
-0.904195,0.0884012,2.428,2.59241
-0.896315,0.0884012,2.428,2.58967
-0.888434,0.0884012,2.428,2.58695
-0.880553,0.0884012,2.428,2.58425
-0.872672,0.0884012,2.428,2.58158
-0.870847,0.0890201,2.445,2.59698
-0.862911,0.0890201,2.445,2.59433
-0.854975,0.0890201,2.445,2.5917
-0.853275,0.0896755,2.463,2.60816
-0.845281,0.0896755,2.463,2.60555
-0.837286,0.0896755,2.463,2.60297
-0.829292,0.0896755,2.463,2.60041
-0.821298,0.0896755,2.463,2.59787
-0.813304,0.0896755,2.463,2.59536
-0.811195,0.0903309,2.481,2.61181
-0.803142,0.0903309,2.481,2.60932
-0.795089,0.0903309,2.481,2.60685
-0.787037,0.0903309,2.481,2.60441
-0.784635,0.0909862,2.499,2.62086
-0.776524,0.0909862,2.499,2.61845
-0.768413,0.0909862,2.499,2.61605
-0.754826,0.0903309,2.481,2.59486
-0.746773,0.0903309,2.481,2.59253
-0.73872,0.0903309,2.481,2.59022
-0.735969,0.0909862,2.499,2.60671
-0.727858,0.0909862,2.499,2.60443
-0.719746,0.0909862,2.499,2.60217
-0.706509,0.0903309,2.481,2.58122
-0.698457,0.0903309,2.481,2.57902
-0.690404,0.0903309,2.481,2.57685
-0.682351,0.0903309,2.481,2.57471
-0.674299,0.0903309,2.481,2.57259
-0.666246,0.0903309,2.481,2.57049
-0.658193,0.0903309,2.481,2.56841
-0.654857,0.0909862,2.499,2.58498
