-0.512565,0.648784,1.956,2.12358
-0.506217,0.648784,1.956,2.12205
-0.499868,0.648784,1.956,2.12055
-0.490744,0.645135,1.945,2.10714
-0.484431,0.645135,1.945,2.10568
-0.480822,0.648784,1.956,2.11614
-0.474473,0.648784,1.956,2.11471
-0.468125,0.648784,1.956,2.11329
-0.461776,0.648784,1.956,2.11189
-0.455427,0.648784,1.956,2.11051
-0.449079,0.648784,1.956,2.10915
-0.44273,0.648784,1.956,2.10781
-0.436381,0.648784,1.956,2.10649
-0.430032,0.648784,1.956,2.10518
-0.423684,0.648784,1.956,2.10389
-0.417335,0.648784,1.956,2.10262
-0.408675,0.645135,1.945,2.08956
-0.402362,0.645135,1.945,2.08833
-0.396049,0.645135,1.945,2.08712
-0.389736,0.645135,1.945,2.08593
-0.381255,0.641487,1.934,2.07297
-0.374977,0.641487,1.934,2.07183
-0.3687,0.641487,1.934,2.0707
-0.362423,0.641487,1.934,2.06959
-0.356146,0.641487,1.934,2.0685
-0.349868,0.641487,1.934,2.06743
-0.341637,0.637838,1.923,2.05462
-0.335395,0.637838,1.923,2.0536
-0.329154,0.637838,1.923,2.05259
-0.322912,0.637838,1.923,2.05159
-0.31667,0.637838,1.923,2.05062
-0.310429,0.637838,1.923,2.04967
-0.304187,0.637838,1.923,2.04873
-0.297946,0.637838,1.923,2.04781
-0.291704,0.637838,1.923,2.04691
-0.285462,0.637838,1.923,2.04603
-0.279221,0.637838,1.923,2.04517
-0.272979,0.637838,1.923,2.04433
-0.266738,0.637838,1.923,2.04351
-0.263476,0.645135,1.945,2.06607
-0.255709,0.641487,1.934,2.05359
-0.249432,0.641487,1.934,2.05282
-0.243154,0.641487,1.934,2.05207
-0.236877,0.641487,1.934,2.05133
-0.2306,0.641487,1.934,2.05062
-0.223047,0.637838,1.923,2.03826
-0.216805,0.637838,1.923,2.03759
-0.210564,0.637838,1.923,2.03694
-0.204322,0.637838,1.923,2.0363
-0.196947,0.63419,1.912,2.02404
-0.190741,0.63419,1.912,2.02344
-0.18357,0.630873,1.902,2.01229
-0.177397,0.630873,1.902,2.01173
-0.170233,0.627224,1.891,1.99957
-0.164096,0.627224,1.891,1.99905
-0.157958,0.627224,1.891,1.99856
-0.151017,0.623907,1.881,1.98752
-0.144912,0.623907,1.881,1.98706
-0.138807,0.623907,1.881,1.98663
-0.132702,0.623907,1.881,1.98621
-0.126596,0.623907,1.881,1.98581
-0.120491,0.623907,1.881,1.98543
-0.114386,0.623907,1.881,1.98507
-0.10828,0.623907,1.881,1.98473
-0.102175,0.623907,1.881,1.9844
-0.09607,0.623907,1.881,1.9841
-0.0899647,0.623907,1.881,1.98381
-0.0838595,0.623907,1.881,1.98355
-0.0777542,0.623907,1.881,1.9833
-0.0716489,0.623907,1.881,1.98307
-0.0655437,0.623907,1.881,1.98286
-0.0594384,0.623907,1.881,1.98266
-0.0533332,0.623907,1.881,1.98249
-0.0472279,0.623907,1.881,1.98233
-0.0411226,0.623907,1.881,1.9822
-0.0350174,0.623907,1.881,1.98208
-0.0289121,0.623907,1.881,1.98198
-0.0228069,0.623907,1.881,1.9819
-0.0167904,0.627224,1.891,1.99238
-0.0106527,0.627224,1.891,1.99234
-0.00454124,0.630873,1.902,2.0039
0.00163218,0.630873,1.902,2.0039
0.0078056,0.630873,1.902,2.00391
0.013979,0.630873,1.902,2.00395
0.0201524,0.630873,1.902,2.004
0.0263259,0.630873,1.902,2.00407
0.0326702,0.63419,1.912,2.0147
0.038876,0.63419,1.912,2.01481
0.0450819,0.63419,1.912,2.01494
0.0512878,0.63419,1.912,2.01509
0.0574937,0.63419,1.912,2.01525
0.0636995,0.63419,1.912,2.01544
0.0699054,0.63419,1.912,2.01565
0.0761113,0.63419,1.912,2.01587
0.0823172,0.63419,1.912,2.01611
0.088523,0.63419,1.912,2.01638
0.0947289,0.63419,1.912,2.01666
0.100935,0.63419,1.912,2.01696
0.107141,0.63419,1.912,2.01728
0.113347,0.63419,1.912,2.01762
0.119552,0.63419,1.912,2.01798
0.125101,0.630873,1.902,2.0078
0.131274,0.630873,1.902,2.00819
0.137447,0.630873,1.902,2.00861
0.143621,0.630873,1.902,2.00904
0.149794,0.630873,1.902,2.00949
0.155968,0.630873,1.902,2.00996
0.161203,0.627224,1.891,1.99882
0.167341,0.627224,1.891,1.99932
0.173479,0.627224,1.891,1.99985
0.179617,0.627224,1.891,2.00039
0.185754,0.627224,1.891,2.00095
0.191892,0.627224,1.891,2.00153
0.19803,0.627224,1.891,2.00213
0.203088,0.623907,1.881,1.99215
0.209193,0.623907,1.881,1.99278
0.215298,0.623907,1.881,1.99343
0.221403,0.623907,1.881,1.9941
0.227509,0.623907,1.881,1.99479
0.233614,0.623907,1.881,1.99549
0.239719,0.623907,1.881,1.99622
0.247131,0.627224,1.891,2.00758
0.253269,0.627224,1.891,2.00834
0.259407,0.627224,1.891,2.00912
0.265545,0.627224,1.891,2.00993
0.271682,0.627224,1.891,2.01075
0.27782,0.627224,1.891,2.01159
0.283958,0.627224,1.891,2.01244
0.290095,0.627224,1.891,2.01332
0.297956,0.630873,1.902,2.02593
0.30413,0.630873,1.902,2.02684
0.311935,0.63419,1.912,2.03844
0.318141,0.63419,1.912,2.0394
0.324346,0.63419,1.912,2.04038
0.330552,0.63419,1.912,2.04137
0.336758,0.63419,1.912,2.04239
0.342964,0.63419,1.912,2.04342
0.351179,0.637838,1.923,2.05623
0.35742,0.637838,1.923,2.05731
0.363662,0.637838,1.923,2.0584
0.369903,0.637838,1.923,2.05951
0.378297,0.641487,1.934,2.07243
0.384574,0.641487,1.934,2.07359
0.390851,0.641487,1.934,2.07476
0.397129,0.641487,1.934,2.07595
0.4057,0.645135,1.945,2.08898
0.412013,0.645135,1.945,2.09021
0.41596,0.641487,1.934,2.07964
0.422238,0.641487,1.934,2.0809
0.428515,0.641487,1.934,2.08218
0.434792,0.641487,1.934,2.08348
0.438561,0.637838,1.923,2.07295
0.444802,0.637838,1.923,2.07427
0.451044,0.637838,1.923,2.07562
0.45467,0.63419,1.912,2.06511
0.460876,0.63419,1.912,2.06648
0.467082,0.63419,1.912,2.06787
0.470812,0.630873,1.902,2.05846
0.476986,0.630873,1.902,2.05988
0.483159,0.630873,1.902,2.06132
0.486502,0.627224,1.891,2.05085
0.49264,0.627224,1.891,2.05231
0.498778,0.627224,1.891,2.05379
0.504915,0.627224,1.891,2.05529
0.508351,0.623907,1.881,2.04593
0.514456,0.623907,1.881,2.04746
0.517794,0.62059,1.871,2.03811
0.523867,0.62059,1.871,2.03966
0.529939,0.62059,1.871,2.04123
0.529996,0.613625,1.85,2.01988
0.536001,0.613625,1.85,2.02147
0.542005,0.613625,1.85,2.02307
0.545344,0.61064,1.841,2.01484
0.548325,0.607323,1.831,2.00551
0.554268,0.607323,1.831,2.00714
0.560211,0.607323,1.831,2.00879
0.566154,0.607323,1.831,2.01046
0.572097,0.607323,1.831,2.01214
0.578039,0.607323,1.831,2.01384
0.583982,0.607323,1.831,2.01555
0.589925,0.607323,1.831,2.01728
0.595868,0.607323,1.831,2.01902
0.601811,0.607323,1.831,2.02079
0.607754,0.607323,1.831,2.02256
0.620066,0.613625,1.85,2.04536
0.62607,0.613625,1.85,2.04719
0.632075,0.613625,1.85,2.04904
0.638079,0.613625,1.85,2.0509
0.644084,0.613625,1.85,2.05277
0.653954,0.617274,1.861,2.06688
0.659994,0.617274,1.861,2.0688
0.666035,0.617274,1.861,2.07074
0.672075,0.617274,1.861,2.07269
0.674107,0.613625,1.85,2.06239
0.680112,0.613625,1.85,2.06436
0.686117,0.613625,1.85,2.06635
0.692121,0.613625,1.85,2.06835
0.698126,0.613625,1.85,2.07037
0.700705,0.61064,1.841,2.06232
0.702842,0.607323,1.831,2.05314
0.708785,0.607323,1.831,2.05518
0.714728,0.607323,1.831,2.05724
0.724607,0.61064,1.841,2.07056
0.730582,0.61064,1.841,2.07266
0.736558,0.61064,1.841,2.07477
0.742533,0.61064,1.841,2.0769
0.748508,0.61064,1.841,2.07904
0.754484,0.61064,1.841,2.0812
0.756329,0.607323,1.831,2.07206
0.762272,0.607323,1.831,2.07424
0.776186,0.613625,1.85,2.09798
0.782191,0.613625,1.85,2.1002
0.788195,0.613625,1.85,2.10245
0.7942,0.613625,1.85,2.10471
0.800205,0.613625,1.85,2.10698
0.811003,0.617274,1.861,2.12181
0.817043,0.617274,1.861,2.12413
0.823084,0.617274,1.861,2.12646
0.829124,0.617274,1.861,2.1288
0.835164,0.617274,1.861,2.13116
0.841205,0.617274,1.861,2.13354
0.847245,0.617274,1.861,2.13592
0.848242,0.613625,1.85,2.12569
0.854247,0.613625,1.85,2.12809
0.860251,0.613625,1.85,2.13051
0.866256,0.613625,1.85,2.13294
0.87226,0.613625,1.85,2.13539
0.878265,0.613625,1.85,2.13785
0.88427,0.613625,1.85,2.14032
0.890274,0.613625,1.85,2.14281
0.896279,0.613625,1.85,2.14531
0.902284,0.613625,1.85,2.14783
0.908288,0.613625,1.85,2.15035
0.914293,0.613625,1.85,2.1529
0.91582,0.61064,1.841,2.14497
0.921796,0.61064,1.841,2.14753
0.927771,0.61064,1.841,2.1501
0.933747,0.61064,1.841,2.15268
0.944316,0.613625,1.85,2.16582
0.950321,0.613625,1.85,2.16844
0.956325,0.613625,1.85,2.17108
0.968052,0.617274,1.861,2.18666
0.974092,0.617274,1.861,2.18934
0.980133,0.617274,1.861,2.19203
0.991472,0.62059,1.871,2.20653
0.997545,0.62059,1.871,2.20927
1.01435,0.627224,1.891,2.23566
1.02048,0.627224,1.891,2.23845
1.02662,0.627224,1.891,2.24126
1.03877,0.630873,1.902,2.25713
1.04494,0.630873,1.902,2.25998
1.05664,0.63419,1.912,2.27474
1.06285,0.63419,1.912,2.27763
1.06905,0.63419,1.912,2.28053
1.07526,0.63419,1.912,2.28344
1.08769,0.637838,1.923,2.29953
1.09393,0.637838,1.923,2.30249
1.10017,0.637838,1.923,2.30546
1.10641,0.637838,1.923,2.30844
1.11265,0.637838,1.923,2.31144
1.11889,0.637838,1.923,2.31445
1.12513,0.637838,1.923,2.31748
1.13138,0.637838,1.923,2.32051
1.13762,0.637838,1.923,2.32356
1.14386,0.637838,1.923,2.32662
1.1501,0.637838,1.923,2.3297
1.15634,0.637838,1.923,2.33279
1.16258,0.637838,1.923,2.33589
1.16883,0.637838,1.923,2.339
1.18179,0.641487,1.934,2.35552
1.18807,0.641487,1.934,2.35868
1.19434,0.641487,1.934,2.36185
1.20745,0.645135,1.945,2.37848
1.21376,0.645135,1.945,2.38169
1.22698,0.648784,1.956,2.3984
1.23332,0.648784,1.956,2.40165
1.23967,0.648784,1.956,2.40492
1.24602,0.648784,1.956,2.4082
1.25941,0.652433,1.967,2.42505
1.2658,0.652433,1.967,2.42837
1.27218,0.652433,1.967,2.43171
1.27857,0.652433,1.967,2.43505
1.28495,0.652433,1.967,2.43841
1.29134,0.652433,1.967,2.44178
1.29046,0.648784,1.956,2.43149
1.29681,0.648784,1.956,2.43487
1.30316,0.648784,1.956,2.43825
1.30951,0.648784,1.956,2.44165
1.31586,0.648784,1.956,2.44506
1.32221,0.648784,1.956,2.44849
1.32108,0.645135,1.945,2.43813
-1.649,0.796138,2.377,3.00053
-1.64129,0.796138,2.377,2.9963
-1.63357,0.796138,2.377,2.99208
-1.62586,0.796138,2.377,2.98787
-1.61814,0.796138,2.377,2.98368
-1.61043,0.796138,2.377,2.9795
-1.58114,0.78542,2.345,2.93529
-1.57352,0.78542,2.345,2.93119
-1.56591,0.78542,2.345,2.92711
-1.54767,0.780061,2.329,2.9031
-1.54011,0.780061,2.329,2.89908
-1.51215,0.769678,2.298,2.85654
-1.50469,0.769678,2.298,2.8526
-1.49723,0.769678,2.298,2.84867
-1.46968,0.759295,2.267,2.80638
-1.46232,0.759295,2.267,2.80253
-1.44534,0.754271,2.252,2.78018
-1.43803,0.754271,2.252,2.77639
-1.42119,0.749247,2.237,2.75414
-1.40508,0.744558,2.223,2.73319
-1.39786,0.744558,2.223,2.72949
-1.39065,0.744558,2.223,2.7258
-1.38343,0.744558,2.223,2.72213
-1.37622,0.744558,2.223,2.71847
-1.36038,0.739869,2.209,2.69772
-1.34402,0.734845,2.194,2.67582
-1.3369,0.734845,2.194,2.67225
-1.32978,0.734845,2.194,2.6687
-1.32266,0.734845,2.194,2.66516
-1.31554,0.734845,2.194,2.66163
-1.30841,0.734845,2.194,2.65812
-1.30129,0.734845,2.194,2.65462
-1.29417,0.734845,2.194,2.65113
-1.28705,0.734845,2.194,2.64767
-1.27176,0.730156,2.18,2.62734
-1.26469,0.730156,2.18,2.62392
-1.25761,0.730156,2.18,2.62052
-1.24308,0.725802,2.167,2.60152
-1.22806,0.721113,2.153,2.58138
-1.22107,0.721113,2.153,2.57807
-1.20675,0.716759,2.14,2.55922
-1.19196,0.71207,2.126,2.53923
-1.18506,0.71207,2.126,2.536
-1.17816,0.71207,2.126,2.53278
-1.17126,0.71207,2.126,2.52958
-1.16435,0.71207,2.126,2.52639
-1.15745,0.71207,2.126,2.52322
-1.15055,0.71207,2.126,2.52006
-1.14365,0.71207,2.126,2.51692
-1.13675,0.71207,2.126,2.51379
-1.12985,0.71207,2.126,2.51067
-1.12295,0.71207,2.126,2.50758
-1.11605,0.71207,2.126,2.50449
-1.11645,0.716759,2.14,2.5179
-1.10951,0.716759,2.14,2.51483
-1.10256,0.716759,2.14,2.51177
-1.09562,0.716759,2.14,2.50873
-1.08155,0.71207,2.126,2.48931
-1.07465,0.71207,2.126,2.48632
-1.06775,0.71207,2.126,2.48335
-1.05436,0.707716,2.113,2.46522
-1.0475,0.707716,2.113,2.46229
-1.04064,0.707716,2.113,2.45938
-1.03379,0.707716,2.113,2.45649
-1.02061,0.703361,2.1,2.43852
-1.01379,0.703361,2.1,2.43567
-1.00698,0.703361,2.1,2.43284
-0.99397,0.699007,2.087,2.41499
-0.98152,0.694988,2.075,2.39834
-0.974785,0.694988,2.075,2.39559
-0.96805,0.694988,2.075,2.39285
-0.949733,0.686615,2.05,2.36134
-0.943079,0.686615,2.05,2.35867
-0.930944,0.682596,2.038,2.34223
-0.918886,0.678576,2.026,2.32583
-0.912311,0.678576,2.026,2.32324
-0.905735,0.678576,2.026,2.32067
-0.893833,0.674557,2.014,2.30438
-0.882009,0.670538,2.002,2.28814
-0.875511,0.670538,2.002,2.28564
-0.869013,0.670538,2.002,2.28316
-0.857345,0.666519,1.99,2.26702
-0.850886,0.666519,1.99,2.26459
-0.844427,0.666519,1.99,2.26217
-0.837968,0.666519,1.99,2.25977
-0.831509,0.666519,1.99,2.25738
-0.82505,0.666519,1.99,2.25501
-0.818591,0.666519,1.99,2.25265
-0.812132,0.666519,1.99,2.25031
-0.805673,0.666519,1.99,2.24799
-0.799214,0.666519,1.99,2.24568
-0.792755,0.666519,1.99,2.24339
-0.786296,0.666519,1.99,2.24112
-0.779837,0.666519,1.99,2.23886
-0.773378,0.666519,1.99,2.23662
-0.771543,0.670538,2.002,2.24787
-0.765045,0.670538,2.002,2.24564
-0.758547,0.670538,2.002,2.24344
-0.752049,0.670538,2.002,2.24125
-0.745551,0.670538,2.002,2.23908
-0.743483,0.674557,2.014,2.25033
-0.736946,0.674557,2.014,2.24818
-0.730409,0.674557,2.014,2.24605
-0.723872,0.674557,2.014,2.24393
-0.717336,0.674557,2.014,2.24183
-0.715034,0.678576,2.026,2.25309
-0.708458,0.678576,2.026,2.25101
-0.701882,0.678576,2.026,2.24895
-0.695306,0.678576,2.026,2.24691
-0.684651,0.674557,2.014,2.23158
-0.678114,0.674557,2.014,2.22959
-0.671577,0.674557,2.014,2.22761
-0.66504,0.674557,2.014,2.22565
-0.658503,0.674557,2.014,2.2237
-0.648081,0.670538,2.002,2.20854
-0.641584,0.670538,2.002,2.20664
-0.635085,0.670538,2.002,2.20476
-0.62482,0.666519,1.99,2.18969
-0.618361,0.666519,1.99,2.18786
-0.608519,0.662834,1.979,2.17396
-0.602096,0.662834,1.979,2.17217
-0.595673,0.662834,1.979,2.1704
-0.589249,0.662834,1.979,2.16864
-0.5896,0.670538,2.002,2.19209
-0.579606,0.666519,1.99,2.17722
-0.573147,0.666519,1.99,2.17551
-0.566688,0.666519,1.99,2.17382
-0.557133,0.662834,1.979,2.16014
-0.550709,0.662834,1.979,2.15849
-0.544286,0.662834,1.979,2.15686
-0.534601,0.658815,1.967,2.14218
-0.528217,0.658815,1.967,2.14059
-0.518914,0.655131,1.956,2.12706
-0.512565,0.655131,1.956,2.12552
-0.506217,0.655131,1.956,2.124
-0.499868,0.655131,1.956,2.1225
-0.490744,0.651447,1.945,2.10908
-0.484431,0.651447,1.945,2.10762
-0.480822,0.655131,1.956,2.11809
-0.474473,0.655131,1.956,2.11666
-0.468125,0.655131,1.956,2.11525
-0.461776,0.655131,1.956,2.11385
-0.455427,0.655131,1.956,2.11247
-0.449079,0.655131,1.956,2.11111
-0.44273,0.655131,1.956,2.10977
-0.436381,0.655131,1.956,2.10845
-0.430032,0.655131,1.956,2.10715
-0.423684,0.655131,1.956,2.10586
-0.417335,0.655131,1.956,2.10459
-0.408675,0.651447,1.945,2.09151
-0.402362,0.651447,1.945,2.09029
-0.396049,0.651447,1.945,2.08908
-0.389736,0.651447,1.945,2.08789
-0.381255,0.647762,1.934,2.07492
-0.374977,0.647762,1.934,2.07378
-0.3687,0.647762,1.934,2.07265
-0.362423,0.647762,1.934,2.07155
-0.356146,0.647762,1.934,2.07046
-0.349868,0.647762,1.934,2.06939
-0.341637,0.644078,1.923,2.05657
-0.335395,0.644078,1.923,2.05554
-0.329154,0.644078,1.923,2.05453
-0.322912,0.644078,1.923,2.05354
-0.31667,0.644078,1.923,2.05257
-0.310429,0.644078,1.923,2.05162
-0.304187,0.644078,1.923,2.05068
-0.297946,0.644078,1.923,2.04977
-0.291704,0.644078,1.923,2.04887
-0.285462,0.644078,1.923,2.04799
-0.279221,0.644078,1.923,2.04713
-0.272979,0.644078,1.923,2.04629
-0.266738,0.644078,1.923,2.04546
-0.259006,0.640394,1.912,2.03296
-0.2528,0.640394,1.912,2.03218
-0.246594,0.640394,1.912,2.03142
-0.240388,0.640394,1.912,2.03067
-0.234183,0.640394,1.912,2.02995
-0.227977,0.640394,1.912,2.02924
-0.220611,0.637044,1.902,2.01794
-0.214438,0.637044,1.902,2.01728
-0.208264,0.637044,1.902,2.01663
-0.202091,0.637044,1.902,2.016
-0.194784,0.63336,1.891,2.00374
-0.188646,0.63336,1.891,2.00315
-0.181544,0.630011,1.881,1.99199
-0.175438,0.630011,1.881,1.99145
-0.168433,0.626662,1.871,1.98033
-0.16236,0.626662,1.871,1.97982
-0.156287,0.626662,1.871,1.97934
-0.150214,0.626662,1.871,1.97887
-0.144142,0.626662,1.871,1.97841
-0.137331,0.623312,1.861,1.96741
-0.131291,0.623312,1.861,1.967
-0.12525,0.623312,1.861,1.9666
-0.11921,0.623312,1.861,1.96623
-0.11317,0.623312,1.861,1.96587
-0.107129,0.623312,1.861,1.96553
-0.101089,0.623312,1.861,1.96521
-0.0955592,0.626662,1.871,1.97547
-0.0894864,0.626662,1.871,1.97518
-0.0834136,0.626662,1.871,1.97492
-0.0773408,0.626662,1.871,1.97467
-0.071268,0.626662,1.871,1.97444
-0.0651952,0.626662,1.871,1.97423
-0.0588064,0.623312,1.861,1.96349
-0.0527661,0.623312,1.861,1.96332
-0.0467257,0.623312,1.861,1.96317
-0.0406854,0.623312,1.861,1.96303
-0.0346451,0.623312,1.861,1.96292
-0.0286047,0.623312,1.861,1.96282
-0.0225644,0.623312,1.861,1.96274
-0.0166128,0.626662,1.871,1.97323
-0.01054,0.626662,1.871,1.97318
-0.00446722,0.626662,1.871,1.97316
0.00160558,0.626662,1.871,1.97316
0.00771942,0.630011,1.881,1.98372
0.0138247,0.630011,1.881,1.98375
0.0199299,0.630011,1.881,1.9838
0.0260352,0.630011,1.881,1.98387
0.0321405,0.630011,1.881,1.98396
0.0382457,0.630011,1.881,1.98407
0.0445868,0.63336,1.891,1.99475
0.0507245,0.63336,1.891,1.99489
0.0568622,0.63336,1.891,1.99506
0.0629999,0.63336,1.891,1.99524
0.0691376,0.63336,1.891,1.99545
0.0757132,0.637044,1.902,2.00728
0.0818866,0.637044,1.902,2.00752
0.0880601,0.637044,1.902,2.00778
0.0942335,0.637044,1.902,2.00806
0.100407,0.637044,1.902,2.00836
0.105964,0.63336,1.891,1.99706
0.112102,0.63336,1.891,1.9974
0.118239,0.63336,1.891,1.99775
0.123719,0.630011,1.881,1.98756
0.129825,0.630011,1.881,1.98795
0.13593,0.630011,1.881,1.98835
0.142035,0.630011,1.881,1.98878
0.14814,0.630011,1.881,1.98923
0.154246,0.630011,1.881,1.98969
0.159498,0.626662,1.871,1.97959
0.165571,0.626662,1.871,1.98009
0.171644,0.626662,1.871,1.98061
0.177717,0.626662,1.871,1.98114
0.18379,0.626662,1.871,1.9817
0.189862,0.626662,1.871,1.98227
0.195935,0.626662,1.871,1.98286
0.200928,0.623312,1.861,1.97287
0.206969,0.623312,1.861,1.97349
0.213009,0.623312,1.861,1.97414
0.219049,0.623312,1.861,1.9748
0.22509,0.623312,1.861,1.97548
0.23113,0.623312,1.861,1.97617
0.23717,0.623312,1.861,1.97689
0.243211,0.623312,1.861,1.97762
0.249251,0.623312,1.861,1.97837
0.255291,0.623312,1.861,1.97914
0.262736,0.626662,1.871,1.99057
0.268809,0.626662,1.871,1.99138
0.274882,0.626662,1.871,1.99221
0.282456,0.630011,1.881,2.00371
0.288561,0.630011,1.881,2.00458
0.294667,0.630011,1.881,2.00547
0.300772,0.630011,1.881,2.00637
0.308509,0.63336,1.891,2.01797
0.316477,0.637044,1.902,2.03066
0.32265,0.637044,1.902,2.03163
0.328823,0.637044,1.902,2.03262
0.334997,0.637044,1.902,2.03363
0.34117,0.637044,1.902,2.03466
0.347344,0.637044,1.902,2.0357
0.355376,0.640394,1.912,2.04747
0.361582,0.640394,1.912,2.04856
0.367788,0.640394,1.912,2.04966
0.376145,0.644078,1.923,2.06258
0.382387,0.644078,1.923,2.06373
0.388628,0.644078,1.923,2.0649
0.39487,0.644078,1.923,2.06608
0.401111,0.644078,1.923,2.06728
0.407353,0.644078,1.923,2.0685
0.413595,0.644078,1.923,2.06974
0.419836,0.644078,1.923,2.071
0.426078,0.644078,1.923,2.07227
0.432319,0.644078,1.923,2.07356
0.438561,0.644078,1.923,2.07487
0.444802,0.644078,1.923,2.0762
0.451044,0.644078,1.923,2.07755
0.45467,0.640394,1.912,2.06702
0.460876,0.640394,1.912,2.06839
0.467082,0.640394,1.912,2.06979
0.470812,0.637044,1.902,2.06036
0.476986,0.637044,1.902,2.06178
0.483159,0.637044,1.902,2.06322
0.486502,0.63336,1.891,2.05273
0.49264,0.63336,1.891,2.0542
0.498778,0.63336,1.891,2.05568
0.504915,0.63336,1.891,2.05717
0.508351,0.630011,1.881,2.0478
0.514456,0.630011,1.881,2.04933
0.517794,0.626662,1.871,2.03996
0.523867,0.626662,1.871,2.04151
0.529939,0.626662,1.871,2.04308
0.529996,0.619628,1.85,2.02172
0.536001,0.619628,1.85,2.0233
0.542005,0.619628,1.85,2.0249
0.545344,0.616614,1.841,2.01665
0.548325,0.613264,1.831,2.00732
0.554268,0.613264,1.831,2.00895
0.560211,0.613264,1.831,2.01059
0.566154,0.613264,1.831,2.01226
0.572097,0.613264,1.831,2.01394
0.578039,0.613264,1.831,2.01563
0.583982,0.613264,1.831,2.01735
0.589925,0.613264,1.831,2.01908
0.595868,0.613264,1.831,2.02082
0.601811,0.613264,1.831,2.02258
0.607754,0.613264,1.831,2.02436
0.620066,0.619628,1.85,2.04717
0.62607,0.619628,1.85,2.049
0.632075,0.619628,1.85,2.05084
0.638079,0.619628,1.85,2.0527
0.644084,0.619628,1.85,2.05458
0.653954,0.623312,1.861,2.06869
0.659994,0.623312,1.861,2.07061
0.666035,0.623312,1.861,2.07254
0.672075,0.623312,1.861,2.07449
0.674107,0.619628,1.85,2.06419
0.680112,0.619628,1.85,2.06615
0.686117,0.619628,1.85,2.06814
0.692121,0.619628,1.85,2.07014
0.698126,0.619628,1.85,2.07215
0.700705,0.616614,1.841,2.06409
0.702842,0.613264,1.831,2.05491
0.708785,0.613264,1.831,2.05695
0.714728,0.613264,1.831,2.059
0.716735,0.609915,1.821,2.04982
0.722645,0.609915,1.821,2.05189
0.728556,0.609915,1.821,2.05398
0.734466,0.609915,1.821,2.05608
0.740377,0.609915,1.821,2.0582
0.746287,0.609915,1.821,2.06034
0.748067,0.606566,1.811,2.05116
0.753945,0.606566,1.811,2.05331
0.764019,0.609915,1.821,2.06682
0.769929,0.609915,1.821,2.06902
0.77584,0.609915,1.821,2.07122
0.781751,0.609915,1.821,2.07344
0.787661,0.609915,1.821,2.07568
0.797929,0.613264,1.831,2.08934
0.803872,0.613264,1.831,2.09162
0.809815,0.613264,1.831,2.09391
0.820214,0.616614,1.841,2.10766
0.826189,0.616614,1.841,2.11
0.832164,0.616614,1.841,2.11234
0.833587,0.613264,1.831,2.10322
0.83953,0.613264,1.831,2.10558
0.845473,0.613264,1.831,2.10796
0.851416,0.613264,1.831,2.11035
0.857359,0.613264,1.831,2.11275
0.863302,0.613264,1.831,2.11517
0.869245,0.613264,1.831,2.1176
0.875188,0.613264,1.831,2.12005
0.881131,0.613264,1.831,2.12251
0.887074,0.613264,1.831,2.12498
0.893017,0.613264,1.831,2.12747
0.89896,0.613264,1.831,2.12997
0.904903,0.613264,1.831,2.13249
0.910846,0.613264,1.831,2.13502
0.916789,0.613264,1.831,2.13756
0.922732,0.613264,1.831,2.14011
0.928675,0.613264,1.831,2.14268
0.939722,0.616614,1.841,2.15698
0.945698,0.616614,1.841,2.15959
0.951673,0.616614,1.841,2.16222
0.957649,0.616614,1.841,2.16485
0.968335,0.619628,1.85,2.1781
0.974339,0.619628,1.85,2.18077
0.980344,0.619628,1.85,2.18346
0.992213,0.623312,1.861,2.19916
1.00362,0.626662,1.871,2.21373
1.00969,0.626662,1.871,2.21649
1.02119,0.630011,1.881,2.23112
1.0273,0.630011,1.881,2.23392
1.0334,0.630011,1.881,2.23674
1.04503,0.63336,1.891,2.25147
1.05117,0.63336,1.891,2.25433
1.05731,0.63336,1.891,2.2572
1.06345,0.63336,1.891,2.26008
1.06959,0.63336,1.891,2.26297
1.08198,0.637044,1.902,2.27906
1.08815,0.637044,1.902,2.282
1.09433,0.637044,1.902,2.28495
1.10629,0.640394,1.912,2.29994
1.10667,0.637044,1.902,2.29089
1.11285,0.637044,1.902,2.29387
1.1249,0.640394,1.912,2.30895
1.13111,0.640394,1.912,2.31198
1.13732,0.640394,1.912,2.31502
1.14352,0.640394,1.912,2.31808
1.14973,0.640394,1.912,2.32115
1.16258,0.644078,1.923,2.3376
1.16883,0.644078,1.923,2.34071
1.18179,0.647762,1.934,2.35724
1.18807,0.647762,1.934,2.36039
1.19434,0.647762,1.934,2.36356
1.20062,0.647762,1.934,2.36674
1.2069,0.647762,1.934,2.36993
1.22008,0.651447,1.945,2.38663
1.23332,0.655131,1.956,2.40338
1.23967,0.655131,1.956,2.40664
1.24602,0.655131,1.956,2.40992
1.25237,0.655131,1.956,2.41321
1.25872,0.655131,1.956,2.41651
1.25795,0.651447,1.945,2.40621
1.26427,0.651447,1.945,2.40952
1.27058,0.651447,1.945,2.41284
1.27689,0.651447,1.945,2.41617
1.28321,0.651447,1.945,2.41951
1.28952,0.651447,1.945,2.42286
1.2885,0.647762,1.934,2.41251
1.29478,0.647762,1.934,2.41587
1.30106,0.647762,1.934,2.41924
1.30733,0.647762,1.934,2.42262
1.30614,0.644078,1.923,2.41221
-1.6268,0.793029,2.345,2.96216
-1.60814,0.787619,2.329,2.93781
-1.60058,0.787619,2.329,2.93368
-1.59303,0.787619,2.329,2.92956
-1.58547,0.787619,2.329,2.92545
-1.56707,0.782208,2.313,2.9013
-1.55956,0.782208,2.313,2.89725
-1.55205,0.782208,2.313,2.89321
-1.53453,0.777135,2.298,2.87046
-1.50647,0.766651,2.267,2.82781
-1.49911,0.766651,2.267,2.82389
-1.48188,0.761579,2.252,2.80134
-1.46475,0.756506,2.237,2.77884
-1.45749,0.756506,2.237,2.77502
-1.44115,0.751772,2.223,2.75387
-1.42491,0.747037,2.209,2.73278
-1.41774,0.747037,2.209,2.72905
-1.40099,0.741964,2.194,2.70683
-1.38497,0.73723,2.18,2.6859
-1.36968,0.732834,2.167,2.66626
-1.36265,0.732834,2.167,2.66266
-1.34686,0.728099,2.153,2.64189
-1.33987,0.728099,2.153,2.63833
-1.33288,0.728099,2.153,2.63479
-1.32589,0.728099,2.153,2.63126
-1.3189,0.728099,2.153,2.62775
-1.31192,0.728099,2.153,2.62424
-1.30493,0.728099,2.153,2.62076
-1.29794,0.728099,2.153,2.61729
-1.29095,0.728099,2.153,2.61383
-1.28396,0.728099,2.153,2.61038
-1.27698,0.728099,2.153,2.60695
-1.26999,0.728099,2.153,2.60354
-1.263,0.728099,2.153,2.60014
-1.24843,0.723703,2.14,2.58107
-1.24148,0.723703,2.14,2.57772
-1.24203,0.728099,2.153,2.59002
-1.21956,0.718968,2.126,2.55423
-1.20524,0.714572,2.113,2.53535
-1.19838,0.714572,2.113,2.5321
-1.19153,0.714572,2.113,2.52886
-1.17009,0.705779,2.087,2.49456
-1.15663,0.701721,2.075,2.47706
-1.14989,0.701721,2.075,2.47392
-1.14316,0.701721,2.075,2.4708
-1.13642,0.701721,2.075,2.46769
-1.13622,0.705779,2.087,2.47885
-1.12945,0.705779,2.087,2.47575
-1.12267,0.705779,2.087,2.47267
-1.1159,0.705779,2.087,2.4696
-1.10913,0.705779,2.087,2.46655
-1.10235,0.705779,2.087,2.46351
-1.09558,0.705779,2.087,2.46048
-1.0888,0.705779,2.087,2.45748
-1.08203,0.705779,2.087,2.45448
-1.08195,0.710176,2.1,2.46677
-1.07514,0.710176,2.1,2.46379
-1.06171,0.705779,2.087,2.44559
-1.05493,0.705779,2.087,2.44266
-1.04816,0.705779,2.087,2.43974
-1.04139,0.705779,2.087,2.43684
-1.02866,0.701721,2.075,2.41996
-1.02193,0.701721,2.075,2.4171
-1.01519,0.701721,2.075,2.41426
-1.00846,0.701721,2.075,2.41144
-0.995449,0.697325,2.062,2.39354
-0.988756,0.697325,2.062,2.39076
-0.976348,0.693267,2.05,2.3741
-0.969694,0.693267,2.05,2.37138
-0.96304,0.693267,2.05,2.36866
-0.950788,0.689209,2.038,2.35212
-0.944174,0.689209,2.038,2.34945
-0.943079,0.693267,2.05,2.36062
-0.930944,0.689209,2.038,2.34416
-0.918886,0.68515,2.026,2.32776
-0.912311,0.68515,2.026,2.32517
-0.905735,0.68515,2.026,2.3226
-0.893833,0.681092,2.014,2.3063
-0.882009,0.677034,2.002,2.29005
-0.875511,0.677034,2.002,2.28755
-0.869013,0.677034,2.002,2.28507
-0.857345,0.672976,1.99,2.26893
-0.850886,0.672976,1.99,2.2665
-0.844427,0.672976,1.99,2.26408
-0.837968,0.672976,1.99,2.26168
-0.831509,0.672976,1.99,2.25929
-0.82505,0.672976,1.99,2.25692
-0.818591,0.672976,1.99,2.25457
-0.812132,0.672976,1.99,2.25223
-0.805673,0.672976,1.99,2.24991
-0.799214,0.672976,1.99,2.24761
-0.792755,0.672976,1.99,2.24532
-0.786296,0.672976,1.99,2.24305
-0.779837,0.672976,1.99,2.24079
-0.773378,0.672976,1.99,2.23855
-0.771543,0.677034,2.002,2.24981
-0.765045,0.677034,2.002,2.24759
-0.758547,0.677034,2.002,2.24539
-0.752049,0.677034,2.002,2.2432
-0.745551,0.677034,2.002,2.24103
-0.743483,0.681092,2.014,2.2523
-0.736946,0.681092,2.014,2.25015
-0.730409,0.681092,2.014,2.24802
-0.723872,0.681092,2.014,2.2459
-0.717336,0.681092,2.014,2.2438
-0.715034,0.68515,2.026,2.25508
-0.708458,0.68515,2.026,2.253
-0.701882,0.68515,2.026,2.25094
-0.695306,0.68515,2.026,2.2489
-0.684651,0.681092,2.014,2.23357
-0.678114,0.681092,2.014,2.23157
-0.671577,0.681092,2.014,2.2296
-0.66504,0.681092,2.014,2.22764
-0.658503,0.681092,2.014,2.22569
-0.648081,0.677034,2.002,2.21052
-0.641584,0.677034,2.002,2.20862
-0.635085,0.677034,2.002,2.20674
-0.62482,0.672976,1.99,2.19167
-0.618361,0.672976,1.99,2.18983
-0.608519,0.669256,1.979,2.17592
-0.602096,0.669256,1.979,2.17414
-0.595673,0.669256,1.979,2.17237
-0.585676,0.665198,1.967,2.15745
-0.576052,0.661478,1.956,2.14367
-0.569704,0.661478,1.956,2.14197
-0.563355,0.661478,1.956,2.14029
-0.553874,0.657758,1.945,2.1266
-0.544464,0.654038,1.934,2.11295
-0.538187,0.654038,1.934,2.11134
-0.531909,0.654038,1.934,2.10975
-0.522643,0.650318,1.923,2.09619
-0.516401,0.650318,1.923,2.09464
-0.510159,0.650318,1.923,2.09311
-0.503918,0.650318,1.923,2.0916
-0.497676,0.650318,1.923,2.0901
-0.491435,0.650318,1.923,2.08862
-0.485193,0.650318,1.923,2.08716
-0.478951,0.650318,1.923,2.08572
-0.47271,0.650318,1.923,2.0843
-0.4638,0.646598,1.912,2.07098
-0.457594,0.646598,1.912,2.0696
-0.453985,0.650318,1.923,2.08013
-0.447744,0.650318,1.923,2.07878
-0.441502,0.650318,1.923,2.07744
-0.43526,0.650318,1.923,2.07612
-0.429019,0.650318,1.923,2.07483
-0.422777,0.650318,1.923,2.07354
-0.416536,0.650318,1.923,2.07228
-0.410294,0.650318,1.923,2.07103
-0.404053,0.650318,1.923,2.06981
-0.395535,0.646598,1.912,2.05676
-0.389329,0.646598,1.912,2.05558
-0.383124,0.646598,1.912,2.05441
-0.376918,0.646598,1.912,2.05327
-0.370712,0.646598,1.912,2.05214
-0.364506,0.646598,1.912,2.05102
-0.356426,0.643216,1.902,2.03921
-0.350253,0.643216,1.902,2.03814
-0.344079,0.643216,1.902,2.03709
-0.337906,0.643216,1.902,2.03605
-0.331732,0.643216,1.902,2.03504
-0.325559,0.643216,1.902,2.03404
-0.319386,0.643216,1.902,2.03306
-0.313212,0.643216,1.902,2.0321
-0.307039,0.643216,1.902,2.03116
-0.299125,0.639496,1.891,2.01849
-0.292988,0.639496,1.891,2.01759
-0.28685,0.639496,1.891,2.01671
-0.280712,0.639496,1.891,2.01585
-0.274574,0.639496,1.891,2.015
-0.268437,0.639496,1.891,2.01417
-0.262299,0.639496,1.891,2.01336
-0.256161,0.639496,1.891,2.01257
-0.250024,0.639496,1.891,2.0118
-0.243886,0.639496,1.891,2.01105
-0.237748,0.639496,1.891,2.01031
-0.230386,0.636114,1.881,1.99897
-0.22428,0.636114,1.881,1.99828
-0.218175,0.636114,1.881,1.9976
-0.21207,0.636114,1.881,1.99694
-0.205965,0.636114,1.881,1.9963
-0.198797,0.632733,1.871,1.98507
-0.192724,0.632733,1.871,1.98447
-0.186651,0.632733,1.871,1.98389
-0.179613,0.629351,1.861,1.97273
-0.173573,0.629351,1.861,1.97219
-0.166542,0.625631,1.85,1.96001
-0.160538,0.625631,1.85,1.95951
-0.154533,0.625631,1.85,1.95903
-0.148528,0.625631,1.85,1.95856
-0.142524,0.625631,1.85,1.95812
-0.135855,0.622587,1.841,1.94817
-0.12988,0.622587,1.841,1.94776
-0.123904,0.622587,1.841,1.94737
-0.117929,0.622587,1.841,1.947
-0.111953,0.622587,1.841,1.94665
-0.106496,0.625631,1.85,1.95583
-0.100491,0.625631,1.85,1.95551
-0.0944867,0.625631,1.85,1.95521
-0.0884821,0.625631,1.85,1.95493
-0.0824774,0.625631,1.85,1.95467
-0.0764728,0.625631,1.85,1.95442
-0.0704681,0.625631,1.85,1.9542
-0.0644635,0.625631,1.85,1.95399
-0.0584588,0.625631,1.85,1.9538
-0.052199,0.622587,1.841,1.94412
-0.0462236,0.622587,1.841,1.94397
-0.0402482,0.622587,1.841,1.94384
-0.0342727,0.622587,1.841,1.94373
-0.0282973,0.622587,1.841,1.94363
-0.0223219,0.622587,1.841,1.94355
-0.0163464,0.622587,1.841,1.94349
-0.0104217,0.625631,1.85,1.95295
-0.00441708,0.625631,1.85,1.95293
0.00158756,0.625631,1.85,1.95293
0.0075922,0.625631,1.85,1.95294
0.0136777,0.629351,1.861,1.96458
0.019718,0.629351,1.861,1.96464
0.0257584,0.629351,1.861,1.96471
0.0319696,0.632733,1.871,1.97535
0.0380424,0.632733,1.871,1.97546
0.0441152,0.632733,1.871,1.97559
0.050188,0.632733,1.871,1.97573
0.0562608,0.632733,1.871,1.97589
0.0623336,0.632733,1.871,1.97608
0.068772,0.636114,1.881,1.98684
0.0748773,0.636114,1.881,1.98706
0.0809825,0.636114,1.881,1.9873
0.0870878,0.636114,1.881,1.98756
0.093193,0.636114,1.881,1.98783
0.0992983,0.636114,1.881,1.98813
0.105404,0.636114,1.881,1.98844
0.111509,0.636114,1.881,1.98878
0.116989,0.632733,1.871,1.97855
0.123062,0.632733,1.871,1.97892
0.129825,0.636114,1.881,1.98989
0.13593,0.636114,1.881,1.9903
0.142035,0.636114,1.881,1.99072
0.14814,0.636114,1.881,1.99117
0.154246,0.636114,1.881,1.99163
0.159498,0.632733,1.871,1.98152
0.165571,0.632733,1.871,1.98202
0.171644,0.632733,1.871,1.98254
0.177717,0.632733,1.871,1.98307
0.18379,0.632733,1.871,1.98363
0.189862,0.632733,1.871,1.9842
0.195935,0.632733,1.871,1.98479
0.200928,0.629351,1.861,1.97479
0.206969,0.629351,1.861,1.97541
0.213009,0.629351,1.861,1.97605
0.219049,0.629351,1.861,1.97671
0.22509,0.629351,1.861,1.97739
0.23113,0.629351,1.861,1.97809
0.23717,0.629351,1.861,1.9788
0.243211,0.629351,1.861,1.97953
0.249251,0.629351,1.861,1.98029
0.255291,0.629351,1.861,1.98105
0.262736,0.632733,1.871,1.99249
0.268809,0.632733,1.871,1.9933
0.274882,0.632733,1.871,1.99413
0.282456,0.636114,1.881,2.00564
0.288561,0.636114,1.881,2.00651
0.294667,0.636114,1.881,2.00739
0.300772,0.636114,1.881,2.0083
0.308509,0.639496,1.891,2.0199
0.316477,0.643216,1.902,2.03261
0.32265,0.643216,1.902,2.03358
0.328823,0.643216,1.902,2.03457
0.334997,0.643216,1.902,2.03557
0.34117,0.643216,1.902,2.0366
0.347344,0.643216,1.902,2.03764
0.355376,0.646598,1.912,2.04942
0.361582,0.646598,1.912,2.05051
0.367788,0.646598,1.912,2.05161
0.376145,0.650318,1.923,2.06454
0.382387,0.650318,1.923,2.06569
0.388628,0.650318,1.923,2.06685
0.39487,0.650318,1.923,2.06803
0.401111,0.650318,1.923,2.06923
0.407353,0.650318,1.923,2.07045
0.413595,0.650318,1.923,2.07169
0.419836,0.650318,1.923,2.07295
0.426078,0.650318,1.923,2.07422
0.432319,0.650318,1.923,2.07551
0.438561,0.650318,1.923,2.07682
0.444802,0.650318,1.923,2.07815
0.448464,0.646598,1.912,2.0676
0.45467,0.646598,1.912,2.06895
0.460876,0.646598,1.912,2.07032
0.464639,0.643216,1.902,2.06088
0.468089,0.639496,1.891,2.05035
0.474227,0.639496,1.891,2.05176
0.480365,0.639496,1.891,2.05319
0.486502,0.639496,1.891,2.05463
0.49264,0.639496,1.891,2.0561
0.49614,0.636114,1.881,2.04669
0.499575,0.632733,1.871,2.03729
0.505648,0.632733,1.871,2.03879
0.511721,0.632733,1.871,2.04031
0.515026,0.629351,1.861,2.03092
0.517987,0.625631,1.85,2.02045
0.523991,0.625631,1.85,2.022
0.527418,0.622587,1.841,2.01372
0.530496,0.619205,1.831,2.00435
0.536439,0.619205,1.831,2.00593
0.539419,0.615824,1.821,1.99656
0.542335,0.612442,1.811,1.98719
0.548213,0.612442,1.811,1.9888
0.554091,0.612442,1.811,1.99043
0.559969,0.612442,1.811,1.99208
0.565848,0.612442,1.811,1.99374
0.571726,0.612442,1.811,1.99541
0.577604,0.612442,1.811,1.99711
0.583482,0.612442,1.811,1.99881
0.592614,0.615824,1.821,2.01158
0.598525,0.615824,1.821,2.01333
0.604435,0.615824,1.821,2.0151
0.613697,0.619205,1.831,2.02796
0.61964,0.619205,1.831,2.02976
0.625583,0.619205,1.831,2.03158
0.634975,0.622587,1.841,2.04453
0.640951,0.622587,1.841,2.04639
0.646926,0.622587,1.841,2.04827
0.652902,0.622587,1.841,2.05016
0.658877,0.622587,1.841,2.05208
0.664852,0.622587,1.841,2.054
0.670828,0.622587,1.841,2.05594
0.676803,0.622587,1.841,2.0579
0.682779,0.622587,1.841,2.05987
0.688754,0.622587,1.841,2.06186
0.69473,0.622587,1.841,2.06387
0.693093,0.615824,1.821,2.04344
0.699003,0.615824,1.821,2.04545
0.704914,0.615824,1.821,2.04748
0.710824,0.615824,1.821,2.04952
0.712799,0.612442,1.811,2.04032
0.718677,0.612442,1.811,2.04238
0.724555,0.612442,1.811,2.04445
0.730433,0.612442,1.811,2.04654
0.732652,0.609398,1.802,2.03847
0.738501,0.609398,1.802,2.04058
0.740219,0.606017,1.792,2.03137
0.746035,0.606017,1.792,2.03349
0.756047,0.609398,1.802,2.04699
0.761896,0.609398,1.802,2.04916
0.767745,0.609398,1.802,2.05134
0.773594,0.609398,1.802,2.05354
0.779443,0.609398,1.802,2.05575
0.789214,0.612442,1.811,2.06825
0.795092,0.612442,1.811,2.0705
0.80097,0.612442,1.811,2.07277
0.806848,0.612442,1.811,2.07504
0.812726,0.612442,1.811,2.07734
0.818604,0.612442,1.811,2.07964
0.824482,0.612442,1.811,2.08196
0.826233,0.609398,1.802,2.07394
0.832082,0.609398,1.802,2.07628
0.837931,0.609398,1.802,2.07863
0.84378,0.609398,1.802,2.08099
0.853872,0.612442,1.811,2.09378
0.85975,0.612442,1.811,2.09618
0.865628,0.612442,1.811,2.0986
0.871506,0.612442,1.811,2.10103
0.877384,0.612442,1.811,2.10348
0.883263,0.612442,1.811,2.10593
0.889141,0.612442,1.811,2.10841
0.899961,0.615824,1.821,2.12255
0.905871,0.615824,1.821,2.12506
0.911782,0.615824,1.821,2.12759
0.917692,0.615824,1.821,2.13013
0.923603,0.615824,1.821,2.13268
0.934618,0.619205,1.831,2.14697
0.940561,0.619205,1.831,2.14957
0.946504,0.619205,1.831,2.15217
0.957649,0.622587,1.841,2.16656
0.963624,0.622587,1.841,2.16921
0.969599,0.622587,1.841,2.17187
0.975575,0.622587,1.841,2.17454
0.986349,0.625631,1.85,2.18788
0.992353,0.625631,1.85,2.19059
0.998358,0.625631,1.85,2.19332
1.01033,0.629351,1.861,2.20911
1.02184,0.632733,1.871,2.22377
1.02791,0.632733,1.871,2.22656
1.03398,0.632733,1.871,2.22937
1.04005,0.632733,1.871,2.2322
1.04613,0.632733,1.871,2.23503
1.0522,0.632733,1.871,2.23788
1.05827,0.632733,1.871,2.24074
1.06435,0.632733,1.871,2.24362
1.08186,0.639496,1.891,2.27052
1.088,0.639496,1.891,2.27345
1.1005,0.643216,1.902,2.28964
1.10027,0.639496,1.891,2.27935
1.10641,0.639496,1.891,2.28232
1.11902,0.643216,1.902,2.2986
1.12519,0.643216,1.902,2.30161
1.13732,0.646598,1.912,2.31675
1.14352,0.646598,1.912,2.3198
1.14973,0.646598,1.912,2.32287
1.16258,0.650318,1.923,2.33933
1.16883,0.650318,1.923,2.34243
1.18179,0.654038,1.934,2.35897
1.18807,0.654038,1.934,2.36212
1.19434,0.654038,1.934,2.36529
1.20062,0.654038,1.934,2.36846
1.2069,0.654038,1.934,2.37165
1.22008,0.657758,1.945,2.38836
1.23332,0.661478,1.956,2.40512
1.23967,0.661478,1.956,2.40838
1.24602,0.661478,1.956,2.41165
1.25237,0.661478,1.956,2.41494
1.25872,0.661478,1.956,2.41824
1.25795,0.657758,1.945,2.40793
1.26427,0.657758,1.945,2.41123
1.27058,0.657758,1.945,2.41455
1.27689,0.657758,1.945,2.41788
1.28321,0.657758,1.945,2.42122
1.28952,0.657758,1.945,2.42457
1.2885,0.654038,1.934,2.4142
1.29478,0.654038,1.934,2.41756
1.30106,0.654038,1.934,2.42092
1.30733,0.654038,1.934,2.4243
1.30614,0.650318,1.923,2.41389
-1.5831,0.779129,2.282,2.88457
-1.57569,0.779129,2.282,2.88052
-1.56828,0.779129,2.282,2.87647
-1.56088,0.779129,2.282,2.87244
-1.55347,0.779129,2.282,2.86842
-1.52574,0.768886,2.252,2.82676
-1.51843,0.768886,2.252,2.82282
-1.51112,0.768886,2.252,2.8189
-1.50381,0.768886,2.252,2.81498
-1.47723,0.758985,2.223,2.77489
-1.47001,0.758985,2.223,2.77105
-1.45359,0.754205,2.209,2.7498
-1.42743,0.744304,2.18,2.70997
-1.42035,0.744304,2.18,2.70625
-1.40485,0.739865,2.167,2.68643
-1.39782,0.739865,2.167,2.68276
-1.39078,0.739865,2.167,2.6791
-1.36651,0.730647,2.14,2.64212
-1.35067,0.725867,2.126,2.62127
-1.34377,0.725867,2.126,2.61772
-1.33687,0.725867,2.126,2.61419
-1.32183,0.721428,2.113,2.5947
-1.31498,0.721428,2.113,2.59121
-1.33288,0.735085,2.153,2.63673
-1.32589,0.735085,2.153,2.6332
-1.3189,0.735085,2.153,2.62969
-1.31192,0.735085,2.153,2.62619
-1.30493,0.735085,2.153,2.62271
-1.29794,0.735085,2.153,2.61924
-1.29095,0.735085,2.153,2.61578
-1.28396,0.735085,2.153,2.61234
-1.27698,0.735085,2.153,2.60891
-1.26999,0.735085,2.153,2.6055
-1.263,0.735085,2.153,2.6021
-1.24843,0.730647,2.14,2.58302
-1.24148,0.730647,2.14,2.57967
-1.24203,0.735085,2.153,2.59199
-1.21956,0.725867,2.126,2.55619
-1.20524,0.721428,2.113,2.53729
-1.19838,0.721428,2.113,2.53404
-1.19153,0.721428,2.113,2.5308
-1.17009,0.712551,2.087,2.49648
-1.15663,0.708454,2.075,2.47898
-1.14989,0.708454,2.075,2.47584
-1.14316,0.708454,2.075,2.47272
-1.13642,0.708454,2.075,2.46961
-1.13622,0.712551,2.087,2.48079
-1.12945,0.712551,2.087,2.47769
-1.12267,0.712551,2.087,2.47461
-1.1159,0.712551,2.087,2.47154
-1.10913,0.712551,2.087,2.46849
-1.10235,0.712551,2.087,2.46546
-1.09558,0.712551,2.087,2.46244
-1.0888,0.712551,2.087,2.45943
-1.08203,0.712551,2.087,2.45644
-1.08195,0.71699,2.1,2.46874
-1.07514,0.71699,2.1,2.46576
-1.06171,0.712551,2.087,2.44755
-1.05493,0.712551,2.087,2.44462
-1.04816,0.712551,2.087,2.44171
-1.04139,0.712551,2.087,2.43881
-1.02866,0.708454,2.075,2.42192
-1.02193,0.708454,2.075,2.41906
-1.01519,0.708454,2.075,2.41623
-1.00846,0.708454,2.075,2.4134
-0.995449,0.704016,2.062,2.3955
-0.988756,0.704016,2.062,2.39272
-0.976348,0.699919,2.05,2.37606
-0.969694,0.699919,2.05,2.37333
-0.96304,0.699919,2.05,2.37062
-0.950788,0.695821,2.038,2.35406
-0.938614,0.691724,2.026,2.33755
-0.932038,0.691724,2.026,2.33492
-0.919981,0.687627,2.014,2.31849
-0.908001,0.68353,2.002,2.3021
-0.901503,0.68353,2.002,2.29955
-0.889641,0.679433,1.99,2.28324
-0.883182,0.679433,1.99,2.28073
-0.871876,0.675677,1.979,2.26565
-0.865453,0.675677,1.979,2.26318
-0.85903,0.675677,1.979,2.26073
-0.847436,0.67158,1.967,2.24461
-0.841052,0.67158,1.967,2.2422
-0.834668,0.67158,1.967,2.23982
-0.828283,0.67158,1.967,2.23745
-0.821899,0.67158,1.967,2.23509
-0.815514,0.67158,1.967,2.23275
-0.80913,0.67158,1.967,2.23043
-0.802746,0.67158,1.967,2.22812
-0.796361,0.67158,1.967,2.22583
-0.789977,0.67158,1.967,2.22355
-0.783592,0.67158,1.967,2.22129
-0.777208,0.67158,1.967,2.21905
-0.770824,0.67158,1.967,2.21682
-0.769103,0.675677,1.979,2.22812
-0.76268,0.675677,1.979,2.22591
-0.756256,0.675677,1.979,2.22371
-0.749833,0.675677,1.979,2.22154
-0.747542,0.679433,1.99,2.23171
-0.741083,0.679433,1.99,2.22956
-0.734623,0.679433,1.99,2.22742
-0.728164,0.679433,1.99,2.2253
-0.721705,0.679433,1.99,2.22319
-0.715246,0.679433,1.99,2.2211
-0.708787,0.679433,1.99,2.21903
-0.702328,0.679433,1.99,2.21698
-0.695869,0.679433,1.99,2.21494
-0.68941,0.679433,1.99,2.21292
-0.682951,0.679433,1.99,2.21092
-0.676492,0.679433,1.99,2.20893
-0.666329,0.675677,1.979,2.19476
-0.659906,0.675677,1.979,2.19282
-0.653483,0.675677,1.979,2.1909
-0.647059,0.675677,1.979,2.18899
-0.636751,0.67158,1.967,2.17384
-0.630367,0.67158,1.967,2.17197
-0.620493,0.667825,1.956,2.15799
-0.610691,0.664069,1.945,2.14405
-0.604378,0.664069,1.945,2.14226
-0.598065,0.664069,1.945,2.14049
-0.591752,0.664069,1.945,2.13873
-0.585439,0.664069,1.945,2.137
-0.57585,0.660313,1.934,2.1232
-0.569573,0.660313,1.934,2.12151
-0.563296,0.660313,1.934,2.11983
-0.55385,0.656558,1.923,2.10612
-0.544476,0.652802,1.912,2.09245
-0.538271,0.652802,1.912,2.09084
-0.532065,0.652802,1.912,2.08926
-0.523108,0.649388,1.902,2.07676
-0.513945,0.645632,1.891,2.06322
-0.507808,0.645632,1.891,2.0617
-0.50167,0.645632,1.891,2.06019
-0.495532,0.645632,1.891,2.05871
-0.489395,0.645632,1.891,2.05724
-0.483257,0.645632,1.891,2.05579
-0.477119,0.645632,1.891,2.05435
-0.470981,0.645632,1.891,2.05294
-0.464844,0.645632,1.891,2.05154
-0.458706,0.645632,1.891,2.05015
-0.452568,0.645632,1.891,2.04879
-0.446431,0.645632,1.891,2.04744
-0.440293,0.645632,1.891,2.04611
-0.434155,0.645632,1.891,2.0448
-0.428017,0.645632,1.891,2.04351
-0.42188,0.645632,1.891,2.04223
-0.413543,0.642218,1.881,2.03018
-0.407438,0.642218,1.881,2.02894
-0.401333,0.642218,1.881,2.02773
-0.395228,0.642218,1.881,2.02653
-0.389122,0.642218,1.881,2.02534
-0.383017,0.642218,1.881,2.02418
-0.376912,0.642218,1.881,2.02303
-0.370807,0.642218,1.881,2.02191
-0.364701,0.642218,1.881,2.02079
-0.358596,0.642218,1.881,2.0197
-0.352491,0.642218,1.881,2.01863
-0.346386,0.642218,1.881,2.01757
-0.338471,0.638804,1.871,2.00581
-0.332399,0.638804,1.871,2.00479
-0.326326,0.638804,1.871,2.0038
-0.320253,0.638804,1.871,2.00282
-0.31418,0.638804,1.871,2.00185
-0.308107,0.638804,1.871,2.00091
-0.302034,0.638804,1.871,1.99998
-0.295962,0.638804,1.871,1.99908
-0.289889,0.638804,1.871,1.99819
-0.283816,0.638804,1.871,1.99731
-0.277743,0.638804,1.871,1.99646
-0.27167,0.638804,1.871,1.99562
-0.265598,0.638804,1.871,1.99481
-0.259525,0.638804,1.871,1.99401
-0.253452,0.638804,1.871,1.99323
-0.247379,0.638804,1.871,1.99246
-0.240017,0.63539,1.861,1.98107
-0.233976,0.63539,1.861,1.98035
-0.227936,0.63539,1.861,1.97965
-0.221896,0.63539,1.861,1.97896
-0.21458,0.631634,1.85,1.9666
-0.208575,0.631634,1.85,1.96595
-0.20257,0.631634,1.85,1.96532
-0.196566,0.631634,1.85,1.96471
-0.189634,0.628561,1.841,1.95457
-0.183658,0.628561,1.841,1.954
-0.177683,0.628561,1.841,1.95344
-0.173573,0.63539,1.861,1.97412
-0.166542,0.631634,1.85,1.96194
-0.160538,0.631634,1.85,1.96144
-0.154533,0.631634,1.85,1.96095
-0.148528,0.631634,1.85,1.96049
-0.142524,0.631634,1.85,1.96004
-0.135855,0.628561,1.841,1.95008
-0.12988,0.628561,1.841,1.94968
-0.123904,0.628561,1.841,1.94929
-0.117929,0.628561,1.841,1.94892
-0.111953,0.628561,1.841,1.94856
-0.106496,0.631634,1.85,1.95775
-0.100491,0.631634,1.85,1.95744
-0.0944867,0.631634,1.85,1.95714
-0.0884821,0.631634,1.85,1.95686
-0.0824774,0.631634,1.85,1.9566
-0.0764728,0.631634,1.85,1.95635
-0.0704681,0.631634,1.85,1.95613
-0.0644635,0.631634,1.85,1.95592
-0.0584588,0.631634,1.85,1.95573
-0.052199,0.628561,1.841,1.94605
-0.0462236,0.628561,1.841,1.94589
-0.0402482,0.628561,1.841,1.94576
-0.0342727,0.628561,1.841,1.94565
-0.0282973,0.628561,1.841,1.94555
-0.0223219,0.628561,1.841,1.94547
-0.0163464,0.628561,1.841,1.94541
-0.0104217,0.631634,1.85,1.95488
-0.00441708,0.631634,1.85,1.95486
0.00158756,0.631634,1.85,1.95486
0.0075922,0.631634,1.85,1.95487
0.0136777,0.63539,1.861,1.96653
0.019718,0.63539,1.861,1.96658
0.0257584,0.63539,1.861,1.96665
0.0319696,0.638804,1.871,1.9773
0.0380424,0.638804,1.871,1.97741
0.0441152,0.638804,1.871,1.97754
0.050188,0.638804,1.871,1.97768
0.0562608,0.638804,1.871,1.97785
0.0623336,0.638804,1.871,1.97803
0.068772,0.642218,1.881,1.9888
0.0748773,0.642218,1.881,1.98902
0.0809825,0.642218,1.881,1.98926
0.0870878,0.642218,1.881,1.98952
0.093193,0.642218,1.881,1.9898
0.0992983,0.642218,1.881,1.99009
0.105404,0.642218,1.881,1.99041
0.111509,0.642218,1.881,1.99074
0.116989,0.638804,1.871,1.9805
0.123062,0.638804,1.871,1.98087
0.128444,0.63539,1.861,1.97067
0.134485,0.63539,1.861,1.97107
0.140525,0.63539,1.861,1.97149
0.145699,0.631634,1.85,1.96028
0.151704,0.631634,1.85,1.96073
0.157708,0.631634,1.85,1.96121
0.162916,0.628561,1.841,1.95216
0.168892,0.628561,1.841,1.95266
0.174867,0.628561,1.841,1.95319
0.180843,0.628561,1.841,1.95373
0.186818,0.628561,1.841,1.9543
0.192794,0.628561,1.841,1.95488
0.197689,0.625147,1.831,1.94485
0.203632,0.625147,1.831,1.94547
0.209575,0.625147,1.831,1.9461
0.215518,0.625147,1.831,1.94675
0.221461,0.625147,1.831,1.94741
0.227404,0.625147,1.831,1.9481
0.233347,0.625147,1.831,1.9488
0.23929,0.625147,1.831,1.94952
0.246572,0.628561,1.841,1.96091
0.252548,0.628561,1.841,1.96167
0.258523,0.628561,1.841,1.96245
0.265792,0.631634,1.85,1.97284
0.271796,0.631634,1.85,1.97366
0.277801,0.631634,1.85,1.9745
0.285493,0.63539,1.861,1.9871
0.2931,0.638804,1.871,1.99865
0.299173,0.638804,1.871,1.99955
0.305246,0.638804,1.871,2.00047
0.312982,0.642218,1.881,2.0121
0.319088,0.642218,1.881,2.01306
0.325193,0.642218,1.881,2.01404
0.331298,0.642218,1.881,2.01503
0.337403,0.642218,1.881,2.01605
0.347344,0.649388,1.902,2.0396
0.353517,0.649388,1.902,2.04066
0.359691,0.649388,1.902,2.04174
0.365864,0.649388,1.902,2.04283
0.372037,0.649388,1.902,2.04395
0.380199,0.652802,1.912,2.05583
0.386405,0.652802,1.912,2.05699
0.392611,0.652802,1.912,2.05816
0.398817,0.652802,1.912,2.05936
0.405023,0.652802,1.912,2.06057
0.411229,0.652802,1.912,2.0618
0.417435,0.652802,1.912,2.06304
0.421425,0.649388,1.902,2.05351
0.427598,0.649388,1.902,2.05479
0.433772,0.649388,1.902,2.05608
0.439945,0.649388,1.902,2.05739
0.443538,0.645632,1.891,2.04681
0.447298,0.642218,1.881,2.03732
0.453403,0.642218,1.881,2.03867
0.457066,0.638804,1.871,2.02919
0.460663,0.63539,1.861,2.01972
0.466704,0.63539,1.861,2.0211
0.472744,0.63539,1.861,2.02251
0.475954,0.631634,1.85,2.01196
0.481959,0.631634,1.85,2.01339
0.48559,0.628561,1.841,2.00504
0.491565,0.628561,1.841,2.00649
0.49754,0.628561,1.841,2.00796
0.500781,0.625147,1.831,1.99854
0.503956,0.621733,1.821,1.98911
0.509867,0.621733,1.821,1.99062
0.515777,0.621733,1.821,1.99214
0.518823,0.618318,1.811,1.98273
0.522094,0.615246,1.802,1.97441
0.527942,0.615246,1.802,1.97597
0.530829,0.611831,1.792,1.96657
0.536645,0.611831,1.792,1.96814
0.542462,0.611831,1.792,1.96974
0.548278,0.611831,1.792,1.97135
0.554095,0.611831,1.792,1.97297
0.559911,0.611831,1.792,1.97461
0.565727,0.611831,1.792,1.97627
0.571544,0.611831,1.792,1.97794
0.57736,0.611831,1.792,1.97963
0.586431,0.615246,1.802,1.99239
0.59228,0.615246,1.802,1.99412
0.601116,0.618318,1.811,2.00584
0.606994,0.618318,1.811,2.00761
0.612872,0.618318,1.811,2.00939
0.622167,0.621733,1.821,2.0223
0.628077,0.621733,1.821,2.02412
0.633988,0.621733,1.821,2.02596
0.643412,0.625147,1.831,2.03896
0.649355,0.625147,1.831,2.04084
0.655298,0.625147,1.831,2.04274
0.661241,0.625147,1.831,2.04465
0.667184,0.625147,1.831,2.04658
0.673127,0.625147,1.831,2.04853
0.675361,0.621733,1.821,2.03929
0.677531,0.618318,1.811,2.03005
0.683409,0.618318,1.811,2.03202
0.689287,0.618318,1.811,2.034
0.69171,0.615246,1.802,2.02588
0.697559,0.615246,1.802,2.02789
0.703408,0.615246,1.802,2.0299
0.709257,0.615246,1.802,2.03194
0.715105,0.615246,1.802,2.03399
0.716953,0.611831,1.792,2.02475
0.71914,0.608758,1.783,2.01664
0.724927,0.608758,1.783,2.01871
0.730714,0.608758,1.783,2.0208
0.736501,0.608758,1.783,2.0229
0.738542,0.605686,1.774,2.01479
0.7443,0.605686,1.774,2.01691
0.750058,0.605686,1.774,2.01904
0.755816,0.605686,1.774,2.02118
0.761574,0.605686,1.774,2.02335
0.767331,0.605686,1.774,2.02552
0.789214,0.618318,1.811,2.07
0.795092,0.618318,1.811,2.07225
0.80097,0.618318,1.811,2.07451
0.806848,0.618318,1.811,2.07679
0.812726,0.618318,1.811,2.07908
0.818604,0.618318,1.811,2.08138
0.824482,0.618318,1.811,2.0837
0.826233,0.615246,1.802,2.07567
0.832082,0.615246,1.802,2.078
0.837931,0.615246,1.802,2.08035
0.84378,0.615246,1.802,2.08271
0.853872,0.618318,1.811,2.0955
0.85975,0.618318,1.811,2.09791
0.865628,0.618318,1.811,2.10032
0.871506,0.618318,1.811,2.10275
0.877384,0.618318,1.811,2.10519
0.883263,0.618318,1.811,2.10765
