0.0101818,-0.457099,2.481,2.52278
0.0182345,-0.457099,2.481,2.52282
0.0262872,-0.457099,2.481,2.52289
0.0343399,-0.457099,2.481,2.52299
0.0423926,-0.457099,2.481,2.52311
0.0504453,-0.457099,2.481,2.52326
0.058498,-0.457099,2.481,2.52343
0.0660679,-0.453783,2.463,2.50532
0.0740622,-0.453783,2.463,2.50555
0.0826561,-0.457099,2.481,2.52411
0.0900507,-0.453783,2.463,2.50607
0.098045,-0.453783,2.463,2.50637
0.106039,-0.453783,2.463,2.5067
0.114034,-0.453783,2.463,2.50705
0.122028,-0.453783,2.463,2.50742
0.130972,-0.457099,2.481,2.52615
0.139025,-0.457099,2.481,2.52658
0.147078,-0.457099,2.481,2.52704
0.155131,-0.457099,2.481,2.52752
0.163183,-0.457099,2.481,2.52803
0.171236,-0.457099,2.481,2.52856
0.179289,-0.457099,2.481,2.52912
0.187341,-0.457099,2.481,2.5297
0.195394,-0.457099,2.481,2.53031
0.203447,-0.457099,2.481,2.53095
0.2115,-0.457099,2.481,2.53161
0.219552,-0.457099,2.481,2.53229
0.227605,-0.457099,2.481,2.533
0.235658,-0.457099,2.481,2.53374
0.24371,-0.457099,2.481,2.5345
0.251763,-0.457099,2.481,2.53529
0.261701,-0.460415,2.499,2.5545
0.269812,-0.460415,2.499,2.55534
0.277923,-0.460415,2.499,2.55621
0.286034,-0.460415,2.499,2.55711
0.294145,-0.460415,2.499,2.55803
0.302256,-0.460415,2.499,2.55897
0.310368,-0.460415,2.499,2.55994
0.318479,-0.460415,2.499,2.56094
0.32659,-0.460415,2.499,2.56196
0.334701,-0.460415,2.499,2.56301
0.342812,-0.460415,2.499,2.56408
0.350923,-0.460415,2.499,2.56518
0.359034,-0.460415,2.499,2.5663
0.367146,-0.460415,2.499,2.56745
0.375257,-0.460415,2.499,2.56862
0.383368,-0.460415,2.499,2.56982
0.391479,-0.460415,2.499,2.57104
0.39959,-0.460415,2.499,2.57229
0.407701,-0.460415,2.499,2.57356
0.415812,-0.460415,2.499,2.57486
0.423923,-0.460415,2.499,2.57618
0.435146,-0.463732,2.517,2.59609
0.440146,-0.460415,2.499,2.5789
0.448257,-0.460415,2.499,2.58029
0.456368,-0.460415,2.499,2.58172
0.464479,-0.460415,2.499,2.58316
0.47259,-0.460415,2.499,2.58463
0.480701,-0.460415,2.499,2.58613
0.488812,-0.460415,2.499,2.58765
0.496924,-0.460415,2.499,2.58919
0.505035,-0.460415,2.499,2.59076
0.513146,-0.460415,2.499,2.59235
0.521257,-0.460415,2.499,2.59397
0.529368,-0.460415,2.499,2.59561
0.537479,-0.460415,2.499,2.59728
0.54559,-0.460415,2.499,2.59897
0.553702,-0.460415,2.499,2.60069
0.561813,-0.460415,2.499,2.60243
0.569924,-0.460415,2.499,2.60419
0.578035,-0.460415,2.499,2.60598
0.590368,-0.463732,2.517,2.62657
0.598538,-0.463732,2.517,2.62842
0.606707,-0.463732,2.517,2.63029
0.614877,-0.463732,2.517,2.63219
0.623046,-0.463732,2.517,2.63411
0.631216,-0.463732,2.517,2.63605
0.639385,-0.463732,2.517,2.63802
0.647555,-0.463732,2.517,2.64001
0.655725,-0.463732,2.517,2.64203
0.659146,-0.460415,2.499,2.62516
0.667257,-0.460415,2.499,2.62721
0.675369,-0.460415,2.499,2.62928
0.68348,-0.460415,2.499,2.63137
0.691591,-0.460415,2.499,2.63349
0.699702,-0.460415,2.499,2.63563
0.707813,-0.460415,2.499,2.6378
0.710768,-0.457099,2.481,2.62097
0.71882,-0.457099,2.481,2.62317
0.726873,-0.457099,2.481,2.62538
0.734926,-0.457099,2.481,2.62763
0.742978,-0.457099,2.481,2.62989
0.751031,-0.457099,2.481,2.63218
0.753577,-0.453783,2.463,2.61537
0.761571,-0.453783,2.463,2.61769
0.769565,-0.453783,2.463,2.62002
0.777559,-0.453783,2.463,2.62238
0.779813,-0.450466,2.445,2.60558
0.787749,-0.450466,2.445,2.60797
0.795684,-0.450466,2.445,2.61038
0.80362,-0.450466,2.445,2.61281
0.811556,-0.450466,2.445,2.61526
0.819492,-0.450466,2.445,2.61773
0.821675,-0.447334,2.428,2.60201
0.829556,-0.447334,2.428,2.60451
0.837436,-0.447334,2.428,2.60703
0.845317,-0.447334,2.428,2.60957
0.853198,-0.447334,2.428,2.61213
0.84902,-0.44107,2.394,2.5781
0.856791,-0.44107,2.394,2.58067
0.864561,-0.44107,2.394,2.58326
0.872331,-0.44107,2.394,2.58587
0.873852,-0.437938,2.377,2.57012
0.875633,-0.43499,2.361,2.55544
0.883296,-0.43499,2.361,2.55808
0.89096,-0.43499,2.361,2.56073
0.898623,-0.43499,2.361,2.56341
0.906286,-0.43499,2.361,2.5661
0.913949,-0.43499,2.361,2.56882
nan,nan,nan,NaN
nan,nan,nan,NaN
nan,nan,nan,NaN
nan,nan,nan,NaN
nan,nan,nan,NaN
nan,nan,nan,NaN
nan,nan,nan,NaN
nan,nan,nan,NaN
nan,nan,nan,NaN
nan,nan,nan,NaN
nan,nan,nan,NaN
nan,nan,nan,NaN
nan,nan,nan,NaN
nan,nan,nan,NaN
nan,nan,nan,NaN
nan,nan,nan,NaN
nan,nan,nan,NaN
nan,nan,nan,NaN
nan,nan,nan,NaN
nan,nan,nan,NaN
1.4705,-0.595095,3.23,3.59853
1.46677,-0.589383,3.199,3.56825
1.47715,-0.589383,3.199,3.57253
1.48754,-0.589383,3.199,3.57683
1.49792,-0.589383,3.199,3.58116
1.5083,-0.589383,3.199,3.58552
1.51869,-0.589383,3.199,3.5899
1.51521,-0.58404,3.17,3.56172
1.5255,-0.58404,3.17,3.56611
1.53579,-0.58404,3.17,3.57052
1.54608,-0.58404,3.17,3.57496
1.55636,-0.58404,3.17,3.57942
1.56665,-0.58404,3.17,3.58391
1.57694,-0.58404,3.17,3.58842
1.58723,-0.58404,3.17,3.59295
1.59752,-0.58404,3.17,3.59751
1.5931,-0.578697,3.141,3.56914
1.6033,-0.578697,3.141,3.5737
1.61349,-0.578697,3.141,3.57828
1.62369,-0.578697,3.141,3.58289
1.63388,-0.578697,3.141,3.58753
nan,nan,nan,NaN
nan,nan,nan,NaN
nan,nan,nan,NaN
1.94177,-0.671001,3.642,4.18149
1.95359,-0.671001,3.642,4.187
1.96542,-0.671001,3.642,4.19253
1.97724,-0.671001,3.642,4.19808
1.98906,-0.671001,3.642,4.20366
2.00088,-0.671001,3.642,4.20927
1.9917,-0.664,3.604,4.17092
1.98227,-0.656999,3.566,4.13248
1.99385,-0.656999,3.566,4.13805
1.98461,-0.650182,3.529,4.10064
1.99607,-0.650182,3.529,4.1062
2.00752,-0.650182,3.529,4.11178
1.99838,-0.64355,3.493,4.07538
2.00972,-0.64355,3.493,4.08095
2.02106,-0.64355,3.493,4.08655
2.01203,-0.637101,3.458,4.05116
2.02325,-0.637101,3.458,4.05675
2.03448,-0.637101,3.458,4.06236
2.025,-0.630653,3.423,4.02682
2.01588,-0.624389,3.389,3.99236
2.00714,-0.618309,3.356,3.959
2.01804,-0.618309,3.356,3.96453
2.00958,-0.612413,3.324,3.93223
2.00092,-0.606518,3.292,3.89985
2.01161,-0.606518,3.292,3.90534
2.00264,-0.600622,3.26,3.87284
1.97555,-0.589383,3.199,3.80575
1.98593,-0.589383,3.199,3.81115
1.96012,-0.578697,3.141,3.74738
1.91762,-0.563221,3.057,3.65236
1.92754,-0.563221,3.057,3.65758
1.88676,-0.548482,2.977,3.56696
1.86394,-0.539086,2.926,3.51089
1.87343,-0.539086,2.926,3.51594
1.8514,-0.530058,2.877,3.46205
1.82969,-0.521214,2.829,3.4092
1.83887,-0.521214,2.829,3.41414
1.80364,-0.508686,2.761,3.33691
1.78371,-0.50058,2.717,3.28851
1.79253,-0.50058,2.717,3.2933
1.7735,-0.492842,2.675,3.24713
1.78218,-0.492842,2.675,3.25188
1.79087,-0.492842,2.675,3.25664
1.78542,-0.488973,2.654,3.23582
1.79404,-0.488973,2.654,3.24058
1.80265,-0.488973,2.654,3.24536
-2.63896,-0.688505,3.804,4.68066
-2.62661,-0.688505,3.804,4.67371
-2.61427,-0.688505,3.804,4.66678
-2.57319,-0.680903,3.762,4.60843
-2.53307,-0.673482,3.721,4.55147
-2.52099,-0.673482,3.721,4.54476
-2.48194,-0.666243,3.681,4.48929
-2.44383,-0.659184,3.642,4.4352
-2.43201,-0.659184,3.642,4.4287
-2.42019,-0.659184,3.642,4.42221
-2.38324,-0.652306,3.604,4.36968
-2.37154,-0.652306,3.604,4.36331
-2.35984,-0.652306,3.604,4.35697
-2.32338,-0.645428,3.566,4.30477
-2.31181,-0.645428,3.566,4.29853
-2.30024,-0.645428,3.566,4.29232
-2.26491,-0.638731,3.529,4.24166
-2.23047,-0.632216,3.493,4.19235
-2.21914,-0.632216,3.493,4.18632
-2.18568,-0.625881,3.458,4.13844
-2.17445,-0.625881,3.458,4.13252
-2.16323,-0.625881,3.458,4.12663
-2.152,-0.625881,3.458,4.12075
-2.11911,-0.619546,3.423,4.07325
-2.108,-0.619546,3.423,4.06749
-2.09689,-0.619546,3.423,4.06174
-2.06506,-0.613392,3.389,4.01573
-2.05406,-0.613392,3.389,4.01008
-2.04306,-0.613392,3.389,4.00446
-2.03206,-0.613392,3.389,3.99886
nan,nan,nan,NaN
nan,nan,nan,NaN
nan,nan,nan,NaN
nan,nan,nan,NaN
nan,nan,nan,NaN
nan,nan,nan,NaN
nan,nan,nan,NaN
nan,nan,nan,NaN
nan,nan,nan,NaN
nan,nan,nan,NaN
nan,nan,nan,NaN
nan,nan,nan,NaN
nan,nan,nan,NaN
nan,nan,nan,NaN
nan,nan,nan,NaN
nan,nan,nan,NaN
nan,nan,nan,NaN
nan,nan,nan,NaN
nan,nan,nan,NaN
nan,nan,nan,NaN
nan,nan,nan,NaN
nan,nan,nan,NaN
nan,nan,nan,NaN
nan,nan,nan,NaN
nan,nan,nan,NaN
nan,nan,nan,NaN
nan,nan,nan,NaN
nan,nan,nan,NaN
nan,nan,nan,NaN
nan,nan,nan,NaN
nan,nan,nan,NaN
nan,nan,nan,NaN
nan,nan,nan,NaN
nan,nan,nan,NaN
nan,nan,nan,NaN
nan,nan,nan,NaN
nan,nan,nan,NaN
-1.10923,-0.421537,2.329,2.61387
-1.10167,-0.421537,2.329,2.61067
-1.09411,-0.421537,2.329,2.60749
-1.08655,-0.421537,2.329,2.60433
-1.07899,-0.421537,2.329,2.60118
-1.07143,-0.421537,2.329,2.59806
-1.06387,-0.421537,2.329,2.59495
-1.04905,-0.418641,2.313,2.57405
-1.04155,-0.418641,2.313,2.571
-1.03404,-0.418641,2.313,2.56797
-1.02653,-0.418641,2.313,2.56496
-1.01902,-0.418641,2.313,2.56196
-1.01152,-0.418641,2.313,2.55898
-1.00401,-0.418641,2.313,2.55603
-0.996502,-0.418641,2.313,2.55309
-0.988995,-0.418641,2.313,2.55016
-0.988277,-0.421537,2.329,2.56488
-0.97398,-0.418641,2.313,2.54438
-0.966473,-0.418641,2.313,2.54152
-0.965599,-0.421537,2.329,2.55623
-0.951458,-0.418641,2.313,2.53584
-0.943951,-0.418641,2.313,2.53304
-0.942921,-0.421537,2.329,2.54775
-0.935362,-0.421537,2.329,2.54496
-0.927802,-0.421537,2.329,2.54219
-0.920243,-0.421537,2.329,2.53945
-0.918953,-0.424433,2.345,2.55414
-0.911342,-0.424433,2.345,2.55141
-0.903731,-0.424433,2.345,2.54871
-0.89612,-0.424433,2.345,2.54602
-0.888508,-0.424433,2.345,2.54335
-0.880897,-0.424433,2.345,2.5407
-0.873286,-0.424433,2.345,2.53807
-0.865674,-0.424433,2.345,2.53546
-0.863918,-0.427329,2.361,2.55015
-0.856255,-0.427329,2.361,2.54757
-0.848591,-0.427329,2.361,2.545
-0.840928,-0.427329,2.361,2.54246
-0.833265,-0.427329,2.361,2.53993
-0.831197,-0.430225,2.377,2.55463
-0.823481,-0.430225,2.377,2.55213
-0.815766,-0.430225,2.377,2.54965
-0.808051,-0.430225,2.377,2.54719
-0.800336,-0.430225,2.377,2.54475
-0.792621,-0.430225,2.377,2.54234
-0.784906,-0.430225,2.377,2.53994
-0.777191,-0.430225,2.377,2.53757
-0.769475,-0.430225,2.377,2.53522
-0.767208,-0.433302,2.394,2.551
-0.759438,-0.433302,2.394,2.54867
-0.751668,-0.433302,2.394,2.54637
-0.743897,-0.433302,2.394,2.54409
-0.736127,-0.433302,2.394,2.54182
-0.728357,-0.433302,2.394,2.53958
-0.725703,-0.436379,2.411,2.55539
-0.717878,-0.436379,2.411,2.55317
-0.710052,-0.436379,2.411,2.55098
-0.702227,-0.436379,2.411,2.54882
-0.699297,-0.439456,2.428,2.56463
-0.691417,-0.439456,2.428,2.56249
-0.683536,-0.439456,2.428,2.56038
-0.675655,-0.439456,2.428,2.55828
-0.67245,-0.442533,2.445,2.57411
-0.664514,-0.442533,2.445,2.57205
-0.656578,-0.442533,2.445,2.57001
-0.648643,-0.442533,2.445,2.568
-0.640707,-0.442533,2.445,2.566
-0.632771,-0.442533,2.445,2.56403
-0.624835,-0.442533,2.445,2.56209
-0.616899,-0.442533,2.445,2.56016
-0.608963,-0.442533,2.445,2.55826
-0.601027,-0.442533,2.445,2.55638
-0.593092,-0.442533,2.445,2.55453
-0.585156,-0.442533,2.445,2.5527
-0.57722,-0.442533,2.445,2.55089
-0.569284,-0.442533,2.445,2.54911
-0.557445,-0.439456,2.428,2.52963
-0.549564,-0.439456,2.428,2.52791
-0.541684,-0.439456,2.428,2.52621
-0.530066,-0.436379,2.411,2.50685
-0.52224,-0.436379,2.411,2.50521
-0.514415,-0.436379,2.411,2.50359
-0.506589,-0.436379,2.411,2.502
-0.495247,-0.433302,2.394,2.48279
-0.487476,-0.433302,2.394,2.48125
-0.479706,-0.433302,2.394,2.47974
-0.471936,-0.433302,2.394,2.47825
-0.464165,-0.433302,2.394,2.47678
-0.456395,-0.433302,2.394,2.47534
-0.448625,-0.433302,2.394,2.47391
-0.440854,-0.433302,2.394,2.47252
-0.433084,-0.433302,2.394,2.47114
-0.425314,-0.433302,2.394,2.46979
-0.417543,-0.433302,2.394,2.46847
-0.412683,-0.436379,2.411,2.48468
-0.404857,-0.436379,2.411,2.4834
-0.397032,-0.436379,2.411,2.48213
-0.389206,-0.436379,2.411,2.48089
-0.381381,-0.436379,2.411,2.47968
-0.373555,-0.436379,2.411,2.47849
-0.368309,-0.439456,2.428,2.49479
-0.360428,-0.439456,2.428,2.49363
-0.355016,-0.442533,2.445,2.50996
-0.34708,-0.442533,2.445,2.50885
-0.339144,-0.442533,2.445,2.50776
-0.331208,-0.442533,2.445,2.5067
-0.323272,-0.442533,2.445,2.50567
-0.315336,-0.442533,2.445,2.50466
-0.3074,-0.442533,2.445,2.50367
-0.299465,-0.442533,2.445,2.50271
-0.291529,-0.442533,2.445,2.50177
-0.283593,-0.442533,2.445,2.50086
-0.275657,-0.442533,2.445,2.49997
-0.269692,-0.445791,2.463,2.51751
-0.261698,-0.445791,2.463,2.51666
-0.253704,-0.445791,2.463,2.51584
-0.243914,-0.442533,2.445,2.49667
-0.235978,-0.442533,2.445,2.49591
-0.228042,-0.442533,2.445,2.49517
-0.220106,-0.442533,2.445,2.49446
-0.21217,-0.442533,2.445,2.49377
-0.204234,-0.442533,2.445,2.49311
-0.196298,-0.442533,2.445,2.49247
-0.188363,-0.442533,2.445,2.49186
-0.180427,-0.442533,2.445,2.49127
-0.172491,-0.442533,2.445,2.49071
-0.164555,-0.442533,2.445,2.49017
-0.156619,-0.442533,2.445,2.48966
-0.148683,-0.442533,2.445,2.48917
-0.140747,-0.442533,2.445,2.48871
-0.132812,-0.442533,2.445,2.48827
-0.124876,-0.442533,2.445,2.48786
-0.11694,-0.442533,2.445,2.48748
-0.109004,-0.442533,2.445,2.48712
-0.101812,-0.445791,2.463,2.50509
-0.0938178,-0.445791,2.463,2.50478
-0.0858236,-0.445791,2.463,2.50449
-0.0778293,-0.445791,2.463,2.50423
-0.069835,-0.445791,2.463,2.50399
-0.0618407,-0.445791,2.463,2.50378
-0.0538464,-0.445791,2.463,2.5036
-0.0461872,-0.449049,2.481,2.52173
-0.0381345,-0.449049,2.481,2.5216
-0.0300818,-0.449049,2.481,2.52149
-0.0220291,-0.449049,2.481,2.52141
-0.0139764,-0.449049,2.481,2.52135
-0.00592366,-0.449049,2.481,2.52132
0.00212905,-0.449049,2.481,2.52131
0.0101818,-0.449049,2.481,2.52133
0.0182345,-0.449049,2.481,2.52138
0.0260965,-0.445791,2.463,2.50315
0.0340907,-0.445791,2.463,2.50325
0.042085,-0.445791,2.463,2.50337
0.0500793,-0.445791,2.463,2.50352
0.0580736,-0.445791,2.463,2.50369
0.0660679,-0.445791,2.463,2.50389
0.0740622,-0.445791,2.463,2.50411
0.0826561,-0.449049,2.481,2.52267
0.0900507,-0.445791,2.463,2.50464
0.098045,-0.445791,2.463,2.50494
0.106039,-0.445791,2.463,2.50526
0.114034,-0.445791,2.463,2.50561
0.122028,-0.445791,2.463,2.50599
0.130972,-0.449049,2.481,2.52471
0.139025,-0.449049,2.481,2.52514
0.147078,-0.449049,2.481,2.5256
0.155131,-0.449049,2.481,2.52608
0.163183,-0.449049,2.481,2.52659
0.171236,-0.449049,2.481,2.52712
0.179289,-0.449049,2.481,2.52768
0.187341,-0.449049,2.481,2.52826
0.195394,-0.449049,2.481,2.52887
0.203447,-0.449049,2.481,2.52951
0.2115,-0.449049,2.481,2.53017
0.219552,-0.449049,2.481,2.53085
0.227605,-0.449049,2.481,2.53156
0.235658,-0.449049,2.481,2.5323
0.24371,-0.449049,2.481,2.53306
0.251763,-0.449049,2.481,2.53385
0.261701,-0.452306,2.499,2.55305
0.269812,-0.452306,2.499,2.5539
0.277923,-0.452306,2.499,2.55476
0.286034,-0.452306,2.499,2.55566
0.294145,-0.452306,2.499,2.55658
0.302256,-0.452306,2.499,2.55753
0.310368,-0.452306,2.499,2.5585
0.318479,-0.452306,2.499,2.55949
0.32659,-0.452306,2.499,2.56052
0.334701,-0.452306,2.499,2.56156
0.342812,-0.452306,2.499,2.56264
0.350923,-0.452306,2.499,2.56373
0.359034,-0.452306,2.499,2.56486
0.367146,-0.452306,2.499,2.566
0.375257,-0.452306,2.499,2.56718
0.383368,-0.452306,2.499,2.56838
0.391479,-0.452306,2.499,2.5696
0.39959,-0.452306,2.499,2.57085
0.407701,-0.452306,2.499,2.57212
0.415812,-0.452306,2.499,2.57342
0.423923,-0.452306,2.499,2.57474
0.435146,-0.455564,2.517,2.59464
0.440146,-0.452306,2.499,2.57746
0.448257,-0.452306,2.499,2.57886
0.456368,-0.452306,2.499,2.58028
0.464479,-0.452306,2.499,2.58173
0.47259,-0.452306,2.499,2.5832
0.480701,-0.452306,2.499,2.5847
0.488812,-0.452306,2.499,2.58622
0.496924,-0.452306,2.499,2.58776
0.505035,-0.452306,2.499,2.58933
0.513146,-0.452306,2.499,2.59093
0.521257,-0.452306,2.499,2.59255
0.529368,-0.452306,2.499,2.59419
0.537479,-0.452306,2.499,2.59586
0.54559,-0.452306,2.499,2.59755
0.553702,-0.452306,2.499,2.59926
0.561813,-0.452306,2.499,2.601
0.569924,-0.452306,2.499,2.60277
0.578035,-0.452306,2.499,2.60455
0.586146,-0.452306,2.499,2.60637
0.594257,-0.452306,2.499,2.6082
0.602368,-0.452306,2.499,2.61006
0.610479,-0.452306,2.499,2.61195
0.618591,-0.452306,2.499,2.61385
0.626702,-0.452306,2.499,2.61579
0.634813,-0.452306,2.499,2.61774
0.642924,-0.452306,2.499,2.61972
0.651035,-0.452306,2.499,2.62172
0.659146,-0.452306,2.499,2.62375
0.667257,-0.452306,2.499,2.6258
0.675369,-0.452306,2.499,2.62787
0.678557,-0.449049,2.481,2.61102
0.686609,-0.449049,2.481,2.61313
0.694662,-0.449049,2.481,2.61526
0.702715,-0.449049,2.481,2.61741
0.710768,-0.449049,2.481,2.61958
0.71882,-0.449049,2.481,2.62178
0.721599,-0.445791,2.463,2.60496
0.729594,-0.445791,2.463,2.60718
0.737588,-0.445791,2.463,2.60943
0.745582,-0.445791,2.463,2.6117
0.753577,-0.445791,2.463,2.614
0.761571,-0.445791,2.463,2.61631
0.763941,-0.442533,2.445,2.59951
0.771877,-0.442533,2.445,2.60186
0.779813,-0.442533,2.445,2.60422
0.787749,-0.442533,2.445,2.60661
0.795684,-0.442533,2.445,2.60902
0.798033,-0.439456,2.428,2.59329
0.805913,-0.439456,2.428,2.59573
0.813794,-0.439456,2.428,2.59819
0.815922,-0.436379,2.411,2.58246
0.823747,-0.436379,2.411,2.58494
0.831573,-0.436379,2.411,2.58744
0.83348,-0.433302,2.394,2.57171
0.84125,-0.433302,2.394,2.57424
0.84902,-0.433302,2.394,2.57679
0.856791,-0.433302,2.394,2.57936
0.864561,-0.433302,2.394,2.58195
0.872331,-0.433302,2.394,2.58456
0.873852,-0.430225,2.377,2.56882
0.875633,-0.427329,2.361,2.55415
0.883296,-0.427329,2.361,2.55678
0.89096,-0.427329,2.361,2.55944
0.898623,-0.427329,2.361,2.56212
0.906286,-0.427329,2.361,2.56482
0.907756,-0.424433,2.345,2.55014
0.915367,-0.424433,2.345,2.55285
0.922978,-0.424433,2.345,2.55559
0.930589,-0.424433,2.345,2.55835
nan,nan,nan,NaN
nan,nan,nan,NaN
nan,nan,nan,NaN
nan,nan,nan,NaN
nan,nan,nan,NaN
nan,nan,nan,NaN
nan,nan,nan,NaN
nan,nan,nan,NaN
nan,nan,nan,NaN
nan,nan,nan,NaN
nan,nan,nan,NaN
nan,nan,nan,NaN
nan,nan,nan,NaN
nan,nan,nan,NaN
nan,nan,nan,NaN
1.43562,-0.579003,3.199,3.55385
1.446,-0.579003,3.199,3.55806
1.45639,-0.579003,3.199,3.56229
1.46677,-0.579003,3.199,3.56655
1.47715,-0.579003,3.199,3.57083
1.48754,-0.579003,3.199,3.57514
1.48434,-0.573754,3.17,3.54702
1.49463,-0.573754,3.17,3.55134
1.50492,-0.573754,3.17,3.55568
1.51521,-0.573754,3.17,3.56005
1.51154,-0.568505,3.141,3.53183
1.52174,-0.568505,3.141,3.53621
1.53193,-0.568505,3.141,3.54061
1.54213,-0.568505,3.141,3.54503
1.55232,-0.568505,3.141,3.54948
1.56252,-0.568505,3.141,3.55395
1.57271,-0.568505,3.141,3.55844
1.58291,-0.568505,3.141,3.56296
1.5931,-0.568505,3.141,3.5675
1.58849,-0.563256,3.112,3.53908
1.59859,-0.563256,3.112,3.54363
1.60869,-0.563256,3.112,3.5482
1.6188,-0.563256,3.112,3.55279
nan,nan,nan,NaN
nan,nan,nan,NaN
nan,nan,nan,NaN
1.94177,-0.659184,3.642,4.17961
1.95359,-0.659184,3.642,4.18512
1.96542,-0.659184,3.642,4.19065
1.97724,-0.659184,3.642,4.19621
1.98906,-0.659184,3.642,4.20179
2.00088,-0.659184,3.642,4.2074
1.9917,-0.652306,3.604,4.16908
1.98227,-0.645428,3.566,4.13066
1.99385,-0.645428,3.566,4.13623
1.98461,-0.638731,3.529,4.09884
1.99607,-0.638731,3.529,4.1044
2.00752,-0.638731,3.529,4.10998
1.99838,-0.632216,3.493,4.07361
2.00972,-0.632216,3.493,4.07918
2.02106,-0.632216,3.493,4.08478
2.01203,-0.625881,3.458,4.04941
2.02325,-0.625881,3.458,4.055
2.03448,-0.625881,3.458,4.06061
2.025,-0.619546,3.423,4.02509
2.01588,-0.613392,3.389,3.99066
2.00714,-0.607419,3.356,3.95731
2.01804,-0.607419,3.356,3.96285
2.00958,-0.601627,3.324,3.93057
2.02037,-0.601627,3.324,3.93609
2.03116,-0.601627,3.324,3.94164
2.00264,-0.590044,3.26,3.87121
1.99469,-0.584614,3.23,3.84102
2.00517,-0.584614,3.23,3.84648
1.96012,-0.568505,3.141,3.74582
1.91762,-0.553302,3.057,3.65084
1.92754,-0.553302,3.057,3.65607
1.88676,-0.538822,2.977,3.56549
1.86394,-0.529591,2.926,3.50944
1.87343,-0.529591,2.926,3.5145
1.83595,-0.516379,2.853,3.43176
1.81482,-0.507872,2.806,3.38011
1.82392,-0.507872,2.806,3.38501
1.80364,-0.499727,2.761,3.33556
1.78371,-0.491763,2.717,3.28718
1.79253,-0.491763,2.717,3.29197
1.7735,-0.484162,2.675,3.24582
1.76819,-0.480361,2.654,3.22505
1.77681,-0.480361,2.654,3.22978
1.78542,-0.480361,2.654,3.23453
1.79404,-0.480361,2.654,3.23929
1.78839,-0.47656,2.633,3.2184
-2.63896,-0.676162,3.804,4.67886
-2.62661,-0.676162,3.804,4.67191
-2.61427,-0.676162,3.804,4.66498
-2.57319,-0.668696,3.762,4.60664
-2.53307,-0.661408,3.721,4.5497
-2.52099,-0.661408,3.721,4.54298
-2.48194,-0.654298,3.681,4.48753
-2.44383,-0.647366,3.642,4.43346
-2.43201,-0.647366,3.642,4.42695
-2.42019,-0.647366,3.642,4.42047
-2.40836,-0.647366,3.642,4.41401
-2.39654,-0.647366,3.642,4.40757
-2.35984,-0.640612,3.604,4.35523
-2.34814,-0.640612,3.604,4.34891
-2.31181,-0.633857,3.566,4.29681
-2.30024,-0.633857,3.566,4.2906
-2.26491,-0.62728,3.529,4.23995
-2.23047,-0.620881,3.493,4.19065
-2.21914,-0.620881,3.493,4.18463
-2.18568,-0.61466,3.458,4.13676
-2.17445,-0.61466,3.458,4.13084
-2.16323,-0.61466,3.458,4.12494
-2.13022,-0.608439,3.423,4.07737
-2.11911,-0.608439,3.423,4.07158
-2.108,-0.608439,3.423,4.06581
-2.09689,-0.608439,3.423,4.06006
-2.06506,-0.602395,3.389,4.01406
-2.03406,-0.59653,3.356,3.96938
-2.02317,-0.59653,3.356,3.96381
-2.01228,-0.59653,3.356,3.95826
nan,nan,nan,NaN
nan,nan,nan,NaN
nan,nan,nan,NaN
nan,nan,nan,NaN
nan,nan,nan,NaN
nan,nan,nan,NaN
nan,nan,nan,NaN
nan,nan,nan,NaN
nan,nan,nan,NaN
nan,nan,nan,NaN
nan,nan,nan,NaN
nan,nan,nan,NaN
nan,nan,nan,NaN
nan,nan,nan,NaN
nan,nan,nan,NaN
nan,nan,nan,NaN
nan,nan,nan,NaN
nan,nan,nan,NaN
nan,nan,nan,NaN
nan,nan,nan,NaN
nan,nan,nan,NaN
nan,nan,nan,NaN
nan,nan,nan,NaN
nan,nan,nan,NaN
nan,nan,nan,NaN
nan,nan,nan,NaN
nan,nan,nan,NaN
nan,nan,nan,NaN
nan,nan,nan,NaN
nan,nan,nan,NaN
nan,nan,nan,NaN
nan,nan,nan,NaN
nan,nan,nan,NaN
nan,nan,nan,NaN
nan,nan,nan,NaN
-1.12435,-0.41398,2.329,2.61912
-1.11679,-0.41398,2.329,2.61588
-1.10923,-0.41398,2.329,2.61266
-1.10167,-0.41398,2.329,2.60946
-1.09411,-0.41398,2.329,2.60628
-1.08655,-0.41398,2.329,2.60312
-1.07899,-0.41398,2.329,2.59997
-1.06407,-0.411136,2.313,2.579
-1.05656,-0.411136,2.313,2.57591
-1.04905,-0.411136,2.313,2.57284
-1.04155,-0.411136,2.313,2.56979
-1.03404,-0.411136,2.313,2.56676
-1.02653,-0.411136,2.313,2.56374
-1.01902,-0.411136,2.313,2.56074
-1.01152,-0.411136,2.313,2.55777
-1.00401,-0.411136,2.313,2.55481
-0.996502,-0.411136,2.313,2.55187
-0.988995,-0.411136,2.313,2.54894
-0.981488,-0.411136,2.313,2.54604
-0.97398,-0.411136,2.313,2.54316
-0.966473,-0.411136,2.313,2.54029
-0.958965,-0.411136,2.313,2.53744
-0.951458,-0.411136,2.313,2.53462
-0.943951,-0.411136,2.313,2.53181
-0.942921,-0.41398,2.329,2.54651
-0.935362,-0.41398,2.329,2.54372
-0.927802,-0.41398,2.329,2.54095
-0.920243,-0.41398,2.329,2.5382
-0.918953,-0.416824,2.345,2.55289
-0.911342,-0.416824,2.345,2.55016
-0.903731,-0.416824,2.345,2.54745
-0.89612,-0.416824,2.345,2.54476
-0.888508,-0.416824,2.345,2.54209
-0.880897,-0.416824,2.345,2.53944
-0.873286,-0.416824,2.345,2.53681
-0.865674,-0.416824,2.345,2.5342
-0.858063,-0.416824,2.345,2.53161
-0.856255,-0.419668,2.361,2.54629
-0.848591,-0.419668,2.361,2.54373
-0.840928,-0.419668,2.361,2.54118
-0.833265,-0.419668,2.361,2.53866
-0.825602,-0.419668,2.361,2.53615
-0.817938,-0.419668,2.361,2.53367
-0.810275,-0.419668,2.361,2.5312
-0.808051,-0.422512,2.377,2.5459
-0.800336,-0.422512,2.377,2.54346
-0.792621,-0.422512,2.377,2.54104
-0.784906,-0.422512,2.377,2.53865
-0.777191,-0.422512,2.377,2.53627
-0.769475,-0.422512,2.377,2.53392
-0.76176,-0.422512,2.377,2.53159
-0.754045,-0.422512,2.377,2.52927
-0.74633,-0.422512,2.377,2.52699
-0.738615,-0.422512,2.377,2.52472
-0.736127,-0.425534,2.394,2.54051
-0.728357,-0.425534,2.394,2.53827
-0.720586,-0.425534,2.394,2.53605
-0.717878,-0.428556,2.411,2.55185
-0.710052,-0.428556,2.411,2.54966
-0.702227,-0.428556,2.411,2.54749
-0.694401,-0.428556,2.411,2.54534
-0.691417,-0.431577,2.428,2.56115
-0.683536,-0.431577,2.428,2.55904
-0.675655,-0.431577,2.428,2.55694
-0.667775,-0.431577,2.428,2.55487
-0.659894,-0.431577,2.428,2.55282
-0.656578,-0.434599,2.445,2.56866
-0.648643,-0.434599,2.445,2.56664
-0.640707,-0.434599,2.445,2.56465
-0.632771,-0.434599,2.445,2.56267
-0.624835,-0.434599,2.445,2.56073
-0.616899,-0.434599,2.445,2.5588
-0.608963,-0.434599,2.445,2.5569
-0.601027,-0.434599,2.445,2.55502
-0.593092,-0.434599,2.445,2.55317
-0.585156,-0.434599,2.445,2.55133
-0.57722,-0.434599,2.445,2.54953
-0.569284,-0.434599,2.445,2.54774
-0.557445,-0.431577,2.428,2.52828
-0.549564,-0.431577,2.428,2.52655
-0.541684,-0.431577,2.428,2.52485
-0.530066,-0.428556,2.411,2.5055
-0.52224,-0.428556,2.411,2.50386
-0.514415,-0.428556,2.411,2.50224
-0.506589,-0.428556,2.411,2.50064
-0.495247,-0.425534,2.394,2.48145
-0.487476,-0.425534,2.394,2.47991
-0.479706,-0.425534,2.394,2.47839
-0.471936,-0.425534,2.394,2.4769
-0.464165,-0.425534,2.394,2.47543
-0.456395,-0.425534,2.394,2.47399
-0.448625,-0.425534,2.394,2.47257
-0.440854,-0.425534,2.394,2.47117
-0.433084,-0.425534,2.394,2.46979
-0.425314,-0.425534,2.394,2.46844
-0.417543,-0.425534,2.394,2.46712
-0.412683,-0.428556,2.411,2.48332
-0.404857,-0.428556,2.411,2.48203
-0.397032,-0.428556,2.411,2.48077
-0.389206,-0.428556,2.411,2.47953
-0.381381,-0.428556,2.411,2.47831
-0.373555,-0.428556,2.411,2.47712
-0.368309,-0.431577,2.428,2.49341
-0.360428,-0.431577,2.428,2.49226
-0.355016,-0.434599,2.445,2.50857
-0.34708,-0.434599,2.445,2.50746
-0.339144,-0.434599,2.445,2.50638
-0.331208,-0.434599,2.445,2.50531
-0.323272,-0.434599,2.445,2.50428
-0.315336,-0.434599,2.445,2.50327
-0.3074,-0.434599,2.445,2.50228
-0.299465,-0.434599,2.445,2.50132
-0.291529,-0.434599,2.445,2.50038
-0.283593,-0.434599,2.445,2.49947
-0.275657,-0.434599,2.445,2.49858
-0.269692,-0.437799,2.463,2.5161
-0.261698,-0.437799,2.463,2.51526
-0.253704,-0.437799,2.463,2.51444
-0.243914,-0.434599,2.445,2.49527
-0.235978,-0.434599,2.445,2.49451
-0.228042,-0.434599,2.445,2.49377
-0.220106,-0.434599,2.445,2.49306
-0.21217,-0.434599,2.445,2.49237
-0.204234,-0.434599,2.445,2.49171
-0.196298,-0.434599,2.445,2.49107
-0.188363,-0.434599,2.445,2.49046
-0.180427,-0.434599,2.445,2.48987
-0.172491,-0.434599,2.445,2.48931
-0.164555,-0.434599,2.445,2.48877
-0.156619,-0.434599,2.445,2.48826
-0.148683,-0.434599,2.445,2.48777
-0.140747,-0.434599,2.445,2.48731
-0.132812,-0.434599,2.445,2.48687
-0.124876,-0.434599,2.445,2.48646
-0.11694,-0.434599,2.445,2.48608
-0.109004,-0.434599,2.445,2.48572
-0.101812,-0.437799,2.463,2.50368
-0.0938178,-0.437799,2.463,2.50337
-0.0858236,-0.437799,2.463,2.50308
-0.0778293,-0.437799,2.463,2.50282
-0.069835,-0.437799,2.463,2.50258
-0.0618407,-0.437799,2.463,2.50237
-0.0538464,-0.437799,2.463,2.50219
-0.0461872,-0.440998,2.481,2.52031
-0.0381345,-0.440998,2.481,2.52018
-0.0300818,-0.440998,2.481,2.52007
-0.0220291,-0.440998,2.481,2.51999
-0.0139764,-0.440998,2.481,2.51993
-0.00592366,-0.440998,2.481,2.5199
0.00212905,-0.440998,2.481,2.51989
0.0101818,-0.440998,2.481,2.51991
0.0182345,-0.440998,2.481,2.51996
0.0260965,-0.437799,2.463,2.50174
0.0340907,-0.437799,2.463,2.50184
0.042085,-0.437799,2.463,2.50196
0.0500793,-0.437799,2.463,2.50211
0.0580736,-0.437799,2.463,2.50228
0.0660679,-0.437799,2.463,2.50248
0.0740622,-0.437799,2.463,2.5027
0.0820565,-0.437799,2.463,2.50295
0.0900507,-0.437799,2.463,2.50323
0.098045,-0.437799,2.463,2.50353
0.106039,-0.437799,2.463,2.50385
0.114034,-0.437799,2.463,2.5042
0.122028,-0.437799,2.463,2.50458
0.130022,-0.437799,2.463,2.50498
0.138016,-0.437799,2.463,2.50541
0.146011,-0.437799,2.463,2.50586
0.154005,-0.437799,2.463,2.50634
0.161999,-0.437799,2.463,2.50685
0.169994,-0.437799,2.463,2.50738
0.179289,-0.440998,2.481,2.52626
0.187341,-0.440998,2.481,2.52684
0.195394,-0.440998,2.481,2.52745
0.203447,-0.440998,2.481,2.52809
0.2115,-0.440998,2.481,2.52875
0.219552,-0.440998,2.481,2.52944
0.227605,-0.440998,2.481,2.53015
0.235658,-0.440998,2.481,2.53088
0.24371,-0.440998,2.481,2.53165
0.251763,-0.440998,2.481,2.53243
0.259816,-0.440998,2.481,2.53325
0.267868,-0.440998,2.481,2.53409
0.275921,-0.440998,2.481,2.53495
0.283974,-0.440998,2.481,2.53584
0.292027,-0.440998,2.481,2.53675
0.300079,-0.440998,2.481,2.53769
0.308132,-0.440998,2.481,2.53866
0.316185,-0.440998,2.481,2.53965
0.324237,-0.440998,2.481,2.54066
0.33229,-0.440998,2.481,2.5417
0.340343,-0.440998,2.481,2.54277
0.348396,-0.440998,2.481,2.54386
0.356448,-0.440998,2.481,2.54497
0.367146,-0.444198,2.499,2.56459
0.375257,-0.444198,2.499,2.56576
0.383368,-0.444198,2.499,2.56696
0.391479,-0.444198,2.499,2.56818
0.39959,-0.444198,2.499,2.56943
0.407701,-0.444198,2.499,2.57071
0.415812,-0.444198,2.499,2.57201
0.423923,-0.444198,2.499,2.57333
0.432035,-0.444198,2.499,2.57468
0.440146,-0.444198,2.499,2.57605
0.448257,-0.444198,2.499,2.57745
0.456368,-0.444198,2.499,2.57887
0.464479,-0.444198,2.499,2.58032
0.469186,-0.440998,2.481,2.5632
0.477239,-0.440998,2.481,2.56468
0.485292,-0.440998,2.481,2.56619
0.493344,-0.440998,2.481,2.56773
0.501397,-0.440998,2.481,2.56929
0.50945,-0.440998,2.481,2.57087
0.517502,-0.440998,2.481,2.57248
0.525555,-0.440998,2.481,2.57411
0.533608,-0.440998,2.481,2.57577
0.541661,-0.440998,2.481,2.57745
0.549713,-0.440998,2.481,2.57915
0.561813,-0.444198,2.499,2.59961
0.569924,-0.444198,2.499,2.60137
0.578035,-0.444198,2.499,2.60316
0.586146,-0.444198,2.499,2.60497
0.594257,-0.444198,2.499,2.60681
0.602368,-0.444198,2.499,2.60867
0.610479,-0.444198,2.499,2.61056
0.618591,-0.444198,2.499,2.61246
0.626702,-0.444198,2.499,2.6144
0.634813,-0.444198,2.499,2.61635
0.642924,-0.444198,2.499,2.61833
0.646346,-0.440998,2.481,2.60146
0.654399,-0.440998,2.481,2.60347
0.662451,-0.440998,2.481,2.60551
0.670504,-0.440998,2.481,2.60757
0.678557,-0.440998,2.481,2.60965
0.686609,-0.440998,2.481,2.61176
0.694662,-0.440998,2.481,2.61389
0.697617,-0.437799,2.463,2.59706
0.705611,-0.437799,2.463,2.59922
0.713605,-0.437799,2.463,2.6014
0.721599,-0.437799,2.463,2.6036
0.729594,-0.437799,2.463,2.60583
0.737588,-0.437799,2.463,2.60808
0.745582,-0.437799,2.463,2.61035
0.748069,-0.434599,2.445,2.59355
0.756005,-0.434599,2.445,2.59585
0.763941,-0.434599,2.445,2.59817
0.771877,-0.434599,2.445,2.60052
0.774391,-0.431577,2.428,2.58479
0.782271,-0.431577,2.428,2.58716
0.790152,-0.431577,2.428,2.58955
0.798033,-0.431577,2.428,2.59197
0.805913,-0.431577,2.428,2.59441
0.813794,-0.431577,2.428,2.59686
0.815922,-0.428556,2.411,2.58115
0.823747,-0.428556,2.411,2.58363
0.831573,-0.428556,2.411,2.58613
0.83348,-0.425534,2.394,2.57041
0.84125,-0.425534,2.394,2.57294
0.84902,-0.425534,2.394,2.57549
0.856791,-0.425534,2.394,2.57806
0.858422,-0.422512,2.377,2.56233
0.866137,-0.422512,2.377,2.56492
0.86797,-0.419668,2.361,2.55026
0.875633,-0.419668,2.361,2.55288
0.889282,-0.422512,2.377,2.57283
0.89096,-0.419668,2.361,2.55817
0.898623,-0.419668,2.361,2.56085
0.906286,-0.419668,2.361,2.56355
0.907756,-0.416824,2.345,2.54888
0.915367,-0.416824,2.345,2.5516
0.922978,-0.416824,2.345,2.55434
0.930589,-0.416824,2.345,2.5571
nan,nan,nan,NaN
nan,nan,nan,NaN
nan,nan,nan,NaN
nan,nan,nan,NaN
nan,nan,nan,NaN
nan,nan,nan,NaN
nan,nan,nan,NaN
nan,nan,nan,NaN
nan,nan,nan,NaN
nan,nan,nan,NaN
nan,nan,nan,NaN
nan,nan,nan,NaN
nan,nan,nan,NaN
nan,nan,nan,NaN
1.41232,-0.563468,3.17,3.51583
1.42261,-0.563468,3.17,3.51997
1.4329,-0.563468,3.17,3.52414
1.42998,-0.558313,3.141,3.49606
1.44018,-0.558313,3.141,3.50024
1.45037,-0.558313,3.141,3.50445
1.46057,-0.558313,3.141,3.50868
1.48434,-0.563468,3.17,3.54537
1.49463,-0.563468,3.17,3.54969
1.49115,-0.558313,3.141,3.52152
1.50135,-0.558313,3.141,3.52585
1.49759,-0.553158,3.112,3.49761
1.50769,-0.553158,3.112,3.50195
1.51779,-0.553158,3.112,3.50631
1.52789,-0.553158,3.112,3.51069
1.53799,-0.553158,3.112,3.5151
1.54809,-0.553158,3.112,3.51953
1.57271,-0.558313,3.141,3.55683
1.58291,-0.558313,3.141,3.56135
1.5931,-0.558313,3.141,3.56589
1.58849,-0.553158,3.112,3.53749
1.59859,-0.553158,3.112,3.54204
1.60869,-0.553158,3.112,3.54661
1.6188,-0.553158,3.112,3.5512
nan,nan,nan,NaN
nan,nan,nan,NaN
nan,nan,nan,NaN
nan,nan,nan,NaN
nan,nan,nan,NaN
1.96542,-0.647366,3.642,4.18881
1.97724,-0.647366,3.642,4.19437
1.98906,-0.647366,3.642,4.19995
2.00088,-0.647366,3.642,4.20556
1.9917,-0.640612,3.604,4.16726
2.0034,-0.640612,3.604,4.17286
2.0151,-0.640612,3.604,4.17849
2.00542,-0.633857,3.566,4.14003
1.99607,-0.62728,3.529,4.10264
2.00752,-0.62728,3.529,4.10822
1.99838,-0.620881,3.493,4.07186
2.00972,-0.620881,3.493,4.07744
2.02106,-0.620881,3.493,4.08304
2.03239,-0.620881,3.493,4.08866
2.02325,-0.61466,3.458,4.05329
2.03448,-0.61466,3.458,4.0589
2.0457,-0.61466,3.458,4.06454
2.03611,-0.608439,3.423,4.029
2.02688,-0.602395,3.389,3.99455
2.03788,-0.602395,3.389,4.00014
2.02893,-0.59653,3.356,3.96675
2.02037,-0.590842,3.324,3.93446
2.03116,-0.590842,3.324,3.94001
2.02229,-0.585154,3.292,3.9076
1.99469,-0.574133,3.23,3.83944
2.00517,-0.574133,3.23,3.8449
1.96012,-0.558313,3.141,3.74428
1.91762,-0.543382,3.057,3.64935
1.92754,-0.543382,3.057,3.65458
1.88676,-0.529162,2.977,3.56404
1.86394,-0.520097,2.926,3.50802
1.87343,-0.520097,2.926,3.51308
1.83595,-0.507121,2.853,3.43038
1.81482,-0.498767,2.806,3.37875
1.82392,-0.498767,2.806,3.38365
1.80364,-0.490768,2.761,3.33423
1.78371,-0.482947,2.717,3.28587
1.79253,-0.482947,2.717,3.29067
1.7735,-0.475482,2.675,3.24454
1.76819,-0.471749,2.654,3.22378
1.77681,-0.471749,2.654,3.22852
1.78542,-0.471749,2.654,3.23326
1.79404,-0.471749,2.654,3.23803
1.78839,-0.468016,2.633,3.21715
-2.63896,-0.663818,3.804,4.67709
-2.59761,-0.656489,3.762,4.61857
-2.5854,-0.656489,3.762,4.61172
-2.57319,-0.656489,3.762,4.60488
-2.53307,-0.649334,3.721,4.54796
-2.52099,-0.649334,3.721,4.54124
-2.48194,-0.642354,3.681,4.4858
-2.44383,-0.635548,3.642,4.43175
-2.43201,-0.635548,3.642,4.42524
-2.42019,-0.635548,3.642,4.41875
-2.40836,-0.635548,3.642,4.41229
-2.39654,-0.635548,3.642,4.40585
-2.35984,-0.628917,3.604,4.35353
-2.34814,-0.628917,3.604,4.3472
-2.31181,-0.622286,3.566,4.29512
-2.30024,-0.622286,3.566,4.2889
-2.26491,-0.615829,3.529,4.23827
-2.25346,-0.615829,3.529,4.23216
-2.24201,-0.615829,3.529,4.22607
-2.2078,-0.609547,3.493,4.17696
-2.17445,-0.603439,3.458,4.12918
-2.16323,-0.603439,3.458,4.12328
-2.13022,-0.597332,3.423,4.07573
-2.11911,-0.597332,3.423,4.06993
-2.108,-0.597332,3.423,4.06416
-2.09689,-0.597332,3.423,4.05841
-2.06506,-0.591399,3.389,4.01243
-2.03406,-0.58564,3.356,3.96776
-2.02317,-0.58564,3.356,3.96219
-2.01228,-0.58564,3.356,3.95664
nan,nan,nan,NaN
nan,nan,nan,NaN
nan,nan,nan,NaN
nan,nan,nan,NaN
nan,nan,nan,NaN
nan,nan,nan,NaN
nan,nan,nan,NaN
nan,nan,nan,NaN
nan,nan,nan,NaN
nan,nan,nan,NaN
nan,nan,nan,NaN
nan,nan,nan,NaN
nan,nan,nan,NaN
nan,nan,nan,NaN
nan,nan,nan,NaN
nan,nan,nan,NaN
nan,nan,nan,NaN
nan,nan,nan,NaN
nan,nan,nan,NaN
nan,nan,nan,NaN
nan,nan,nan,NaN
nan,nan,nan,NaN
nan,nan,nan,NaN
nan,nan,nan,NaN
nan,nan,nan,NaN
nan,nan,nan,NaN
nan,nan,nan,NaN
nan,nan,nan,NaN
nan,nan,nan,NaN
nan,nan,nan,NaN
nan,nan,nan,NaN
nan,nan,nan,NaN
nan,nan,nan,NaN
nan,nan,nan,NaN
-1.1319,-0.406423,2.329,2.62119
-1.12435,-0.406423,2.329,2.61793
-1.11679,-0.406423,2.329,2.6147
-1.10923,-0.406423,2.329,2.61148
-1.10167,-0.406423,2.329,2.60827
-1.09411,-0.406423,2.329,2.60509
-1.08655,-0.406423,2.329,2.60192
-1.07899,-0.406423,2.329,2.59878
-1.06407,-0.403631,2.313,2.57782
-1.05656,-0.403631,2.313,2.57473
-1.04905,-0.403631,2.313,2.57165
-1.04155,-0.403631,2.313,2.5686
-1.03404,-0.403631,2.313,2.56557
-1.02653,-0.403631,2.313,2.56255
-1.01902,-0.403631,2.313,2.55955
-1.01152,-0.403631,2.313,2.55657
-0.997499,-0.401013,2.298,2.53705
-0.99004,-0.401013,2.298,2.53413
-0.982581,-0.401013,2.298,2.53122
-0.981488,-0.403631,2.313,2.54484
-0.97398,-0.403631,2.313,2.54195
-0.966473,-0.403631,2.313,2.53909
-0.958965,-0.403631,2.313,2.53624
-0.951458,-0.403631,2.313,2.53341
-0.943951,-0.403631,2.313,2.5306
-0.936443,-0.403631,2.313,2.52781
-0.928936,-0.403631,2.313,2.52504
-0.927802,-0.406423,2.329,2.53973
-0.920243,-0.406423,2.329,2.53698
-0.912683,-0.406423,2.329,2.53425
-0.905124,-0.406423,2.329,2.53154
-0.897565,-0.406423,2.329,2.52884
-0.89612,-0.409215,2.345,2.54352
-0.888508,-0.409215,2.345,2.54085
-0.880897,-0.409215,2.345,2.5382
-0.873286,-0.409215,2.345,2.53557
-0.865674,-0.409215,2.345,2.53296
-0.858063,-0.409215,2.345,2.53037
-0.856255,-0.412007,2.361,2.54504
-0.848591,-0.412007,2.361,2.54247
-0.840928,-0.412007,2.361,2.53993
-0.833265,-0.412007,2.361,2.5374
-0.825602,-0.412007,2.361,2.53489
-0.817938,-0.412007,2.361,2.53241
-0.810275,-0.412007,2.361,2.52994
-0.808051,-0.414799,2.377,2.54463
-0.800336,-0.414799,2.377,2.54219
-0.792621,-0.414799,2.377,2.53977
-0.784906,-0.414799,2.377,2.53737
-0.777191,-0.414799,2.377,2.535
-0.769475,-0.414799,2.377,2.53264
-0.76176,-0.414799,2.377,2.53031
-0.754045,-0.414799,2.377,2.528
-0.74633,-0.414799,2.377,2.52571
-0.738615,-0.414799,2.377,2.52344
-0.736127,-0.417766,2.394,2.53922
-0.728357,-0.417766,2.394,2.53698
-0.720586,-0.417766,2.394,2.53476
-0.717878,-0.420732,2.411,2.55055
-0.710052,-0.420732,2.411,2.54835
-0.702227,-0.420732,2.411,2.54619
-0.694401,-0.420732,2.411,2.54404
-0.691417,-0.423699,2.428,2.55984
-0.683536,-0.423699,2.428,2.55772
-0.675655,-0.423699,2.428,2.55562
-0.667775,-0.423699,2.428,2.55355
-0.659894,-0.423699,2.428,2.5515
-0.656578,-0.426666,2.445,2.56733
-0.648643,-0.426666,2.445,2.56531
-0.640707,-0.426666,2.445,2.56331
-0.632771,-0.426666,2.445,2.56134
-0.624835,-0.426666,2.445,2.55939
-0.616899,-0.426666,2.445,2.55747
-0.608963,-0.426666,2.445,2.55556
-0.601027,-0.426666,2.445,2.55368
-0.593092,-0.426666,2.445,2.55183
-0.585156,-0.426666,2.445,2.55
-0.57722,-0.426666,2.445,2.54819
-0.569284,-0.426666,2.445,2.5464
-0.561348,-0.426666,2.445,2.54464
-0.549564,-0.423699,2.428,2.52522
-0.541684,-0.423699,2.428,2.52351
-0.533803,-0.423699,2.428,2.52183
-0.52224,-0.420732,2.411,2.50253
-0.514415,-0.420732,2.411,2.50091
-0.506589,-0.420732,2.411,2.49931
-0.495247,-0.417766,2.394,2.48013
-0.487476,-0.417766,2.394,2.47859
-0.479706,-0.417766,2.394,2.47707
-0.471936,-0.417766,2.394,2.47558
-0.464165,-0.417766,2.394,2.47411
-0.456395,-0.417766,2.394,2.47266
-0.448625,-0.417766,2.394,2.47124
-0.440854,-0.417766,2.394,2.46984
-0.433084,-0.417766,2.394,2.46847
-0.425314,-0.417766,2.394,2.46711
-0.417543,-0.417766,2.394,2.46579
-0.412683,-0.420732,2.411,2.48198
-0.404857,-0.420732,2.411,2.48069
-0.397032,-0.420732,2.411,2.47943
-0.389206,-0.420732,2.411,2.47819
-0.381381,-0.420732,2.411,2.47697
-0.373555,-0.420732,2.411,2.47578
-0.368309,-0.423699,2.428,2.49206
-0.360428,-0.423699,2.428,2.49091
-0.355016,-0.426666,2.445,2.50721
-0.34708,-0.426666,2.445,2.5061
-0.339144,-0.426666,2.445,2.50501
-0.331208,-0.426666,2.445,2.50395
-0.323272,-0.426666,2.445,2.50291
-0.315336,-0.426666,2.445,2.5019
-0.3074,-0.426666,2.445,2.50091
-0.299465,-0.426666,2.445,2.49995
-0.291529,-0.426666,2.445,2.49901
-0.283593,-0.426666,2.445,2.4981
-0.275657,-0.426666,2.445,2.49721
-0.267721,-0.426666,2.445,2.49635
-0.259785,-0.426666,2.445,2.49551
-0.251849,-0.426666,2.445,2.49469
-0.243914,-0.426666,2.445,2.49391
-0.235978,-0.426666,2.445,2.49314
-0.228042,-0.426666,2.445,2.4924
-0.220106,-0.426666,2.445,2.49169
-0.21217,-0.426666,2.445,2.491
-0.204234,-0.426666,2.445,2.49034
-0.196298,-0.426666,2.445,2.4897
-0.188363,-0.426666,2.445,2.48909
-0.180427,-0.426666,2.445,2.4885
-0.172491,-0.426666,2.445,2.48794
-0.164555,-0.426666,2.445,2.4874
-0.156619,-0.426666,2.445,2.48689
-0.148683,-0.426666,2.445,2.4864
-0.140747,-0.426666,2.445,2.48594
-0.132812,-0.426666,2.445,2.4855
-0.124876,-0.426666,2.445,2.48509
-0.11694,-0.426666,2.445,2.4847
-0.109004,-0.426666,2.445,2.48434
-0.101812,-0.429807,2.463,2.50229
-0.0938178,-0.429807,2.463,2.50198
-0.0858236,-0.429807,2.463,2.50169
-0.0778293,-0.429807,2.463,2.50143
-0.069835,-0.429807,2.463,2.5012
-0.0618407,-0.429807,2.463,2.50099
-0.0538464,-0.429807,2.463,2.5008
-0.0458521,-0.429807,2.463,2.50064
-0.0378578,-0.429807,2.463,2.50051
-0.0300818,-0.432948,2.481,2.51867
-0.0220291,-0.432948,2.481,2.51859
-0.0139764,-0.432948,2.481,2.51853
-0.00592366,-0.432948,2.481,2.5185
0.00212905,-0.432948,2.481,2.51849
0.0101818,-0.432948,2.481,2.51851
0.0182345,-0.432948,2.481,2.51856
0.0260965,-0.429807,2.463,2.50036
0.0340907,-0.429807,2.463,2.50045
0.042085,-0.429807,2.463,2.50057
0.0500793,-0.429807,2.463,2.50072
0.0580736,-0.429807,2.463,2.5009
0.0660679,-0.429807,2.463,2.50109
0.0740622,-0.429807,2.463,2.50132
0.0820565,-0.429807,2.463,2.50157
0.0900507,-0.429807,2.463,2.50184
0.098045,-0.429807,2.463,2.50214
0.105264,-0.426666,2.445,2.48418
0.1132,-0.426666,2.445,2.48453
0.121136,-0.426666,2.445,2.4849
0.130022,-0.429807,2.463,2.5036
0.138016,-0.429807,2.463,2.50403
0.146011,-0.429807,2.463,2.50448
0.154005,-0.429807,2.463,2.50496
0.161999,-0.429807,2.463,2.50546
0.169994,-0.429807,2.463,2.50599
0.179289,-0.432948,2.481,2.52487
0.187341,-0.432948,2.481,2.52545
0.195394,-0.432948,2.481,2.52606
0.203447,-0.432948,2.481,2.5267
0.209965,-0.429807,2.463,2.50902
0.217959,-0.429807,2.463,2.5097
0.225954,-0.429807,2.463,2.51041
0.233948,-0.429807,2.463,2.51114
0.241942,-0.429807,2.463,2.5119
0.249936,-0.429807,2.463,2.51268
0.257931,-0.429807,2.463,2.51349
0.265925,-0.429807,2.463,2.51432
0.273919,-0.429807,2.463,2.51518
0.283974,-0.432948,2.481,2.53445
0.292027,-0.432948,2.481,2.53537
0.300079,-0.432948,2.481,2.53631
0.305896,-0.429807,2.463,2.51886
0.313891,-0.429807,2.463,2.51985
0.321885,-0.429807,2.463,2.52086
0.329879,-0.429807,2.463,2.52189
0.337874,-0.429807,2.463,2.52295
0.348396,-0.432948,2.481,2.54248
0.356448,-0.432948,2.481,2.54359
0.364501,-0.432948,2.481,2.54473
0.372554,-0.432948,2.481,2.5459
0.380606,-0.432948,2.481,2.54709
0.388659,-0.432948,2.481,2.54831
0.396712,-0.432948,2.481,2.54955
0.404765,-0.432948,2.481,2.55081
0.412817,-0.432948,2.481,2.5521
0.42087,-0.432948,2.481,2.55342
0.428923,-0.432948,2.481,2.55476
0.436975,-0.432948,2.481,2.55612
0.445028,-0.432948,2.481,2.55751
0.453081,-0.432948,2.481,2.55892
0.461134,-0.432948,2.481,2.56036
0.469186,-0.432948,2.481,2.56182
0.473776,-0.429807,2.463,2.54471
0.481771,-0.429807,2.463,2.54621
0.489765,-0.429807,2.463,2.54774
0.497759,-0.429807,2.463,2.54929
0.505754,-0.429807,2.463,2.55086
0.513748,-0.429807,2.463,2.55246
0.521742,-0.429807,2.463,2.55408
0.529737,-0.429807,2.463,2.55572
0.537731,-0.429807,2.463,2.55739
0.549713,-0.432948,2.481,2.57779
0.557766,-0.432948,2.481,2.57952
0.565819,-0.432948,2.481,2.58127
0.573871,-0.432948,2.481,2.58305
0.581924,-0.432948,2.481,2.58485
0.589977,-0.432948,2.481,2.58667
0.59803,-0.432948,2.481,2.58852
0.606082,-0.432948,2.481,2.59039
0.614135,-0.432948,2.481,2.59229
0.622188,-0.432948,2.481,2.59421
0.63024,-0.432948,2.481,2.59615
0.638293,-0.432948,2.481,2.59812
0.646346,-0.432948,2.481,2.60011
0.654399,-0.432948,2.481,2.60212
0.662451,-0.432948,2.481,2.60416
0.670504,-0.432948,2.481,2.60622
0.673634,-0.429807,2.463,2.58938
0.681628,-0.429807,2.463,2.59147
0.689622,-0.429807,2.463,2.59358
0.697617,-0.429807,2.463,2.59572
0.705611,-0.429807,2.463,2.59788
0.713605,-0.429807,2.463,2.60006
0.721599,-0.429807,2.463,2.60227
0.729594,-0.429807,2.463,2.6045
0.737588,-0.429807,2.463,2.60675
0.745582,-0.429807,2.463,2.60902
0.748069,-0.426666,2.445,2.59223
0.756005,-0.426666,2.445,2.59454
0.763941,-0.426666,2.445,2.59686
0.771877,-0.426666,2.445,2.5992
0.774391,-0.423699,2.428,2.58348
0.782271,-0.423699,2.428,2.58586
0.790152,-0.423699,2.428,2.58825
0.798033,-0.423699,2.428,2.59067
0.805913,-0.423699,2.428,2.59311
0.813794,-0.423699,2.428,2.59557
0.815922,-0.420732,2.411,2.57986
0.823747,-0.420732,2.411,2.58234
0.831573,-0.420732,2.411,2.58485
0.839398,-0.420732,2.411,2.58738
0.847224,-0.420732,2.411,2.58993
0.84902,-0.417766,2.394,2.57422
0.856791,-0.417766,2.394,2.57679
0.858422,-0.414799,2.377,2.56107
0.866137,-0.414799,2.377,2.56367
0.86797,-0.412007,2.361,2.54901
0.875633,-0.412007,2.361,2.55163
0.889282,-0.414799,2.377,2.57158
0.89096,-0.412007,2.361,2.55693
0.898623,-0.412007,2.361,2.55961
0.906286,-0.412007,2.361,2.56231
0.913949,-0.412007,2.361,2.56503
0.921612,-0.412007,2.361,2.56777
0.929276,-0.412007,2.361,2.57053
0.936939,-0.412007,2.361,2.57331
nan,nan,nan,NaN
nan,nan,nan,NaN
nan,nan,nan,NaN
nan,nan,nan,NaN
nan,nan,nan,NaN
nan,nan,nan,NaN
nan,nan,nan,NaN
nan,nan,nan,NaN
nan,nan,nan,NaN
nan,nan,nan,NaN
nan,nan,nan,NaN
nan,nan,nan,NaN
nan,nan,nan,NaN
nan,nan,nan,NaN
1.41232,-0.553182,3.17,3.51419
1.42261,-0.553182,3.17,3.51834
1.4329,-0.553182,3.17,3.52251
1.42998,-0.548121,3.141,3.49445
1.44018,-0.548121,3.141,3.49863
1.45037,-0.548121,3.141,3.50284
1.46057,-0.548121,3.141,3.50707
1.48434,-0.553182,3.17,3.54375
1.49463,-0.553182,3.17,3.54807
1.49115,-0.548121,3.141,3.51992
1.50135,-0.548121,3.141,3.52425
1.49759,-0.543061,3.112,3.49603
1.50769,-0.543061,3.112,3.50037
1.51779,-0.543061,3.112,3.50473
1.52789,-0.543061,3.112,3.50912
1.53799,-0.543061,3.112,3.51353
1.54809,-0.543061,3.112,3.51796
1.55819,-0.543061,3.112,3.52242
1.56829,-0.543061,3.112,3.5269
1.57839,-0.543061,3.112,3.5314
1.58849,-0.543061,3.112,3.53593
1.59859,-0.543061,3.112,3.54047
1.60869,-0.543061,3.112,3.54505
1.6188,-0.543061,3.112,3.54964
1.72311,-0.574472,3.292,3.75984
nan,nan,nan,NaN
nan,nan,nan,NaN
nan,nan,nan,NaN
nan,nan,nan,NaN
1.96542,-0.635548,3.642,4.187
1.97724,-0.635548,3.642,4.19256
1.98906,-0.635548,3.642,4.19815
2.00088,-0.635548,3.642,4.20376
1.9917,-0.628917,3.604,4.16548
2.0034,-0.628917,3.604,4.17109
2.0151,-0.628917,3.604,4.17672
2.00542,-0.622286,3.566,4.13827
1.99607,-0.615829,3.529,4.1009
2.00752,-0.615829,3.529,4.10649
1.99838,-0.609547,3.493,4.07015
2.00972,-0.609547,3.493,4.07573
2.02106,-0.609547,3.493,4.08133
2.03239,-0.609547,3.493,4.08696
2.02325,-0.603439,3.458,4.0516
2.03448,-0.603439,3.458,4.05722
2.0457,-0.603439,3.458,4.06286
2.03611,-0.597332,3.423,4.02734
2.02688,-0.591399,3.389,3.99291
2.03788,-0.591399,3.389,3.9985
2.02893,-0.58564,3.356,3.96513
2.02037,-0.580056,3.324,3.93285
2.03116,-0.580056,3.324,3.93841
2.02229,-0.574472,3.292,3.90601
1.99469,-0.563652,3.23,3.83789
2.00517,-0.563652,3.23,3.84335
1.96012,-0.548121,3.141,3.74278
1.91762,-0.533463,3.057,3.64789
1.92754,-0.533463,3.057,3.65312
1.88676,-0.519502,2.977,3.56262
1.86394,-0.510603,2.926,3.50663
1.87343,-0.510603,2.926,3.51169
1.83595,-0.497864,2.853,3.42902
1.81482,-0.489662,2.806,3.37742
1.82392,-0.489662,2.806,3.38232
1.80364,-0.481809,2.761,3.33292
1.76992,-0.470466,2.696,3.2592
1.77867,-0.470466,2.696,3.26396
1.7735,-0.466802,2.675,3.24328
1.76819,-0.463137,2.654,3.22253
1.77681,-0.463137,2.654,3.22727
1.78542,-0.463137,2.654,3.23202
1.77984,-0.459473,2.633,3.21117
1.78839,-0.459473,2.633,3.21592
-2.63896,-0.651475,3.804,4.67535
-2.59761,-0.644282,3.762,4.61685
-2.5854,-0.644282,3.762,4.60999
-2.57319,-0.644282,3.762,4.60316
-2.53307,-0.63726,3.721,4.54625
-2.52099,-0.63726,3.721,4.53953
-2.48194,-0.63041,3.681,4.48411
-2.44383,-0.623731,3.642,4.43007
-2.43201,-0.623731,3.642,4.42356
-2.42019,-0.623731,3.642,4.41707
-2.40836,-0.623731,3.642,4.4106
-2.39654,-0.623731,3.642,4.40416
-2.38472,-0.623731,3.642,4.39774
-2.34814,-0.617223,3.604,4.34552
-2.31181,-0.610715,3.566,4.29346
-2.30024,-0.610715,3.566,4.28724
-2.28866,-0.610715,3.566,4.28104
-2.25346,-0.604378,3.529,4.23051
-2.24201,-0.604378,3.529,4.22442
-2.2078,-0.598213,3.493,4.17532
-2.17445,-0.592219,3.458,4.12756
-2.16323,-0.592219,3.458,4.12166
-2.152,-0.592219,3.458,4.11578
-2.11911,-0.586225,3.423,4.06832
-2.08706,-0.580402,3.389,4.02219
-2.07606,-0.580402,3.389,4.01649
-2.06506,-0.580402,3.389,4.01082
-2.03406,-0.57475,3.356,3.96617
-2.02317,-0.57475,3.356,3.96059
-2.01228,-0.57475,3.356,3.95504
nan,nan,nan,NaN
nan,nan,nan,NaN
nan,nan,nan,NaN
nan,nan,nan,NaN
nan,nan,nan,NaN
nan,nan,nan,NaN
nan,nan,nan,NaN
nan,nan,nan,NaN
nan,nan,nan,NaN
nan,nan,nan,NaN
nan,nan,nan,NaN
nan,nan,nan,NaN
nan,nan,nan,NaN
nan,nan,nan,NaN
nan,nan,nan,NaN
nan,nan,nan,NaN
nan,nan,nan,NaN
nan,nan,nan,NaN
nan,nan,nan,NaN
nan,nan,nan,NaN
nan,nan,nan,NaN
nan,nan,nan,NaN
nan,nan,nan,NaN
nan,nan,nan,NaN
nan,nan,nan,NaN
nan,nan,nan,NaN
nan,nan,nan,NaN
nan,nan,nan,NaN
nan,nan,nan,NaN
nan,nan,nan,NaN
nan,nan,nan,NaN
nan,nan,nan,NaN
nan,nan,nan,NaN
nan,nan,nan,NaN
-1.1319,-0.398866,2.329,2.62003
-1.12435,-0.398866,2.329,2.61677
-1.11679,-0.398866,2.329,2.61353
-1.10923,-0.398866,2.329,2.61031
-1.10167,-0.398866,2.329,2.60711
-1.09411,-0.398866,2.329,2.60392
-1.08655,-0.398866,2.329,2.60075
-1.07899,-0.398866,2.329,2.59761
-1.06407,-0.396126,2.313,2.57665
-1.05656,-0.396126,2.313,2.57356
-1.04905,-0.396126,2.313,2.57049
-1.04155,-0.396126,2.313,2.56743
-1.03404,-0.396126,2.313,2.5644
-1.02653,-0.396126,2.313,2.56138
-1.01902,-0.396126,2.313,2.55838
-1.01152,-0.396126,2.313,2.5554
-0.997499,-0.393557,2.298,2.53588
-0.99004,-0.393557,2.298,2.53296
-0.982581,-0.393557,2.298,2.53005
-0.981488,-0.396126,2.313,2.54366
-0.97398,-0.396126,2.313,2.54077
-0.966473,-0.396126,2.313,2.5379
-0.958965,-0.396126,2.313,2.53505
-0.951458,-0.396126,2.313,2.53222
-0.943951,-0.396126,2.313,2.52941
-0.936443,-0.396126,2.313,2.52662
