1.91052,-0.46976,3.03,3.61271
1.87028,-0.457512,2.951,3.52359
1.84801,-0.44976,2.901,3.46889
1.85743,-0.44976,2.901,3.47392
1.83595,-0.442319,2.853,3.4214
1.81482,-0.435032,2.806,3.36993
1.82392,-0.435032,2.806,3.37485
1.81801,-0.431466,2.783,3.35207
1.8126,-0.428055,2.761,3.33044
1.82156,-0.428055,2.761,3.33533
1.81593,-0.424644,2.739,3.31362
1.81017,-0.421234,2.717,3.29184
1.81899,-0.421234,2.717,3.2967
1.8278,-0.421234,2.717,3.30157
1.82243,-0.417978,2.696,3.28091
1.83118,-0.417978,2.696,3.28578
-2.32817,-0.509412,3.356,4.11614
-2.31727,-0.509412,3.356,4.10999
-2.30638,-0.509412,3.356,4.10386
-2.29549,-0.509412,3.356,4.09774
-2.30706,-0.514421,3.389,4.13189
-2.29606,-0.514421,3.389,4.12575
-2.28506,-0.514421,3.389,4.11964
-2.25192,-0.509412,3.356,4.0735
-2.24102,-0.509412,3.356,4.06748
-2.23013,-0.509412,3.356,4.06149
-2.24106,-0.514421,3.389,4.0954
-2.25243,-0.519582,3.423,4.13042
-2.24132,-0.519582,3.423,4.12437
-2.23021,-0.519582,3.423,4.11834
-2.24179,-0.524895,3.458,4.15439
-2.23057,-0.524895,3.458,4.14834
-2.21935,-0.524895,3.458,4.14232
-2.20812,-0.524895,3.458,4.13631
-2.1969,-0.524895,3.458,4.13033
-2.18568,-0.524895,3.458,4.12437
-2.19646,-0.530208,3.493,4.16012
-2.18512,-0.530208,3.493,4.15415
-2.17379,-0.530208,3.493,4.14819
-2.14078,-0.524895,3.458,4.10076
-2.12956,-0.524895,3.458,4.09491
-2.11833,-0.524895,3.458,4.08908
-2.10711,-0.524895,3.458,4.08328
-2.07467,-0.519582,3.423,4.03623
-2.06356,-0.519582,3.423,4.03053
-2.05245,-0.519582,3.423,4.02485
-2.04134,-0.519582,3.423,4.0192
nan,nan,nan,NaN
nan,nan,nan,NaN
nan,nan,nan,NaN
nan,nan,nan,NaN
nan,nan,nan,NaN
nan,nan,nan,NaN
nan,nan,nan,NaN
nan,nan,nan,NaN
nan,nan,nan,NaN
nan,nan,nan,NaN
nan,nan,nan,NaN
nan,nan,nan,NaN
nan,nan,nan,NaN
nan,nan,nan,NaN
nan,nan,nan,NaN
nan,nan,nan,NaN
nan,nan,nan,NaN
nan,nan,nan,NaN
nan,nan,nan,NaN
nan,nan,nan,NaN
nan,nan,nan,NaN
nan,nan,nan,NaN
nan,nan,nan,NaN
nan,nan,nan,NaN
nan,nan,nan,NaN
nan,nan,nan,NaN
nan,nan,nan,NaN
nan,nan,nan,NaN
nan,nan,nan,NaN
nan,nan,nan,NaN
-1.15458,-0.353522,2.329,2.62341
-1.14702,-0.353522,2.329,2.62009
-1.13946,-0.353522,2.329,2.61679
-1.1319,-0.353522,2.329,2.61351
-1.12435,-0.353522,2.329,2.61024
-1.11679,-0.353522,2.329,2.607
-1.10923,-0.353522,2.329,2.60377
-1.10924,-0.355951,2.345,2.61842
-1.10162,-0.355951,2.345,2.61521
-1.09401,-0.355951,2.345,2.61201
-1.0864,-0.355951,2.345,2.60883
-1.08615,-0.35838,2.361,2.62345
-1.07849,-0.35838,2.361,2.62029
-1.07082,-0.35838,2.361,2.61714
-1.06316,-0.35838,2.361,2.61401
-1.0555,-0.35838,2.361,2.61091
-1.04784,-0.35838,2.361,2.60782
-1.04017,-0.35838,2.361,2.60475
-1.03251,-0.35838,2.361,2.6017
-1.02485,-0.35838,2.361,2.59867
-1.01718,-0.35838,2.361,2.59565
-1.01636,-0.360808,2.377,2.61023
-1.00865,-0.360808,2.377,2.60724
-1.00093,-0.360808,2.377,2.60426
-1.00032,-0.363389,2.394,2.61991
-0.992548,-0.363389,2.394,2.61695
-0.984778,-0.363389,2.394,2.61402
-0.977007,-0.363389,2.394,2.6111
-0.969237,-0.363389,2.394,2.6082
-0.961466,-0.363389,2.394,2.60532
-0.953696,-0.363389,2.394,2.60247
-0.945926,-0.363389,2.394,2.59963
-0.944817,-0.365969,2.411,2.61525
-0.936992,-0.365969,2.411,2.61243
-0.922615,-0.363389,2.394,2.59124
-0.914845,-0.363389,2.394,2.58848
-0.907074,-0.363389,2.394,2.58574
-0.899304,-0.363389,2.394,2.58303
-0.891534,-0.363389,2.394,2.58033
-0.883763,-0.363389,2.394,2.57766
-0.882213,-0.365969,2.411,2.59329
-0.874388,-0.365969,2.411,2.59064
-0.866562,-0.365969,2.411,2.58801
-0.858737,-0.365969,2.411,2.5854
-0.850911,-0.365969,2.411,2.58281
-0.84903,-0.36855,2.428,2.59844
-0.84115,-0.36855,2.428,2.59587
-0.833269,-0.36855,2.428,2.59333
-0.825388,-0.36855,2.428,2.59081
-0.817508,-0.36855,2.428,2.58831
-0.809627,-0.36855,2.428,2.58583
-0.801746,-0.36855,2.428,2.58337
-0.793866,-0.36855,2.428,2.58094
-0.785985,-0.36855,2.428,2.57852
-0.778104,-0.36855,2.428,2.57613
-0.770224,-0.36855,2.428,2.57376
-0.762343,-0.36855,2.428,2.57142
-0.754462,-0.36855,2.428,2.56909
-0.751809,-0.37113,2.445,2.58476
-0.743873,-0.37113,2.445,2.58246
-0.735937,-0.37113,2.445,2.58019
-0.728001,-0.37113,2.445,2.57793
-0.720065,-0.37113,2.445,2.57571
-0.712129,-0.37113,2.445,2.5735
-0.709378,-0.373862,2.463,2.59024
-0.701384,-0.373862,2.463,2.58807
-0.693389,-0.373862,2.463,2.58591
-0.685395,-0.373862,2.463,2.58378
-0.677401,-0.373862,2.463,2.58167
-0.669406,-0.373862,2.463,2.57958
-0.666246,-0.376595,2.481,2.59636
-0.658193,-0.376595,2.481,2.5943
-0.65014,-0.376595,2.481,2.59227
-0.642088,-0.376595,2.481,2.59026
-0.634035,-0.376595,2.481,2.58828
-0.625982,-0.376595,2.481,2.58632
-0.61793,-0.376595,2.481,2.58438
-0.614302,-0.379327,2.499,2.6012
-0.606191,-0.379327,2.499,2.5993
-0.598079,-0.379327,2.499,2.59742
-0.589968,-0.379327,2.499,2.59556
-0.586048,-0.382059,2.517,2.61241
-0.577879,-0.382059,2.517,2.61059
-0.569709,-0.382059,2.517,2.6088
-0.565778,-0.384943,2.536,2.62671
-0.557547,-0.384943,2.536,2.62494
-0.549316,-0.384943,2.536,2.62321
-0.541085,-0.384943,2.536,2.6215
-0.532853,-0.384943,2.536,2.61981
-0.524622,-0.384943,2.536,2.61815
-0.516391,-0.384943,2.536,2.61651
-0.50816,-0.384943,2.536,2.6149
-0.499929,-0.384943,2.536,2.61331
-0.491697,-0.384943,2.536,2.61175
-0.483466,-0.384943,2.536,2.61021
-0.475235,-0.384943,2.536,2.6087
-0.467004,-0.384943,2.536,2.60721
-0.455335,-0.382059,2.517,2.58623
-0.447166,-0.382059,2.517,2.5848
-0.438996,-0.382059,2.517,2.5834
-0.427746,-0.379327,2.499,2.56356
-0.419634,-0.379327,2.499,2.56222
-0.411523,-0.379327,2.499,2.56091
-0.400506,-0.376595,2.481,2.54118
-0.392454,-0.376595,2.481,2.53992
-0.384401,-0.376595,2.481,2.53869
-0.373618,-0.373862,2.463,2.51907
-0.362952,-0.37113,2.445,2.4995
-0.355016,-0.37113,2.445,2.49836
-0.34708,-0.37113,2.445,2.49724
-0.336786,-0.36855,2.428,2.4788
-0.328905,-0.36855,2.428,2.47774
-0.318777,-0.365969,2.411,2.45936
-0.310951,-0.365969,2.411,2.45836
-0.303126,-0.365969,2.411,2.45738
-0.2953,-0.365969,2.411,2.45643
-0.285448,-0.363389,2.394,2.43819
-0.277677,-0.363389,2.394,2.43729
-0.269907,-0.363389,2.394,2.43642
-0.262137,-0.363389,2.394,2.43557
-0.254366,-0.363389,2.394,2.43475
-0.246596,-0.363389,2.394,2.43395
-0.238826,-0.363389,2.394,2.43317
-0.231055,-0.363389,2.394,2.43242
-0.223285,-0.363389,2.394,2.4317
-0.215515,-0.363389,2.394,2.43099
-0.20922,-0.365969,2.411,2.44758
-0.201394,-0.365969,2.411,2.44692
-0.193569,-0.365969,2.411,2.44629
-0.185743,-0.365969,2.411,2.44568
-0.179172,-0.36855,2.428,2.46234
-0.172491,-0.37113,2.445,2.47902
-0.164555,-0.37113,2.445,2.47848
-0.157772,-0.373862,2.463,2.4962
-0.149778,-0.373862,2.463,2.49571
-0.141784,-0.373862,2.463,2.49524
-0.133789,-0.373862,2.463,2.4948
-0.126714,-0.376595,2.481,2.51262
-0.118662,-0.376595,2.481,2.51222
-0.110609,-0.376595,2.481,2.51186
-0.102556,-0.376595,2.481,2.51151
-0.0945035,-0.376595,2.481,2.5112
-0.0864508,-0.376595,2.481,2.51091
-0.0789668,-0.379327,2.499,2.52886
-0.0708557,-0.379327,2.499,2.52862
-0.0627446,-0.379327,2.499,2.5284
-0.0546334,-0.379327,2.499,2.52822
-0.0468574,-0.382059,2.517,2.54626
-0.0386878,-0.382059,2.517,2.54613
-0.0305183,-0.382059,2.517,2.54601
-0.0223487,-0.382059,2.517,2.54593
-0.0142862,-0.384943,2.536,2.56509
-0.00605498,-0.384943,2.536,2.56506
0.00217625,-0.384943,2.536,2.56505
0.0104075,-0.384943,2.536,2.56507
0.0186387,-0.384943,2.536,2.56512
0.0268699,-0.384943,2.536,2.56519
0.0351011,-0.384943,2.536,2.56529
0.0433324,-0.384943,2.536,2.56542
0.0511773,-0.382059,2.517,2.54635
0.0593468,-0.382059,2.517,2.54652
0.0675164,-0.382059,2.517,2.54673
0.075686,-0.382059,2.517,2.54696
0.0838555,-0.382059,2.517,2.54721
0.0920251,-0.382059,2.517,2.54749
0.0994781,-0.379327,2.499,2.52958
0.107589,-0.379327,2.499,2.52991
0.1157,-0.379327,2.499,2.53027
0.123811,-0.379327,2.499,2.53066
0.131923,-0.379327,2.499,2.53107
0.141042,-0.382059,2.517,2.54974
0.149212,-0.382059,2.517,2.5502
0.157382,-0.382059,2.517,2.55069
0.165551,-0.382059,2.517,2.55121
0.173721,-0.382059,2.517,2.55175
0.18189,-0.382059,2.517,2.55232
0.191494,-0.384943,2.536,2.57219
0.199726,-0.384943,2.536,2.57281
0.207957,-0.384943,2.536,2.57347
0.216188,-0.384943,2.536,2.57414
0.224419,-0.384943,2.536,2.57485
0.232651,-0.384943,2.536,2.57558
0.240882,-0.384943,2.536,2.57633
0.249113,-0.384943,2.536,2.57712
0.257344,-0.384943,2.536,2.57793
0.265575,-0.384943,2.536,2.57876
0.273807,-0.384943,2.536,2.57962
0.282038,-0.384943,2.536,2.58051
0.288094,-0.382059,2.517,2.56208
0.296264,-0.382059,2.517,2.56301
0.304434,-0.382059,2.517,2.56397
0.312603,-0.382059,2.517,2.56495
0.320773,-0.382059,2.517,2.56596
0.328942,-0.382059,2.517,2.56699
0.337112,-0.382059,2.517,2.56805
0.345281,-0.382059,2.517,2.56914
0.353451,-0.382059,2.517,2.57025
0.36162,-0.382059,2.517,2.57139
0.36979,-0.382059,2.517,2.57255
0.37796,-0.382059,2.517,2.57374
0.389044,-0.384943,2.536,2.59438
0.397275,-0.384943,2.536,2.59563
0.405506,-0.384943,2.536,2.5969
0.413738,-0.384943,2.536,2.5982
0.421969,-0.384943,2.536,2.59953
0.426977,-0.382059,2.517,2.58139
0.435146,-0.382059,2.517,2.58275
0.443316,-0.382059,2.517,2.58414
0.451486,-0.382059,2.517,2.58556
0.459655,-0.382059,2.517,2.58699
0.467825,-0.382059,2.517,2.58846
0.475994,-0.382059,2.517,2.58995
0.480701,-0.379327,2.499,2.57293
0.488812,-0.379327,2.499,2.57446
0.496924,-0.379327,2.499,2.57601
0.505035,-0.379327,2.499,2.57759
0.513146,-0.379327,2.499,2.57919
0.521257,-0.379327,2.499,2.58081
0.529368,-0.379327,2.499,2.58246
0.537479,-0.379327,2.499,2.58414
0.54559,-0.379327,2.499,2.58584
0.553702,-0.379327,2.499,2.58756
0.561813,-0.379327,2.499,2.58931
0.569924,-0.379327,2.499,2.59108
0.578035,-0.379327,2.499,2.59288
0.590368,-0.382059,2.517,2.61339
0.598538,-0.382059,2.517,2.61524
0.606707,-0.382059,2.517,2.61713
0.614877,-0.382059,2.517,2.61903
0.623046,-0.382059,2.517,2.62096
0.631216,-0.382059,2.517,2.62292
0.639385,-0.382059,2.517,2.62489
0.647555,-0.382059,2.517,2.6269
0.655725,-0.382059,2.517,2.62892
0.663894,-0.382059,2.517,2.63097
0.672064,-0.382059,2.517,2.63305
0.680233,-0.382059,2.517,2.63514
0.688403,-0.382059,2.517,2.63726
0.696572,-0.382059,2.517,2.63941
0.704742,-0.382059,2.517,2.64158
0.707813,-0.379327,2.499,2.62486
0.715924,-0.379327,2.499,2.62706
0.724035,-0.379327,2.499,2.62928
0.732147,-0.379327,2.499,2.63153
0.740258,-0.379327,2.499,2.63379
0.748369,-0.379327,2.499,2.63609
0.75648,-0.379327,2.499,2.6384
0.764591,-0.379327,2.499,2.64074
0.772702,-0.379327,2.499,2.6431
0.780813,-0.379327,2.499,2.64548
0.783242,-0.376595,2.481,2.62881
0.791295,-0.376595,2.481,2.63122
0.799347,-0.376595,2.481,2.63366
0.8074,-0.376595,2.481,2.63611
0.815453,-0.376595,2.481,2.63859
0.823505,-0.376595,2.481,2.64109
0.831558,-0.376595,2.481,2.64361
0.839611,-0.376595,2.481,2.64615
0.847664,-0.376595,2.481,2.64872
0.855716,-0.376595,2.481,2.65131
0.863769,-0.376595,2.481,2.65392
0.865497,-0.373862,2.463,2.63728
0.873491,-0.373862,2.463,2.63991
0.881485,-0.373862,2.463,2.64257
0.889479,-0.373862,2.463,2.64524
0.897474,-0.373862,2.463,2.64794
0.898851,-0.37113,2.445,2.63129
0.906787,-0.37113,2.445,2.63401
0.914722,-0.37113,2.445,2.63676
0.922658,-0.37113,2.445,2.63952
0.930594,-0.37113,2.445,2.6423
0.93853,-0.37113,2.445,2.64511
0.939885,-0.36855,2.428,2.62952
0.947766,-0.36855,2.428,2.63235
0.948955,-0.365969,2.411,2.61675
0.956781,-0.365969,2.411,2.6196
0.964606,-0.365969,2.411,2.62246
0.972432,-0.365969,2.411,2.62535
0.980257,-0.365969,2.411,2.62826
0.988083,-0.365969,2.411,2.63119
0.995908,-0.365969,2.411,2.63414
1.00373,-0.365969,2.411,2.63711
1.01156,-0.365969,2.411,2.6401
nan,nan,nan,NaN
nan,nan,nan,NaN
nan,nan,nan,NaN
nan,nan,nan,NaN
nan,nan,nan,NaN
nan,nan,nan,NaN
nan,nan,nan,NaN
nan,nan,nan,NaN
nan,nan,nan,NaN
nan,nan,nan,NaN
1.3321,-0.444142,2.926,3.24549
1.3416,-0.444142,2.926,3.2494
1.35109,-0.444142,2.926,3.25334
1.36059,-0.444142,2.926,3.25729
1.3818,-0.447937,2.951,3.28913
1.40363,-0.451883,2.977,3.32219
1.41329,-0.451883,2.977,3.32628
1.42296,-0.451883,2.977,3.3304
1.43262,-0.451883,2.977,3.33454
1.41757,-0.444142,2.926,3.2815
1.42707,-0.444142,2.926,3.28562
nan,nan,nan,NaN
nan,nan,nan,NaN
1.43119,-0.436704,2.877,3.24286
1.44053,-0.436704,2.877,3.24699
1.44986,-0.436704,2.877,3.25114
1.4592,-0.436704,2.877,3.25532
1.48079,-0.440347,2.901,3.28671
1.51589,-0.447937,2.951,3.34768
1.52547,-0.447937,2.951,3.35203
1.5621,-0.45583,3.003,3.41554
1.58598,-0.459928,3.03,3.45076
1.61003,-0.464027,3.057,3.48608
1.61995,-0.464027,3.057,3.49068
1.69012,-0.481179,3.17,3.62449
1.7326,-0.490286,3.23,3.698
1.74308,-0.490286,3.23,3.70292
1.78722,-0.499698,3.292,3.77904
1.83286,-0.509412,3.356,3.85767
1.84375,-0.509412,3.356,3.86286
1.89167,-0.519582,3.423,3.94529
1.90278,-0.519582,3.423,3.95063
1.91389,-0.519582,3.423,3.95599
1.925,-0.519582,3.423,3.96138
1.95591,-0.524895,3.458,4.00735
1.98704,-0.530208,3.493,4.05346
1.99838,-0.530208,3.493,4.05903
2.03043,-0.535672,3.529,4.10651
2.04189,-0.535672,3.529,4.11219
2.05334,-0.535672,3.529,4.11789
2.04373,-0.530208,3.493,4.08154
2.05507,-0.530208,3.493,4.08723
2.06641,-0.530208,3.493,4.09295
2.03611,-0.519582,3.423,4.01654
2.02688,-0.514421,3.389,3.98224
2.03788,-0.514421,3.389,3.98785
2.02893,-0.509412,3.356,3.95459
2.02037,-0.504555,3.324,3.92243
2.03116,-0.504555,3.324,3.928
2.00264,-0.49484,3.26,3.85785
1.97555,-0.485581,3.199,3.79106
1.98593,-0.485581,3.199,3.79649
1.94202,-0.472375,3.112,3.69853
1.91762,-0.464027,3.057,3.63838
1.92754,-0.464027,3.057,3.64362
1.88676,-0.451883,2.977,3.55339
1.87986,-0.447937,2.951,3.52745
1.88944,-0.447937,2.951,3.53257
1.86684,-0.440347,2.901,3.47776
1.84521,-0.433061,2.853,3.4252
1.85447,-0.433061,2.853,3.43019
1.84806,-0.429418,2.829,3.40631
1.82704,-0.422436,2.783,3.35583
1.83607,-0.422436,2.783,3.36076
1.83052,-0.419096,2.761,3.3391
1.82482,-0.415757,2.739,3.31737
1.83371,-0.415757,2.739,3.32227
1.8426,-0.415757,2.739,3.32719
1.83662,-0.412417,2.717,3.30535
1.84544,-0.412417,2.717,3.31026
-2.35106,-0.503425,3.389,4.15527
-2.34006,-0.503425,3.389,4.14905
-2.32906,-0.503425,3.389,4.14286
-2.31806,-0.503425,3.389,4.13668
-2.30706,-0.503425,3.389,4.13053
-2.3191,-0.508475,3.423,4.16578
-2.28506,-0.503425,3.389,4.11828
-2.27406,-0.503425,3.389,4.11219
-2.26306,-0.503425,3.389,4.10612
-2.25206,-0.503425,3.389,4.10007
-2.26355,-0.508475,3.423,4.13511
-2.25243,-0.508475,3.423,4.12904
-2.24132,-0.508475,3.423,4.12299
-2.25302,-0.513674,3.458,4.15905
-2.24179,-0.513674,3.458,4.15298
-2.23057,-0.513674,3.458,4.14693
-2.21935,-0.513674,3.458,4.14091
-2.20812,-0.513674,3.458,4.1349
-2.21914,-0.518873,3.493,4.17071
-2.2078,-0.518873,3.493,4.16469
-2.19646,-0.518873,3.493,4.15869
-2.20764,-0.524221,3.529,4.19551
-2.17379,-0.518873,3.493,4.14676
-2.16245,-0.518873,3.493,4.14083
-2.15111,-0.518873,3.493,4.13492
-2.13977,-0.518873,3.493,4.12903
-2.10711,-0.513674,3.458,4.08185
-2.09589,-0.513674,3.458,4.07607
-2.08466,-0.513674,3.458,4.07031
-2.07344,-0.513674,3.458,4.06457
-2.06221,-0.513674,3.458,4.05886
nan,nan,nan,NaN
nan,nan,nan,NaN
nan,nan,nan,NaN
nan,nan,nan,NaN
nan,nan,nan,NaN
nan,nan,nan,NaN
nan,nan,nan,NaN
nan,nan,nan,NaN
nan,nan,nan,NaN
nan,nan,nan,NaN
nan,nan,nan,NaN
nan,nan,nan,NaN
nan,nan,nan,NaN
nan,nan,nan,NaN
nan,nan,nan,NaN
nan,nan,nan,NaN
nan,nan,nan,NaN
nan,nan,nan,NaN
nan,nan,nan,NaN
nan,nan,nan,NaN
nan,nan,nan,NaN
nan,nan,nan,NaN
nan,nan,nan,NaN
nan,nan,nan,NaN
nan,nan,nan,NaN
nan,nan,nan,NaN
nan,nan,nan,NaN
nan,nan,nan,NaN
nan,nan,nan,NaN
nan,nan,nan,NaN
nan,nan,nan,NaN
-1.14702,-0.345965,2.329,2.61908
-1.13946,-0.345965,2.329,2.61578
-1.1319,-0.345965,2.329,2.6125
-1.12435,-0.345965,2.329,2.60923
-1.12446,-0.348342,2.345,2.62389
-1.11685,-0.348342,2.345,2.62063
-1.10924,-0.348342,2.345,2.6174
-1.10162,-0.348342,2.345,2.61418
-1.09401,-0.348342,2.345,2.61098
-1.0864,-0.348342,2.345,2.6078
-1.08615,-0.350719,2.361,2.62241
-1.07849,-0.350719,2.361,2.61925
-1.07082,-0.350719,2.361,2.6161
-1.06316,-0.350719,2.361,2.61297
-1.0555,-0.350719,2.361,2.60987
-1.04784,-0.350719,2.361,2.60678
-1.04017,-0.350719,2.361,2.60371
-1.03251,-0.350719,2.361,2.60065
-1.02485,-0.350719,2.361,2.59762
-1.01718,-0.350719,2.361,2.59461
-1.00952,-0.350719,2.361,2.59161
-1.00865,-0.353095,2.377,2.60618
-1.00093,-0.353095,2.377,2.6032
-0.993215,-0.353095,2.377,2.60025
-0.9855,-0.353095,2.377,2.59731
-0.977785,-0.353095,2.377,2.59439
-0.970069,-0.353095,2.377,2.59149
-0.969237,-0.355621,2.394,2.60713
-0.961466,-0.355621,2.394,2.60425
-0.953696,-0.355621,2.394,2.60139
-0.945926,-0.355621,2.394,2.59855
-0.938156,-0.355621,2.394,2.59573
-0.930385,-0.355621,2.394,2.59294
-0.922615,-0.355621,2.394,2.59016
-0.914845,-0.355621,2.394,2.5874
-0.907074,-0.355621,2.394,2.58466
-0.899304,-0.355621,2.394,2.58195
-0.891534,-0.355621,2.394,2.57925
-0.883763,-0.355621,2.394,2.57658
-0.875993,-0.355621,2.394,2.57392
-0.874388,-0.358146,2.411,2.58955
-0.866562,-0.358146,2.411,2.58691
-0.858737,-0.358146,2.411,2.5843
-0.850911,-0.358146,2.411,2.58171
-0.843086,-0.358146,2.411,2.57914
-0.83526,-0.358146,2.411,2.5766
-0.827435,-0.358146,2.411,2.57407
-0.819609,-0.358146,2.411,2.57157
-0.811784,-0.358146,2.411,2.56908
-0.809627,-0.360671,2.428,2.58472
-0.801746,-0.360671,2.428,2.58226
-0.793866,-0.360671,2.428,2.57982
-0.785985,-0.360671,2.428,2.57741
-0.778104,-0.360671,2.428,2.57502
-0.770224,-0.360671,2.428,2.57265
-0.762343,-0.360671,2.428,2.5703
-0.754462,-0.360671,2.428,2.56797
-0.751809,-0.363196,2.445,2.58363
-0.743873,-0.363196,2.445,2.58133
-0.735937,-0.363196,2.445,2.57906
-0.728001,-0.363196,2.445,2.5768
-0.720065,-0.363196,2.445,2.57457
-0.712129,-0.363196,2.445,2.57237
-0.704194,-0.363196,2.445,2.57018
-0.701384,-0.36587,2.463,2.58692
-0.693389,-0.36587,2.463,2.58477
-0.685395,-0.36587,2.463,2.58263
-0.677401,-0.36587,2.463,2.58052
-0.669406,-0.36587,2.463,2.57844
-0.661412,-0.36587,2.463,2.57637
-0.653418,-0.36587,2.463,2.57433
-0.65014,-0.368544,2.481,2.59111
-0.642088,-0.368544,2.481,2.5891
-0.634035,-0.368544,2.481,2.58712
-0.625982,-0.368544,2.481,2.58516
-0.61793,-0.368544,2.481,2.58322
-0.614302,-0.371218,2.499,2.60003
-0.610557,-0.373892,2.517,2.61684
-0.602387,-0.373892,2.517,2.61495
-0.594218,-0.373892,2.517,2.61308
-0.586048,-0.373892,2.517,2.61123
-0.577879,-0.373892,2.517,2.60941
-0.569709,-0.373892,2.517,2.60761
-0.565778,-0.376714,2.536,2.62551
-0.557547,-0.376714,2.536,2.62375
-0.549316,-0.376714,2.536,2.62201
-0.541085,-0.376714,2.536,2.6203
-0.532853,-0.376714,2.536,2.61861
-0.524622,-0.376714,2.536,2.61695
-0.52026,-0.379537,2.555,2.63491
-0.511967,-0.379537,2.555,2.63328
-0.503674,-0.379537,2.555,2.63168
-0.495381,-0.379537,2.555,2.63011
-0.487088,-0.379537,2.555,2.62856
-0.478795,-0.379537,2.555,2.62704
-0.467004,-0.376714,2.536,2.60601
-0.458772,-0.376714,2.536,2.60455
-0.450541,-0.376714,2.536,2.60311
-0.438996,-0.373892,2.517,2.58221
-0.430827,-0.373892,2.517,2.58083
-0.422657,-0.373892,2.517,2.57948
-0.411523,-0.371218,2.499,2.55972
-0.403412,-0.371218,2.499,2.55843
-0.392454,-0.368544,2.481,2.53874
-0.384401,-0.368544,2.481,2.53751
-0.376348,-0.368544,2.481,2.5363
-0.365624,-0.36587,2.463,2.51673
-0.357629,-0.36587,2.463,2.51558
-0.34708,-0.363196,2.445,2.49608
-0.339144,-0.363196,2.445,2.49499
-0.331208,-0.363196,2.445,2.49392
-0.321025,-0.360671,2.428,2.47555
-0.310951,-0.358146,2.411,2.45721
-0.303126,-0.358146,2.411,2.45623
-0.2953,-0.358146,2.411,2.45528
-0.285448,-0.355621,2.394,2.43704
-0.277677,-0.355621,2.394,2.43615
-0.269907,-0.355621,2.394,2.43527
-0.262137,-0.355621,2.394,2.43442
-0.254366,-0.355621,2.394,2.4336
-0.246596,-0.355621,2.394,2.4328
-0.238826,-0.355621,2.394,2.43202
-0.231055,-0.355621,2.394,2.43127
-0.223285,-0.355621,2.394,2.43055
-0.215515,-0.355621,2.394,2.42985
-0.20922,-0.358146,2.411,2.44642
-0.201394,-0.358146,2.411,2.44576
-0.193569,-0.358146,2.411,2.44513
-0.185743,-0.358146,2.411,2.44452
-0.179172,-0.360671,2.428,2.46117
-0.172491,-0.363196,2.445,2.47784
-0.164555,-0.363196,2.445,2.4773
-0.156619,-0.363196,2.445,2.47679
-0.149778,-0.36587,2.463,2.49453
-0.141784,-0.36587,2.463,2.49406
-0.133789,-0.36587,2.463,2.49362
-0.126714,-0.368544,2.481,2.51142
-0.118662,-0.368544,2.481,2.51103
-0.110609,-0.368544,2.481,2.51066
-0.102556,-0.368544,2.481,2.51032
-0.0951891,-0.371218,2.499,2.52821
-0.087078,-0.371218,2.499,2.52792
-0.0789668,-0.371218,2.499,2.52766
-0.0708557,-0.371218,2.499,2.52741
-0.0627446,-0.371218,2.499,2.5272
-0.055027,-0.373892,2.517,2.54521
-0.0468574,-0.373892,2.517,2.54505
-0.0386878,-0.373892,2.517,2.54491
-0.0305183,-0.373892,2.517,2.5448
-0.0225174,-0.376714,2.536,2.56393
-0.0143932,-0.379537,2.555,2.58308
-0.00610034,-0.379537,2.555,2.58304
0.00219255,-0.379537,2.555,2.58304
0.0105634,-0.382359,2.574,2.60227
0.0187783,-0.379537,2.555,2.5831
0.0270712,-0.379537,2.555,2.58318
0.0353641,-0.379537,2.555,2.58328
0.043657,-0.379537,2.555,2.5834
0.0519499,-0.379537,2.555,2.58356
0.0602428,-0.379537,2.555,2.58374
0.0680261,-0.376714,2.536,2.56473
0.0762573,-0.376714,2.536,2.56496
0.0844885,-0.376714,2.536,2.56522
0.0927197,-0.376714,2.536,2.5655
0.100951,-0.376714,2.536,2.56581
0.109182,-0.376714,2.536,2.56615
0.117413,-0.376714,2.536,2.56651
0.125645,-0.376714,2.536,2.5669
0.133876,-0.376714,2.536,2.56732
0.142107,-0.376714,2.536,2.56776
0.150338,-0.376714,2.536,2.56823
0.15857,-0.376714,2.536,2.56873
0.166801,-0.376714,2.536,2.56925
0.175032,-0.376714,2.536,2.56979
0.183263,-0.376714,2.536,2.57037
0.192929,-0.379537,2.555,2.59023
0.201222,-0.379537,2.555,2.59086
0.209515,-0.379537,2.555,2.59152
0.217808,-0.379537,2.555,2.5922
0.226101,-0.379537,2.555,2.59291
0.234394,-0.379537,2.555,2.59365
0.242687,-0.379537,2.555,2.59441
0.250979,-0.379537,2.555,2.5952
0.259272,-0.379537,2.555,2.59602
0.267565,-0.379537,2.555,2.59686
0.275858,-0.379537,2.555,2.59772
0.284151,-0.379537,2.555,2.59862
0.290269,-0.376714,2.536,2.58021
0.296264,-0.373892,2.517,2.56181
0.304434,-0.373892,2.517,2.56277
0.312603,-0.373892,2.517,2.56375
0.320773,-0.373892,2.517,2.56476
0.328942,-0.373892,2.517,2.56579
0.337112,-0.373892,2.517,2.56685
0.347888,-0.376714,2.536,2.58732
0.356119,-0.376714,2.536,2.58844
0.36435,-0.376714,2.536,2.58959
0.372581,-0.376714,2.536,2.59076
0.380813,-0.376714,2.536,2.59195
0.389044,-0.376714,2.536,2.59318
0.397275,-0.376714,2.536,2.59442
0.405506,-0.376714,2.536,2.5957
0.413738,-0.376714,2.536,2.597
0.421969,-0.376714,2.536,2.59832
0.426977,-0.373892,2.517,2.58019
0.435146,-0.373892,2.517,2.58156
0.443316,-0.373892,2.517,2.58295
0.451486,-0.373892,2.517,2.58436
0.459655,-0.373892,2.517,2.5858
0.467825,-0.373892,2.517,2.58727
0.475994,-0.373892,2.517,2.58876
0.480701,-0.371218,2.499,2.57175
0.488812,-0.371218,2.499,2.57327
0.496924,-0.371218,2.499,2.57483
0.505035,-0.371218,2.499,2.57641
0.513146,-0.371218,2.499,2.57801
0.521257,-0.371218,2.499,2.57963
0.529368,-0.371218,2.499,2.58129
0.537479,-0.371218,2.499,2.58296
0.54559,-0.371218,2.499,2.58466
0.553702,-0.371218,2.499,2.58639
0.561813,-0.371218,2.499,2.58813
0.569924,-0.371218,2.499,2.58991
0.578035,-0.371218,2.499,2.5917
0.590368,-0.373892,2.517,2.61221
0.598538,-0.373892,2.517,2.61406
0.606707,-0.373892,2.517,2.61595
0.614877,-0.373892,2.517,2.61785
0.623046,-0.373892,2.517,2.61978
0.631216,-0.373892,2.517,2.62174
0.639385,-0.373892,2.517,2.62372
0.647555,-0.373892,2.517,2.62572
0.655725,-0.373892,2.517,2.62775
0.663894,-0.373892,2.517,2.6298
0.672064,-0.373892,2.517,2.63187
0.680233,-0.373892,2.517,2.63397
0.688403,-0.373892,2.517,2.63609
0.696572,-0.373892,2.517,2.63824
0.704742,-0.373892,2.517,2.64041
0.707813,-0.371218,2.499,2.6237
0.715924,-0.371218,2.499,2.6259
0.724035,-0.371218,2.499,2.62812
0.732147,-0.371218,2.499,2.63037
0.740258,-0.371218,2.499,2.63264
0.748369,-0.371218,2.499,2.63493
0.75648,-0.371218,2.499,2.63725
0.764591,-0.371218,2.499,2.63958
0.772702,-0.371218,2.499,2.64194
0.780813,-0.371218,2.499,2.64433
0.783242,-0.368544,2.481,2.62767
0.791295,-0.368544,2.481,2.63008
0.799347,-0.368544,2.481,2.63252
0.8074,-0.368544,2.481,2.63497
0.815453,-0.368544,2.481,2.63745
0.823505,-0.368544,2.481,2.63995
0.831558,-0.368544,2.481,2.64248
0.839611,-0.368544,2.481,2.64502
0.847664,-0.368544,2.481,2.64759
0.855716,-0.368544,2.481,2.65018
0.863769,-0.368544,2.481,2.65279
0.865497,-0.36587,2.463,2.63616
0.873491,-0.36587,2.463,2.63879
0.881485,-0.36587,2.463,2.64145
0.889479,-0.36587,2.463,2.64413
0.897474,-0.36587,2.463,2.64683
0.898851,-0.363196,2.445,2.63018
0.906787,-0.363196,2.445,2.63291
0.914722,-0.363196,2.445,2.63565
0.922658,-0.363196,2.445,2.63842
0.930594,-0.363196,2.445,2.6412
0.93853,-0.363196,2.445,2.64401
0.939885,-0.360671,2.428,2.62843
0.947766,-0.360671,2.428,2.63126
0.955646,-0.360671,2.428,2.63411
0.963527,-0.360671,2.428,2.63698
0.971408,-0.360671,2.428,2.63987
0.979289,-0.360671,2.428,2.64278
0.987169,-0.360671,2.428,2.64571
0.99505,-0.360671,2.428,2.64866
0.995908,-0.358146,2.411,2.63306
1.00373,-0.358146,2.411,2.63603
1.01156,-0.358146,2.411,2.63902
nan,nan,nan,NaN
nan,nan,nan,NaN
nan,nan,nan,NaN
nan,nan,nan,NaN
nan,nan,nan,NaN
nan,nan,nan,NaN
nan,nan,nan,NaN
nan,nan,nan,NaN
nan,nan,nan,NaN
nan,nan,nan,NaN
1.34348,-0.438361,2.951,3.27193
1.35306,-0.438361,2.951,3.27587
1.37464,-0.442223,2.977,3.30874
1.38431,-0.442223,2.977,3.31276
1.39397,-0.442223,2.977,3.31681
1.40363,-0.442223,2.977,3.32088
1.41329,-0.442223,2.977,3.32498
1.42296,-0.442223,2.977,3.3291
1.43262,-0.442223,2.977,3.33324
1.44228,-0.442223,2.977,3.3374
1.45195,-0.442223,2.977,3.34159
nan,nan,nan,NaN
nan,nan,nan,NaN
1.45556,-0.434647,2.926,3.29683
1.46506,-0.434647,2.926,3.30103
1.47456,-0.434647,2.926,3.30526
1.48405,-0.434647,2.926,3.3095
1.50631,-0.438361,2.951,3.34209
1.55647,-0.450096,3.03,3.436
1.56631,-0.450096,3.03,3.44047
1.59019,-0.454107,3.057,3.47565
1.61424,-0.458118,3.084,3.51094
1.639,-0.462277,3.112,3.54747
1.6491,-0.462277,3.112,3.55215
1.69012,-0.470893,3.17,3.62314
1.74869,-0.484262,3.26,3.73095
1.75927,-0.484262,3.26,3.73593
1.8046,-0.493769,3.324,3.81436
1.85088,-0.503425,3.389,3.89417
1.86188,-0.503425,3.389,3.89941
1.89167,-0.508475,3.423,3.94384
1.90278,-0.508475,3.423,3.94918
1.93346,-0.513674,3.458,3.99498
1.94469,-0.513674,3.458,4.00043
1.97571,-0.518873,3.493,4.04644
2.00752,-0.524221,3.529,4.09375
2.01898,-0.524221,3.529,4.09938
2.03043,-0.524221,3.529,4.10503
2.06329,-0.529717,3.566,4.15381
2.05334,-0.524221,3.529,4.11641
2.06479,-0.524221,3.529,4.12214
2.07625,-0.524221,3.529,4.12789
2.0877,-0.524221,3.529,4.13366
2.07774,-0.518873,3.493,4.09723
2.04722,-0.508475,3.423,4.02077
2.05833,-0.508475,3.423,4.02644
2.04888,-0.503425,3.389,3.99208
2.02037,-0.493769,3.324,3.92106
2.03116,-0.493769,3.324,3.92663
2.00264,-0.484262,3.26,3.85651
1.97555,-0.475201,3.199,3.78975
1.98593,-0.475201,3.199,3.79517
1.96012,-0.466585,3.141,3.73171
1.91762,-0.454107,3.057,3.63713
1.92754,-0.454107,3.057,3.64237
1.90324,-0.446086,3.003,3.5832
1.87986,-0.438361,2.951,3.52625
1.88944,-0.438361,2.951,3.53137
1.88293,-0.434647,2.926,3.50654
1.86074,-0.427369,2.877,3.45284
1.87007,-0.427369,2.877,3.45788
1.86373,-0.423804,2.853,3.43405
1.85724,-0.420238,2.829,3.41016
1.85125,-0.416822,2.806,3.3874
1.86035,-0.416822,2.806,3.39239
1.85414,-0.413405,2.783,3.36954
1.84844,-0.410137,2.761,3.34785
1.8574,-0.410137,2.761,3.3528
1.86637,-0.410137,2.761,3.35778
1.86038,-0.406869,2.739,3.33597
-2.35106,-0.492428,3.389,4.15395
-2.36354,-0.497368,3.423,4.18934
-2.35243,-0.497368,3.423,4.18309
-2.34132,-0.497368,3.423,4.17685
-2.33021,-0.497368,3.423,4.17063
-2.3191,-0.497368,3.423,4.16443
-2.30799,-0.497368,3.423,4.15826
-2.29688,-0.497368,3.423,4.1521
-2.28577,-0.497368,3.423,4.14597
-2.27466,-0.497368,3.423,4.13985
-2.26355,-0.497368,3.423,4.13376
-2.25243,-0.497368,3.423,4.12768
-2.24132,-0.497368,3.423,4.12163
-2.25302,-0.502454,3.458,4.15768
-2.24179,-0.502454,3.458,4.15161
-2.23057,-0.502454,3.458,4.14556
-2.21935,-0.502454,3.458,4.13953
-2.20812,-0.502454,3.458,4.13353
-2.21914,-0.507539,3.493,4.16932
-2.2078,-0.507539,3.493,4.16329
-2.19646,-0.507539,3.493,4.15729
-2.20764,-0.51277,3.529,4.1941
-2.17379,-0.507539,3.493,4.14536
-2.16245,-0.507539,3.493,4.13942
-2.15111,-0.507539,3.493,4.13351
-2.13977,-0.507539,3.493,4.12762
-2.10711,-0.502454,3.458,4.08046
-2.09589,-0.502454,3.458,4.07467
-2.08466,-0.502454,3.458,4.06891
-2.07344,-0.502454,3.458,4.06317
-2.06221,-0.502454,3.458,4.05746
nan,nan,nan,NaN
nan,nan,nan,NaN
nan,nan,nan,NaN
nan,nan,nan,NaN
nan,nan,nan,NaN
nan,nan,nan,NaN
nan,nan,nan,NaN
nan,nan,nan,NaN
nan,nan,nan,NaN
nan,nan,nan,NaN
nan,nan,nan,NaN
nan,nan,nan,NaN
nan,nan,nan,NaN
nan,nan,nan,NaN
nan,nan,nan,NaN
nan,nan,nan,NaN
nan,nan,nan,NaN
nan,nan,nan,NaN
nan,nan,nan,NaN
nan,nan,nan,NaN
nan,nan,nan,NaN
nan,nan,nan,NaN
nan,nan,nan,NaN
nan,nan,nan,NaN
nan,nan,nan,NaN
nan,nan,nan,NaN
nan,nan,nan,NaN
nan,nan,nan,NaN
nan,nan,nan,NaN
nan,nan,nan,NaN
nan,nan,nan,NaN
-1.14702,-0.338408,2.329,2.6181
-1.13946,-0.338408,2.329,2.61479
-1.1319,-0.338408,2.329,2.61151
-1.12435,-0.338408,2.329,2.60824
-1.12446,-0.340733,2.345,2.62289
-1.11685,-0.340733,2.345,2.61963
-1.10924,-0.340733,2.345,2.6164
-1.10162,-0.340733,2.345,2.61318
-1.09401,-0.340733,2.345,2.60998
-1.0864,-0.340733,2.345,2.6068
-1.07879,-0.340733,2.345,2.60363
-1.07849,-0.343058,2.361,2.61823
-1.07082,-0.343058,2.361,2.61509
-1.06316,-0.343058,2.361,2.61196
-1.0555,-0.343058,2.361,2.60885
-1.04784,-0.343058,2.361,2.60576
-1.04017,-0.343058,2.361,2.60268
-1.03251,-0.343058,2.361,2.59963
-1.02485,-0.343058,2.361,2.5966
-1.01718,-0.343058,2.361,2.59358
-1.00952,-0.343058,2.361,2.59059
-1.00186,-0.343058,2.361,2.58761
-0.994193,-0.343058,2.361,2.58465
-0.993215,-0.345382,2.377,2.59921
-0.9855,-0.345382,2.377,2.59627
-0.977785,-0.345382,2.377,2.59335
-0.970069,-0.345382,2.377,2.59045
-0.962354,-0.345382,2.377,2.58757
-0.961466,-0.347852,2.394,2.6032
-0.953696,-0.347852,2.394,2.60034
-0.945926,-0.347852,2.394,2.5975
-0.938156,-0.347852,2.394,2.59468
-0.930385,-0.347852,2.394,2.59188
-0.922615,-0.347852,2.394,2.5891
-0.914845,-0.347852,2.394,2.58634
-0.907074,-0.347852,2.394,2.58361
-0.899304,-0.347852,2.394,2.58089
-0.891534,-0.347852,2.394,2.57819
-0.883763,-0.347852,2.394,2.57551
-0.875993,-0.347852,2.394,2.57286
-0.868223,-0.347852,2.394,2.57022
-0.866562,-0.350323,2.411,2.58584
-0.858737,-0.350323,2.411,2.58323
-0.850911,-0.350323,2.411,2.58064
-0.843086,-0.350323,2.411,2.57807
-0.83526,-0.350323,2.411,2.57552
-0.827435,-0.350323,2.411,2.57299
-0.819609,-0.350323,2.411,2.57049
-0.811784,-0.350323,2.411,2.568
-0.803958,-0.350323,2.411,2.56554
-0.796133,-0.350323,2.411,2.5631
-0.788307,-0.350323,2.411,2.56068
-0.780482,-0.350323,2.411,2.55828
-0.772656,-0.350323,2.411,2.5559
-0.770224,-0.352793,2.428,2.57155
-0.762343,-0.352793,2.428,2.56921
-0.754462,-0.352793,2.428,2.56688
-0.746581,-0.352793,2.428,2.56457
-0.738701,-0.352793,2.428,2.56229
-0.73082,-0.352793,2.428,2.56003
-0.728001,-0.355263,2.445,2.5757
-0.720065,-0.355263,2.445,2.57347
-0.712129,-0.355263,2.445,2.57126
-0.704194,-0.355263,2.445,2.56907
-0.696258,-0.355263,2.445,2.56691
-0.688322,-0.355263,2.445,2.56477
-0.680386,-0.355263,2.445,2.56265
-0.677401,-0.357878,2.463,2.5794
-0.669406,-0.357878,2.463,2.57731
-0.661412,-0.357878,2.463,2.57525
-0.653418,-0.357878,2.463,2.57321
-0.645424,-0.357878,2.463,2.57119
-0.637429,-0.357878,2.463,2.56919
-0.634035,-0.360494,2.481,2.58598
-0.625982,-0.360494,2.481,2.58402
-0.61793,-0.360494,2.481,2.58208
-0.609877,-0.360494,2.481,2.58017
-0.610557,-0.365725,2.517,2.61569
-0.602387,-0.365725,2.517,2.61379
-0.594218,-0.365725,2.517,2.61192
-0.586048,-0.365725,2.517,2.61008
-0.582241,-0.368485,2.536,2.62794
-0.57401,-0.368485,2.536,2.62613
-0.565778,-0.368485,2.536,2.62434
-0.557547,-0.368485,2.536,2.62258
-0.549316,-0.368485,2.536,2.62084
-0.545139,-0.371246,2.555,2.63875
-0.536846,-0.371246,2.555,2.63705
-0.528553,-0.371246,2.555,2.63538
-0.52026,-0.371246,2.555,2.63373
-0.511967,-0.371246,2.555,2.6321
-0.503674,-0.371246,2.555,2.6305
-0.495381,-0.371246,2.555,2.62893
-0.487088,-0.371246,2.555,2.62738
-0.478795,-0.371246,2.555,2.62585
-0.470502,-0.371246,2.555,2.62435
-0.458772,-0.368485,2.536,2.60337
-0.450541,-0.368485,2.536,2.60193
-0.44231,-0.368485,2.536,2.60052
-0.434079,-0.368485,2.536,2.59913
-0.425848,-0.368485,2.536,2.59777
-0.414487,-0.365725,2.517,2.57698
-0.403412,-0.363109,2.499,2.55726
-0.392454,-0.360494,2.481,2.53759
-0.384401,-0.360494,2.481,2.53635
-0.376348,-0.360494,2.481,2.53514
-0.365624,-0.357878,2.463,2.51558
-0.357629,-0.357878,2.463,2.51443
-0.34708,-0.355263,2.445,2.49494
-0.339144,-0.355263,2.445,2.49384
-0.331208,-0.355263,2.445,2.49278
-0.321025,-0.352793,2.428,2.47441
-0.313144,-0.352793,2.428,2.4734
-0.305263,-0.352793,2.428,2.47241
-0.2953,-0.350323,2.411,2.45415
-0.285448,-0.347852,2.394,2.43592
-0.277677,-0.347852,2.394,2.43502
-0.269907,-0.347852,2.394,2.43415
-0.262137,-0.347852,2.394,2.4333
-0.254366,-0.347852,2.394,2.43248
-0.246596,-0.347852,2.394,2.43168
-0.238826,-0.347852,2.394,2.4309
-0.231055,-0.347852,2.394,2.43015
-0.223285,-0.347852,2.394,2.42942
-0.215515,-0.347852,2.394,2.42872
-0.20922,-0.350323,2.411,2.44529
-0.201394,-0.350323,2.411,2.44463
-0.193569,-0.350323,2.411,2.444
-0.185743,-0.350323,2.411,2.44339
-0.179172,-0.352793,2.428,2.46003
-0.172491,-0.355263,2.445,2.47669
-0.164555,-0.355263,2.445,2.47615
-0.156619,-0.355263,2.445,2.47563
-0.150872,-0.360494,2.481,2.51159
-0.14282,-0.360494,2.481,2.51112
-0.134767,-0.360494,2.481,2.51067
-0.126714,-0.360494,2.481,2.51025
-0.118662,-0.360494,2.481,2.50986
-0.110609,-0.360494,2.481,2.50949
-0.102556,-0.360494,2.481,2.50915
-0.0951891,-0.363109,2.499,2.52704
-0.087078,-0.363109,2.499,2.52674
-0.0789668,-0.363109,2.499,2.52648
-0.0708557,-0.363109,2.499,2.52624
-0.0627446,-0.363109,2.499,2.52602
-0.055027,-0.365725,2.517,2.54403
-0.0468574,-0.365725,2.517,2.54386
-0.0386878,-0.365725,2.517,2.54373
-0.0305183,-0.365725,2.517,2.54361
-0.0225174,-0.368485,2.536,2.56273
-0.0143932,-0.371246,2.555,2.58187
-0.00610034,-0.371246,2.555,2.58184
0.00219255,-0.371246,2.555,2.58183
0.0104854,-0.371246,2.555,2.58185
0.0187783,-0.371246,2.555,2.5819
0.0270712,-0.371246,2.555,2.58197
0.0353641,-0.371246,2.555,2.58207
0.043657,-0.371246,2.555,2.5822
0.0519499,-0.371246,2.555,2.58235
0.0602428,-0.371246,2.555,2.58253
0.0680261,-0.368485,2.536,2.56353
0.0762573,-0.368485,2.536,2.56377
0.0844885,-0.368485,2.536,2.56402
0.0927197,-0.368485,2.536,2.56431
0.100951,-0.368485,2.536,2.56462
0.109182,-0.368485,2.536,2.56496
0.117413,-0.368485,2.536,2.56532
0.125645,-0.368485,2.536,2.56571
0.133876,-0.368485,2.536,2.56613
0.142107,-0.368485,2.536,2.56657
0.150338,-0.368485,2.536,2.56704
0.15857,-0.368485,2.536,2.56753
0.166801,-0.368485,2.536,2.56805
0.175032,-0.368485,2.536,2.5686
0.183263,-0.368485,2.536,2.56918
0.192929,-0.371246,2.555,2.58903
0.201222,-0.371246,2.555,2.58966
0.209515,-0.371246,2.555,2.59032
0.217808,-0.371246,2.555,2.591
0.226101,-0.371246,2.555,2.59171
0.234394,-0.371246,2.555,2.59245
0.242687,-0.371246,2.555,2.59321
0.250979,-0.371246,2.555,2.594
0.259272,-0.371246,2.555,2.59482
0.267565,-0.371246,2.555,2.59566
0.275858,-0.371246,2.555,2.59653
0.284151,-0.371246,2.555,2.59742
0.290269,-0.368485,2.536,2.57902
0.296264,-0.365725,2.517,2.56063
0.304434,-0.365725,2.517,2.56159
0.312603,-0.365725,2.517,2.56257
0.320773,-0.365725,2.517,2.56358
0.328942,-0.365725,2.517,2.56461
0.337112,-0.365725,2.517,2.56568
0.345281,-0.365725,2.517,2.56676
0.353451,-0.365725,2.517,2.56787
0.36162,-0.365725,2.517,2.56901
0.36979,-0.365725,2.517,2.57017
0.380813,-0.368485,2.536,2.59077
0.389044,-0.368485,2.536,2.59199
0.397275,-0.368485,2.536,2.59324
0.405506,-0.368485,2.536,2.59452
0.413738,-0.368485,2.536,2.59582
0.421969,-0.368485,2.536,2.59714
0.426977,-0.365725,2.517,2.57902
0.435146,-0.365725,2.517,2.58039
0.443316,-0.365725,2.517,2.58178
0.451486,-0.365725,2.517,2.58319
0.459655,-0.365725,2.517,2.58463
0.467825,-0.365725,2.517,2.5861
0.475994,-0.365725,2.517,2.58759
0.480701,-0.363109,2.499,2.57059
0.488812,-0.363109,2.499,2.57212
0.496924,-0.363109,2.499,2.57367
0.505035,-0.363109,2.499,2.57525
0.513146,-0.363109,2.499,2.57685
0.521257,-0.363109,2.499,2.57848
0.529368,-0.363109,2.499,2.58013
0.537479,-0.363109,2.499,2.58181
0.54559,-0.363109,2.499,2.58351
0.553702,-0.363109,2.499,2.58523
0.561813,-0.363109,2.499,2.58698
0.569924,-0.363109,2.499,2.58876
0.578035,-0.363109,2.499,2.59055
0.586146,-0.363109,2.499,2.59238
0.594257,-0.363109,2.499,2.59422
0.602368,-0.363109,2.499,2.59609
0.614877,-0.365725,2.517,2.6167
0.623046,-0.365725,2.517,2.61863
0.631216,-0.365725,2.517,2.62059
0.639385,-0.365725,2.517,2.62257
0.647555,-0.365725,2.517,2.62457
0.655725,-0.365725,2.517,2.6266
0.663894,-0.365725,2.517,2.62865
0.672064,-0.365725,2.517,2.63072
0.680233,-0.365725,2.517,2.63282
0.688403,-0.365725,2.517,2.63495
0.696572,-0.365725,2.517,2.63709
0.704742,-0.365725,2.517,2.63926
0.712911,-0.365725,2.517,2.64146
0.715924,-0.363109,2.499,2.62477
0.724035,-0.363109,2.499,2.62699
0.732147,-0.363109,2.499,2.62924
0.740258,-0.363109,2.499,2.63151
0.748369,-0.363109,2.499,2.6338
0.75648,-0.363109,2.499,2.63612
0.764591,-0.363109,2.499,2.63846
0.772702,-0.363109,2.499,2.64082
0.780813,-0.363109,2.499,2.6432
0.788924,-0.363109,2.499,2.64561
0.797036,-0.363109,2.499,2.64804
0.805147,-0.363109,2.499,2.65049
0.813258,-0.363109,2.499,2.65297
0.821369,-0.363109,2.499,2.65547
0.82948,-0.363109,2.499,2.65799
0.837591,-0.363109,2.499,2.66053
0.839611,-0.360494,2.481,2.64391
0.847664,-0.360494,2.481,2.64648
0.855716,-0.360494,2.481,2.64907
0.863769,-0.360494,2.481,2.65168
0.871822,-0.360494,2.481,2.65432
0.879874,-0.360494,2.481,2.65697
0.887927,-0.360494,2.481,2.65965
0.889479,-0.357878,2.463,2.64303
0.897474,-0.357878,2.463,2.64573
0.905468,-0.357878,2.463,2.64846
0.906787,-0.355263,2.445,2.63182
0.914722,-0.355263,2.445,2.63457
0.922658,-0.355263,2.445,2.63734
0.930594,-0.355263,2.445,2.64012
0.93853,-0.355263,2.445,2.64293
0.939885,-0.352793,2.428,2.62736
0.947766,-0.352793,2.428,2.63019
0.955646,-0.352793,2.428,2.63304
0.963527,-0.352793,2.428,2.63591
0.971408,-0.352793,2.428,2.6388
nan,nan,nan,NaN
nan,nan,nan,NaN
0.99505,-0.352793,2.428,2.6476
1.00293,-0.352793,2.428,2.65057
nan,nan,nan,NaN
nan,nan,nan,NaN
nan,nan,nan,NaN
nan,nan,nan,NaN
nan,nan,nan,NaN
nan,nan,nan,NaN
nan,nan,nan,NaN
nan,nan,nan,NaN
nan,nan,nan,NaN
nan,nan,nan,NaN
nan,nan,nan,NaN
nan,nan,nan,NaN
1.36716,-0.436341,3.003,3.32829
1.3769,-0.436341,3.003,3.33231
1.39912,-0.440264,3.03,3.36634
1.40895,-0.440264,3.03,3.37044
1.43143,-0.444188,3.057,3.40464
1.44135,-0.444188,3.057,3.40882
1.45127,-0.444188,3.057,3.41303
1.4612,-0.444188,3.057,3.41726
1.48411,-0.448111,3.084,3.45173
1.49412,-0.448111,3.084,3.45605
1.50413,-0.448111,3.084,3.46039
nan,nan,nan,NaN
nan,nan,nan,NaN
1.49387,-0.436341,3.003,3.38231
1.50361,-0.436341,3.003,3.38663
1.51336,-0.436341,3.003,3.39097
1.52311,-0.436341,3.003,3.39533
1.54664,-0.440264,3.03,3.43028
1.58421,-0.448111,3.084,3.49594
1.59422,-0.448111,3.084,3.50049
1.60423,-0.448111,3.084,3.50506
1.64408,-0.456393,3.141,3.57452
1.66954,-0.460607,3.17,3.61226
1.67983,-0.460607,3.17,3.61703
1.70558,-0.46482,3.199,3.65495
1.74869,-0.473684,3.26,3.7296
1.75927,-0.473684,3.26,3.73457
1.82197,-0.487633,3.356,3.84969
1.85088,-0.492428,3.389,3.89276
1.86188,-0.492428,3.389,3.898
1.89167,-0.497368,3.423,3.94243
1.92224,-0.502454,3.458,3.98814
1.95303,-0.507539,3.493,4.03398
1.96437,-0.507539,3.493,4.03948
1.99607,-0.51277,3.529,4.08669
2.02857,-0.518146,3.566,4.13521
2.04015,-0.518146,3.566,4.1409
2.05172,-0.518146,3.566,4.14661
2.06329,-0.518146,3.566,4.15235
2.07487,-0.518146,3.566,4.15811
2.08644,-0.518146,3.566,4.1639
2.07625,-0.51277,3.529,4.12645
2.0877,-0.51277,3.529,4.13222
2.07774,-0.507539,3.493,4.09581
2.06815,-0.502454,3.458,4.06048
2.07937,-0.502454,3.458,4.0662
2.06944,-0.497368,3.423,4.03074
2.03982,-0.487633,3.356,3.95745
2.05072,-0.487633,3.356,3.96307
2.02229,-0.478334,3.292,3.89304
1.99469,-0.469325,3.23,3.82517
2.00517,-0.469325,3.23,3.83065
1.97821,-0.460607,3.17,3.76489
1.93456,-0.448111,3.084,3.66802
1.94457,-0.448111,3.084,3.67331
1.92035,-0.440264,3.03,3.61421
1.89642,-0.432563,2.977,3.55613
1.90609,-0.432563,2.977,3.56129
1.89902,-0.428786,2.951,3.53533
1.87626,-0.421521,2.901,3.48049
1.88567,-0.421521,2.901,3.48558
1.87941,-0.418033,2.877,3.4618
1.85724,-0.411059,2.829,3.40904
1.85125,-0.407717,2.806,3.38629
1.86035,-0.407717,2.806,3.39128
1.85414,-0.404375,2.783,3.36845
1.84844,-0.401178,2.761,3.34676
1.8574,-0.401178,2.761,3.35172
1.86637,-0.401178,2.761,3.35669
1.86038,-0.397982,2.739,3.3349
-2.35106,-0.481431,3.389,4.15266
-2.36354,-0.486261,3.423,4.18804
-2.35243,-0.486261,3.423,4.18178
-2.34132,-0.486261,3.423,4.17554
-2.33021,-0.486261,3.423,4.16932
-2.3191,-0.486261,3.423,4.16312
-2.30799,-0.486261,3.423,4.15694
-2.29688,-0.486261,3.423,4.15078
-2.28577,-0.486261,3.423,4.14465
-2.27466,-0.486261,3.423,4.13853
-2.26355,-0.486261,3.423,4.13243
-2.27547,-0.491233,3.458,4.16855
-2.26424,-0.491233,3.458,4.16244
-2.25302,-0.491233,3.458,4.15634
-2.24179,-0.491233,3.458,4.15027
-2.25315,-0.496205,3.493,4.18616
-2.24181,-0.496205,3.493,4.18007
-2.23047,-0.496205,3.493,4.174
-2.21914,-0.496205,3.493,4.16795
-2.2078,-0.496205,3.493,4.16193
-2.19646,-0.496205,3.493,4.15592
-2.20764,-0.501319,3.529,4.19271
-2.17379,-0.496205,3.493,4.14399
-2.16245,-0.496205,3.493,4.13805
-2.15111,-0.496205,3.493,4.13214
-2.13977,-0.496205,3.493,4.12625
-2.10711,-0.491233,3.458,4.07909
-2.09589,-0.491233,3.458,4.0733
-2.08466,-0.491233,3.458,4.06754
-2.07344,-0.491233,3.458,4.0618
-2.06221,-0.491233,3.458,4.05608
nan,nan,nan,NaN
nan,nan,nan,NaN
nan,nan,nan,NaN
nan,nan,nan,NaN
nan,nan,nan,NaN
nan,nan,nan,NaN
nan,nan,nan,NaN
nan,nan,nan,NaN
nan,nan,nan,NaN
nan,nan,nan,NaN
nan,nan,nan,NaN
nan,nan,nan,NaN
nan,nan,nan,NaN
nan,nan,nan,NaN
nan,nan,nan,NaN
nan,nan,nan,NaN
nan,nan,nan,NaN
nan,nan,nan,NaN
nan,nan,nan,NaN
nan,nan,nan,NaN
nan,nan,nan,NaN
nan,nan,nan,NaN
nan,nan,nan,NaN
nan,nan,nan,NaN
nan,nan,nan,NaN
nan,nan,nan,NaN
nan,nan,nan,NaN
nan,nan,nan,NaN
nan,nan,nan,NaN
nan,nan,nan,NaN
nan,nan,nan,NaN
-1.14702,-0.330851,2.329,2.61713
-1.13946,-0.330851,2.329,2.61383
-1.1319,-0.330851,2.329,2.61054
-1.12435,-0.330851,2.329,2.60727
-1.12446,-0.333124,2.345,2.62191
-1.11685,-0.333124,2.345,2.61865
-1.10924,-0.333124,2.345,2.61542
-1.10162,-0.333124,2.345,2.6122
-1.09401,-0.333124,2.345,2.609
-1.0864,-0.333124,2.345,2.60581
-1.07879,-0.333124,2.345,2.60265
-1.07118,-0.333124,2.345,2.5995
-1.06357,-0.333124,2.345,2.59638
-1.05596,-0.333124,2.345,2.59327
-1.0555,-0.335396,2.361,2.60785
-1.04784,-0.335396,2.361,2.60476
-1.04017,-0.335396,2.361,2.60169
-1.03251,-0.335396,2.361,2.59863
-1.02485,-0.335396,2.361,2.5956
-1.01718,-0.335396,2.361,2.59258
-1.00952,-0.335396,2.361,2.58958
-1.00186,-0.335396,2.361,2.58661
-0.994193,-0.335396,2.361,2.58365
-0.993215,-0.337669,2.377,2.5982
-0.9855,-0.337669,2.377,2.59526
-0.977785,-0.337669,2.377,2.59234
-0.970069,-0.337669,2.377,2.58944
-0.962354,-0.337669,2.377,2.58656
-0.954639,-0.337669,2.377,2.5837
-0.946924,-0.337669,2.377,2.58086
-0.945926,-0.340084,2.394,2.59647
-0.938156,-0.340084,2.394,2.59365
-0.930385,-0.340084,2.394,2.59085
-0.922615,-0.340084,2.394,2.58807
-0.914845,-0.340084,2.394,2.58531
-0.907074,-0.340084,2.394,2.58257
-0.899304,-0.340084,2.394,2.57985
-0.891534,-0.340084,2.394,2.57715
-0.883763,-0.340084,2.394,2.57448
-0.875993,-0.340084,2.394,2.57182
-0.868223,-0.340084,2.394,2.56918
-0.866562,-0.342499,2.411,2.58479
-0.858737,-0.342499,2.411,2.58218
-0.850911,-0.342499,2.411,2.57959
-0.843086,-0.342499,2.411,2.57702
-0.83526,-0.342499,2.411,2.57447
-0.827435,-0.342499,2.411,2.57194
-0.819609,-0.342499,2.411,2.56943
-0.811784,-0.342499,2.411,2.56695
-0.803958,-0.342499,2.411,2.56448
-0.796133,-0.342499,2.411,2.56204
-0.788307,-0.342499,2.411,2.55962
-0.780482,-0.342499,2.411,2.55722
-0.772656,-0.342499,2.411,2.55484
-0.770224,-0.344914,2.428,2.57049
-0.762343,-0.344914,2.428,2.56814
-0.754462,-0.344914,2.428,2.56581
-0.746581,-0.344914,2.428,2.5635
-0.738701,-0.344914,2.428,2.56122
-0.73082,-0.344914,2.428,2.55895
-0.728001,-0.347329,2.445,2.57462
-0.720065,-0.347329,2.445,2.57238
-0.712129,-0.347329,2.445,2.57017
-0.704194,-0.347329,2.445,2.56799
-0.696258,-0.347329,2.445,2.56582
-0.688322,-0.347329,2.445,2.56368
-0.680386,-0.347329,2.445,2.56156
-0.677401,-0.349886,2.463,2.57831
-0.669406,-0.349886,2.463,2.57622
-0.661412,-0.349886,2.463,2.57415
-0.653418,-0.349886,2.463,2.57211
-0.645424,-0.349886,2.463,2.57009
-0.637429,-0.349886,2.463,2.56809
-0.634035,-0.352443,2.481,2.58487
-0.625982,-0.352443,2.481,2.58291
-0.61793,-0.352443,2.481,2.58097
-0.609877,-0.352443,2.481,2.57906
-0.610557,-0.357557,2.517,2.61456
-0.602387,-0.357557,2.517,2.61266
-0.594218,-0.357557,2.517,2.61079
-0.586048,-0.357557,2.517,2.60894
-0.582241,-0.360256,2.536,2.6268
-0.57401,-0.360256,2.536,2.62499
-0.565778,-0.360256,2.536,2.6232
-0.557547,-0.360256,2.536,2.62144
-0.549316,-0.360256,2.536,2.6197
-0.545139,-0.362956,2.555,2.6376
-0.536846,-0.362956,2.555,2.6359
-0.528553,-0.362956,2.555,2.63422
-0.52026,-0.362956,2.555,2.63257
-0.511967,-0.362956,2.555,2.63095
-0.503674,-0.362956,2.555,2.62934
-0.495381,-0.362956,2.555,2.62777
-0.487088,-0.362956,2.555,2.62622
-0.478795,-0.362956,2.555,2.62469
-0.470502,-0.362956,2.555,2.62319
-0.458772,-0.360256,2.536,2.60222
-0.450541,-0.360256,2.536,2.60078
-0.44231,-0.360256,2.536,2.59937
-0.434079,-0.360256,2.536,2.59798
-0.425848,-0.360256,2.536,2.59662
-0.414487,-0.357557,2.517,2.57584
-0.403412,-0.355,2.499,2.55612
-0.392454,-0.352443,2.481,2.53645
-0.384401,-0.352443,2.481,2.53522
-0.373618,-0.349886,2.463,2.51563
-0.365624,-0.349886,2.463,2.51445
-0.357629,-0.349886,2.463,2.5133
-0.34708,-0.347329,2.445,2.49382
-0.339144,-0.347329,2.445,2.49273
-0.331208,-0.347329,2.445,2.49166
-0.321025,-0.344914,2.428,2.4733
-0.313144,-0.344914,2.428,2.47229
-0.305263,-0.344914,2.428,2.4713
-0.2953,-0.342499,2.411,2.45304
-0.285448,-0.340084,2.394,2.43483
-0.277677,-0.340084,2.394,2.43393
-0.269907,-0.340084,2.394,2.43305
-0.262137,-0.340084,2.394,2.4322
-0.254366,-0.340084,2.394,2.43138
-0.246596,-0.340084,2.394,2.43058
-0.238826,-0.340084,2.394,2.4298
-0.231055,-0.340084,2.394,2.42905
-0.223285,-0.340084,2.394,2.42832
-0.215515,-0.340084,2.394,2.42762
-0.20922,-0.342499,2.411,2.44418
-0.201394,-0.342499,2.411,2.44352
-0.193569,-0.342499,2.411,2.44289
-0.185743,-0.342499,2.411,2.44228
-0.179172,-0.344914,2.428,2.45891
-0.172491,-0.347329,2.445,2.47556
-0.164555,-0.347329,2.445,2.47502
-0.156619,-0.347329,2.445,2.47451
-0.149778,-0.349886,2.463,2.49223
-0.141784,-0.349886,2.463,2.49176
-0.133789,-0.349886,2.463,2.49132
-0.126714,-0.352443,2.481,2.50911
-0.118662,-0.352443,2.481,2.50872
-0.110609,-0.352443,2.481,2.50835
-0.102556,-0.352443,2.481,2.50801
-0.0951891,-0.355,2.499,2.52588
-0.087078,-0.355,2.499,2.52559
-0.0789668,-0.355,2.499,2.52532
-0.0708557,-0.355,2.499,2.52508
-0.0627446,-0.355,2.499,2.52487
-0.0546334,-0.355,2.499,2.52468
-0.0468574,-0.357557,2.517,2.5427
-0.0386878,-0.357557,2.517,2.54256
-0.0305183,-0.357557,2.517,2.54245
-0.0225174,-0.360256,2.536,2.56156
-0.0142862,-0.360256,2.536,2.5615
-0.00605498,-0.360256,2.536,2.56147
0.00217625,-0.360256,2.536,2.56146
0.0104075,-0.360256,2.536,2.56148
0.0186387,-0.360256,2.536,2.56153
0.0268699,-0.360256,2.536,2.5616
0.0353641,-0.362956,2.555,2.58089
0.043657,-0.362956,2.555,2.58102
0.0519499,-0.362956,2.555,2.58117
0.0602428,-0.362956,2.555,2.58135
0.0680261,-0.360256,2.536,2.56236
0.0762573,-0.360256,2.536,2.5626
0.0844885,-0.360256,2.536,2.56285
0.0927197,-0.360256,2.536,2.56314
0.100951,-0.360256,2.536,2.56345
0.109182,-0.360256,2.536,2.56379
0.117413,-0.360256,2.536,2.56415
0.125645,-0.360256,2.536,2.56454
0.133876,-0.360256,2.536,2.56496
0.142107,-0.360256,2.536,2.5654
0.150338,-0.360256,2.536,2.56587
0.15857,-0.360256,2.536,2.56636
0.166801,-0.360256,2.536,2.56689
0.175032,-0.360256,2.536,2.56743
0.183263,-0.360256,2.536,2.56801
0.192929,-0.362956,2.555,2.58785
0.201222,-0.362956,2.555,2.58848
0.209515,-0.362956,2.555,2.58914
0.217808,-0.362956,2.555,2.58983
0.226101,-0.362956,2.555,2.59054
0.234394,-0.362956,2.555,2.59127
0.242687,-0.362956,2.555,2.59204
0.250979,-0.362956,2.555,2.59283
0.259272,-0.362956,2.555,2.59364
0.267565,-0.362956,2.555,2.59449
0.275858,-0.362956,2.555,2.59535
0.284151,-0.362956,2.555,2.59625
0.290269,-0.360256,2.536,2.57786
