-0.74927,0.677619,1.912,2.16248
-0.739178,0.674075,1.902,2.14904
-0.733005,0.674075,1.902,2.14692
-0.726831,0.674075,1.902,2.14482
-0.71649,0.670176,1.891,2.13035
-0.710352,0.670176,1.891,2.12829
-0.704215,0.670176,1.891,2.12625
-0.694385,0.666632,1.881,2.11299
-0.68828,0.666632,1.881,2.11099
-0.678548,0.663088,1.871,2.0978
-0.672475,0.663088,1.871,2.09584
-0.662841,0.659544,1.861,2.08271
-0.6568,0.659544,1.861,2.08079
-0.65076,0.659544,1.861,2.0789
-0.640909,0.655646,1.85,2.06474
-0.634904,0.655646,1.85,2.06288
-0.6289,0.655646,1.85,2.06104
-0.622895,0.655646,1.85,2.05922
-0.61689,0.655646,1.85,2.05741
-0.610886,0.655646,1.85,2.05562
-0.604881,0.655646,1.85,2.05384
-0.598876,0.655646,1.85,2.05208
-0.592872,0.655646,1.85,2.05033
-0.584012,0.652456,1.841,2.03864
-0.578037,0.652456,1.841,2.03694
-0.572061,0.652456,1.841,2.03525
-0.566086,0.652456,1.841,2.03358
-0.560111,0.652456,1.841,2.03192
-0.554135,0.652456,1.841,2.03028
-0.54816,0.652456,1.841,2.02866
-0.542184,0.652456,1.841,2.02705
-0.536209,0.652456,1.841,2.02546
-0.530233,0.652456,1.841,2.02389
-0.52141,0.648912,1.831,2.01135
-0.515467,0.648912,1.831,2.00981
-0.509524,0.648912,1.831,2.0083
-0.503581,0.648912,1.831,2.0068
-0.497638,0.648912,1.831,2.00532
-0.491695,0.648912,1.831,2.00385
-0.483099,0.645368,1.821,1.99146
-0.477189,0.645368,1.821,1.99004
-0.471278,0.645368,1.821,1.98863
-0.465368,0.645368,1.821,1.98724
-0.459457,0.645368,1.821,1.98586
-0.453547,0.645368,1.821,1.9845
-0.447636,0.645368,1.821,1.98316
-0.441726,0.645368,1.821,1.98183
-0.435815,0.645368,1.821,1.98052
-0.429905,0.645368,1.821,1.97923
-0.423994,0.645368,1.821,1.97796
-0.418084,0.645368,1.821,1.9767
-0.412173,0.645368,1.821,1.97546
-0.406263,0.645368,1.821,1.97423
-0.400352,0.645368,1.821,1.97302
-0.394442,0.645368,1.821,1.97183
-0.388531,0.645368,1.821,1.97066
-0.388714,0.655646,1.85,2.00087
-0.382709,0.655646,1.85,1.99971
-0.376705,0.655646,1.85,1.99857
-0.3707,0.655646,1.85,1.99745
-0.364696,0.655646,1.85,1.99634
-0.358691,0.655646,1.85,1.99525
-0.35097,0.652456,1.841,1.98448
-0.344995,0.652456,1.841,1.98343
-0.33902,0.652456,1.841,1.9824
-0.333044,0.652456,1.841,1.98139
-0.327069,0.652456,1.841,1.98039
-0.321093,0.652456,1.841,1.97941
-0.315118,0.652456,1.841,1.97845
-0.307463,0.648912,1.831,1.96677
-0.30152,0.648912,1.831,1.96585
-0.295577,0.648912,1.831,1.96495
-0.289634,0.648912,1.831,1.96406
-0.283691,0.648912,1.831,1.96319
-0.277748,0.648912,1.831,1.96234
-0.271805,0.648912,1.831,1.96151
-0.26441,0.645368,1.821,1.94999
-0.2585,0.645368,1.821,1.9492
-0.252589,0.645368,1.821,1.94842
-0.246679,0.645368,1.821,1.94766
-0.240768,0.645368,1.821,1.94692
-0.233568,0.641824,1.811,1.93551
-0.22769,0.641824,1.811,1.93481
-0.221812,0.641824,1.811,1.93413
-0.215934,0.641824,1.811,1.93347
-0.210056,0.641824,1.811,1.93282
-0.204178,0.641824,1.811,1.93219
-0.1983,0.641824,1.811,1.93158
-0.192422,0.641824,1.811,1.93098
-0.185617,0.638634,1.802,1.92081
-0.179768,0.638634,1.802,1.92025
-0.173919,0.638634,1.802,1.91971
-0.16891,0.641824,1.811,1.92878
-0.163031,0.641824,1.811,1.92827
-0.156372,0.638634,1.802,1.9182
-0.150524,0.638634,1.802,1.91774
-0.144675,0.638634,1.802,1.91729
-0.138826,0.638634,1.802,1.91685
-0.132977,0.638634,1.802,1.91644
-0.127763,0.641824,1.811,1.92561
-0.121885,0.641824,1.811,1.92523
-0.116007,0.641824,1.811,1.92487
-0.110737,0.645368,1.821,1.93515
-0.104827,0.645368,1.821,1.93482
-0.0989161,0.645368,1.821,1.93451
-0.0930055,0.645368,1.821,1.93422
-0.087095,0.645368,1.821,1.93394
-0.0811845,0.645368,1.821,1.93368
-0.075274,0.645368,1.821,1.93344
-0.0689826,0.641824,1.811,1.92261
-0.0631045,0.641824,1.811,1.92241
-0.0572265,0.641824,1.811,1.92222
-0.0510932,0.638634,1.802,1.9125
-0.0452444,0.638634,1.802,1.91236
-0.0391769,0.63509,1.792,1.90161
-0.033193,0.631901,1.783,1.89195
-0.0274058,0.631901,1.783,1.89186
-0.0215095,0.628711,1.774,1.88224
-0.0157515,0.628711,1.774,1.88218
-0.00994288,0.625521,1.765,1.87259
-0.00421413,0.625521,1.765,1.87257
0.00151462,0.625521,1.765,1.87257
0.00724337,0.625521,1.765,1.87258
0.0129721,0.625521,1.765,1.87261
0.0187009,0.625521,1.765,1.87266
0.0244296,0.625521,1.765,1.87273
0.0301584,0.625521,1.765,1.87281
0.0358871,0.625521,1.765,1.87291
0.0418281,0.628711,1.774,1.88258
0.047586,0.628711,1.774,1.88272
0.053344,0.628711,1.774,1.88287
0.0594018,0.631901,1.783,1.8926
0.065189,0.631901,1.783,1.89279
0.0709762,0.631901,1.783,1.89299
0.0767633,0.631901,1.783,1.89322
0.0829672,0.63509,1.792,1.90302
0.0887836,0.63509,1.792,1.90328
0.0946,0.63509,1.792,1.90356
0.100416,0.63509,1.792,1.90386
0.106233,0.63509,1.792,1.90418
0.112049,0.63509,1.792,1.90451
0.117274,0.631901,1.783,1.89529
0.123061,0.631901,1.783,1.89566
0.128848,0.631901,1.783,1.89605
0.134635,0.631901,1.783,1.89645
0.140422,0.631901,1.783,1.89687
0.146209,0.631901,1.783,1.8973
0.151997,0.631901,1.783,1.89776
0.156987,0.628711,1.774,1.88865
0.162745,0.628711,1.774,1.88914
0.168503,0.628711,1.774,1.88964
0.174261,0.628711,1.774,1.89016
0.180019,0.628711,1.774,1.8907
0.185777,0.628711,1.774,1.89126
0.191535,0.628711,1.774,1.89183
0.197293,0.628711,1.774,1.89243
0.203051,0.628711,1.774,1.89304
0.208809,0.628711,1.774,1.89366
0.214567,0.628711,1.774,1.89431
0.220325,0.628711,1.774,1.89497
0.226083,0.628711,1.774,1.89564
0.233017,0.631901,1.783,1.90596
0.238804,0.631901,1.783,1.90668
0.244591,0.631901,1.783,1.90741
0.250379,0.631901,1.783,1.90816
0.256166,0.631901,1.783,1.90893
0.261953,0.631901,1.783,1.90971
0.26774,0.631901,1.783,1.91052
0.273527,0.631901,1.783,1.91134
0.279314,0.631901,1.783,1.91217
0.285102,0.631901,1.783,1.91303
0.290889,0.631901,1.783,1.9139
0.296676,0.631901,1.783,1.91479
0.302463,0.631901,1.783,1.91569
0.30825,0.631901,1.783,1.91661
0.314038,0.631901,1.783,1.91755
0.31821,0.628711,1.774,1.90882
0.323968,0.628711,1.774,1.90979
0.329726,0.628711,1.774,1.91078
0.333782,0.625521,1.765,1.90208
0.339511,0.625521,1.765,1.90309
0.347,0.628711,1.774,1.91383
0.352758,0.628711,1.774,1.91489
0.358516,0.628711,1.774,1.91596
0.364274,0.628711,1.774,1.91704
0.370032,0.628711,1.774,1.91814
0.37579,0.628711,1.774,1.91926
0.379612,0.625521,1.765,1.91066
0.385341,0.625521,1.765,1.9118
0.39107,0.625521,1.765,1.91297
0.396798,0.625521,1.765,1.91415
0.402527,0.625521,1.765,1.91534
0.408256,0.625521,1.765,1.91655
0.413985,0.625521,1.765,1.91778
0.419713,0.625521,1.765,1.91903
0.425442,0.625521,1.765,1.92029
0.428972,0.622332,1.756,1.91177
0.434672,0.622332,1.756,1.91305
0.442628,0.625521,1.765,1.92417
0.448357,0.625521,1.765,1.92549
0.454086,0.625521,1.765,1.92684
0.459815,0.625521,1.765,1.92819
0.465543,0.625521,1.765,1.92957
0.471272,0.625521,1.765,1.93096
0.477001,0.625521,1.765,1.93236
0.48273,0.625521,1.765,1.93379
0.488459,0.625521,1.765,1.93522
0.494187,0.625521,1.765,1.93668
0.499916,0.625521,1.765,1.93815
0.505645,0.625521,1.765,1.93963
0.511374,0.625521,1.765,1.94114
0.517102,0.625521,1.765,1.94265
0.522831,0.625521,1.765,1.94418
0.52856,0.625521,1.765,1.94573
0.534289,0.625521,1.765,1.9473
0.540017,0.625521,1.765,1.94888
0.548529,0.628711,1.774,1.96042
0.563035,0.638634,1.802,1.993
0.568884,0.638634,1.802,1.99466
0.577604,0.641824,1.811,2.00631
0.583482,0.641824,1.811,2.00801
0.592614,0.645368,1.821,2.02082
0.598525,0.645368,1.821,2.02257
0.604435,0.645368,1.821,2.02432
0.610346,0.645368,1.821,2.0261
0.616256,0.645368,1.821,2.02788
0.625583,0.648912,1.831,2.04083
0.631526,0.648912,1.831,2.04266
0.637469,0.648912,1.831,2.04451
0.639898,0.645368,1.821,2.03519
0.645809,0.645368,1.821,2.03706
0.64814,0.641824,1.811,2.02774
0.654018,0.641824,1.811,2.02963
0.656617,0.638634,1.802,2.02144
0.662466,0.638634,1.802,2.02334
0.668315,0.638634,1.802,2.02527
0.670422,0.63509,1.792,2.01595
0.676239,0.63509,1.792,2.0179
0.67863,0.631901,1.783,2.00971
0.680962,0.628711,1.774,2.00152
0.68672,0.628711,1.774,2.00348
0.692478,0.628711,1.774,2.00546
0.694694,0.625521,1.765,1.99727
0.700422,0.625521,1.765,1.99927
0.69895,0.619142,1.747,1.98088
0.70462,0.619142,1.747,1.98289
0.71029,0.619142,1.747,1.98491
0.712272,0.615952,1.738,1.97671
0.714196,0.612763,1.729,1.9685
0.719808,0.612763,1.729,1.97054
0.725419,0.612763,1.729,1.9726
0.731031,0.612763,1.729,1.97467
0.736643,0.612763,1.729,1.97676
0.742255,0.612763,1.729,1.97885
0.747867,0.612763,1.729,1.98097
0.753479,0.612763,1.729,1.98309
0.759091,0.612763,1.729,1.98523
0.764703,0.612763,1.729,1.98738
0.770315,0.612763,1.729,1.98955
0.775927,0.612763,1.729,1.99173
0.781538,0.612763,1.729,1.99392
0.78715,0.612763,1.729,1.99613
0.792762,0.612763,1.729,1.99835
0.80253,0.615952,1.738,2.01099
0.808171,0.615952,1.738,2.01325
0.813812,0.615952,1.738,2.01552
0.823697,0.619142,1.747,2.02826
0.829367,0.619142,1.747,2.03057
0.835037,0.619142,1.747,2.03289
0.845039,0.622332,1.756,2.04571
0.850738,0.622332,1.756,2.04807
0.860827,0.625521,1.765,2.06095
0.870975,0.628711,1.774,2.07387
0.881181,0.631901,1.783,2.08683
0.886968,0.631901,1.783,2.08928
0.897261,0.63509,1.792,2.1023
0.903078,0.63509,1.792,2.10479
0.908894,0.63509,1.792,2.1073
0.919815,0.638634,1.802,2.12158
0.930287,0.641824,1.811,2.13474
0.936165,0.641824,1.811,2.1373
0.942043,0.641824,1.811,2.13988
0.947921,0.641824,1.811,2.14248
0.949059,0.638634,1.802,2.13443
0.954908,0.638634,1.802,2.13703
0.960757,0.638634,1.802,2.13965
0.966606,0.638634,1.802,2.14228
0.967058,0.63509,1.792,2.13303
0.967988,0.631901,1.783,2.12494
0.973776,0.631901,1.783,2.12759
0.979563,0.631901,1.783,2.13024
0.980376,0.628711,1.774,2.12214
0.986134,0.628711,1.774,2.12481
0.991892,0.628711,1.774,2.12749
0.99765,0.628711,1.774,2.13018
1.00341,0.628711,1.774,2.13288
1.00917,0.628711,1.774,2.1356
1.01492,0.628711,1.774,2.13832
1.02068,0.628711,1.774,2.14106
1.02644,0.628711,1.774,2.14381
1.0322,0.628711,1.774,2.14658
1.04322,0.631901,1.783,2.16025
1.04901,0.631901,1.783,2.16306
1.0548,0.631901,1.783,2.16587
1.06594,0.63509,1.792,2.17964
1.07175,0.63509,1.792,2.18249
1.07757,0.63509,1.792,2.18535
1.09487,0.641824,1.811,2.21143
1.10683,0.645368,1.821,2.22657
1.11274,0.645368,1.821,2.22951
1.13094,0.652456,1.841,2.25699
1.14247,0.655646,1.85,2.27104
1.14847,0.655646,1.85,2.27406
1.15448,0.655646,1.85,2.2771
1.16048,0.655646,1.85,2.28015
1.16649,0.655646,1.85,2.28321
1.17249,0.655646,1.85,2.28629
1.1785,0.655646,1.85,2.28937
1.1845,0.655646,1.85,2.29247
1.19051,0.655646,1.85,2.29558
1.19069,0.652456,1.841,2.28751
1.19667,0.652456,1.841,2.29063
1.20264,0.652456,1.841,2.29376
1.20862,0.652456,1.841,2.2969
1.21459,0.652456,1.841,2.30005
1.22057,0.652456,1.841,2.30321
1.21988,0.648912,1.831,2.29385
1.21913,0.645368,1.821,2.28447
1.22504,0.645368,1.821,2.28763
1.23095,0.645368,1.821,2.2908
1.24365,0.648912,1.831,2.30658
-1.42215,0.733178,2.05,2.60049
-1.4155,0.733178,2.05,2.59686
-1.41709,0.73747,2.062,2.60842
-1.41929,0.742119,2.075,2.62121
-1.41256,0.742119,2.075,2.61757
-1.40582,0.742119,2.075,2.61394
-1.39909,0.742119,2.075,2.61033
-1.39235,0.742119,2.075,2.60672
-1.39363,0.746411,2.087,2.61819
-1.37888,0.742119,2.075,2.59955
-1.37215,0.742119,2.075,2.59599
-1.36541,0.742119,2.075,2.59243
-1.35868,0.742119,2.075,2.58889
-1.35194,0.742119,2.075,2.58536
-1.33678,0.73747,2.062,2.56567
-1.33009,0.73747,2.062,2.56219
-1.32339,0.73747,2.062,2.55873
-1.3167,0.73747,2.062,2.55527
-1.30238,0.733178,2.05,2.53698
-1.28815,0.728886,2.038,2.51874
-1.28153,0.728886,2.038,2.51536
-1.27492,0.728886,2.038,2.512
-1.26083,0.724595,2.026,2.49388
-1.25426,0.724595,2.026,2.49056
-1.24768,0.724595,2.026,2.48725
-1.24111,0.724595,2.026,2.48396
-1.23453,0.724595,2.026,2.48068
-1.22068,0.720303,2.014,2.46274
-1.21414,0.720303,2.014,2.45951
-1.20761,0.720303,2.014,2.45629
-1.20107,0.720303,2.014,2.45308
-1.19453,0.720303,2.014,2.44989
-1.188,0.720303,2.014,2.44671
-1.18146,0.720303,2.014,2.44354
-1.17492,0.720303,2.014,2.44038
-1.16838,0.720303,2.014,2.43724
-1.16185,0.720303,2.014,2.43412
-1.15531,0.720303,2.014,2.431
-1.14193,0.716011,2.002,2.41344
-1.13543,0.716011,2.002,2.41037
-1.12217,0.711719,1.99,2.39289
-1.10954,0.707785,1.979,2.37665
-1.10312,0.707785,1.979,2.37366
-1.09004,0.703493,1.967,2.35631
-1.08366,0.703493,1.967,2.35336
-1.07727,0.703493,1.967,2.35043
-1.07089,0.703493,1.967,2.34751
-1.05855,0.699559,1.956,2.33149
-1.0522,0.699559,1.956,2.32862
-1.04586,0.699559,1.956,2.32575
-1.03951,0.699559,1.956,2.32291
-1.03316,0.699559,1.956,2.32007
-1.02681,0.699559,1.956,2.31725
-1.02046,0.699559,1.956,2.31445
-1.01411,0.699559,1.956,2.31165
-1.00776,0.699559,1.956,2.30888
-1.00705,0.703493,1.967,2.31908
-1.00066,0.703493,1.967,2.31632
-0.988717,0.699559,1.956,2.30063
-0.982368,0.699559,1.956,2.2979
-0.97602,0.699559,1.956,2.2952
-0.969671,0.699559,1.956,2.29251
-0.963322,0.699559,1.956,2.28983
-0.956974,0.699559,1.956,2.28716
-0.945279,0.695625,1.945,2.27167
-0.938966,0.695625,1.945,2.26905
-0.927378,0.691691,1.934,2.25362
-0.915862,0.687757,1.923,2.23825
-0.904417,0.683823,1.912,2.22291
-0.898211,0.683823,1.912,2.22039
-0.88734,0.680246,1.902,2.20629
-0.876071,0.676312,1.891,2.19107
-0.869933,0.676312,1.891,2.18862
-0.859227,0.672736,1.881,2.17463
-0.853122,0.672736,1.881,2.17222
-0.847017,0.672736,1.881,2.16983
-0.836441,0.669159,1.871,2.15593
-0.830368,0.669159,1.871,2.15358
-0.824295,0.669159,1.871,2.15125
-0.813849,0.665583,1.861,2.13745
-0.807809,0.665583,1.861,2.13515
-0.801769,0.665583,1.861,2.13287
-0.795728,0.665583,1.861,2.13061
-0.789688,0.665583,1.861,2.12836
-0.787859,0.669159,1.871,2.13755
-0.781786,0.669159,1.871,2.13532
-0.775713,0.669159,1.871,2.13311
-0.76964,0.669159,1.871,2.13091
-0.763567,0.669159,1.871,2.12872
-0.757495,0.669159,1.871,2.12655
-0.755438,0.672736,1.881,2.13575
-0.749333,0.672736,1.881,2.1336
-0.743227,0.672736,1.881,2.13146
-0.737122,0.672736,1.881,2.12934
-0.731017,0.672736,1.881,2.12723
-0.724912,0.672736,1.881,2.12514
-0.718806,0.672736,1.881,2.12307
-0.712701,0.672736,1.881,2.12101
-0.710352,0.676312,1.891,2.13023
-0.704215,0.676312,1.891,2.12819
-0.694385,0.672736,1.881,2.11492
-0.68828,0.672736,1.881,2.11293
-0.678548,0.669159,1.871,2.09972
-0.672475,0.669159,1.871,2.09777
-0.662841,0.665583,1.861,2.08463
-0.6568,0.665583,1.861,2.08272
-0.65076,0.665583,1.861,2.08082
-0.640909,0.661649,1.85,2.06665
-0.634904,0.661649,1.85,2.0648
-0.6289,0.661649,1.85,2.06296
-0.622895,0.661649,1.85,2.06114
-0.61689,0.661649,1.85,2.05933
-0.610886,0.661649,1.85,2.05754
-0.604881,0.661649,1.85,2.05576
-0.598876,0.661649,1.85,2.054
-0.592872,0.661649,1.85,2.05226
-0.584012,0.65843,1.841,2.04056
-0.578037,0.65843,1.841,2.03886
-0.572061,0.65843,1.841,2.03717
-0.566086,0.65843,1.841,2.0355
-0.560111,0.65843,1.841,2.03385
-0.554135,0.65843,1.841,2.03221
-0.54816,0.65843,1.841,2.03059
-0.542184,0.65843,1.841,2.02898
-0.536209,0.65843,1.841,2.0274
-0.530233,0.65843,1.841,2.02582
-0.52141,0.654853,1.831,2.01327
-0.515467,0.654853,1.831,2.01174
-0.509524,0.654853,1.831,2.01023
-0.503581,0.654853,1.831,2.00873
-0.497638,0.654853,1.831,2.00725
-0.491695,0.654853,1.831,2.00578
-0.483099,0.651277,1.821,1.99339
-0.477189,0.651277,1.821,1.99196
-0.471278,0.651277,1.821,1.99055
-0.465368,0.651277,1.821,1.98916
-0.459457,0.651277,1.821,1.98779
-0.453547,0.651277,1.821,1.98643
-0.447636,0.651277,1.821,1.98509
-0.441726,0.651277,1.821,1.98377
-0.435815,0.651277,1.821,1.98246
-0.429905,0.651277,1.821,1.98117
-0.423994,0.651277,1.821,1.97989
-0.418084,0.651277,1.821,1.97864
-0.412173,0.651277,1.821,1.97739
-0.406263,0.651277,1.821,1.97617
-0.400352,0.651277,1.821,1.97496
-0.394442,0.651277,1.821,1.97377
-0.388531,0.651277,1.821,1.9726
-0.382621,0.651277,1.821,1.97145
-0.37671,0.651277,1.821,1.97031
-0.368763,0.6477,1.811,1.95837
-0.362885,0.6477,1.811,1.95727
-0.358979,0.651277,1.821,1.96699
-0.353068,0.651277,1.821,1.96592
-0.347158,0.651277,1.821,1.96487
-0.339373,0.6477,1.811,1.95305
-0.333495,0.6477,1.811,1.95204
-0.327617,0.6477,1.811,1.95104
-0.321739,0.6477,1.811,1.95006
-0.315861,0.6477,1.811,1.9491
-0.308442,0.644481,1.802,1.93848
-0.302594,0.644481,1.802,1.93756
-0.296745,0.644481,1.802,1.93665
-0.290896,0.644481,1.802,1.93576
-0.285047,0.644481,1.802,1.93489
-0.279198,0.644481,1.802,1.93404
-0.273349,0.644481,1.802,1.9332
-0.266016,0.640905,1.792,1.92166
-0.2602,0.640905,1.792,1.92087
-0.254383,0.640905,1.792,1.92009
-0.248567,0.640905,1.792,1.91933
-0.24275,0.640905,1.792,1.91858
-0.236934,0.640905,1.792,1.91785
-0.229957,0.637686,1.783,1.90751
-0.22417,0.637686,1.783,1.90683
-0.218383,0.637686,1.783,1.90615
-0.212595,0.637686,1.783,1.9055
-0.206808,0.637686,1.783,1.90486
-0.201021,0.637686,1.783,1.90424
-0.195234,0.637686,1.783,1.90364
-0.189447,0.637686,1.783,1.90306
-0.182732,0.634467,1.774,1.89289
-0.176975,0.634467,1.774,1.89234
-0.171217,0.634467,1.774,1.89181
-0.166298,0.637686,1.783,1.90089
-0.160511,0.637686,1.783,1.90039
-0.154724,0.637686,1.783,1.89991
-0.148936,0.637686,1.783,1.89945
-0.143149,0.637686,1.783,1.89901
-0.137362,0.637686,1.783,1.89858
-0.131575,0.637686,1.783,1.89817
-0.126423,0.640905,1.792,1.90736
-0.120606,0.640905,1.792,1.90698
-0.11479,0.640905,1.792,1.90662
-0.109582,0.644481,1.802,1.91692
-0.103733,0.644481,1.802,1.91659
-0.097884,0.644481,1.802,1.91628
-0.0920351,0.644481,1.802,1.91599
-0.085708,0.640905,1.792,1.90509
-0.0798916,0.640905,1.792,1.90484
-0.0737032,0.637686,1.783,1.89504
-0.067916,0.637686,1.783,1.89482
-0.0621289,0.637686,1.783,1.89462
-0.0563417,0.637686,1.783,1.89444
-0.0502993,0.634467,1.774,1.88472
-0.0445414,0.634467,1.774,1.88457
-0.0383899,0.62803,1.756,1.86532
-0.0326903,0.62803,1.756,1.86521
-0.0269908,0.62803,1.756,1.86512
-0.0211821,0.624811,1.747,1.85549
-0.0155118,0.624811,1.747,1.85543
-0.00984148,0.624811,1.747,1.8554
-0.00414967,0.621592,1.738,1.84582
0.00149145,0.621592,1.738,1.84581
0.00713257,0.621592,1.738,1.84583
0.0127737,0.621592,1.738,1.84586
0.0184148,0.621592,1.738,1.8459
0.0240559,0.621592,1.738,1.84597
0.029697,0.621592,1.738,1.84605
0.0353381,0.621592,1.738,1.84615
0.0409793,0.621592,1.738,1.84627
0.0468618,0.624811,1.747,1.85596
0.0525321,0.624811,1.747,1.85611
0.0582025,0.624811,1.747,1.85628
0.0638728,0.624811,1.747,1.85647
0.0695431,0.624811,1.747,1.85667
0.0752134,0.624811,1.747,1.85689
0.0813005,0.62803,1.756,1.8667
0.087,0.62803,1.756,1.86696
0.0926995,0.62803,1.756,1.86723
0.0983991,0.62803,1.756,1.86752
0.104099,0.62803,1.756,1.86783
0.109798,0.62803,1.756,1.86816
0.115498,0.62803,1.756,1.8685
0.121197,0.62803,1.756,1.86886
0.126897,0.62803,1.756,1.86924
0.132596,0.62803,1.756,1.86964
0.137587,0.624811,1.747,1.86046
0.143257,0.624811,1.747,1.86089
0.148928,0.624811,1.747,1.86134
0.154598,0.624811,1.747,1.8618
0.160268,0.624811,1.747,1.86228
0.165939,0.624811,1.747,1.86278
0.171609,0.624811,1.747,1.86329
0.177279,0.624811,1.747,1.86382
0.18295,0.624811,1.747,1.86437
0.18862,0.624811,1.747,1.86493
0.19429,0.624811,1.747,1.86552
0.199961,0.624811,1.747,1.86611
0.205631,0.624811,1.747,1.86673
0.211301,0.624811,1.747,1.86736
0.216972,0.624811,1.747,1.86801
0.222642,0.624811,1.747,1.86868
0.228312,0.624811,1.747,1.86936
0.233983,0.624811,1.747,1.87007
0.239653,0.624811,1.747,1.87078
0.246587,0.62803,1.756,1.88116
0.252287,0.62803,1.756,1.88192
0.257986,0.62803,1.756,1.88269
0.26774,0.637686,1.783,1.91244
0.273527,0.637686,1.783,1.91326
0.279314,0.637686,1.783,1.91409
0.285102,0.637686,1.783,1.91495
0.290889,0.637686,1.783,1.91582
0.296676,0.637686,1.783,1.9167
0.302463,0.637686,1.783,1.91761
0.30825,0.637686,1.783,1.91853
0.314038,0.637686,1.783,1.91947
0.31821,0.634467,1.774,1.91073
0.323968,0.634467,1.774,1.9117
0.329726,0.634467,1.774,1.91268
0.333782,0.631248,1.765,1.90397
0.339511,0.631248,1.765,1.90498
0.347,0.634467,1.774,1.91573
0.352758,0.634467,1.774,1.91678
0.358516,0.634467,1.774,1.91785
0.364274,0.634467,1.774,1.91894
0.370032,0.634467,1.774,1.92004
0.37579,0.634467,1.774,1.92116
0.379612,0.631248,1.765,1.91254
0.385341,0.631248,1.765,1.91368
0.39107,0.631248,1.765,1.91485
0.396798,0.631248,1.765,1.91602
0.402527,0.631248,1.765,1.91722
0.408256,0.631248,1.765,1.91843
0.413985,0.631248,1.765,1.91966
0.419713,0.631248,1.765,1.9209
0.425442,0.631248,1.765,1.92216
0.428972,0.62803,1.756,1.91363
0.434672,0.62803,1.756,1.91491
0.442628,0.631248,1.765,1.92604
0.448357,0.631248,1.765,1.92736
0.454086,0.631248,1.765,1.9287
0.459815,0.631248,1.765,1.93006
0.465543,0.631248,1.765,1.93143
0.471272,0.631248,1.765,1.93282
0.477001,0.631248,1.765,1.93423
0.48273,0.631248,1.765,1.93565
0.488459,0.631248,1.765,1.93708
0.494187,0.631248,1.765,1.93854
0.499916,0.631248,1.765,1.94
0.505645,0.631248,1.765,1.94149
0.511374,0.631248,1.765,1.94299
0.517102,0.631248,1.765,1.9445
0.522831,0.631248,1.765,1.94604
0.52856,0.631248,1.765,1.94758
0.534289,0.631248,1.765,1.94914
0.540017,0.631248,1.765,1.95072
0.548529,0.634467,1.774,1.96227
0.554287,0.634467,1.774,1.96389
0.560045,0.634467,1.774,1.96552
0.568673,0.637686,1.783,1.97715
0.57736,0.640905,1.792,1.98881
0.583176,0.640905,1.792,1.99051
0.588993,0.640905,1.792,1.99222
0.598128,0.644481,1.802,2.00507
0.603977,0.644481,1.802,2.00683
0.609826,0.644481,1.802,2.00859
0.615675,0.644481,1.802,2.01038
0.621524,0.644481,1.802,2.01218
0.627373,0.644481,1.802,2.01399
0.629708,0.640905,1.792,2.00463
0.635524,0.640905,1.792,2.00647
0.64134,0.640905,1.792,2.00832
0.643907,0.637686,1.783,2.00009
0.649694,0.637686,1.783,2.00196
0.655481,0.637686,1.783,2.00384
0.65793,0.634467,1.774,1.99562
0.660321,0.631248,1.765,1.98739
0.66605,0.631248,1.765,1.9893
0.668353,0.62803,1.756,1.98107
0.674053,0.62803,1.756,1.983
0.679752,0.62803,1.756,1.98495
0.681939,0.624811,1.747,1.97672
0.684067,0.621592,1.738,1.96849
0.689708,0.621592,1.738,1.97046
0.691748,0.618373,1.729,1.96223
0.69373,0.615154,1.72,1.95399
0.699313,0.615154,1.72,1.95598
0.701617,0.612293,1.712,1.94887
0.707173,0.612293,1.712,1.95088
0.71273,0.612293,1.712,1.9529
0.718287,0.612293,1.712,1.95494
0.723844,0.612293,1.712,1.95699
0.7294,0.612293,1.712,1.95905
0.734957,0.612293,1.712,1.96112
0.740514,0.612293,1.712,1.96321
0.742148,0.609074,1.703,1.95498
0.747676,0.609074,1.703,1.95709
0.753203,0.609074,1.703,1.95921
0.758731,0.609074,1.703,1.96134
0.768297,0.612293,1.712,1.97386
0.773854,0.612293,1.712,1.97603
0.779411,0.612293,1.712,1.97821
0.784968,0.612293,1.712,1.98041
0.790524,0.612293,1.712,1.98262
0.796081,0.612293,1.712,1.98484
0.805384,0.615154,1.72,1.99636
0.810966,0.615154,1.72,1.99862
0.816549,0.615154,1.72,2.00089
0.822132,0.615154,1.72,2.00318
0.836377,0.621592,1.738,2.02646
0.842018,0.621592,1.738,2.0288
0.852048,0.624811,1.747,2.04166
0.862137,0.62803,1.756,2.05457
0.872285,0.631248,1.765,2.06751
0.878014,0.631248,1.765,2.06993
0.888249,0.634467,1.774,2.08293
0.898542,0.637686,1.783,2.09597
0.904329,0.637686,1.783,2.09846
0.914711,0.640905,1.792,2.11157
0.920527,0.640905,1.792,2.11409
0.926343,0.640905,1.792,2.11663
0.93216,0.640905,1.792,2.11918
0.937976,0.640905,1.792,2.12175
0.943792,0.640905,1.792,2.12433
0.94484,0.637686,1.783,2.11624
0.945828,0.634467,1.774,2.10813
0.951586,0.634467,1.774,2.11072
0.952487,0.631248,1.765,2.1026
0.95333,0.62803,1.756,2.09447
0.95903,0.62803,1.756,2.09707
0.964729,0.62803,1.756,2.09968
0.970429,0.62803,1.756,2.10231
0.976128,0.62803,1.756,2.10494
0.976796,0.624811,1.747,2.09679
0.982466,0.624811,1.747,2.09944
0.988136,0.624811,1.747,2.1021
0.993807,0.624811,1.747,2.10477
0.999477,0.624811,1.747,2.10745
1.00515,0.624811,1.747,2.11015
1.00561,0.621592,1.738,2.10197
1.01125,0.621592,1.738,2.10467
1.02216,0.624811,1.747,2.1183
1.02783,0.624811,1.747,2.12104
1.0335,0.624811,1.747,2.1238
1.04452,0.62803,1.756,2.13752
1.05022,0.62803,1.756,2.14031
1.05592,0.62803,1.756,2.14311
1.0725,0.634467,1.774,2.16792
1.08373,0.637686,1.783,2.18179
1.08952,0.637686,1.783,2.18467
1.10698,0.644481,1.802,2.21087
1.11838,0.6477,1.811,2.22486
1.12426,0.6477,1.811,2.22782
1.13014,0.6477,1.811,2.2308
1.14229,0.651277,1.821,2.24612
1.1482,0.651277,1.821,2.24913
1.15411,0.651277,1.821,2.25215
1.16002,0.651277,1.821,2.25518
1.16593,0.651277,1.821,2.25823
1.17184,0.651277,1.821,2.26129
1.17775,0.651277,1.821,2.26436
1.18367,0.651277,1.821,2.26744
1.18958,0.651277,1.821,2.27053
1.19549,0.651277,1.821,2.27363
1.2014,0.651277,1.821,2.27674
1.20068,0.6477,1.811,2.26735
1.20656,0.6477,1.811,2.27047
1.20641,0.644481,1.802,2.2623
1.21226,0.644481,1.802,2.26542
1.21811,0.644481,1.802,2.26856
1.24365,0.654853,1.831,2.30826
-1.34168,0.697966,1.934,2.45512
-1.343,0.701936,1.945,2.46564
-1.34424,0.705906,1.956,2.47613
-1.3379,0.705906,1.956,2.47269
-1.33155,0.705906,1.956,2.46926
-1.34078,0.714207,1.979,2.49484
-1.34986,0.722507,2.002,2.52035
-1.34337,0.722507,2.002,2.51687
-1.33687,0.722507,2.002,2.51341
-1.34632,0.731169,2.026,2.54005
-1.33974,0.731169,2.026,2.53657
-1.32527,0.726838,2.014,2.5181
-1.31873,0.726838,2.014,2.51467
-1.3122,0.726838,2.014,2.51125
-1.29788,0.722507,2.002,2.49289
-1.29138,0.722507,2.002,2.48952
-1.28488,0.722507,2.002,2.48615
-1.27839,0.722507,2.002,2.4828
-1.26427,0.718176,1.99,2.4646
-1.25781,0.718176,1.99,2.46129
-1.24443,0.714207,1.979,2.44441
-1.23801,0.714207,1.979,2.44115
-1.23158,0.714207,1.979,2.43789
-1.22516,0.714207,1.979,2.43466
-1.21874,0.714207,1.979,2.43143
-1.21231,0.714207,1.979,2.42822
-1.20589,0.714207,1.979,2.42502
-1.19947,0.714207,1.979,2.42183
-1.19304,0.714207,1.979,2.41865
-1.18662,0.714207,1.979,2.41549
-1.1802,0.714207,1.979,2.41234
-1.17377,0.714207,1.979,2.40921
-1.16735,0.714207,1.979,2.40608
-1.16093,0.714207,1.979,2.40297
-1.1475,0.709876,1.967,2.38533
-1.14112,0.709876,1.967,2.38226
-1.13473,0.709876,1.967,2.37921
-1.12835,0.709876,1.967,2.37617
-1.11569,0.705906,1.956,2.35987
-1.10934,0.705906,1.956,2.35688
-1.09679,0.701936,1.945,2.34066
-1.08431,0.697966,1.934,2.32449
-1.07803,0.697966,1.934,2.32157
-1.06566,0.693997,1.923,2.30547
-1.05942,0.693997,1.923,2.30259
-1.05318,0.693997,1.923,2.29973
-1.04694,0.693997,1.923,2.29688
-1.04069,0.693997,1.923,2.29404
-1.03445,0.693997,1.923,2.29121
-1.04586,0.705906,1.956,2.32767
-1.03951,0.705906,1.956,2.32483
-1.03316,0.705906,1.956,2.32199
-1.02681,0.705906,1.956,2.31918
-1.02046,0.705906,1.956,2.31637
-1.01411,0.705906,1.956,2.31358
-1.00776,0.705906,1.956,2.31081
-1.00705,0.709876,1.967,2.32102
-1.00066,0.709876,1.967,2.31826
-0.988717,0.705906,1.956,2.30256
-0.982368,0.705906,1.956,2.29985
-0.97602,0.705906,1.956,2.29714
-0.969671,0.705906,1.956,2.29445
-0.963322,0.705906,1.956,2.29177
-0.956974,0.705906,1.956,2.28911
-0.945279,0.701936,1.945,2.27361
-0.938966,0.701936,1.945,2.27099
-0.927378,0.697966,1.934,2.25556
-0.915862,0.693997,1.923,2.24017
-0.904417,0.690027,1.912,2.22483
-0.898211,0.690027,1.912,2.22231
-0.88734,0.686418,1.902,2.2082
-0.876071,0.682448,1.891,2.19297
-0.869933,0.682448,1.891,2.19053
-0.859227,0.678839,1.881,2.17652
-0.853122,0.678839,1.881,2.17412
-0.847017,0.678839,1.881,2.17173
-0.836441,0.67523,1.871,2.15783
-0.830368,0.67523,1.871,2.15548
-0.824295,0.67523,1.871,2.15315
-0.813849,0.671621,1.861,2.13933
-0.807809,0.671621,1.861,2.13704
-0.801769,0.671621,1.861,2.13477
-0.795728,0.671621,1.861,2.13251
-0.789688,0.671621,1.861,2.13026
-0.787859,0.67523,1.871,2.13946
-0.781786,0.67523,1.871,2.13723
-0.775713,0.67523,1.871,2.13502
-0.76964,0.67523,1.871,2.13282
-0.763567,0.67523,1.871,2.13064
-0.757495,0.67523,1.871,2.12847
-0.755438,0.678839,1.881,2.13768
-0.749333,0.678839,1.881,2.13553
-0.743227,0.678839,1.881,2.13339
-0.737122,0.678839,1.881,2.13127
-0.731017,0.678839,1.881,2.12917
-0.724912,0.678839,1.881,2.12708
-0.718806,0.678839,1.881,2.12501
-0.708912,0.67523,1.871,2.11167
-0.702839,0.67523,1.871,2.10964
-0.696767,0.67523,1.871,2.10762
-0.687002,0.671621,1.861,2.09437
-0.680962,0.671621,1.861,2.09239
-0.670932,0.667651,1.85,2.07808
-0.661693,0.664403,1.841,2.06605
-0.655717,0.664403,1.841,2.06414
-0.649742,0.664403,1.841,2.06225
-0.643767,0.664403,1.841,2.06038
-0.634327,0.660795,1.831,2.04734
-0.628384,0.660795,1.831,2.0455
-0.622441,0.660795,1.831,2.04368
-0.616498,0.660795,1.831,2.04188
-0.610555,0.660795,1.831,2.0401
-0.60131,0.657186,1.821,2.02719
-0.595399,0.657186,1.821,2.02545
-0.589489,0.657186,1.821,2.02372
-0.583578,0.657186,1.821,2.022
-0.577668,0.657186,1.821,2.02031
-0.568617,0.653577,1.811,2.00754
-0.562739,0.653577,1.811,2.00588
-0.556861,0.653577,1.811,2.00424
-0.550983,0.653577,1.811,2.00261
-0.545105,0.653577,1.811,2.00101
-0.539227,0.653577,1.811,1.99941
-0.533349,0.653577,1.811,1.99784
-0.527471,0.653577,1.811,1.99627
-0.521593,0.653577,1.811,1.99473
-0.513152,0.650329,1.802,1.98329
-0.507303,0.650329,1.802,1.98179
-0.501454,0.650329,1.802,1.9803
-0.495605,0.650329,1.802,1.97883
-0.489757,0.650329,1.802,1.97737
-0.483908,0.650329,1.802,1.97593
-0.475406,0.64672,1.792,1.96355
-0.46959,0.64672,1.792,1.96215
-0.463773,0.64672,1.792,1.96076
-0.457957,0.64672,1.792,1.9594
-0.45214,0.64672,1.792,1.95805
-0.446324,0.64672,1.792,1.95671
-0.440508,0.64672,1.792,1.95539
-0.434691,0.64672,1.792,1.95409
-0.428875,0.64672,1.792,1.9528
-0.423058,0.64672,1.792,1.95154
-0.417242,0.64672,1.792,1.95028
-0.411426,0.64672,1.792,1.94905
-0.405609,0.64672,1.792,1.94783
-0.399793,0.64672,1.792,1.94662
-0.393977,0.64672,1.792,1.94544
-0.38816,0.64672,1.792,1.94427
-0.382344,0.64672,1.792,1.94312
-0.376527,0.64672,1.792,1.94198
-0.370711,0.64672,1.792,1.94086
-0.363062,0.643472,1.783,1.93002
-0.357275,0.643472,1.783,1.92894
-0.353262,0.64672,1.792,1.9376
-0.347445,0.64672,1.792,1.93655
-0.339913,0.643472,1.783,1.92579
-0.334126,0.643472,1.783,1.92478
-0.328339,0.643472,1.783,1.92379
-0.322552,0.643472,1.783,1.92281
-0.315166,0.640224,1.774,1.91214
-0.309408,0.640224,1.774,1.9112
-0.30365,0.640224,1.774,1.91028
-0.297892,0.640224,1.774,1.90937
-0.292134,0.640224,1.774,1.90848
-0.286376,0.640224,1.774,1.90761
-0.280618,0.640224,1.774,1.90675
-0.273465,0.636976,1.765,1.89625
-0.267737,0.636976,1.765,1.89543
-0.262008,0.636976,1.765,1.89463
-0.254972,0.633728,1.756,1.88419
-0.249273,0.633728,1.756,1.88342
-0.243573,0.633728,1.756,1.88268
-0.237874,0.633728,1.756,1.88195
-0.232174,0.633728,1.756,1.88124
-0.226475,0.633728,1.756,1.88054
-0.220775,0.633728,1.756,1.87986
-0.213973,0.63048,1.747,1.86957
-0.208303,0.63048,1.747,1.86893
-0.202633,0.63048,1.747,1.86831
-0.197977,0.633728,1.756,1.87732
-0.192277,0.633728,1.756,1.87673
-0.185622,0.63048,1.747,1.86654
-0.179951,0.63048,1.747,1.86598
-0.175179,0.633728,1.756,1.87506
-0.169479,0.633728,1.756,1.87453
-0.16378,0.633728,1.756,1.87403
-0.15808,0.633728,1.756,1.87354
-0.152381,0.633728,1.756,1.87306
-0.146681,0.633728,1.756,1.87261
-0.140982,0.633728,1.756,1.87217
-0.135975,0.636976,1.765,1.88134
-0.130247,0.636976,1.765,1.88094
-0.124518,0.636976,1.765,1.88055
-0.118789,0.636976,1.765,1.88018
-0.11306,0.636976,1.765,1.87983
-0.107879,0.640224,1.774,1.88907
-0.102121,0.640224,1.774,1.88875
-0.0958742,0.636976,1.765,1.87887
-0.0901454,0.636976,1.765,1.87859
-0.0844167,0.636976,1.765,1.87832
-0.0782867,0.633728,1.756,1.8685
-0.0725871,0.633728,1.756,1.86827
-0.0668876,0.633728,1.756,1.86805
-0.061188,0.633728,1.756,1.86786
-0.0552041,0.63048,1.747,1.85811
-0.0492786,0.627232,1.738,1.84838
-0.0436375,0.627232,1.738,1.84823
-0.0377996,0.623984,1.729,1.83854
-0.0320202,0.620735,1.72,1.82886
-0.0264375,0.620735,1.72,1.82877
-0.0208548,0.620735,1.72,1.8287
-0.0155118,0.63048,1.747,1.85735
-0.00984148,0.63048,1.747,1.85731
-0.00414967,0.627232,1.738,1.84772
0.00149145,0.627232,1.738,1.84772
0.00713257,0.627232,1.738,1.84773
0.0127737,0.627232,1.738,1.84776
0.0184148,0.627232,1.738,1.84781
0.0240559,0.627232,1.738,1.84788
0.029697,0.627232,1.738,1.84796
0.0353381,0.627232,1.738,1.84806
0.0409793,0.627232,1.738,1.84817
0.0468618,0.63048,1.747,1.85788
0.0525321,0.63048,1.747,1.85803
0.0582025,0.63048,1.747,1.8582
0.0638728,0.63048,1.747,1.85838
0.0695431,0.63048,1.747,1.85859
0.0752134,0.63048,1.747,1.85881
0.0813005,0.633728,1.756,1.86862
0.087,0.633728,1.756,1.86888
0.0926995,0.633728,1.756,1.86915
0.0983991,0.633728,1.756,1.86945
0.104099,0.633728,1.756,1.86975
0.109798,0.633728,1.756,1.87008
0.115498,0.633728,1.756,1.87042
0.121197,0.633728,1.756,1.87078
0.126897,0.633728,1.756,1.87116
0.132596,0.633728,1.756,1.87156
0.137587,0.63048,1.747,1.86238
0.143257,0.63048,1.747,1.8628
0.148928,0.63048,1.747,1.86325
0.154598,0.63048,1.747,1.86371
0.160268,0.63048,1.747,1.86419
0.165939,0.63048,1.747,1.86468
0.171609,0.63048,1.747,1.8652
0.177279,0.63048,1.747,1.86573
0.18295,0.63048,1.747,1.86628
0.18862,0.63048,1.747,1.86684
0.19429,0.63048,1.747,1.86742
0.199961,0.63048,1.747,1.86802
0.205631,0.63048,1.747,1.86864
0.211301,0.63048,1.747,1.86927
0.216972,0.63048,1.747,1.86992
0.222642,0.63048,1.747,1.87058
0.228312,0.63048,1.747,1.87127
0.233983,0.63048,1.747,1.87197
0.239653,0.63048,1.747,1.87268
0.246587,0.633728,1.756,1.88307
0.252287,0.633728,1.756,1.88382
0.257986,0.633728,1.756,1.8846
0.263686,0.633728,1.756,1.88539
0.269385,0.633728,1.756,1.88619
0.275085,0.633728,1.756,1.88701
0.280784,0.633728,1.756,1.88785
0.286484,0.633728,1.756,1.88871
0.292183,0.633728,1.756,1.88958
0.296356,0.63048,1.747,1.88078
0.302027,0.63048,1.747,1.88168
0.307697,0.63048,1.747,1.8826
0.311753,0.627232,1.738,1.87383
0.317394,0.627232,1.738,1.87478
0.323035,0.627232,1.738,1.87574
0.328676,0.627232,1.738,1.87672
0.334317,0.627232,1.738,1.87772
0.339958,0.627232,1.738,1.87873
0.3456,0.627232,1.738,1.87976
0.351241,0.627232,1.738,1.88081
0.355034,0.623984,1.729,1.87212
0.360646,0.623984,1.729,1.8732
0.366258,0.623984,1.729,1.87428
0.373805,0.627232,1.738,1.88515
0.379446,0.627232,1.738,1.88628
0.383093,0.623984,1.729,1.87765
0.388705,0.623984,1.729,1.8788
0.394317,0.623984,1.729,1.87997
0.399929,0.623984,1.729,1.88115
0.405541,0.623984,1.729,1.88235
0.411153,0.623984,1.729,1.88357
0.416765,0.623984,1.729,1.8848
0.422377,0.623984,1.729,1.88605
0.427988,0.623984,1.729,1.88732
0.4336,0.623984,1.729,1.8886
0.439212,0.623984,1.729,1.8899
0.444824,0.623984,1.729,1.89121
0.450436,0.623984,1.729,1.89254
0.456048,0.623984,1.729,1.89388
0.46166,0.623984,1.729,1.89524
0.469704,0.627232,1.738,1.90649
0.475345,0.627232,1.738,1.90788
0.480986,0.627232,1.738,1.9093
0.486627,0.627232,1.738,1.91072
0.492269,0.627232,1.738,1.91217
0.49791,0.627232,1.738,1.91363
0.503551,0.627232,1.738,1.9151
0.511829,0.63048,1.747,1.92652
0.517499,0.63048,1.747,1.92804
0.523169,0.63048,1.747,1.92956
0.52884,0.63048,1.747,1.93111
0.53451,0.63048,1.747,1.93267
0.54018,0.63048,1.747,1.93425
0.548663,0.633728,1.756,1.94581
0.554362,0.633728,1.756,1.94743
0.560062,0.633728,1.756,1.94906
0.568661,0.636976,1.765,1.9607
0.57439,0.636976,1.765,1.96237
0.580119,0.636976,1.765,1.96405
0.588835,0.640224,1.774,1.97578
0.594593,0.640224,1.774,1.9775
0.600351,0.640224,1.774,1.97924
0.606109,0.640224,1.774,1.98099
0.611866,0.640224,1.774,1.98276
0.614491,0.636976,1.765,1.97448
0.62022,0.636976,1.765,1.97627
0.625949,0.636976,1.765,1.97807
0.631677,0.636976,1.765,1.97989
0.637406,0.636976,1.765,1.98173
0.639855,0.633728,1.756,1.97346
0.645555,0.633728,1.756,1.97532
0.647917,0.63048,1.747,1.96706
0.65022,0.627232,1.738,1.95879
0.655861,0.627232,1.738,1.96067
0.661502,0.627232,1.738,1.96256
0.663688,0.623984,1.729,1.9543
0.6693,0.623984,1.729,1.95621
0.671399,0.620735,1.72,1.94794
0.673833,0.617848,1.712,1.94081
0.67939,0.617848,1.712,1.94274
0.681346,0.6146,1.703,1.93447
0.686873,0.6146,1.703,1.93642
0.692401,0.6146,1.703,1.93839
0.69465,0.611713,1.695,1.93126
0.700151,0.611713,1.695,1.93324
0.701906,0.608465,1.686,1.92497
0.707378,0.608465,1.686,1.92697
0.712851,0.608465,1.686,1.92898
0.718323,0.608465,1.686,1.93101
0.723795,0.608465,1.686,1.93306
0.729268,0.608465,1.686,1.93511
0.73474,0.608465,1.686,1.93718
0.740212,0.608465,1.686,1.93926
0.745685,0.608465,1.686,1.94136
0.751157,0.608465,1.686,1.94347
0.756629,0.608465,1.686,1.94559
0.762102,0.608465,1.686,1.94772
0.767574,0.608465,1.686,1.94987
0.777173,0.611713,1.695,1.96245
0.782675,0.611713,1.695,1.96464
0.788176,0.611713,1.695,1.96683
0.793678,0.611713,1.695,1.96905
0.802951,0.6146,1.703,1.98057
0.808479,0.6146,1.703,1.98282
0.814006,0.6146,1.703,1.98508
0.823865,0.617848,1.712,1.99786
0.829421,0.617848,1.712,2.00016
0.83888,0.620735,1.72,2.01182
0.8533,0.627232,1.738,2.03524
0.858941,0.627232,1.738,2.03761
0.869059,0.63048,1.747,2.05056
0.879236,0.633728,1.756,2.06354
0.894007,0.640224,1.774,2.08715
0.899765,0.640224,1.774,2.08963
0.905523,0.640224,1.774,2.09211
0.920527,0.64672,1.792,2.11586
0.926343,0.64672,1.792,2.1184
0.93216,0.64672,1.792,2.12095
0.937976,0.64672,1.792,2.12351
0.943792,0.64672,1.792,2.12609
0.94484,0.643472,1.783,2.11799
0.945828,0.640224,1.774,2.10987
0.951586,0.640224,1.774,2.11246
0.952487,0.636976,1.765,2.10433
0.95333,0.633728,1.756,2.09618
0.95903,0.633728,1.756,2.09878
0.964729,0.633728,1.756,2.10139
0.970429,0.633728,1.756,2.10401
0.976128,0.633728,1.756,2.10665
0.976796,0.63048,1.747,2.09849
0.982466,0.63048,1.747,2.10113
0.988136,0.63048,1.747,2.10379
0.993807,0.63048,1.747,2.10646
0.999477,0.63048,1.747,2.10914
1.00515,0.63048,1.747,2.11183
1.00561,0.627232,1.738,2.10364
1.01125,0.627232,1.738,2.10635
1.02216,0.63048,1.747,2.11998
1.02783,0.63048,1.747,2.12272
1.0335,0.63048,1.747,2.12547
1.04452,0.633728,1.756,2.1392
1.05022,0.633728,1.756,2.14199
1.05592,0.633728,1.756,2.14479
1.0725,0.640224,1.774,2.16961
1.08373,0.643472,1.783,2.18349
1.08952,0.643472,1.783,2.18637
1.10698,0.650329,1.802,2.21258
1.11838,0.653577,1.811,2.22658
1.12426,0.653577,1.811,2.22954
1.13014,0.653577,1.811,2.23251
1.14229,0.657186,1.821,2.24784
1.1482,0.657186,1.821,2.25084
1.15411,0.657186,1.821,2.25387
1.16002,0.657186,1.821,2.2569
1.16593,0.657186,1.821,2.25994
1.17184,0.657186,1.821,2.263
1.17775,0.657186,1.821,2.26606
1.18367,0.657186,1.821,2.26914
1.18958,0.657186,1.821,2.27223
1.19549,0.657186,1.821,2.27533
1.2014,0.657186,1.821,2.27844
1.20068,0.653577,1.811,2.26903
1.20656,0.653577,1.811,2.27215
1.20641,0.650329,1.802,2.26397
1.21226,0.650329,1.802,2.26709
1.21811,0.650329,1.802,2.27022
1.22395,0.650329,1.802,2.27337
-1.27022,0.666736,1.831,2.32606
-1.343,0.708248,1.945,2.46744
-1.34424,0.712253,1.956,2.47795
-1.3379,0.712253,1.956,2.47451
-1.33155,0.712253,1.956,2.47108
-1.34078,0.720628,1.979,2.49669
-1.34986,0.729003,2.002,2.52222
-1.34337,0.729003,2.002,2.51875
-1.33687,0.729003,2.002,2.51529
-1.34632,0.737743,2.026,2.54195
-1.33974,0.737743,2.026,2.53847
-1.32527,0.733373,2.014,2.52
-1.31873,0.733373,2.014,2.51656
-1.3122,0.733373,2.014,2.51314
-1.29788,0.729003,2.002,2.49478
-1.29138,0.729003,2.002,2.49141
-1.28488,0.729003,2.002,2.48805
-1.27839,0.729003,2.002,2.4847
-1.26427,0.724634,1.99,2.46649
-1.25781,0.724634,1.99,2.46318
-1.24443,0.720628,1.979,2.44629
-1.23801,0.720628,1.979,2.44303
-1.23158,0.720628,1.979,2.43978
-1.22516,0.720628,1.979,2.43655
-1.21874,0.720628,1.979,2.43332
-1.21231,0.720628,1.979,2.43011
-1.20589,0.720628,1.979,2.42692
-1.19947,0.720628,1.979,2.42373
-1.19304,0.720628,1.979,2.42056
-1.18662,0.720628,1.979,2.4174
-1.1802,0.720628,1.979,2.41425
-1.17377,0.720628,1.979,2.41112
-1.16735,0.720628,1.979,2.408
-1.16093,0.720628,1.979,2.40489
-1.1475,0.716259,1.967,2.38723
-1.14112,0.716259,1.967,2.38417
-1.13473,0.716259,1.967,2.38112
-1.12835,0.716259,1.967,2.37809
-1.11569,0.712253,1.956,2.36178
-1.10934,0.712253,1.956,2.35879
-1.09679,0.708248,1.945,2.34256
-1.08431,0.704242,1.934,2.32638
-1.07803,0.704242,1.934,2.32346
-1.06566,0.700236,1.923,2.30736
-1.05942,0.700236,1.923,2.30448
-1.05318,0.700236,1.923,2.30162
-1.04694,0.700236,1.923,2.29877
-1.04069,0.700236,1.923,2.29593
-1.03445,0.700236,1.923,2.29311
-1.02821,0.700236,1.923,2.2903
-1.02197,0.700236,1.923,2.28751
-1.01573,0.700236,1.923,2.28472
-1.00949,0.700236,1.923,2.28196
-1.00324,0.700236,1.923,2.2792
-1.00271,0.704242,1.934,2.28948
-0.996428,0.704242,1.934,2.28674
-0.990151,0.704242,1.934,2.28401
-0.983874,0.704242,1.934,2.2813
-0.977597,0.704242,1.934,2.2786
-0.971319,0.704242,1.934,2.27591
-0.965042,0.704242,1.934,2.27324
-0.953312,0.700236,1.923,2.25767
-0.94707,0.700236,1.923,2.25504
-0.940829,0.700236,1.923,2.25242
-0.929241,0.696231,1.912,2.23696
-0.923035,0.696231,1.912,2.23438
-0.912034,0.69259,1.902,2.22016
-0.900622,0.688584,1.891,2.2048
-0.889754,0.684943,1.881,2.19065
-0.883648,0.684943,1.881,2.18818
-0.872878,0.681301,1.871,2.1741
-0.862172,0.67766,1.861,2.16007
-0.856132,0.67766,1.861,2.15766
-0.845067,0.673654,1.85,2.14253
-0.839062,0.673654,1.85,2.14017
-0.833057,0.673654,1.85,2.13783
-0.823029,0.670377,1.841,2.1251
-0.817054,0.670377,1.841,2.1228
-0.811078,0.670377,1.841,2.1205
-0.80073,0.666736,1.831,2.10672
-0.794787,0.666736,1.831,2.10447
-0.793152,0.670377,1.841,2.11371
-0.787177,0.670377,1.841,2.11148
-0.781201,0.670377,1.841,2.10926
-0.775226,0.670377,1.841,2.10705
-0.769251,0.670377,1.841,2.10486
-0.763275,0.670377,1.841,2.10268
-0.761002,0.673654,1.85,2.11079
-0.754997,0.673654,1.85,2.10863
-0.748993,0.673654,1.85,2.10649
-0.742988,0.673654,1.85,2.10436
-0.736983,0.673654,1.85,2.10225
-0.735325,0.67766,1.861,2.11264
-0.729285,0.67766,1.861,2.11054
-0.723244,0.67766,1.861,2.10847
-0.717204,0.67766,1.861,2.1064
-0.70696,0.673654,1.85,2.09191
-0.700955,0.673654,1.85,2.08989
-0.694951,0.673654,1.85,2.08789
-0.685594,0.670377,1.841,2.07575
-0.675928,0.666736,1.831,2.06252
-0.669985,0.666736,1.831,2.06058
-0.664042,0.666736,1.831,2.05865
-0.654504,0.663094,1.821,2.04551
-0.645032,0.659453,1.811,2.0324
-0.639154,0.659453,1.811,2.03055
-0.633276,0.659453,1.811,2.0287
-0.627398,0.659453,1.811,2.02688
-0.62152,0.659453,1.811,2.02506
-0.612582,0.656176,1.802,2.01321
-0.606734,0.656176,1.802,2.01144
-0.600885,0.656176,1.802,2.00968
-0.595036,0.656176,1.802,2.00794
-0.585917,0.652534,1.792,1.99509
-0.580101,0.652534,1.792,1.99338
-0.574285,0.652534,1.792,1.9917
-0.568468,0.652534,1.792,1.99003
-0.559826,0.649257,1.783,1.97839
-0.554039,0.649257,1.783,1.97676
-0.548252,0.649257,1.783,1.97515
-0.542464,0.649257,1.783,1.97355
-0.536677,0.649257,1.783,1.97197
-0.53089,0.649257,1.783,1.9704
-0.525103,0.649257,1.783,1.96885
-0.519316,0.649257,1.783,1.96731
-0.513529,0.649257,1.783,1.96579
-0.505178,0.64598,1.774,1.95437
-0.49942,0.64598,1.774,1.95289
-0.493663,0.64598,1.774,1.95143
-0.487905,0.64598,1.774,1.94998
-0.479701,0.642703,1.765,1.93866
-0.473972,0.642703,1.765,1.93725
-0.468243,0.642703,1.765,1.93586
-0.462514,0.642703,1.765,1.93448
-0.456786,0.642703,1.765,1.93312
-0.451057,0.642703,1.765,1.93177
-0.445328,0.642703,1.765,1.93044
-0.439599,0.642703,1.765,1.92913
-0.433871,0.642703,1.765,1.92783
-0.428142,0.642703,1.765,1.92655
-0.422413,0.642703,1.765,1.92529
-0.416684,0.642703,1.765,1.92404
-0.410955,0.642703,1.765,1.9228
-0.405227,0.642703,1.765,1.92159
-0.399498,0.642703,1.765,1.92039
-0.393769,0.642703,1.765,1.9192
-0.38804,0.642703,1.765,1.91804
-0.382312,0.642703,1.765,1.91689
-0.376583,0.642703,1.765,1.91575
-0.368963,0.639426,1.756,1.90487
-0.363264,0.639426,1.756,1.90378
-0.357564,0.639426,1.756,1.9027
-0.351865,0.639426,1.756,1.90163
-0.346165,0.639426,1.756,1.90059
-0.340466,0.639426,1.756,1.89956
-0.334766,0.639426,1.756,1.89854
-0.329066,0.639426,1.756,1.89755
-0.323367,0.639426,1.756,1.89657
-0.317667,0.639426,1.756,1.8956
-0.311968,0.639426,1.756,1.89466
-0.309408,0.64598,1.774,1.91314
-0.30365,0.64598,1.774,1.91222
-0.297892,0.64598,1.774,1.91131
-0.292134,0.64598,1.774,1.91042
-0.286376,0.64598,1.774,1.90955
-0.280618,0.64598,1.774,1.90869
-0.273465,0.642703,1.765,1.89818
-0.267737,0.642703,1.765,1.89736
-0.262008,0.642703,1.765,1.89656
-0.254972,0.639426,1.756,1.88611
-0.249273,0.639426,1.756,1.88535
-0.243573,0.639426,1.756,1.8846
-0.237874,0.639426,1.756,1.88388
-0.232174,0.639426,1.756,1.88316
-0.226475,0.639426,1.756,1.88247
-0.220775,0.639426,1.756,1.88179
-0.213973,0.636148,1.747,1.87149
-0.208303,0.636148,1.747,1.87085
-0.202633,0.636148,1.747,1.87023
-0.197977,0.639426,1.756,1.87925
-0.192277,0.639426,1.756,1.87866
-0.185622,0.636148,1.747,1.86846
-0.179951,0.636148,1.747,1.86791
-0.175179,0.639426,1.756,1.87699
-0.169479,0.639426,1.756,1.87647
-0.16378,0.639426,1.756,1.87596
-0.15808,0.639426,1.756,1.87547
-0.152381,0.639426,1.756,1.875
-0.146681,0.639426,1.756,1.87454
-0.140982,0.639426,1.756,1.87411
-0.135975,0.642703,1.765,1.88329
-0.130247,0.642703,1.765,1.88289
-0.124518,0.642703,1.765,1.8825
-0.118789,0.642703,1.765,1.88213
-0.11306,0.642703,1.765,1.88177
-0.107879,0.64598,1.774,1.89103
-0.102121,0.64598,1.774,1.89071
-0.0958742,0.642703,1.765,1.88082
-0.0901454,0.642703,1.765,1.88054
-0.0844167,0.642703,1.765,1.88027
-0.0782867,0.639426,1.756,1.87044
-0.0725871,0.639426,1.756,1.87021
-0.0668876,0.639426,1.756,1.86999
-0.061188,0.639426,1.756,1.8698
-0.0552041,0.636148,1.747,1.86004
-0.0492786,0.632871,1.738,1.8503
-0.0436375,0.632871,1.738,1.85016
-0.0377996,0.629594,1.729,1.84045
-0.0320202,0.626317,1.72,1.83076
-0.0264375,0.626317,1.72,1.83068
-0.0207578,0.623403,1.712,1.82209
-0.015201,0.623403,1.712,1.82203
-0.00964432,0.623403,1.712,1.822
-0.0040661,0.620126,1.703,1.8124
0.00146141,0.620126,1.703,1.81239
0.00698893,0.620126,1.703,1.81241
0.0125164,0.620126,1.703,1.81244
0.018044,0.620126,1.703,1.81248
0.0235715,0.620126,1.703,1.81255
0.0292528,0.623403,1.712,1.82221
0.0348095,0.623403,1.712,1.8223
0.0403662,0.623403,1.712,1.82242
0.045923,0.623403,1.712,1.82255
0.0514797,0.623403,1.712,1.8227
0.0573029,0.626317,1.72,1.83138
0.0628856,0.626317,1.72,1.83156
0.0684683,0.626317,1.72,1.83176
0.074051,0.626317,1.72,1.83198
0.0800504,0.629594,1.729,1.8418
0.0856623,0.629594,1.729,1.84206
0.0912742,0.629594,1.729,1.84232
0.0968861,0.629594,1.729,1.84261
0.102498,0.629594,1.729,1.84291
0.10811,0.629594,1.729,1.84324
0.11313,0.626317,1.72,1.83398
0.118713,0.626317,1.72,1.83433
0.124295,0.626317,1.72,1.8347
0.129878,0.626317,1.72,1.83509
0.135461,0.626317,1.72,1.83549
0.141043,0.626317,1.72,1.83591
0.146626,0.626317,1.72,1.83635
0.151501,0.623403,1.712,1.82826
0.157057,0.623403,1.712,1.82873
0.162614,0.623403,1.712,1.82921
0.168171,0.623403,1.712,1.82972
0.173728,0.623403,1.712,1.83023
0.179284,0.623403,1.712,1.83077
0.184841,0.623403,1.712,1.83132
0.190398,0.623403,1.712,1.83189
0.195955,0.623403,1.712,1.83248
0.201511,0.623403,1.712,1.83308
0.208036,0.626317,1.72,1.84227
0.213618,0.626317,1.72,1.84291
0.219201,0.626317,1.72,1.84356
0.224784,0.626317,1.72,1.84423
0.230366,0.626317,1.72,1.84492
0.235949,0.626317,1.72,1.84563
0.241532,0.626317,1.72,1.84635
0.247114,0.626317,1.72,1.84709
0.252697,0.626317,1.72,1.84784
0.25828,0.626317,1.72,1.84862
0.263863,0.626317,1.72,1.8494
0.269445,0.626317,1.72,1.85021
0.275028,0.626317,1.72,1.85103
0.280611,0.626317,1.72,1.85187
0.286193,0.626317,1.72,1.85272
0.291776,0.626317,1.72,1.85359
0.297359,0.626317,1.72,1.85448
0.302941,0.626317,1.72,1.85538
0.307089,0.623403,1.712,1.84767
0.312646,0.623403,1.712,1.8486
0.318203,0.623403,1.712,1.84955
0.322057,0.620126,1.703,1.84078
0.327585,0.620126,1.703,1.84176
0.334873,0.623403,1.712,1.85249
0.33864,0.620126,1.703,1.84376
0.344167,0.620126,1.703,1.84478
0.349695,0.620126,1.703,1.84582
0.355222,0.620126,1.703,1.84688
0.359055,0.617213,1.695,1.83927
0.364557,0.617213,1.695,1.84035
0.370058,0.617213,1.695,1.84145
0.37556,0.617213,1.695,1.84256
0.381061,0.617213,1.695,1.84369
0.386563,0.617213,1.695,1.84483
0.392065,0.617213,1.695,1.84599
0.397566,0.617213,1.695,1.84717
0.403068,0.617213,1.695,1.84836
0.408569,0.617213,1.695,1.84957
0.416025,0.620126,1.703,1.85953
0.421553,0.620126,1.703,1.86077
0.42708,0.620126,1.703,1.86203
0.432608,0.620126,1.703,1.86331
0.438135,0.620126,1.703,1.8646
0.443663,0.620126,1.703,1.86591
0.44919,0.620126,1.703,1.86723
0.454718,0.620126,1.703,1.86856
0.460245,0.620126,1.703,1.86992
0.465773,0.620126,1.703,1.87129
0.473791,0.623403,1.712,1.88257
0.479348,0.623403,1.712,1.88397
0.484904,0.623403,1.712,1.88539
0.490461,0.623403,1.712,1.88683
0.496018,0.623403,1.712,1.88828
0.503918,0.626317,1.72,1.89858
0.507131,0.623403,1.712,1.89123
0.512688,0.623403,1.712,1.89273
0.520666,0.626317,1.72,1.90309
0.526249,0.626317,1.72,1.90463
0.531832,0.626317,1.72,1.90618
0.540227,0.629594,1.729,1.91773
0.545838,0.629594,1.729,1.91931
0.55145,0.629594,1.729,1.92092
0.559962,0.632871,1.738,1.93254
0.565603,0.632871,1.738,1.93419
0.571244,0.632871,1.738,1.93584
0.579873,0.636148,1.747,1.94755
0.585543,0.636148,1.747,1.94924
0.591213,0.636148,1.747,1.95096
0.596884,0.636148,1.747,1.95268
0.602554,0.636148,1.747,1.95442
