-1.49525,0.750192,2.428,2.94851
-1.48737,0.750192,2.428,2.94453
-1.47949,0.750192,2.428,2.94055
-1.4716,0.750192,2.428,2.9366
-1.46372,0.750192,2.428,2.93265
-1.45584,0.750192,2.428,2.92873
-1.44796,0.750192,2.428,2.92482
-1.44008,0.750192,2.428,2.92093
-1.4322,0.750192,2.428,2.91705
-1.42432,0.750192,2.428,2.91319
-1.40652,0.74494,2.411,2.88897
-1.38883,0.739687,2.394,2.86483
-1.38106,0.739687,2.394,2.86107
-1.35436,0.729491,2.361,2.81794
-1.3467,0.729491,2.361,2.81426
-1.32996,0.724547,2.345,2.79156
-1.32235,0.724547,2.345,2.78794
-1.31474,0.724547,2.345,2.78434
-1.30713,0.724547,2.345,2.78075
-1.29952,0.724547,2.345,2.77718
-1.28309,0.719603,2.329,2.7547
-1.27553,0.719603,2.329,2.75119
-1.26797,0.719603,2.329,2.74769
-1.26041,0.719603,2.329,2.74421
-1.25285,0.719603,2.329,2.74075
-1.2453,0.719603,2.329,2.7373
-1.24624,0.724547,2.345,2.75265
-1.23863,0.724547,2.345,2.74922
-1.23102,0.724547,2.345,2.7458
-1.22341,0.724547,2.345,2.74239
-1.21579,0.724547,2.345,2.739
-1.20818,0.724547,2.345,2.73563
-1.20876,0.729491,2.361,2.75092
-1.19296,0.724547,2.345,2.72895
-1.18535,0.724547,2.345,2.72563
-1.17774,0.724547,2.345,2.72233
-1.16214,0.719603,2.329,2.70049
-1.15458,0.719603,2.329,2.69725
-1.13914,0.71466,2.313,2.67551
-1.13164,0.71466,2.313,2.67232
-1.11684,0.710025,2.298,2.65184
-1.09441,0.700447,2.267,2.61298
-1.08706,0.700447,2.267,2.60991
-1.0797,0.700447,2.267,2.60685
-1.05815,0.691178,2.237,2.56935
-1.05089,0.691178,2.237,2.56637
-1.04363,0.691178,2.237,2.56341
-1.02988,0.686852,2.223,2.54444
-1.02267,0.686852,2.223,2.54152
-1.01545,0.686852,2.223,2.53863
-1.00824,0.686852,2.223,2.53575
-0.994716,0.682526,2.209,2.51694
-0.987546,0.682526,2.209,2.51411
-0.980376,0.682526,2.209,2.51131
-0.973206,0.682526,2.209,2.50852
-0.966036,0.682526,2.209,2.50574
-0.958866,0.682526,2.209,2.50299
-0.957728,0.686852,2.223,2.5161
-0.950513,0.686852,2.223,2.51336
-0.943297,0.686852,2.223,2.51064
-0.941977,0.691178,2.237,2.52373
-0.934717,0.691178,2.237,2.52103
-0.933675,0.695812,2.252,2.53523
-0.926365,0.695812,2.252,2.53255
-0.925178,0.700447,2.267,2.54674
-0.923892,0.705082,2.282,2.56091
-0.916486,0.705082,2.282,2.55824
-0.909079,0.705082,2.282,2.5556
-0.901672,0.705082,2.282,2.55297
-0.894265,0.705082,2.282,2.55037
-0.886858,0.705082,2.282,2.54778
-0.879452,0.705082,2.282,2.54521
-0.872045,0.705082,2.282,2.54266
-0.858954,0.700447,2.267,2.52343
-0.851596,0.700447,2.267,2.52094
-0.844238,0.700447,2.267,2.51846
-0.83688,0.700447,2.267,2.51601
-0.824033,0.695812,2.252,2.49694
-0.816724,0.695812,2.252,2.49453
-0.809415,0.695812,2.252,2.49215
-0.796762,0.691178,2.237,2.4732
-0.789502,0.691178,2.237,2.47087
-0.777345,0.686852,2.223,2.45311
-0.77013,0.686852,2.223,2.45084
-0.762915,0.686852,2.223,2.44858
-0.7557,0.686852,2.223,2.44634
-0.74377,0.682526,2.209,2.42873
-0.736601,0.682526,2.209,2.42654
-0.729431,0.682526,2.209,2.42437
-0.717356,0.677892,2.194,2.40578
-0.710235,0.677892,2.194,2.40367
-0.703114,0.677892,2.194,2.40157
-0.695993,0.677892,2.194,2.3995
-0.680394,0.66955,2.167,2.36794
-0.673361,0.66955,2.167,2.36592
-0.666327,0.66955,2.167,2.36393
-0.659294,0.66955,2.167,2.36196
-0.648046,0.665224,2.153,2.34476
-0.641058,0.665224,2.153,2.34284
-0.63407,0.665224,2.153,2.34093
-0.627082,0.665224,2.153,2.33905
-0.620094,0.665224,2.153,2.33719
-0.609404,0.661207,2.14,2.32124
-0.602458,0.661207,2.14,2.31943
-0.595512,0.661207,2.14,2.31763
-0.588566,0.661207,2.14,2.31586
-0.58162,0.661207,2.14,2.3141
-0.574674,0.661207,2.14,2.31237
-0.567728,0.661207,2.14,2.31065
-0.560782,0.661207,2.14,2.30895
-0.553836,0.661207,2.14,2.30728
-0.54689,0.661207,2.14,2.30562
-0.539944,0.661207,2.14,2.30398
-0.532999,0.661207,2.14,2.30236
-0.526053,0.661207,2.14,2.30077
-0.519107,0.661207,2.14,2.29919
-0.512161,0.661207,2.14,2.29763
-0.505215,0.661207,2.14,2.29609
-0.498269,0.661207,2.14,2.29457
-0.491323,0.661207,2.14,2.29308
-0.484377,0.661207,2.14,2.2916
-0.477431,0.661207,2.14,2.29014
-0.470485,0.661207,2.14,2.2887
-0.463539,0.661207,2.14,2.28728
-0.456594,0.661207,2.14,2.28589
-0.449648,0.661207,2.14,2.28451
-0.439806,0.656882,2.126,2.26821
-0.432905,0.656882,2.126,2.26689
-0.426005,0.656882,2.126,2.26558
-0.419104,0.656882,2.126,2.26429
-0.412204,0.656882,2.126,2.26302
-0.402825,0.652865,2.113,2.24795
-0.395967,0.652865,2.113,2.24673
-0.389108,0.652865,2.113,2.24553
-0.38225,0.652865,2.113,2.24435
-0.375392,0.652865,2.113,2.24319
-0.368533,0.652865,2.113,2.24206
-0.361675,0.652865,2.113,2.24094
-0.354817,0.652865,2.113,2.23984
-0.345818,0.648848,2.1,2.22499
-0.339002,0.648848,2.1,2.22394
-0.330129,0.644832,2.087,2.20915
-0.323355,0.644832,2.087,2.20815
-0.316582,0.644832,2.087,2.20717
-0.309808,0.644832,2.087,2.20621
-0.301291,0.641124,2.075,2.19259
-0.292711,0.637107,2.062,2.17794
-0.286018,0.637107,2.062,2.17705
-0.2777,0.633399,2.05,2.16352
-0.26946,0.629692,2.038,2.15001
-0.262845,0.629692,2.038,2.1492
-0.25623,0.629692,2.038,2.1484
-0.246676,0.622276,2.014,2.12233
-0.240139,0.622276,2.014,2.12158
-0.23221,0.618569,2.002,2.10821
-0.224359,0.614861,1.99,2.09487
-0.2179,0.614861,1.99,2.09419
-0.211441,0.614861,1.99,2.09353
-0.203849,0.611462,1.979,2.08132
-0.197425,0.611462,1.979,2.0807
-0.191002,0.611462,1.979,2.0801
-0.183459,0.607754,1.967,2.06691
-0.177075,0.607754,1.967,2.06635
-0.170691,0.607754,1.967,2.06581
-0.164306,0.607754,1.967,2.0653
-0.157922,0.607754,1.967,2.0648
-0.151537,0.607754,1.967,2.06432
-0.145153,0.607754,1.967,2.06386
-0.138769,0.607754,1.967,2.06342
-0.132384,0.607754,1.967,2.063
-0.126,0.607754,1.967,2.0626
-0.119616,0.607754,1.967,2.06222
-0.115246,0.618569,2.002,2.09855
-0.108748,0.618569,2.002,2.0982
-0.10225,0.618569,2.002,2.09788
-0.0957519,0.618569,2.002,2.09757
-0.0897889,0.622276,2.014,2.10985
-0.083252,0.622276,2.014,2.10959
-0.076715,0.622276,2.014,2.10934
-0.0701781,0.622276,2.014,2.10911
-0.0636411,0.622276,2.014,2.1089
-0.0571042,0.622276,2.014,2.10872
-0.0505673,0.622276,2.014,2.10855
-0.0440303,0.622276,2.014,2.1084
-0.0374934,0.622276,2.014,2.10828
-0.0311409,0.625984,2.026,2.12073
-0.024565,0.625984,2.026,2.12065
-0.0179891,0.625984,2.026,2.12058
-0.0114132,0.625984,2.026,2.12053
-0.0048373,0.625984,2.026,2.12051
0.00173859,0.625984,2.026,2.1205
0.00831449,0.625984,2.026,2.12052
0.0149786,0.629692,2.038,2.13312
0.0215934,0.629692,2.038,2.13317
0.0282083,0.629692,2.038,2.13325
0.0346181,0.625984,2.026,2.12079
0.041194,0.625984,2.026,2.1209
0.0477698,0.625984,2.026,2.12104
0.0540239,0.622276,2.014,2.10864
0.0605608,0.622276,2.014,2.10881
0.0670977,0.622276,2.014,2.10901
0.0736347,0.622276,2.014,2.10923
0.0801716,0.622276,2.014,2.10947
0.0867086,0.622276,2.014,2.10973
0.0932455,0.622276,2.014,2.11
0.0997825,0.622276,2.014,2.1103
0.106319,0.622276,2.014,2.11062
0.112856,0.622276,2.014,2.11096
0.119393,0.622276,2.014,2.11132
0.12593,0.622276,2.014,2.1117
0.132467,0.622276,2.014,2.1121
0.139004,0.622276,2.014,2.11252
0.145541,0.622276,2.014,2.11296
0.152078,0.622276,2.014,2.11342
0.158615,0.622276,2.014,2.1139
0.165152,0.622276,2.014,2.1144
0.171689,0.622276,2.014,2.11492
0.178226,0.622276,2.014,2.11546
0.184763,0.622276,2.014,2.11602
0.1913,0.622276,2.014,2.11661
0.197837,0.622276,2.014,2.11721
0.205591,0.625984,2.026,2.13045
0.212167,0.625984,2.026,2.13109
0.218743,0.625984,2.026,2.13176
0.225319,0.625984,2.026,2.13244
0.233268,0.629692,2.038,2.14578
0.239883,0.629692,2.038,2.14651
0.246498,0.629692,2.038,2.14726
0.253113,0.629692,2.038,2.14803
0.259728,0.629692,2.038,2.14882
0.266343,0.629692,2.038,2.14963
0.274565,0.633399,2.05,2.16312
0.281218,0.633399,2.05,2.16397
0.287872,0.633399,2.05,2.16485
0.294526,0.633399,2.05,2.16574
0.302943,0.637107,2.062,2.17934
0.307834,0.633399,2.05,2.16759
0.314487,0.633399,2.05,2.16855
0.321141,0.633399,2.05,2.16952
0.327795,0.633399,2.05,2.17052
0.334449,0.633399,2.05,2.17153
0.341103,0.633399,2.05,2.17257
0.347756,0.633399,2.05,2.17362
0.35441,0.633399,2.05,2.1747
0.361064,0.633399,2.05,2.17579
0.367718,0.633399,2.05,2.1769
0.374371,0.633399,2.05,2.17804
0.381025,0.633399,2.05,2.17919
0.387679,0.633399,2.05,2.18036
0.394333,0.633399,2.05,2.18156
0.400987,0.633399,2.05,2.18277
0.40764,0.633399,2.05,2.184
0.414294,0.633399,2.05,2.18525
0.420948,0.633399,2.05,2.18653
0.427602,0.633399,2.05,2.18782
0.434256,0.633399,2.05,2.18913
0.438328,0.629692,2.038,2.17763
0.444943,0.629692,2.038,2.17897
0.451558,0.629692,2.038,2.18034
0.458173,0.629692,2.038,2.18171
0.459314,0.622276,2.014,2.1574
0.465851,0.622276,2.014,2.15881
0.472388,0.622276,2.014,2.16023
0.476072,0.618569,2.002,2.14878
0.48257,0.618569,2.002,2.15023
0.486136,0.614861,1.99,2.1388
0.492595,0.614861,1.99,2.14028
0.499054,0.614861,1.99,2.14178
0.502719,0.611462,1.979,2.13144
0.506055,0.607754,1.967,2.12003
0.512439,0.607754,1.967,2.12157
0.515922,0.604356,1.956,2.11125
0.519334,0.600957,1.945,2.10092
0.525647,0.600957,1.945,2.10249
0.53196,0.600957,1.945,2.10408
0.538273,0.600957,1.945,2.10569
0.544586,0.600957,1.945,2.10731
0.550899,0.600957,1.945,2.10895
0.557212,0.600957,1.945,2.11061
0.563525,0.600957,1.945,2.11228
0.569838,0.600957,1.945,2.11397
0.576151,0.600957,1.945,2.11569
0.589052,0.607754,1.967,2.14136
0.595437,0.607754,1.967,2.14313
0.601821,0.607754,1.967,2.14491
0.611916,0.611462,1.979,2.15981
0.621776,0.614861,1.99,2.17365
0.632024,0.618569,2.002,2.18863
0.638521,0.618569,2.002,2.19051
0.64502,0.618569,2.002,2.19241
0.651518,0.618569,2.002,2.19433
0.658015,0.618569,2.002,2.19627
0.664514,0.618569,2.002,2.19823
0.671012,0.618569,2.002,2.2002
0.677509,0.618569,2.002,2.20219
0.688107,0.622276,2.014,2.21741
0.694644,0.622276,2.014,2.21945
0.701181,0.622276,2.014,2.2215
0.703501,0.618569,2.002,2.21033
0.709999,0.618569,2.002,2.2124
0.716497,0.618569,2.002,2.2145
0.722995,0.618569,2.002,2.21661
0.729493,0.618569,2.002,2.21874
0.735991,0.618569,2.002,2.22088
0.733959,0.611462,1.979,2.1975
0.740383,0.611462,1.979,2.19966
0.746806,0.611462,1.979,2.20183
0.753229,0.611462,1.979,2.20402
0.755046,0.607754,1.967,2.19284
0.761431,0.607754,1.967,2.19505
0.763521,0.604356,1.956,2.18498
0.76987,0.604356,1.956,2.18721
0.771854,0.600957,1.945,2.17714
0.778166,0.600957,1.945,2.17938
0.784479,0.600957,1.945,2.18165
0.790792,0.600957,1.945,2.18392
0.797105,0.600957,1.945,2.18622
0.803418,0.600957,1.945,2.18853
0.809731,0.600957,1.945,2.19085
0.816044,0.600957,1.945,2.19319
0.822357,0.600957,1.945,2.19555
0.833357,0.604356,1.956,2.21035
0.844428,0.607754,1.967,2.2252
0.850812,0.607754,1.967,2.22763
0.857197,0.607754,1.967,2.23008
0.863581,0.607754,1.967,2.23254
0.875273,0.611462,1.979,2.24865
0.881696,0.611462,1.979,2.25116
0.88812,0.611462,1.979,2.25368
0.894543,0.611462,1.979,2.25622
0.900966,0.611462,1.979,2.25878
0.90739,0.611462,1.979,2.26135
0.913813,0.611462,1.979,2.26393
0.920236,0.611462,1.979,2.26653
0.92666,0.611462,1.979,2.26915
0.938269,0.614861,1.99,2.2844
0.961819,0.625984,2.026,2.32844
0.968395,0.625984,2.026,2.33116
0.974971,0.625984,2.026,2.3339
0.981547,0.625984,2.026,2.33666
0.988123,0.625984,2.026,2.33943
0.994698,0.625984,2.026,2.34221
1.00127,0.625984,2.026,2.34501
1.00785,0.625984,2.026,2.34783
1.02043,0.629692,2.038,2.36458
1.0331,0.633399,2.05,2.38138
1.03975,0.633399,2.05,2.38428
1.0464,0.633399,2.05,2.38719
1.05922,0.637107,2.062,2.4041
1.07264,0.641124,2.075,2.42223
1.07937,0.641124,2.075,2.42522
1.09239,0.644832,2.087,2.44227
1.10601,0.648848,2.1,2.46054
1.11282,0.648848,2.1,2.46361
1.12657,0.652865,2.113,2.48197
1.13343,0.652865,2.113,2.48509
1.14029,0.652865,2.113,2.48822
1.14714,0.652865,2.113,2.49137
1.1611,0.656882,2.126,2.50989
1.168,0.656882,2.126,2.51309
1.1749,0.656882,2.126,2.5163
1.1818,0.656882,2.126,2.51953
1.1887,0.656882,2.126,2.52277
1.19561,0.656882,2.126,2.52603
1.19515,0.652865,2.113,2.51384
1.20201,0.652865,2.113,2.51711
1.20887,0.652865,2.113,2.52039
1.20825,0.648848,2.1,2.50816
1.21506,0.648848,2.1,2.51145
1.20733,0.641124,2.075,2.48482
1.20646,0.637107,2.062,2.47251
1.21316,0.637107,2.062,2.47578
1.21275,0.633399,2.05,2.46464
1.21226,0.629692,2.038,2.45348
1.21888,0.629692,2.038,2.45675
1.21828,0.625984,2.026,2.44555
1.21035,0.618569,2.002,2.41983
1.20955,0.614861,1.99,2.40856
1.21601,0.614861,1.99,2.41181
1.22247,0.614861,1.99,2.41507
1.22893,0.614861,1.99,2.41835
1.23539,0.614861,1.99,2.42164
1.23498,0.611462,1.979,2.41154
1.2414,0.611462,1.979,2.41483
1.25476,0.614861,1.99,2.43158
1.26122,0.614861,1.99,2.43492
1.26768,0.614861,1.99,2.43827
1.27414,0.614861,1.99,2.44164
1.2806,0.614861,1.99,2.44501
1.28706,0.614861,1.99,2.4484
1.30132,0.618569,2.002,2.46659
1.30781,0.618569,2.002,2.47002
1.31431,0.618569,2.002,2.47347
1.32081,0.618569,2.002,2.47693
1.32731,0.618569,2.002,2.4804
1.33381,0.618569,2.002,2.48388
1.3403,0.618569,2.002,2.48738
1.3468,0.618569,2.002,2.49089
1.3533,0.618569,2.002,2.4944
1.3598,0.618569,2.002,2.49794
-1.68438,0.758071,2.428,3.05074
-1.6765,0.758071,2.428,3.04639
-1.66862,0.758071,2.428,3.04206
-1.67237,0.763378,2.445,3.05902
-1.66443,0.763378,2.445,3.05469
-1.6565,0.763378,2.445,3.05037
-1.64856,0.763378,2.445,3.04607
-1.64063,0.763378,2.445,3.04178
-1.63269,0.763378,2.445,3.03751
-1.62475,0.763378,2.445,3.03325
-1.61682,0.763378,2.445,3.02901
-1.60888,0.763378,2.445,3.02478
-1.58981,0.758071,2.428,2.99956
-1.58193,0.758071,2.428,2.99539
-1.56303,0.752763,2.411,2.97029
-1.55521,0.752763,2.411,2.96618
-1.54738,0.752763,2.411,2.96209
-1.53956,0.752763,2.411,2.95801
-1.53173,0.752763,2.411,2.95394
-1.5239,0.752763,2.411,2.94989
-1.51608,0.752763,2.411,2.94586
-1.50825,0.752763,2.411,2.94184
-1.50043,0.752763,2.411,2.93783
-1.50313,0.758071,2.428,2.95453
-1.49525,0.758071,2.428,2.95053
-1.48737,0.758071,2.428,2.94654
-1.47949,0.758071,2.428,2.94257
-1.4716,0.758071,2.428,2.93862
-1.46372,0.758071,2.428,2.93468
-1.45584,0.758071,2.428,2.93076
-1.44796,0.758071,2.428,2.92685
-1.44008,0.758071,2.428,2.92296
-1.42217,0.752763,2.411,2.89865
-1.41435,0.752763,2.411,2.89481
-1.39661,0.747455,2.394,2.87062
-1.37897,0.742147,2.377,2.84649
-1.37126,0.742147,2.377,2.84276
-1.35436,0.737152,2.361,2.81993
-1.33757,0.732156,2.345,2.79717
-1.32996,0.732156,2.345,2.79354
-1.32235,0.732156,2.345,2.78993
-1.30577,0.727161,2.329,2.76732
-1.29821,0.727161,2.329,2.76376
-1.29065,0.727161,2.329,2.76021
-1.28309,0.727161,2.329,2.75669
-1.27553,0.727161,2.329,2.75318
-1.26797,0.727161,2.329,2.74968
-1.26041,0.727161,2.329,2.74621
-1.25285,0.727161,2.329,2.74274
-1.2453,0.727161,2.329,2.7393
-1.23774,0.727161,2.329,2.73587
-1.23018,0.727161,2.329,2.73246
-1.22262,0.727161,2.329,2.72907
-1.22341,0.732156,2.345,2.74441
-1.2075,0.727161,2.329,2.72233
-1.19994,0.727161,2.329,2.71898
-1.19238,0.727161,2.329,2.71565
-1.18482,0.727161,2.329,2.71234
-1.17726,0.727161,2.329,2.70905
-1.1697,0.727161,2.329,2.70577
-1.15416,0.722165,2.313,2.68395
-1.13921,0.717482,2.298,2.66334
-1.12388,0.712486,2.282,2.64164
-1.11647,0.712486,2.282,2.6385
-1.10177,0.707803,2.267,2.61805
-1.07993,0.698436,2.237,2.58036
-1.07267,0.698436,2.237,2.57733
-1.06541,0.698436,2.237,2.57431
-1.0449,0.689694,2.209,2.53913
-1.03773,0.689694,2.209,2.53619
-1.03057,0.689694,2.209,2.53326
-1.01645,0.685011,2.194,2.51317
-1.00932,0.685011,2.194,2.5103
-1.0022,0.685011,2.194,2.50745
-0.988733,0.68064,2.18,2.48863
-0.975803,0.676581,2.167,2.471
-0.968769,0.676581,2.167,2.46823
-0.961736,0.676581,2.167,2.46548
-0.96043,0.68064,2.18,2.47752
-0.953354,0.68064,2.18,2.47478
-0.946278,0.68064,2.18,2.47207
-0.939202,0.68064,2.18,2.46937
-0.938113,0.685011,2.194,2.48253
-0.930992,0.685011,2.194,2.47984
-0.930187,0.689694,2.209,2.49411
-0.923017,0.689694,2.209,2.49145
-0.921651,0.694065,2.223,2.50458
-0.914436,0.694065,2.223,2.50193
-0.912934,0.698436,2.237,2.51504
-0.905674,0.698436,2.237,2.51241
-0.898413,0.698436,2.237,2.50981
-0.897128,0.70312,2.252,2.52403
-0.889818,0.70312,2.252,2.52144
-0.882509,0.70312,2.252,2.51887
-0.875199,0.70312,2.252,2.51632
-0.86789,0.70312,2.252,2.51378
-0.860581,0.70312,2.252,2.51127
-0.853271,0.70312,2.252,2.50878
-0.840327,0.698436,2.237,2.4896
-0.833066,0.698436,2.237,2.48716
-0.820637,0.694065,2.223,2.46919
-0.813422,0.694065,2.223,2.4668
-0.806207,0.694065,2.223,2.46443
-0.793959,0.689694,2.209,2.44658
-0.78679,0.689694,2.209,2.44426
-0.77962,0.689694,2.209,2.44196
-0.77245,0.689694,2.209,2.43968
-0.760083,0.685011,2.194,2.42087
-0.748158,0.68064,2.18,2.40321
-0.741082,0.68064,2.18,2.40102
-0.734006,0.68064,2.18,2.39884
-0.722595,0.676581,2.167,2.38239
-0.715562,0.676581,2.167,2.38027
-0.708528,0.676581,2.167,2.37816
-0.701495,0.676581,2.167,2.37608
-0.694461,0.676581,2.167,2.37401
-0.678863,0.668151,2.14,2.34241
-0.671917,0.668151,2.14,2.34041
-0.664971,0.668151,2.14,2.33842
-0.65372,0.66378,2.126,2.32117
-0.64682,0.66378,2.126,2.31924
-0.636006,0.659721,2.113,2.30315
-0.629148,0.659721,2.113,2.30127
-0.62229,0.659721,2.113,2.2994
-0.615431,0.659721,2.113,2.29755
-0.608573,0.659721,2.113,2.29573
-0.598013,0.655662,2.1,2.27981
-0.587537,0.651603,2.087,2.26392
-0.580763,0.651603,2.087,2.26218
-0.573989,0.651603,2.087,2.26045
-0.570749,0.655662,2.1,2.27281
-0.563932,0.655662,2.1,2.2711
-0.557116,0.655662,2.1,2.26942
-0.543749,0.647857,2.075,2.24076
-0.537014,0.647857,2.075,2.23914
-0.533346,0.651603,2.087,2.25047
-0.526572,0.651603,2.087,2.24887
-0.519798,0.651603,2.087,2.2473
-0.513024,0.651603,2.087,2.24574
-0.50625,0.651603,2.087,2.2442
-0.502588,0.655662,2.1,2.25665
-0.495772,0.655662,2.1,2.25515
-0.488956,0.655662,2.1,2.25366
-0.482139,0.655662,2.1,2.25219
-0.475323,0.655662,2.1,2.25074
-0.468507,0.655662,2.1,2.24931
-0.470485,0.668151,2.14,2.29072
-0.463539,0.668151,2.14,2.2893
-0.456594,0.668151,2.14,2.2879
-0.449648,0.668151,2.14,2.28653
-0.439806,0.66378,2.126,2.27022
-0.432905,0.66378,2.126,2.2689
-0.426005,0.66378,2.126,2.26759
-0.419104,0.66378,2.126,2.2663
-0.412204,0.66378,2.126,2.26504
-0.402825,0.659721,2.113,2.24995
-0.395967,0.659721,2.113,2.24873
-0.389108,0.659721,2.113,2.24753
-0.38225,0.659721,2.113,2.24636
-0.375392,0.659721,2.113,2.2452
-0.368533,0.659721,2.113,2.24406
-0.361675,0.659721,2.113,2.24295
-0.354817,0.659721,2.113,2.24185
-0.345818,0.655662,2.1,2.22699
-0.339002,0.655662,2.1,2.22594
-0.330129,0.651603,2.087,2.21114
-0.323355,0.651603,2.087,2.21014
-0.316582,0.651603,2.087,2.20916
-0.309808,0.651603,2.087,2.2082
-0.301291,0.647857,2.075,2.19457
-0.292711,0.643798,2.062,2.17991
-0.286018,0.643798,2.062,2.17902
-0.2777,0.640051,2.05,2.16548
-0.26946,0.636305,2.038,2.15196
-0.262845,0.636305,2.038,2.15114
-0.25623,0.636305,2.038,2.15034
-0.246676,0.628811,2.014,2.12425
-0.240139,0.628811,2.014,2.1235
-0.23221,0.625065,2.002,2.11013
-0.224359,0.621318,1.99,2.09678
-0.2179,0.621318,1.99,2.0961
-0.211441,0.621318,1.99,2.09543
-0.203849,0.617884,1.979,2.08321
-0.197425,0.617884,1.979,2.08259
-0.191002,0.617884,1.979,2.082
-0.183459,0.614137,1.967,2.06879
-0.177075,0.614137,1.967,2.06824
-0.170691,0.614137,1.967,2.0677
-0.164306,0.614137,1.967,2.06718
-0.157922,0.614137,1.967,2.06669
-0.151537,0.614137,1.967,2.06621
-0.145153,0.614137,1.967,2.06575
-0.138769,0.614137,1.967,2.06531
-0.132384,0.614137,1.967,2.06489
-0.126,0.614137,1.967,2.06449
-0.119616,0.614137,1.967,2.06411
-0.113231,0.614137,1.967,2.06375
-0.106249,0.610703,1.956,2.05187
-0.0999005,0.610703,1.956,2.05155
-0.0940779,0.614137,1.967,2.06279
-0.0876935,0.614137,1.967,2.06251
-0.0813092,0.614137,1.967,2.06225
-0.0749248,0.614137,1.967,2.06201
-0.0685404,0.614137,1.967,2.06178
-0.062156,0.614137,1.967,2.06158
-0.0557716,0.614137,1.967,2.0614
-0.0496885,0.617884,1.979,2.07381
-0.0432651,0.617884,1.979,2.07367
-0.0368418,0.617884,1.979,2.07354
-0.0304185,0.617884,1.979,2.07344
-0.0239951,0.617884,1.979,2.07335
-0.0175718,0.617884,1.979,2.07329
-0.0112104,0.621318,1.99,2.08477
-0.00475135,0.621318,1.99,2.08474
0.0017077,0.621318,1.99,2.08474
0.00816675,0.621318,1.99,2.08475
0.014714,0.625065,2.002,2.09736
0.0210848,0.621318,1.99,2.08485
0.0275439,0.621318,1.99,2.08492
0.0340029,0.621318,1.99,2.08502
0.040462,0.621318,1.99,2.08513
0.046921,0.621318,1.99,2.08527
0.053085,0.617884,1.979,2.07389
0.0595083,0.617884,1.979,2.07407
0.0659317,0.617884,1.979,2.07426
0.0727572,0.621318,1.99,2.08601
0.0792163,0.621318,1.99,2.08624
0.0852017,0.617884,1.979,2.07497
0.0916251,0.617884,1.979,2.07524
0.0985934,0.621318,1.99,2.08707
0.105052,0.621318,1.99,2.08738
0.110895,0.617884,1.979,2.07618
0.117318,0.617884,1.979,2.07653
0.123742,0.617884,1.979,2.0769
0.130165,0.617884,1.979,2.0773
0.136588,0.617884,1.979,2.07771
0.143807,0.621318,1.99,2.08969
0.150266,0.621318,1.99,2.09015
0.156725,0.621318,1.99,2.09062
0.163184,0.621318,1.99,2.09112
0.169643,0.621318,1.99,2.09163
0.176102,0.621318,1.99,2.09216
0.182561,0.621318,1.99,2.09272
0.18902,0.621318,1.99,2.09329
0.195479,0.621318,1.99,2.09388
0.203156,0.625065,2.002,2.10713
0.209654,0.625065,2.002,2.10776
0.216152,0.625065,2.002,2.10842
0.22265,0.625065,2.002,2.1091
0.229148,0.625065,2.002,2.10979
0.235646,0.625065,2.002,2.11051
0.242144,0.625065,2.002,2.11124
0.250132,0.628811,2.014,2.12466
0.256669,0.628811,2.014,2.12544
0.263206,0.628811,2.014,2.12624
0.27135,0.632558,2.026,2.13973
0.27628,0.628811,2.014,2.12789
0.282817,0.628811,2.014,2.12875
0.291078,0.632558,2.026,2.14232
0.297654,0.632558,2.026,2.14322
0.30423,0.632558,2.026,2.14415
0.310806,0.632558,2.026,2.14509
0.317381,0.632558,2.026,2.14605
0.323957,0.632558,2.026,2.14703
0.330533,0.632558,2.026,2.14804
0.337109,0.632558,2.026,2.14906
0.343685,0.632558,2.026,2.1501
0.350261,0.632558,2.026,2.15116
0.356837,0.632558,2.026,2.15224
0.363413,0.632558,2.026,2.15334
0.369989,0.632558,2.026,2.15446
0.376564,0.632558,2.026,2.1556
0.38314,0.632558,2.026,2.15676
0.389716,0.632558,2.026,2.15794
0.393945,0.628811,2.014,2.14634
0.400482,0.628811,2.014,2.14755
0.407019,0.628811,2.014,2.14878
0.413556,0.628811,2.014,2.15003
0.420093,0.628811,2.014,2.1513
0.42663,0.628811,2.014,2.15258
0.430586,0.625065,2.002,2.14105
0.437084,0.625065,2.002,2.14237
0.443582,0.625065,2.002,2.14371
0.45008,0.625065,2.002,2.14506
0.451332,0.617884,1.979,2.12177
0.457756,0.617884,1.979,2.12315
0.461364,0.614137,1.967,2.11166
0.467749,0.614137,1.967,2.11306
0.474133,0.614137,1.967,2.11449
0.47783,0.610703,1.956,2.10409
0.484179,0.610703,1.956,2.10555
0.490528,0.610703,1.956,2.10701
0.494082,0.607268,1.945,2.09664
0.494735,0.600399,1.923,2.07441
0.500977,0.600399,1.923,2.07591
0.507218,0.600399,1.923,2.07742
0.510523,0.596965,1.912,2.06706
0.516729,0.596965,1.912,2.0686
0.522934,0.596965,1.912,2.07016
0.52914,0.596965,1.912,2.07174
0.535346,0.596965,1.912,2.07333
0.541552,0.596965,1.912,2.07494
0.547758,0.596965,1.912,2.07657
0.553964,0.596965,1.912,2.07822
0.56017,0.596965,1.912,2.07988
0.566376,0.596965,1.912,2.08156
0.575876,0.600399,1.923,2.09524
0.585447,0.603834,1.934,2.10896
0.591724,0.603834,1.934,2.11071
0.601403,0.607268,1.945,2.1245
0.621776,0.621318,1.99,2.17549
0.632024,0.625065,2.002,2.19047
0.638521,0.625065,2.002,2.19235
0.64502,0.625065,2.002,2.19426
0.651518,0.625065,2.002,2.19618
0.658015,0.625065,2.002,2.19811
0.664514,0.625065,2.002,2.20007
0.671012,0.625065,2.002,2.20204
0.677509,0.625065,2.002,2.20403
0.688107,0.628811,2.014,2.21925
0.694644,0.628811,2.014,2.22129
0.701181,0.628811,2.014,2.22334
0.703501,0.625065,2.002,2.21215
0.709999,0.625065,2.002,2.21423
0.716497,0.625065,2.002,2.21632
0.722995,0.625065,2.002,2.21843
0.729493,0.625065,2.002,2.22056
0.735991,0.625065,2.002,2.2227
0.733959,0.617884,1.979,2.1993
0.740383,0.617884,1.979,2.20145
0.746806,0.617884,1.979,2.20362
0.753229,0.617884,1.979,2.20581
0.755046,0.614137,1.967,2.19462
0.761431,0.614137,1.967,2.19682
0.763521,0.610703,1.956,2.18675
0.76987,0.610703,1.956,2.18897
0.771854,0.607268,1.945,2.17889
0.778166,0.607268,1.945,2.18113
0.784479,0.607268,1.945,2.18339
0.790792,0.607268,1.945,2.18567
0.797105,0.607268,1.945,2.18796
0.803418,0.607268,1.945,2.19027
0.809731,0.607268,1.945,2.19259
0.816044,0.607268,1.945,2.19493
0.822357,0.607268,1.945,2.19729
0.833357,0.610703,1.956,2.2121
0.844428,0.614137,1.967,2.22695
0.850812,0.614137,1.967,2.22938
0.857197,0.614137,1.967,2.23182
0.863581,0.614137,1.967,2.23428
0.875273,0.617884,1.979,2.25041
0.881696,0.617884,1.979,2.25291
0.88812,0.617884,1.979,2.25543
0.894543,0.617884,1.979,2.25797
0.900966,0.617884,1.979,2.26052
0.90739,0.617884,1.979,2.26309
0.913813,0.617884,1.979,2.26567
0.920236,0.617884,1.979,2.26827
0.92666,0.617884,1.979,2.27089
0.938269,0.621318,1.99,2.28615
0.939506,0.617884,1.979,2.27616
0.94593,0.617884,1.979,2.27882
0.952353,0.617884,1.979,2.28149
0.958776,0.617884,1.979,2.28418
0.9652,0.617884,1.979,2.28688
0.971623,0.617884,1.979,2.2896
0.983483,0.621318,1.99,2.30508
0.989942,0.621318,1.99,2.30784
0.996401,0.621318,1.99,2.31062
1.00891,0.625065,2.002,2.32736
1.01541,0.625065,2.002,2.33018
1.02803,0.628811,2.014,2.34701
1.03457,0.628811,2.014,2.34988
1.04731,0.632558,2.026,2.36678
1.05388,0.632558,2.026,2.3697
1.06674,0.636305,2.038,2.38668
1.07967,0.640051,2.05,2.40372
1.08633,0.640051,2.05,2.40671
1.09938,0.643798,2.062,2.42383
1.11304,0.647857,2.075,2.44217
1.11978,0.647857,2.075,2.44525
1.12651,0.647857,2.075,2.44834
1.13325,0.647857,2.075,2.45145
1.13998,0.647857,2.075,2.45457
1.14672,0.647857,2.075,2.4577
1.15345,0.647857,2.075,2.46085
1.16019,0.647857,2.075,2.46402
1.16692,0.647857,2.075,2.4672
1.17366,0.647857,2.075,2.47039
1.18039,0.647857,2.075,2.4736
1.17969,0.643798,2.062,2.4613
1.17948,0.640051,2.05,2.45017
1.18613,0.640051,2.05,2.45338
1.18581,0.636305,2.038,2.44222
1.1854,0.632558,2.026,2.43104
1.19198,0.632558,2.026,2.43426
1.19855,0.632558,2.026,2.43748
1.19799,0.628811,2.014,2.42627
1.20453,0.628811,2.014,2.4295
1.19663,0.621318,1.99,2.40376
1.20309,0.621318,1.99,2.40698
1.20286,0.617884,1.979,2.39689
1.20929,0.617884,1.979,2.40012
1.21571,0.617884,1.979,2.40337
1.21472,0.614137,1.967,2.39203
1.22111,0.614137,1.967,2.39528
1.22749,0.614137,1.967,2.39854
1.23388,0.614137,1.967,2.40181
1.24026,0.614137,1.967,2.4051
1.24664,0.614137,1.967,2.4084
1.25303,0.614137,1.967,2.41171
1.25941,0.614137,1.967,2.41503
1.2658,0.614137,1.967,2.41837
1.27994,0.617884,1.979,2.43649
1.28637,0.617884,1.979,2.43987
1.29279,0.617884,1.979,2.44326
1.29921,0.617884,1.979,2.44667
1.30564,0.617884,1.979,2.45008
1.31935,0.621318,1.99,2.46715
1.32581,0.621318,1.99,2.47061
1.33227,0.621318,1.99,2.47408
1.33873,0.621318,1.99,2.47757
1.34519,0.621318,1.99,2.48106
1.35165,0.621318,1.99,2.48457
-1.68438,0.765949,2.428,3.05271
-1.6765,0.765949,2.428,3.04836
-1.66862,0.765949,2.428,3.04404
-1.66074,0.765949,2.428,3.03972
-1.65286,0.765949,2.428,3.03543
-1.64498,0.765949,2.428,3.03114
-1.6371,0.765949,2.428,3.02687
-1.62922,0.765949,2.428,3.02262
-1.62134,0.765949,2.428,3.01838
-1.61346,0.765949,2.428,3.01415
-1.60558,0.765949,2.428,3.00994
-1.58651,0.760586,2.411,2.9847
-1.57868,0.760586,2.411,2.98055
-1.57086,0.760586,2.411,2.97641
-1.56303,0.760586,2.411,2.97229
-1.54424,0.755223,2.394,2.94725
-1.53647,0.755223,2.394,2.94319
-1.53956,0.760586,2.411,2.96001
-1.53173,0.760586,2.411,2.95595
-1.5239,0.760586,2.411,2.9519
-1.51608,0.760586,2.411,2.94787
-1.50825,0.760586,2.411,2.94385
-1.50043,0.760586,2.411,2.93985
-1.4926,0.760586,2.411,2.93586
-1.48478,0.760586,2.411,2.93189
-1.47695,0.760586,2.411,2.92793
-1.47949,0.765949,2.428,2.94461
-1.4716,0.765949,2.428,2.94066
-1.46372,0.765949,2.428,2.93672
-1.44565,0.760586,2.411,2.91227
-1.43782,0.760586,2.411,2.90839
-1.41992,0.755223,2.394,2.88405
-1.41215,0.755223,2.394,2.88023
-1.40438,0.755223,2.394,2.87643
-1.38669,0.74986,2.377,2.85225
-1.36969,0.744813,2.361,2.82933
-1.36203,0.744813,2.361,2.82563
-1.34519,0.739765,2.345,2.80282
-1.32845,0.734718,2.329,2.78008
-1.31181,0.729671,2.313,2.7574
-1.30431,0.729671,2.313,2.75383
-1.2968,0.729671,2.313,2.75029
-1.28929,0.729671,2.313,2.74675
-1.28178,0.729671,2.313,2.74324
-1.27428,0.729671,2.313,2.73974
-1.25855,0.724939,2.298,2.71851
-1.2511,0.724939,2.298,2.71507
-1.24364,0.724939,2.298,2.71164
-1.24425,0.729671,2.313,2.7259
-1.23674,0.729671,2.313,2.72248
-1.22923,0.729671,2.313,2.71908
-1.22173,0.729671,2.313,2.7157
-1.22262,0.734718,2.329,2.73109
-1.21506,0.734718,2.329,2.72771
-1.2075,0.734718,2.329,2.72435
-1.1917,0.729671,2.313,2.70232
-1.18419,0.729671,2.313,2.69902
-1.16905,0.724939,2.298,2.67825
-1.16159,0.724939,2.298,2.675
-1.15413,0.724939,2.298,2.67177
-1.13869,0.719891,2.282,2.64998
-1.12385,0.715159,2.267,2.62941
-1.10171,0.705695,2.237,2.59151
-1.09445,0.705695,2.237,2.58844
-1.08039,0.701279,2.223,2.56919
-1.06641,0.696862,2.209,2.55001
-1.05924,0.696862,2.209,2.54702
-1.04493,0.69213,2.194,2.52677
-1.03119,0.687714,2.18,2.50773
-1.02411,0.687714,2.18,2.50483
-1.01097,0.683613,2.167,2.48702
-1.00394,0.683613,2.167,2.48417
-0.996904,0.683613,2.167,2.48134
-0.983475,0.679196,2.153,2.46251
-0.976487,0.679196,2.153,2.45972
-0.969499,0.679196,2.153,2.45696
-0.962511,0.679196,2.153,2.45421
-0.949753,0.675095,2.14,2.43667
-0.942807,0.675095,2.14,2.43398
-0.941546,0.679196,2.153,2.44606
-0.934558,0.679196,2.153,2.44338
-0.92757,0.679196,2.153,2.44072
-0.926568,0.683613,2.167,2.45392
-0.919535,0.683613,2.167,2.45128
-0.917975,0.687714,2.18,2.46334
-0.9109,0.687714,2.18,2.46071
-0.909628,0.69213,2.194,2.47388
-0.902507,0.69213,2.194,2.47127
-0.901507,0.696862,2.209,2.48556
-0.900006,0.701279,2.223,2.49871
-0.89279,0.701279,2.223,2.49612
-0.885575,0.701279,2.223,2.49354
-0.87836,0.701279,2.223,2.49099
-0.871144,0.701279,2.223,2.48846
-0.863929,0.701279,2.223,2.48594
-0.86789,0.710427,2.252,2.51584
-0.860581,0.710427,2.252,2.51333
-0.853271,0.710427,2.252,2.51083
-0.840327,0.705695,2.237,2.49165
-0.833066,0.705695,2.237,2.48921
-0.820637,0.701279,2.223,2.47123
-0.813422,0.701279,2.223,2.46884
-0.806207,0.701279,2.223,2.46647
-0.793959,0.696862,2.209,2.44861
-0.78679,0.696862,2.209,2.44629
-0.77962,0.696862,2.209,2.44399
-0.77245,0.696862,2.209,2.44172
-0.760083,0.69213,2.194,2.42289
-0.748158,0.687714,2.18,2.40522
-0.741082,0.687714,2.18,2.40303
-0.734006,0.687714,2.18,2.40086
-0.722595,0.683613,2.167,2.3844
-0.715562,0.683613,2.167,2.38228
-0.708528,0.683613,2.167,2.38017
-0.701495,0.683613,2.167,2.37809
-0.694461,0.683613,2.167,2.37602
-0.678863,0.675095,2.14,2.3444
-0.671917,0.675095,2.14,2.3424
-0.664971,0.675095,2.14,2.34041
-0.65372,0.670679,2.126,2.32315
-0.64682,0.670679,2.126,2.32122
-0.636006,0.666578,2.113,2.30512
-0.629148,0.666578,2.113,2.30324
-0.62229,0.666578,2.113,2.30138
-0.615431,0.666578,2.113,2.29953
-0.608573,0.666578,2.113,2.29771
-0.598013,0.662476,2.1,2.28177
-0.587537,0.658375,2.087,2.26588
-0.580763,0.658375,2.087,2.26414
-0.573989,0.658375,2.087,2.26241
-0.570749,0.662476,2.1,2.27478
-0.563932,0.662476,2.1,2.27308
-0.557116,0.662476,2.1,2.2714
-0.543749,0.65459,2.075,2.24272
-0.537014,0.65459,2.075,2.24109
-0.533346,0.658375,2.087,2.25244
-0.526572,0.658375,2.087,2.25085
-0.519798,0.658375,2.087,2.24927
-0.513024,0.658375,2.087,2.24771
-0.50625,0.658375,2.087,2.24618
-0.502588,0.662476,2.1,2.25864
-0.495772,0.662476,2.1,2.25714
-0.488956,0.662476,2.1,2.25565
-0.482139,0.662476,2.1,2.25418
-0.475323,0.662476,2.1,2.25273
-0.468507,0.662476,2.1,2.25131
-0.461691,0.662476,2.1,2.2499
-0.454875,0.662476,2.1,2.24851
-0.448059,0.662476,2.1,2.24714
-0.438511,0.658375,2.087,2.23189
-0.431738,0.658375,2.087,2.23057
-0.424964,0.658375,2.087,2.22926
-0.415785,0.65459,2.075,2.21517
-0.40905,0.65459,2.075,2.21392
-0.402315,0.65459,2.075,2.21268
-0.395581,0.65459,2.075,2.21147
-0.388846,0.65459,2.075,2.21027
-0.382111,0.65459,2.075,2.2091
-0.375376,0.65459,2.075,2.20794
-0.366331,0.650489,2.062,2.19298
-0.359638,0.650489,2.062,2.19188
-0.352946,0.650489,2.062,2.19079
-0.346253,0.650489,2.062,2.18972
-0.33956,0.650489,2.062,2.18867
-0.332868,0.650489,2.062,2.18764
-0.324277,0.646703,2.05,2.17391
-0.317623,0.646703,2.05,2.17293
-0.310969,0.646703,2.05,2.17196
-0.302534,0.642918,2.038,2.15831
-0.295919,0.642918,2.038,2.1574
-0.289304,0.642918,2.038,2.1565
-0.27936,0.635346,2.014,2.13024
-0.271198,0.631561,2.002,2.1167
-0.2647,0.631561,2.002,2.11588
-0.258202,0.631561,2.002,2.11507
-0.250195,0.627775,1.99,2.10162
-0.243736,0.627775,1.99,2.10086
-0.237277,0.627775,1.99,2.10012
-0.229542,0.624305,1.979,2.0878
-0.221766,0.62052,1.967,2.07444
-0.215381,0.62052,1.967,2.07377
-0.207828,0.61705,1.956,2.06152
-0.200346,0.613579,1.945,2.0493
-0.194034,0.613579,1.945,2.0487
-0.186659,0.610109,1.934,2.03652
-0.180382,0.610109,1.934,2.03596
-0.173114,0.606639,1.923,2.02384
-0.166872,0.606639,1.923,2.02331
-0.160631,0.606639,1.923,2.02281
-0.154389,0.606639,1.923,2.02232
-0.148148,0.606639,1.923,2.02185
-0.141906,0.606639,1.923,2.0214
-0.135665,0.606639,1.923,2.02098
-0.129423,0.606639,1.923,2.02057
-0.123181,0.606639,1.923,2.02018
-0.11694,0.606639,1.923,2.01981
-0.110698,0.606639,1.923,2.01945
-0.104457,0.606639,1.923,2.01912
-0.0982151,0.606639,1.923,2.01881
-0.0919735,0.606639,1.923,2.01851
-0.0857319,0.606639,1.923,2.01824
-0.0794903,0.606639,1.923,2.01798
-0.0732488,0.606639,1.923,2.01775
-0.0670072,0.606639,1.923,2.01753
-0.0607656,0.606639,1.923,2.01733
-0.054524,0.606639,1.923,2.01715
-0.0485586,0.610109,1.934,2.02853
-0.0422813,0.610109,1.934,2.02839
-0.0360041,0.610109,1.934,2.02827
-0.0297268,0.610109,1.934,2.02817
-0.0235829,0.613579,1.945,2.03962
-0.0172699,0.613579,1.945,2.03956
-0.0109569,0.613579,1.945,2.03952
-0.00467017,0.61705,1.956,2.05103
0.00167852,0.61705,1.956,2.05102
0.00802721,0.61705,1.956,2.05104
0.0143759,0.61705,1.956,2.05107
0.0207246,0.61705,1.956,2.05113
0.0270733,0.61705,1.956,2.0512
0.033422,0.61705,1.956,2.05129
0.0397707,0.61705,1.956,2.05141
0.0461194,0.61705,1.956,2.05154
0.052468,0.61705,1.956,2.05169
0.0588167,0.61705,1.956,2.05186
0.0651654,0.61705,1.956,2.05206
0.0715141,0.61705,1.956,2.05227
0.0783007,0.62052,1.967,2.06404
0.0842115,0.61705,1.956,2.05275
0.0905602,0.61705,1.956,2.05302
0.0969089,0.61705,1.956,2.05331
0.103258,0.61705,1.956,2.05362
0.109606,0.61705,1.956,2.05395
0.115955,0.61705,1.956,2.0543
0.122304,0.61705,1.956,2.05466
0.128652,0.61705,1.956,2.05505
0.135001,0.61705,1.956,2.05546
0.14135,0.61705,1.956,2.05589
0.147698,0.61705,1.956,2.05633
0.154047,0.61705,1.956,2.0568
0.160396,0.61705,1.956,2.05728
0.166744,0.61705,1.956,2.05779
0.174067,0.62052,1.967,2.06989
0.180451,0.62052,1.967,2.07043
0.186835,0.62052,1.967,2.071
0.194399,0.624305,1.979,2.08422
0.200822,0.624305,1.979,2.08483
0.207245,0.624305,1.979,2.08546
0.213669,0.624305,1.979,2.08611
0.220092,0.624305,1.979,2.08678
0.226515,0.624305,1.979,2.08746
0.232939,0.624305,1.979,2.08817
0.240692,0.627775,1.99,2.10051
0.247151,0.627775,1.99,2.10126
0.25361,0.627775,1.99,2.10203
0.26007,0.627775,1.99,2.10282
0.266529,0.627775,1.99,2.10363
0.272988,0.627775,1.99,2.10445
0.281132,0.631561,2.002,2.118
0.28763,0.631561,2.002,2.11887
0.297654,0.639132,2.026,2.14517
0.30423,0.639132,2.026,2.14609
0.310806,0.639132,2.026,2.14704
0.317381,0.639132,2.026,2.148
0.323957,0.639132,2.026,2.14898
0.330533,0.639132,2.026,2.14998
0.337109,0.639132,2.026,2.151
0.343685,0.639132,2.026,2.15204
0.350261,0.639132,2.026,2.1531
0.356837,0.639132,2.026,2.15418
0.363413,0.639132,2.026,2.15528
0.369989,0.639132,2.026,2.1564
0.376564,0.639132,2.026,2.15754
0.38314,0.639132,2.026,2.15869
0.389716,0.639132,2.026,2.15987
0.393945,0.635346,2.014,2.14827
0.400482,0.635346,2.014,2.14948
0.407019,0.635346,2.014,2.1507
0.413556,0.635346,2.014,2.15195
0.420093,0.635346,2.014,2.15322
0.42663,0.635346,2.014,2.1545
0.430586,0.631561,2.002,2.14296
0.437084,0.631561,2.002,2.14428
0.443582,0.631561,2.002,2.14561
0.45008,0.631561,2.002,2.14696
0.451332,0.624305,1.979,2.12365
0.457756,0.624305,1.979,2.12503
0.461364,0.62052,1.967,2.11353
0.467749,0.62052,1.967,2.11493
0.474133,0.62052,1.967,2.11635
0.47783,0.61705,1.956,2.10595
0.484179,0.61705,1.956,2.1074
0.490528,0.61705,1.956,2.10886
0.494082,0.613579,1.945,2.09848
0.494735,0.606639,1.923,2.07622
0.500977,0.606639,1.923,2.07772
0.507218,0.606639,1.923,2.07923
0.510523,0.603169,1.912,2.06886
0.516729,0.603169,1.912,2.0704
0.522934,0.603169,1.912,2.07196
0.52914,0.603169,1.912,2.07353
0.535346,0.603169,1.912,2.07513
0.541552,0.603169,1.912,2.07674
0.547758,0.603169,1.912,2.07836
0.553964,0.603169,1.912,2.08001
0.56017,0.603169,1.912,2.08167
0.566376,0.603169,1.912,2.08335
0.575876,0.606639,1.923,2.09704
0.585447,0.610109,1.934,2.11077
0.591724,0.610109,1.934,2.11252
0.601403,0.613579,1.945,2.12631
0.611153,0.61705,1.956,2.14014
0.617501,0.61705,1.956,2.14196
0.62385,0.61705,1.956,2.1438
0.633743,0.62052,1.967,2.15772
0.640127,0.62052,1.967,2.15961
0.646512,0.62052,1.967,2.16151
0.656879,0.624305,1.979,2.17662
0.663303,0.624305,1.979,2.17857
0.669726,0.624305,1.979,2.18053
0.676149,0.624305,1.979,2.18252
0.686367,0.627775,1.99,2.19666
0.692826,0.627775,1.99,2.19868
0.695419,0.624305,1.979,2.18856
0.697587,0.62052,1.967,2.17733
0.703971,0.62052,1.967,2.17938
0.710356,0.62052,1.967,2.18145
0.71674,0.62052,1.967,2.18354
0.723124,0.62052,1.967,2.18564
0.725429,0.61705,1.956,2.17553
0.727663,0.613579,1.945,2.16541
0.733976,0.613579,1.945,2.16754
0.740289,0.613579,1.945,2.16968
0.746602,0.613579,1.945,2.17185
0.752915,0.613579,1.945,2.17403
0.754934,0.610109,1.934,2.16391
0.761211,0.610109,1.934,2.16611
0.763123,0.606639,1.923,2.15599
0.769365,0.606639,1.923,2.15821
0.77117,0.603169,1.912,2.14808
0.777375,0.603169,1.912,2.15032
0.788089,0.606639,1.923,2.16495
0.794331,0.606639,1.923,2.16723
0.795993,0.603169,1.912,2.15712
0.802199,0.603169,1.912,2.15942
0.808405,0.603169,1.912,2.16173
0.819297,0.606639,1.923,2.17651
0.825539,0.606639,1.923,2.17887
0.83178,0.606639,1.923,2.18124
0.842816,0.610109,1.934,2.19612
0.849093,0.610109,1.934,2.19853
0.860235,0.613579,1.945,2.21348
0.866548,0.613579,1.945,2.21594
0.877798,0.61705,1.956,2.23097
0.884147,0.61705,1.956,2.23347
0.890495,0.61705,1.956,2.23599
0.896844,0.61705,1.956,2.23853
0.903193,0.61705,1.956,2.24108
0.909541,0.61705,1.956,2.24365
0.91589,0.61705,1.956,2.24623
0.922239,0.61705,1.956,2.24882
0.923365,0.613579,1.945,2.23877
0.929678,0.613579,1.945,2.24138
0.935991,0.613579,1.945,2.24401
0.942304,0.613579,1.945,2.24665
0.948617,0.613579,1.945,2.24931
0.95493,0.613579,1.945,2.25198
0.96668,0.61705,1.956,2.26741
0.973028,0.61705,1.956,2.27013
0.979377,0.61705,1.956,2.27285
0.991269,0.62052,1.967,2.28839
0.997653,0.62052,1.967,2.29117
1.00404,0.62052,1.967,2.29395
1.01659,0.624305,1.979,2.31077
1.02301,0.624305,1.979,2.3136
1.02943,0.624305,1.979,2.31645
1.04161,0.627775,1.99,2.3322
1.05439,0.631561,2.002,2.34917
1.06089,0.631561,2.002,2.3521
1.07379,0.635346,2.014,2.36915
1.0932,0.642918,2.038,2.40039
1.09981,0.642918,2.038,2.40341
1.10643,0.642918,2.038,2.40644
1.11304,0.642918,2.038,2.40949
1.11966,0.642918,2.038,2.41255
1.12627,0.642918,2.038,2.41563
1.13956,0.646703,2.05,2.43296
1.14621,0.646703,2.05,2.43609
1.14612,0.642918,2.038,2.42495
1.15273,0.642918,2.038,2.42808
1.15935,0.642918,2.038,2.43123
1.1591,0.639132,2.026,2.42006
1.15877,0.635346,2.014,2.40886
1.1653,0.635346,2.014,2.41201
1.16486,0.631561,2.002,2.40079
1.17136,0.631561,2.002,2.40394
1.17786,0.631561,2.002,2.40712
1.17725,0.627775,1.99,2.39586
1.18371,0.627775,1.99,2.39904
1.19017,0.627775,1.99,2.40223
1.1828,0.62052,1.967,2.37764
1.18253,0.61705,1.956,2.3675
1.18888,0.61705,1.956,2.37068
1.19523,0.61705,1.956,2.37387
1.20158,0.61705,1.956,2.37707
1.20793,0.61705,1.956,2.38029
1.21428,0.61705,1.956,2.38352
1.22063,0.61705,1.956,2.38676
1.22698,0.61705,1.956,2.39001
1.23332,0.61705,1.956,2.39328
1.23967,0.61705,1.956,2.39655
1.24602,0.61705,1.956,2.39985
1.25237,0.61705,1.956,2.40315
1.25872,0.61705,1.956,2.40646
1.26507,0.61705,1.956,2.40979
1.27142,0.61705,1.956,2.41313
1.28495,0.62052,1.967,2.43007
1.29134,0.62052,1.967,2.43345
1.29772,0.62052,1.967,2.43684
1.3041,0.62052,1.967,2.44025
1.31049,0.62052,1.967,2.44367
1.31687,0.62052,1.967,2.4471
1.32326,0.62052,1.967,2.45054
1.32964,0.62052,1.967,2.45399
1.33603,0.62052,1.967,2.45746
-1.6608,0.762991,2.394,3.01192
-1.65303,0.762991,2.394,3.00764
-1.64526,0.762991,2.394,3.00337
-1.63749,0.762991,2.394,2.99912
-1.62971,0.762991,2.394,2.99489
-1.62194,0.762991,2.394,2.99067
-1.61417,0.762991,2.394,2.98646
-1.6064,0.762991,2.394,2.98227
-1.59863,0.762991,2.394,2.97809
-1.59086,0.762991,2.394,2.97393
-1.59433,0.768409,2.411,2.99087
-1.57532,0.762991,2.394,2.96564
-1.56755,0.762991,2.394,2.96152
-1.55978,0.762991,2.394,2.95742
-1.54099,0.757573,2.377,2.93235
-1.53328,0.757573,2.377,2.92831
-1.52556,0.757573,2.377,2.92427
-1.5287,0.762991,2.394,2.94114
-1.52093,0.762991,2.394,2.93711
-1.51316,0.762991,2.394,2.93309
-1.50539,0.762991,2.394,2.92909
-1.49762,0.762991,2.394,2.92511
-1.48985,0.762991,2.394,2.92114
-1.48208,0.762991,2.394,2.91718
-1.47431,0.762991,2.394,2.91324
-1.46654,0.762991,2.394,2.90932
-1.46913,0.768409,2.411,2.92604
-1.4613,0.768409,2.411,2.92212
-1.45348,0.768409,2.411,2.91821
-1.43546,0.762991,2.394,2.89377
-1.42769,0.762991,2.394,2.88993
-1.41992,0.762991,2.394,2.8861
-1.40212,0.757573,2.377,2.86181
-1.3944,0.757573,2.377,2.85804
-1.37735,0.752474,2.361,2.83507
-1.36041,0.747375,2.345,2.81217
-1.3528,0.747375,2.345,2.8085
-1.33601,0.742275,2.329,2.7857
-1.31077,0.732395,2.298,2.74505
-1.30331,0.732395,2.298,2.7415
-1.29585,0.732395,2.298,2.73796
-1.28839,0.732395,2.298,2.73444
-1.27201,0.727296,2.282,2.71192
-1.26461,0.727296,2.282,2.70845
-1.2572,0.727296,2.282,2.705
-1.25855,0.732395,2.298,2.72051
-1.2511,0.732395,2.298,2.71707
-1.24364,0.732395,2.298,2.71364
-1.24425,0.737176,2.313,2.72792
-1.23674,0.737176,2.313,2.7245
-1.22923,0.737176,2.313,2.7211
-1.22173,0.737176,2.313,2.71772
-1.22262,0.742275,2.329,2.73313
-1.21506,0.742275,2.329,2.72976
-1.2075,0.742275,2.329,2.7264
-1.1917,0.737176,2.313,2.70436
-1.18419,0.737176,2.313,2.70106
-1.16905,0.732395,2.298,2.68028
-1.16159,0.732395,2.298,2.67703
-1.15413,0.732395,2.298,2.6738
-1.13869,0.727296,2.282,2.652
-1.12385,0.722515,2.267,2.63142
-1.10171,0.712954,2.237,2.5935
-1.09445,0.712954,2.237,2.59042
-1.08039,0.708492,2.223,2.57117
-1.06641,0.70403,2.209,2.55198
-1.05924,0.70403,2.209,2.54899
-1.04493,0.699249,2.194,2.52873
-1.03119,0.694787,2.18,2.50968
-1.02411,0.694787,2.18,2.50678
-1.01097,0.690644,2.167,2.48896
-1.00394,0.690644,2.167,2.48612
-0.996904,0.690644,2.167,2.48328
-0.983475,0.686182,2.153,2.46444
-0.976487,0.686182,2.153,2.46166
-0.969499,0.686182,2.153,2.4589
-0.962511,0.686182,2.153,2.45615
-0.949753,0.682039,2.14,2.43861
-0.942807,0.682039,2.14,2.43591
-0.941546,0.686182,2.153,2.44801
-0.934558,0.686182,2.153,2.44533
-0.92757,0.686182,2.153,2.44267
-0.926568,0.690644,2.167,2.45589
-0.919535,0.690644,2.167,2.45325
-0.917975,0.694787,2.18,2.46532
-0.9109,0.694787,2.18,2.4627
-0.909628,0.699249,2.194,2.47589
-0.902507,0.699249,2.194,2.47328
-0.901507,0.70403,2.209,2.48758
-0.900006,0.708492,2.223,2.50074
-0.89279,0.708492,2.223,2.49815
-0.885575,0.708492,2.223,2.49558
-0.87836,0.708492,2.223,2.49303
-0.871144,0.708492,2.223,2.4905
-0.863929,0.708492,2.223,2.48798
-0.856714,0.708492,2.223,2.48549
-0.849498,0.708492,2.223,2.48301
-0.836979,0.70403,2.209,2.46493
-0.829809,0.70403,2.209,2.4625
-0.822639,0.70403,2.209,2.4601
-0.804763,0.694787,2.18,2.42544
-0.797688,0.694787,2.18,2.4231
-0.790612,0.694787,2.18,2.42078
-0.783536,0.694787,2.18,2.41848
-0.77183,0.690644,2.167,2.40179
-0.764797,0.690644,2.167,2.39954
-0.757763,0.690644,2.167,2.39731
-0.745879,0.686182,2.153,2.37962
-0.738891,0.686182,2.153,2.37744
-0.727484,0.682039,2.14,2.36093
-0.720538,0.682039,2.14,2.3588
-0.713592,0.682039,2.14,2.35669
-0.706646,0.682039,2.14,2.3546
-0.695123,0.677577,2.126,2.33713
-0.684014,0.673434,2.113,2.32081
-0.677156,0.673434,2.113,2.3188
-0.670298,0.673434,2.113,2.3168
-0.659358,0.669291,2.1,2.30059
-0.652541,0.669291,2.1,2.29864
-0.641728,0.665147,2.087,2.2825
-0.634954,0.665147,2.087,2.2806
-0.62818,0.665147,2.087,2.27873
-0.617833,0.661323,2.075,2.26378
-0.611098,0.661323,2.075,2.26195
-0.604364,0.661323,2.075,2.26014
-0.597629,0.661323,2.075,2.25835
-0.583774,0.653355,2.05,2.22939
-0.577121,0.653355,2.05,2.22765
-0.570467,0.653355,2.05,2.22594
-0.563813,0.653355,2.05,2.22424
-0.557159,0.653355,2.05,2.22257
-0.550505,0.653355,2.05,2.22091
-0.540668,0.649531,2.038,2.20628
-0.534053,0.649531,2.038,2.20466
-0.530544,0.653355,2.05,2.21604
-0.520824,0.649531,2.038,2.2015
-0.514209,0.649531,2.038,2.19994
-0.507594,0.649531,2.038,2.19841
-0.503929,0.653355,2.05,2.20982
-0.497275,0.653355,2.05,2.20832
-0.490621,0.653355,2.05,2.20683
-0.483968,0.653355,2.05,2.20536
-0.477314,0.653355,2.05,2.20391
-0.47066,0.653355,2.05,2.20247
-0.464006,0.653355,2.05,2.20106
-0.457352,0.653355,2.05,2.19967
-0.453337,0.65718,2.062,2.21116
-0.446644,0.65718,2.062,2.2098
-0.439951,0.65718,2.062,2.20846
-0.430737,0.653355,2.05,2.19429
-0.424083,0.653355,2.05,2.19299
-0.41743,0.653355,2.05,2.19172
-0.408371,0.649531,2.038,2.17764
-0.401756,0.649531,2.038,2.17641
-0.395142,0.649531,2.038,2.17519
-0.388527,0.649531,2.038,2.174
-0.381912,0.649531,2.038,2.17283
-0.375297,0.649531,2.038,2.17168
-0.368682,0.649531,2.038,2.17054
-0.359936,0.645706,2.026,2.15666
-0.35336,0.645706,2.026,2.15557
-0.346784,0.645706,2.026,2.1545
-0.340208,0.645706,2.026,2.15345
-0.333632,0.645706,2.026,2.15242
-0.327056,0.645706,2.026,2.15141
-0.318582,0.641882,2.014,2.13769
-0.312045,0.641882,2.014,2.13672
-0.305508,0.641882,2.014,2.13578
-0.29719,0.638057,2.002,2.12213
-0.290692,0.638057,2.002,2.12123
-0.284194,0.638057,2.002,2.12035
-0.276031,0.634233,1.99,2.10679
-0.268082,0.630727,1.979,2.09431
-0.260072,0.626902,1.967,2.0808
-0.253688,0.626902,1.967,2.08001
-0.24592,0.623396,1.956,2.06762
-0.238224,0.619891,1.945,2.05525
-0.231911,0.619891,1.945,2.05452
-0.224323,0.616385,1.934,2.04221
-0.216805,0.612879,1.923,2.02991
-0.210564,0.612879,1.923,2.02926
-0.204322,0.612879,1.923,2.02862
-0.19808,0.612879,1.923,2.028
-0.191839,0.612879,1.923,2.0274
-0.18357,0.606186,1.902,2.00469
-0.177397,0.606186,1.902,2.00413
-0.171224,0.606186,1.902,2.00359
-0.16505,0.606186,1.902,2.00307
-0.157958,0.60268,1.891,1.99099
-0.15182,0.60268,1.891,1.99052
-0.145682,0.60268,1.891,1.99006
-0.139545,0.60268,1.891,1.98962
-0.133407,0.60268,1.891,1.9892
-0.127269,0.60268,1.891,1.98879
-0.121132,0.60268,1.891,1.98841
-0.114994,0.60268,1.891,1.98805
-0.108856,0.60268,1.891,1.9877
-0.102718,0.60268,1.891,1.98737
-0.0965807,0.60268,1.891,1.98707
-0.090443,0.60268,1.891,1.98678
-0.0843053,0.60268,1.891,1.98651
-0.0781676,0.60268,1.891,1.98626
-0.0720299,0.60268,1.891,1.98602
-0.0658921,0.60268,1.891,1.98581
-0.0597544,0.60268,1.891,1.98562
-0.0536167,0.60268,1.891,1.98544
-0.0477552,0.606186,1.902,1.99683
-0.0415818,0.606186,1.902,1.9967
-0.0354083,0.606186,1.902,1.99658
-0.0297268,0.616385,1.934,2.03007
-0.0235829,0.619891,1.945,2.04153
-0.0172699,0.619891,1.945,2.04147
-0.0109569,0.619891,1.945,2.04142
-0.00467017,0.623396,1.956,2.05294
0.00167852,0.623396,1.956,2.05294
0.00802721,0.623396,1.956,2.05295
0.0143759,0.623396,1.956,2.05299
0.0207246,0.623396,1.956,2.05304
0.0270733,0.623396,1.956,2.05312
0.033422,0.623396,1.956,2.05321
0.0397707,0.623396,1.956,2.05332
0.0461194,0.623396,1.956,2.05346
0.052468,0.623396,1.956,2.05361
0.0588167,0.623396,1.956,2.05378
0.0651654,0.623396,1.956,2.05397
0.0715141,0.623396,1.956,2.05418
0.0783007,0.626902,1.967,2.06597
0.0842115,0.623396,1.956,2.05467
0.0905602,0.623396,1.956,2.05494
0.0969089,0.623396,1.956,2.05523
0.103258,0.623396,1.956,2.05553
0.109606,0.623396,1.956,2.05586
0.115955,0.623396,1.956,2.05621
0.122304,0.623396,1.956,2.05658
0.128652,0.623396,1.956,2.05697
0.135001,0.623396,1.956,2.05737
0.14135,0.623396,1.956,2.0578
0.147698,0.623396,1.956,2.05825
0.154047,0.623396,1.956,2.05871
0.160396,0.623396,1.956,2.0592
0.166744,0.623396,1.956,2.0597
0.174067,0.626902,1.967,2.07181
0.180451,0.626902,1.967,2.07236
0.186835,0.626902,1.967,2.07292
0.194399,0.630727,1.979,2.08616
0.200822,0.630727,1.979,2.08676
0.207245,0.630727,1.979,2.08739
0.213669,0.630727,1.979,2.08804
0.220092,0.630727,1.979,2.08871
0.226515,0.630727,1.979,2.08939
0.232939,0.630727,1.979,2.0901
0.240692,0.634233,1.99,2.10245
0.247151,0.634233,1.99,2.1032
0.25361,0.634233,1.99,2.10397
0.26007,0.634233,1.99,2.10475
0.266529,0.634233,1.99,2.10556
0.272988,0.634233,1.99,2.10639
0.281132,0.638057,2.002,2.11994
0.28763,0.638057,2.002,2.12081
0.294128,0.638057,2.002,2.12171
