-1.14018,-0.417766,2.394,2.68436
-1.13241,-0.417766,2.394,2.68107
-1.12464,-0.417766,2.394,2.6778
-1.1248,-0.420732,2.411,2.69353
-1.11698,-0.420732,2.411,2.69027
-1.10915,-0.420732,2.411,2.68704
-1.10133,-0.420732,2.411,2.68381
-1.08579,-0.417766,2.394,2.66171
-1.07802,-0.417766,2.394,2.65855
-1.07025,-0.417766,2.394,2.65541
-1.06248,-0.417766,2.394,2.65229
-1.04722,-0.414799,2.377,2.63037
-1.03951,-0.414799,2.377,2.62731
-1.03179,-0.414799,2.377,2.62427
-1.02408,-0.414799,2.377,2.62124
-1.01636,-0.414799,2.377,2.61824
-1.00865,-0.414799,2.377,2.61525
-0.994193,-0.412007,2.361,2.5947
-0.986529,-0.412007,2.361,2.59178
-0.978866,-0.412007,2.361,2.58887
-0.971203,-0.412007,2.361,2.58598
-0.95701,-0.409215,2.345,2.56561
-0.949399,-0.409215,2.345,2.56278
-0.941787,-0.409215,2.345,2.55997
-0.934176,-0.409215,2.345,2.55718
-0.926565,-0.409215,2.345,2.55441
-0.918953,-0.409215,2.345,2.55166
-0.911342,-0.409215,2.345,2.54893
-0.903731,-0.409215,2.345,2.54622
-0.89612,-0.409215,2.345,2.54352
-0.888508,-0.409215,2.345,2.54085
-0.880897,-0.409215,2.345,2.5382
-0.873286,-0.409215,2.345,2.53557
-0.865674,-0.409215,2.345,2.53296
-0.858063,-0.409215,2.345,2.53037
-0.856255,-0.412007,2.361,2.54504
-0.848591,-0.412007,2.361,2.54247
-0.840928,-0.412007,2.361,2.53993
-0.833265,-0.412007,2.361,2.5374
-0.825602,-0.412007,2.361,2.53489
-0.817938,-0.412007,2.361,2.53241
-0.815766,-0.414799,2.377,2.54709
-0.808051,-0.414799,2.377,2.54463
-0.800336,-0.414799,2.377,2.54219
-0.79829,-0.417766,2.394,2.55793
-0.790519,-0.417766,2.394,2.55552
-0.782749,-0.417766,2.394,2.55313
-0.774979,-0.417766,2.394,2.55076
-0.772656,-0.420732,2.411,2.5665
-0.764831,-0.420732,2.411,2.56416
-0.757005,-0.420732,2.411,2.56183
-0.754462,-0.423699,2.428,2.57758
-0.746581,-0.423699,2.428,2.57528
-0.738701,-0.423699,2.428,2.57301
-0.73082,-0.423699,2.428,2.57076
-0.722939,-0.423699,2.428,2.56853
-0.715059,-0.423699,2.428,2.56632
-0.707178,-0.423699,2.428,2.56414
-0.704194,-0.426666,2.445,2.57991
-0.696258,-0.426666,2.445,2.57776
-0.688322,-0.426666,2.445,2.57563
-0.680386,-0.426666,2.445,2.57352
-0.67245,-0.426666,2.445,2.57143
-0.664514,-0.426666,2.445,2.56937
-0.656578,-0.426666,2.445,2.56733
-0.648643,-0.426666,2.445,2.56531
-0.640707,-0.426666,2.445,2.56331
-0.632771,-0.426666,2.445,2.56134
-0.624835,-0.426666,2.445,2.55939
-0.616899,-0.426666,2.445,2.55747
-0.608963,-0.426666,2.445,2.55556
-0.601027,-0.426666,2.445,2.55368
-0.593092,-0.426666,2.445,2.55183
-0.585156,-0.426666,2.445,2.55
-0.57722,-0.426666,2.445,2.54819
-0.569284,-0.426666,2.445,2.5464
-0.561348,-0.426666,2.445,2.54464
-0.553412,-0.426666,2.445,2.5429
-0.545476,-0.426666,2.445,2.54118
-0.53754,-0.426666,2.445,2.53949
-0.529605,-0.426666,2.445,2.53782
-0.521669,-0.426666,2.445,2.53618
-0.517515,-0.429807,2.463,2.55322
-0.509521,-0.429807,2.463,2.55161
-0.501526,-0.429807,2.463,2.55003
-0.493532,-0.429807,2.463,2.54847
-0.485538,-0.429807,2.463,2.54693
-0.477544,-0.429807,2.463,2.54542
-0.472981,-0.432948,2.481,2.56252
-0.461555,-0.429807,2.463,2.54247
-0.453561,-0.429807,2.463,2.54103
-0.445566,-0.429807,2.463,2.53961
-0.437572,-0.429807,2.463,2.53822
-0.429578,-0.429807,2.463,2.53686
-0.421584,-0.429807,2.463,2.53551
-0.413589,-0.429807,2.463,2.5342
-0.405595,-0.429807,2.463,2.53291
-0.397601,-0.429807,2.463,2.53164
-0.389606,-0.429807,2.463,2.53039
-0.378823,-0.426666,2.445,2.51069
-0.370887,-0.426666,2.445,2.50951
-0.362952,-0.426666,2.445,2.50835
-0.355016,-0.426666,2.445,2.50721
-0.34708,-0.426666,2.445,2.5061
-0.339144,-0.426666,2.445,2.50501
-0.331208,-0.426666,2.445,2.50395
-0.323272,-0.426666,2.445,2.50291
-0.315336,-0.426666,2.445,2.5019
-0.3074,-0.426666,2.445,2.50091
-0.299465,-0.426666,2.445,2.49995
-0.289502,-0.423699,2.428,2.48164
-0.281621,-0.423699,2.428,2.48073
-0.27374,-0.423699,2.428,2.47985
-0.26586,-0.423699,2.428,2.47899
-0.256173,-0.420732,2.411,2.4608
-0.248347,-0.420732,2.411,2.46
-0.240522,-0.420732,2.411,2.45922
-0.232696,-0.420732,2.411,2.45847
-0.224871,-0.420732,2.411,2.45774
-0.217045,-0.420732,2.411,2.45704
-0.207745,-0.417766,2.394,2.43904
-0.199974,-0.417766,2.394,2.43839
-0.192204,-0.417766,2.394,2.43777
-0.184434,-0.417766,2.394,2.43717
-0.176663,-0.417766,2.394,2.43659
-0.168893,-0.417766,2.394,2.43604
-0.161123,-0.417766,2.394,2.43551
-0.153352,-0.417766,2.394,2.43501
-0.145582,-0.417766,2.394,2.43453
-0.137812,-0.417766,2.394,2.43408
-0.130041,-0.417766,2.394,2.43365
-0.122271,-0.417766,2.394,2.43325
-0.114501,-0.417766,2.394,2.43287
-0.107488,-0.420732,2.411,2.44979
-0.0996626,-0.420732,2.411,2.44946
-0.0918371,-0.420732,2.411,2.44916
-0.084604,-0.423699,2.428,2.46614
-0.0767233,-0.423699,2.428,2.46589
-0.0688426,-0.423699,2.428,2.46565
-0.0609619,-0.423699,2.428,2.46545
-0.0534529,-0.426666,2.445,2.48252
-0.045517,-0.426666,2.445,2.48237
-0.0375812,-0.426666,2.445,2.48223
-0.0298635,-0.429807,2.463,2.5004
-0.0218693,-0.429807,2.463,2.50032
-0.013875,-0.429807,2.463,2.50026
-0.00588068,-0.429807,2.463,2.50023
0.00212905,-0.432948,2.481,2.51849
0.0101818,-0.432948,2.481,2.51851
0.0182345,-0.432948,2.481,2.51856
0.0262872,-0.432948,2.481,2.51863
0.0343399,-0.432948,2.481,2.51873
0.0423926,-0.432948,2.481,2.51885
0.0504453,-0.432948,2.481,2.519
0.058498,-0.432948,2.481,2.51917
0.0665507,-0.432948,2.481,2.51937
0.0740622,-0.429807,2.463,2.50132
0.0820565,-0.429807,2.463,2.50157
0.0900507,-0.429807,2.463,2.50184
0.098045,-0.429807,2.463,2.50214
0.106039,-0.429807,2.463,2.50247
0.114034,-0.429807,2.463,2.50282
0.122028,-0.429807,2.463,2.5032
0.130022,-0.429807,2.463,2.5036
0.138016,-0.429807,2.463,2.50403
0.146011,-0.429807,2.463,2.50448
0.154005,-0.429807,2.463,2.50496
0.161999,-0.429807,2.463,2.50546
0.169994,-0.429807,2.463,2.50599
0.179289,-0.432948,2.481,2.52487
0.187341,-0.432948,2.481,2.52545
0.195394,-0.432948,2.481,2.52606
0.203447,-0.432948,2.481,2.5267
0.2115,-0.432948,2.481,2.52736
0.219552,-0.432948,2.481,2.52804
0.227605,-0.432948,2.481,2.52876
0.233948,-0.429807,2.463,2.51114
0.241942,-0.429807,2.463,2.5119
0.249936,-0.429807,2.463,2.51268
0.257931,-0.429807,2.463,2.51349
0.265925,-0.429807,2.463,2.51432
0.273919,-0.429807,2.463,2.51518
0.281914,-0.429807,2.463,2.51606
0.289908,-0.429807,2.463,2.51697
0.297902,-0.429807,2.463,2.51791
0.303661,-0.426666,2.445,2.50046
0.311597,-0.426666,2.445,2.50143
0.321885,-0.429807,2.463,2.52086
0.329879,-0.429807,2.463,2.52189
0.337874,-0.429807,2.463,2.52295
0.345868,-0.429807,2.463,2.52403
0.353862,-0.429807,2.463,2.52514
0.361856,-0.429807,2.463,2.52627
0.372554,-0.432948,2.481,2.5459
0.380606,-0.432948,2.481,2.54709
0.388659,-0.432948,2.481,2.54831
0.39959,-0.436089,2.499,2.56804
0.407701,-0.436089,2.499,2.56932
0.415812,-0.436089,2.499,2.57062
0.426977,-0.43923,2.517,2.59047
0.438431,-0.442546,2.536,2.61139
0.446662,-0.442546,2.536,2.61279
0.454894,-0.442546,2.536,2.61421
0.463125,-0.442546,2.536,2.61565
0.471356,-0.442546,2.536,2.61712
0.479587,-0.442546,2.536,2.61862
0.487819,-0.442546,2.536,2.62014
0.49605,-0.442546,2.536,2.62168
0.504281,-0.442546,2.536,2.62325
0.512512,-0.442546,2.536,2.62485
0.520743,-0.442546,2.536,2.62646
0.528975,-0.442546,2.536,2.62811
0.537206,-0.442546,2.536,2.62978
0.545437,-0.442546,2.536,2.63147
0.553668,-0.442546,2.536,2.63319
0.5619,-0.442546,2.536,2.63493
0.570131,-0.442546,2.536,2.6367
0.574029,-0.43923,2.517,2.61873
0.582199,-0.43923,2.517,2.62053
0.590368,-0.43923,2.517,2.62236
0.598538,-0.43923,2.517,2.62421
0.606707,-0.43923,2.517,2.62608
0.614877,-0.43923,2.517,2.62798
0.623046,-0.43923,2.517,2.6299
0.626702,-0.436089,2.499,2.61303
0.634813,-0.436089,2.499,2.61499
0.642924,-0.436089,2.499,2.61697
0.651035,-0.436089,2.499,2.61897
0.654399,-0.432948,2.481,2.60212
0.662451,-0.432948,2.481,2.60416
0.670504,-0.432948,2.481,2.60622
0.678557,-0.432948,2.481,2.6083
0.686609,-0.432948,2.481,2.61041
0.694662,-0.432948,2.481,2.61254
0.697617,-0.429807,2.463,2.59572
0.705611,-0.429807,2.463,2.59788
0.713605,-0.429807,2.463,2.60006
0.716326,-0.426666,2.445,2.58325
0.724262,-0.426666,2.445,2.58546
0.732198,-0.426666,2.445,2.5877
0.740133,-0.426666,2.445,2.58995
0.748069,-0.426666,2.445,2.59223
0.756005,-0.426666,2.445,2.59454
0.763941,-0.426666,2.445,2.59686
0.76651,-0.423699,2.428,2.58113
0.774391,-0.423699,2.428,2.58348
0.782271,-0.423699,2.428,2.58586
0.790152,-0.423699,2.428,2.58825
0.798033,-0.423699,2.428,2.59067
0.805913,-0.423699,2.428,2.59311
0.813794,-0.423699,2.428,2.59557
0.815922,-0.420732,2.411,2.57986
0.823747,-0.420732,2.411,2.58234
0.825709,-0.417766,2.394,2.56662
0.83348,-0.417766,2.394,2.56913
0.84125,-0.417766,2.394,2.57167
0.84902,-0.417766,2.394,2.57422
0.856791,-0.417766,2.394,2.57679
0.864561,-0.417766,2.394,2.57939
0.872331,-0.417766,2.394,2.582
0.880102,-0.417766,2.394,2.58464
0.881567,-0.414799,2.377,2.56892
0.889282,-0.414799,2.377,2.57158
0.896997,-0.414799,2.377,2.57426
0.904712,-0.414799,2.377,2.57695
0.912428,-0.414799,2.377,2.57967
0.920143,-0.414799,2.377,2.58241
0.934494,-0.417766,2.394,2.60366
0.942264,-0.417766,2.394,2.60646
0.950035,-0.417766,2.394,2.60928
0.957805,-0.417766,2.394,2.61212
0.965575,-0.417766,2.394,2.61498
nan,nan,nan,NaN
nan,nan,nan,NaN
nan,nan,nan,NaN
nan,nan,nan,NaN
nan,nan,nan,NaN
nan,nan,nan,NaN
nan,nan,nan,NaN
nan,nan,nan,NaN
nan,nan,nan,NaN
nan,nan,nan,NaN
nan,nan,nan,NaN
nan,nan,nan,NaN
nan,nan,nan,NaN
nan,nan,nan,NaN
nan,nan,nan,NaN
1.42998,-0.548121,3.141,3.49445
1.44018,-0.548121,3.141,3.49863
1.45037,-0.548121,3.141,3.50284
1.46057,-0.548121,3.141,3.50707
1.47076,-0.548121,3.141,3.51133
1.48096,-0.548121,3.141,3.51562
1.47738,-0.543061,3.112,3.48742
1.48749,-0.543061,3.112,3.49171
1.48411,-0.538174,3.084,3.46457
1.49412,-0.538174,3.084,3.46887
1.50413,-0.538174,3.084,3.4732
1.48763,-0.528751,3.03,3.41665
1.49746,-0.528751,3.03,3.42095
1.5073,-0.528751,3.03,3.42526
1.51713,-0.528751,3.03,3.4296
1.52697,-0.528751,3.03,3.43396
1.52311,-0.52404,3.003,3.40771
1.51958,-0.519502,2.977,3.38254
1.52925,-0.519502,2.977,3.38689
1.53891,-0.519502,2.977,3.39126
1.54857,-0.519502,2.977,3.39566
nan,nan,nan,NaN
nan,nan,nan,NaN
nan,nan,nan,NaN
nan,nan,nan,NaN
nan,nan,nan,NaN
1.94491,-0.628917,3.604,4.14331
1.95661,-0.628917,3.604,4.14881
1.9683,-0.628917,3.604,4.15434
1.95913,-0.622286,3.566,4.11604
1.9707,-0.622286,3.566,4.12156
1.98227,-0.622286,3.566,4.12711
1.99385,-0.622286,3.566,4.13268
1.98461,-0.615829,3.529,4.09534
1.99607,-0.615829,3.529,4.1009
2.00752,-0.615829,3.529,4.10649
1.99838,-0.609547,3.493,4.07015
2.00972,-0.609547,3.493,4.07573
2.02106,-0.609547,3.493,4.08133
2.01203,-0.603439,3.458,4.04601
2.00277,-0.597332,3.423,4.01059
2.01389,-0.597332,3.423,4.01615
2.00488,-0.591399,3.389,3.98179
1.99625,-0.58564,3.356,3.94851
1.98801,-0.580056,3.324,3.91633
1.99879,-0.580056,3.324,3.92181
1.99024,-0.574472,3.292,3.88952
1.98147,-0.568887,3.26,3.85713
1.99205,-0.568887,3.26,3.86258
1.96516,-0.558243,3.199,3.79567
1.93973,-0.548121,3.141,3.73214
1.94992,-0.548121,3.141,3.73745
1.92455,-0.538174,3.084,3.67486
1.88375,-0.52404,3.003,3.58345
1.89349,-0.52404,3.003,3.58859
1.87028,-0.514965,2.951,3.53151
1.84801,-0.50624,2.901,3.47667
1.85743,-0.50624,2.901,3.48168
1.83595,-0.497864,2.853,3.42902
1.81482,-0.489662,2.806,3.37742
1.82392,-0.489662,2.806,3.38232
1.80364,-0.481809,2.761,3.33292
1.78371,-0.474131,2.717,3.28459
1.79253,-0.474131,2.717,3.28938
1.78743,-0.470466,2.696,3.26874
1.78218,-0.466802,2.675,3.24803
1.79087,-0.466802,2.675,3.2528
1.79955,-0.466802,2.675,3.25759
1.79404,-0.463137,2.654,3.23679
1.78839,-0.459473,2.633,3.21592
-2.32817,-0.57475,3.356,4.12473
-2.31727,-0.57475,3.356,4.1186
-2.30638,-0.57475,3.356,4.11248
-2.29549,-0.57475,3.356,4.10638
-2.2846,-0.57475,3.356,4.1003
-2.2737,-0.57475,3.356,4.09424
-2.24123,-0.56927,3.324,4.04922
-2.23045,-0.56927,3.324,4.04326
-2.24102,-0.57475,3.356,4.07618
-2.23013,-0.57475,3.356,4.0702
-2.21924,-0.57475,3.356,4.06425
-2.20835,-0.57475,3.356,4.05831
-2.19745,-0.57475,3.356,4.05239
-2.20806,-0.580402,3.389,4.08629
-2.19706,-0.580402,3.389,4.08035
-2.20799,-0.586225,3.423,4.11532
-2.19688,-0.586225,3.423,4.10937
-2.20812,-0.592219,3.458,4.14539
-2.1969,-0.592219,3.458,4.13943
-2.18568,-0.592219,3.458,4.13348
-2.19646,-0.598213,3.493,4.16933
-2.18512,-0.598213,3.493,4.16337
-2.17379,-0.598213,3.493,4.15743
-2.16245,-0.598213,3.493,4.15152
-2.15111,-0.598213,3.493,4.14562
-2.13977,-0.598213,3.493,4.13975
-2.12844,-0.598213,3.493,4.1339
-2.1171,-0.598213,3.493,4.12808
-2.10576,-0.598213,3.493,4.12227
-2.07344,-0.592219,3.458,4.07525
-2.06221,-0.592219,3.458,4.06955
nan,nan,nan,NaN
nan,nan,nan,NaN
nan,nan,nan,NaN
nan,nan,nan,NaN
nan,nan,nan,NaN
nan,nan,nan,NaN
nan,nan,nan,NaN
nan,nan,nan,NaN
nan,nan,nan,NaN
nan,nan,nan,NaN
nan,nan,nan,NaN
nan,nan,nan,NaN
nan,nan,nan,NaN
nan,nan,nan,NaN
nan,nan,nan,NaN
nan,nan,nan,NaN
nan,nan,nan,NaN
nan,nan,nan,NaN
nan,nan,nan,NaN
nan,nan,nan,NaN
nan,nan,nan,NaN
nan,nan,nan,NaN
nan,nan,nan,NaN
nan,nan,nan,NaN
nan,nan,nan,NaN
nan,nan,nan,NaN
nan,nan,nan,NaN
nan,nan,nan,NaN
nan,nan,nan,NaN
nan,nan,nan,NaN
nan,nan,nan,NaN
nan,nan,nan,NaN
nan,nan,nan,NaN
-1.15523,-0.407086,2.377,2.67403
-1.14752,-0.407086,2.377,2.6707
-1.14795,-0.409998,2.394,2.68647
-1.14018,-0.409998,2.394,2.68316
-1.13241,-0.409998,2.394,2.67987
-1.12464,-0.409998,2.394,2.67659
-1.1248,-0.412909,2.411,2.69232
-1.11698,-0.412909,2.411,2.68906
-1.10915,-0.412909,2.411,2.68582
-1.10133,-0.412909,2.411,2.6826
-1.08579,-0.409998,2.394,2.6605
-1.07802,-0.409998,2.394,2.65734
-1.07025,-0.409998,2.394,2.6542
-1.06248,-0.409998,2.394,2.65108
-1.04722,-0.407086,2.377,2.62917
-1.03951,-0.407086,2.377,2.6261
-1.03179,-0.407086,2.377,2.62306
-1.02408,-0.407086,2.377,2.62003
-1.01636,-0.407086,2.377,2.61703
-1.00865,-0.407086,2.377,2.61404
-0.994193,-0.404346,2.361,2.5935
-0.986529,-0.404346,2.361,2.59057
-0.978866,-0.404346,2.361,2.58766
-0.971203,-0.404346,2.361,2.58477
-0.95701,-0.401606,2.345,2.56441
-0.949399,-0.401606,2.345,2.56158
-0.941787,-0.401606,2.345,2.55876
-0.934176,-0.401606,2.345,2.55597
-0.926565,-0.401606,2.345,2.5532
-0.918953,-0.401606,2.345,2.55045
-0.911342,-0.401606,2.345,2.54772
-0.903731,-0.401606,2.345,2.545
-0.89612,-0.401606,2.345,2.54231
-0.888508,-0.401606,2.345,2.53964
-0.880897,-0.401606,2.345,2.53698
-0.873286,-0.401606,2.345,2.53435
-0.865674,-0.401606,2.345,2.53174
-0.858063,-0.401606,2.345,2.52915
-0.850452,-0.401606,2.345,2.52658
-0.842841,-0.401606,2.345,2.52402
-0.835229,-0.401606,2.345,2.52149
-0.833265,-0.404346,2.361,2.53617
-0.825602,-0.404346,2.361,2.53366
-0.817938,-0.404346,2.361,2.53117
-0.810275,-0.404346,2.361,2.52871
-0.808051,-0.407086,2.377,2.54338
-0.800336,-0.407086,2.377,2.54094
-0.79829,-0.409998,2.394,2.55668
-0.790519,-0.409998,2.394,2.55426
-0.782749,-0.409998,2.394,2.55187
-0.774979,-0.409998,2.394,2.5495
-0.767208,-0.409998,2.394,2.54714
-0.764831,-0.412909,2.411,2.56289
-0.757005,-0.412909,2.411,2.56056
-0.74918,-0.412909,2.411,2.55826
-0.746581,-0.41582,2.428,2.574
-0.738701,-0.41582,2.428,2.57173
-0.73082,-0.41582,2.428,2.56947
-0.722939,-0.41582,2.428,2.56724
-0.715059,-0.41582,2.428,2.56503
-0.707178,-0.41582,2.428,2.56285
-0.699297,-0.41582,2.428,2.56069
-0.691417,-0.41582,2.428,2.55854
-0.683536,-0.41582,2.428,2.55643
-0.675655,-0.41582,2.428,2.55433
-0.667775,-0.41582,2.428,2.55226
-0.659894,-0.41582,2.428,2.55021
-0.652013,-0.41582,2.428,2.54818
-0.644133,-0.41582,2.428,2.54617
-0.636252,-0.41582,2.428,2.54419
-0.628371,-0.41582,2.428,2.54223
-0.620491,-0.41582,2.428,2.5403
-0.61261,-0.41582,2.428,2.53838
-0.604729,-0.41582,2.428,2.53649
-0.601027,-0.418732,2.445,2.55237
-0.593092,-0.418732,2.445,2.55051
-0.585156,-0.418732,2.445,2.54868
-0.57722,-0.418732,2.445,2.54687
-0.569284,-0.418732,2.445,2.54508
-0.561348,-0.418732,2.445,2.54332
-0.553412,-0.418732,2.445,2.54158
-0.545476,-0.418732,2.445,2.53986
-0.53754,-0.418732,2.445,2.53817
-0.529605,-0.418732,2.445,2.5365
-0.521669,-0.418732,2.445,2.53486
-0.517515,-0.421815,2.463,2.55189
-0.509521,-0.421815,2.463,2.55028
-0.501526,-0.421815,2.463,2.54869
-0.493532,-0.421815,2.463,2.54713
-0.485538,-0.421815,2.463,2.54559
-0.477544,-0.421815,2.463,2.54408
-0.469549,-0.421815,2.463,2.54259
-0.461555,-0.421815,2.463,2.54113
-0.453561,-0.421815,2.463,2.53969
-0.445566,-0.421815,2.463,2.53827
-0.437572,-0.421815,2.463,2.53688
-0.426438,-0.418732,2.445,2.51698
-0.418503,-0.418732,2.445,2.51565
-0.413589,-0.421815,2.463,2.53285
-0.402631,-0.418732,2.445,2.51306
-0.394695,-0.418732,2.445,2.5118
-0.386759,-0.418732,2.445,2.51057
-0.378823,-0.418732,2.445,2.50936
-0.370887,-0.418732,2.445,2.50817
-0.362952,-0.418732,2.445,2.50701
-0.355016,-0.418732,2.445,2.50587
-0.34708,-0.418732,2.445,2.50476
-0.339144,-0.418732,2.445,2.50367
-0.331208,-0.418732,2.445,2.50261
-0.323272,-0.418732,2.445,2.50157
-0.313144,-0.41582,2.428,2.48317
-0.305263,-0.41582,2.428,2.48219
-0.297382,-0.41582,2.428,2.48124
-0.289502,-0.41582,2.428,2.4803
-0.281621,-0.41582,2.428,2.4794
-0.27374,-0.41582,2.428,2.47851
-0.26586,-0.41582,2.428,2.47765
-0.256173,-0.412909,2.411,2.45948
-0.248347,-0.412909,2.411,2.45868
-0.240522,-0.412909,2.411,2.4579
-0.232696,-0.412909,2.411,2.45715
-0.224871,-0.412909,2.411,2.45642
-0.217045,-0.412909,2.411,2.45571
-0.207745,-0.409998,2.394,2.43772
-0.199974,-0.409998,2.394,2.43707
-0.192204,-0.409998,2.394,2.43645
-0.184434,-0.409998,2.394,2.43585
-0.176663,-0.409998,2.394,2.43527
-0.168893,-0.409998,2.394,2.43472
-0.161123,-0.409998,2.394,2.43419
-0.153352,-0.409998,2.394,2.43369
-0.145582,-0.409998,2.394,2.43321
-0.137812,-0.409998,2.394,2.43276
-0.130041,-0.409998,2.394,2.43233
-0.122271,-0.409998,2.394,2.43193
-0.114501,-0.409998,2.394,2.43155
-0.107488,-0.412909,2.411,2.44846
-0.0996626,-0.412909,2.411,2.44813
-0.0918371,-0.412909,2.411,2.44783
-0.0840116,-0.412909,2.411,2.44754
-0.0767233,-0.41582,2.428,2.46454
-0.0688426,-0.41582,2.428,2.46431
-0.0609619,-0.41582,2.428,2.4641
-0.0534529,-0.418732,2.445,2.48117
-0.045517,-0.418732,2.445,2.48101
-0.0375812,-0.418732,2.445,2.48088
-0.0298635,-0.421815,2.463,2.49904
-0.0218693,-0.421815,2.463,2.49895
-0.013875,-0.421815,2.463,2.4989
-0.00588068,-0.421815,2.463,2.49887
0.0021136,-0.421815,2.463,2.49886
0.0101818,-0.424897,2.481,2.51714
0.0182345,-0.424897,2.481,2.51719
0.0262872,-0.424897,2.481,2.51726
0.0343399,-0.424897,2.481,2.51736
0.0423926,-0.424897,2.481,2.51748
0.0504453,-0.424897,2.481,2.51763
0.058498,-0.424897,2.481,2.5178
0.0665507,-0.424897,2.481,2.518
0.0740622,-0.421815,2.463,2.49996
0.0820565,-0.421815,2.463,2.50021
0.0900507,-0.421815,2.463,2.50048
0.098045,-0.421815,2.463,2.50078
0.106039,-0.421815,2.463,2.50111
0.114034,-0.421815,2.463,2.50146
0.122028,-0.421815,2.463,2.50184
0.130022,-0.421815,2.463,2.50224
0.138016,-0.421815,2.463,2.50267
0.146011,-0.421815,2.463,2.50312
0.154005,-0.421815,2.463,2.5036
0.161999,-0.421815,2.463,2.5041
0.169994,-0.421815,2.463,2.50463
0.179289,-0.424897,2.481,2.5235
0.187341,-0.424897,2.481,2.52408
0.195394,-0.424897,2.481,2.52469
0.203447,-0.424897,2.481,2.52533
0.2115,-0.424897,2.481,2.52599
0.219552,-0.424897,2.481,2.52668
0.227605,-0.424897,2.481,2.52739
0.233948,-0.421815,2.463,2.50979
0.241942,-0.421815,2.463,2.51054
0.249936,-0.421815,2.463,2.51133
0.257931,-0.421815,2.463,2.51214
0.265925,-0.421815,2.463,2.51297
0.273919,-0.421815,2.463,2.51383
0.281914,-0.421815,2.463,2.51471
0.289908,-0.421815,2.463,2.51562
0.297902,-0.421815,2.463,2.51655
0.303661,-0.418732,2.445,2.49911
0.311597,-0.418732,2.445,2.50009
0.321885,-0.421815,2.463,2.51951
0.329879,-0.421815,2.463,2.52054
0.337874,-0.421815,2.463,2.5216
0.345868,-0.421815,2.463,2.52268
0.353862,-0.421815,2.463,2.52379
0.361856,-0.421815,2.463,2.52492
0.372554,-0.424897,2.481,2.54454
0.380606,-0.424897,2.481,2.54573
0.388659,-0.424897,2.481,2.54695
0.39959,-0.42798,2.499,2.56668
0.407701,-0.42798,2.499,2.56795
0.415812,-0.42798,2.499,2.56925
0.426977,-0.431063,2.517,2.5891
0.438431,-0.434317,2.536,2.61001
0.446662,-0.434317,2.536,2.6114
0.454894,-0.434317,2.536,2.61283
0.466595,-0.437571,2.555,2.63386
0.471356,-0.434317,2.536,2.61574
0.479587,-0.434317,2.536,2.61724
0.487819,-0.434317,2.536,2.61876
0.49605,-0.434317,2.536,2.6203
0.504281,-0.434317,2.536,2.62187
0.512512,-0.434317,2.536,2.62347
0.520743,-0.434317,2.536,2.62509
0.528975,-0.434317,2.536,2.62674
0.537206,-0.434317,2.536,2.62841
0.545437,-0.434317,2.536,2.6301
0.553668,-0.434317,2.536,2.63182
0.5619,-0.434317,2.536,2.63356
0.570131,-0.434317,2.536,2.63533
0.574029,-0.431063,2.517,2.61737
0.582199,-0.431063,2.517,2.61917
0.590368,-0.431063,2.517,2.621
0.598538,-0.431063,2.517,2.62285
0.606707,-0.431063,2.517,2.62473
0.614877,-0.431063,2.517,2.62663
0.623046,-0.431063,2.517,2.62855
0.626702,-0.42798,2.499,2.61169
0.634813,-0.42798,2.499,2.61365
0.642924,-0.42798,2.499,2.61563
0.651035,-0.42798,2.499,2.61764
0.659146,-0.42798,2.499,2.61966
0.662451,-0.424897,2.481,2.60283
0.670504,-0.424897,2.481,2.60489
0.678557,-0.424897,2.481,2.60698
0.686609,-0.424897,2.481,2.60909
0.694662,-0.424897,2.481,2.61122
0.702715,-0.424897,2.481,2.61337
0.705611,-0.421815,2.463,2.59657
0.713605,-0.421815,2.463,2.59876
0.716326,-0.418732,2.445,2.58195
0.724262,-0.418732,2.445,2.58417
0.732198,-0.418732,2.445,2.5864
0.740133,-0.418732,2.445,2.58866
0.748069,-0.418732,2.445,2.59094
0.756005,-0.418732,2.445,2.59324
0.763941,-0.418732,2.445,2.59557
0.76651,-0.41582,2.428,2.57985
0.774391,-0.41582,2.428,2.5822
0.782271,-0.41582,2.428,2.58458
0.790152,-0.41582,2.428,2.58697
0.798033,-0.41582,2.428,2.58939
0.805913,-0.41582,2.428,2.59183
0.813794,-0.41582,2.428,2.59429
0.815922,-0.412909,2.411,2.57859
0.823747,-0.412909,2.411,2.58108
0.825709,-0.409998,2.394,2.56537
0.83348,-0.409998,2.394,2.56788
0.84125,-0.409998,2.394,2.57042
0.84902,-0.409998,2.394,2.57297
0.856791,-0.409998,2.394,2.57554
0.864561,-0.409998,2.394,2.57814
0.872331,-0.409998,2.394,2.58075
0.880102,-0.409998,2.394,2.58339
0.881567,-0.407086,2.377,2.56769
0.889282,-0.407086,2.377,2.57034
0.896997,-0.407086,2.377,2.57302
0.904712,-0.407086,2.377,2.57572
0.912428,-0.407086,2.377,2.57844
0.920143,-0.407086,2.377,2.58118
0.934494,-0.409998,2.394,2.60242
0.942264,-0.409998,2.394,2.60522
0.950035,-0.409998,2.394,2.60805
0.957805,-0.409998,2.394,2.61089
0.965575,-0.409998,2.394,2.61375
0.973346,-0.409998,2.394,2.61663
0.981116,-0.409998,2.394,2.61953
nan,nan,nan,NaN
nan,nan,nan,NaN
nan,nan,nan,NaN
nan,nan,nan,NaN
nan,nan,nan,NaN
nan,nan,nan,NaN
nan,nan,nan,NaN
nan,nan,nan,NaN
nan,nan,nan,NaN
nan,nan,nan,NaN
nan,nan,nan,NaN
nan,nan,nan,NaN
nan,nan,nan,NaN
1.42998,-0.537929,3.141,3.49286
1.44018,-0.537929,3.141,3.49705
1.45037,-0.537929,3.141,3.50126
1.44708,-0.532963,3.112,3.47313
1.45718,-0.532963,3.112,3.47735
1.46728,-0.532963,3.112,3.4816
1.47738,-0.532963,3.112,3.48587
1.48749,-0.532963,3.112,3.49016
1.48411,-0.528167,3.084,3.46303
1.49412,-0.528167,3.084,3.46734
1.50413,-0.528167,3.084,3.47166
1.50089,-0.523543,3.057,3.44558
1.51081,-0.523543,3.057,3.44991
1.52073,-0.523543,3.057,3.45427
1.51713,-0.518919,3.03,3.4281
1.52697,-0.518919,3.03,3.43246
1.5368,-0.518919,3.03,3.43685
1.54664,-0.518919,3.03,3.44126
1.55647,-0.518919,3.03,3.44569
1.56631,-0.518919,3.03,3.45014
1.57614,-0.518919,3.03,3.45462
nan,nan,nan,NaN
nan,nan,nan,NaN
nan,nan,nan,NaN
nan,nan,nan,NaN
nan,nan,nan,NaN
1.94491,-0.617223,3.604,4.14155
1.95661,-0.617223,3.604,4.14706
1.9683,-0.617223,3.604,4.15259
1.98,-0.617223,3.604,4.15815
1.9917,-0.617223,3.604,4.16373
2.0034,-0.617223,3.604,4.16934
2.0151,-0.617223,3.604,4.17497
2.00542,-0.610715,3.566,4.13655
1.99607,-0.604378,3.529,4.0992
2.00752,-0.604378,3.529,4.10479
1.99838,-0.598213,3.493,4.06847
2.00972,-0.598213,3.493,4.07405
2.02106,-0.598213,3.493,4.07965
2.01203,-0.592219,3.458,4.04435
2.02325,-0.592219,3.458,4.04994
2.03448,-0.592219,3.458,4.05556
2.025,-0.586225,3.423,4.0201
2.01588,-0.580402,3.389,3.98572
1.98801,-0.56927,3.324,3.91474
1.99879,-0.56927,3.324,3.92023
1.99024,-0.56379,3.292,3.88795
1.98147,-0.558309,3.26,3.85559
1.99205,-0.558309,3.26,3.86103
1.96516,-0.547862,3.199,3.79416
1.93973,-0.537929,3.141,3.73066
1.94992,-0.537929,3.141,3.73597
1.92455,-0.528167,3.084,3.6734
1.88375,-0.514295,3.003,3.58204
1.89349,-0.514295,3.003,3.58718
1.87028,-0.50539,2.951,3.53013
1.84801,-0.496827,2.901,3.47531
1.85743,-0.496827,2.901,3.48033
1.82051,-0.484496,2.829,3.39886
1.79994,-0.476618,2.783,3.34844
1.80897,-0.476618,2.783,3.3533
1.80364,-0.47285,2.761,3.33164
1.78371,-0.465315,2.717,3.28333
1.79253,-0.465315,2.717,3.28813
1.78743,-0.461718,2.696,3.26749
1.78218,-0.458122,2.675,3.2468
1.77681,-0.454525,2.654,3.22604
1.78542,-0.454525,2.654,3.2308
1.79404,-0.454525,2.654,3.23556
1.78839,-0.450929,2.633,3.21471
-2.35106,-0.569405,3.389,4.16378
-2.34006,-0.569405,3.389,4.15757
-2.30638,-0.563861,3.356,4.11097
-2.29549,-0.563861,3.356,4.10487
-2.2846,-0.563861,3.356,4.09879
-2.29606,-0.569405,3.389,4.13297
-2.24123,-0.558484,3.324,4.04772
-2.23045,-0.558484,3.324,4.04175
-2.24102,-0.563861,3.356,4.07466
-2.23013,-0.563861,3.356,4.06868
-2.21924,-0.563861,3.356,4.06272
-2.23006,-0.569405,3.389,4.09667
-2.21906,-0.569405,3.389,4.09069
-2.20806,-0.569405,3.389,4.08474
-2.2191,-0.575118,3.423,4.11972
-2.20799,-0.575118,3.423,4.11375
-2.19688,-0.575118,3.423,4.1078
-2.20812,-0.580998,3.458,4.14381
-2.21914,-0.586879,3.493,4.17972
-2.2078,-0.586879,3.493,4.17371
-2.19646,-0.586879,3.493,4.16772
-2.20764,-0.592927,3.529,4.20465
-2.19619,-0.592927,3.529,4.19865
-2.16245,-0.586879,3.493,4.1499
-2.15111,-0.586879,3.493,4.144
-2.13977,-0.586879,3.493,4.13813
-2.12844,-0.586879,3.493,4.13228
-2.1171,-0.586879,3.493,4.12645
-2.10576,-0.586879,3.493,4.12064
-2.07344,-0.580998,3.458,4.07363
-2.06221,-0.580998,3.458,4.06793
nan,nan,nan,NaN
nan,nan,nan,NaN
nan,nan,nan,NaN
nan,nan,nan,NaN
nan,nan,nan,NaN
nan,nan,nan,NaN
nan,nan,nan,NaN
nan,nan,nan,NaN
nan,nan,nan,NaN
nan,nan,nan,NaN
nan,nan,nan,NaN
nan,nan,nan,NaN
nan,nan,nan,NaN
nan,nan,nan,NaN
nan,nan,nan,NaN
nan,nan,nan,NaN
nan,nan,nan,NaN
nan,nan,nan,NaN
nan,nan,nan,NaN
nan,nan,nan,NaN
nan,nan,nan,NaN
nan,nan,nan,NaN
nan,nan,nan,NaN
nan,nan,nan,NaN
nan,nan,nan,NaN
nan,nan,nan,NaN
nan,nan,nan,NaN
nan,nan,nan,NaN
nan,nan,nan,NaN
nan,nan,nan,NaN
nan,nan,nan,NaN
-1.17066,-0.399373,2.377,2.67957
-1.16295,-0.399373,2.377,2.67621
-1.15523,-0.399373,2.377,2.67286
-1.14752,-0.399373,2.377,2.66954
-1.1398,-0.399373,2.377,2.66623
-1.13209,-0.399373,2.377,2.66294
-1.12437,-0.399373,2.377,2.65967
-1.12464,-0.402229,2.394,2.67542
-1.11687,-0.402229,2.394,2.67216
-1.1091,-0.402229,2.394,2.66892
-1.10133,-0.402229,2.394,2.6657
-1.09356,-0.402229,2.394,2.6625
-1.08579,-0.402229,2.394,2.65932
-1.07037,-0.399373,2.377,2.63729
-1.06265,-0.399373,2.377,2.63417
-1.05494,-0.399373,2.377,2.63107
-1.04722,-0.399373,2.377,2.62798
-1.03951,-0.399373,2.377,2.62492
-1.03179,-0.399373,2.377,2.62187
-1.02408,-0.399373,2.377,2.61885
-1.00952,-0.396685,2.361,2.59823
-1.00186,-0.396685,2.361,2.59526
-0.994193,-0.396685,2.361,2.59232
-0.986529,-0.396685,2.361,2.58939
-0.978866,-0.396685,2.361,2.58648
-0.971203,-0.396685,2.361,2.58359
-0.95701,-0.393997,2.345,2.56323
-0.949399,-0.393997,2.345,2.56039
-0.941787,-0.393997,2.345,2.55758
-0.934176,-0.393997,2.345,2.55479
-0.926565,-0.393997,2.345,2.55202
-0.918953,-0.393997,2.345,2.54926
-0.911342,-0.393997,2.345,2.54653
-0.903731,-0.393997,2.345,2.54381
-0.89612,-0.393997,2.345,2.54112
-0.888508,-0.393997,2.345,2.53845
-0.880897,-0.393997,2.345,2.53579
-0.873286,-0.393997,2.345,2.53316
-0.865674,-0.393997,2.345,2.53054
-0.858063,-0.393997,2.345,2.52795
-0.850452,-0.393997,2.345,2.52538
-0.842841,-0.393997,2.345,2.52282
-0.835229,-0.393997,2.345,2.52029
-0.827618,-0.393997,2.345,2.51778
-0.820007,-0.393997,2.345,2.51529
-0.812395,-0.393997,2.345,2.51282
-0.810275,-0.396685,2.361,2.52749
-0.802612,-0.396685,2.361,2.52505
-0.794949,-0.396685,2.361,2.52262
-0.792621,-0.399373,2.377,2.5373
-0.784906,-0.399373,2.377,2.5349
-0.782749,-0.402229,2.394,2.55063
-0.774979,-0.402229,2.394,2.54826
-0.767208,-0.402229,2.394,2.54591
-0.759438,-0.402229,2.394,2.54357
-0.751668,-0.402229,2.394,2.54127
-0.74918,-0.405086,2.411,2.55701
-0.741354,-0.405086,2.411,2.55473
-0.733529,-0.405086,2.411,2.55247
-0.725703,-0.405086,2.411,2.55023
-0.717878,-0.405086,2.411,2.54801
-0.710052,-0.405086,2.411,2.54582
-0.707178,-0.407942,2.428,2.56158
-0.699297,-0.407942,2.428,2.55942
-0.691417,-0.407942,2.428,2.55728
-0.683536,-0.407942,2.428,2.55516
-0.675655,-0.407942,2.428,2.55306
-0.667775,-0.407942,2.428,2.55099
-0.659894,-0.407942,2.428,2.54893
-0.652013,-0.407942,2.428,2.5469
-0.644133,-0.407942,2.428,2.5449
-0.636252,-0.407942,2.428,2.54292
-0.628371,-0.407942,2.428,2.54095
-0.620491,-0.407942,2.428,2.53902
-0.61261,-0.407942,2.428,2.5371
-0.604729,-0.407942,2.428,2.53521
-0.596848,-0.407942,2.428,2.53334
-0.588968,-0.407942,2.428,2.5315
-0.581087,-0.407942,2.428,2.52968
-0.573206,-0.407942,2.428,2.52788
-0.565326,-0.407942,2.428,2.5261
-0.557445,-0.407942,2.428,2.52435
-0.553412,-0.410798,2.445,2.54028
-0.545476,-0.410798,2.445,2.53857
-0.53754,-0.410798,2.445,2.53687
-0.529605,-0.410798,2.445,2.5352
-0.521669,-0.410798,2.445,2.53356
-0.517515,-0.413823,2.463,2.55058
-0.509521,-0.413823,2.463,2.54897
-0.501526,-0.413823,2.463,2.54738
-0.493532,-0.413823,2.463,2.54582
-0.485538,-0.413823,2.463,2.54428
-0.477544,-0.413823,2.463,2.54277
-0.469549,-0.413823,2.463,2.54128
-0.461555,-0.413823,2.463,2.53981
-0.453561,-0.413823,2.463,2.53837
-0.445566,-0.413823,2.463,2.53696
-0.437572,-0.413823,2.463,2.53556
-0.426438,-0.410798,2.445,2.51568
-0.418503,-0.410798,2.445,2.51434
-0.413589,-0.413823,2.463,2.53154
-0.402631,-0.410798,2.445,2.51175
-0.394695,-0.410798,2.445,2.51049
-0.386759,-0.410798,2.445,2.50926
-0.378823,-0.410798,2.445,2.50804
-0.370887,-0.410798,2.445,2.50686
-0.362952,-0.410798,2.445,2.5057
-0.355016,-0.410798,2.445,2.50456
-0.34708,-0.410798,2.445,2.50345
-0.339144,-0.410798,2.445,2.50236
-0.331208,-0.410798,2.445,2.5013
-0.321025,-0.407942,2.428,2.48287
-0.313144,-0.407942,2.428,2.48187
-0.305263,-0.407942,2.428,2.48088
-0.297382,-0.407942,2.428,2.47993
-0.289502,-0.407942,2.428,2.47899
-0.281621,-0.407942,2.428,2.47809
-0.27374,-0.407942,2.428,2.4772
-0.26586,-0.407942,2.428,2.47634
-0.256173,-0.405086,2.411,2.45818
-0.248347,-0.405086,2.411,2.45738
-0.240522,-0.405086,2.411,2.4566
-0.232696,-0.405086,2.411,2.45584
-0.224871,-0.405086,2.411,2.45511
-0.217045,-0.405086,2.411,2.45441
-0.207745,-0.402229,2.394,2.43643
-0.199974,-0.402229,2.394,2.43578
-0.192204,-0.402229,2.394,2.43515
-0.184434,-0.402229,2.394,2.43455
-0.176663,-0.402229,2.394,2.43398
-0.168893,-0.402229,2.394,2.43342
-0.161123,-0.402229,2.394,2.4329
-0.153352,-0.402229,2.394,2.43239
-0.145582,-0.402229,2.394,2.43192
-0.137812,-0.402229,2.394,2.43146
-0.130041,-0.402229,2.394,2.43104
-0.123139,-0.405086,2.411,2.44789
-0.115314,-0.405086,2.411,2.44751
-0.107488,-0.405086,2.411,2.44716
-0.0996626,-0.405086,2.411,2.44682
-0.0918371,-0.405086,2.411,2.44652
-0.0840116,-0.405086,2.411,2.44624
-0.0767233,-0.407942,2.428,2.46323
-0.0688426,-0.407942,2.428,2.46299
-0.0609619,-0.407942,2.428,2.46279
-0.0534529,-0.410798,2.445,2.47985
-0.045517,-0.410798,2.445,2.47969
-0.0375812,-0.410798,2.445,2.47956
-0.0298635,-0.413823,2.463,2.4977
-0.0218693,-0.413823,2.463,2.49762
-0.013875,-0.413823,2.463,2.49756
-0.00588068,-0.413823,2.463,2.49753
0.0021136,-0.413823,2.463,2.49752
0.0101818,-0.416847,2.481,2.5158
0.0182345,-0.416847,2.481,2.51584
0.0262872,-0.416847,2.481,2.51591
0.0343399,-0.416847,2.481,2.51601
0.0423926,-0.416847,2.481,2.51613
0.0504453,-0.416847,2.481,2.51628
0.058498,-0.416847,2.481,2.51645
0.0665507,-0.416847,2.481,2.51665
0.0746034,-0.416847,2.481,2.51688
0.0826561,-0.416847,2.481,2.51713
0.0907089,-0.416847,2.481,2.51741
0.0987616,-0.416847,2.481,2.51771
0.106039,-0.413823,2.463,2.49977
0.114034,-0.413823,2.463,2.50012
0.122028,-0.413823,2.463,2.5005
0.130022,-0.413823,2.463,2.5009
0.138016,-0.413823,2.463,2.50133
0.146011,-0.413823,2.463,2.50179
0.155131,-0.416847,2.481,2.52055
0.163183,-0.416847,2.481,2.52106
0.171236,-0.416847,2.481,2.5216
0.179289,-0.416847,2.481,2.52216
0.187341,-0.416847,2.481,2.52274
0.195394,-0.416847,2.481,2.52335
0.203447,-0.416847,2.481,2.52399
0.2115,-0.416847,2.481,2.52465
0.219552,-0.416847,2.481,2.52534
0.227605,-0.416847,2.481,2.52605
0.233948,-0.413823,2.463,2.50846
0.241942,-0.413823,2.463,2.50921
0.249936,-0.413823,2.463,2.51
0.257931,-0.413823,2.463,2.51081
0.265925,-0.413823,2.463,2.51164
0.273919,-0.413823,2.463,2.5125
0.281914,-0.413823,2.463,2.51338
0.289908,-0.413823,2.463,2.51429
0.297902,-0.413823,2.463,2.51523
0.303661,-0.410798,2.445,2.4978
0.311597,-0.410798,2.445,2.49877
0.319533,-0.410798,2.445,2.49978
0.327469,-0.410798,2.445,2.5008
0.337874,-0.413823,2.463,2.52027
0.345868,-0.413823,2.463,2.52136
0.353862,-0.413823,2.463,2.52247
0.361856,-0.413823,2.463,2.5236
0.369851,-0.413823,2.463,2.52476
0.380606,-0.416847,2.481,2.5444
0.388659,-0.416847,2.481,2.54562
0.39959,-0.419871,2.499,2.56534
0.407701,-0.419871,2.499,2.56662
0.415812,-0.419871,2.499,2.56792
0.426977,-0.422895,2.517,2.58775
0.435146,-0.422895,2.517,2.58911
0.443316,-0.422895,2.517,2.59049
0.454894,-0.426088,2.536,2.61147
0.463125,-0.426088,2.536,2.61292
0.471356,-0.426088,2.536,2.61439
0.479587,-0.426088,2.536,2.61588
0.487819,-0.426088,2.536,2.61741
0.49605,-0.426088,2.536,2.61895
0.504281,-0.426088,2.536,2.62052
0.512512,-0.426088,2.536,2.62212
0.520743,-0.426088,2.536,2.62374
0.525012,-0.422895,2.517,2.60572
0.533181,-0.422895,2.517,2.60738
0.541351,-0.422895,2.517,2.60906
0.54952,-0.422895,2.517,2.61077
0.55769,-0.422895,2.517,2.6125
0.565859,-0.422895,2.517,2.61425
0.574029,-0.422895,2.517,2.61604
0.582199,-0.422895,2.517,2.61784
0.590368,-0.422895,2.517,2.61967
0.598538,-0.422895,2.517,2.62152
0.606707,-0.422895,2.517,2.6234
0.614877,-0.422895,2.517,2.6253
0.623046,-0.422895,2.517,2.62723
0.626702,-0.419871,2.499,2.61037
0.634813,-0.419871,2.499,2.61233
0.642924,-0.419871,2.499,2.61432
0.651035,-0.419871,2.499,2.61632
0.659146,-0.419871,2.499,2.61835
0.662451,-0.416847,2.481,2.60153
0.670504,-0.416847,2.481,2.60359
0.678557,-0.416847,2.481,2.60568
0.686609,-0.416847,2.481,2.60779
0.694662,-0.416847,2.481,2.60992
0.702715,-0.416847,2.481,2.61207
0.705611,-0.413823,2.463,2.59529
0.713605,-0.413823,2.463,2.59747
0.721599,-0.413823,2.463,2.59968
0.729594,-0.413823,2.463,2.60191
0.737588,-0.413823,2.463,2.60416
0.745582,-0.413823,2.463,2.60644
0.748069,-0.410798,2.445,2.58967
0.756005,-0.410798,2.445,2.59197
0.763941,-0.410798,2.445,2.5943
0.771877,-0.410798,2.445,2.59665
0.779813,-0.410798,2.445,2.59902
0.787749,-0.410798,2.445,2.60141
0.795684,-0.410798,2.445,2.60382
0.798033,-0.407942,2.428,2.58814
0.805913,-0.407942,2.428,2.59058
0.813794,-0.407942,2.428,2.59304
0.815922,-0.405086,2.411,2.57735
0.823747,-0.405086,2.411,2.57984
0.831573,-0.405086,2.411,2.58235
0.839398,-0.405086,2.411,2.58488
0.847224,-0.405086,2.411,2.58743
0.855049,-0.405086,2.411,2.59
0.862875,-0.405086,2.411,2.5926
0.864561,-0.402229,2.394,2.57692
0.872331,-0.402229,2.394,2.57953
0.880102,-0.402229,2.394,2.58217
0.887872,-0.402229,2.394,2.58483
0.895642,-0.402229,2.394,2.58751
0.903413,-0.402229,2.394,2.59021
0.911183,-0.402229,2.394,2.59293
0.918953,-0.402229,2.394,2.59567
0.926724,-0.402229,2.394,2.59843
0.934494,-0.402229,2.394,2.60121
0.942264,-0.402229,2.394,2.60401
0.950035,-0.402229,2.394,2.60684
0.957805,-0.402229,2.394,2.60968
0.965575,-0.402229,2.394,2.61254
0.973346,-0.402229,2.394,2.61542
0.981116,-0.402229,2.394,2.61832
nan,nan,nan,NaN
nan,nan,nan,NaN
nan,nan,nan,NaN
nan,nan,nan,NaN
nan,nan,nan,NaN
nan,nan,nan,NaN
nan,nan,nan,NaN
nan,nan,nan,NaN
nan,nan,nan,NaN
nan,nan,nan,NaN
nan,nan,nan,NaN
1.39658,-0.522865,3.112,3.45085
1.40668,-0.522865,3.112,3.45495
1.41678,-0.522865,3.112,3.45907
1.42688,-0.522865,3.112,3.46322
1.43698,-0.522865,3.112,3.4674
1.44708,-0.522865,3.112,3.4716
1.45718,-0.522865,3.112,3.47582
1.46728,-0.522865,3.112,3.48007
1.47738,-0.522865,3.112,3.48434
1.48749,-0.522865,3.112,3.48863
1.49759,-0.522865,3.112,3.49295
1.50769,-0.522865,3.112,3.49729
1.51779,-0.522865,3.112,3.50166
1.52789,-0.522865,3.112,3.50605
1.53799,-0.522865,3.112,3.51046
1.53416,-0.51816,3.084,3.48327
1.53065,-0.513624,3.057,3.45716
1.54057,-0.513624,3.057,3.46156
1.5505,-0.513624,3.057,3.46599
1.5742,-0.51816,3.084,3.50109
1.58421,-0.51816,3.084,3.50561
1.59422,-0.51816,3.084,3.51014
1.63388,-0.527737,3.141,3.57966
nan,nan,nan,NaN
nan,nan,nan,NaN
nan,nan,nan,NaN
nan,nan,nan,NaN
nan,nan,nan,NaN
1.94491,-0.605528,3.604,4.13983
1.95661,-0.605528,3.604,4.14533
1.9683,-0.605528,3.604,4.15087
1.98,-0.605528,3.604,4.15643
1.9917,-0.605528,3.604,4.16201
2.0034,-0.605528,3.604,4.16762
2.0151,-0.605528,3.604,4.17326
2.00542,-0.599144,3.566,4.13486
2.017,-0.599144,3.566,4.14048
2.02857,-0.599144,3.566,4.14613
2.01898,-0.592927,3.529,4.10873
2.03043,-0.592927,3.529,4.11437
2.04189,-0.592927,3.529,4.12004
2.03239,-0.586879,3.493,4.08364
2.02325,-0.580998,3.458,4.04832
2.03448,-0.580998,3.458,4.05394
2.025,-0.575118,3.423,4.01849
2.01588,-0.569405,3.389,3.98413
2.00714,-0.563861,3.356,3.95086
2.01804,-0.563861,3.356,3.95641
2.00958,-0.558484,3.324,3.9242
1.98147,-0.547731,3.26,3.85407
1.99205,-0.547731,3.26,3.85952
1.98421,-0.542691,3.23,3.82942
1.95764,-0.53261,3.17,3.76363
1.96793,-0.53261,3.17,3.76899
1.92455,-0.51816,3.084,3.67198
1.93456,-0.51816,3.084,3.67723
nan,nan,nan,NaN
1.87028,-0.495814,2.951,3.52877
1.84801,-0.487413,2.901,3.47398
1.85743,-0.487413,2.901,3.479
1.82051,-0.475316,2.829,3.39756
1.79994,-0.467588,2.783,3.34717
1.80897,-0.467588,2.783,3.35203
1.80364,-0.463891,2.761,3.33038
1.78371,-0.456499,2.717,3.28209
1.79253,-0.456499,2.717,3.28689
1.78743,-0.45297,2.696,3.26627
1.78218,-0.449442,2.675,3.24558
1.77681,-0.445914,2.654,3.22484
1.78542,-0.445914,2.654,3.2296
1.79404,-0.445914,2.654,3.23437
1.78839,-0.442385,2.633,3.21352
-2.32817,-0.552971,3.356,4.12176
-2.34006,-0.558408,3.389,4.15608
-2.30638,-0.552971,3.356,4.10949
-2.29549,-0.552971,3.356,4.10339
-2.2846,-0.552971,3.356,4.0973
-2.29606,-0.558408,3.389,4.13147
-2.24123,-0.547698,3.324,4.04624
-2.23045,-0.547698,3.324,4.04028
-2.24102,-0.552971,3.356,4.07317
-2.23013,-0.552971,3.356,4.06719
-2.21924,-0.552971,3.356,4.06122
-2.23006,-0.558408,3.389,4.09516
-2.21906,-0.558408,3.389,4.08918
-2.20806,-0.558408,3.389,4.08322
-2.2191,-0.564011,3.423,4.11819
-2.20799,-0.564011,3.423,4.11221
-2.19688,-0.564011,3.423,4.10626
-2.20812,-0.569777,3.458,4.14225
-2.21914,-0.575544,3.493,4.17814
-2.2078,-0.575544,3.493,4.17213
-2.19646,-0.575544,3.493,4.16614
-2.18512,-0.575544,3.493,4.16018
-2.17379,-0.575544,3.493,4.15423
-2.16245,-0.575544,3.493,4.14831
-2.15111,-0.575544,3.493,4.14241
-2.13977,-0.575544,3.493,4.13654
-2.12844,-0.575544,3.493,4.13068
-2.1171,-0.575544,3.493,4.12485
-2.10576,-0.575544,3.493,4.11904
-2.07344,-0.569777,3.458,4.07205
-2.06221,-0.569777,3.458,4.06634
nan,nan,nan,NaN
nan,nan,nan,NaN
nan,nan,nan,NaN
nan,nan,nan,NaN
nan,nan,nan,NaN
nan,nan,nan,NaN
nan,nan,nan,NaN
nan,nan,nan,NaN
nan,nan,nan,NaN
nan,nan,nan,NaN
nan,nan,nan,NaN
nan,nan,nan,NaN
nan,nan,nan,NaN
nan,nan,nan,NaN
nan,nan,nan,NaN
nan,nan,nan,NaN
nan,nan,nan,NaN
nan,nan,nan,NaN
nan,nan,nan,NaN
nan,nan,nan,NaN
nan,nan,nan,NaN
nan,nan,nan,NaN
nan,nan,nan,NaN
nan,nan,nan,NaN
nan,nan,nan,NaN
nan,nan,nan,NaN
nan,nan,nan,NaN
nan,nan,nan,NaN
nan,nan,nan,NaN
nan,nan,nan,NaN
nan,nan,nan,NaN
-1.17066,-0.39166,2.377,2.67843
-1.16295,-0.39166,2.377,2.67507
-1.15523,-0.39166,2.377,2.67172
-1.14752,-0.39166,2.377,2.66839
-1.1398,-0.39166,2.377,2.66508
-1.13209,-0.39166,2.377,2.66179
-1.12437,-0.39166,2.377,2.65852
-1.11666,-0.39166,2.377,2.65527
-1.11687,-0.394461,2.394,2.671
-1.1091,-0.394461,2.394,2.66776
-1.10133,-0.394461,2.394,2.66454
-1.09356,-0.394461,2.394,2.66134
-1.07808,-0.39166,2.377,2.63928
-1.07037,-0.39166,2.377,2.63614
-1.06265,-0.39166,2.377,2.63301
-1.05494,-0.39166,2.377,2.62991
-1.04722,-0.39166,2.377,2.62682
-1.03951,-0.39166,2.377,2.62376
-1.02485,-0.389024,2.361,2.60307
-1.01718,-0.389024,2.361,2.60006
-1.00952,-0.389024,2.361,2.59707
-1.00186,-0.389024,2.361,2.5941
-0.994193,-0.389024,2.361,2.59115
-0.986529,-0.389024,2.361,2.58822
-0.978866,-0.389024,2.361,2.58531
-0.964621,-0.386388,2.345,2.56492
-0.95701,-0.386388,2.345,2.56207
-0.949399,-0.386388,2.345,2.55923
-0.941787,-0.386388,2.345,2.55642
-0.934176,-0.386388,2.345,2.55363
-0.926565,-0.386388,2.345,2.55085
-0.918953,-0.386388,2.345,2.5481
-0.911342,-0.386388,2.345,2.54536
-0.903731,-0.386388,2.345,2.54265
-0.89612,-0.386388,2.345,2.53995
-0.888508,-0.386388,2.345,2.53728
-0.880897,-0.386388,2.345,2.53462
-0.873286,-0.386388,2.345,2.53199
-0.865674,-0.386388,2.345,2.52937
-0.858063,-0.386388,2.345,2.52678
-0.850452,-0.386388,2.345,2.5242
-0.842841,-0.386388,2.345,2.52165
-0.835229,-0.386388,2.345,2.51911
-0.827618,-0.386388,2.345,2.5166
-0.820007,-0.386388,2.345,2.51411
-0.812395,-0.386388,2.345,2.51163
-0.804784,-0.386388,2.345,2.50918
-0.802612,-0.389024,2.361,2.52386
-0.794949,-0.389024,2.361,2.52143
-0.787286,-0.389024,2.361,2.51902
-0.784906,-0.39166,2.377,2.53369
-0.777191,-0.39166,2.377,2.53131
-0.769475,-0.39166,2.377,2.52896
-0.76176,-0.39166,2.377,2.52662
-0.759438,-0.394461,2.394,2.54236
-0.751668,-0.394461,2.394,2.54005
-0.74918,-0.397262,2.411,2.55578
-0.741354,-0.397262,2.411,2.5535
-0.733529,-0.397262,2.411,2.55124
-0.725703,-0.397262,2.411,2.549
-0.717878,-0.397262,2.411,2.54678
-0.710052,-0.397262,2.411,2.54458
-0.707178,-0.400064,2.428,2.56034
-0.699297,-0.400064,2.428,2.55817
-0.691417,-0.400064,2.428,2.55603
-0.683536,-0.400064,2.428,2.55391
-0.675655,-0.400064,2.428,2.55181
-0.667775,-0.400064,2.428,2.54974
-0.659894,-0.400064,2.428,2.54768
-0.652013,-0.400064,2.428,2.54565
-0.644133,-0.400064,2.428,2.54365
-0.636252,-0.400064,2.428,2.54166
-0.628371,-0.400064,2.428,2.5397
-0.620491,-0.400064,2.428,2.53776
-0.61261,-0.400064,2.428,2.53585
-0.604729,-0.400064,2.428,2.53396
-0.596848,-0.400064,2.428,2.53209
-0.588968,-0.400064,2.428,2.53024
-0.581087,-0.400064,2.428,2.52842
-0.573206,-0.400064,2.428,2.52662
-0.565326,-0.400064,2.428,2.52484
-0.557445,-0.400064,2.428,2.52309
-0.553412,-0.402865,2.445,2.53901
-0.545476,-0.402865,2.445,2.5373
-0.53754,-0.402865,2.445,2.5356
-0.529605,-0.402865,2.445,2.53393
-0.521669,-0.402865,2.445,2.53228
-0.517515,-0.405831,2.463,2.54929
-0.509521,-0.405831,2.463,2.54768
-0.501526,-0.405831,2.463,2.54609
-0.493532,-0.405831,2.463,2.54453
-0.485538,-0.405831,2.463,2.54299
-0.477544,-0.405831,2.463,2.54148
-0.469549,-0.405831,2.463,2.53999
-0.461555,-0.405831,2.463,2.53852
-0.453561,-0.405831,2.463,2.53708
-0.445566,-0.405831,2.463,2.53567
-0.437572,-0.405831,2.463,2.53427
-0.429578,-0.405831,2.463,2.5329
-0.421584,-0.405831,2.463,2.53156
-0.413589,-0.405831,2.463,2.53024
-0.405595,-0.405831,2.463,2.52895
-0.394695,-0.402865,2.445,2.50921
-0.386759,-0.402865,2.445,2.50797
-0.378823,-0.402865,2.445,2.50676
-0.370887,-0.402865,2.445,2.50557
-0.362952,-0.402865,2.445,2.50441
-0.355016,-0.402865,2.445,2.50327
-0.34708,-0.402865,2.445,2.50216
-0.339144,-0.402865,2.445,2.50107
-0.331208,-0.402865,2.445,2.50001
-0.321025,-0.400064,2.428,2.48159
-0.313144,-0.400064,2.428,2.48058
-0.305263,-0.400064,2.428,2.4796
-0.297382,-0.400064,2.428,2.47864
-0.289502,-0.400064,2.428,2.47771
-0.281621,-0.400064,2.428,2.4768
-0.27374,-0.400064,2.428,2.47592
-0.263998,-0.397262,2.411,2.45773
-0.256173,-0.397262,2.411,2.4569
-0.248347,-0.397262,2.411,2.4561
-0.240522,-0.397262,2.411,2.45532
-0.232696,-0.397262,2.411,2.45456
-0.224871,-0.397262,2.411,2.45383
-0.215515,-0.394461,2.394,2.43583
-0.207745,-0.394461,2.394,2.43516
-0.199974,-0.394461,2.394,2.43451
-0.192204,-0.394461,2.394,2.43388
-0.184434,-0.394461,2.394,2.43328
-0.176663,-0.394461,2.394,2.4327
-0.168893,-0.394461,2.394,2.43215
-0.161123,-0.394461,2.394,2.43162
-0.153352,-0.394461,2.394,2.43112
-0.145582,-0.394461,2.394,2.43064
-0.137812,-0.394461,2.394,2.43019
-0.130041,-0.394461,2.394,2.42976
-0.122271,-0.394461,2.394,2.42936
-0.114501,-0.394461,2.394,2.42898
-0.10673,-0.394461,2.394,2.42863
-0.0996626,-0.397262,2.411,2.44554
-0.0918371,-0.397262,2.411,2.44523
-0.0840116,-0.397262,2.411,2.44495
-0.0767233,-0.400064,2.428,2.46193
-0.0688426,-0.400064,2.428,2.4617
-0.0609619,-0.400064,2.428,2.46149
-0.0534529,-0.402865,2.445,2.47854
-0.045517,-0.402865,2.445,2.47839
-0.0375812,-0.402865,2.445,2.47825
-0.0298635,-0.405831,2.463,2.49639
-0.0218693,-0.405831,2.463,2.49631
-0.013875,-0.405831,2.463,2.49625
-0.00588068,-0.405831,2.463,2.49622
0.0021136,-0.405831,2.463,2.49621
0.0101818,-0.408796,2.481,2.51447
0.0182345,-0.408796,2.481,2.51452
0.0262872,-0.408796,2.481,2.51459
0.0343399,-0.408796,2.481,2.51469
0.0423926,-0.408796,2.481,2.51481
0.0504453,-0.408796,2.481,2.51496
0.058498,-0.408796,2.481,2.51513
0.0665507,-0.408796,2.481,2.51533
0.0746034,-0.408796,2.481,2.51556
0.0826561,-0.408796,2.481,2.51581
0.0907089,-0.408796,2.481,2.51609
0.0987616,-0.408796,2.481,2.51639
0.106039,-0.405831,2.463,2.49846
0.114034,-0.405831,2.463,2.49881
0.122028,-0.405831,2.463,2.49919
0.130022,-0.405831,2.463,2.49959
0.138016,-0.405831,2.463,2.50002
0.146011,-0.405831,2.463,2.50048
0.155131,-0.408796,2.481,2.51923
0.163183,-0.408796,2.481,2.51974
0.171236,-0.408796,2.481,2.52028
0.179289,-0.408796,2.481,2.52084
0.187341,-0.408796,2.481,2.52142
0.195394,-0.408796,2.481,2.52203
0.203447,-0.408796,2.481,2.52267
0.2115,-0.408796,2.481,2.52333
0.219552,-0.408796,2.481,2.52402
0.227605,-0.408796,2.481,2.52473
0.233948,-0.405831,2.463,2.50715
0.241942,-0.405831,2.463,2.50791
0.249936,-0.405831,2.463,2.50869
0.257931,-0.405831,2.463,2.5095
0.265925,-0.405831,2.463,2.51034
0.273919,-0.405831,2.463,2.51119
0.281914,-0.405831,2.463,2.51208
0.289908,-0.405831,2.463,2.51299
0.297902,-0.405831,2.463,2.51392
0.303661,-0.402865,2.445,2.4965
0.311597,-0.402865,2.445,2.49748
0.319533,-0.402865,2.445,2.49848
0.327469,-0.402865,2.445,2.49951
0.337874,-0.405831,2.463,2.51897
0.345868,-0.405831,2.463,2.52006
0.353862,-0.405831,2.463,2.52117
0.361856,-0.405831,2.463,2.5223
0.369851,-0.405831,2.463,2.52346
0.380606,-0.408796,2.481,2.5431
0.388659,-0.408796,2.481,2.54431
0.39959,-0.411762,2.499,2.56402
0.407701,-0.411762,2.499,2.5653
0.415812,-0.411762,2.499,2.5666
0.426977,-0.414728,2.517,2.58643
0.435146,-0.414728,2.517,2.58779
0.443316,-0.414728,2.517,2.58917
0.454894,-0.417859,2.536,2.61014
0.463125,-0.417859,2.536,2.61159
0.471356,-0.417859,2.536,2.61306
0.479587,-0.417859,2.536,2.61456
0.487819,-0.417859,2.536,2.61608
0.49605,-0.417859,2.536,2.61763
0.504281,-0.417859,2.536,2.6192
0.508672,-0.414728,2.517,2.60116
0.516842,-0.414728,2.517,2.60277
0.525012,-0.414728,2.517,2.60441
0.533181,-0.414728,2.517,2.60606
0.541351,-0.414728,2.517,2.60775
0.54952,-0.414728,2.517,2.60946
0.55769,-0.414728,2.517,2.61119
0.565859,-0.414728,2.517,2.61295
0.574029,-0.414728,2.517,2.61473
0.582199,-0.414728,2.517,2.61653
0.590368,-0.414728,2.517,2.61836
0.598538,-0.414728,2.517,2.62022
0.606707,-0.414728,2.517,2.6221
0.614877,-0.414728,2.517,2.624
0.623046,-0.414728,2.517,2.62592
0.626702,-0.411762,2.499,2.60908
0.634813,-0.411762,2.499,2.61104
0.642924,-0.411762,2.499,2.61303
0.651035,-0.411762,2.499,2.61503
0.659146,-0.411762,2.499,2.61706
0.667257,-0.411762,2.499,2.61912
0.675369,-0.411762,2.499,2.6212
0.678557,-0.408796,2.481,2.6044
0.686609,-0.408796,2.481,2.60651
0.694662,-0.408796,2.481,2.60865
0.702715,-0.408796,2.481,2.6108
0.710768,-0.408796,2.481,2.61298
0.71882,-0.408796,2.481,2.61518
0.721599,-0.405831,2.463,2.59842
0.729594,-0.405831,2.463,2.60065
0.737588,-0.405831,2.463,2.6029
0.745582,-0.405831,2.463,2.60518
0.753577,-0.405831,2.463,2.60748
0.756005,-0.402865,2.445,2.59073
0.763941,-0.402865,2.445,2.59305
0.771877,-0.402865,2.445,2.5954
0.779813,-0.402865,2.445,2.59777
0.787749,-0.402865,2.445,2.60017
0.795684,-0.402865,2.445,2.60258
0.80362,-0.402865,2.445,2.60502
0.811556,-0.402865,2.445,2.60748
0.819492,-0.402865,2.445,2.60996
0.821675,-0.400064,2.428,2.5943
0.829556,-0.400064,2.428,2.59681
0.837436,-0.400064,2.428,2.59933
0.845317,-0.400064,2.428,2.60188
0.853198,-0.400064,2.428,2.60445
0.861078,-0.400064,2.428,2.60705
0.862875,-0.397262,2.411,2.59139
0.8707,-0.397262,2.411,2.594
