0.0184991,-0.414728,2.517,2.55101
0.0266686,-0.414728,2.517,2.55108
0.0348382,-0.414728,2.517,2.55118
0.0430077,-0.414728,2.517,2.5513
0.0511773,-0.414728,2.517,2.55145
0.0593468,-0.414728,2.517,2.55163
0.0675164,-0.414728,2.517,2.55183
0.075686,-0.414728,2.517,2.55206
0.0832558,-0.411762,2.499,2.53406
0.091367,-0.411762,2.499,2.53434
0.0994781,-0.411762,2.499,2.53465
0.107589,-0.411762,2.499,2.53498
0.1157,-0.411762,2.499,2.53534
0.123811,-0.411762,2.499,2.53572
0.131923,-0.411762,2.499,2.53613
0.140034,-0.411762,2.499,2.53656
0.148145,-0.411762,2.499,2.53702
0.156256,-0.411762,2.499,2.53751
0.164367,-0.411762,2.499,2.53802
0.172478,-0.411762,2.499,2.53856
0.180589,-0.411762,2.499,2.53913
0.188701,-0.411762,2.499,2.53972
0.196812,-0.411762,2.499,2.54033
0.204923,-0.411762,2.499,2.54097
0.213034,-0.411762,2.499,2.54164
0.221145,-0.411762,2.499,2.54233
0.229256,-0.411762,2.499,2.54305
0.235658,-0.408796,2.481,2.52547
0.24371,-0.408796,2.481,2.52624
0.251763,-0.408796,2.481,2.52703
0.259816,-0.408796,2.481,2.52784
0.267868,-0.408796,2.481,2.52868
0.275921,-0.408796,2.481,2.52955
0.283974,-0.408796,2.481,2.53044
0.292027,-0.408796,2.481,2.53135
0.300079,-0.408796,2.481,2.5323
0.308132,-0.408796,2.481,2.53326
0.316185,-0.408796,2.481,2.53426
0.32659,-0.411762,2.499,2.55367
0.334701,-0.411762,2.499,2.55472
0.342812,-0.411762,2.499,2.55579
0.350923,-0.411762,2.499,2.55689
0.359034,-0.411762,2.499,2.55802
0.367146,-0.411762,2.499,2.55917
0.375257,-0.411762,2.499,2.56035
0.383368,-0.411762,2.499,2.56155
0.391479,-0.411762,2.499,2.56277
0.402468,-0.414728,2.517,2.58249
0.410638,-0.414728,2.517,2.58378
0.418807,-0.414728,2.517,2.58509
0.426977,-0.414728,2.517,2.58643
0.435146,-0.414728,2.517,2.58779
0.443316,-0.414728,2.517,2.58917
0.451486,-0.414728,2.517,2.59058
0.459655,-0.414728,2.517,2.59202
0.467825,-0.414728,2.517,2.59348
0.475994,-0.414728,2.517,2.59497
0.484164,-0.414728,2.517,2.59648
0.492333,-0.414728,2.517,2.59801
0.500503,-0.414728,2.517,2.59958
0.505035,-0.411762,2.499,2.58256
0.513146,-0.411762,2.499,2.58416
0.521257,-0.411762,2.499,2.58578
0.533181,-0.414728,2.517,2.60606
0.541351,-0.414728,2.517,2.60775
0.54952,-0.414728,2.517,2.60946
0.55769,-0.414728,2.517,2.61119
0.565859,-0.414728,2.517,2.61295
0.569924,-0.411762,2.499,2.59603
0.578035,-0.411762,2.499,2.59782
0.586146,-0.411762,2.499,2.59964
0.594257,-0.411762,2.499,2.60148
0.602368,-0.411762,2.499,2.60334
0.610479,-0.411762,2.499,2.60523
0.618591,-0.411762,2.499,2.60714
0.626702,-0.411762,2.499,2.60908
0.634813,-0.411762,2.499,2.61104
0.642924,-0.411762,2.499,2.61303
0.651035,-0.411762,2.499,2.61503
0.659146,-0.411762,2.499,2.61706
0.667257,-0.411762,2.499,2.61912
0.675369,-0.411762,2.499,2.6212
0.68348,-0.411762,2.499,2.6233
0.691591,-0.411762,2.499,2.62542
0.699702,-0.411762,2.499,2.62757
0.707813,-0.411762,2.499,2.62974
0.715924,-0.411762,2.499,2.63194
0.724035,-0.411762,2.499,2.63416
0.732147,-0.411762,2.499,2.6364
0.740258,-0.411762,2.499,2.63866
0.753759,-0.414728,2.517,2.65997
0.761929,-0.414728,2.517,2.6623
0.770098,-0.414728,2.517,2.66465
0.772702,-0.411762,2.499,2.64795
0.780813,-0.411762,2.499,2.65032
0.788924,-0.411762,2.499,2.65273
0.797036,-0.411762,2.499,2.65515
0.805147,-0.411762,2.499,2.65759
0.813258,-0.411762,2.499,2.66006
0.821369,-0.411762,2.499,2.66255
0.82948,-0.411762,2.499,2.66507
0.837591,-0.411762,2.499,2.6676
0.845702,-0.411762,2.499,2.67016
0.853814,-0.411762,2.499,2.67274
0.861925,-0.411762,2.499,2.67534
0.870036,-0.411762,2.499,2.67797
0.871822,-0.408796,2.481,2.66131
0.879874,-0.408796,2.481,2.66395
0.881485,-0.405831,2.463,2.64728
0.889479,-0.405831,2.463,2.64995
0.897474,-0.405831,2.463,2.65265
0.898851,-0.402865,2.445,2.63595
0.906787,-0.402865,2.445,2.63867
0.914722,-0.402865,2.445,2.64141
0.922658,-0.402865,2.445,2.64417
0.930594,-0.402865,2.445,2.64695
0.93853,-0.402865,2.445,2.64975
0.939885,-0.400064,2.428,2.63413
0.947766,-0.400064,2.428,2.63695
0.962338,-0.402865,2.445,2.65827
0.970273,-0.402865,2.445,2.66116
0.971408,-0.400064,2.428,2.64554
0.979289,-0.400064,2.428,2.64844
0.987169,-0.400064,2.428,2.65137
0.99505,-0.400064,2.428,2.65431
1.00995,-0.402865,2.445,2.67588
1.02538,-0.405831,2.463,2.69861
1.03338,-0.405831,2.463,2.70165
nan,nan,nan,NaN
nan,nan,nan,NaN
nan,nan,nan,NaN
1.19425,-0.454932,2.761,3.04242
1.20321,-0.454932,2.761,3.04595
1.25257,-0.470091,2.853,3.15111
1.26183,-0.470091,2.853,3.15481
1.29247,-0.478,2.901,3.21166
1.31311,-0.482119,2.926,3.24317
1.3226,-0.482119,2.926,3.24703
1.3321,-0.482119,2.926,3.25091
1.35306,-0.486239,2.951,3.28262
1.37464,-0.490523,2.977,3.31554
1.38431,-0.490523,2.977,3.31956
1.39397,-0.490523,2.977,3.3236
1.40363,-0.490523,2.977,3.32766
1.41329,-0.490523,2.977,3.33175
1.41053,-0.486239,2.951,3.30672
1.42011,-0.486239,2.951,3.31082
1.41757,-0.482119,2.926,3.28686
1.42707,-0.482119,2.926,3.29096
1.42429,-0.478,2.901,3.26694
1.43371,-0.478,2.901,3.27106
1.44313,-0.478,2.901,3.27519
1.44053,-0.474046,2.877,3.25222
1.44986,-0.474046,2.877,3.25637
1.4592,-0.474046,2.877,3.26054
1.46854,-0.474046,2.877,3.26473
1.50305,-0.482119,2.926,3.32462
1.51254,-0.482119,2.926,3.32892
1.54857,-0.490523,2.977,3.39134
1.60011,-0.503704,3.057,3.48702
1.66954,-0.522323,3.17,3.62065
1.67983,-0.522323,3.17,3.6254
1.73811,-0.537153,3.26,3.73325
nan,nan,nan,NaN
1.84723,-0.564011,3.423,3.93031
1.85834,-0.564011,3.423,3.93554
1.88857,-0.569777,3.458,3.98109
1.89979,-0.569777,3.458,3.98643
1.93036,-0.575544,3.493,4.03219
1.96171,-0.581476,3.529,4.07925
1.97316,-0.581476,3.529,4.08477
1.98461,-0.581476,3.529,4.09031
1.99607,-0.581476,3.529,4.09588
2.00752,-0.581476,3.529,4.10148
2.01898,-0.581476,3.529,4.10709
2.00972,-0.575544,3.493,4.07078
2.02106,-0.575544,3.493,4.07639
2.03239,-0.575544,3.493,4.08203
2.02325,-0.569777,3.458,4.04672
2.03448,-0.569777,3.458,4.05235
2.025,-0.564011,3.423,4.01692
2.01588,-0.558408,3.389,3.98258
2.00714,-0.552971,3.356,3.94932
2.01804,-0.552971,3.356,3.95487
2.00958,-0.547698,3.324,3.92267
2.00092,-0.542426,3.292,3.8904
2.01161,-0.542426,3.292,3.8959
2.00264,-0.537153,3.26,3.86351
1.95764,-0.522323,3.17,3.76219
1.96793,-0.522323,3.17,3.76755
1.94202,-0.512767,3.112,3.70391
1.95212,-0.512767,3.112,3.70921
nan,nan,nan,NaN
nan,nan,nan,NaN
1.84801,-0.478,2.901,3.47267
1.85743,-0.478,2.901,3.47769
1.82051,-0.466137,2.829,3.39629
1.79994,-0.458557,2.783,3.34592
1.80897,-0.458557,2.783,3.35078
1.78926,-0.451307,2.739,3.30261
1.78371,-0.447682,2.717,3.28087
1.79253,-0.447682,2.717,3.28568
1.78743,-0.444222,2.696,3.26506
1.78218,-0.440762,2.675,3.24439
1.77681,-0.437302,2.654,3.22366
1.78542,-0.437302,2.654,3.22842
1.79404,-0.437302,2.654,3.23319
1.7748,-0.430546,2.613,3.18796
-2.37465,-0.552903,3.423,4.20257
-2.36354,-0.552903,3.423,4.1963
-2.35243,-0.552903,3.423,4.19005
-2.34132,-0.552903,3.423,4.18383
-2.33021,-0.552903,3.423,4.17762
-2.3191,-0.552903,3.423,4.17143
-2.26281,-0.542081,3.356,4.08374
-2.23045,-0.536912,3.324,4.03883
-2.21966,-0.536912,3.324,4.03288
-2.20887,-0.536912,3.324,4.02695
-2.19808,-0.536912,3.324,4.02104
-2.18729,-0.536912,3.324,4.01516
-2.1765,-0.536912,3.324,4.00929
-2.16571,-0.536912,3.324,4.00344
-2.15492,-0.536912,3.324,3.99762
-2.14413,-0.536912,3.324,3.99181
-2.13335,-0.536912,3.324,3.98603
-2.12256,-0.536912,3.324,3.98026
-2.1321,-0.542081,3.356,4.01278
-2.10098,-0.536912,3.324,3.9688
-2.09019,-0.536912,3.324,3.9631
-2.09942,-0.542081,3.356,3.99552
-2.08853,-0.542081,3.356,3.9898
-2.05782,-0.536912,3.324,3.94612
-2.04703,-0.536912,3.324,3.94051
-2.03625,-0.536912,3.324,3.93491
-2.02546,-0.536912,3.324,3.92934
-2.01467,-0.536912,3.324,3.92379
-2.00388,-0.536912,3.324,3.91826
-1.99309,-0.536912,3.324,3.91276
nan,nan,nan,NaN
nan,nan,nan,NaN
nan,nan,nan,NaN
nan,nan,nan,NaN
nan,nan,nan,NaN
nan,nan,nan,NaN
nan,nan,nan,NaN
nan,nan,nan,NaN
nan,nan,nan,NaN
nan,nan,nan,NaN
nan,nan,nan,NaN
nan,nan,nan,NaN
nan,nan,nan,NaN
nan,nan,nan,NaN
nan,nan,nan,NaN
nan,nan,nan,NaN
nan,nan,nan,NaN
nan,nan,nan,NaN
nan,nan,nan,NaN
nan,nan,nan,NaN
nan,nan,nan,NaN
nan,nan,nan,NaN
nan,nan,nan,NaN
nan,nan,nan,NaN
nan,nan,nan,NaN
nan,nan,nan,NaN
nan,nan,nan,NaN
nan,nan,nan,NaN
nan,nan,nan,NaN
nan,nan,nan,NaN
nan,nan,nan,NaN
nan,nan,nan,NaN
-1.17066,-0.383947,2.377,2.67731
-1.16295,-0.383947,2.377,2.67395
-1.15523,-0.383947,2.377,2.6706
-1.14752,-0.383947,2.377,2.66727
-1.1398,-0.383947,2.377,2.66396
-1.13209,-0.383947,2.377,2.66067
-1.12437,-0.383947,2.377,2.6574
-1.11666,-0.383947,2.377,2.65414
-1.10894,-0.383947,2.377,2.65091
-1.10123,-0.383947,2.377,2.64769
-1.09351,-0.383947,2.377,2.64449
-1.0858,-0.383947,2.377,2.64131
-1.07808,-0.383947,2.377,2.63814
-1.07037,-0.383947,2.377,2.635
-1.06265,-0.383947,2.377,2.63188
-1.05494,-0.383947,2.377,2.62877
-1.04722,-0.383947,2.377,2.62568
-1.03951,-0.383947,2.377,2.62262
-1.03179,-0.383947,2.377,2.61957
-1.02408,-0.383947,2.377,2.61654
-1.01636,-0.383947,2.377,2.61353
-1.00865,-0.383947,2.377,2.61054
-1.00093,-0.383947,2.377,2.60757
-0.993215,-0.383947,2.377,2.60462
-0.9855,-0.383947,2.377,2.60168
-0.977785,-0.383947,2.377,2.59877
-0.970069,-0.383947,2.377,2.59588
-0.962354,-0.383947,2.377,2.593
-0.954639,-0.383947,2.377,2.59015
-0.946924,-0.383947,2.377,2.58732
-0.939209,-0.383947,2.377,2.5845
-0.931494,-0.383947,2.377,2.58171
-0.923778,-0.383947,2.377,2.57894
-0.916063,-0.383947,2.377,2.57618
-0.908348,-0.383947,2.377,2.57345
-0.900633,-0.383947,2.377,2.57074
-0.892918,-0.383947,2.377,2.56804
-0.885203,-0.383947,2.377,2.56537
-0.877488,-0.383947,2.377,2.56272
-0.869772,-0.383947,2.377,2.56009
-0.862057,-0.383947,2.377,2.55748
-0.854342,-0.383947,2.377,2.55489
-0.840928,-0.381363,2.361,2.53514
-0.833265,-0.381363,2.361,2.53261
-0.825602,-0.381363,2.361,2.53009
-0.817938,-0.381363,2.361,2.5276
-0.810275,-0.381363,2.361,2.52513
-0.802612,-0.381363,2.361,2.52269
-0.794949,-0.381363,2.361,2.52026
-0.787286,-0.381363,2.361,2.51785
-0.779622,-0.381363,2.361,2.51547
-0.771959,-0.381363,2.361,2.5131
-0.764296,-0.381363,2.361,2.51076
-0.756633,-0.381363,2.361,2.50844
-0.748969,-0.381363,2.361,2.50614
-0.741306,-0.381363,2.361,2.50386
-0.733643,-0.381363,2.361,2.5016
-0.72598,-0.381363,2.361,2.49936
-0.718317,-0.381363,2.361,2.49715
-0.715469,-0.383947,2.377,2.51186
-0.707754,-0.383947,2.377,2.50967
-0.700039,-0.383947,2.377,2.50751
-0.692324,-0.383947,2.377,2.50537
-0.689505,-0.386693,2.394,2.52115
-0.681735,-0.386693,2.394,2.51903
-0.673964,-0.386693,2.394,2.51694
-0.670925,-0.389439,2.411,2.53273
-0.667775,-0.392185,2.428,2.54851
-0.659894,-0.392185,2.428,2.54646
-0.652013,-0.392185,2.428,2.54443
-0.648643,-0.394931,2.445,2.56022
-0.640707,-0.394931,2.445,2.55822
-0.632771,-0.394931,2.445,2.55625
-0.624835,-0.394931,2.445,2.55429
-0.616899,-0.394931,2.445,2.55236
-0.608963,-0.394931,2.445,2.55046
-0.609877,-0.400746,2.481,2.5861
-0.601824,-0.400746,2.481,2.58421
-0.593771,-0.400746,2.481,2.58235
-0.581469,-0.397838,2.463,2.56179
-0.573475,-0.397838,2.463,2.55998
-0.565481,-0.397838,2.463,2.55821
-0.553412,-0.394931,2.445,2.53777
-0.545476,-0.394931,2.445,2.53605
-0.541498,-0.397838,2.463,2.55301
-0.529605,-0.394931,2.445,2.53268
-0.521669,-0.394931,2.445,2.53103
-0.513733,-0.394931,2.445,2.52941
-0.505797,-0.394931,2.445,2.52781
-0.4944,-0.392185,2.428,2.50867
-0.486519,-0.392185,2.428,2.50713
-0.478638,-0.392185,2.428,2.50561
-0.470758,-0.392185,2.428,2.50412
-0.462877,-0.392185,2.428,2.50265
-0.454996,-0.392185,2.428,2.5012
-0.447115,-0.392185,2.428,2.49978
-0.439235,-0.392185,2.428,2.49838
-0.431354,-0.392185,2.428,2.49701
-0.423473,-0.392185,2.428,2.49566
-0.415593,-0.392185,2.428,2.49434
-0.407712,-0.392185,2.428,2.49304
-0.399831,-0.392185,2.428,2.49176
-0.391951,-0.392185,2.428,2.49051
-0.38407,-0.392185,2.428,2.48928
-0.376189,-0.392185,2.428,2.48807
-0.368309,-0.392185,2.428,2.48689
-0.362952,-0.394931,2.445,2.50314
-0.355016,-0.394931,2.445,2.50201
-0.34708,-0.394931,2.445,2.50089
-0.339144,-0.394931,2.445,2.4998
-0.331208,-0.394931,2.445,2.49874
-0.323272,-0.394931,2.445,2.4977
-0.315336,-0.394931,2.445,2.49668
-0.3074,-0.394931,2.445,2.49569
-0.299465,-0.394931,2.445,2.49473
-0.291529,-0.394931,2.445,2.49379
-0.283593,-0.394931,2.445,2.49287
-0.275657,-0.394931,2.445,2.49198
-0.26586,-0.392185,2.428,2.4738
-0.257979,-0.392185,2.428,2.47296
-0.250098,-0.392185,2.428,2.47215
-0.242218,-0.392185,2.428,2.47137
-0.234337,-0.392185,2.428,2.47061
-0.228042,-0.394931,2.445,2.48717
-0.220106,-0.394931,2.445,2.48645
-0.21217,-0.394931,2.445,2.48576
-0.204234,-0.394931,2.445,2.4851
-0.196298,-0.394931,2.445,2.48446
-0.188363,-0.394931,2.445,2.48384
-0.180427,-0.394931,2.445,2.48325
-0.172491,-0.394931,2.445,2.48269
-0.164555,-0.394931,2.445,2.48215
-0.156619,-0.394931,2.445,2.48164
-0.148683,-0.394931,2.445,2.48115
-0.140747,-0.394931,2.445,2.48069
-0.133789,-0.397838,2.463,2.49851
-0.125795,-0.397838,2.463,2.49809
-0.117801,-0.397838,2.463,2.4977
-0.109806,-0.397838,2.463,2.49734
-0.101812,-0.397838,2.463,2.497
-0.0945035,-0.400746,2.481,2.51493
-0.0864508,-0.400746,2.481,2.51464
-0.078398,-0.400746,2.481,2.51438
-0.0708557,-0.403653,2.499,2.53238
-0.0627446,-0.403653,2.499,2.53217
-0.0546334,-0.403653,2.499,2.53198
-0.0465223,-0.403653,2.499,2.53182
-0.0384112,-0.403653,2.499,2.53168
-0.0305183,-0.406561,2.517,2.54981
-0.0223487,-0.406561,2.517,2.54972
-0.0141792,-0.406561,2.517,2.54966
-0.00605498,-0.40963,2.536,2.56888
0.00215994,-0.406561,2.517,2.54962
0.0103295,-0.406561,2.517,2.54964
0.0184991,-0.406561,2.517,2.54969
0.0266686,-0.406561,2.517,2.54976
0.0348382,-0.406561,2.517,2.54986
0.0430077,-0.406561,2.517,2.54999
0.0511773,-0.406561,2.517,2.55014
0.0593468,-0.406561,2.517,2.55031
0.0675164,-0.406561,2.517,2.55052
0.075686,-0.406561,2.517,2.55075
0.0838555,-0.406561,2.517,2.551
0.0920251,-0.406561,2.517,2.55128
0.100195,-0.406561,2.517,2.55159
0.108364,-0.406561,2.517,2.55193
0.116534,-0.406561,2.517,2.55229
0.124703,-0.406561,2.517,2.55267
0.132873,-0.406561,2.517,2.55308
0.141042,-0.406561,2.517,2.55352
0.149212,-0.406561,2.517,2.55399
0.157382,-0.406561,2.517,2.55448
0.165551,-0.406561,2.517,2.55499
0.173721,-0.406561,2.517,2.55554
0.18189,-0.406561,2.517,2.5561
0.19006,-0.406561,2.517,2.5567
0.198229,-0.406561,2.517,2.55732
0.204923,-0.403653,2.499,2.53967
0.213034,-0.403653,2.499,2.54034
0.221145,-0.403653,2.499,2.54103
0.229256,-0.403653,2.499,2.54175
0.237367,-0.403653,2.499,2.5425
0.245479,-0.403653,2.499,2.54327
0.25359,-0.403653,2.499,2.54406
0.261701,-0.403653,2.499,2.54488
0.269812,-0.403653,2.499,2.54573
0.277923,-0.403653,2.499,2.5466
0.286034,-0.403653,2.499,2.5475
0.294145,-0.403653,2.499,2.54842
0.302256,-0.403653,2.499,2.54937
0.310368,-0.403653,2.499,2.55035
0.318479,-0.403653,2.499,2.55135
0.32659,-0.403653,2.499,2.55237
0.334701,-0.403653,2.499,2.55342
0.342812,-0.403653,2.499,2.5545
0.350923,-0.403653,2.499,2.5556
0.359034,-0.403653,2.499,2.55673
0.367146,-0.403653,2.499,2.55788
0.37796,-0.406561,2.517,2.57749
0.386129,-0.406561,2.517,2.5787
0.394299,-0.406561,2.517,2.57993
0.402468,-0.406561,2.517,2.58119
0.410638,-0.406561,2.517,2.58248
0.418807,-0.406561,2.517,2.58379
0.426977,-0.406561,2.517,2.58513
0.438431,-0.40963,2.536,2.60601
0.446662,-0.40963,2.536,2.60741
0.454894,-0.40963,2.536,2.60884
0.463125,-0.40963,2.536,2.61028
0.471356,-0.40963,2.536,2.61176
0.475994,-0.406561,2.517,2.59368
0.484164,-0.406561,2.517,2.59519
0.492333,-0.406561,2.517,2.59672
0.500503,-0.406561,2.517,2.59828
0.508672,-0.406561,2.517,2.59987
0.516842,-0.406561,2.517,2.60148
0.525012,-0.406561,2.517,2.60312
0.533181,-0.406561,2.517,2.60478
0.541351,-0.406561,2.517,2.60646
0.54952,-0.406561,2.517,2.60817
0.55769,-0.406561,2.517,2.6099
0.565859,-0.406561,2.517,2.61166
0.574029,-0.406561,2.517,2.61344
0.582199,-0.406561,2.517,2.61525
0.590368,-0.406561,2.517,2.61708
0.598538,-0.406561,2.517,2.61894
0.606707,-0.406561,2.517,2.62082
0.614877,-0.406561,2.517,2.62272
0.623046,-0.406561,2.517,2.62465
0.631216,-0.406561,2.517,2.6266
0.634813,-0.403653,2.499,2.60977
0.642924,-0.403653,2.499,2.61176
0.651035,-0.403653,2.499,2.61377
0.659146,-0.403653,2.499,2.6158
0.667257,-0.403653,2.499,2.61786
0.675369,-0.403653,2.499,2.61994
0.68348,-0.403653,2.499,2.62204
0.691591,-0.403653,2.499,2.62416
0.699702,-0.403653,2.499,2.62631
0.707813,-0.403653,2.499,2.62849
0.715924,-0.403653,2.499,2.63068
0.724035,-0.403653,2.499,2.6329
0.732147,-0.403653,2.499,2.63514
0.740258,-0.403653,2.499,2.63741
0.753759,-0.406561,2.517,2.65871
0.761929,-0.406561,2.517,2.66104
0.770098,-0.406561,2.517,2.66339
0.772702,-0.403653,2.499,2.6467
0.780813,-0.403653,2.499,2.64908
0.788924,-0.403653,2.499,2.65148
0.802777,-0.406561,2.517,2.67302
0.810946,-0.406561,2.517,2.67548
0.819116,-0.406561,2.517,2.67797
0.821369,-0.403653,2.499,2.66131
0.82948,-0.403653,2.499,2.66383
0.837591,-0.403653,2.499,2.66636
0.845702,-0.403653,2.499,2.66892
0.853814,-0.403653,2.499,2.6715
0.861925,-0.403653,2.499,2.67411
0.870036,-0.403653,2.499,2.67673
0.871822,-0.400746,2.481,2.66008
0.879874,-0.400746,2.481,2.66273
0.881485,-0.397838,2.463,2.64606
0.889479,-0.397838,2.463,2.64874
0.897474,-0.397838,2.463,2.65143
0.898851,-0.394931,2.445,2.63475
0.906787,-0.394931,2.445,2.63747
0.914722,-0.394931,2.445,2.64021
0.922658,-0.394931,2.445,2.64297
0.930594,-0.394931,2.445,2.64575
0.93853,-0.394931,2.445,2.64855
0.939885,-0.392185,2.428,2.63294
0.947766,-0.392185,2.428,2.63576
0.955646,-0.392185,2.428,2.63861
0.970273,-0.394931,2.445,2.65997
0.971408,-0.392185,2.428,2.64436
0.979289,-0.392185,2.428,2.64726
0.987169,-0.392185,2.428,2.65019
0.99505,-0.392185,2.428,2.65313
1.00995,-0.394931,2.445,2.6747
1.02538,-0.397838,2.463,2.69742
1.03338,-0.397838,2.463,2.70047
nan,nan,nan,NaN
nan,nan,nan,NaN
nan,nan,nan,NaN
1.19425,-0.445973,2.761,3.04109
1.20321,-0.445973,2.761,3.04462
1.25257,-0.460834,2.853,3.14975
1.26183,-0.460834,2.853,3.15344
1.29247,-0.468587,2.901,3.21027
1.31311,-0.472625,2.926,3.24177
1.3226,-0.472625,2.926,3.24563
1.3321,-0.472625,2.926,3.24951
1.35306,-0.476663,2.951,3.28122
1.37464,-0.480863,2.977,3.31412
1.38431,-0.480863,2.977,3.31814
1.39397,-0.480863,2.977,3.32218
1.40363,-0.480863,2.977,3.32625
1.41329,-0.480863,2.977,3.33034
1.41053,-0.476663,2.951,3.30533
1.42011,-0.476663,2.951,3.30943
1.41757,-0.472625,2.926,3.28548
1.42707,-0.472625,2.926,3.28959
1.42429,-0.468587,2.901,3.26558
1.43371,-0.468587,2.901,3.26969
1.44313,-0.468587,2.901,3.27383
1.44053,-0.46471,2.877,3.25088
1.44986,-0.46471,2.877,3.25503
1.4592,-0.46471,2.877,3.2592
1.46854,-0.46471,2.877,3.26339
1.50305,-0.472625,2.926,3.32325
1.51254,-0.472625,2.926,3.32756
1.54857,-0.480863,2.977,3.38996
1.60011,-0.493785,3.057,3.4856
1.66954,-0.512037,3.17,3.61918
1.67983,-0.512037,3.17,3.62394
1.73811,-0.526575,3.26,3.73174
nan,nan,nan,NaN
1.84723,-0.552903,3.423,3.92873
1.85834,-0.552903,3.423,3.93396
1.88857,-0.558557,3.458,3.9795
1.89979,-0.558557,3.458,3.98484
1.93036,-0.56421,3.493,4.03059
1.96171,-0.570025,3.529,4.07763
1.97316,-0.570025,3.529,4.08315
1.98461,-0.570025,3.529,4.0887
2.017,-0.576002,3.566,4.1372
2.02857,-0.576002,3.566,4.14285
2.01898,-0.570025,3.529,4.10549
2.03043,-0.570025,3.529,4.11113
2.04189,-0.570025,3.529,4.1168
2.05334,-0.570025,3.529,4.1225
2.04373,-0.56421,3.493,4.0861
2.05507,-0.56421,3.493,4.09178
2.06641,-0.56421,3.493,4.09749
2.05692,-0.558557,3.458,4.0621
2.02688,-0.547412,3.389,3.98663
2.03788,-0.547412,3.389,3.99223
2.02893,-0.542081,3.356,3.95893
2.02037,-0.536912,3.324,3.92672
2.03116,-0.536912,3.324,3.93229
2.02229,-0.531744,3.292,3.89996
1.97555,-0.516722,3.199,3.79518
1.98593,-0.516722,3.199,3.80059
1.94202,-0.502669,3.112,3.70252
1.95212,-0.502669,3.112,3.70783
nan,nan,nan,NaN
1.90324,-0.485063,3.003,3.58826
1.84801,-0.468587,2.901,3.47139
1.85743,-0.468587,2.901,3.47641
1.83595,-0.460834,2.853,3.42384
1.79994,-0.449527,2.783,3.34469
1.80897,-0.449527,2.783,3.34956
1.78926,-0.44242,2.739,3.30141
1.78371,-0.438866,2.717,3.27968
1.79253,-0.438866,2.717,3.28449
1.78743,-0.435474,2.696,3.26388
1.78218,-0.432082,2.675,3.24322
1.77681,-0.42869,2.654,3.2225
1.78542,-0.42869,2.654,3.22726
1.79404,-0.42869,2.654,3.23204
1.7748,-0.422067,2.613,3.18682
-2.37465,-0.541796,3.423,4.20112
-2.36354,-0.541796,3.423,4.19485
-2.35243,-0.541796,3.423,4.1886
-2.34132,-0.541796,3.423,4.18237
-2.33021,-0.541796,3.423,4.17616
-2.3191,-0.541796,3.423,4.16997
-2.26281,-0.531192,3.356,4.0823
-2.23045,-0.526127,3.324,4.03741
-2.21966,-0.526127,3.324,4.03146
-2.20887,-0.526127,3.324,4.02553
-2.19808,-0.526127,3.324,4.01962
-2.18729,-0.526127,3.324,4.01373
-2.1765,-0.526127,3.324,4.00786
-2.16571,-0.526127,3.324,4.00201
-2.15492,-0.526127,3.324,3.99618
-2.14413,-0.526127,3.324,3.99038
-2.13335,-0.526127,3.324,3.98459
-2.12256,-0.526127,3.324,3.97882
-2.1321,-0.531192,3.356,4.01133
-2.1212,-0.531192,3.356,4.00555
-2.11031,-0.531192,3.356,3.99979
-2.09942,-0.531192,3.356,3.99405
-2.08853,-0.531192,3.356,3.98834
-2.07763,-0.531192,3.356,3.98265
-2.06674,-0.531192,3.356,3.97697
-2.05585,-0.531192,3.356,3.97132
-2.04496,-0.531192,3.356,3.9657
-2.01467,-0.526127,3.324,3.92233
-2.00388,-0.526127,3.324,3.9168
-1.99309,-0.526127,3.324,3.91129
nan,nan,nan,NaN
nan,nan,nan,NaN
nan,nan,nan,NaN
nan,nan,nan,NaN
nan,nan,nan,NaN
nan,nan,nan,NaN
nan,nan,nan,NaN
nan,nan,nan,NaN
nan,nan,nan,NaN
nan,nan,nan,NaN
nan,nan,nan,NaN
nan,nan,nan,NaN
nan,nan,nan,NaN
nan,nan,nan,NaN
nan,nan,nan,NaN
nan,nan,nan,NaN
nan,nan,nan,NaN
nan,nan,nan,NaN
nan,nan,nan,NaN
nan,nan,nan,NaN
nan,nan,nan,NaN
nan,nan,nan,NaN
nan,nan,nan,NaN
nan,nan,nan,NaN
nan,nan,nan,NaN
nan,nan,nan,NaN
nan,nan,nan,NaN
nan,nan,nan,NaN
nan,nan,nan,NaN
nan,nan,nan,NaN
nan,nan,nan,NaN
-1.17838,-0.376234,2.377,2.6796
-1.17066,-0.376234,2.377,2.67622
-1.16295,-0.376234,2.377,2.67285
-1.15523,-0.376234,2.377,2.6695
-1.14752,-0.376234,2.377,2.66617
-1.1398,-0.376234,2.377,2.66286
-1.13209,-0.376234,2.377,2.65957
-1.12437,-0.376234,2.377,2.65629
-1.11666,-0.376234,2.377,2.65304
-1.10894,-0.376234,2.377,2.6498
-1.10123,-0.376234,2.377,2.64658
-1.09351,-0.376234,2.377,2.64338
-1.0858,-0.376234,2.377,2.6402
-1.07808,-0.376234,2.377,2.63703
-1.07037,-0.376234,2.377,2.63389
-1.06265,-0.376234,2.377,2.63076
-1.05494,-0.376234,2.377,2.62766
-1.04722,-0.376234,2.377,2.62457
-1.03951,-0.376234,2.377,2.6215
-1.03179,-0.376234,2.377,2.61845
-1.02408,-0.376234,2.377,2.61542
-1.01636,-0.376234,2.377,2.61241
-1.00865,-0.376234,2.377,2.60942
-1.00093,-0.376234,2.377,2.60644
-0.993215,-0.376234,2.377,2.60349
-0.9855,-0.376234,2.377,2.60056
-0.977785,-0.376234,2.377,2.59764
-0.970069,-0.376234,2.377,2.59475
-0.962354,-0.376234,2.377,2.59187
-0.954639,-0.376234,2.377,2.58902
-0.946924,-0.376234,2.377,2.58618
-0.939209,-0.376234,2.377,2.58337
-0.931494,-0.376234,2.377,2.58057
-0.923778,-0.376234,2.377,2.5778
-0.916063,-0.376234,2.377,2.57504
-0.908348,-0.376234,2.377,2.57231
-0.900633,-0.376234,2.377,2.5696
-0.892918,-0.376234,2.377,2.5669
-0.885203,-0.376234,2.377,2.56423
-0.877488,-0.376234,2.377,2.56157
-0.869772,-0.376234,2.377,2.55894
-0.862057,-0.376234,2.377,2.55633
-0.854342,-0.376234,2.377,2.55374
-0.840928,-0.373702,2.361,2.534
-0.833265,-0.373702,2.361,2.53146
-0.825602,-0.373702,2.361,2.52895
-0.817938,-0.373702,2.361,2.52646
-0.810275,-0.373702,2.361,2.52399
-0.802612,-0.373702,2.361,2.52154
-0.794949,-0.373702,2.361,2.51911
-0.787286,-0.373702,2.361,2.5167
-0.779622,-0.373702,2.361,2.51432
-0.771959,-0.373702,2.361,2.51195
-0.764296,-0.373702,2.361,2.50961
-0.756633,-0.373702,2.361,2.50728
-0.748969,-0.373702,2.361,2.50498
-0.741306,-0.373702,2.361,2.5027
-0.733643,-0.373702,2.361,2.50044
-0.72598,-0.373702,2.361,2.4982
-0.718317,-0.373702,2.361,2.49599
-0.715469,-0.376234,2.377,2.51069
-0.707754,-0.376234,2.377,2.50851
-0.700039,-0.376234,2.377,2.50634
-0.697275,-0.378925,2.394,2.5221
-0.689505,-0.378925,2.394,2.51997
-0.686576,-0.381616,2.411,2.53573
-0.67875,-0.381616,2.411,2.53362
-0.670925,-0.381616,2.411,2.53154
-0.667775,-0.384307,2.428,2.54731
-0.659894,-0.384307,2.428,2.54526
-0.652013,-0.384307,2.428,2.54323
-0.648643,-0.386997,2.445,2.55901
-0.640707,-0.386997,2.445,2.55701
-0.632771,-0.386997,2.445,2.55503
-0.629435,-0.389846,2.463,2.57187
-0.621441,-0.389846,2.463,2.56993
-0.613446,-0.389846,2.463,2.56801
-0.609877,-0.392696,2.481,2.58486
-0.601824,-0.392696,2.481,2.58298
-0.593771,-0.392696,2.481,2.58111
-0.585719,-0.392696,2.481,2.57927
-0.577666,-0.392696,2.481,2.57745
-0.569613,-0.392696,2.481,2.57566
-0.561561,-0.392696,2.481,2.57389
-0.553508,-0.392696,2.481,2.57215
-0.545455,-0.392696,2.481,2.57043
-0.533504,-0.389846,2.463,2.55009
-0.525509,-0.389846,2.463,2.54843
-0.517515,-0.389846,2.463,2.5468
-0.505797,-0.386997,2.445,2.52658
-0.497861,-0.386997,2.445,2.52501
-0.489925,-0.386997,2.445,2.52345
-0.481989,-0.386997,2.445,2.52193
-0.474054,-0.386997,2.445,2.52042
-0.466118,-0.386997,2.445,2.51894
-0.458182,-0.386997,2.445,2.51748
-0.450246,-0.386997,2.445,2.51605
-0.44231,-0.386997,2.445,2.51464
-0.434374,-0.386997,2.445,2.51326
-0.423473,-0.384307,2.428,2.49444
-0.415593,-0.384307,2.428,2.49311
-0.407712,-0.384307,2.428,2.49181
-0.399831,-0.384307,2.428,2.49053
-0.391951,-0.384307,2.428,2.48928
-0.38407,-0.384307,2.428,2.48805
-0.376189,-0.384307,2.428,2.48684
-0.368309,-0.384307,2.428,2.48566
-0.362952,-0.386997,2.445,2.5019
-0.355016,-0.386997,2.445,2.50077
-0.34708,-0.386997,2.445,2.49965
-0.339144,-0.386997,2.445,2.49856
-0.331208,-0.386997,2.445,2.4975
-0.323272,-0.386997,2.445,2.49646
-0.315336,-0.386997,2.445,2.49544
-0.3074,-0.386997,2.445,2.49445
-0.299465,-0.386997,2.445,2.49349
-0.289502,-0.384307,2.428,2.47521
-0.281621,-0.384307,2.428,2.47431
-0.27374,-0.384307,2.428,2.47342
-0.26586,-0.384307,2.428,2.47256
-0.257979,-0.384307,2.428,2.47173
-0.250098,-0.384307,2.428,2.47092
-0.242218,-0.384307,2.428,2.47013
-0.234337,-0.384307,2.428,2.46937
-0.228042,-0.386997,2.445,2.48592
-0.218576,-0.384307,2.428,2.46792
-0.210695,-0.384307,2.428,2.46724
-0.202814,-0.384307,2.428,2.46658
-0.194934,-0.384307,2.428,2.46594
-0.187053,-0.384307,2.428,2.46533
-0.180427,-0.386997,2.445,2.482
-0.172491,-0.386997,2.445,2.48144
-0.164555,-0.386997,2.445,2.4809
-0.156619,-0.386997,2.445,2.48039
-0.148683,-0.386997,2.445,2.4799
-0.140747,-0.386997,2.445,2.47944
-0.133789,-0.389846,2.463,2.49725
-0.125795,-0.389846,2.463,2.49683
-0.117801,-0.389846,2.463,2.49644
-0.109806,-0.389846,2.463,2.49608
-0.101812,-0.389846,2.463,2.49574
-0.0945035,-0.392696,2.481,2.51366
-0.0864508,-0.392696,2.481,2.51337
-0.078398,-0.392696,2.481,2.51311
-0.0708557,-0.395545,2.499,2.5311
-0.0627446,-0.395545,2.499,2.53089
-0.0546334,-0.395545,2.499,2.5307
-0.0468574,-0.398394,2.517,2.54876
-0.0386878,-0.398394,2.517,2.54863
-0.0305183,-0.398394,2.517,2.54852
-0.0223487,-0.398394,2.517,2.54843
-0.0142862,-0.401401,2.536,2.56761
-0.00605498,-0.401401,2.536,2.56758
0.00217625,-0.401401,2.536,2.56757
0.0104075,-0.401401,2.536,2.56759
0.0186387,-0.401401,2.536,2.56764
0.0268699,-0.401401,2.536,2.56771
0.0351011,-0.401401,2.536,2.56781
0.0433324,-0.401401,2.536,2.56794
0.0515636,-0.401401,2.536,2.56809
0.0597948,-0.401401,2.536,2.56827
0.0680261,-0.401401,2.536,2.56847
0.0762573,-0.401401,2.536,2.5687
0.0844885,-0.401401,2.536,2.56896
0.0927197,-0.401401,2.536,2.56924
0.100951,-0.401401,2.536,2.56955
0.109182,-0.401401,2.536,2.56989
0.117413,-0.401401,2.536,2.57025
0.125645,-0.401401,2.536,2.57064
0.132873,-0.398394,2.517,2.5518
0.141042,-0.398394,2.517,2.55223
0.149212,-0.398394,2.517,2.5527
0.157382,-0.398394,2.517,2.55319
0.165551,-0.398394,2.517,2.55371
0.173721,-0.398394,2.517,2.55425
0.18189,-0.398394,2.517,2.55482
0.19006,-0.398394,2.517,2.55541
0.198229,-0.398394,2.517,2.55603
0.206399,-0.398394,2.517,2.55668
0.214568,-0.398394,2.517,2.55735
0.222738,-0.398394,2.517,2.55805
0.230908,-0.398394,2.517,2.55877
0.237367,-0.395545,2.499,2.54122
0.245479,-0.395545,2.499,2.54199
0.25359,-0.395545,2.499,2.54279
0.261701,-0.395545,2.499,2.54361
0.269812,-0.395545,2.499,2.54446
0.277923,-0.395545,2.499,2.54533
0.286034,-0.395545,2.499,2.54623
0.294145,-0.395545,2.499,2.54715
0.304434,-0.398394,2.517,2.56645
0.312603,-0.398394,2.517,2.56744
0.318479,-0.395545,2.499,2.55008
0.32659,-0.395545,2.499,2.5511
0.334701,-0.395545,2.499,2.55215
0.342812,-0.395545,2.499,2.55323
0.350923,-0.395545,2.499,2.55433
0.359034,-0.395545,2.499,2.55546
0.367146,-0.395545,2.499,2.55661
0.37796,-0.398394,2.517,2.57621
0.386129,-0.398394,2.517,2.57742
0.394299,-0.398394,2.517,2.57866
0.402468,-0.398394,2.517,2.57992
0.410638,-0.398394,2.517,2.58121
0.418807,-0.398394,2.517,2.58252
0.426977,-0.398394,2.517,2.58386
0.438431,-0.401401,2.536,2.60473
0.446662,-0.401401,2.536,2.60613
0.454894,-0.401401,2.536,2.60756
0.463125,-0.401401,2.536,2.609
0.471356,-0.401401,2.536,2.61048
0.475994,-0.398394,2.517,2.59241
0.484164,-0.398394,2.517,2.59392
0.492333,-0.398394,2.517,2.59546
0.500503,-0.398394,2.517,2.59702
0.508672,-0.398394,2.517,2.59861
0.516842,-0.398394,2.517,2.60022
0.525012,-0.398394,2.517,2.60185
0.533181,-0.398394,2.517,2.60351
0.541351,-0.398394,2.517,2.6052
0.54952,-0.398394,2.517,2.60691
0.55769,-0.398394,2.517,2.60864
0.565859,-0.398394,2.517,2.6104
0.574029,-0.398394,2.517,2.61219
0.582199,-0.398394,2.517,2.61399
0.590368,-0.398394,2.517,2.61583
0.598538,-0.398394,2.517,2.61768
0.606707,-0.398394,2.517,2.61956
0.614877,-0.398394,2.517,2.62147
0.623046,-0.398394,2.517,2.62339
0.631216,-0.398394,2.517,2.62535
0.634813,-0.395545,2.499,2.60853
0.642924,-0.395545,2.499,2.61052
0.651035,-0.395545,2.499,2.61253
0.659146,-0.395545,2.499,2.61456
0.667257,-0.395545,2.499,2.61662
0.675369,-0.395545,2.499,2.6187
0.68348,-0.395545,2.499,2.6208
0.691591,-0.395545,2.499,2.62293
0.699702,-0.395545,2.499,2.62508
0.707813,-0.395545,2.499,2.62725
0.715924,-0.395545,2.499,2.62945
0.724035,-0.395545,2.499,2.63167
0.732147,-0.395545,2.499,2.63391
0.740258,-0.395545,2.499,2.63618
0.753759,-0.398394,2.517,2.65747
0.761929,-0.398394,2.517,2.6598
0.770098,-0.398394,2.517,2.66215
0.772702,-0.395545,2.499,2.64547
0.780813,-0.395545,2.499,2.64785
0.788924,-0.395545,2.499,2.65026
0.802777,-0.398394,2.517,2.67179
0.810946,-0.398394,2.517,2.67426
0.819116,-0.398394,2.517,2.67674
0.821369,-0.395545,2.499,2.66009
0.82948,-0.395545,2.499,2.66261
0.837591,-0.395545,2.499,2.66515
0.845702,-0.395545,2.499,2.66771
0.853814,-0.395545,2.499,2.67029
0.861925,-0.395545,2.499,2.6729
0.870036,-0.395545,2.499,2.67552
0.871822,-0.392696,2.481,2.65888
0.879874,-0.392696,2.481,2.66153
0.887927,-0.392696,2.481,2.6642
0.889479,-0.389846,2.463,2.64755
0.897474,-0.389846,2.463,2.65025
0.905468,-0.389846,2.463,2.65296
0.906787,-0.386997,2.445,2.6363
0.914722,-0.386997,2.445,2.63904
0.922658,-0.386997,2.445,2.6418
0.930594,-0.386997,2.445,2.64458
0.93853,-0.386997,2.445,2.64738
0.946466,-0.386997,2.445,2.65021
0.947766,-0.384307,2.428,2.6346
0.955646,-0.384307,2.428,2.63745
0.970273,-0.386997,2.445,2.6588
0.978209,-0.386997,2.445,2.66171
0.979289,-0.384307,2.428,2.64611
0.987169,-0.384307,2.428,2.64903
0.99505,-0.384307,2.428,2.65198
1.00293,-0.384307,2.428,2.65495
1.02538,-0.389846,2.463,2.69625
1.03338,-0.389846,2.463,2.6993
nan,nan,nan,NaN
nan,nan,nan,NaN
nan,nan,nan,NaN
1.19425,-0.437014,2.761,3.03979
1.20321,-0.437014,2.761,3.04332
1.27364,-0.459174,2.901,3.20137
1.28306,-0.459174,2.901,3.20513
1.30361,-0.463131,2.926,3.23657
1.32433,-0.467088,2.951,3.26809
1.3339,-0.467088,2.951,3.27198
1.34348,-0.467088,2.951,3.2759
1.36498,-0.471203,2.977,3.30874
1.37464,-0.471203,2.977,3.31273
1.38431,-0.471203,2.977,3.31676
1.39397,-0.471203,2.977,3.3208
1.40363,-0.471203,2.977,3.32487
1.41329,-0.471203,2.977,3.32896
1.41053,-0.467088,2.951,3.30396
1.42011,-0.467088,2.951,3.30806
1.41757,-0.463131,2.926,3.28413
1.42707,-0.463131,2.926,3.28824
1.43657,-0.463131,2.926,3.29237
nan,nan,nan,NaN
1.44313,-0.459174,2.901,3.2725
1.44053,-0.455375,2.877,3.24956
1.44986,-0.455375,2.877,3.25371
1.4592,-0.455375,2.877,3.25788
1.48079,-0.459174,2.901,3.28928
1.50305,-0.463131,2.926,3.32191
1.51254,-0.463131,2.926,3.32622
1.5621,-0.475318,3.003,3.4182
1.61424,-0.488139,3.084,3.51498
1.66954,-0.501751,3.17,3.61774
1.67983,-0.501751,3.17,3.6225
1.73811,-0.515997,3.26,3.73026
1.78302,-0.526127,3.324,3.80853
1.79381,-0.526127,3.324,3.8136
1.85834,-0.541796,3.423,3.93242
1.88857,-0.547336,3.458,3.97794
1.89979,-0.547336,3.458,3.98328
1.93036,-0.552876,3.493,4.02902
1.96171,-0.558574,3.529,4.07604
1.99385,-0.564431,3.566,4.12436
2.00542,-0.564431,3.566,4.12997
2.017,-0.564431,3.566,4.1356
2.02857,-0.564431,3.566,4.14126
2.04015,-0.564431,3.566,4.14694
2.05172,-0.564431,3.566,4.15265
2.06329,-0.564431,3.566,4.15838
2.07487,-0.564431,3.566,4.16413
2.08644,-0.564431,3.566,4.16991
2.07625,-0.558574,3.529,4.13239
2.0877,-0.558574,3.529,4.13816
2.07774,-0.552876,3.493,4.10168
2.04722,-0.541796,3.423,4.02512
2.05833,-0.541796,3.423,4.03078
2.04888,-0.536415,3.389,3.99637
2.03982,-0.531192,3.356,3.96305
2.05072,-0.531192,3.356,3.96867
2.04195,-0.526127,3.324,3.93641
1.99469,-0.511248,3.23,3.83054
2.00517,-0.511248,3.23,3.83601
1.96012,-0.497161,3.141,3.73565
1.97031,-0.497161,3.141,3.74101
nan,nan,nan,NaN
1.90324,-0.475318,3.003,3.58696
1.86394,-0.463131,2.926,3.50003
1.87343,-0.463131,2.926,3.5051
1.83595,-0.451576,2.853,3.42261
1.81482,-0.444137,2.806,3.37112
1.82392,-0.444137,2.806,3.37603
1.80364,-0.437014,2.761,3.32674
1.79815,-0.433532,2.739,3.30506
1.80704,-0.433532,2.739,3.30991
1.80135,-0.43005,2.717,3.28814
1.78218,-0.423402,2.675,3.24208
1.79087,-0.423402,2.675,3.24686
1.79955,-0.423402,2.675,3.25166
1.79404,-0.420078,2.654,3.23091
1.78839,-0.416754,2.633,3.21009
-2.37465,-0.530689,3.423,4.1997
-2.36354,-0.530689,3.423,4.19343
-2.35243,-0.530689,3.423,4.18718
-2.34132,-0.530689,3.423,4.18095
-2.33021,-0.530689,3.423,4.17474
-2.3191,-0.530689,3.423,4.16854
-2.26281,-0.520302,3.356,4.0809
-2.23045,-0.515341,3.324,4.03602
-2.21966,-0.515341,3.324,4.03007
-2.20887,-0.515341,3.324,4.02413
-2.19808,-0.515341,3.324,4.01822
-2.18729,-0.515341,3.324,4.01233
-2.1765,-0.515341,3.324,4.00646
-2.16571,-0.515341,3.324,4.00061
-2.15492,-0.515341,3.324,3.99478
-2.14413,-0.515341,3.324,3.98897
-2.13335,-0.515341,3.324,3.98318
-2.12256,-0.515341,3.324,3.97741
-2.1321,-0.520302,3.356,4.0099
-2.1212,-0.520302,3.356,4.00412
-2.11031,-0.520302,3.356,3.99836
-2.09942,-0.520302,3.356,3.99262
-2.08853,-0.520302,3.356,3.9869
-2.07763,-0.520302,3.356,3.98121
-2.06674,-0.520302,3.356,3.97553
-2.05585,-0.520302,3.356,3.96988
-2.04496,-0.520302,3.356,3.96425
-2.01467,-0.515341,3.324,3.9209
-2.00388,-0.515341,3.324,3.91536
-1.99309,-0.515341,3.324,3.90985
nan,nan,nan,NaN
nan,nan,nan,NaN
nan,nan,nan,NaN
nan,nan,nan,NaN
nan,nan,nan,NaN
nan,nan,nan,NaN
nan,nan,nan,NaN
nan,nan,nan,NaN
nan,nan,nan,NaN
nan,nan,nan,NaN
nan,nan,nan,NaN
nan,nan,nan,NaN
nan,nan,nan,NaN
nan,nan,nan,NaN
nan,nan,nan,NaN
nan,nan,nan,NaN
nan,nan,nan,NaN
nan,nan,nan,NaN
nan,nan,nan,NaN
nan,nan,nan,NaN
nan,nan,nan,NaN
nan,nan,nan,NaN
nan,nan,nan,NaN
nan,nan,nan,NaN
nan,nan,nan,NaN
nan,nan,nan,NaN
nan,nan,nan,NaN
nan,nan,nan,NaN
nan,nan,nan,NaN
nan,nan,nan,NaN
nan,nan,nan,NaN
-1.17838,-0.368521,2.377,2.67853
-1.17066,-0.368521,2.377,2.67514
-1.16295,-0.368521,2.377,2.67178
-1.15523,-0.368521,2.377,2.66843
-1.14752,-0.368521,2.377,2.6651
-1.1398,-0.368521,2.377,2.66178
-1.13209,-0.368521,2.377,2.65849
-1.12437,-0.368521,2.377,2.65521
-1.11666,-0.368521,2.377,2.65195
-1.10894,-0.368521,2.377,2.64871
-1.10123,-0.368521,2.377,2.64549
-1.09351,-0.368521,2.377,2.64229
-1.0858,-0.368521,2.377,2.63911
-1.07808,-0.368521,2.377,2.63594
-1.07037,-0.368521,2.377,2.6328
-1.06265,-0.368521,2.377,2.62967
-1.05494,-0.368521,2.377,2.62656
-1.04722,-0.368521,2.377,2.62347
-1.03951,-0.368521,2.377,2.6204
-1.03179,-0.368521,2.377,2.61735
-1.02408,-0.368521,2.377,2.61432
-1.01636,-0.368521,2.377,2.61131
-1.00865,-0.368521,2.377,2.60831
-1.00093,-0.368521,2.377,2.60534
-0.993215,-0.368521,2.377,2.60239
-0.9855,-0.368521,2.377,2.59945
-0.977785,-0.368521,2.377,2.59654
-0.970069,-0.368521,2.377,2.59364
-0.962354,-0.368521,2.377,2.59076
-0.954639,-0.368521,2.377,2.58791
-0.946924,-0.368521,2.377,2.58507
-0.939209,-0.368521,2.377,2.58226
-0.931494,-0.368521,2.377,2.57946
-0.923778,-0.368521,2.377,2.57668
-0.916063,-0.368521,2.377,2.57393
-0.908348,-0.368521,2.377,2.57119
-0.900633,-0.368521,2.377,2.56848
-0.892918,-0.368521,2.377,2.56578
-0.885203,-0.368521,2.377,2.56311
-0.877488,-0.368521,2.377,2.56045
-0.869772,-0.368521,2.377,2.55782
-0.862057,-0.368521,2.377,2.55521
-0.854342,-0.368521,2.377,2.55261
-0.846627,-0.368521,2.377,2.55004
-0.838912,-0.368521,2.377,2.54749
-0.831197,-0.368521,2.377,2.54496
-0.817938,-0.366041,2.361,2.52534
-0.810275,-0.366041,2.361,2.52287
-0.802612,-0.366041,2.361,2.52042
-0.794949,-0.366041,2.361,2.51799
-0.792621,-0.368521,2.377,2.53262
-0.779622,-0.366041,2.361,2.51319
-0.771959,-0.366041,2.361,2.51082
-0.764296,-0.366041,2.361,2.50848
-0.756633,-0.366041,2.361,2.50615
-0.748969,-0.366041,2.361,2.50385
-0.741306,-0.366041,2.361,2.50157
-0.738615,-0.368521,2.377,2.51625
-0.7309,-0.368521,2.377,2.51399
-0.723184,-0.368521,2.377,2.51176
-0.715469,-0.368521,2.377,2.50955
-0.707754,-0.368521,2.377,2.50736
-0.700039,-0.368521,2.377,2.50519
-0.697275,-0.371157,2.394,2.52095
-0.689505,-0.371157,2.394,2.51881
-0.686576,-0.373793,2.411,2.53457
-0.67875,-0.373793,2.411,2.53246
-0.670925,-0.373793,2.411,2.53037
-0.667775,-0.376428,2.428,2.54614
-0.659894,-0.376428,2.428,2.54408
-0.656578,-0.379064,2.445,2.55985
-0.648643,-0.379064,2.445,2.55782
-0.640707,-0.379064,2.445,2.55582
-0.637429,-0.381854,2.463,2.57264
-0.629435,-0.381854,2.463,2.57068
-0.621441,-0.381854,2.463,2.56873
-0.613446,-0.381854,2.463,2.56681
-0.609877,-0.384645,2.481,2.58365
-0.606191,-0.387436,2.499,2.6005
-0.598079,-0.387436,2.499,2.59862
-0.589968,-0.387436,2.499,2.59676
-0.581857,-0.387436,2.499,2.59493
-0.573746,-0.387436,2.499,2.59312
-0.565635,-0.387436,2.499,2.59134
-0.553508,-0.384645,2.481,2.57093
-0.545455,-0.384645,2.481,2.56921
-0.537403,-0.384645,2.481,2.56751
-0.52935,-0.384645,2.481,2.56584
-0.521297,-0.384645,2.481,2.56419
-0.509521,-0.381854,2.463,2.54397
-0.501526,-0.381854,2.463,2.54238
-0.493532,-0.381854,2.463,2.54082
-0.485538,-0.381854,2.463,2.53928
-0.477544,-0.381854,2.463,2.53776
-0.466118,-0.379064,2.445,2.51773
-0.458182,-0.379064,2.445,2.51628
-0.450246,-0.379064,2.445,2.51484
-0.44231,-0.379064,2.445,2.51343
-0.434374,-0.379064,2.445,2.51205
-0.426438,-0.379064,2.445,2.51069
-0.418503,-0.379064,2.445,2.50935
-0.410567,-0.379064,2.445,2.50804
-0.402631,-0.379064,2.445,2.50676
-0.394695,-0.379064,2.445,2.50549
-0.386759,-0.379064,2.445,2.50426
-0.378823,-0.379064,2.445,2.50304
-0.370887,-0.379064,2.445,2.50185
-0.362952,-0.379064,2.445,2.50069
-0.355016,-0.379064,2.445,2.49955
-0.34708,-0.379064,2.445,2.49844
-0.339144,-0.379064,2.445,2.49735
-0.331208,-0.379064,2.445,2.49628
-0.323272,-0.379064,2.445,2.49524
-0.315336,-0.379064,2.445,2.49422
-0.3074,-0.379064,2.445,2.49323
-0.299465,-0.379064,2.445,2.49227
-0.289502,-0.376428,2.428,2.474
-0.281621,-0.376428,2.428,2.47309
-0.27374,-0.376428,2.428,2.47221
-0.26586,-0.376428,2.428,2.47135
-0.257979,-0.376428,2.428,2.47051
-0.250098,-0.376428,2.428,2.4697
-0.242218,-0.376428,2.428,2.46892
-0.234337,-0.376428,2.428,2.46816
-0.228042,-0.379064,2.445,2.4847
-0.218576,-0.376428,2.428,2.46671
-0.210695,-0.376428,2.428,2.46602
-0.202814,-0.376428,2.428,2.46536
-0.194934,-0.376428,2.428,2.46473
-0.187053,-0.376428,2.428,2.46412
-0.180427,-0.379064,2.445,2.48078
-0.172491,-0.379064,2.445,2.48022
-0.164555,-0.379064,2.445,2.47968
-0.156619,-0.379064,2.445,2.47916
-0.148683,-0.379064,2.445,2.47867
-0.140747,-0.379064,2.445,2.47821
-0.132812,-0.379064,2.445,2.47777
-0.125795,-0.381854,2.463,2.4956
-0.117801,-0.381854,2.463,2.49521
-0.109806,-0.381854,2.463,2.49484
-0.101812,-0.381854,2.463,2.4945
-0.0945035,-0.384645,2.481,2.51242
-0.0864508,-0.384645,2.481,2.51213
-0.078398,-0.384645,2.481,2.51186
-0.0708557,-0.387436,2.499,2.52985
-0.0627446,-0.387436,2.499,2.52963
-0.0546334,-0.387436,2.499,2.52945
-0.0468574,-0.390226,2.517,2.5475
-0.0386878,-0.390226,2.517,2.54736
-0.0305183,-0.390226,2.517,2.54725
-0.0223487,-0.390226,2.517,2.54717
-0.0142862,-0.393172,2.536,2.56634
-0.00605498,-0.393172,2.536,2.5663
0.00217625,-0.393172,2.536,2.5663
0.0104075,-0.393172,2.536,2.56632
0.0186387,-0.393172,2.536,2.56636
0.0268699,-0.393172,2.536,2.56644
0.0351011,-0.393172,2.536,2.56654
0.0433324,-0.393172,2.536,2.56666
0.0515636,-0.393172,2.536,2.56681
0.0597948,-0.393172,2.536,2.56699
0.0680261,-0.393172,2.536,2.5672
0.0762573,-0.393172,2.536,2.56743
0.0844885,-0.393172,2.536,2.56769
0.0927197,-0.393172,2.536,2.56797
0.100951,-0.393172,2.536,2.56828
0.109182,-0.393172,2.536,2.56862
0.117413,-0.393172,2.536,2.56898
0.125645,-0.393172,2.536,2.56937
0.132873,-0.390226,2.517,2.55053
0.141042,-0.390226,2.517,2.55097
0.149212,-0.390226,2.517,2.55144
0.157382,-0.390226,2.517,2.55193
0.165551,-0.390226,2.517,2.55244
0.173721,-0.390226,2.517,2.55299
0.18189,-0.390226,2.517,2.55356
0.19006,-0.390226,2.517,2.55415
0.198229,-0.390226,2.517,2.55477
0.206399,-0.390226,2.517,2.55542
0.214568,-0.390226,2.517,2.55609
0.222738,-0.390226,2.517,2.55679
0.230908,-0.390226,2.517,2.55752
0.237367,-0.387436,2.499,2.53997
0.245479,-0.387436,2.499,2.54074
0.25359,-0.387436,2.499,2.54154
0.261701,-0.387436,2.499,2.54236
0.269812,-0.387436,2.499,2.54321
0.277923,-0.387436,2.499,2.54408
0.286034,-0.387436,2.499,2.54498
0.294145,-0.387436,2.499,2.5459
0.304434,-0.390226,2.517,2.5652
0.312603,-0.390226,2.517,2.56618
0.318479,-0.387436,2.499,2.54883
0.32659,-0.387436,2.499,2.54986
0.334701,-0.387436,2.499,2.55091
0.345281,-0.390226,2.517,2.57037
0.353451,-0.390226,2.517,2.57148
0.36162,-0.390226,2.517,2.57261
0.36979,-0.390226,2.517,2.57377
0.37796,-0.390226,2.517,2.57496
0.386129,-0.390226,2.517,2.57617
0.394299,-0.390226,2.517,2.57741
0.402468,-0.390226,2.517,2.57867
0.410638,-0.390226,2.517,2.57996
0.418807,-0.390226,2.517,2.58127
0.426977,-0.390226,2.517,2.58261
0.438431,-0.393172,2.536,2.60348
0.446662,-0.393172,2.536,2.60488
0.454894,-0.393172,2.536,2.6063
0.463125,-0.393172,2.536,2.60775
0.471356,-0.393172,2.536,2.60923
0.479587,-0.393172,2.536,2.61072
0.487819,-0.393172,2.536,2.61225
0.49605,-0.393172,2.536,2.6138
0.504281,-0.393172,2.536,2.61537
0.508672,-0.390226,2.517,2.59737
0.516842,-0.390226,2.517,2.59898
0.525012,-0.390226,2.517,2.60062
0.533181,-0.390226,2.517,2.60228
0.541351,-0.390226,2.517,2.60396
0.54952,-0.390226,2.517,2.60567
0.55769,-0.390226,2.517,2.60741
0.570131,-0.393172,2.536,2.62886
0.578362,-0.393172,2.536,2.63066
0.586593,-0.393172,2.536,2.63248
0.594824,-0.393172,2.536,2.63433
0.603056,-0.393172,2.536,2.6362
0.611287,-0.393172,2.536,2.6381
0.619518,-0.393172,2.536,2.64002
0.627749,-0.393172,2.536,2.64196
0.631216,-0.390226,2.517,2.62412
0.639385,-0.390226,2.517,2.6261
0.647555,-0.390226,2.517,2.6281
0.655725,-0.390226,2.517,2.63012
0.663894,-0.390226,2.517,2.63217
0.672064,-0.390226,2.517,2.63424
0.680233,-0.390226,2.517,2.63634
0.688403,-0.390226,2.517,2.63846
0.696572,-0.390226,2.517,2.6406
0.704742,-0.390226,2.517,2.64277
0.712911,-0.390226,2.517,2.64496
0.721081,-0.390226,2.517,2.64717
0.729251,-0.390226,2.517,2.64941
0.73742,-0.390226,2.517,2.65167
0.74559,-0.390226,2.517,2.65395
0.753759,-0.390226,2.517,2.65626
0.761929,-0.390226,2.517,2.65859
0.770098,-0.390226,2.517,2.66094
0.772702,-0.387436,2.499,2.64427
0.780813,-0.387436,2.499,2.64665
0.788924,-0.387436,2.499,2.64906
0.802777,-0.390226,2.517,2.67058
0.810946,-0.390226,2.517,2.67305
0.819116,-0.390226,2.517,2.67554
0.827285,-0.390226,2.517,2.67805
0.835455,-0.390226,2.517,2.68059
0.843624,-0.390226,2.517,2.68315
0.851794,-0.390226,2.517,2.68573
0.859963,-0.390226,2.517,2.68833
0.861925,-0.387436,2.499,2.67171
0.870036,-0.387436,2.499,2.67434
0.878147,-0.387436,2.499,2.67699
0.886258,-0.387436,2.499,2.67966
0.887927,-0.384645,2.481,2.66303
0.89598,-0.384645,2.481,2.66573
0.904033,-0.384645,2.481,2.66844
0.912085,-0.384645,2.481,2.67118
0.913462,-0.381854,2.463,2.65454
0.921457,-0.381854,2.463,2.6573
0.929451,-0.381854,2.463,2.66009
0.930594,-0.379064,2.445,2.64343
0.93853,-0.379064,2.445,2.64623
0.946466,-0.379064,2.445,2.64906
0.954402,-0.379064,2.445,2.6519
0.962338,-0.379064,2.445,2.65477
0.970273,-0.379064,2.445,2.65766
0.978209,-0.379064,2.445,2.66057
0.979289,-0.376428,2.428,2.64497
0.987169,-0.376428,2.428,2.6479
0.99505,-0.376428,2.428,2.65085
1.00293,-0.376428,2.428,2.65382
1.02538,-0.381854,2.463,2.69511
1.03338,-0.381854,2.463,2.69816
nan,nan,nan,NaN
nan,nan,nan,NaN
nan,nan,nan,NaN
1.19425,-0.428055,2.761,3.03852
1.20321,-0.428055,2.761,3.04205
1.27364,-0.44976,2.901,3.20004
1.28306,-0.44976,2.901,3.2038
1.30361,-0.453636,2.926,3.23522
1.32433,-0.457512,2.951,3.26674
1.3339,-0.457512,2.951,3.27063
1.34348,-0.457512,2.951,3.27455
1.36498,-0.461543,2.977,3.30737
1.38665,-0.465574,3.003,3.34029
1.3964,-0.465574,3.003,3.34435
1.39397,-0.461543,2.977,3.31944
1.40363,-0.461543,2.977,3.32351
1.41329,-0.461543,2.977,3.3276
1.42296,-0.461543,2.977,3.33172
1.43262,-0.461543,2.977,3.33586
1.41757,-0.453636,2.926,3.2828
1.42707,-0.453636,2.926,3.28691
1.43657,-0.453636,2.926,3.29105
nan,nan,nan,NaN
1.44313,-0.44976,2.901,3.27119
1.45254,-0.44976,2.901,3.27536
1.46196,-0.44976,2.901,3.27954
1.47137,-0.44976,2.901,3.28375
1.48079,-0.44976,2.901,3.28798
1.51589,-0.457512,2.951,3.34898
1.52547,-0.457512,2.951,3.35332
1.5621,-0.465574,3.003,3.41686
1.61424,-0.478132,3.084,3.51361
1.66954,-0.491465,3.17,3.61633
1.67983,-0.491465,3.17,3.62109
1.77223,-0.515341,3.324,3.80202
1.78302,-0.515341,3.324,3.80706
1.79381,-0.515341,3.324,3.81212
1.85834,-0.530689,3.423,3.9309
1.88857,-0.536116,3.458,3.97641
1.9388,-0.547123,3.529,4.06351
1.95025,-0.547123,3.529,4.06899
1.98227,-0.552859,3.566,4.11721
1.99385,-0.552859,3.566,4.1228
2.00542,-0.552859,3.566,4.12841
2.03849,-0.558751,3.604,4.17809
2.05019,-0.558751,3.604,4.18381
2.06189,-0.558751,3.604,4.18956
2.07358,-0.558751,3.604,4.19533
2.08528,-0.558751,3.604,4.20112
2.09698,-0.558751,3.604,4.20694
2.08644,-0.552859,3.566,4.16836
2.09802,-0.552859,3.566,4.17417
2.10959,-0.552859,3.566,4.18
2.09916,-0.547123,3.529,4.14242
2.04722,-0.530689,3.423,4.02364
2.05833,-0.530689,3.423,4.0293
2.04888,-0.525418,3.389,3.99491
2.03982,-0.520302,3.356,3.96161
2.05072,-0.520302,3.356,3.96723
2.04195,-0.515341,3.324,3.93499
1.99469,-0.500767,3.23,3.82916
2.00517,-0.500767,3.23,3.83463
1.96012,-0.486969,3.141,3.73431
1.97031,-0.486969,3.141,3.73967
nan,nan,nan,NaN
1.90324,-0.465574,3.003,3.58568
1.86394,-0.453636,2.926,3.49879
1.87343,-0.453636,2.926,3.50386
1.83595,-0.442319,2.853,3.4214
1.81482,-0.435032,2.806,3.36993
1.82392,-0.435032,2.806,3.37485
1.80364,-0.428055,2.761,3.32558
1.79815,-0.424644,2.739,3.30391
1.80704,-0.424644,2.739,3.30875
1.80135,-0.421234,2.717,3.287
1.78218,-0.414722,2.675,3.24096
1.77681,-0.411466,2.654,3.22026
1.78542,-0.411466,2.654,3.22502
1.79404,-0.411466,2.654,3.2298
1.7748,-0.40511,2.613,3.18462
-2.37465,-0.519582,3.423,4.19831
-2.36354,-0.519582,3.423,4.19204
-2.35243,-0.519582,3.423,4.18579
-2.34132,-0.519582,3.423,4.17955
-2.33021,-0.519582,3.423,4.17334
-2.3191,-0.519582,3.423,4.16715
-2.26281,-0.509412,3.356,4.07953
-2.25192,-0.509412,3.356,4.0735
-2.24102,-0.509412,3.356,4.06748
-2.23013,-0.509412,3.356,4.06149
-2.19808,-0.504555,3.324,4.01685
-2.18729,-0.504555,3.324,4.01096
-2.1765,-0.504555,3.324,4.00509
-2.18656,-0.509412,3.356,4.03773
-2.17567,-0.509412,3.356,4.03184
-2.16478,-0.509412,3.356,4.02598
-2.15388,-0.509412,3.356,4.02013
-2.14299,-0.509412,3.356,4.01431
-2.15306,-0.514421,3.389,4.04792
-2.14206,-0.514421,3.389,4.04208
-2.13106,-0.514421,3.389,4.03626
-2.12006,-0.514421,3.389,4.03046
-2.10906,-0.514421,3.389,4.02469
-2.07763,-0.509412,3.356,3.9798
-2.06674,-0.509412,3.356,3.97412
-2.07606,-0.514421,3.389,4.00749
-2.06506,-0.514421,3.389,4.0018
-2.03406,-0.509412,3.356,3.95723
-2.02317,-0.509412,3.356,3.95164
-2.01228,-0.509412,3.356,3.94607
-2.02106,-0.514421,3.389,3.97928
nan,nan,nan,NaN
nan,nan,nan,NaN
nan,nan,nan,NaN
nan,nan,nan,NaN
nan,nan,nan,NaN
nan,nan,nan,NaN
nan,nan,nan,NaN
nan,nan,nan,NaN
nan,nan,nan,NaN
nan,nan,nan,NaN
nan,nan,nan,NaN
nan,nan,nan,NaN
nan,nan,nan,NaN
nan,nan,nan,NaN
nan,nan,nan,NaN
nan,nan,nan,NaN
nan,nan,nan,NaN
