-1.81565,-0.154029,2.829,3.36505
-1.79179,-0.152777,2.806,3.33279
-1.78268,-0.152777,2.806,3.3279
-1.75903,-0.151524,2.783,3.29579
-1.75,-0.151524,2.783,3.29098
-1.74097,-0.151524,2.783,3.28619
-1.71824,-0.150326,2.761,3.25547
-1.70928,-0.150326,2.761,3.25075
-1.70032,-0.150326,2.761,3.24604
-1.69136,-0.150326,2.761,3.24136
-1.6824,-0.150326,2.761,3.23669
-1.6601,-0.149129,2.739,3.20629
-1.65121,-0.149129,2.739,3.2017
-1.64232,-0.149129,2.739,3.19712
-1.63343,-0.149129,2.739,3.19256
-1.62454,-0.149129,2.739,3.18802
-1.61565,-0.149129,2.739,3.1835
-1.60676,-0.149129,2.739,3.179
-1.59787,-0.149129,2.739,3.17452
-1.60174,-0.150326,2.761,3.19551
-1.59278,-0.150326,2.761,3.19103
-1.60963,-0.152777,2.806,3.2385
nan,nan,nan,NaN
nan,nan,nan,NaN
nan,nan,nan,NaN
nan,nan,nan,NaN
nan,nan,nan,NaN
nan,nan,nan,NaN
nan,nan,nan,NaN
nan,nan,nan,NaN
nan,nan,nan,NaN
nan,nan,nan,NaN
nan,nan,nan,NaN
nan,nan,nan,NaN
nan,nan,nan,NaN
nan,nan,nan,NaN
nan,nan,nan,NaN
nan,nan,nan,NaN
nan,nan,nan,NaN
nan,nan,nan,NaN
nan,nan,nan,NaN
nan,nan,nan,NaN
nan,nan,nan,NaN
nan,nan,nan,NaN
nan,nan,nan,NaN
nan,nan,nan,NaN
nan,nan,nan,NaN
-1.23144,-0.137042,2.517,2.80545
-1.22327,-0.137042,2.517,2.80187
-1.2151,-0.137042,2.517,2.79831
-1.20693,-0.137042,2.517,2.79477
-1.19876,-0.137042,2.517,2.79126
-1.18208,-0.136061,2.499,2.76782
-1.16551,-0.135081,2.481,2.74445
-1.15746,-0.135081,2.481,2.74104
-1.14107,-0.134101,2.463,2.71779
-1.12479,-0.133121,2.445,2.69461
-1.10909,-0.132196,2.428,2.67259
-1.10121,-0.132196,2.428,2.66933
-1.09333,-0.132196,2.428,2.66609
-1.07785,-0.13127,2.411,2.64422
-1.07003,-0.13127,2.411,2.64104
-1.0622,-0.13127,2.411,2.63788
-1.05437,-0.13127,2.411,2.63474
-1.04655,-0.13127,2.411,2.63162
-1.0314,-0.130345,2.394,2.60998
-1.02363,-0.130345,2.394,2.60692
-1.00865,-0.129419,2.377,2.58539
-1.00093,-0.129419,2.377,2.58239
-0.993215,-0.129419,2.377,2.57941
-0.9855,-0.129419,2.377,2.57645
-0.977785,-0.129419,2.377,2.57351
-0.970069,-0.129419,2.377,2.57059
-0.962354,-0.129419,2.377,2.56768
-0.954639,-0.129419,2.377,2.5648
-0.946924,-0.129419,2.377,2.56194
-0.932887,-0.128548,2.361,2.54187
-0.925224,-0.128548,2.361,2.53907
-0.91756,-0.128548,2.361,2.53629
-0.909897,-0.128548,2.361,2.53353
-0.902234,-0.128548,2.361,2.53078
-0.894571,-0.128548,2.361,2.52806
-0.886907,-0.128548,2.361,2.52536
-0.879244,-0.128548,2.361,2.52268
-0.871581,-0.128548,2.361,2.52002
-0.863918,-0.128548,2.361,2.51738
-0.850452,-0.127677,2.345,2.49772
-0.842841,-0.127677,2.345,2.49514
-0.835229,-0.127677,2.345,2.49258
-0.827618,-0.127677,2.345,2.49004
-0.820007,-0.127677,2.345,2.48752
-0.812395,-0.127677,2.345,2.48502
-0.804784,-0.127677,2.345,2.48254
-0.797173,-0.127677,2.345,2.48008
-0.789562,-0.127677,2.345,2.47765
-0.776615,-0.126806,2.329,2.45834
-0.769056,-0.126806,2.329,2.45597
-0.761496,-0.126806,2.329,2.45361
-0.753937,-0.126806,2.329,2.45127
-0.751505,-0.127677,2.345,2.46578
-0.743894,-0.127677,2.345,2.46347
-0.736283,-0.127677,2.345,2.46119
-0.728671,-0.127677,2.345,2.45892
-0.72106,-0.127677,2.345,2.45668
-0.713449,-0.127677,2.345,2.45445
-0.705837,-0.127677,2.345,2.45225
-0.70299,-0.128548,2.361,2.46679
-0.695327,-0.128548,2.361,2.46461
-0.687664,-0.128548,2.361,2.46246
-0.68,-0.128548,2.361,2.46033
-0.672337,-0.128548,2.361,2.45823
-0.664674,-0.128548,2.361,2.45614
-0.661463,-0.129419,2.377,2.47071
-0.653748,-0.129419,2.377,2.46866
-0.646033,-0.129419,2.377,2.46662
-0.638318,-0.129419,2.377,2.46462
-0.630603,-0.129419,2.377,2.46263
-0.622887,-0.129419,2.377,2.46066
-0.615172,-0.129419,2.377,2.45872
-0.611802,-0.130345,2.394,2.47437
-0.604031,-0.130345,2.394,2.47246
-0.596261,-0.130345,2.394,2.47058
-0.588491,-0.130345,2.394,2.46871
-0.58072,-0.130345,2.394,2.46687
-0.57295,-0.130345,2.394,2.46506
-0.56518,-0.130345,2.394,2.46326
-0.561368,-0.13127,2.411,2.47897
-0.553542,-0.13127,2.411,2.47721
-0.545717,-0.13127,2.411,2.47547
-0.537891,-0.13127,2.411,2.47376
-0.530066,-0.13127,2.411,2.47207
-0.52224,-0.13127,2.411,2.4704
-0.514415,-0.13127,2.411,2.46876
-0.506589,-0.13127,2.411,2.46714
-0.498764,-0.13127,2.411,2.46555
-0.490938,-0.13127,2.411,2.46398
-0.483112,-0.13127,2.411,2.46243
-0.478638,-0.132196,2.428,2.47826
-0.470758,-0.132196,2.428,2.47675
-0.462877,-0.132196,2.428,2.47526
-0.454996,-0.132196,2.428,2.4738
-0.447115,-0.132196,2.428,2.47236
-0.439235,-0.132196,2.428,2.47095
-0.431354,-0.132196,2.428,2.46956
-0.423473,-0.132196,2.428,2.4682
-0.415593,-0.132196,2.428,2.46686
-0.410567,-0.133121,2.445,2.4828
-0.402631,-0.133121,2.445,2.4815
-0.394695,-0.133121,2.445,2.48023
-0.386759,-0.133121,2.445,2.47898
-0.378823,-0.133121,2.445,2.47775
-0.370887,-0.133121,2.445,2.47655
-0.365624,-0.134101,2.463,2.4936
-0.357629,-0.134101,2.463,2.49244
-0.349635,-0.134101,2.463,2.4913
-0.341641,-0.134101,2.463,2.4902
-0.333646,-0.134101,2.463,2.48911
-0.325652,-0.134101,2.463,2.48805
-0.317658,-0.134101,2.463,2.48702
-0.309664,-0.134101,2.463,2.48601
-0.301669,-0.134101,2.463,2.48503
-0.291529,-0.133121,2.445,2.46591
-0.283593,-0.133121,2.445,2.46499
-0.275657,-0.133121,2.445,2.46409
-0.267721,-0.133121,2.445,2.46321
-0.259785,-0.133121,2.445,2.46236
-0.251849,-0.133121,2.445,2.46154
-0.243914,-0.133121,2.445,2.46074
-0.235978,-0.133121,2.445,2.45997
-0.228042,-0.133121,2.445,2.45922
-0.220106,-0.133121,2.445,2.45849
-0.21217,-0.133121,2.445,2.4578
-0.204234,-0.133121,2.445,2.45712
-0.196298,-0.133121,2.445,2.45648
-0.188363,-0.133121,2.445,2.45586
-0.180427,-0.133121,2.445,2.45526
-0.172491,-0.133121,2.445,2.45469
-0.164555,-0.133121,2.445,2.45414
-0.15553,-0.132196,2.428,2.43657
-0.147649,-0.132196,2.428,2.43607
-0.139769,-0.132196,2.428,2.43561
-0.131888,-0.132196,2.428,2.43517
-0.124007,-0.132196,2.428,2.43476
-0.116127,-0.132196,2.428,2.43437
-0.108246,-0.132196,2.428,2.434
-0.100365,-0.132196,2.428,2.43367
-0.0924847,-0.132196,2.428,2.43335
-0.084604,-0.132196,2.428,2.43307
-0.0767233,-0.132196,2.428,2.43281
-0.0688426,-0.132196,2.428,2.43257
-0.0609619,-0.132196,2.428,2.43236
-0.0530812,-0.132196,2.428,2.43218
-0.0452005,-0.132196,2.428,2.43202
-0.0373199,-0.132196,2.428,2.43188
-0.0294392,-0.132196,2.428,2.43177
-0.0215585,-0.132196,2.428,2.43169
-0.0136778,-0.132196,2.428,2.43163
-0.00579712,-0.132196,2.428,2.4316
0.00208357,-0.132196,2.428,2.4316
0.00996425,-0.132196,2.428,2.43162
0.0178449,-0.132196,2.428,2.43166
0.0257256,-0.132196,2.428,2.43173
0.0336063,-0.132196,2.428,2.43183
0.041487,-0.132196,2.428,2.43195
0.0493677,-0.132196,2.428,2.4321
0.0572484,-0.132196,2.428,2.43227
0.065129,-0.132196,2.428,2.43247
0.0730097,-0.132196,2.428,2.43269
0.0808904,-0.132196,2.428,2.43294
0.0887711,-0.132196,2.428,2.43322
0.0966518,-0.132196,2.428,2.43352
0.104532,-0.132196,2.428,2.43384
0.112413,-0.132196,2.428,2.43419
0.120294,-0.132196,2.428,2.43457
0.128175,-0.132196,2.428,2.43497
0.136055,-0.132196,2.428,2.4354
0.143936,-0.132196,2.428,2.43585
0.151817,-0.132196,2.428,2.43633
0.159697,-0.132196,2.428,2.43683
0.167578,-0.132196,2.428,2.43736
0.175459,-0.132196,2.428,2.43792
0.183339,-0.132196,2.428,2.4385
0.192559,-0.133121,2.445,2.45618
0.200495,-0.133121,2.445,2.45682
0.208431,-0.133121,2.445,2.45748
0.216366,-0.133121,2.445,2.45816
0.224302,-0.133121,2.445,2.45887
0.230623,-0.132196,2.428,2.44251
0.238504,-0.132196,2.428,2.44327
0.24811,-0.133121,2.445,2.46116
0.256046,-0.133121,2.445,2.46197
0.262146,-0.132196,2.428,2.44569
0.270027,-0.132196,2.428,2.44654
0.277908,-0.132196,2.428,2.44743
0.285788,-0.132196,2.428,2.44833
0.293669,-0.132196,2.428,2.44927
0.299438,-0.13127,2.411,2.43307
0.307264,-0.13127,2.411,2.43404
0.315089,-0.13127,2.411,2.43504
0.322915,-0.13127,2.411,2.43607
0.328408,-0.130345,2.394,2.41993
0.336179,-0.130345,2.394,2.421
0.343949,-0.130345,2.394,2.42209
0.351719,-0.130345,2.394,2.42321
0.35949,-0.130345,2.394,2.42435
0.36726,-0.130345,2.394,2.42551
0.37503,-0.130345,2.394,2.4267
0.382801,-0.130345,2.394,2.42791
0.390571,-0.130345,2.394,2.42915
0.398341,-0.130345,2.394,2.43041
0.406112,-0.130345,2.394,2.4317
0.413882,-0.130345,2.394,2.43301
0.424646,-0.13127,2.411,2.45163
0.432472,-0.13127,2.411,2.453
0.440297,-0.13127,2.411,2.45439
0.448123,-0.13127,2.411,2.4558
0.455948,-0.13127,2.411,2.45724
0.463774,-0.13127,2.411,2.45871
0.471599,-0.13127,2.411,2.46019
0.479425,-0.13127,2.411,2.46171
0.48725,-0.13127,2.411,2.46324
0.495076,-0.13127,2.411,2.4648
0.502901,-0.13127,2.411,2.46639
0.514328,-0.132196,2.428,2.4854
0.522209,-0.132196,2.428,2.48704
0.530089,-0.132196,2.428,2.48871
0.53797,-0.132196,2.428,2.4904
0.545851,-0.132196,2.428,2.49211
0.557609,-0.133121,2.445,2.51131
0.565544,-0.133121,2.445,2.51308
0.57348,-0.133121,2.445,2.51488
0.581416,-0.133121,2.445,2.5167
0.589352,-0.133121,2.445,2.51855
0.597288,-0.133121,2.445,2.52042
0.605224,-0.133121,2.445,2.52231
0.61316,-0.133121,2.445,2.52422
0.621095,-0.133121,2.445,2.52616
0.629031,-0.133121,2.445,2.52813
0.636967,-0.133121,2.445,2.53011
0.644903,-0.133121,2.445,2.53212
0.652839,-0.133121,2.445,2.53416
0.660775,-0.133121,2.445,2.53621
0.668711,-0.133121,2.445,2.53829
0.676647,-0.133121,2.445,2.54039
0.684582,-0.133121,2.445,2.54252
0.692518,-0.133121,2.445,2.54467
0.700454,-0.133121,2.445,2.54684
0.713605,-0.134101,2.463,2.5678
0.721599,-0.134101,2.463,2.57003
0.729594,-0.134101,2.463,2.57229
0.737588,-0.134101,2.463,2.57457
0.745582,-0.134101,2.463,2.57687
0.753577,-0.134101,2.463,2.57919
0.767137,-0.135081,2.481,2.60041
0.775189,-0.135081,2.481,2.60279
0.783242,-0.135081,2.481,2.6052
0.791295,-0.135081,2.481,2.60763
0.799347,-0.135081,2.481,2.61009
0.8074,-0.135081,2.481,2.61257
0.815453,-0.135081,2.481,2.61507
0.823505,-0.135081,2.481,2.61759
0.837591,-0.136061,2.499,2.63914
0.839611,-0.135081,2.481,2.6227
0.847664,-0.135081,2.481,2.62529
0.855716,-0.135081,2.481,2.6279
0.863769,-0.135081,2.481,2.63053
0.865497,-0.134101,2.463,2.61408
0.873491,-0.134101,2.463,2.61674
0.875043,-0.133121,2.445,2.60028
0.87684,-0.132196,2.428,2.58486
0.88472,-0.132196,2.428,2.58755
0.892601,-0.132196,2.428,2.59025
0.894177,-0.13127,2.411,2.57482
0.895642,-0.130345,2.394,2.55938
0.903413,-0.130345,2.394,2.5621
0.904712,-0.129419,2.377,2.54664
0.900144,-0.127677,2.345,2.51507
0.907756,-0.127677,2.345,2.51781
0.909121,-0.126806,2.329,2.50336
0.904479,-0.125118,2.298,2.47276
0.911938,-0.125118,2.298,2.4755
0.912995,-0.124247,2.282,2.461
0.920402,-0.124247,2.282,2.46376
0.927809,-0.124247,2.282,2.46653
0.935216,-0.124247,2.282,2.46933
0.942623,-0.124247,2.282,2.47214
0.950029,-0.124247,2.282,2.47498
0.957436,-0.124247,2.282,2.47783
0.984715,-0.126806,2.329,2.53179
nan,nan,nan,NaN
nan,nan,nan,NaN
nan,nan,nan,NaN
nan,nan,nan,NaN
nan,nan,nan,NaN
nan,nan,nan,NaN
nan,nan,nan,NaN
nan,nan,nan,NaN
nan,nan,nan,NaN
nan,nan,nan,NaN
nan,nan,nan,NaN
nan,nan,nan,NaN
nan,nan,nan,NaN
nan,nan,nan,NaN
nan,nan,nan,NaN
nan,nan,nan,NaN
nan,nan,nan,NaN
nan,nan,nan,NaN
nan,nan,nan,NaN
nan,nan,nan,NaN
nan,nan,nan,NaN
nan,nan,nan,NaN
nan,nan,nan,NaN
nan,nan,nan,NaN
nan,nan,nan,NaN
nan,nan,nan,NaN
nan,nan,nan,NaN
nan,nan,nan,NaN
nan,nan,nan,NaN
1.76288,-0.184519,3.389,3.82454
1.77388,-0.184519,3.389,3.82963
1.78488,-0.184519,3.389,3.83473
1.79588,-0.184519,3.389,3.83987
1.82501,-0.18637,3.423,3.8836
1.83612,-0.18637,3.423,3.88883
1.86612,-0.188276,3.458,3.93391
1.87734,-0.188276,3.458,3.93924
1.88857,-0.188276,3.458,3.9446
1.91902,-0.190181,3.493,3.98997
1.93036,-0.190181,3.493,3.99543
1.94169,-0.190181,3.493,4.00092
1.95303,-0.190181,3.493,4.00644
1.94469,-0.188276,3.458,3.97178
1.95591,-0.188276,3.458,3.97729
1.96713,-0.188276,3.458,3.98282
1.97836,-0.188276,3.458,3.98837
1.96944,-0.18637,3.423,3.95353
1.98055,-0.18637,3.423,3.95907
1.99166,-0.18637,3.423,3.96464
1.98288,-0.184519,3.389,3.9308
1.95564,-0.18098,3.324,3.86086
1.96643,-0.18098,3.324,3.86634
1.97722,-0.18098,3.324,3.87184
1.94973,-0.177495,3.26,3.8027
1.96031,-0.177495,3.26,3.80814
1.95275,-0.175862,3.23,3.7785
1.92677,-0.172595,3.17,3.71364
1.93706,-0.172595,3.17,3.71899
1.91172,-0.169437,3.112,3.65622
1.90453,-0.167913,3.084,3.62856
1.91454,-0.167913,3.084,3.63383
1.9077,-0.166443,3.057,3.60725
1.90068,-0.164973,3.03,3.5806
1.91052,-0.164973,3.03,3.58583
1.88676,-0.162087,2.977,3.52827
1.86394,-0.15931,2.926,3.47291
1.84206,-0.156642,2.877,3.41977
1.8514,-0.156642,2.877,3.42481
1.84521,-0.155336,2.853,3.40126
1.82392,-0.152777,2.806,3.35018
1.83303,-0.152777,2.806,3.35514
1.8126,-0.150326,2.761,3.30624
1.79253,-0.147931,2.717,3.25839
1.80135,-0.147931,2.717,3.26325
1.78218,-0.145644,2.675,3.21761
1.76275,-0.143357,2.633,3.17183
1.77129,-0.143357,2.633,3.17659
1.7528,-0.141179,2.593,3.13303
1.74831,-0.140145,2.574,3.11476
-2.1589,-0.159339,3.112,3.79088
-2.12946,-0.157906,3.084,3.75108
-2.11945,-0.157906,3.084,3.74541
-2.10944,-0.157906,3.084,3.73975
-2.06267,-0.155141,3.03,3.66873
-2.05284,-0.155141,3.03,3.66321
-2.0248,-0.153758,3.003,3.62511
-1.9976,-0.152427,2.977,3.58834
-1.98794,-0.152427,2.977,3.58297
-1.961,-0.151096,2.951,3.54637
-1.93489,-0.149816,2.926,3.51109
-1.89315,-0.147307,2.877,3.44715
-1.88381,-0.147307,2.877,3.44203
-1.85884,-0.146078,2.853,3.40826
-1.83402,-0.144849,2.829,3.37459
-1.82484,-0.144849,2.829,3.36961
-1.81565,-0.144849,2.829,3.36464
-1.79179,-0.143672,2.806,3.33238
-1.78268,-0.143672,2.806,3.32749
-1.75903,-0.142494,2.783,3.29539
-1.75,-0.142494,2.783,3.29058
-1.74097,-0.142494,2.783,3.28578
-1.71824,-0.141367,2.761,3.25507
-1.70928,-0.141367,2.761,3.25035
-1.70032,-0.141367,2.761,3.24564
-1.69136,-0.141367,2.761,3.24096
-1.6824,-0.141367,2.761,3.23629
-1.6601,-0.140241,2.739,3.20589
-1.65121,-0.140241,2.739,3.20129
-1.64232,-0.140241,2.739,3.19672
-1.63343,-0.140241,2.739,3.19216
-1.62454,-0.140241,2.739,3.18762
-1.61565,-0.140241,2.739,3.1831
-1.61967,-0.141367,2.761,3.20413
-1.6107,-0.141367,2.761,3.19961
-1.61451,-0.142494,2.783,3.22056
-1.60547,-0.142494,2.783,3.21604
-1.60963,-0.143672,2.806,3.23809
nan,nan,nan,NaN
nan,nan,nan,NaN
nan,nan,nan,NaN
nan,nan,nan,NaN
nan,nan,nan,NaN
nan,nan,nan,NaN
nan,nan,nan,NaN
nan,nan,nan,NaN
nan,nan,nan,NaN
nan,nan,nan,NaN
nan,nan,nan,NaN
nan,nan,nan,NaN
nan,nan,nan,NaN
nan,nan,nan,NaN
nan,nan,nan,NaN
nan,nan,nan,NaN
nan,nan,nan,NaN
nan,nan,nan,NaN
nan,nan,nan,NaN
nan,nan,nan,NaN
nan,nan,nan,NaN
nan,nan,nan,NaN
nan,nan,nan,NaN
nan,nan,nan,NaN
-1.26769,-0.131793,2.574,2.87226
-1.23144,-0.128874,2.517,2.80506
-1.22327,-0.128874,2.517,2.80148
-1.2151,-0.128874,2.517,2.79792
-1.20693,-0.128874,2.517,2.79439
-1.19876,-0.128874,2.517,2.79087
-1.18208,-0.127953,2.499,2.76743
-1.16551,-0.127031,2.481,2.74407
-1.15746,-0.127031,2.481,2.74066
-1.14107,-0.126109,2.463,2.71741
-1.12479,-0.125188,2.445,2.69423
-1.10909,-0.124317,2.428,2.67221
-1.10121,-0.124317,2.428,2.66895
-1.09333,-0.124317,2.428,2.66571
-1.07785,-0.123447,2.411,2.64385
-1.07003,-0.123447,2.411,2.64067
-1.0622,-0.123447,2.411,2.6375
-1.05437,-0.123447,2.411,2.63436
-1.04655,-0.123447,2.411,2.63124
-1.0314,-0.122576,2.394,2.60961
-1.02363,-0.122576,2.394,2.60655
-1.00865,-0.121706,2.377,2.58502
-1.00093,-0.121706,2.377,2.58202
-0.993215,-0.121706,2.377,2.57903
-0.9855,-0.121706,2.377,2.57607
-0.977785,-0.121706,2.377,2.57313
-0.970069,-0.121706,2.377,2.57021
-0.962354,-0.121706,2.377,2.56731
-0.954639,-0.121706,2.377,2.56443
-0.946924,-0.121706,2.377,2.56156
-0.932887,-0.120887,2.361,2.5415
-0.925224,-0.120887,2.361,2.5387
-0.91756,-0.120887,2.361,2.53591
-0.909897,-0.120887,2.361,2.53315
-0.902234,-0.120887,2.361,2.53041
-0.894571,-0.120887,2.361,2.52768
-0.886907,-0.120887,2.361,2.52498
-0.879244,-0.120887,2.361,2.5223
-0.871581,-0.120887,2.361,2.51964
-0.863918,-0.120887,2.361,2.517
-0.850452,-0.120068,2.345,2.49734
-0.842841,-0.120068,2.345,2.49476
-0.835229,-0.120068,2.345,2.4922
-0.827618,-0.120068,2.345,2.48966
-0.820007,-0.120068,2.345,2.48714
-0.812395,-0.120068,2.345,2.48464
-0.804784,-0.120068,2.345,2.48216
-0.797173,-0.120068,2.345,2.4797
-0.789562,-0.120068,2.345,2.47727
-0.776615,-0.119248,2.329,2.45797
-0.769056,-0.119248,2.329,2.45559
-0.761496,-0.119248,2.329,2.45323
-0.753937,-0.119248,2.329,2.45089
-0.751505,-0.120068,2.345,2.4654
-0.743894,-0.120068,2.345,2.46309
-0.736283,-0.120068,2.345,2.4608
-0.728671,-0.120068,2.345,2.45854
-0.72598,-0.120887,2.361,2.47305
-0.718317,-0.120887,2.361,2.47081
-0.710653,-0.120887,2.361,2.4686
-0.70299,-0.120887,2.361,2.4664
-0.695327,-0.120887,2.361,2.46423
-0.687664,-0.120887,2.361,2.46208
-0.68,-0.120887,2.361,2.45995
-0.672337,-0.120887,2.361,2.45784
-0.664674,-0.120887,2.361,2.45575
-0.661463,-0.121706,2.377,2.47032
-0.653748,-0.121706,2.377,2.46826
-0.646033,-0.121706,2.377,2.46623
-0.638318,-0.121706,2.377,2.46422
-0.630603,-0.121706,2.377,2.46223
-0.622887,-0.121706,2.377,2.46027
-0.615172,-0.121706,2.377,2.45833
-0.607457,-0.121706,2.377,2.45641
-0.599742,-0.121706,2.377,2.45451
-0.592027,-0.121706,2.377,2.45264
-0.588491,-0.122576,2.394,2.46832
-0.58072,-0.122576,2.394,2.46647
-0.57295,-0.122576,2.394,2.46466
-0.56518,-0.122576,2.394,2.46286
-0.557409,-0.122576,2.394,2.46109
-0.553542,-0.123447,2.411,2.47681
-0.545717,-0.123447,2.411,2.47507
-0.537891,-0.123447,2.411,2.47336
-0.530066,-0.123447,2.411,2.47167
-0.52224,-0.123447,2.411,2.47
-0.514415,-0.123447,2.411,2.46836
-0.506589,-0.123447,2.411,2.46674
-0.498764,-0.123447,2.411,2.46514
-0.490938,-0.123447,2.411,2.46357
-0.483112,-0.123447,2.411,2.46202
-0.475287,-0.123447,2.411,2.4605
-0.467461,-0.123447,2.411,2.459
-0.462877,-0.124317,2.428,2.47485
-0.454996,-0.124317,2.428,2.47339
-0.447115,-0.124317,2.428,2.47195
-0.439235,-0.124317,2.428,2.47054
-0.431354,-0.124317,2.428,2.46915
-0.423473,-0.124317,2.428,2.46779
-0.415593,-0.124317,2.428,2.46645
-0.407712,-0.124317,2.428,2.46513
-0.402631,-0.125188,2.445,2.48109
-0.394695,-0.125188,2.445,2.47981
-0.386759,-0.125188,2.445,2.47856
-0.378823,-0.125188,2.445,2.47734
-0.370887,-0.125188,2.445,2.47614
-0.362952,-0.125188,2.445,2.47496
-0.355016,-0.125188,2.445,2.47381
-0.34708,-0.125188,2.445,2.47268
-0.341641,-0.126109,2.463,2.48978
-0.333646,-0.126109,2.463,2.48869
-0.325652,-0.126109,2.463,2.48763
-0.315336,-0.125188,2.445,2.46843
-0.3074,-0.125188,2.445,2.46743
-0.299465,-0.125188,2.445,2.46645
-0.291529,-0.125188,2.445,2.4655
-0.283593,-0.125188,2.445,2.46457
-0.275657,-0.125188,2.445,2.46367
-0.267721,-0.125188,2.445,2.4628
-0.259785,-0.125188,2.445,2.46195
-0.251849,-0.125188,2.445,2.46112
-0.243914,-0.125188,2.445,2.46032
-0.235978,-0.125188,2.445,2.45955
-0.228042,-0.125188,2.445,2.4588
-0.220106,-0.125188,2.445,2.45808
-0.21217,-0.125188,2.445,2.45738
-0.204234,-0.125188,2.445,2.45671
-0.196298,-0.125188,2.445,2.45606
-0.188363,-0.125188,2.445,2.45544
-0.180427,-0.125188,2.445,2.45484
-0.172491,-0.125188,2.445,2.45427
-0.164555,-0.125188,2.445,2.45373
-0.15553,-0.124317,2.428,2.43615
-0.147649,-0.124317,2.428,2.43566
-0.139769,-0.124317,2.428,2.4352
-0.131888,-0.124317,2.428,2.43476
-0.124007,-0.124317,2.428,2.43434
-0.116127,-0.124317,2.428,2.43395
-0.108246,-0.124317,2.428,2.43359
-0.100365,-0.124317,2.428,2.43325
-0.0924847,-0.124317,2.428,2.43294
-0.084604,-0.124317,2.428,2.43265
-0.0767233,-0.124317,2.428,2.43239
-0.0688426,-0.124317,2.428,2.43216
-0.0609619,-0.124317,2.428,2.43194
-0.0530812,-0.124317,2.428,2.43176
-0.0452005,-0.124317,2.428,2.4316
-0.0373199,-0.124317,2.428,2.43147
-0.0294392,-0.124317,2.428,2.43136
-0.0215585,-0.124317,2.428,2.43128
-0.0136778,-0.124317,2.428,2.43122
-0.00579712,-0.124317,2.428,2.43119
0.00208357,-0.124317,2.428,2.43118
0.00996425,-0.124317,2.428,2.4312
0.0178449,-0.124317,2.428,2.43125
0.0257256,-0.124317,2.428,2.43132
0.0336063,-0.124317,2.428,2.43141
0.041487,-0.124317,2.428,2.43153
0.0493677,-0.124317,2.428,2.43168
0.0572484,-0.124317,2.428,2.43185
0.065129,-0.124317,2.428,2.43205
0.0730097,-0.124317,2.428,2.43228
0.0808904,-0.124317,2.428,2.43253
0.0887711,-0.124317,2.428,2.4328
0.0966518,-0.124317,2.428,2.4331
0.104532,-0.124317,2.428,2.43343
0.112413,-0.124317,2.428,2.43378
0.120294,-0.124317,2.428,2.43415
0.128175,-0.124317,2.428,2.43456
0.136055,-0.124317,2.428,2.43498
0.143936,-0.124317,2.428,2.43544
0.151817,-0.124317,2.428,2.43592
0.159697,-0.124317,2.428,2.43642
0.167578,-0.124317,2.428,2.43695
0.175459,-0.124317,2.428,2.4375
0.183339,-0.124317,2.428,2.43808
0.192559,-0.125188,2.445,2.45576
0.200495,-0.125188,2.445,2.4564
0.208431,-0.125188,2.445,2.45706
0.216366,-0.125188,2.445,2.45775
0.224302,-0.125188,2.445,2.45846
0.230623,-0.124317,2.428,2.44209
0.238504,-0.124317,2.428,2.44285
0.246385,-0.124317,2.428,2.44363
0.254265,-0.124317,2.428,2.44444
0.262146,-0.124317,2.428,2.44527
0.270027,-0.124317,2.428,2.44613
0.277908,-0.124317,2.428,2.44701
0.283787,-0.123447,2.411,2.43078
0.291613,-0.123447,2.411,2.43171
0.299438,-0.123447,2.411,2.43266
0.307264,-0.123447,2.411,2.43363
0.315089,-0.123447,2.411,2.43463
0.320638,-0.122576,2.394,2.41849
0.328408,-0.122576,2.394,2.41953
0.336179,-0.122576,2.394,2.42059
0.343949,-0.122576,2.394,2.42169
0.351719,-0.122576,2.394,2.4228
0.35949,-0.122576,2.394,2.42394
0.36726,-0.122576,2.394,2.42511
0.37503,-0.122576,2.394,2.4263
0.382801,-0.122576,2.394,2.42751
0.390571,-0.122576,2.394,2.42875
0.398341,-0.122576,2.394,2.43001
0.406112,-0.122576,2.394,2.43129
0.413882,-0.122576,2.394,2.4326
0.421652,-0.122576,2.394,2.43394
0.429423,-0.122576,2.394,2.4353
0.437193,-0.122576,2.394,2.43668
0.448123,-0.123447,2.411,2.4554
0.455948,-0.123447,2.411,2.45684
0.460504,-0.122576,2.394,2.44097
0.468274,-0.122576,2.394,2.44245
0.476045,-0.122576,2.394,2.44395
0.483815,-0.122576,2.394,2.44547
0.495076,-0.123447,2.411,2.4644
0.502901,-0.123447,2.411,2.46598
0.510727,-0.123447,2.411,2.46759
0.518552,-0.123447,2.411,2.46922
0.530089,-0.124317,2.428,2.4883
0.53797,-0.124317,2.428,2.48999
0.545851,-0.124317,2.428,2.4917
0.553732,-0.124317,2.428,2.49344
0.561612,-0.124317,2.428,2.4952
0.569493,-0.124317,2.428,2.49699
0.577374,-0.124317,2.428,2.4988
0.585254,-0.124317,2.428,2.50063
0.597288,-0.125188,2.445,2.52001
0.605224,-0.125188,2.445,2.5219
0.61316,-0.125188,2.445,2.52382
0.621095,-0.125188,2.445,2.52576
0.629031,-0.125188,2.445,2.52772
0.636967,-0.125188,2.445,2.52971
0.644903,-0.125188,2.445,2.53172
0.652839,-0.125188,2.445,2.53375
0.660775,-0.125188,2.445,2.53581
0.668711,-0.125188,2.445,2.53789
0.676647,-0.125188,2.445,2.53999
0.684582,-0.125188,2.445,2.54212
0.692518,-0.125188,2.445,2.54426
0.700454,-0.125188,2.445,2.54644
0.713605,-0.126109,2.463,2.56739
0.721599,-0.126109,2.463,2.56963
0.729594,-0.126109,2.463,2.57188
0.737588,-0.126109,2.463,2.57416
0.745582,-0.126109,2.463,2.57646
0.753577,-0.126109,2.463,2.57879
0.767137,-0.127031,2.481,2.6
0.775189,-0.127031,2.481,2.60239
0.783242,-0.127031,2.481,2.6048
0.791295,-0.127031,2.481,2.60723
0.799347,-0.127031,2.481,2.60968
0.8074,-0.127031,2.481,2.61216
0.815453,-0.127031,2.481,2.61466
0.823505,-0.127031,2.481,2.61719
0.837591,-0.127953,2.499,2.63874
0.845702,-0.127953,2.499,2.64132
0.847664,-0.127031,2.481,2.62489
0.855716,-0.127031,2.481,2.6275
0.863769,-0.127031,2.481,2.63013
0.871822,-0.127031,2.481,2.63279
0.879874,-0.127031,2.481,2.63547
0.881485,-0.126109,2.463,2.61902
0.882979,-0.125188,2.445,2.60257
0.890915,-0.125188,2.445,2.60527
0.892601,-0.124317,2.428,2.58986
0.894177,-0.123447,2.411,2.57443
0.895642,-0.122576,2.394,2.55899
0.903413,-0.122576,2.394,2.56172
0.898623,-0.120887,2.361,2.52912
0.900144,-0.120068,2.345,2.5147
0.907756,-0.120068,2.345,2.51743
0.909121,-0.119248,2.329,2.50299
0.904479,-0.117661,2.298,2.47239
0.911938,-0.117661,2.298,2.47513
0.912995,-0.116842,2.282,2.46064
0.920402,-0.116842,2.282,2.4634
0.927809,-0.116842,2.282,2.46617
0.935216,-0.116842,2.282,2.46897
0.949232,-0.117661,2.298,2.48911
0.95669,-0.117661,2.298,2.49197
0.964149,-0.117661,2.298,2.49484
0.984715,-0.119248,2.329,2.53143
1.03445,-0.124317,2.428,2.64211
1.08054,-0.128874,2.517,2.74216
1.08871,-0.128874,2.517,2.74539
1.13872,-0.13379,2.613,2.85348
1.27364,-0.148536,2.901,3.17175
1.28306,-0.148536,2.901,3.17555
1.29247,-0.148536,2.901,3.17936
1.35978,-0.155141,3.03,3.32475
nan,nan,nan,NaN
1.45639,-0.163794,3.199,3.51873
1.46677,-0.163794,3.199,3.52305
1.49147,-0.165381,3.23,3.56156
1.50195,-0.165381,3.23,3.56597
1.51244,-0.165381,3.23,3.57039
1.52292,-0.165381,3.23,3.57485
1.54765,-0.166917,3.26,3.61257
1.54389,-0.165381,3.23,3.58383
1.55437,-0.165381,3.23,3.58836
1.56485,-0.165381,3.23,3.59291
1.57534,-0.165381,3.23,3.59749
1.58582,-0.165381,3.23,3.60209
1.59631,-0.165381,3.23,3.60672
1.60679,-0.165381,3.23,3.61137
1.60175,-0.163794,3.199,3.58135
1.61213,-0.163794,3.199,3.586
1.62252,-0.163794,3.199,3.59068
1.6329,-0.163794,3.199,3.59539
1.65921,-0.165381,3.23,3.635
1.70174,-0.168555,3.292,3.70966
1.71243,-0.168555,3.292,3.71458
1.73986,-0.170194,3.324,3.75567
1.7675,-0.171832,3.356,3.79689
1.7784,-0.171832,3.356,3.80197
1.78929,-0.171832,3.356,3.80708
1.81788,-0.173522,3.389,3.84969
1.86612,-0.177055,3.458,3.93338
1.87734,-0.177055,3.458,3.93872
1.88857,-0.177055,3.458,3.94408
1.91902,-0.178847,3.493,3.98945
1.93036,-0.178847,3.493,3.99491
1.94169,-0.178847,3.493,4.0004
1.95303,-0.178847,3.493,4.00592
1.94469,-0.177055,3.458,3.97126
1.95591,-0.177055,3.458,3.97677
1.96713,-0.177055,3.458,3.9823
1.97836,-0.177055,3.458,3.98786
1.96944,-0.175263,3.423,3.95302
1.98055,-0.175263,3.423,3.95857
1.99166,-0.175263,3.423,3.96414
1.98288,-0.173522,3.389,3.9303
1.95564,-0.170194,3.324,3.86037
1.96643,-0.170194,3.324,3.86585
1.97722,-0.170194,3.324,3.87135
1.94973,-0.166917,3.26,3.80222
1.96031,-0.166917,3.26,3.80766
1.95275,-0.165381,3.23,3.77803
1.92677,-0.162309,3.17,3.71318
1.93706,-0.162309,3.17,3.71853
1.91172,-0.159339,3.112,3.65576
1.90453,-0.157906,3.084,3.62811
1.91454,-0.157906,3.084,3.63338
1.9077,-0.156523,3.057,3.60681
1.90068,-0.155141,3.03,3.58016
1.91052,-0.155141,3.03,3.58539
1.88676,-0.152427,2.977,3.52784
1.86394,-0.149816,2.926,3.47249
1.84206,-0.147307,2.877,3.41936
1.8514,-0.147307,2.877,3.4244
1.84521,-0.146078,2.853,3.40085
1.82392,-0.143672,2.806,3.34977
1.83303,-0.143672,2.806,3.35474
1.8126,-0.141367,2.761,3.30585
1.79253,-0.139115,2.717,3.25801
1.80135,-0.139115,2.717,3.26287
1.78218,-0.136964,2.675,3.21723
1.76275,-0.134814,2.633,3.17146
1.77129,-0.134814,2.633,3.17622
1.7528,-0.132766,2.593,3.13267
1.74831,-0.131793,2.574,3.11439
-2.13947,-0.147898,3.084,3.75636
-2.11082,-0.146604,3.057,3.71784
-2.1009,-0.146604,3.057,3.71221
-2.07251,-0.145309,3.03,3.67387
-2.04429,-0.144014,3.003,3.63564
-2.03454,-0.144014,3.003,3.63017
-2.00727,-0.142767,2.977,3.59333
-1.98016,-0.14152,2.951,3.55661
-1.97058,-0.14152,2.951,3.55128
-1.94439,-0.140321,2.926,3.51594
-1.90249,-0.137971,2.877,3.4519
-1.87736,-0.13682,2.853,3.41801
-1.8681,-0.13682,2.853,3.41293
-1.8432,-0.135669,2.829,3.37921
-1.81911,-0.134567,2.806,3.34677
-1.81,-0.134567,2.806,3.34183
-1.80089,-0.134567,2.806,3.33691
-1.79179,-0.134567,2.806,3.332
-1.78268,-0.134567,2.806,3.32711
-1.75903,-0.133464,2.783,3.29501
-1.73617,-0.132408,2.761,3.26419
-1.7272,-0.132408,2.761,3.25943
-1.71824,-0.132408,2.761,3.25469
-1.69566,-0.131353,2.739,3.22407
-1.68677,-0.131353,2.739,3.21941
-1.67788,-0.131353,2.739,3.21476
-1.66899,-0.131353,2.739,3.21013
-1.6601,-0.131353,2.739,3.20551
-1.65121,-0.131353,2.739,3.20092
-1.64232,-0.131353,2.739,3.19634
-1.63343,-0.131353,2.739,3.19178
-1.62454,-0.131353,2.739,3.18724
-1.61565,-0.131353,2.739,3.18272
-1.61967,-0.132408,2.761,3.20374
-1.6107,-0.132408,2.761,3.19922
-1.61451,-0.133464,2.783,3.22018
-1.60547,-0.133464,2.783,3.21566
-1.60963,-0.134567,2.806,3.23769
nan,nan,nan,NaN
nan,nan,nan,NaN
nan,nan,nan,NaN
nan,nan,nan,NaN
nan,nan,nan,NaN
nan,nan,nan,NaN
nan,nan,nan,NaN
nan,nan,nan,NaN
nan,nan,nan,NaN
nan,nan,nan,NaN
nan,nan,nan,NaN
nan,nan,nan,NaN
nan,nan,nan,NaN
nan,nan,nan,NaN
nan,nan,nan,NaN
nan,nan,nan,NaN
nan,nan,nan,NaN
nan,nan,nan,NaN
nan,nan,nan,NaN
nan,nan,nan,NaN
nan,nan,nan,NaN
nan,nan,nan,NaN
-1.29387,-0.124352,2.593,2.90056
-1.28546,-0.124352,2.593,2.89681
-1.26769,-0.123441,2.574,2.87189
-1.24074,-0.121618,2.536,2.82587
-1.23251,-0.121618,2.536,2.82226
-1.22428,-0.121618,2.536,2.81868
-1.21605,-0.121618,2.536,2.81511
-1.20781,-0.121618,2.536,2.81157
-1.1906,-0.120707,2.517,2.787
-1.17397,-0.119844,2.499,2.76362
-1.15746,-0.118981,2.481,2.7403
-1.14941,-0.118981,2.481,2.73691
-1.13308,-0.118117,2.463,2.7137
-1.11686,-0.117254,2.445,2.69057
-1.10892,-0.117254,2.445,2.68728
-1.10099,-0.117254,2.445,2.68402
-1.08545,-0.116439,2.428,2.66213
-1.07757,-0.116439,2.428,2.65893
-1.06969,-0.116439,2.428,2.65574
-1.05437,-0.115624,2.411,2.63401
-1.04655,-0.115624,2.411,2.63088
-1.03872,-0.115624,2.411,2.62778
-1.02363,-0.114808,2.394,2.60619
-1.01586,-0.114808,2.394,2.60315
-1.00809,-0.114808,2.394,2.60013
-1.00032,-0.114808,2.394,2.59712
-0.992548,-0.114808,2.394,2.59414
-0.984778,-0.114808,2.394,2.59118
-0.977007,-0.114808,2.394,2.58823
-0.962354,-0.113993,2.377,2.56695
-0.954639,-0.113993,2.377,2.56407
-0.946924,-0.113993,2.377,2.56121
-0.939209,-0.113993,2.377,2.55837
-0.931494,-0.113993,2.377,2.55554
-0.923778,-0.113993,2.377,2.55274
-0.916063,-0.113993,2.377,2.54996
-0.902234,-0.113226,2.361,2.53005
-0.894571,-0.113226,2.361,2.52733
-0.886907,-0.113226,2.361,2.52463
-0.879244,-0.113226,2.361,2.52195
-0.871581,-0.113226,2.361,2.51928
-0.863918,-0.113226,2.361,2.51664
-0.850452,-0.112458,2.345,2.49699
-0.842841,-0.112458,2.345,2.4944
-0.835229,-0.112458,2.345,2.49184
-0.827618,-0.112458,2.345,2.4893
-0.820007,-0.112458,2.345,2.48678
-0.812395,-0.112458,2.345,2.48428
-0.804784,-0.112458,2.345,2.4818
-0.797173,-0.112458,2.345,2.47935
-0.789562,-0.112458,2.345,2.47691
-0.776615,-0.111691,2.329,2.45761
-0.769056,-0.111691,2.329,2.45523
-0.761496,-0.111691,2.329,2.45287
-0.753937,-0.111691,2.329,2.45054
-0.751505,-0.112458,2.345,2.46504
-0.743894,-0.112458,2.345,2.46273
-0.736283,-0.112458,2.345,2.46044
-0.733643,-0.113226,2.361,2.47495
-0.72598,-0.113226,2.361,2.47269
-0.718317,-0.113226,2.361,2.47045
-0.710653,-0.113226,2.361,2.46823
-0.70299,-0.113226,2.361,2.46604
-0.695327,-0.113226,2.361,2.46386
-0.687664,-0.113226,2.361,2.46171
-0.68,-0.113226,2.361,2.45958
-0.672337,-0.113226,2.361,2.45747
-0.664674,-0.113226,2.361,2.45539
-0.661463,-0.113993,2.377,2.46995
-0.653748,-0.113993,2.377,2.4679
-0.646033,-0.113993,2.377,2.46586
-0.638318,-0.113993,2.377,2.46385
-0.630603,-0.113993,2.377,2.46187
-0.622887,-0.113993,2.377,2.4599
-0.615172,-0.113993,2.377,2.45796
-0.607457,-0.113993,2.377,2.45604
-0.599742,-0.113993,2.377,2.45414
-0.592027,-0.113993,2.377,2.45227
-0.588491,-0.114808,2.394,2.46794
-0.58072,-0.114808,2.394,2.4661
-0.57295,-0.114808,2.394,2.46428
-0.56518,-0.114808,2.394,2.46249
-0.557409,-0.114808,2.394,2.46072
-0.553542,-0.115624,2.411,2.47643
-0.545717,-0.115624,2.411,2.47469
-0.537891,-0.115624,2.411,2.47298
-0.530066,-0.115624,2.411,2.47129
-0.52224,-0.115624,2.411,2.46962
-0.514415,-0.115624,2.411,2.46798
-0.506589,-0.115624,2.411,2.46636
-0.498764,-0.115624,2.411,2.46476
-0.490938,-0.115624,2.411,2.46319
-0.483112,-0.115624,2.411,2.46164
-0.475287,-0.115624,2.411,2.46012
-0.467461,-0.115624,2.411,2.45862
-0.462877,-0.116439,2.428,2.47447
-0.454996,-0.116439,2.428,2.47301
-0.447115,-0.116439,2.428,2.47157
-0.439235,-0.116439,2.428,2.47016
-0.431354,-0.116439,2.428,2.46877
-0.423473,-0.116439,2.428,2.4674
-0.415593,-0.116439,2.428,2.46606
-0.407712,-0.116439,2.428,2.46475
-0.402631,-0.117254,2.445,2.4807
-0.394695,-0.117254,2.445,2.47943
-0.386759,-0.117254,2.445,2.47818
-0.378823,-0.117254,2.445,2.47695
-0.370887,-0.117254,2.445,2.47575
-0.362952,-0.117254,2.445,2.47457
-0.355016,-0.117254,2.445,2.47342
-0.34708,-0.117254,2.445,2.47229
-0.341641,-0.118117,2.463,2.48939
-0.333646,-0.118117,2.463,2.4883
-0.325652,-0.118117,2.463,2.48724
-0.315336,-0.117254,2.445,2.46804
-0.3074,-0.117254,2.445,2.46704
-0.299465,-0.117254,2.445,2.46606
-0.291529,-0.117254,2.445,2.46511
-0.283593,-0.117254,2.445,2.46418
-0.275657,-0.117254,2.445,2.46328
-0.267721,-0.117254,2.445,2.46241
-0.259785,-0.117254,2.445,2.46156
-0.251849,-0.117254,2.445,2.46073
-0.243914,-0.117254,2.445,2.45993
-0.235978,-0.117254,2.445,2.45916
-0.228042,-0.117254,2.445,2.45841
-0.220106,-0.117254,2.445,2.45769
-0.21217,-0.117254,2.445,2.45699
-0.204234,-0.117254,2.445,2.45632
-0.196298,-0.117254,2.445,2.45567
-0.188363,-0.117254,2.445,2.45505
-0.179172,-0.116439,2.428,2.43739
-0.171292,-0.116439,2.428,2.43682
-0.163411,-0.116439,2.428,2.43628
-0.15553,-0.116439,2.428,2.43576
-0.147649,-0.116439,2.428,2.43527
-0.139769,-0.116439,2.428,2.43481
-0.131888,-0.116439,2.428,2.43437
-0.124007,-0.116439,2.428,2.43395
-0.116127,-0.116439,2.428,2.43356
-0.108246,-0.116439,2.428,2.4332
-0.0996626,-0.115624,2.411,2.41583
-0.0918371,-0.115624,2.411,2.41552
-0.0840116,-0.115624,2.411,2.41523
-0.0761861,-0.115624,2.411,2.41497
-0.0683606,-0.115624,2.411,2.41474
-0.0605351,-0.115624,2.411,2.41453
-0.0527096,-0.115624,2.411,2.41435
-0.0448841,-0.115624,2.411,2.41419
-0.0370586,-0.115624,2.411,2.41406
-0.029233,-0.115624,2.411,2.41395
-0.0214075,-0.115624,2.411,2.41387
-0.013582,-0.115624,2.411,2.41381
-0.00575653,-0.115624,2.411,2.41378
0.00206898,-0.115624,2.411,2.41377
0.00996425,-0.116439,2.428,2.43081
0.0178449,-0.116439,2.428,2.43086
0.0257256,-0.116439,2.428,2.43093
0.0336063,-0.116439,2.428,2.43102
0.041487,-0.116439,2.428,2.43114
0.0493677,-0.116439,2.428,2.43129
0.0572484,-0.116439,2.428,2.43146
0.065129,-0.116439,2.428,2.43166
0.0730097,-0.116439,2.428,2.43189
0.0808904,-0.116439,2.428,2.43214
0.0887711,-0.116439,2.428,2.43241
0.0966518,-0.116439,2.428,2.43271
0.104532,-0.116439,2.428,2.43304
0.112413,-0.116439,2.428,2.43339
0.120294,-0.116439,2.428,2.43377
0.128175,-0.116439,2.428,2.43417
0.136055,-0.116439,2.428,2.4346
0.143936,-0.116439,2.428,2.43505
0.151817,-0.116439,2.428,2.43553
0.159697,-0.116439,2.428,2.43603
0.167578,-0.116439,2.428,2.43656
0.175459,-0.116439,2.428,2.43711
0.183339,-0.116439,2.428,2.43769
0.19122,-0.116439,2.428,2.4383
0.199101,-0.116439,2.428,2.43893
0.206981,-0.116439,2.428,2.43959
0.214862,-0.116439,2.428,2.44027
0.222743,-0.116439,2.428,2.44097
0.230623,-0.116439,2.428,2.44171
0.238504,-0.116439,2.428,2.44246
0.246385,-0.116439,2.428,2.44325
0.254265,-0.116439,2.428,2.44405
0.260311,-0.115624,2.411,2.42777
0.268136,-0.115624,2.411,2.42862
0.275962,-0.115624,2.411,2.42949
0.283787,-0.115624,2.411,2.4304
0.291613,-0.115624,2.411,2.43132
0.299438,-0.115624,2.411,2.43227
0.307264,-0.115624,2.411,2.43325
0.315089,-0.115624,2.411,2.43425
0.320638,-0.114808,2.394,2.4181
0.328408,-0.114808,2.394,2.41915
0.336179,-0.114808,2.394,2.42021
0.343949,-0.114808,2.394,2.4213
0.351719,-0.114808,2.394,2.42242
0.35949,-0.114808,2.394,2.42356
0.36726,-0.114808,2.394,2.42473
0.37503,-0.114808,2.394,2.42592
0.382801,-0.114808,2.394,2.42713
0.390571,-0.114808,2.394,2.42837
0.398341,-0.114808,2.394,2.42963
0.406112,-0.114808,2.394,2.43091
0.413882,-0.114808,2.394,2.43222
0.421652,-0.114808,2.394,2.43356
0.429423,-0.114808,2.394,2.43492
0.437193,-0.114808,2.394,2.4363
0.444963,-0.114808,2.394,2.43771
0.452734,-0.114808,2.394,2.43914
0.460504,-0.114808,2.394,2.44059
0.468274,-0.114808,2.394,2.44207
0.476045,-0.114808,2.394,2.44357
0.483815,-0.114808,2.394,2.4451
0.495076,-0.115624,2.411,2.46402
0.502901,-0.115624,2.411,2.4656
0.510727,-0.115624,2.411,2.46721
0.518552,-0.115624,2.411,2.46884
0.530089,-0.116439,2.428,2.48792
0.53797,-0.116439,2.428,2.48961
0.545851,-0.116439,2.428,2.49132
0.553732,-0.116439,2.428,2.49306
0.561612,-0.116439,2.428,2.49482
0.569493,-0.116439,2.428,2.49661
0.577374,-0.116439,2.428,2.49842
0.585254,-0.116439,2.428,2.50025
0.593135,-0.116439,2.428,2.50211
0.605224,-0.117254,2.445,2.52152
0.61316,-0.117254,2.445,2.52344
0.621095,-0.117254,2.445,2.52538
0.629031,-0.117254,2.445,2.52734
0.636967,-0.117254,2.445,2.52933
0.644903,-0.117254,2.445,2.53134
0.652839,-0.117254,2.445,2.53337
0.660775,-0.117254,2.445,2.53543
0.668711,-0.117254,2.445,2.53751
0.676647,-0.117254,2.445,2.53961
0.684582,-0.117254,2.445,2.54174
0.692518,-0.117254,2.445,2.54389
0.700454,-0.117254,2.445,2.54606
0.713605,-0.118117,2.463,2.56701
0.721599,-0.118117,2.463,2.56925
0.729594,-0.118117,2.463,2.5715
0.737588,-0.118117,2.463,2.57378
0.745582,-0.118117,2.463,2.57608
0.753577,-0.118117,2.463,2.57841
0.761571,-0.118117,2.463,2.58076
0.769565,-0.118117,2.463,2.58313
0.777559,-0.118117,2.463,2.58552
0.791295,-0.118981,2.481,2.60685
0.799347,-0.118981,2.481,2.60931
0.8074,-0.118981,2.481,2.61178
0.815453,-0.118981,2.481,2.61428
0.823505,-0.118981,2.481,2.61681
0.837591,-0.119844,2.499,2.63836
0.845702,-0.119844,2.499,2.64094
0.847664,-0.118981,2.481,2.62451
0.855716,-0.118981,2.481,2.62712
0.863769,-0.118981,2.481,2.62976
0.871822,-0.118981,2.481,2.63241
0.879874,-0.118981,2.481,2.63509
0.881485,-0.118117,2.463,2.61865
0.882979,-0.117254,2.445,2.6022
0.890915,-0.117254,2.445,2.6049
0.892601,-0.116439,2.428,2.58949
0.894177,-0.115624,2.411,2.57407
0.895642,-0.114808,2.394,2.55863
0.903413,-0.114808,2.394,2.56136
0.898623,-0.113226,2.361,2.52877
0.900144,-0.112458,2.345,2.51435
0.907756,-0.112458,2.345,2.51708
0.909121,-0.111691,2.329,2.50264
0.910383,-0.110924,2.313,2.48819
0.917891,-0.110924,2.313,2.49094
0.919397,-0.110204,2.298,2.47755
0.926855,-0.110204,2.298,2.48032
0.934314,-0.110204,2.298,2.48312
0.941773,-0.110204,2.298,2.48594
0.949232,-0.110204,2.298,2.48877
0.962935,-0.110924,2.313,2.50789
0.970443,-0.110924,2.313,2.51078
0.998245,-0.113226,2.361,2.56586
1.03445,-0.116439,2.428,2.64175
1.08054,-0.120707,2.517,2.74179
1.08871,-0.120707,2.517,2.74502
1.13872,-0.125311,2.613,2.85309
1.27364,-0.139122,2.901,3.17133
1.28306,-0.139122,2.901,3.17512
1.29247,-0.139122,2.901,3.17894
1.35978,-0.145309,3.03,3.32431
nan,nan,nan,NaN
1.45639,-0.153413,3.199,3.51827
1.46677,-0.153413,3.199,3.52258
1.49147,-0.1549,3.23,3.56109
1.50195,-0.1549,3.23,3.5655
1.51244,-0.1549,3.23,3.56992
1.52292,-0.1549,3.23,3.57438
1.54765,-0.156339,3.26,3.6121
1.54389,-0.1549,3.23,3.58336
1.55437,-0.1549,3.23,3.58789
1.56485,-0.1549,3.23,3.59245
1.57534,-0.1549,3.23,3.59702
1.58582,-0.1549,3.23,3.60163
1.59631,-0.1549,3.23,3.60626
1.60679,-0.1549,3.23,3.61091
1.60175,-0.153413,3.199,3.58089
1.61213,-0.153413,3.199,3.58554
1.62252,-0.153413,3.199,3.59022
1.6329,-0.153413,3.199,3.59493
1.65921,-0.1549,3.23,3.63454
1.70174,-0.157873,3.292,3.70919
1.71243,-0.157873,3.292,3.71411
1.73986,-0.159408,3.324,3.7552
1.7675,-0.160943,3.356,3.79641
1.7784,-0.160943,3.356,3.80149
1.78929,-0.160943,3.356,3.8066
1.81788,-0.162525,3.389,3.84921
1.82888,-0.162525,3.389,3.85442
1.83988,-0.162525,3.389,3.85965
1.86945,-0.164156,3.423,3.90368
1.88056,-0.164156,3.423,3.90901
1.89167,-0.164156,3.423,3.91437
1.90278,-0.164156,3.423,3.91975
1.91389,-0.164156,3.423,3.92516
1.925,-0.164156,3.423,3.93059
1.93611,-0.164156,3.423,3.93604
1.94722,-0.164156,3.423,3.94152
1.95833,-0.164156,3.423,3.94702
1.94988,-0.162525,3.389,3.91328
1.94179,-0.160943,3.356,3.88062
1.95268,-0.160943,3.356,3.88608
1.94485,-0.159408,3.324,3.85446
1.93681,-0.157873,3.292,3.82275
1.9475,-0.157873,3.292,3.82818
1.93915,-0.156339,3.26,3.79636
1.93179,-0.1549,3.23,3.76679
1.94227,-0.1549,3.23,3.77218
1.93401,-0.153413,3.199,3.74133
1.90914,-0.150632,3.141,3.67878
1.91934,-0.150632,3.141,3.68408
1.89452,-0.147898,3.084,3.62245
1.90453,-0.147898,3.084,3.62769
1.91454,-0.147898,3.084,3.63296
1.89085,-0.145309,3.03,3.57454
1.88375,-0.144014,3.003,3.54785
1.89349,-0.144014,3.003,3.55304
1.87028,-0.14152,2.951,3.49663
1.84801,-0.139122,2.901,3.44243
1.84206,-0.137971,2.877,3.41897
1.8514,-0.137971,2.877,3.42401
1.82969,-0.135669,2.829,3.37186
1.80897,-0.133464,2.783,3.32194
1.81801,-0.133464,2.783,3.32687
1.8126,-0.132408,2.761,3.30547
1.79253,-0.130298,2.717,3.25764
1.80135,-0.130298,2.717,3.2625
1.78218,-0.128284,2.675,3.21687
1.76275,-0.12627,2.633,3.17111
1.77129,-0.12627,2.633,3.17586
1.7528,-0.124352,2.593,3.13232
1.73541,-0.122529,2.555,3.09106
-2.10201,-0.135477,3.03,3.69022
-2.07353,-0.13427,3.003,3.65179
-2.06379,-0.13427,3.003,3.64627
-2.03625,-0.133107,2.977,3.60924
-2.00889,-0.131945,2.951,3.57232
-1.99931,-0.131945,2.951,3.56694
-1.95602,-0.129709,2.901,3.50124
-1.94661,-0.129709,2.901,3.49598
-1.93719,-0.129709,2.901,3.49075
-1.91183,-0.128636,2.877,3.4567
-1.88662,-0.127563,2.853,3.42275
-1.87736,-0.127563,2.853,3.41765
-1.83732,-0.125461,2.806,3.35636
-1.82822,-0.125461,2.806,3.35138
-1.81911,-0.125461,2.806,3.34642
-1.81,-0.125461,2.806,3.34148
-1.80089,-0.125461,2.806,3.33655
nan,nan,nan,NaN
nan,nan,nan,NaN
-1.75903,-0.124433,2.783,3.29466
-1.73617,-0.123449,2.761,3.26384
-1.7272,-0.123449,2.761,3.25908
-1.70455,-0.122466,2.739,3.22841
-1.69566,-0.122466,2.739,3.22372
-1.68677,-0.122466,2.739,3.21906
-1.67788,-0.122466,2.739,3.21441
-1.66899,-0.122466,2.739,3.20977
-1.6601,-0.122466,2.739,3.20516
-1.65121,-0.122466,2.739,3.20056
-1.64232,-0.122466,2.739,3.19599
-1.63343,-0.122466,2.739,3.19143
-1.62454,-0.122466,2.739,3.18689
-1.61565,-0.122466,2.739,3.18236
-1.61967,-0.123449,2.761,3.20339
-1.62354,-0.124433,2.783,3.22435
-1.61451,-0.124433,2.783,3.21981
-1.60547,-0.124433,2.783,3.21529
-1.60963,-0.125461,2.806,3.23733
-1.64102,-0.128636,2.877,3.31461
-1.63169,-0.128636,2.877,3.31
nan,nan,nan,NaN
nan,nan,nan,NaN
nan,nan,nan,NaN
nan,nan,nan,NaN
nan,nan,nan,NaN
nan,nan,nan,NaN
nan,nan,nan,NaN
nan,nan,nan,NaN
nan,nan,nan,NaN
nan,nan,nan,NaN
nan,nan,nan,NaN
nan,nan,nan,NaN
nan,nan,nan,NaN
nan,nan,nan,NaN
nan,nan,nan,NaN
nan,nan,nan,NaN
nan,nan,nan,NaN
nan,nan,nan,NaN
nan,nan,nan,NaN
nan,nan,nan,NaN
-1.29387,-0.115938,2.593,2.90021
-1.28546,-0.115938,2.593,2.89646
-1.26769,-0.115088,2.574,2.87154
-1.25003,-0.114239,2.555,2.84669
-1.24174,-0.114239,2.555,2.84306
-1.22428,-0.113389,2.536,2.81833
-1.21605,-0.113389,2.536,2.81477
-1.20781,-0.113389,2.536,2.81122
-1.19958,-0.113389,2.536,2.8077
-1.18243,-0.11254,2.517,2.78318
-1.16586,-0.111735,2.499,2.75984
-1.15775,-0.111735,2.499,2.75642
-1.14136,-0.11093,2.481,2.7332
-1.12508,-0.110125,2.463,2.71004
-1.11709,-0.110125,2.463,2.70673
-1.10099,-0.109321,2.445,2.68368
-1.09305,-0.109321,2.445,2.68044
-1.08512,-0.109321,2.445,2.67721
-1.06969,-0.10856,2.428,2.65541
-1.05437,-0.1078,2.411,2.63368
-1.04655,-0.1078,2.411,2.63055
-1.03872,-0.1078,2.411,2.62745
-1.02363,-0.10704,2.394,2.60586
-1.01586,-0.10704,2.394,2.60282
-1.00809,-0.10704,2.394,2.5998
-1.00032,-0.10704,2.394,2.59679
-0.992548,-0.10704,2.394,2.59381
-0.984778,-0.10704,2.394,2.59085
-0.977007,-0.10704,2.394,2.5879
-0.969237,-0.10704,2.394,2.58498
-0.961466,-0.10704,2.394,2.58208
-0.946924,-0.10628,2.377,2.56088
-0.939209,-0.10628,2.377,2.55803
-0.931494,-0.10628,2.377,2.55521
-0.923778,-0.10628,2.377,2.55241
-0.916063,-0.10628,2.377,2.54963
-0.908348,-0.10628,2.377,2.54686
-0.900633,-0.10628,2.377,2.54412
-0.886907,-0.105565,2.361,2.5243
-0.879244,-0.105565,2.361,2.52161
-0.871581,-0.105565,2.361,2.51895
-0.863918,-0.105565,2.361,2.51631
-0.850452,-0.104849,2.345,2.49666
-0.842841,-0.104849,2.345,2.49407
-0.835229,-0.104849,2.345,2.49151
-0.827618,-0.104849,2.345,2.48897
-0.820007,-0.104849,2.345,2.48645
-0.812395,-0.104849,2.345,2.48395
-0.804784,-0.104849,2.345,2.48147
-0.797173,-0.104849,2.345,2.47901
-0.789562,-0.104849,2.345,2.47658
-0.776615,-0.104134,2.329,2.45728
-0.769056,-0.104134,2.329,2.4549
-0.761496,-0.104134,2.329,2.45254
-0.753937,-0.104134,2.329,2.45021
-0.751505,-0.104849,2.345,2.46471
-0.743894,-0.104849,2.345,2.4624
-0.741306,-0.105565,2.361,2.47689
-0.733643,-0.105565,2.361,2.47461
-0.72598,-0.105565,2.361,2.47235
-0.718317,-0.105565,2.361,2.47011
-0.710653,-0.105565,2.361,2.46789
-0.70299,-0.105565,2.361,2.4657
-0.695327,-0.105565,2.361,2.46352
-0.687664,-0.105565,2.361,2.46137
-0.68,-0.105565,2.361,2.45924
-0.672337,-0.105565,2.361,2.45713
-0.664674,-0.105565,2.361,2.45505
-0.661463,-0.10628,2.377,2.46961
-0.653748,-0.10628,2.377,2.46755
-0.646033,-0.10628,2.377,2.46552
-0.638318,-0.10628,2.377,2.46351
-0.630603,-0.10628,2.377,2.46152
-0.622887,-0.10628,2.377,2.45956
-0.615172,-0.10628,2.377,2.45761
-0.607457,-0.10628,2.377,2.45569
-0.599742,-0.10628,2.377,2.4538
-0.592027,-0.10628,2.377,2.45192
-0.588491,-0.10704,2.394,2.46759
-0.58072,-0.10704,2.394,2.46575
-0.57295,-0.10704,2.394,2.46393
-0.56518,-0.10704,2.394,2.46214
-0.557409,-0.10704,2.394,2.46037
-0.549639,-0.10704,2.394,2.45862
-0.541869,-0.10704,2.394,2.45689
-0.537891,-0.1078,2.411,2.47262
-0.530066,-0.1078,2.411,2.47093
-0.52224,-0.1078,2.411,2.46927
-0.514415,-0.1078,2.411,2.46762
-0.506589,-0.1078,2.411,2.466
-0.498764,-0.1078,2.411,2.46441
-0.490938,-0.1078,2.411,2.46284
-0.483112,-0.1078,2.411,2.46129
-0.475287,-0.1078,2.411,2.45976
-0.467461,-0.1078,2.411,2.45826
-0.459636,-0.1078,2.411,2.45679
-0.454996,-0.10856,2.428,2.47265
-0.447115,-0.10856,2.428,2.47121
-0.439235,-0.10856,2.428,2.4698
-0.431354,-0.10856,2.428,2.46841
-0.423473,-0.10856,2.428,2.46704
-0.415593,-0.10856,2.428,2.4657
-0.407712,-0.10856,2.428,2.46439
-0.399831,-0.10856,2.428,2.46309
-0.391951,-0.10856,2.428,2.46183
-0.386759,-0.109321,2.445,2.47781
-0.378823,-0.109321,2.445,2.47659
-0.370887,-0.109321,2.445,2.47539
-0.362952,-0.109321,2.445,2.47421
-0.355016,-0.109321,2.445,2.47306
-0.34708,-0.109321,2.445,2.47193
-0.339144,-0.109321,2.445,2.47083
-0.331208,-0.109321,2.445,2.46975
-0.323272,-0.109321,2.445,2.4687
-0.315336,-0.109321,2.445,2.46767
-0.3074,-0.109321,2.445,2.46667
-0.299465,-0.109321,2.445,2.4657
-0.291529,-0.109321,2.445,2.46474
-0.283593,-0.109321,2.445,2.46382
-0.275657,-0.109321,2.445,2.46292
-0.267721,-0.109321,2.445,2.46204
-0.259785,-0.109321,2.445,2.46119
-0.251849,-0.109321,2.445,2.46037
-0.243914,-0.109321,2.445,2.45957
-0.235978,-0.109321,2.445,2.45879
-0.228042,-0.109321,2.445,2.45804
-0.220106,-0.109321,2.445,2.45732
-0.21217,-0.109321,2.445,2.45662
-0.204234,-0.109321,2.445,2.45595
-0.196298,-0.109321,2.445,2.4553
-0.188363,-0.109321,2.445,2.45468
-0.179172,-0.10856,2.428,2.43702
-0.171292,-0.10856,2.428,2.43645
-0.163411,-0.10856,2.428,2.43591
-0.15553,-0.10856,2.428,2.4354
-0.147649,-0.10856,2.428,2.43491
-0.139769,-0.10856,2.428,2.43444
-0.131888,-0.10856,2.428,2.434
-0.124007,-0.10856,2.428,2.43359
-0.116127,-0.10856,2.428,2.4332
-0.108246,-0.10856,2.428,2.43284
-0.0996626,-0.1078,2.411,2.41547
-0.0918371,-0.1078,2.411,2.41516
-0.0840116,-0.1078,2.411,2.41487
-0.0761861,-0.1078,2.411,2.41461
-0.0683606,-0.1078,2.411,2.41438
-0.0605351,-0.1078,2.411,2.41417
-0.0527096,-0.1078,2.411,2.41398
-0.0448841,-0.1078,2.411,2.41383
-0.0370586,-0.1078,2.411,2.41369
-0.029233,-0.1078,2.411,2.41359
-0.0214075,-0.1078,2.411,2.4135
-0.013582,-0.1078,2.411,2.41345
-0.00575653,-0.1078,2.411,2.41342
0.00206898,-0.1078,2.411,2.41341
0.00996425,-0.10856,2.428,2.43045
0.0178449,-0.10856,2.428,2.43049
0.0257256,-0.10856,2.428,2.43056
0.0336063,-0.10856,2.428,2.43066
0.041487,-0.10856,2.428,2.43078
0.0493677,-0.10856,2.428,2.43093
0.0572484,-0.10856,2.428,2.4311
0.065129,-0.10856,2.428,2.4313
0.0730097,-0.10856,2.428,2.43152
0.0803241,-0.1078,2.411,2.41475
0.0881496,-0.1078,2.411,2.41502
0.0959751,-0.1078,2.411,2.41532
0.103801,-0.1078,2.411,2.41564
0.112413,-0.10856,2.428,2.43302
0.120294,-0.10856,2.428,2.4334
0.128175,-0.10856,2.428,2.4338
0.136055,-0.10856,2.428,2.43423
0.143936,-0.10856,2.428,2.43468
0.150754,-0.1078,2.411,2.41811
0.158579,-0.1078,2.411,2.41861
0.166405,-0.1078,2.411,2.41914
0.17423,-0.1078,2.411,2.41969
0.182056,-0.1078,2.411,2.42027
0.189881,-0.1078,2.411,2.42087
0.197707,-0.1078,2.411,2.42149
0.206981,-0.10856,2.428,2.43922
0.214862,-0.10856,2.428,2.4399
0.222743,-0.10856,2.428,2.44061
0.230623,-0.10856,2.428,2.44134
0.238504,-0.10856,2.428,2.4421
0.246385,-0.10856,2.428,2.44288
0.252485,-0.1078,2.411,2.42658
0.260311,-0.1078,2.411,2.42741
0.268136,-0.1078,2.411,2.42826
0.275962,-0.1078,2.411,2.42914
0.283787,-0.1078,2.411,2.43004
0.291613,-0.1078,2.411,2.43096
0.299438,-0.1078,2.411,2.43191
0.307264,-0.1078,2.411,2.43289
0.315089,-0.1078,2.411,2.43389
0.320638,-0.10704,2.394,2.41775
0.328408,-0.10704,2.394,2.41879
0.336179,-0.10704,2.394,2.41986
0.343949,-0.10704,2.394,2.42095
0.351719,-0.10704,2.394,2.42207
0.35949,-0.10704,2.394,2.42321
0.36726,-0.10704,2.394,2.42437
0.37503,-0.10704,2.394,2.42556
0.382801,-0.10704,2.394,2.42677
0.390571,-0.10704,2.394,2.42801
0.398341,-0.10704,2.394,2.42927
0.406112,-0.10704,2.394,2.43056
0.413882,-0.10704,2.394,2.43187
0.421652,-0.10704,2.394,2.4332
