-0.640707,-0.291794,2.445,2.54434
-0.632771,-0.291794,2.445,2.54236
-0.624835,-0.291794,2.445,2.54039
-0.616899,-0.291794,2.445,2.53845
-0.608963,-0.291794,2.445,2.53653
-0.601027,-0.291794,2.445,2.53464
-0.593092,-0.291794,2.445,2.53277
-0.585156,-0.291794,2.445,2.53092
-0.581469,-0.293942,2.463,2.54772
-0.573475,-0.293942,2.463,2.54591
-0.569613,-0.29609,2.481,2.56271
-0.561561,-0.29609,2.481,2.56093
-0.553508,-0.29609,2.481,2.55918
-0.549413,-0.298238,2.499,2.576
-0.541301,-0.298238,2.499,2.57429
-0.53319,-0.298238,2.499,2.57259
-0.525079,-0.298238,2.499,2.57092
-0.516968,-0.298238,2.499,2.56928
-0.505192,-0.29609,2.481,2.54917
-0.497139,-0.29609,2.481,2.54758
-0.489086,-0.29609,2.481,2.54602
-0.481034,-0.29609,2.481,2.54449
-0.472981,-0.29609,2.481,2.54298
-0.464928,-0.29609,2.481,2.54149
-0.456875,-0.29609,2.481,2.54003
-0.445566,-0.293942,2.463,2.52018
-0.437572,-0.293942,2.463,2.51878
-0.429578,-0.293942,2.463,2.5174
-0.421584,-0.293942,2.463,2.51605
-0.413589,-0.293942,2.463,2.51472
-0.405595,-0.293942,2.463,2.51342
-0.397601,-0.293942,2.463,2.51214
-0.386759,-0.291794,2.445,2.49254
-0.378823,-0.291794,2.445,2.49132
-0.370887,-0.291794,2.445,2.49013
-0.365624,-0.293942,2.463,2.50728
-0.357629,-0.293942,2.463,2.50613
-0.349635,-0.293942,2.463,2.505
-0.339144,-0.291794,2.445,2.4856
-0.331208,-0.291794,2.445,2.48453
-0.323272,-0.291794,2.445,2.48348
-0.317658,-0.293942,2.463,2.50074
-0.309664,-0.293942,2.463,2.49973
-0.299465,-0.291794,2.445,2.48049
-0.291529,-0.291794,2.445,2.47955
-0.285681,-0.293942,2.463,2.49688
-0.277686,-0.293942,2.463,2.49597
-0.269692,-0.293942,2.463,2.4951
-0.261698,-0.293942,2.463,2.49424
-0.253704,-0.293942,2.463,2.49342
-0.245709,-0.293942,2.463,2.49262
-0.237715,-0.293942,2.463,2.49184
-0.229721,-0.293942,2.463,2.49109
-0.221726,-0.293942,2.463,2.49037
-0.213732,-0.293942,2.463,2.48967
-0.205738,-0.293942,2.463,2.489
-0.197744,-0.293942,2.463,2.48835
-0.189749,-0.293942,2.463,2.48773
-0.181755,-0.293942,2.463,2.48713
-0.173761,-0.293942,2.463,2.48656
-0.165766,-0.293942,2.463,2.48601
-0.158925,-0.29609,2.481,2.50365
-0.150872,-0.29609,2.481,2.50316
-0.14282,-0.29609,2.481,2.50268
-0.134767,-0.29609,2.481,2.50224
-0.126714,-0.29609,2.481,2.50182
-0.118662,-0.29609,2.481,2.50142
-0.110609,-0.29609,2.481,2.50105
-0.102556,-0.29609,2.481,2.50071
-0.0945035,-0.29609,2.481,2.50039
-0.0864508,-0.29609,2.481,2.5001
-0.078398,-0.29609,2.481,2.49984
-0.0703453,-0.29609,2.481,2.4996
-0.0622926,-0.29609,2.481,2.49938
-0.0542399,-0.29609,2.481,2.49919
-0.0461872,-0.29609,2.481,2.49903
-0.0381345,-0.29609,2.481,2.4989
-0.0303,-0.298238,2.499,2.51692
-0.0223487,-0.300387,2.517,2.53496
-0.0141792,-0.300387,2.517,2.5349
-0.00600962,-0.300387,2.517,2.53487
0.00215994,-0.300387,2.517,2.53486
0.0103295,-0.300387,2.517,2.53488
0.0184991,-0.300387,2.517,2.53493
0.0266686,-0.300387,2.517,2.535
0.0348382,-0.300387,2.517,2.5351
0.0430077,-0.300387,2.517,2.53523
0.0511773,-0.300387,2.517,2.53538
0.0597948,-0.302654,2.536,2.5547
0.0680261,-0.302654,2.536,2.5549
0.0762573,-0.302654,2.536,2.55513
0.0838555,-0.300387,2.517,2.53625
0.0920251,-0.300387,2.517,2.53653
0.100195,-0.300387,2.517,2.53684
0.108364,-0.300387,2.517,2.53718
0.116534,-0.300387,2.517,2.53754
0.124703,-0.300387,2.517,2.53793
0.132873,-0.300387,2.517,2.53834
0.141042,-0.300387,2.517,2.53878
0.148145,-0.298238,2.499,2.52109
0.156256,-0.298238,2.499,2.52158
0.164367,-0.298238,2.499,2.5221
0.172478,-0.298238,2.499,2.52264
0.180589,-0.298238,2.499,2.5232
0.188701,-0.298238,2.499,2.5238
0.196812,-0.298238,2.499,2.52442
0.204923,-0.298238,2.499,2.52506
0.2115,-0.29609,2.481,2.50754
0.219552,-0.29609,2.481,2.50823
0.227605,-0.29609,2.481,2.50895
0.235658,-0.29609,2.481,2.50969
0.24371,-0.29609,2.481,2.51046
0.251763,-0.29609,2.481,2.51126
0.259816,-0.29609,2.481,2.51208
0.267868,-0.29609,2.481,2.51292
0.275921,-0.29609,2.481,2.51379
0.283974,-0.29609,2.481,2.51469
0.292027,-0.29609,2.481,2.51561
0.300079,-0.29609,2.481,2.51656
0.308132,-0.29609,2.481,2.51753
0.316185,-0.29609,2.481,2.51853
0.324237,-0.29609,2.481,2.51956
0.33229,-0.29609,2.481,2.5206
0.340343,-0.29609,2.481,2.52168
0.348396,-0.29609,2.481,2.52278
0.356448,-0.29609,2.481,2.5239
0.364501,-0.29609,2.481,2.52505
0.372554,-0.29609,2.481,2.52623
0.380606,-0.29609,2.481,2.52743
0.388659,-0.29609,2.481,2.52865
0.396712,-0.29609,2.481,2.5299
0.404765,-0.29609,2.481,2.53118
0.412817,-0.29609,2.481,2.53248
0.42087,-0.29609,2.481,2.5338
0.428923,-0.29609,2.481,2.53515
0.436975,-0.29609,2.481,2.53653
0.445028,-0.29609,2.481,2.53793
0.453081,-0.29609,2.481,2.53935
0.461134,-0.29609,2.481,2.5408
0.469186,-0.29609,2.481,2.54228
0.477239,-0.29609,2.481,2.54377
0.485292,-0.29609,2.481,2.5453
0.493344,-0.29609,2.481,2.54685
0.497759,-0.293942,2.463,2.52993
0.505754,-0.293942,2.463,2.53151
0.513748,-0.293942,2.463,2.53312
0.521742,-0.293942,2.463,2.53476
0.529737,-0.293942,2.463,2.53641
0.537731,-0.293942,2.463,2.53809
0.545725,-0.293942,2.463,2.5398
0.553719,-0.293942,2.463,2.54153
0.561714,-0.293942,2.463,2.54328
0.569708,-0.293942,2.463,2.54506
0.577702,-0.293942,2.463,2.54686
0.585697,-0.293942,2.463,2.54869
0.593691,-0.293942,2.463,2.55054
0.606082,-0.29609,2.481,2.57106
0.614135,-0.29609,2.481,2.57297
0.622188,-0.29609,2.481,2.57491
0.63024,-0.29609,2.481,2.57687
0.638293,-0.29609,2.481,2.57885
0.646346,-0.29609,2.481,2.58085
0.654399,-0.29609,2.481,2.58288
0.667257,-0.298238,2.499,2.60369
0.675369,-0.298238,2.499,2.60578
0.68348,-0.298238,2.499,2.60789
0.691591,-0.298238,2.499,2.61003
0.699702,-0.298238,2.499,2.61219
0.707813,-0.298238,2.499,2.61437
0.715924,-0.298238,2.499,2.61658
0.724035,-0.298238,2.499,2.61881
0.726873,-0.29609,2.481,2.60219
0.734926,-0.29609,2.481,2.60445
0.742978,-0.29609,2.481,2.60673
0.751031,-0.29609,2.481,2.60904
0.759084,-0.29609,2.481,2.61137
0.767137,-0.29609,2.481,2.61372
0.775189,-0.29609,2.481,2.61609
0.783242,-0.29609,2.481,2.61849
0.791295,-0.29609,2.481,2.62091
0.799347,-0.29609,2.481,2.62335
0.8074,-0.29609,2.481,2.62582
0.815453,-0.29609,2.481,2.62831
0.823505,-0.29609,2.481,2.63082
0.831558,-0.29609,2.481,2.63335
0.833519,-0.293942,2.463,2.61678
0.841514,-0.293942,2.463,2.61934
0.849508,-0.293942,2.463,2.62191
0.857502,-0.293942,2.463,2.62452
0.859171,-0.291794,2.445,2.60794
0.867107,-0.291794,2.445,2.61056
0.875043,-0.291794,2.445,2.61321
0.882979,-0.291794,2.445,2.61588
0.890915,-0.291794,2.445,2.61857
0.892601,-0.289765,2.428,2.60305
0.894177,-0.287736,2.411,2.58752
0.902002,-0.287736,2.411,2.59024
0.909828,-0.287736,2.411,2.59297
0.917653,-0.287736,2.411,2.59573
0.925479,-0.287736,2.411,2.5985
0.926724,-0.285707,2.394,2.58296
0.934494,-0.285707,2.394,2.58576
0.942264,-0.285707,2.394,2.58858
0.950035,-0.285707,2.394,2.59141
0.951003,-0.283679,2.377,2.57585
0.958719,-0.283679,2.377,2.57871
0.966434,-0.283679,2.377,2.58159
0.974149,-0.283679,2.377,2.58449
0.981864,-0.283679,2.377,2.5874
nan,nan,nan,NaN
nan,nan,nan,NaN
nan,nan,nan,NaN
nan,nan,nan,NaN
nan,nan,nan,NaN
nan,nan,nan,NaN
nan,nan,nan,NaN
nan,nan,nan,NaN
nan,nan,nan,NaN
nan,nan,nan,NaN
nan,nan,nan,NaN
nan,nan,nan,NaN
1.62347,-0.425577,3.566,3.94121
1.63504,-0.425577,3.566,3.94599
1.66416,-0.430113,3.604,3.9929
1.67586,-0.430113,3.604,3.99779
1.66977,-0.425577,3.566,3.9605
1.68134,-0.425577,3.566,3.9654
1.69292,-0.425577,3.566,3.97032
1.70449,-0.425577,3.566,3.97527
1.73435,-0.430113,3.604,4.02266
1.76446,-0.434648,3.642,4.07018
1.75775,-0.430113,3.604,4.0328
1.76944,-0.430113,3.604,4.03791
1.78114,-0.430113,3.604,4.04305
1.77394,-0.425577,3.566,4.00554
1.76698,-0.421162,3.529,3.96906
1.77844,-0.421162,3.529,3.97417
1.78989,-0.421162,3.529,3.97931
1.80135,-0.421162,3.529,3.98448
1.8128,-0.421162,3.529,3.98967
1.82426,-0.421162,3.529,3.99489
1.81698,-0.416865,3.493,3.95933
1.82832,-0.416865,3.493,3.96454
1.83966,-0.416865,3.493,3.96978
1.851,-0.416865,3.493,3.97505
1.86233,-0.416865,3.493,3.98034
1.89298,-0.421162,3.529,4.02674
1.90444,-0.421162,3.529,4.03213
1.95661,-0.430113,3.604,4.12336
1.9683,-0.430113,3.604,4.12893
1.98,-0.430113,3.604,4.13452
1.9917,-0.430113,3.604,4.14013
2.02452,-0.434648,3.642,4.18948
2.03634,-0.434648,3.642,4.19521
2.04816,-0.434648,3.642,4.20096
2.05998,-0.434648,3.642,4.20674
2.07181,-0.434648,3.642,4.21254
2.08363,-0.434648,3.642,4.21836
2.09545,-0.434648,3.642,4.22421
2.10727,-0.434648,3.642,4.23009
2.11909,-0.434648,3.642,4.23599
2.10868,-0.430113,3.604,4.19766
2.09802,-0.425577,3.566,4.15922
2.10959,-0.425577,3.566,4.16508
2.09916,-0.421162,3.529,4.12767
2.06815,-0.412688,3.458,4.05035
2.07937,-0.412688,3.458,4.05609
2.06944,-0.408511,3.423,4.02074
2.03982,-0.400515,3.356,3.94766
2.05072,-0.400515,3.356,3.9533
2.02229,-0.392878,3.292,3.88346
2.01322,-0.389059,3.26,3.85123
2.0238,-0.389059,3.26,3.85678
1.97821,-0.378318,3.17,3.75571
1.95212,-0.371396,3.112,3.69232
1.96222,-0.371396,3.112,3.69767
1.93746,-0.364832,3.057,3.6376
1.93019,-0.36161,3.03,3.61072
1.94002,-0.36161,3.03,3.61599
1.93248,-0.358387,3.003,3.589
1.9086,-0.352181,2.951,3.53202
1.88567,-0.346214,2.901,3.47727
1.89509,-0.346214,2.901,3.48239
1.88875,-0.34335,2.877,3.45867
1.86642,-0.337622,2.829,3.40599
1.8756,-0.337622,2.829,3.41103
1.85414,-0.332132,2.783,3.36054
1.83371,-0.326881,2.739,3.31232
1.8426,-0.326881,2.739,3.31725
1.82243,-0.321749,2.696,3.27004
1.81691,-0.319243,2.675,3.24942
-2.24076,-0.374997,3.23,3.94899
-2.23027,-0.374997,3.23,3.94305
-2.21979,-0.374997,3.23,3.93713
-2.20931,-0.374997,3.23,3.93123
-2.19882,-0.374997,3.23,3.92535
-2.20866,-0.37848,3.26,3.95589
-2.19808,-0.37848,3.26,3.94999
-2.23045,-0.385911,3.324,4.02154
-2.24102,-0.389626,3.356,4.05422
-2.23013,-0.389626,3.356,4.04821
-2.24106,-0.393457,3.389,4.08197
-2.25243,-0.397404,3.423,4.11683
-2.24132,-0.397404,3.423,4.11077
-2.23021,-0.397404,3.423,4.10472
-2.2191,-0.397404,3.423,4.09869
-2.20799,-0.397404,3.423,4.09269
-2.19688,-0.397404,3.423,4.08671
-2.20812,-0.401468,3.458,4.12247
-2.21914,-0.405531,3.493,4.15813
-2.2078,-0.405531,3.493,4.15209
-2.19646,-0.405531,3.493,4.14608
-2.18512,-0.405531,3.493,4.14008
-2.17379,-0.405531,3.493,4.13411
-2.14078,-0.401468,3.458,4.08679
-2.12956,-0.401468,3.458,4.08093
-2.11833,-0.401468,3.458,4.07508
-2.10711,-0.401468,3.458,4.06926
-2.09589,-0.401468,3.458,4.06346
-2.08466,-0.401468,3.458,4.05768
-2.07344,-0.401468,3.458,4.05192
-2.06221,-0.401468,3.458,4.04619
nan,nan,nan,NaN
nan,nan,nan,NaN
nan,nan,nan,NaN
nan,nan,nan,NaN
nan,nan,nan,NaN
nan,nan,nan,NaN
nan,nan,nan,NaN
nan,nan,nan,NaN
nan,nan,nan,NaN
nan,nan,nan,NaN
nan,nan,nan,NaN
nan,nan,nan,NaN
nan,nan,nan,NaN
nan,nan,nan,NaN
nan,nan,nan,NaN
nan,nan,nan,NaN
nan,nan,nan,NaN
nan,nan,nan,NaN
nan,nan,nan,NaN
nan,nan,nan,NaN
nan,nan,nan,NaN
nan,nan,nan,NaN
nan,nan,nan,NaN
nan,nan,nan,NaN
nan,nan,nan,NaN
nan,nan,nan,NaN
nan,nan,nan,NaN
nan,nan,nan,NaN
nan,nan,nan,NaN
nan,nan,nan,NaN
nan,nan,nan,NaN
-1.22188,-0.28804,2.481,2.78053
-1.21383,-0.28804,2.481,2.777
-1.19703,-0.28595,2.463,2.75336
-1.18035,-0.28386,2.445,2.7298
-1.17241,-0.28386,2.445,2.72638
-1.16447,-0.28386,2.445,2.72298
-1.15654,-0.28386,2.445,2.71959
-1.14062,-0.281887,2.428,2.69734
-1.13274,-0.281887,2.428,2.69402
-1.11698,-0.279913,2.411,2.67187
-1.10915,-0.279913,2.411,2.66861
-1.10133,-0.279913,2.411,2.66537
-1.0935,-0.279913,2.411,2.66215
-1.08568,-0.279913,2.411,2.65894
-1.07025,-0.277939,2.394,2.63703
-1.06248,-0.277939,2.394,2.63389
-1.05471,-0.277939,2.394,2.63076
-1.03951,-0.275966,2.377,2.609
-1.03179,-0.275966,2.377,2.60593
-1.02408,-0.275966,2.377,2.60289
-1.01636,-0.275966,2.377,2.59986
-1.00865,-0.275966,2.377,2.59685
-1.00093,-0.275966,2.377,2.59387
-0.993215,-0.275966,2.377,2.5909
-0.9855,-0.275966,2.377,2.58795
-0.971203,-0.274108,2.361,2.56762
-0.96354,-0.274108,2.361,2.56473
-0.955876,-0.274108,2.361,2.56187
-0.948213,-0.274108,2.361,2.55902
-0.94055,-0.274108,2.361,2.55619
-0.932887,-0.274108,2.361,2.55338
-0.925224,-0.274108,2.361,2.55059
-0.91756,-0.274108,2.361,2.54782
-0.909897,-0.274108,2.361,2.54507
-0.902234,-0.274108,2.361,2.54234
-0.894571,-0.274108,2.361,2.53963
-0.886907,-0.274108,2.361,2.53694
-0.879244,-0.274108,2.361,2.53427
-0.871581,-0.274108,2.361,2.53162
-0.863918,-0.274108,2.361,2.52899
-0.856255,-0.274108,2.361,2.52639
-0.848591,-0.274108,2.361,2.5238
-0.840928,-0.274108,2.361,2.52123
-0.838912,-0.275966,2.377,2.53576
-0.831197,-0.275966,2.377,2.53321
-0.823481,-0.275966,2.377,2.53069
-0.815766,-0.275966,2.377,2.52819
-0.808051,-0.275966,2.377,2.52571
-0.80606,-0.277939,2.394,2.5413
-0.79829,-0.277939,2.394,2.53885
-0.790519,-0.277939,2.394,2.53642
-0.782749,-0.277939,2.394,2.53401
-0.774979,-0.277939,2.394,2.53162
-0.767208,-0.277939,2.394,2.52925
-0.759438,-0.277939,2.394,2.5269
-0.751668,-0.277939,2.394,2.52458
-0.74918,-0.279913,2.411,2.54019
-0.741354,-0.279913,2.411,2.53789
-0.733529,-0.279913,2.411,2.53561
-0.725703,-0.279913,2.411,2.53336
-0.717878,-0.279913,2.411,2.53113
-0.710052,-0.279913,2.411,2.52892
-0.702227,-0.279913,2.411,2.52674
-0.694401,-0.279913,2.411,2.52457
-0.686576,-0.279913,2.411,2.52243
-0.67875,-0.279913,2.411,2.52031
-0.675655,-0.281887,2.428,2.53597
-0.667775,-0.281887,2.428,2.53388
-0.659894,-0.281887,2.428,2.53182
-0.652013,-0.281887,2.428,2.52978
-0.644133,-0.281887,2.428,2.52776
-0.636252,-0.281887,2.428,2.52576
-0.628371,-0.281887,2.428,2.52379
-0.620491,-0.281887,2.428,2.52184
-0.616899,-0.28386,2.445,2.53755
-0.608963,-0.28386,2.445,2.53563
-0.601027,-0.28386,2.445,2.53374
-0.593092,-0.28386,2.445,2.53187
-0.585156,-0.28386,2.445,2.53002
-0.57722,-0.28386,2.445,2.5282
-0.569284,-0.28386,2.445,2.5264
-0.565481,-0.28595,2.463,2.54321
-0.557486,-0.28595,2.463,2.54144
-0.549492,-0.28595,2.463,2.5397
-0.545455,-0.28804,2.481,2.55653
-0.537403,-0.28804,2.481,2.55483
-0.52935,-0.28804,2.481,2.55314
-0.521297,-0.28804,2.481,2.55149
-0.513244,-0.28804,2.481,2.54985
-0.505192,-0.28804,2.481,2.54824
-0.497139,-0.28804,2.481,2.54666
-0.489086,-0.28804,2.481,2.5451
-0.481034,-0.28804,2.481,2.54356
-0.472981,-0.28804,2.481,2.54205
-0.464928,-0.28804,2.481,2.54057
-0.453561,-0.28595,2.463,2.52069
-0.445566,-0.28595,2.463,2.51926
-0.437572,-0.28595,2.463,2.51786
-0.429578,-0.28595,2.463,2.51648
-0.421584,-0.28595,2.463,2.51513
-0.413589,-0.28595,2.463,2.5138
-0.405595,-0.28595,2.463,2.5125
-0.394695,-0.28386,2.445,2.49287
-0.386759,-0.28386,2.445,2.49162
-0.378823,-0.28386,2.445,2.4904
-0.370887,-0.28386,2.445,2.48921
-0.362952,-0.28386,2.445,2.48804
-0.355016,-0.28386,2.445,2.48689
-0.34708,-0.28386,2.445,2.48577
-0.339144,-0.28386,2.445,2.48468
-0.331208,-0.28386,2.445,2.48361
-0.323272,-0.28386,2.445,2.48256
-0.315336,-0.28386,2.445,2.48154
-0.3074,-0.28386,2.445,2.48054
-0.299465,-0.28386,2.445,2.47957
-0.291529,-0.28386,2.445,2.47863
-0.283593,-0.28386,2.445,2.47771
-0.275657,-0.28386,2.445,2.47681
-0.267721,-0.28386,2.445,2.47594
-0.259785,-0.28386,2.445,2.47509
-0.251849,-0.28386,2.445,2.47427
-0.243914,-0.28386,2.445,2.47348
-0.237715,-0.28595,2.463,2.49091
-0.229721,-0.28595,2.463,2.49016
-0.221726,-0.28595,2.463,2.48944
-0.213732,-0.28595,2.463,2.48874
-0.205738,-0.28595,2.463,2.48806
-0.197744,-0.28595,2.463,2.48742
-0.189749,-0.28595,2.463,2.48679
-0.181755,-0.28595,2.463,2.4862
-0.173761,-0.28595,2.463,2.48562
-0.165766,-0.28595,2.463,2.48508
-0.158925,-0.28804,2.481,2.50272
-0.150872,-0.28804,2.481,2.50222
-0.14282,-0.28804,2.481,2.50174
-0.133789,-0.28595,2.463,2.48315
-0.125795,-0.28595,2.463,2.48273
-0.117801,-0.28595,2.463,2.48234
-0.109806,-0.28595,2.463,2.48197
-0.101812,-0.28595,2.463,2.48163
-0.0945035,-0.28804,2.481,2.49945
-0.0864508,-0.28804,2.481,2.49916
-0.078398,-0.28804,2.481,2.49889
-0.0703453,-0.28804,2.481,2.49866
-0.0622926,-0.28804,2.481,2.49844
-0.0542399,-0.28804,2.481,2.49825
-0.0461872,-0.28804,2.481,2.49809
-0.0381345,-0.28804,2.481,2.49796
-0.0303,-0.29013,2.499,2.51597
-0.0223487,-0.292219,2.517,2.53401
-0.0141792,-0.292219,2.517,2.53395
-0.00600962,-0.292219,2.517,2.53391
0.00215994,-0.292219,2.517,2.53391
0.0103295,-0.292219,2.517,2.53393
0.0184991,-0.292219,2.517,2.53397
0.0266686,-0.292219,2.517,2.53405
0.0348382,-0.292219,2.517,2.53415
0.0430077,-0.292219,2.517,2.53427
0.0511773,-0.292219,2.517,2.53442
0.0597948,-0.294425,2.536,2.55373
0.0680261,-0.294425,2.536,2.55394
0.0762573,-0.294425,2.536,2.55417
0.0844885,-0.294425,2.536,2.55443
0.0927197,-0.294425,2.536,2.55472
0.100951,-0.294425,2.536,2.55503
0.109182,-0.294425,2.536,2.55537
0.117413,-0.294425,2.536,2.55573
0.124703,-0.292219,2.517,2.53697
0.132873,-0.292219,2.517,2.53739
0.141042,-0.292219,2.517,2.53783
0.148145,-0.29013,2.499,2.52014
0.156256,-0.29013,2.499,2.52063
0.164367,-0.29013,2.499,2.52115
0.172478,-0.29013,2.499,2.52169
0.180589,-0.29013,2.499,2.52226
0.188701,-0.29013,2.499,2.52285
0.196812,-0.29013,2.499,2.52347
0.204923,-0.29013,2.499,2.52412
0.213034,-0.29013,2.499,2.52479
0.221145,-0.29013,2.499,2.52549
0.229256,-0.29013,2.499,2.52621
0.237367,-0.29013,2.499,2.52696
0.245479,-0.29013,2.499,2.52773
0.25359,-0.29013,2.499,2.52853
0.259816,-0.28804,2.481,2.51114
0.267868,-0.28804,2.481,2.51199
0.275921,-0.28804,2.481,2.51286
0.283974,-0.28804,2.481,2.51376
0.292027,-0.28804,2.481,2.51468
0.300079,-0.28804,2.481,2.51563
0.308132,-0.28804,2.481,2.5166
0.316185,-0.28804,2.481,2.5176
0.32659,-0.29013,2.499,2.5369
0.334701,-0.29013,2.499,2.53795
0.342812,-0.29013,2.499,2.53903
0.350923,-0.29013,2.499,2.54014
0.359034,-0.29013,2.499,2.54128
0.367146,-0.29013,2.499,2.54243
0.375257,-0.29013,2.499,2.54362
0.383368,-0.29013,2.499,2.54483
0.388659,-0.28804,2.481,2.52772
0.396712,-0.28804,2.481,2.52897
0.404765,-0.28804,2.481,2.53025
0.412817,-0.28804,2.481,2.53155
0.42087,-0.28804,2.481,2.53288
0.428923,-0.28804,2.481,2.53423
0.436975,-0.28804,2.481,2.5356
0.445028,-0.28804,2.481,2.537
0.453081,-0.28804,2.481,2.53843
0.461134,-0.28804,2.481,2.53988
0.469186,-0.28804,2.481,2.54135
0.477239,-0.28804,2.481,2.54285
0.485292,-0.28804,2.481,2.54437
0.493344,-0.28804,2.481,2.54592
0.497759,-0.28595,2.463,2.52901
0.505754,-0.28595,2.463,2.5306
0.513748,-0.28595,2.463,2.53221
0.521742,-0.28595,2.463,2.53384
0.529737,-0.28595,2.463,2.5355
0.537731,-0.28595,2.463,2.53718
0.545725,-0.28595,2.463,2.53889
0.553719,-0.28595,2.463,2.54062
0.561714,-0.28595,2.463,2.54237
0.569708,-0.28595,2.463,2.54415
0.577702,-0.28595,2.463,2.54595
0.585697,-0.28595,2.463,2.54778
0.593691,-0.28595,2.463,2.54963
0.601685,-0.28595,2.463,2.5515
0.609679,-0.28595,2.463,2.5534
0.617674,-0.28595,2.463,2.55532
0.63024,-0.28804,2.481,2.57595
0.638293,-0.28804,2.481,2.57793
0.646346,-0.28804,2.481,2.57994
0.654399,-0.28804,2.481,2.58197
0.662451,-0.28804,2.481,2.58402
0.670504,-0.28804,2.481,2.5861
0.678557,-0.28804,2.481,2.5882
0.686609,-0.28804,2.481,2.59032
0.694662,-0.28804,2.481,2.59247
0.702715,-0.28804,2.481,2.59464
0.710768,-0.28804,2.481,2.59683
0.71882,-0.28804,2.481,2.59904
0.726873,-0.28804,2.481,2.60128
0.734926,-0.28804,2.481,2.60354
0.742978,-0.28804,2.481,2.60583
0.751031,-0.28804,2.481,2.60814
0.759084,-0.28804,2.481,2.61047
0.767137,-0.28804,2.481,2.61282
0.775189,-0.28804,2.481,2.6152
0.783242,-0.28804,2.481,2.61759
0.791295,-0.28804,2.481,2.62001
0.799347,-0.28804,2.481,2.62246
0.8074,-0.28804,2.481,2.62492
0.815453,-0.28804,2.481,2.62741
0.823505,-0.28804,2.481,2.62992
0.825525,-0.28595,2.463,2.61336
0.833519,-0.28595,2.463,2.61589
0.841514,-0.28595,2.463,2.61845
0.849508,-0.28595,2.463,2.62103
0.851236,-0.28386,2.445,2.60446
0.859171,-0.28386,2.445,2.60706
0.867107,-0.28386,2.445,2.60969
0.875043,-0.28386,2.445,2.61234
0.87684,-0.281887,2.428,2.59682
0.88472,-0.281887,2.428,2.5995
0.892601,-0.281887,2.428,2.60219
0.894177,-0.279913,2.411,2.58666
0.902002,-0.279913,2.411,2.58938
0.909828,-0.279913,2.411,2.59211
0.911183,-0.277939,2.394,2.57658
0.918953,-0.277939,2.394,2.57933
0.926724,-0.277939,2.394,2.58211
0.934494,-0.277939,2.394,2.58491
0.942264,-0.277939,2.394,2.58773
0.950035,-0.277939,2.394,2.59057
0.951003,-0.275966,2.377,2.57501
0.958719,-0.275966,2.377,2.57787
0.966434,-0.275966,2.377,2.58075
0.974149,-0.275966,2.377,2.58365
0.981864,-0.275966,2.377,2.58657
nan,nan,nan,NaN
nan,nan,nan,NaN
nan,nan,nan,NaN
nan,nan,nan,NaN
nan,nan,nan,NaN
nan,nan,nan,NaN
nan,nan,nan,NaN
nan,nan,nan,NaN
nan,nan,nan,NaN
nan,nan,nan,NaN
nan,nan,nan,NaN
nan,nan,nan,NaN
nan,nan,nan,NaN
1.68777,-0.427358,3.681,4.07197
1.68171,-0.42283,3.642,4.03375
1.69353,-0.42283,3.642,4.03869
1.70535,-0.42283,3.642,4.04366
1.71717,-0.42283,3.642,4.04866
1.729,-0.42283,3.642,4.05369
1.74082,-0.42283,3.642,4.05874
1.77141,-0.427358,3.681,4.10734
1.78335,-0.427358,3.681,4.11251
1.7953,-0.427358,3.681,4.11771
1.80725,-0.427358,3.681,4.12293
1.8192,-0.427358,3.681,4.12818
1.79284,-0.418418,3.604,4.04699
1.80454,-0.418418,3.604,4.05219
1.77844,-0.409711,3.529,3.97298
1.78989,-0.409711,3.529,3.97812
1.80135,-0.409711,3.529,3.98328
1.8128,-0.409711,3.529,3.98848
1.84338,-0.414006,3.566,4.03557
1.83571,-0.409711,3.529,3.99894
1.84716,-0.409711,3.529,4.00421
1.85862,-0.409711,3.529,4.00951
1.87007,-0.409711,3.529,4.01483
1.90125,-0.414006,3.566,4.06233
1.91283,-0.414006,3.566,4.06776
1.9244,-0.414006,3.566,4.07322
1.95661,-0.418418,3.604,4.12216
1.98906,-0.42283,3.642,4.17125
2.00088,-0.42283,3.642,4.1769
2.0127,-0.42283,3.642,4.18257
2.02452,-0.42283,3.642,4.18827
2.05815,-0.427358,3.681,4.23891
2.04816,-0.42283,3.642,4.19975
2.05998,-0.42283,3.642,4.20553
2.09399,-0.427358,3.681,4.25643
2.08363,-0.42283,3.642,4.21716
2.09545,-0.42283,3.642,4.22301
2.08528,-0.418418,3.604,4.18477
2.09698,-0.418418,3.604,4.19061
2.10868,-0.418418,3.604,4.19648
2.09802,-0.414006,3.566,4.15806
2.10959,-0.414006,3.566,4.16391
2.09916,-0.409711,3.529,4.12652
2.06815,-0.401468,3.458,4.04922
2.07937,-0.401468,3.458,4.05496
2.04888,-0.393457,3.389,3.9797
2.03982,-0.389626,3.356,3.94657
2.05072,-0.389626,3.356,3.95221
2.02229,-0.382196,3.292,3.8824
2.01322,-0.37848,3.26,3.85018
2.0238,-0.37848,3.26,3.85572
1.97821,-0.368032,3.17,3.75469
1.95212,-0.361298,3.112,3.69132
1.96222,-0.361298,3.112,3.69667
1.93746,-0.354912,3.057,3.63662
1.93019,-0.351778,3.03,3.60975
1.94002,-0.351778,3.03,3.61502
1.93248,-0.348643,3.003,3.58804
1.9086,-0.342606,2.951,3.53108
1.88567,-0.336801,2.901,3.47635
1.89509,-0.336801,2.901,3.48147
1.88875,-0.334015,2.877,3.45776
1.86642,-0.328442,2.829,3.40509
1.8756,-0.328442,2.829,3.41013
1.85414,-0.323101,2.783,3.35966
1.83371,-0.317993,2.739,3.31146
1.8426,-0.317993,2.739,3.31639
1.82243,-0.313001,2.696,3.26919
1.81691,-0.310563,2.675,3.24858
-2.24076,-0.364517,3.23,3.94801
-2.23027,-0.364517,3.23,3.94207
-2.21979,-0.364517,3.23,3.93614
-2.20931,-0.364517,3.23,3.93024
-2.19882,-0.364517,3.23,3.92436
-2.20866,-0.367902,3.26,3.95489
-2.19808,-0.367902,3.26,3.94899
-2.1875,-0.367902,3.26,3.94311
-2.17692,-0.367902,3.26,3.93725
-2.16634,-0.367902,3.26,3.93141
-2.19808,-0.375125,3.324,4.00266
-2.20835,-0.378736,3.356,4.03522
-2.19745,-0.378736,3.356,4.02927
-2.18656,-0.378736,3.356,4.02334
-2.19706,-0.38246,3.389,4.05693
-2.18606,-0.38246,3.389,4.05098
-2.17506,-0.38246,3.389,4.04506
-2.18577,-0.386297,3.423,4.07968
-2.1969,-0.390247,3.458,4.11539
-2.18568,-0.390247,3.458,4.10941
-2.17445,-0.390247,3.458,4.10345
-2.18512,-0.394197,3.493,4.13899
-2.17379,-0.394197,3.493,4.13301
-2.14078,-0.390247,3.458,4.08571
-2.12956,-0.390247,3.458,4.07984
-2.11833,-0.390247,3.458,4.07399
-2.10711,-0.390247,3.458,4.06816
-2.09589,-0.390247,3.458,4.06236
-2.08466,-0.390247,3.458,4.05658
-2.07344,-0.390247,3.458,4.05083
-2.06221,-0.390247,3.458,4.04509
nan,nan,nan,NaN
nan,nan,nan,NaN
nan,nan,nan,NaN
nan,nan,nan,NaN
nan,nan,nan,NaN
nan,nan,nan,NaN
nan,nan,nan,NaN
nan,nan,nan,NaN
nan,nan,nan,NaN
nan,nan,nan,NaN
nan,nan,nan,NaN
nan,nan,nan,NaN
nan,nan,nan,NaN
nan,nan,nan,NaN
nan,nan,nan,NaN
nan,nan,nan,NaN
nan,nan,nan,NaN
nan,nan,nan,NaN
nan,nan,nan,NaN
nan,nan,nan,NaN
nan,nan,nan,NaN
nan,nan,nan,NaN
nan,nan,nan,NaN
nan,nan,nan,NaN
nan,nan,nan,NaN
nan,nan,nan,NaN
nan,nan,nan,NaN
nan,nan,nan,NaN
nan,nan,nan,NaN
nan,nan,nan,NaN
nan,nan,nan,NaN
-1.22188,-0.279989,2.481,2.7797
-1.21383,-0.279989,2.481,2.77617
-1.19703,-0.277958,2.463,2.75255
-1.18904,-0.277958,2.463,2.74908
-1.18104,-0.277958,2.463,2.74563
-1.17305,-0.277958,2.463,2.7422
-1.16505,-0.277958,2.463,2.73879
-1.1486,-0.275927,2.445,2.71541
-1.14067,-0.275927,2.445,2.71206
-1.12485,-0.274008,2.428,2.6899
-1.11697,-0.274008,2.428,2.68661
-1.10909,-0.274008,2.428,2.68335
-1.0935,-0.27209,2.411,2.66133
-1.08568,-0.27209,2.411,2.65813
-1.07785,-0.27209,2.411,2.65494
-1.07003,-0.27209,2.411,2.65177
-1.05471,-0.270171,2.394,2.62995
-1.04694,-0.270171,2.394,2.62684
-1.03917,-0.270171,2.394,2.62376
-1.02408,-0.268253,2.377,2.60208
-1.01636,-0.268253,2.377,2.59905
-1.00865,-0.268253,2.377,2.59605
-1.00093,-0.268253,2.377,2.59306
-0.993215,-0.268253,2.377,2.59009
-0.9855,-0.268253,2.377,2.58714
-0.971203,-0.266447,2.361,2.56682
-0.96354,-0.266447,2.361,2.56393
-0.955876,-0.266447,2.361,2.56106
-0.948213,-0.266447,2.361,2.55821
-0.94055,-0.266447,2.361,2.55538
-0.932887,-0.266447,2.361,2.55257
-0.925224,-0.266447,2.361,2.54978
-0.91756,-0.266447,2.361,2.547
-0.909897,-0.266447,2.361,2.54425
-0.902234,-0.266447,2.361,2.54152
-0.894571,-0.266447,2.361,2.53881
-0.886907,-0.266447,2.361,2.53612
-0.879244,-0.266447,2.361,2.53345
-0.871581,-0.266447,2.361,2.5308
-0.863918,-0.266447,2.361,2.52818
-0.862057,-0.268253,2.377,2.54268
-0.854342,-0.268253,2.377,2.54008
-0.846627,-0.268253,2.377,2.53749
-0.838912,-0.268253,2.377,2.53493
-0.831197,-0.268253,2.377,2.53239
-0.823481,-0.268253,2.377,2.52986
-0.815766,-0.268253,2.377,2.52736
-0.81383,-0.270171,2.394,2.54294
-0.80606,-0.270171,2.394,2.54046
-0.79829,-0.270171,2.394,2.53801
-0.790519,-0.270171,2.394,2.53558
-0.782749,-0.270171,2.394,2.53316
-0.774979,-0.270171,2.394,2.53077
-0.767208,-0.270171,2.394,2.52841
-0.759438,-0.270171,2.394,2.52606
-0.751668,-0.270171,2.394,2.52373
-0.74918,-0.27209,2.411,2.53934
-0.741354,-0.27209,2.411,2.53704
-0.733529,-0.27209,2.411,2.53476
-0.725703,-0.27209,2.411,2.53251
-0.717878,-0.27209,2.411,2.53028
-0.710052,-0.27209,2.411,2.52807
-0.702227,-0.27209,2.411,2.52588
-0.694401,-0.27209,2.411,2.52372
-0.686576,-0.27209,2.411,2.52157
-0.67875,-0.27209,2.411,2.51946
-0.675655,-0.274008,2.428,2.53511
-0.667775,-0.274008,2.428,2.53302
-0.659894,-0.274008,2.428,2.53095
-0.652013,-0.274008,2.428,2.52891
-0.644133,-0.274008,2.428,2.52689
-0.636252,-0.274008,2.428,2.52489
-0.628371,-0.274008,2.428,2.52292
-0.620491,-0.274008,2.428,2.52097
-0.61261,-0.274008,2.428,2.51904
-0.604729,-0.274008,2.428,2.51713
-0.601027,-0.275927,2.445,2.53286
-0.593092,-0.275927,2.445,2.53099
-0.585156,-0.275927,2.445,2.52914
-0.57722,-0.275927,2.445,2.52732
-0.569284,-0.275927,2.445,2.52552
-0.561348,-0.275927,2.445,2.52374
-0.553412,-0.275927,2.445,2.52199
-0.549492,-0.277958,2.463,2.53881
-0.545455,-0.279989,2.481,2.55564
-0.537403,-0.279989,2.481,2.55393
-0.52935,-0.279989,2.481,2.55225
-0.521297,-0.279989,2.481,2.55059
-0.513244,-0.279989,2.481,2.54896
-0.505192,-0.279989,2.481,2.54735
-0.497139,-0.279989,2.481,2.54576
-0.489086,-0.279989,2.481,2.5442
-0.481034,-0.279989,2.481,2.54267
-0.472981,-0.279989,2.481,2.54115
-0.464928,-0.279989,2.481,2.53967
-0.453561,-0.277958,2.463,2.51979
-0.445566,-0.277958,2.463,2.51836
-0.437572,-0.277958,2.463,2.51696
-0.429578,-0.277958,2.463,2.51558
-0.421584,-0.277958,2.463,2.51423
-0.413589,-0.277958,2.463,2.5129
-0.405595,-0.277958,2.463,2.5116
-0.394695,-0.275927,2.445,2.49198
-0.386759,-0.275927,2.445,2.49073
-0.378823,-0.275927,2.445,2.48951
-0.370887,-0.275927,2.445,2.48832
-0.362952,-0.275927,2.445,2.48715
-0.355016,-0.275927,2.445,2.486
-0.34708,-0.275927,2.445,2.48488
-0.339144,-0.275927,2.445,2.48378
-0.331208,-0.275927,2.445,2.48271
-0.323272,-0.275927,2.445,2.48167
-0.315336,-0.275927,2.445,2.48064
-0.3074,-0.275927,2.445,2.47965
-0.299465,-0.275927,2.445,2.47868
-0.291529,-0.275927,2.445,2.47773
-0.283593,-0.275927,2.445,2.47681
-0.275657,-0.275927,2.445,2.47591
-0.267721,-0.275927,2.445,2.47504
-0.259785,-0.275927,2.445,2.4742
-0.251849,-0.275927,2.445,2.47338
-0.243914,-0.275927,2.445,2.47258
-0.237715,-0.277958,2.463,2.49001
-0.229721,-0.277958,2.463,2.48926
-0.221726,-0.277958,2.463,2.48853
-0.213732,-0.277958,2.463,2.48783
-0.205738,-0.277958,2.463,2.48716
-0.199189,-0.279989,2.481,2.50468
-0.191136,-0.279989,2.481,2.50405
-0.183083,-0.279989,2.481,2.50345
-0.175031,-0.279989,2.481,2.50288
-0.166978,-0.279989,2.481,2.50233
-0.158925,-0.279989,2.481,2.5018
-0.150872,-0.279989,2.481,2.5013
-0.14282,-0.279989,2.481,2.50083
-0.133789,-0.277958,2.463,2.48224
-0.125795,-0.277958,2.463,2.48182
-0.117801,-0.277958,2.463,2.48143
-0.109806,-0.277958,2.463,2.48107
-0.101812,-0.277958,2.463,2.48072
-0.0945035,-0.279989,2.481,2.49854
-0.0864508,-0.279989,2.481,2.49825
-0.078398,-0.279989,2.481,2.49798
-0.0703453,-0.279989,2.481,2.49774
-0.0622926,-0.279989,2.481,2.49753
-0.0542399,-0.279989,2.481,2.49734
-0.0461872,-0.279989,2.481,2.49718
-0.0381345,-0.279989,2.481,2.49704
-0.0303,-0.282021,2.499,2.51505
-0.0221889,-0.282021,2.499,2.51496
-0.0141792,-0.284052,2.517,2.53302
-0.00600962,-0.284052,2.517,2.53298
0.00215994,-0.284052,2.517,2.53298
0.0103295,-0.284052,2.517,2.533
0.0184991,-0.284052,2.517,2.53305
0.0266686,-0.284052,2.517,2.53312
0.0348382,-0.284052,2.517,2.53322
0.0430077,-0.284052,2.517,2.53334
0.0511773,-0.284052,2.517,2.53349
0.0593468,-0.284052,2.517,2.53367
0.0675164,-0.284052,2.517,2.53388
0.075686,-0.284052,2.517,2.53411
0.0838555,-0.284052,2.517,2.53437
0.0920251,-0.284052,2.517,2.53465
0.100195,-0.284052,2.517,2.53496
0.108364,-0.284052,2.517,2.53529
0.116534,-0.284052,2.517,2.53566
0.123811,-0.282021,2.499,2.51791
0.131923,-0.282021,2.499,2.51832
0.140034,-0.282021,2.499,2.51876
0.148145,-0.282021,2.499,2.51922
0.156256,-0.282021,2.499,2.51971
0.164367,-0.282021,2.499,2.52023
0.172478,-0.282021,2.499,2.52077
0.180589,-0.282021,2.499,2.52134
0.188701,-0.282021,2.499,2.52193
0.196812,-0.282021,2.499,2.52255
0.204923,-0.282021,2.499,2.5232
0.213034,-0.282021,2.499,2.52387
0.221145,-0.282021,2.499,2.52457
0.229256,-0.282021,2.499,2.52529
0.237367,-0.282021,2.499,2.52604
0.245479,-0.282021,2.499,2.52682
0.25359,-0.282021,2.499,2.52762
0.259816,-0.279989,2.481,2.51023
0.267868,-0.279989,2.481,2.51108
0.275921,-0.279989,2.481,2.51195
0.283974,-0.279989,2.481,2.51285
0.292027,-0.279989,2.481,2.51377
0.300079,-0.279989,2.481,2.51472
0.308132,-0.279989,2.481,2.51569
0.316185,-0.279989,2.481,2.51669
0.32659,-0.282021,2.499,2.53598
0.334701,-0.282021,2.499,2.53704
0.342812,-0.282021,2.499,2.53812
0.350923,-0.282021,2.499,2.53923
0.359034,-0.282021,2.499,2.54036
0.367146,-0.282021,2.499,2.54152
0.375257,-0.282021,2.499,2.54271
0.383368,-0.282021,2.499,2.54392
0.388659,-0.279989,2.481,2.52682
0.396712,-0.279989,2.481,2.52807
0.404765,-0.279989,2.481,2.52935
0.412817,-0.279989,2.481,2.53065
0.42087,-0.279989,2.481,2.53197
0.428923,-0.279989,2.481,2.53332
0.436975,-0.279989,2.481,2.5347
0.445028,-0.279989,2.481,2.5361
0.453081,-0.279989,2.481,2.53753
0.461134,-0.279989,2.481,2.53898
0.469186,-0.279989,2.481,2.54045
0.477239,-0.279989,2.481,2.54195
0.485292,-0.279989,2.481,2.54347
0.493344,-0.279989,2.481,2.54502
0.501397,-0.279989,2.481,2.5466
0.50945,-0.279989,2.481,2.54819
0.513748,-0.277958,2.463,2.53132
0.521742,-0.277958,2.463,2.53295
0.529737,-0.277958,2.463,2.53461
0.537731,-0.277958,2.463,2.53629
0.545725,-0.277958,2.463,2.538
0.553719,-0.277958,2.463,2.53973
0.561714,-0.277958,2.463,2.54149
0.569708,-0.277958,2.463,2.54327
0.577702,-0.277958,2.463,2.54507
0.585697,-0.277958,2.463,2.54689
0.593691,-0.277958,2.463,2.54874
0.601685,-0.277958,2.463,2.55062
0.609679,-0.277958,2.463,2.55252
0.617674,-0.277958,2.463,2.55444
0.63024,-0.279989,2.481,2.57506
0.638293,-0.279989,2.481,2.57705
0.646346,-0.279989,2.481,2.57905
0.654399,-0.279989,2.481,2.58108
0.662451,-0.279989,2.481,2.58314
0.670504,-0.279989,2.481,2.58521
0.678557,-0.279989,2.481,2.58731
0.686609,-0.279989,2.481,2.58944
0.694662,-0.279989,2.481,2.59158
0.702715,-0.279989,2.481,2.59375
0.710768,-0.279989,2.481,2.59595
0.71882,-0.279989,2.481,2.59816
0.726873,-0.279989,2.481,2.6004
0.734926,-0.279989,2.481,2.60267
0.742978,-0.279989,2.481,2.60495
0.751031,-0.279989,2.481,2.60726
0.759084,-0.279989,2.481,2.60959
0.767137,-0.279989,2.481,2.61194
0.775189,-0.279989,2.481,2.61432
0.777559,-0.277958,2.463,2.59774
0.785554,-0.277958,2.463,2.60014
0.793548,-0.277958,2.463,2.60257
0.801542,-0.277958,2.463,2.60501
0.809537,-0.277958,2.463,2.60749
0.817531,-0.277958,2.463,2.60998
0.825525,-0.277958,2.463,2.61249
0.833519,-0.277958,2.463,2.61503
0.835364,-0.275927,2.445,2.59846
0.8433,-0.275927,2.445,2.60102
0.851236,-0.275927,2.445,2.60361
0.859171,-0.275927,2.445,2.60621
0.867107,-0.275927,2.445,2.60884
0.868959,-0.274008,2.428,2.59333
0.87684,-0.274008,2.428,2.59598
0.88472,-0.274008,2.428,2.59865
0.892601,-0.274008,2.428,2.60135
0.894177,-0.27209,2.411,2.58583
0.902002,-0.27209,2.411,2.58854
0.909828,-0.27209,2.411,2.59128
0.911183,-0.270171,2.394,2.57575
0.918953,-0.270171,2.394,2.57851
0.926724,-0.270171,2.394,2.58129
0.934494,-0.270171,2.394,2.58409
0.942264,-0.270171,2.394,2.58691
0.950035,-0.270171,2.394,2.58975
0.951003,-0.268253,2.377,2.5742
0.958719,-0.268253,2.377,2.57706
0.966434,-0.268253,2.377,2.57994
0.974149,-0.268253,2.377,2.58284
0.981864,-0.268253,2.377,2.58576
nan,nan,nan,NaN
nan,nan,nan,NaN
nan,nan,nan,NaN
nan,nan,nan,NaN
nan,nan,nan,NaN
nan,nan,nan,NaN
nan,nan,nan,NaN
nan,nan,nan,NaN
nan,nan,nan,NaN
nan,nan,nan,NaN
nan,nan,nan,NaN
nan,nan,nan,NaN
nan,nan,nan,NaN
1.70611,-0.419928,3.721,4.11497
1.71819,-0.419928,3.721,4.11999
1.73027,-0.419928,3.721,4.12505
1.74234,-0.419928,3.721,4.13013
1.75442,-0.419928,3.721,4.13524
1.7665,-0.419928,3.721,4.14037
1.77858,-0.419928,3.721,4.14554
1.79065,-0.419928,3.721,4.15074
1.8226,-0.424555,3.762,4.20176
1.81481,-0.419928,3.721,4.16122
1.82689,-0.419928,3.721,4.1665
1.8192,-0.415413,3.681,4.12696
1.83114,-0.415413,3.681,4.13224
1.82356,-0.411012,3.642,4.09371
1.81623,-0.406724,3.604,4.05622
1.82793,-0.406724,3.604,4.06147
1.82023,-0.402435,3.566,4.02387
1.83181,-0.402435,3.566,4.02912
1.86303,-0.406724,3.604,4.07739
1.87472,-0.406724,3.604,4.08275
1.88642,-0.406724,3.604,4.08813
nan,nan,nan,NaN
1.90982,-0.406724,3.604,4.09898
1.92151,-0.406724,3.604,4.10444
1.93321,-0.406724,3.604,4.10993
1.96542,-0.411012,3.642,4.15884
1.97724,-0.411012,3.642,4.16444
1.98906,-0.411012,3.642,4.17007
2.02231,-0.415413,3.681,4.22043
2.03425,-0.415413,3.681,4.22617
2.0462,-0.415413,3.681,4.23193
2.05815,-0.415413,3.681,4.23772
2.0701,-0.415413,3.681,4.24354
2.08204,-0.415413,3.681,4.24938
2.09399,-0.415413,3.681,4.25525
2.08363,-0.411012,3.642,4.21599
2.09545,-0.411012,3.642,4.22185
2.08528,-0.406724,3.604,4.18362
2.09698,-0.406724,3.604,4.18946
2.10868,-0.406724,3.604,4.19533
2.09802,-0.402435,3.566,4.15692
2.10959,-0.402435,3.566,4.16277
2.09916,-0.39826,3.529,4.1254
2.06815,-0.390247,3.458,4.04812
2.07937,-0.390247,3.458,4.05387
2.04888,-0.38246,3.389,3.97863
2.03982,-0.378736,3.356,3.94551
2.05072,-0.378736,3.356,3.95115
2.02229,-0.371514,3.292,3.88136
1.99469,-0.364517,3.23,3.81373
2.00517,-0.364517,3.23,3.81923
1.97821,-0.357745,3.17,3.75369
1.95212,-0.3512,3.112,3.69035
1.96222,-0.3512,3.112,3.6957
1.93746,-0.344993,3.057,3.63566
1.91299,-0.338899,3.003,3.57664
1.92273,-0.338899,3.003,3.58187
1.91575,-0.335965,2.977,3.55605
1.89243,-0.330209,2.926,3.50026
1.87007,-0.324679,2.877,3.4467
1.87941,-0.324679,2.877,3.45177
1.87299,-0.321971,2.853,3.42803
1.85125,-0.316667,2.806,3.37654
1.86035,-0.316667,2.806,3.38154
1.83948,-0.311588,2.761,3.33225
1.81899,-0.306623,2.717,3.28402
1.8278,-0.306623,2.717,3.28892
1.80823,-0.301883,2.675,3.24291
1.80265,-0.299513,2.654,3.22226
-2.19913,-0.347459,3.17,3.87373
-2.18884,-0.347459,3.17,3.8679
-2.17855,-0.347459,3.17,3.86209
-2.16827,-0.347459,3.17,3.85629
-2.15798,-0.347459,3.17,3.85052
-2.14769,-0.347459,3.17,3.84476
-2.1374,-0.347459,3.17,3.83902
-2.12711,-0.347459,3.17,3.8333
-2.13619,-0.350638,3.199,3.86262
-2.1258,-0.350638,3.199,3.85689
-2.13592,-0.354036,3.23,3.88849
-2.14518,-0.357324,3.26,3.91881
-2.1765,-0.364339,3.324,3.98985
-2.16571,-0.364339,3.324,3.98397
-2.17567,-0.367846,3.356,4.01641
-2.16478,-0.367846,3.356,4.01052
-2.15388,-0.367846,3.356,4.00465
-2.14299,-0.367846,3.356,3.99881
-2.15306,-0.371464,3.389,4.03224
-2.14206,-0.371464,3.389,4.02638
-2.17445,-0.379027,3.458,4.1024
-2.16323,-0.379027,3.458,4.09646
-2.152,-0.379027,3.458,4.09054
-2.14078,-0.379027,3.458,4.08465
-2.12956,-0.379027,3.458,4.07878
-2.11833,-0.379027,3.458,4.07293
-2.10711,-0.379027,3.458,4.0671
-2.09589,-0.379027,3.458,4.0613
-2.08466,-0.379027,3.458,4.05552
-2.07344,-0.379027,3.458,4.04976
-2.06221,-0.379027,3.458,4.04403
nan,nan,nan,NaN
nan,nan,nan,NaN
nan,nan,nan,NaN
nan,nan,nan,NaN
nan,nan,nan,NaN
nan,nan,nan,NaN
nan,nan,nan,NaN
nan,nan,nan,NaN
nan,nan,nan,NaN
nan,nan,nan,NaN
nan,nan,nan,NaN
nan,nan,nan,NaN
nan,nan,nan,NaN
nan,nan,nan,NaN
nan,nan,nan,NaN
nan,nan,nan,NaN
nan,nan,nan,NaN
nan,nan,nan,NaN
nan,nan,nan,NaN
nan,nan,nan,NaN
nan,nan,nan,NaN
nan,nan,nan,NaN
nan,nan,nan,NaN
nan,nan,nan,NaN
nan,nan,nan,NaN
nan,nan,nan,NaN
nan,nan,nan,NaN
nan,nan,nan,NaN
nan,nan,nan,NaN
nan,nan,nan,NaN
nan,nan,nan,NaN
-1.22188,-0.271939,2.481,2.7789
-1.21383,-0.271939,2.481,2.77537
-1.19703,-0.269966,2.463,2.75175
-1.18904,-0.269966,2.463,2.74828
-1.18104,-0.269966,2.463,2.74483
-1.17305,-0.269966,2.463,2.7414
-1.16505,-0.269966,2.463,2.73799
-1.1486,-0.267993,2.445,2.71461
-1.14067,-0.267993,2.445,2.71127
-1.12485,-0.26613,2.428,2.68911
-1.11697,-0.26613,2.428,2.68582
-1.10909,-0.26613,2.428,2.68255
-1.10121,-0.26613,2.428,2.67931
-1.08568,-0.264266,2.411,2.65734
-1.07785,-0.264266,2.411,2.65415
-1.07003,-0.264266,2.411,2.65098
-1.05471,-0.262403,2.394,2.62916
-1.04694,-0.262403,2.394,2.62606
-1.03917,-0.262403,2.394,2.62297
-1.0314,-0.262403,2.394,2.6199
-1.01636,-0.26054,2.377,2.59827
-1.00865,-0.26054,2.377,2.59526
-1.00093,-0.26054,2.377,2.59227
-0.993215,-0.26054,2.377,2.5893
-0.9855,-0.26054,2.377,2.58635
-0.971203,-0.258786,2.361,2.56603
-0.96354,-0.258786,2.361,2.56314
-0.955876,-0.258786,2.361,2.56027
-0.948213,-0.258786,2.361,2.55742
-0.94055,-0.258786,2.361,2.55459
-0.932887,-0.258786,2.361,2.55178
-0.925224,-0.258786,2.361,2.54899
-0.91756,-0.258786,2.361,2.54621
-0.909897,-0.258786,2.361,2.54346
-0.902234,-0.258786,2.361,2.54073
-0.894571,-0.258786,2.361,2.53802
-0.886907,-0.258786,2.361,2.53533
-0.879244,-0.258786,2.361,2.53266
-0.877488,-0.26054,2.377,2.54715
-0.869772,-0.26054,2.377,2.54451
-0.862057,-0.26054,2.377,2.54188
-0.854342,-0.26054,2.377,2.53927
-0.846627,-0.26054,2.377,2.53669
-0.838912,-0.26054,2.377,2.53412
-0.831197,-0.26054,2.377,2.53158
-0.823481,-0.26054,2.377,2.52906
-0.821601,-0.262403,2.394,2.54463
-0.81383,-0.262403,2.394,2.54213
-0.80606,-0.262403,2.394,2.53965
-0.79829,-0.262403,2.394,2.53719
-0.790519,-0.262403,2.394,2.53476
-0.782749,-0.262403,2.394,2.53235
-0.774979,-0.262403,2.394,2.52996
-0.767208,-0.262403,2.394,2.52759
-0.759438,-0.262403,2.394,2.52524
-0.751668,-0.262403,2.394,2.52291
-0.74918,-0.264266,2.411,2.53851
-0.741354,-0.264266,2.411,2.53621
-0.733529,-0.264266,2.411,2.53393
-0.725703,-0.264266,2.411,2.53168
-0.717878,-0.264266,2.411,2.52945
-0.710052,-0.264266,2.411,2.52724
-0.702227,-0.264266,2.411,2.52505
-0.694401,-0.264266,2.411,2.52289
-0.686576,-0.264266,2.411,2.52074
-0.67875,-0.264266,2.411,2.51862
-0.675655,-0.26613,2.428,2.53427
-0.667775,-0.26613,2.428,2.53218
-0.659894,-0.26613,2.428,2.53011
-0.652013,-0.26613,2.428,2.52807
-0.644133,-0.26613,2.428,2.52605
-0.636252,-0.26613,2.428,2.52405
-0.628371,-0.26613,2.428,2.52207
-0.620491,-0.26613,2.428,2.52012
-0.61261,-0.26613,2.428,2.51819
-0.604729,-0.26613,2.428,2.51629
-0.601027,-0.267993,2.445,2.53201
-0.593092,-0.267993,2.445,2.53014
-0.585156,-0.267993,2.445,2.52829
-0.57722,-0.267993,2.445,2.52647
-0.569284,-0.267993,2.445,2.52466
-0.561348,-0.267993,2.445,2.52289
-0.553412,-0.267993,2.445,2.52113
-0.549492,-0.269966,2.463,2.53795
-0.541498,-0.269966,2.463,2.53623
-0.533504,-0.269966,2.463,2.53454
-0.525509,-0.269966,2.463,2.53287
-0.517515,-0.269966,2.463,2.53122
-0.509521,-0.269966,2.463,2.5296
-0.505192,-0.271939,2.481,2.54647
-0.493532,-0.269966,2.463,2.52643
-0.485538,-0.269966,2.463,2.52488
-0.477544,-0.269966,2.463,2.52335
-0.469549,-0.269966,2.463,2.52185
-0.461555,-0.269966,2.463,2.52037
-0.453561,-0.269966,2.463,2.51892
-0.44231,-0.267993,2.445,2.4991
-0.434374,-0.267993,2.445,2.4977
-0.426438,-0.267993,2.445,2.49634
-0.418503,-0.267993,2.445,2.49499
-0.410567,-0.267993,2.445,2.49367
-0.402631,-0.267993,2.445,2.49238
-0.394695,-0.267993,2.445,2.49111
-0.386759,-0.267993,2.445,2.48987
-0.378823,-0.267993,2.445,2.48864
-0.370887,-0.267993,2.445,2.48745
-0.362952,-0.267993,2.445,2.48628
-0.355016,-0.267993,2.445,2.48513
-0.34708,-0.267993,2.445,2.48401
-0.339144,-0.267993,2.445,2.48291
-0.331208,-0.267993,2.445,2.48184
-0.323272,-0.267993,2.445,2.4808
-0.315336,-0.267993,2.445,2.47977
-0.3074,-0.267993,2.445,2.47878
-0.299465,-0.267993,2.445,2.47781
-0.291529,-0.267993,2.445,2.47686
-0.283593,-0.267993,2.445,2.47594
-0.275657,-0.267993,2.445,2.47504
-0.267721,-0.267993,2.445,2.47417
-0.259785,-0.267993,2.445,2.47332
-0.251849,-0.267993,2.445,2.4725
-0.243914,-0.267993,2.445,2.47171
-0.235978,-0.267993,2.445,2.47094
-0.229721,-0.269966,2.463,2.48838
-0.221726,-0.269966,2.463,2.48765
-0.213732,-0.269966,2.463,2.48695
-0.205738,-0.269966,2.463,2.48628
-0.197744,-0.269966,2.463,2.48563
-0.189749,-0.269966,2.463,2.48501
-0.183083,-0.271939,2.481,2.50257
-0.175031,-0.271939,2.481,2.50199
-0.166978,-0.271939,2.481,2.50144
-0.158925,-0.271939,2.481,2.50091
-0.150872,-0.271939,2.481,2.50042
-0.14282,-0.271939,2.481,2.49994
-0.133789,-0.269966,2.463,2.48136
-0.125795,-0.269966,2.463,2.48094
-0.117801,-0.269966,2.463,2.48055
-0.109806,-0.269966,2.463,2.48018
-0.101812,-0.269966,2.463,2.47984
-0.0945035,-0.271939,2.481,2.49765
-0.0864508,-0.271939,2.481,2.49736
-0.078398,-0.271939,2.481,2.49709
-0.0703453,-0.271939,2.481,2.49685
-0.0622926,-0.271939,2.481,2.49664
-0.0542399,-0.271939,2.481,2.49645
-0.0461872,-0.271939,2.481,2.49629
-0.0381345,-0.271939,2.481,2.49615
-0.0303,-0.273912,2.499,2.51415
-0.0221889,-0.273912,2.499,2.51406
-0.0141792,-0.275885,2.517,2.53211
-0.00600962,-0.275885,2.517,2.53208
0.00215994,-0.275885,2.517,2.53208
0.0103295,-0.275885,2.517,2.5321
0.0184991,-0.275885,2.517,2.53214
0.0266686,-0.275885,2.517,2.53222
0.0348382,-0.275885,2.517,2.53231
0.0430077,-0.275885,2.517,2.53244
0.0511773,-0.275885,2.517,2.53259
0.0593468,-0.275885,2.517,2.53277
0.0675164,-0.275885,2.517,2.53297
0.075686,-0.275885,2.517,2.53321
0.0838555,-0.275885,2.517,2.53346
0.0920251,-0.275885,2.517,2.53375
0.100195,-0.275885,2.517,2.53406
0.108364,-0.275885,2.517,2.53439
0.116534,-0.275885,2.517,2.53475
0.123811,-0.273912,2.499,2.51701
0.131923,-0.273912,2.499,2.51743
0.140034,-0.273912,2.499,2.51786
0.148145,-0.273912,2.499,2.51833
0.156256,-0.273912,2.499,2.51882
0.164367,-0.273912,2.499,2.51933
0.172478,-0.273912,2.499,2.51988
0.180589,-0.273912,2.499,2.52044
0.188701,-0.273912,2.499,2.52104
0.196812,-0.273912,2.499,2.52166
0.204923,-0.273912,2.499,2.52231
0.213034,-0.273912,2.499,2.52298
0.221145,-0.273912,2.499,2.52367
0.229256,-0.273912,2.499,2.5244
0.237367,-0.273912,2.499,2.52515
0.245479,-0.273912,2.499,2.52592
0.25359,-0.273912,2.499,2.52672
0.261701,-0.273912,2.499,2.52755
0.269812,-0.273912,2.499,2.5284
0.277923,-0.273912,2.499,2.52928
0.286034,-0.273912,2.499,2.53019
0.294145,-0.273912,2.499,2.53112
0.302256,-0.273912,2.499,2.53207
0.310368,-0.273912,2.499,2.53305
0.318479,-0.273912,2.499,2.53406
0.32659,-0.273912,2.499,2.53509
0.334701,-0.273912,2.499,2.53615
0.342812,-0.273912,2.499,2.53723
0.350923,-0.273912,2.499,2.53834
0.359034,-0.273912,2.499,2.53948
0.367146,-0.273912,2.499,2.54063
0.375257,-0.273912,2.499,2.54182
0.383368,-0.273912,2.499,2.54303
0.391479,-0.273912,2.499,2.54427
0.39959,-0.273912,2.499,2.54553
0.407701,-0.273912,2.499,2.54681
0.415812,-0.273912,2.499,2.54812
0.423923,-0.273912,2.499,2.54946
0.432035,-0.273912,2.499,2.55082
0.440146,-0.273912,2.499,2.55221
0.445028,-0.271939,2.481,2.53522
0.453081,-0.271939,2.481,2.53665
0.461134,-0.271939,2.481,2.5381
0.469186,-0.271939,2.481,2.53958
0.477239,-0.271939,2.481,2.54108
0.485292,-0.271939,2.481,2.5426
0.493344,-0.271939,2.481,2.54415
0.501397,-0.271939,2.481,2.54572
0.50945,-0.271939,2.481,2.54732
0.517502,-0.271939,2.481,2.54895
0.525555,-0.271939,2.481,2.55059
0.533608,-0.271939,2.481,2.55226
0.541661,-0.271939,2.481,2.55396
0.549713,-0.271939,2.481,2.55568
0.553719,-0.269966,2.463,2.53887
0.561714,-0.269966,2.463,2.54062
0.569708,-0.269966,2.463,2.5424
0.577702,-0.269966,2.463,2.54421
0.585697,-0.269966,2.463,2.54603
0.593691,-0.269966,2.463,2.54789
0.601685,-0.269966,2.463,2.54976
0.609679,-0.269966,2.463,2.55166
0.617674,-0.269966,2.463,2.55358
0.63024,-0.271939,2.481,2.5742
0.638293,-0.271939,2.481,2.57619
0.646346,-0.271939,2.481,2.57819
0.654399,-0.271939,2.481,2.58022
0.662451,-0.271939,2.481,2.58228
0.670504,-0.271939,2.481,2.58435
0.678557,-0.271939,2.481,2.58646
0.686609,-0.271939,2.481,2.58858
0.694662,-0.271939,2.481,2.59073
0.702715,-0.271939,2.481,2.5929
0.710768,-0.271939,2.481,2.59509
0.71882,-0.271939,2.481,2.59731
0.726873,-0.271939,2.481,2.59955
0.734926,-0.271939,2.481,2.60181
0.742978,-0.271939,2.481,2.6041
0.751031,-0.271939,2.481,2.60641
0.759084,-0.271939,2.481,2.60874
0.767137,-0.271939,2.481,2.61109
0.775189,-0.271939,2.481,2.61347
0.777559,-0.269966,2.463,2.59689
0.785554,-0.269966,2.463,2.5993
0.793548,-0.269966,2.463,2.60172
0.801542,-0.269966,2.463,2.60417
0.809537,-0.269966,2.463,2.60665
0.817531,-0.269966,2.463,2.60914
0.825525,-0.269966,2.463,2.61166
0.833519,-0.269966,2.463,2.61419
0.835364,-0.267993,2.445,2.59763
0.8433,-0.267993,2.445,2.60019
0.851236,-0.267993,2.445,2.60278
0.859171,-0.267993,2.445,2.60538
0.867107,-0.267993,2.445,2.60801
0.868959,-0.26613,2.428,2.59251
0.87684,-0.26613,2.428,2.59516
0.88472,-0.26613,2.428,2.59783
0.892601,-0.26613,2.428,2.60053
0.894177,-0.264266,2.411,2.58502
0.902002,-0.264266,2.411,2.58773
0.909828,-0.264266,2.411,2.59047
0.911183,-0.262403,2.394,2.57495
0.918953,-0.262403,2.394,2.57771
0.926724,-0.262403,2.394,2.58049
0.934494,-0.262403,2.394,2.58329
0.942264,-0.262403,2.394,2.58611
0.950035,-0.262403,2.394,2.58895
0.951003,-0.26054,2.377,2.57341
0.958719,-0.26054,2.377,2.57627
0.966434,-0.26054,2.377,2.57915
0.974149,-0.26054,2.377,2.58205
0.981864,-0.26054,2.377,2.58497
nan,nan,nan,NaN
nan,nan,nan,NaN
nan,nan,nan,NaN
nan,nan,nan,NaN
nan,nan,nan,NaN
nan,nan,nan,NaN
nan,nan,nan,NaN
nan,nan,nan,NaN
nan,nan,nan,NaN
nan,nan,nan,NaN
nan,nan,nan,NaN
nan,nan,nan,NaN
nan,nan,nan,NaN
1.70611,-0.407854,3.721,4.11376
1.71819,-0.407854,3.721,4.11878
1.73027,-0.407854,3.721,4.12383
1.74234,-0.407854,3.721,4.12892
1.75442,-0.407854,3.721,4.13403
1.7665,-0.407854,3.721,4.13917
1.77858,-0.407854,3.721,4.14434
1.79065,-0.407854,3.721,4.14953
1.8226,-0.412348,3.762,4.20054
1.81481,-0.407854,3.721,4.16001
1.82689,-0.407854,3.721,4.1653
1.8192,-0.403469,3.681,4.12578
1.83114,-0.403469,3.681,4.13106
1.82356,-0.399194,3.642,4.09254
1.81623,-0.395029,3.604,4.05507
1.82793,-0.395029,3.604,4.06032
1.82023,-0.390864,3.566,4.02273
1.83181,-0.390864,3.566,4.02798
1.86303,-0.395029,3.604,4.07624
1.87472,-0.395029,3.604,4.0816
1.88642,-0.395029,3.604,4.08699
nan,nan,nan,NaN
1.90982,-0.395029,3.604,4.09784
1.92151,-0.395029,3.604,4.1033
1.93321,-0.395029,3.604,4.10879
1.96542,-0.399194,3.642,4.15769
1.97724,-0.399194,3.642,4.16329
1.98906,-0.399194,3.642,4.16892
2.02231,-0.403469,3.681,4.21927
2.03425,-0.403469,3.681,4.22501
2.0462,-0.403469,3.681,4.23078
2.05815,-0.403469,3.681,4.23657
2.0701,-0.403469,3.681,4.24239
2.05998,-0.399194,3.642,4.20322
2.07181,-0.399194,3.642,4.20903
2.08363,-0.399194,3.642,4.21486
2.07358,-0.395029,3.604,4.17667
2.08528,-0.395029,3.604,4.18249
2.09698,-0.395029,3.604,4.18834
2.08644,-0.390864,3.566,4.14999
2.07625,-0.386809,3.529,4.1127
2.0877,-0.386809,3.529,4.11849
2.07774,-0.382863,3.493,4.08224
2.04722,-0.37519,3.423,4.00609
2.05833,-0.37519,3.423,4.01178
2.02893,-0.367846,3.356,3.93886
