1.16296,0.647762,1.934,2.34785
1.16258,0.644078,1.923,2.3376
1.16883,0.644078,1.923,2.34071
1.17507,0.644078,1.923,2.34383
1.18131,0.644078,1.923,2.34697
1.18755,0.644078,1.923,2.35012
1.19379,0.644078,1.923,2.35328
1.20003,0.644078,1.923,2.35645
1.20628,0.644078,1.923,2.35963
1.21252,0.644078,1.923,2.36283
1.21179,0.640394,1.912,2.3525
1.21799,0.640394,1.912,2.35571
1.2242,0.640394,1.912,2.35892
1.2304,0.640394,1.912,2.36215
1.23661,0.640394,1.912,2.36539
1.24282,0.640394,1.912,2.36864
1.24902,0.640394,1.912,2.3719
1.24866,0.637044,1.902,2.36275
1.25484,0.637044,1.902,2.36602
1.26764,0.640394,1.912,2.38176
1.27385,0.640394,1.912,2.38506
1.28005,0.640394,1.912,2.38838
1.29366,0.644078,1.923,2.40548
1.2999,0.644078,1.923,2.40884
1.31361,0.647762,1.934,2.42601
-1.6268,0.793029,2.345,2.96216
-1.61919,0.793029,2.345,2.95799
-1.61158,0.793029,2.345,2.95383
-1.60397,0.793029,2.345,2.94968
-1.59636,0.793029,2.345,2.94555
-1.57791,0.787619,2.329,2.92137
-1.57035,0.787619,2.329,2.91729
-1.56279,0.787619,2.329,2.91323
-1.54454,0.782208,2.313,2.88919
-1.52707,0.777135,2.298,2.86648
-1.51961,0.777135,2.298,2.86251
-1.50162,0.771724,2.282,2.83865
-1.49422,0.771724,2.282,2.83474
-1.48681,0.771724,2.282,2.83085
-1.46968,0.766651,2.267,2.80838
-1.46232,0.766651,2.267,2.80454
-1.44534,0.761579,2.252,2.78218
-1.43803,0.761579,2.252,2.77839
-1.43072,0.761579,2.252,2.77461
-1.42341,0.761579,2.252,2.77085
-1.42553,0.766651,2.267,2.78553
-1.41817,0.766651,2.267,2.78177
-1.41081,0.766651,2.267,2.77803
-1.41274,0.771724,2.282,2.79265
-1.40533,0.771724,2.282,2.78892
-1.39793,0.771724,2.282,2.78519
-1.39052,0.771724,2.282,2.78148
-1.38311,0.771724,2.282,2.77778
-1.37571,0.771724,2.282,2.7741
-1.37789,0.777135,2.298,2.78986
-1.37044,0.777135,2.298,2.78619
-1.35349,0.771724,2.282,2.76315
-1.34608,0.771724,2.282,2.75953
-1.33867,0.771724,2.282,2.75593
-1.32252,0.766651,2.267,2.73424
-1.31516,0.766651,2.267,2.73069
-1.3078,0.766651,2.267,2.72716
-1.29184,0.761579,2.252,2.70561
-1.27597,0.756506,2.237,2.68413
-1.26871,0.756506,2.237,2.68069
-1.26145,0.756506,2.237,2.67726
-1.25419,0.756506,2.237,2.67385
-1.23912,0.751772,2.223,2.65374
-1.23191,0.751772,2.223,2.65038
-1.22469,0.751772,2.223,2.64703
-1.21748,0.751772,2.223,2.6437
-1.21026,0.751772,2.223,2.64038
-1.20305,0.751772,2.223,2.63708
-1.19583,0.751772,2.223,2.6338
-1.18862,0.751772,2.223,2.63053
-1.1814,0.751772,2.223,2.62728
-1.15887,0.741964,2.194,2.58981
-1.15175,0.741964,2.194,2.58663
-1.14463,0.741964,2.194,2.58347
-1.12351,0.732834,2.167,2.54857
-1.10256,0.723703,2.14,2.51376
-1.09562,0.723703,2.14,2.51072
-1.08155,0.718968,2.126,2.49129
-1.06151,0.710176,2.1,2.45787
-1.05469,0.710176,2.1,2.45494
-1.04139,0.705779,2.087,2.43684
-1.02222,0.697325,2.062,2.40479
-1.01553,0.697325,2.062,2.40196
-1.00296,0.693267,2.05,2.38517
-0.990477,0.689209,2.038,2.36844
-0.983863,0.689209,2.038,2.36568
-0.977248,0.689209,2.038,2.36294
-0.964918,0.68515,2.026,2.34631
-0.952666,0.681092,2.014,2.32973
-0.946129,0.681092,2.014,2.32707
-0.939592,0.681092,2.014,2.32442
-0.933055,0.681092,2.014,2.32178
-0.937559,0.689209,2.038,2.3468
-0.925462,0.68515,2.026,2.33036
-0.913444,0.681092,2.014,2.31397
-0.906907,0.681092,2.014,2.3114
-0.895005,0.677034,2.002,2.29508
-0.888507,0.677034,2.002,2.29256
-0.876723,0.672976,1.99,2.27632
-0.870264,0.672976,1.99,2.27384
-0.863804,0.672976,1.99,2.27138
-0.857345,0.672976,1.99,2.26893
-0.850886,0.672976,1.99,2.2665
-0.844427,0.672976,1.99,2.26408
-0.837968,0.672976,1.99,2.26168
-0.831509,0.672976,1.99,2.25929
-0.82505,0.672976,1.99,2.25692
-0.823527,0.677034,2.002,2.26817
-0.821927,0.681092,2.014,2.2794
-0.81539,0.681092,2.014,2.27705
-0.808853,0.681092,2.014,2.27471
-0.802316,0.681092,2.014,2.2724
-0.795779,0.681092,2.014,2.2701
-0.789242,0.681092,2.014,2.26782
-0.787369,0.68515,2.026,2.27905
-0.780793,0.68515,2.026,2.27678
-0.774217,0.68515,2.026,2.27454
-0.767641,0.68515,2.026,2.27231
-0.761065,0.68515,2.026,2.27009
-0.754489,0.68515,2.026,2.2679
-0.747913,0.68515,2.026,2.26572
-0.741337,0.68515,2.026,2.26356
-0.734761,0.68515,2.026,2.26141
-0.728186,0.68515,2.026,2.25928
-0.72161,0.68515,2.026,2.25717
-0.715034,0.68515,2.026,2.25508
-0.708458,0.68515,2.026,2.253
-0.701882,0.68515,2.026,2.25094
-0.695306,0.68515,2.026,2.2489
-0.684651,0.681092,2.014,2.23357
-0.678114,0.681092,2.014,2.23157
-0.671577,0.681092,2.014,2.2296
-0.66504,0.681092,2.014,2.22764
-0.658503,0.681092,2.014,2.22569
-0.651966,0.681092,2.014,2.22377
-0.645429,0.681092,2.014,2.22186
-0.638892,0.681092,2.014,2.21997
-0.628587,0.677034,2.002,2.20488
-0.62209,0.677034,2.002,2.20304
-0.615592,0.677034,2.002,2.20121
-0.605443,0.672976,1.99,2.18622
-0.598984,0.672976,1.99,2.18444
-0.592525,0.672976,1.99,2.18268
-0.582826,0.669256,1.979,2.16888
-0.576403,0.669256,1.979,2.16716
-0.569979,0.669256,1.979,2.16546
-0.560139,0.665198,1.967,2.15066
-0.553754,0.665198,1.967,2.149
-0.54737,0.665198,1.967,2.14737
-0.53796,0.661478,1.956,2.13375
-0.528622,0.657758,1.945,2.12017
-0.522309,0.657758,1.945,2.1186
-0.515996,0.657758,1.945,2.11706
-0.509683,0.657758,1.945,2.11553
-0.50337,0.657758,1.945,2.11401
-0.494246,0.654038,1.934,2.10057
-0.485193,0.650318,1.923,2.08716
-0.478951,0.650318,1.923,2.08572
-0.47271,0.650318,1.923,2.0843
-0.466468,0.650318,1.923,2.08289
-0.457594,0.646598,1.912,2.0696
-0.451388,0.646598,1.912,2.06823
-0.445182,0.646598,1.912,2.06689
-0.436681,0.643216,1.902,2.05476
-0.430507,0.643216,1.902,2.05345
-0.424334,0.643216,1.902,2.05217
-0.415742,0.639496,1.891,2.03904
-0.409604,0.639496,1.891,2.0378
-0.403467,0.639496,1.891,2.03657
-0.397329,0.639496,1.891,2.03536
-0.391191,0.639496,1.891,2.03417
-0.385053,0.639496,1.891,2.033
-0.378916,0.639496,1.891,2.03185
-0.372778,0.639496,1.891,2.03071
-0.36664,0.639496,1.891,2.0296
-0.360503,0.639496,1.891,2.0285
-0.354365,0.639496,1.891,2.02741
-0.348227,0.639496,1.891,2.02635
-0.342089,0.639496,1.891,2.02531
-0.337906,0.643216,1.902,2.03605
-0.331732,0.643216,1.902,2.03504
-0.325559,0.643216,1.902,2.03404
-0.319386,0.643216,1.902,2.03306
-0.314859,0.646598,1.912,2.04278
-0.308653,0.646598,1.912,2.04184
-0.302447,0.646598,1.912,2.04091
-0.296241,0.646598,1.912,2.04
-0.290035,0.646598,1.912,2.03911
-0.28383,0.646598,1.912,2.03823
-0.277624,0.646598,1.912,2.03738
-0.271418,0.646598,1.912,2.03654
-0.263825,0.643216,1.902,2.02508
-0.257651,0.643216,1.902,2.02428
-0.250024,0.639496,1.891,2.0118
-0.243886,0.639496,1.891,2.01105
-0.237748,0.639496,1.891,2.01031
-0.230386,0.636114,1.881,1.99897
-0.22428,0.636114,1.881,1.99828
-0.217015,0.632733,1.871,1.98698
-0.209815,0.629351,1.861,1.97571
-0.203775,0.629351,1.861,1.97508
-0.196566,0.625631,1.85,1.96279
-0.190561,0.625631,1.85,1.9622
-0.184556,0.625631,1.85,1.96163
-0.177683,0.622587,1.841,1.95153
-0.170775,0.619205,1.831,1.9404
-0.164832,0.619205,1.831,1.93988
-0.158021,0.615824,1.821,1.9288
-0.152111,0.615824,1.821,1.92832
-0.1462,0.615824,1.821,1.92786
-0.14029,0.615824,1.821,1.92742
-0.133641,0.612442,1.811,1.91642
-0.127763,0.612442,1.811,1.91602
-0.121885,0.612442,1.811,1.91564
-0.116007,0.612442,1.811,1.91527
-0.110129,0.612442,1.811,1.91492
-0.104251,0.612442,1.811,1.9146
-0.0983729,0.612442,1.811,1.91428
-0.0920351,0.609398,1.802,1.90448
-0.0861863,0.609398,1.802,1.90421
-0.0803374,0.609398,1.802,1.90395
-0.0744886,0.609398,1.802,1.90371
-0.0686398,0.609398,1.802,1.90349
-0.0627909,0.609398,1.802,1.90329
-0.0569421,0.609398,1.802,1.90311
-0.0510932,0.609398,1.802,1.90294
-0.0452444,0.609398,1.802,1.90279
-0.0393955,0.609398,1.802,1.90266
-0.0335467,0.609398,1.802,1.90255
-0.0278362,0.612442,1.811,1.91196
-0.0219581,0.612442,1.811,1.91188
-0.0160801,0.612442,1.811,1.91182
-0.010202,0.612442,1.811,1.91178
-0.00434784,0.615824,1.821,1.92232
0.00156268,0.615824,1.821,1.92231
0.00747319,0.615824,1.821,1.92233
0.0134572,0.619205,1.831,1.93291
0.0194002,0.619205,1.831,1.93296
0.0253431,0.619205,1.831,1.93303
0.031457,0.622587,1.841,1.94368
0.0374324,0.622587,1.841,1.94378
0.0434078,0.622587,1.841,1.94391
0.0496247,0.625631,1.85,1.95355
0.0556293,0.625631,1.85,1.95372
0.061634,0.625631,1.85,1.9539
0.0676386,0.625631,1.85,1.9541
0.0736432,0.625631,1.85,1.95431
0.0796479,0.625631,1.85,1.95455
0.0856525,0.625631,1.85,1.9548
0.0916572,0.625631,1.85,1.95507
0.0976618,0.625631,1.85,1.95537
0.103666,0.625631,1.85,1.95567
0.109671,0.625631,1.85,1.956
0.115113,0.622587,1.841,1.94683
0.121088,0.622587,1.841,1.94719
0.128444,0.629351,1.861,1.96873
0.134485,0.629351,1.861,1.96913
0.139694,0.625631,1.85,1.95791
0.145699,0.625631,1.85,1.95835
0.151704,0.625631,1.85,1.95881
0.156941,0.622587,1.841,1.94975
0.162916,0.622587,1.841,1.95024
0.168892,0.622587,1.841,1.95075
0.174867,0.622587,1.841,1.95128
0.180843,0.622587,1.841,1.95182
0.186818,0.622587,1.841,1.95238
0.192794,0.622587,1.841,1.95296
0.199741,0.625631,1.85,1.96311
0.205745,0.625631,1.85,1.96373
0.21175,0.625631,1.85,1.96437
0.217755,0.625631,1.85,1.96503
0.223759,0.625631,1.85,1.9657
0.23113,0.629351,1.861,1.97809
0.23717,0.629351,1.861,1.9788
0.244518,0.632733,1.871,1.99017
0.25059,0.632733,1.871,1.99093
0.256663,0.632733,1.871,1.9917
0.26414,0.636114,1.881,2.00314
0.271682,0.639496,1.891,2.01461
0.27782,0.639496,1.891,2.01545
0.283958,0.639496,1.891,2.0163
0.291783,0.643216,1.902,2.02891
0.297956,0.643216,1.902,2.02981
0.30413,0.643216,1.902,2.03072
0.310303,0.643216,1.902,2.03165
0.316477,0.643216,1.902,2.03261
0.32265,0.643216,1.902,2.03358
0.328823,0.643216,1.902,2.03457
0.334997,0.643216,1.902,2.03557
0.339197,0.639496,1.891,2.02482
0.345335,0.639496,1.891,2.02586
0.351473,0.639496,1.891,2.02691
0.35761,0.639496,1.891,2.02798
0.363748,0.639496,1.891,2.02908
0.369886,0.639496,1.891,2.03019
0.376023,0.639496,1.891,2.03131
0.382161,0.639496,1.891,2.03246
0.388299,0.639496,1.891,2.03362
0.394437,0.639496,1.891,2.0348
0.400574,0.639496,1.891,2.036
0.406712,0.639496,1.891,2.03722
0.415251,0.643216,1.902,2.05031
0.421425,0.643216,1.902,2.05157
0.427598,0.643216,1.902,2.05284
0.433772,0.643216,1.902,2.05414
0.439945,0.643216,1.902,2.05545
0.446118,0.643216,1.902,2.05678
0.452292,0.643216,1.902,2.05813
0.458465,0.643216,1.902,2.0595
0.461951,0.639496,1.891,2.04896
0.468089,0.639496,1.891,2.05035
0.474227,0.639496,1.891,2.05176
0.477824,0.636114,1.881,2.04233
0.48393,0.636114,1.881,2.04377
0.490035,0.636114,1.881,2.04522
0.49614,0.636114,1.881,2.04669
0.499575,0.632733,1.871,2.03729
0.502946,0.629351,1.861,2.02789
0.508986,0.629351,1.861,2.0294
0.515026,0.629351,1.861,2.03092
0.517987,0.625631,1.85,2.02045
0.523991,0.625631,1.85,2.022
0.529996,0.625631,1.85,2.02356
0.536001,0.625631,1.85,2.02514
0.542005,0.625631,1.85,2.02674
0.54801,0.625631,1.85,2.02836
0.551319,0.622587,1.841,2.02011
0.557295,0.622587,1.841,2.02175
0.56327,0.622587,1.841,2.02341
0.566154,0.619205,1.831,2.01408
0.572097,0.619205,1.831,2.01576
0.578039,0.619205,1.831,2.01745
0.583982,0.619205,1.831,2.01916
0.589925,0.619205,1.831,2.02089
0.599123,0.622587,1.841,2.03368
0.605098,0.622587,1.841,2.03545
0.611074,0.622587,1.841,2.03723
0.617049,0.622587,1.841,2.03903
0.623024,0.622587,1.841,2.04085
0.629,0.622587,1.841,2.04268
0.638079,0.625631,1.85,2.05452
0.640951,0.622587,1.841,2.04639
0.646926,0.622587,1.841,2.04827
0.652902,0.622587,1.841,2.05016
0.658877,0.622587,1.841,2.05208
0.664852,0.622587,1.841,2.054
0.670828,0.622587,1.841,2.05594
0.676803,0.622587,1.841,2.0579
0.67907,0.619205,1.831,2.04869
0.685013,0.619205,1.831,2.05066
0.690956,0.619205,1.831,2.05266
0.693093,0.615824,1.821,2.04344
0.699003,0.615824,1.821,2.04545
0.708785,0.619205,1.831,2.05873
0.714728,0.619205,1.831,2.06078
0.716735,0.615824,1.821,2.05158
0.722645,0.615824,1.821,2.05365
0.728556,0.615824,1.821,2.05574
0.7385,0.619205,1.831,2.06914
0.740377,0.615824,1.821,2.05996
0.746287,0.615824,1.821,2.06209
0.752198,0.615824,1.821,2.06424
0.758108,0.615824,1.821,2.0664
0.764019,0.615824,1.821,2.06858
0.769929,0.615824,1.821,2.07077
0.780101,0.619205,1.831,2.08435
0.786043,0.619205,1.831,2.08659
0.787661,0.615824,1.821,2.07742
0.793572,0.615824,1.821,2.07967
0.799482,0.615824,1.821,2.08193
0.805393,0.615824,1.821,2.08421
0.815758,0.619205,1.831,2.09796
0.821701,0.619205,1.831,2.10028
0.827644,0.619205,1.831,2.10261
0.833587,0.619205,1.831,2.10496
0.83953,0.619205,1.831,2.10732
0.845473,0.619205,1.831,2.10969
0.851416,0.619205,1.831,2.11208
0.857359,0.619205,1.831,2.11448
0.863302,0.619205,1.831,2.1169
0.869245,0.619205,1.831,2.11933
0.879968,0.622587,1.841,2.13336
0.885943,0.622587,1.841,2.13584
0.891919,0.622587,1.841,2.13832
0.897894,0.622587,1.841,2.14082
0.90387,0.622587,1.841,2.14333
0.909845,0.622587,1.841,2.14586
0.910846,0.619205,1.831,2.13673
0.916789,0.619205,1.831,2.13927
0.922732,0.619205,1.831,2.14182
0.928675,0.619205,1.831,2.14439
0.934618,0.619205,1.831,2.14697
0.945698,0.622587,1.841,2.16131
0.951673,0.622587,1.841,2.16393
0.957649,0.622587,1.841,2.16656
0.963624,0.622587,1.841,2.16921
0.969599,0.622587,1.841,2.17187
0.980344,0.625631,1.85,2.18517
0.986349,0.625631,1.85,2.18788
0.998254,0.629351,1.861,2.20361
1.00429,0.629351,1.861,2.20636
1.01033,0.629351,1.861,2.20911
1.02184,0.632733,1.871,2.22377
1.02791,0.632733,1.871,2.22656
1.03951,0.636114,1.881,2.24129
1.05729,0.643216,1.902,2.26918
1.06346,0.643216,1.902,2.27206
1.06963,0.643216,1.902,2.27496
1.08146,0.646598,1.912,2.28985
1.09393,0.650318,1.923,2.30597
1.10017,0.650318,1.923,2.30894
1.10641,0.650318,1.923,2.31192
1.11265,0.650318,1.923,2.31492
1.11889,0.650318,1.923,2.31792
1.12513,0.650318,1.923,2.32094
1.13138,0.650318,1.923,2.32397
1.13762,0.650318,1.923,2.32702
1.1504,0.654038,1.934,2.34341
1.15668,0.654038,1.934,2.34649
1.16296,0.654038,1.934,2.34959
1.16258,0.650318,1.923,2.33933
1.16883,0.650318,1.923,2.34243
1.17507,0.650318,1.923,2.34555
1.18131,0.650318,1.923,2.34869
1.18755,0.650318,1.923,2.35183
1.19379,0.650318,1.923,2.35499
1.20003,0.650318,1.923,2.35816
1.20628,0.650318,1.923,2.36134
1.21252,0.650318,1.923,2.36454
1.21179,0.646598,1.912,2.3542
1.21799,0.646598,1.912,2.3574
1.2242,0.646598,1.912,2.36061
1.2304,0.646598,1.912,2.36384
1.23661,0.646598,1.912,2.36707
1.24282,0.646598,1.912,2.37032
1.24902,0.646598,1.912,2.37358
1.24866,0.643216,1.902,2.36442
1.25484,0.643216,1.902,2.36769
1.26764,0.646598,1.912,2.38343
1.27385,0.646598,1.912,2.38674
1.28005,0.646598,1.912,2.39006
1.29366,0.650318,1.923,2.40715
1.2999,0.650318,1.923,2.41051
1.31361,0.654038,1.934,2.42769
-1.5942,0.784592,2.298,2.9048
-1.57569,0.779129,2.282,2.88052
-1.56828,0.779129,2.282,2.87647
-1.56088,0.779129,2.282,2.87244
-1.55347,0.779129,2.282,2.86842
-1.54606,0.779129,2.282,2.86442
-1.53866,0.779129,2.282,2.86042
-1.53125,0.779129,2.282,2.85645
-1.51383,0.774007,2.267,2.83373
-1.4965,0.768886,2.252,2.81109
-1.48919,0.768886,2.252,2.8072
-1.47201,0.763765,2.237,2.78466
-1.46475,0.763765,2.237,2.78083
-1.45749,0.763765,2.237,2.77701
-1.44115,0.758985,2.223,2.75585
-1.43394,0.758985,2.223,2.75208
-1.41774,0.754205,2.209,2.73102
-1.41057,0.754205,2.209,2.72731
-1.4034,0.754205,2.209,2.72361
-1.39623,0.754205,2.209,2.71992
-1.39786,0.758985,2.223,2.73346
-1.39065,0.758985,2.223,2.72978
-1.38343,0.758985,2.223,2.72611
-1.41274,0.779129,2.282,2.79471
-1.40533,0.779129,2.282,2.79097
-1.39793,0.779129,2.282,2.78725
-1.39052,0.779129,2.282,2.78354
-1.38311,0.779129,2.282,2.77985
-1.37571,0.779129,2.282,2.77617
-1.37789,0.784592,2.298,2.79195
-1.37044,0.784592,2.298,2.78828
-1.35349,0.779129,2.282,2.76523
-1.34608,0.779129,2.282,2.76161
-1.33867,0.779129,2.282,2.75801
-1.32252,0.774007,2.267,2.73632
-1.31516,0.774007,2.267,2.73277
-1.3078,0.774007,2.267,2.72923
-1.29184,0.768886,2.252,2.70768
-1.27597,0.763765,2.237,2.68619
-1.26871,0.763765,2.237,2.68275
-1.26145,0.763765,2.237,2.67932
-1.25419,0.763765,2.237,2.67591
-1.23912,0.758985,2.223,2.65579
-1.23191,0.758985,2.223,2.65243
-1.22469,0.758985,2.223,2.64909
-1.21748,0.758985,2.223,2.64576
-1.21026,0.758985,2.223,2.64245
-1.20305,0.758985,2.223,2.63915
-1.19583,0.758985,2.223,2.63587
-1.18862,0.758985,2.223,2.6326
-1.1814,0.758985,2.223,2.62935
-1.15887,0.749084,2.194,2.59186
-1.15175,0.749084,2.194,2.58868
-1.14463,0.749084,2.194,2.58552
-1.12351,0.739865,2.167,2.5506
-1.10256,0.730647,2.14,2.51577
-1.09562,0.730647,2.14,2.51273
-1.08155,0.725867,2.126,2.49329
-1.06151,0.71699,2.1,2.45985
-1.05469,0.71699,2.1,2.45692
-1.04139,0.712551,2.087,2.43881
-1.02222,0.704016,2.062,2.40674
-1.01553,0.704016,2.062,2.40391
-1.00296,0.699919,2.05,2.38712
-0.990477,0.695821,2.038,2.37037
-0.983863,0.695821,2.038,2.36761
-0.977248,0.695821,2.038,2.36487
-0.964918,0.691724,2.026,2.34824
-0.952666,0.687627,2.014,2.33165
-0.946129,0.687627,2.014,2.32899
-0.939592,0.687627,2.014,2.32634
-0.927495,0.68353,2.002,2.30986
-0.920997,0.68353,2.002,2.30726
-0.909018,0.679433,1.99,2.29086
-0.89757,0.675677,1.979,2.27566
-0.891146,0.675677,1.979,2.27313
-0.879358,0.67158,1.967,2.25685
-0.872974,0.67158,1.967,2.25437
-0.86659,0.67158,1.967,2.25191
-0.860205,0.67158,1.967,2.24946
-0.849046,0.667825,1.956,2.23446
-0.842697,0.667825,1.956,2.23205
-0.836349,0.667825,1.956,2.22966
-0.83,0.667825,1.956,2.22729
-0.823651,0.667825,1.956,2.22493
-0.821899,0.67158,1.967,2.23509
-0.815514,0.67158,1.967,2.23275
-0.814066,0.675677,1.979,2.24403
-0.807643,0.675677,1.979,2.24171
-0.80122,0.675677,1.979,2.2394
-0.794796,0.675677,1.979,2.23711
-0.792755,0.679433,1.99,2.24726
-0.786296,0.679433,1.99,2.24499
-0.779837,0.679433,1.99,2.24274
-0.778041,0.68353,2.002,2.25401
-0.771543,0.68353,2.002,2.25178
-0.765045,0.68353,2.002,2.24956
-0.758547,0.68353,2.002,2.24736
-0.752049,0.68353,2.002,2.24517
-0.745551,0.68353,2.002,2.243
-0.734623,0.679433,1.99,2.22742
-0.728164,0.679433,1.99,2.2253
-0.721705,0.679433,1.99,2.22319
-0.715246,0.679433,1.99,2.2211
-0.708787,0.679433,1.99,2.21903
-0.702328,0.679433,1.99,2.21698
-0.695869,0.679433,1.99,2.21494
-0.68941,0.679433,1.99,2.21292
-0.682951,0.679433,1.99,2.21092
-0.672753,0.675677,1.979,2.19672
-0.666329,0.675677,1.979,2.19476
-0.659906,0.675677,1.979,2.19282
-0.653483,0.675677,1.979,2.1909
-0.647059,0.675677,1.979,2.18899
-0.640636,0.675677,1.979,2.1871
-0.634213,0.675677,1.979,2.18522
-0.623983,0.67158,1.967,2.17013
-0.617598,0.67158,1.967,2.1683
-0.611214,0.67158,1.967,2.16649
-0.601447,0.667825,1.956,2.15259
-0.595098,0.667825,1.956,2.15083
-0.58875,0.667825,1.956,2.14908
-0.582401,0.667825,1.956,2.14735
-0.572813,0.664069,1.945,2.13357
-0.563296,0.660313,1.934,2.11983
-0.557019,0.660313,1.934,2.11817
-0.550741,0.660313,1.934,2.11653
-0.544464,0.660313,1.934,2.1149
-0.538187,0.660313,1.934,2.11329
-0.528884,0.656558,1.923,2.09969
-0.522643,0.656558,1.923,2.09813
-0.516401,0.656558,1.923,2.09658
-0.507241,0.652802,1.912,2.08307
-0.501035,0.652802,1.912,2.08157
-0.494829,0.652802,1.912,2.08008
-0.486068,0.649388,1.902,2.06775
-0.479895,0.649388,1.902,2.0663
-0.470981,0.645632,1.891,2.05294
-0.464844,0.645632,1.891,2.05154
-0.458706,0.645632,1.891,2.05015
-0.450175,0.642218,1.881,2.03796
-0.44407,0.642218,1.881,2.03662
-0.437964,0.642218,1.881,2.03529
-0.431859,0.642218,1.881,2.03399
-0.425754,0.642218,1.881,2.0327
-0.417418,0.638804,1.871,2.02063
-0.411345,0.638804,1.871,2.01939
-0.405272,0.638804,1.871,2.01816
-0.399199,0.638804,1.871,2.01695
-0.391025,0.63539,1.861,2.00498
-0.384985,0.63539,1.861,2.00381
-0.378945,0.63539,1.861,2.00266
-0.372904,0.63539,1.861,2.00152
-0.366864,0.63539,1.861,2.00041
-0.360824,0.63539,1.861,1.99931
-0.354783,0.63539,1.861,1.99823
-0.350617,0.638804,1.871,2.0079
-0.344544,0.638804,1.871,2.00684
-0.338471,0.638804,1.871,2.00581
-0.334175,0.642218,1.881,2.01551
-0.32807,0.642218,1.881,2.01451
-0.321965,0.642218,1.881,2.01352
-0.315859,0.642218,1.881,2.01255
-0.309754,0.642218,1.881,2.0116
-0.303649,0.642218,1.881,2.01067
-0.297544,0.642218,1.881,2.00976
-0.291438,0.642218,1.881,2.00887
-0.285333,0.642218,1.881,2.00799
-0.279228,0.642218,1.881,2.00713
-0.273122,0.642218,1.881,2.00629
-0.267017,0.642218,1.881,2.00547
-0.259525,0.638804,1.871,1.99401
-0.253452,0.638804,1.871,1.99323
-0.247379,0.638804,1.871,1.99246
-0.240017,0.63539,1.861,1.98107
-0.232593,0.631634,1.85,1.96864
-0.226589,0.631634,1.85,1.96794
-0.220584,0.631634,1.85,1.96726
-0.213536,0.628561,1.841,1.95703
-0.206433,0.625147,1.831,1.94576
-0.20049,0.625147,1.831,1.94514
-0.193484,0.621733,1.821,1.93392
-0.186544,0.618318,1.811,1.92272
-0.180666,0.618318,1.811,1.92215
-0.174788,0.618318,1.811,1.92161
-0.170775,0.625147,1.831,1.9423
-0.164832,0.625147,1.831,1.94179
-0.158021,0.621733,1.821,1.93069
-0.152111,0.621733,1.821,1.93022
-0.1462,0.621733,1.821,1.92976
-0.14029,0.621733,1.821,1.92932
-0.133641,0.618318,1.811,1.91831
-0.127763,0.618318,1.811,1.91791
-0.121885,0.618318,1.811,1.91752
-0.116007,0.618318,1.811,1.91716
-0.110129,0.618318,1.811,1.91681
-0.104251,0.618318,1.811,1.91648
-0.0983729,0.618318,1.811,1.91617
-0.0920351,0.615246,1.802,1.90636
-0.0861863,0.615246,1.802,1.90608
-0.0803374,0.615246,1.802,1.90583
-0.0744886,0.615246,1.802,1.90559
-0.0686398,0.615246,1.802,1.90537
-0.0627909,0.615246,1.802,1.90517
-0.0569421,0.615246,1.802,1.90499
-0.0510932,0.615246,1.802,1.90482
-0.0452444,0.615246,1.802,1.90467
-0.0393955,0.615246,1.802,1.90454
-0.0335467,0.615246,1.802,1.90443
-0.0278362,0.618318,1.811,1.91385
-0.0219581,0.618318,1.811,1.91377
-0.0160801,0.618318,1.811,1.91371
-0.010202,0.618318,1.811,1.91367
-0.00434784,0.621733,1.821,1.92422
0.00156268,0.621733,1.821,1.92421
0.00747319,0.621733,1.821,1.92423
0.0134572,0.625147,1.831,1.93483
0.0194002,0.625147,1.831,1.93488
0.0253431,0.625147,1.831,1.93494
0.031457,0.628561,1.841,1.9456
0.0374324,0.628561,1.841,1.94571
0.0434078,0.628561,1.841,1.94583
0.0496247,0.631634,1.85,1.95549
0.0556293,0.631634,1.85,1.95565
0.061634,0.631634,1.85,1.95583
0.0676386,0.631634,1.85,1.95603
0.0736432,0.631634,1.85,1.95624
0.0796479,0.631634,1.85,1.95648
0.0856525,0.631634,1.85,1.95673
0.0916572,0.631634,1.85,1.957
0.0976618,0.631634,1.85,1.95729
0.103666,0.631634,1.85,1.9576
0.109671,0.631634,1.85,1.95793
0.115113,0.628561,1.841,1.94875
0.121088,0.628561,1.841,1.94911
0.126374,0.625147,1.831,1.9389
0.132317,0.625147,1.831,1.9393
0.13826,0.625147,1.831,1.93971
0.144203,0.625147,1.831,1.94015
0.150146,0.625147,1.831,1.9406
0.155236,0.621733,1.821,1.93046
0.161147,0.621733,1.821,1.93095
0.167057,0.621733,1.821,1.93145
0.172968,0.621733,1.821,1.93197
0.178878,0.621733,1.821,1.93251
0.184789,0.621733,1.821,1.93306
0.190699,0.621733,1.821,1.93364
0.197689,0.625147,1.831,1.94485
0.203632,0.625147,1.831,1.94547
0.209575,0.625147,1.831,1.9461
0.215518,0.625147,1.831,1.94675
0.222671,0.628561,1.841,1.95805
0.229764,0.631634,1.85,1.96831
0.235769,0.631634,1.85,1.96902
0.243211,0.63539,1.861,1.98146
0.249251,0.63539,1.861,1.98221
0.255291,0.63539,1.861,1.98298
0.26414,0.642218,1.881,2.00509
0.270246,0.642218,1.881,2.0059
0.276351,0.642218,1.881,2.00673
0.282456,0.642218,1.881,2.00758
0.290095,0.645632,1.891,2.01913
0.296233,0.645632,1.891,2.02002
0.302371,0.645632,1.891,2.02093
0.308509,0.645632,1.891,2.02186
0.314646,0.645632,1.891,2.0228
0.320784,0.645632,1.891,2.02376
0.325193,0.642218,1.881,2.01404
0.331298,0.642218,1.881,2.01503
0.337403,0.642218,1.881,2.01605
0.345335,0.645632,1.891,2.0278
0.349614,0.642218,1.881,2.01813
0.355719,0.642218,1.881,2.01919
0.361824,0.642218,1.881,2.02028
0.36793,0.642218,1.881,2.02138
0.374035,0.642218,1.881,2.0225
0.38014,0.642218,1.881,2.02364
0.386245,0.642218,1.881,2.02479
0.392351,0.642218,1.881,2.02597
0.398456,0.642218,1.881,2.02716
0.406712,0.645632,1.891,2.03915
0.41285,0.645632,1.891,2.04038
0.418987,0.645632,1.891,2.04163
0.425125,0.645632,1.891,2.0429
0.428982,0.642218,1.881,2.03338
0.435088,0.642218,1.881,2.03468
0.441193,0.642218,1.881,2.03599
0.447298,0.642218,1.881,2.03732
0.455814,0.645632,1.891,2.04951
0.459509,0.642218,1.881,2.04004
0.465614,0.642218,1.881,2.04142
0.471719,0.642218,1.881,2.04282
0.475284,0.638804,1.871,2.03337
0.481357,0.638804,1.871,2.0348
0.48743,0.638804,1.871,2.03625
0.493502,0.638804,1.871,2.03771
0.499575,0.638804,1.871,2.03919
0.502946,0.63539,1.861,2.02978
0.508986,0.63539,1.861,2.03128
0.511982,0.631634,1.85,2.02079
0.517987,0.631634,1.85,2.02232
0.523991,0.631634,1.85,2.02386
0.529996,0.631634,1.85,2.02543
0.536001,0.631634,1.85,2.02701
0.542005,0.631634,1.85,2.0286
0.545344,0.628561,1.841,2.02034
0.548325,0.625147,1.831,2.01098
0.554268,0.625147,1.831,2.01261
0.557151,0.621733,1.821,2.00325
0.563061,0.621733,1.821,2.0049
0.572097,0.625147,1.831,2.01759
0.578039,0.625147,1.831,2.01928
0.583982,0.625147,1.831,2.02099
0.589925,0.625147,1.831,2.02272
0.595868,0.625147,1.831,2.02446
0.601811,0.625147,1.831,2.02621
0.607754,0.625147,1.831,2.02799
0.613697,0.625147,1.831,2.02978
0.61964,0.625147,1.831,2.03158
0.625583,0.625147,1.831,2.0334
0.634975,0.628561,1.841,2.04635
0.637469,0.625147,1.831,2.03709
0.643412,0.625147,1.831,2.03896
0.649355,0.625147,1.831,2.04084
0.651719,0.621733,1.821,2.03158
0.65763,0.621733,1.821,2.03349
0.66354,0.621733,1.821,2.03541
0.669451,0.621733,1.821,2.03734
0.671653,0.618318,1.811,2.02809
0.677531,0.618318,1.811,2.03005
0.683409,0.618318,1.811,2.03202
0.689287,0.618318,1.811,2.034
0.695165,0.618318,1.811,2.036
0.701043,0.618318,1.811,2.03801
0.706921,0.618318,1.811,2.04004
0.712799,0.618318,1.811,2.04209
0.718677,0.618318,1.811,2.04415
0.724555,0.618318,1.811,2.04622
0.730433,0.618318,1.811,2.04831
0.736311,0.618318,1.811,2.05041
0.742189,0.618318,1.811,2.05253
0.748067,0.618318,1.811,2.05466
0.753945,0.618318,1.811,2.05681
0.759823,0.618318,1.811,2.05897
0.765701,0.618318,1.811,2.06115
0.77158,0.618318,1.811,2.06334
0.777458,0.618318,1.811,2.06555
0.783336,0.618318,1.811,2.06777
0.793572,0.621733,1.821,2.08143
0.799482,0.621733,1.821,2.08369
0.805393,0.621733,1.821,2.08597
0.815758,0.625147,1.831,2.09972
0.821701,0.625147,1.831,2.10204
0.827644,0.625147,1.831,2.10437
0.833587,0.625147,1.831,2.10671
0.83953,0.625147,1.831,2.10907
0.845473,0.625147,1.831,2.11144
0.851416,0.625147,1.831,2.11383
0.857359,0.625147,1.831,2.11623
0.863302,0.625147,1.831,2.11865
0.869245,0.625147,1.831,2.12107
0.879968,0.628561,1.841,2.13511
0.885943,0.628561,1.841,2.13758
0.891919,0.628561,1.841,2.14007
0.897894,0.628561,1.841,2.14256
0.90387,0.628561,1.841,2.14508
0.909845,0.628561,1.841,2.1476
0.910846,0.625147,1.831,2.13846
0.916789,0.625147,1.831,2.141
0.922732,0.625147,1.831,2.14355
0.928675,0.625147,1.831,2.14611
0.934618,0.625147,1.831,2.14869
0.945698,0.628561,1.841,2.16303
0.951673,0.628561,1.841,2.16565
0.957649,0.628561,1.841,2.16829
0.963624,0.628561,1.841,2.17093
0.969599,0.628561,1.841,2.17359
0.980344,0.631634,1.85,2.1869
0.986349,0.631634,1.85,2.1896
0.998254,0.63539,1.861,2.20535
1.00429,0.63539,1.861,2.20809
1.01033,0.63539,1.861,2.21084
1.02184,0.638804,1.871,2.2255
1.02791,0.638804,1.871,2.2283
1.03951,0.642218,1.881,2.24303
1.05729,0.649388,1.902,2.27094
1.06346,0.649388,1.902,2.27382
1.06963,0.649388,1.902,2.27671
1.08146,0.652802,1.912,2.29161
1.09393,0.656558,1.923,2.30774
1.10017,0.656558,1.923,2.31071
1.10641,0.656558,1.923,2.31369
1.11265,0.656558,1.923,2.31668
1.11889,0.656558,1.923,2.31968
1.12513,0.656558,1.923,2.3227
1.13138,0.656558,1.923,2.32573
1.13762,0.656558,1.923,2.32877
1.14386,0.656558,1.923,2.33183
1.1501,0.656558,1.923,2.33489
1.15634,0.656558,1.923,2.33797
1.16258,0.656558,1.923,2.34107
1.16883,0.656558,1.923,2.34417
1.17507,0.656558,1.923,2.34729
1.18131,0.656558,1.923,2.35042
1.18755,0.656558,1.923,2.35357
1.19379,0.656558,1.923,2.35672
1.20003,0.656558,1.923,2.35989
1.19938,0.652802,1.912,2.34955
1.20558,0.652802,1.912,2.35273
1.20545,0.649388,1.902,2.34359
1.21162,0.649388,1.902,2.34677
1.2178,0.649388,1.902,2.34997
1.21689,0.645632,1.891,2.33956
1.21656,0.642218,1.881,2.33037
1.22267,0.642218,1.881,2.33356
1.22877,0.642218,1.881,2.33677
1.23488,0.642218,1.881,2.33998
1.24098,0.642218,1.881,2.34321
1.24709,0.642218,1.881,2.34645
1.25319,0.642218,1.881,2.3497
1.2593,0.642218,1.881,2.35296
1.2654,0.642218,1.881,2.35624
1.27151,0.642218,1.881,2.35952
1.28441,0.645632,1.891,2.37538
-1.5942,0.792048,2.298,2.90682
-1.57569,0.786534,2.282,2.88253
-1.56828,0.786534,2.282,2.87848
-1.56088,0.786534,2.282,2.87446
-1.55347,0.786534,2.282,2.87044
-1.54606,0.786534,2.282,2.86644
-1.53866,0.786534,2.282,2.86245
-1.53125,0.786534,2.282,2.85848
-1.51383,0.781364,2.267,2.83575
-1.4965,0.776193,2.252,2.81309
-1.48919,0.776193,2.252,2.80921
-1.47201,0.771024,2.237,2.78666
-1.46475,0.771024,2.237,2.78283
-1.45749,0.771024,2.237,2.77902
-1.44115,0.766198,2.223,2.75785
-1.43394,0.766198,2.223,2.75408
-1.41774,0.761373,2.209,2.73301
-1.41057,0.761373,2.209,2.7293
-1.4034,0.761373,2.209,2.7256
-1.39623,0.761373,2.209,2.72192
-1.39786,0.766198,2.223,2.73547
-1.39065,0.766198,2.223,2.73179
-1.38343,0.766198,2.223,2.72813
-1.37622,0.766198,2.223,2.72447
-1.369,0.766198,2.223,2.72084
-1.37036,0.771024,2.237,2.73433
-1.3631,0.771024,2.237,2.73069
-1.36493,0.776193,2.252,2.74536
-1.35762,0.776193,2.252,2.74174
-1.35031,0.776193,2.252,2.73812
-1.343,0.776193,2.252,2.73453
-1.33569,0.776193,2.252,2.73094
-1.31954,0.771024,2.237,2.70921
-1.31228,0.771024,2.237,2.70568
-1.29685,0.766198,2.223,2.68526
-1.28963,0.766198,2.223,2.68178
-1.28242,0.766198,2.223,2.67832
-1.26717,0.761373,2.209,2.65802
-1.25144,0.756203,2.194,2.63659
-1.24432,0.756203,2.194,2.63321
-1.2372,0.756203,2.194,2.62986
-1.22223,0.751377,2.18,2.60975
-1.20791,0.746897,2.167,2.59091
-1.20088,0.746897,2.167,2.58763
-1.19384,0.746897,2.167,2.58438
-1.18681,0.746897,2.167,2.58114
-1.17978,0.746897,2.167,2.57791
-1.17274,0.746897,2.167,2.5747
-1.15818,0.742071,2.153,2.55489
-1.15119,0.742071,2.153,2.55173
-1.1442,0.742071,2.153,2.54858
-1.13035,0.737591,2.14,2.53008
-1.10923,0.728285,2.113,2.49511
-1.10237,0.728285,2.113,2.49206
-1.08877,0.723804,2.1,2.47372
-1.06907,0.715187,2.075,2.44132
-1.06234,0.715187,2.075,2.43838
-1.04899,0.710707,2.062,2.42019
-1.03623,0.70657,2.05,2.40323
-1.02958,0.70657,2.05,2.40037
-1.01694,0.702434,2.038,2.38349
-0.998424,0.694162,2.014,2.35264
-0.991887,0.694162,2.014,2.34987
-0.979479,0.690026,2.002,2.33314
-0.972981,0.690026,2.002,2.33041
-0.966483,0.690026,2.002,2.32771
-0.959985,0.690026,2.002,2.32502
-0.947772,0.68589,1.99,2.30842
-0.93611,0.682099,1.979,2.29303
-0.929686,0.682099,1.979,2.29042
-0.923263,0.682099,1.979,2.28782
-0.91128,0.677963,1.967,2.27138
-0.904896,0.677963,1.967,2.26882
-0.893487,0.674172,1.956,2.25361
-0.887138,0.674172,1.956,2.2511
-0.880789,0.674172,1.956,2.24861
-0.869523,0.67038,1.945,2.2335
-0.86321,0.67038,1.945,2.23105
-0.856897,0.67038,1.945,2.22861
-0.845774,0.666589,1.934,2.2136
-0.839496,0.666589,1.934,2.21121
-0.833219,0.666589,1.934,2.20883
-0.826942,0.666589,1.934,2.20647
-0.820665,0.666589,1.934,2.20413
-0.814387,0.666589,1.934,2.2018
-0.80811,0.666589,1.934,2.19949
-0.801833,0.666589,1.934,2.19719
-0.80008,0.67038,1.945,2.20739
-0.793767,0.67038,1.945,2.20511
-0.787454,0.67038,1.945,2.20284
-0.785559,0.674172,1.956,2.21304
-0.77921,0.674172,1.956,2.21079
-0.772862,0.674172,1.956,2.20856
-0.766513,0.674172,1.956,2.20635
-0.764439,0.677963,1.967,2.21655
-0.758055,0.677963,1.967,2.21436
-0.75167,0.677963,1.967,2.21218
-0.745286,0.677963,1.967,2.21002
-0.738902,0.677963,1.967,2.20787
-0.732517,0.677963,1.967,2.20574
-0.726133,0.677963,1.967,2.20363
-0.715724,0.674172,1.956,2.18922
-0.709375,0.674172,1.956,2.18716
-0.703026,0.674172,1.956,2.18511
-0.696677,0.674172,1.956,2.18307
-0.690329,0.674172,1.956,2.18105
-0.68398,0.674172,1.956,2.17905
-0.673821,0.67038,1.945,2.16483
-0.667508,0.67038,1.945,2.16287
-0.661195,0.67038,1.945,2.16093
-0.654882,0.67038,1.945,2.15901
-0.648569,0.67038,1.945,2.1571
-0.642256,0.67038,1.945,2.15521
-0.632346,0.666589,1.934,2.14116
-0.626069,0.666589,1.934,2.13931
-0.619791,0.666589,1.934,2.13748
-0.613514,0.666589,1.934,2.13567
-0.607237,0.666589,1.934,2.13388
-0.60096,0.666589,1.934,2.1321
-0.5913,0.662798,1.923,2.11822
-0.585058,0.662798,1.923,2.11649
-0.578817,0.662798,1.923,2.11477
-0.5693,0.659006,1.912,2.10098
-0.563094,0.659006,1.912,2.09931
-0.556888,0.659006,1.912,2.09766
-0.550682,0.659006,1.912,2.09602
-0.541629,0.65556,1.902,2.08344
-0.535455,0.65556,1.902,2.08184
-0.529282,0.65556,1.902,2.08026
-0.523108,0.65556,1.902,2.0787
-0.513945,0.651768,1.891,2.06514
-0.507808,0.651768,1.891,2.06363
-0.50167,0.651768,1.891,2.06212
-0.492912,0.648322,1.881,2.04974
-0.486807,0.648322,1.881,2.04828
-0.480701,0.648322,1.881,2.04684
-0.479895,0.65556,1.902,2.06825
-0.470981,0.651768,1.891,2.05487
-0.464844,0.651768,1.891,2.05348
-0.458706,0.651768,1.891,2.05209
-0.450175,0.648322,1.881,2.03989
-0.44407,0.648322,1.881,2.03855
-0.437964,0.648322,1.881,2.03723
-0.431859,0.648322,1.881,2.03592
-0.425754,0.648322,1.881,2.03464
-0.417418,0.644875,1.871,2.02256
-0.411345,0.644875,1.871,2.02131
-0.405272,0.644875,1.871,2.02009
-0.399199,0.644875,1.871,2.01888
-0.391025,0.641428,1.861,2.0069
-0.384985,0.641428,1.861,2.00573
-0.378945,0.641428,1.861,2.00458
-0.372904,0.641428,1.861,2.00345
-0.366864,0.641428,1.861,2.00233
-0.360824,0.641428,1.861,2.00124
-0.354783,0.641428,1.861,2.00016
-0.350617,0.644875,1.871,2.00984
-0.344544,0.644875,1.871,2.00878
-0.338471,0.644875,1.871,2.00775
-0.334175,0.648322,1.881,2.01746
-0.32807,0.648322,1.881,2.01646
-0.321965,0.648322,1.881,2.01548
-0.315859,0.648322,1.881,2.01451
-0.309754,0.648322,1.881,2.01356
-0.303649,0.648322,1.881,2.01263
-0.297544,0.648322,1.881,2.01172
-0.291438,0.648322,1.881,2.01083
-0.285333,0.648322,1.881,2.00995
-0.279228,0.648322,1.881,2.00909
-0.273122,0.648322,1.881,2.00825
-0.267017,0.648322,1.881,2.00743
-0.259525,0.644875,1.871,1.99596
-0.253452,0.644875,1.871,1.99518
-0.247379,0.644875,1.871,1.99442
-0.240017,0.641428,1.861,1.98302
-0.232593,0.637637,1.85,1.97058
-0.226589,0.637637,1.85,1.96988
-0.220584,0.637637,1.85,1.9692
-0.213536,0.634535,1.841,1.95896
-0.206433,0.631088,1.831,1.94768
-0.20049,0.631088,1.831,1.94706
-0.193484,0.627641,1.821,1.93582
-0.186544,0.624195,1.811,1.92461
-0.180666,0.624195,1.811,1.92405
-0.174788,0.624195,1.811,1.92351
-0.16807,0.621093,1.802,1.91343
-0.162221,0.621093,1.802,1.91292
-0.156372,0.621093,1.802,1.91244
-0.149688,0.617646,1.792,1.90136
-0.143872,0.617646,1.792,1.90091
-0.138056,0.617646,1.792,1.90048
-0.131575,0.614544,1.783,1.89052
-0.125788,0.614544,1.783,1.89013
-0.120001,0.614544,1.783,1.88975
-0.114213,0.614544,1.783,1.88939
-0.108426,0.614544,1.783,1.88905
-0.102639,0.614544,1.783,1.88873
-0.096363,0.611442,1.774,1.87889
-0.0906051,0.611442,1.774,1.8786
-0.0848471,0.611442,1.774,1.87833
-0.0790891,0.611442,1.774,1.87808
-0.0733312,0.611442,1.774,1.87785
-0.0675732,0.611442,1.774,1.87763
-0.0618153,0.611442,1.774,1.87743
-0.0560573,0.611442,1.774,1.87725
-0.0502993,0.611442,1.774,1.87709
-0.0445414,0.611442,1.774,1.87694
-0.0387834,0.611442,1.774,1.87682
-0.0330254,0.611442,1.774,1.87671
-0.0274058,0.614544,1.783,1.88613
-0.0216186,0.614544,1.783,1.88606
-0.0158315,0.614544,1.783,1.886
-0.0100443,0.614544,1.783,1.88596
-0.0042786,0.617646,1.792,1.89546
0.00153779,0.617646,1.792,1.89546
0.00739521,0.621093,1.802,1.90605
0.0132441,0.621093,1.802,1.90608
0.0190929,0.621093,1.802,1.90613
0.0250663,0.624195,1.811,1.91572
0.0309444,0.624195,1.811,1.9158
0.0368224,0.624195,1.811,1.91591
0.0427005,0.624195,1.811,1.91603
0.0488468,0.627641,1.821,1.92675
0.0547573,0.627641,1.821,1.92691
0.061001,0.631088,1.831,1.93767
0.0669439,0.631088,1.831,1.93786
0.0728869,0.631088,1.831,1.93808
0.0788299,0.631088,1.831,1.93831
0.0847729,0.631088,1.831,1.93856
0.0907158,0.631088,1.831,1.93883
0.0966588,0.631088,1.831,1.93912
0.102041,0.627641,1.821,1.92883
0.107952,0.627641,1.821,1.92915
0.113862,0.627641,1.821,1.92949
0.119115,0.624195,1.811,1.91925
0.124993,0.624195,1.811,1.91963
0.130221,0.621093,1.802,1.91048
0.13607,0.621093,1.802,1.91088
0.141919,0.621093,1.802,1.91131
0.147767,0.621093,1.802,1.91175
0.152764,0.617646,1.792,1.9016
0.15858,0.617646,1.792,1.90208
0.164397,0.617646,1.792,1.90257
0.170213,0.617646,1.792,1.90308
0.176029,0.617646,1.792,1.90361
0.181846,0.617646,1.792,1.90416
0.187662,0.617646,1.792,1.90472
0.194558,0.621093,1.802,1.91594
0.200407,0.621093,1.802,1.91654
0.206256,0.621093,1.802,1.91716
0.212105,0.621093,1.802,1.9178
0.219042,0.624195,1.811,1.92804
0.22492,0.624195,1.811,1.92871
0.230798,0.624195,1.811,1.92941
0.237983,0.627641,1.821,1.94078
0.245233,0.631088,1.831,1.95217
0.251176,0.631088,1.831,1.95293
0.258523,0.634535,1.841,1.96437
0.265792,0.637637,1.85,1.97477
0.271796,0.637637,1.85,1.97559
0.277801,0.637637,1.85,1.97642
0.283806,0.637637,1.85,1.97728
0.291534,0.641428,1.861,1.98991
0.297574,0.641428,1.861,1.9908
0.303614,0.641428,1.861,1.99172
0.309655,0.641428,1.861,1.99265
0.315695,0.641428,1.861,1.99359
0.321735,0.641428,1.861,1.99456
0.327776,0.641428,1.861,1.99554
0.333816,0.641428,1.861,1.99654
0.339856,0.641428,1.861,1.99756
0.345897,0.641428,1.861,1.9986
0.349857,0.637637,1.85,1.98783
0.355861,0.637637,1.85,1.9889
0.361866,0.637637,1.85,1.98998
0.367871,0.637637,1.85,1.99108
0.373875,0.637637,1.85,1.9922
0.378032,0.634535,1.841,1.98364
0.384007,0.634535,1.841,1.98479
0.389983,0.634535,1.841,1.98595
0.397894,0.637637,1.85,1.99685
0.403898,0.637637,1.85,1.99805
0.409903,0.637637,1.85,1.99928
0.415908,0.637637,1.85,2.00051
0.421912,0.637637,1.85,2.00177
0.425835,0.634535,1.841,1.9933
0.431811,0.634535,1.841,1.99459
0.437786,0.634535,1.841,1.99589
0.443762,0.634535,1.841,1.99721
0.449737,0.634535,1.841,1.99854
0.455712,0.634535,1.841,1.9999
0.461688,0.634535,1.841,2.00127
0.465123,0.631088,1.831,1.99178
0.471066,0.631088,1.831,1.99317
0.477009,0.631088,1.831,1.99459
0.482952,0.631088,1.831,1.99602
0.488895,0.631088,1.831,1.99746
0.502946,0.641428,1.861,2.03168
0.508986,0.641428,1.861,2.03318
0.511982,0.637637,1.85,2.02267
0.517987,0.637637,1.85,2.0242
0.523991,0.637637,1.85,2.02575
0.529996,0.637637,1.85,2.02731
0.536001,0.637637,1.85,2.02889
0.542005,0.637637,1.85,2.03048
0.545344,0.634535,1.841,2.02221
0.548325,0.631088,1.831,2.01283
0.554268,0.631088,1.831,2.01446
0.557151,0.627641,1.821,2.00509
0.563061,0.627641,1.821,2.00674
0.572097,0.631088,1.831,2.01944
0.578039,0.631088,1.831,2.02113
0.583982,0.631088,1.831,2.02284
0.589925,0.631088,1.831,2.02456
0.595868,0.631088,1.831,2.0263
0.601811,0.631088,1.831,2.02806
0.607754,0.631088,1.831,2.02983
0.613697,0.631088,1.831,2.03161
0.61964,0.631088,1.831,2.03342
0.625583,0.631088,1.831,2.03524
0.634975,0.634535,1.841,2.0482
0.637469,0.631088,1.831,2.03892
0.643412,0.631088,1.831,2.04079
0.649355,0.631088,1.831,2.04267
0.651719,0.627641,1.821,2.0334
0.65763,0.627641,1.821,2.0353
0.66354,0.627641,1.821,2.03722
0.669451,0.627641,1.821,2.03915
0.671653,0.624195,1.811,2.02989
0.677531,0.624195,1.811,2.03184
0.683409,0.624195,1.811,2.03381
0.689287,0.624195,1.811,2.03579
0.695165,0.624195,1.811,2.03779
0.701043,0.624195,1.811,2.0398
0.706921,0.624195,1.811,2.04183
0.712799,0.624195,1.811,2.04387
0.718677,0.624195,1.811,2.04593
0.724555,0.624195,1.811,2.048
0.730433,0.624195,1.811,2.05009
0.736311,0.624195,1.811,2.05219
0.742189,0.624195,1.811,2.05431
0.748067,0.624195,1.811,2.05644
0.753945,0.624195,1.811,2.05859
0.759823,0.624195,1.811,2.06075
0.765701,0.624195,1.811,2.06292
0.77158,0.624195,1.811,2.06511
0.777458,0.624195,1.811,2.06731
0.779443,0.621093,1.802,2.05925
0.785291,0.621093,1.802,2.06147
0.79114,0.621093,1.802,2.0637
0.796989,0.621093,1.802,2.06595
0.806848,0.624195,1.811,2.07854
0.812726,0.624195,1.811,2.08083
0.818604,0.624195,1.811,2.08314
0.824482,0.624195,1.811,2.08545
0.83036,0.624195,1.811,2.08778
0.840856,0.627641,1.821,2.10167
0.846766,0.627641,1.821,2.10404
0.852677,0.627641,1.821,2.10643
0.858587,0.627641,1.821,2.10883
0.864498,0.627641,1.821,2.11124
0.870408,0.627641,1.821,2.11367
0.876319,0.627641,1.821,2.11611
0.882229,0.627641,1.821,2.11856
0.88814,0.627641,1.821,2.12103
0.89405,0.627641,1.821,2.12351
0.899961,0.627641,1.821,2.12601
0.905871,0.627641,1.821,2.12852
0.911782,0.627641,1.821,2.13104
0.917692,0.627641,1.821,2.13357
0.923603,0.627641,1.821,2.13612
0.929513,0.627641,1.821,2.13868
0.935424,0.627641,1.821,2.14126
0.941334,0.627641,1.821,2.14385
0.952447,0.631088,1.831,2.15824
0.95839,0.631088,1.831,2.16087
0.964333,0.631088,1.831,2.16351
0.970276,0.631088,1.831,2.16616
0.976219,0.631088,1.831,2.16883
0.987526,0.634535,1.841,2.18337
0.993501,0.634535,1.841,2.18608
1.00436,0.637637,1.85,2.19951
1.01037,0.637637,1.85,2.20225
1.01637,0.637637,1.85,2.20502
1.02846,0.641428,1.861,2.22092
1.04005,0.644875,1.871,2.23567
1.04054,0.641428,1.861,2.22654
1.04658,0.641428,1.861,2.22937
1.06393,0.648322,1.881,2.2562
1.07003,0.648322,1.881,2.25908
1.07614,0.648322,1.881,2.26198
1.088,0.651768,1.891,2.27693
1.09414,0.651768,1.891,2.27987
1.10027,0.651768,1.891,2.28282
1.11285,0.65556,1.902,2.29909
1.11902,0.65556,1.902,2.30208
1.12519,0.65556,1.902,2.30509
1.13137,0.65556,1.902,2.30811
1.14352,0.659006,1.912,2.32329
1.14973,0.659006,1.912,2.32635
1.14989,0.65556,1.902,2.31724
1.15606,0.65556,1.902,2.32031
1.16224,0.65556,1.902,2.32339
1.16841,0.65556,1.902,2.32649
1.18076,0.659006,1.912,2.34184
1.18696,0.659006,1.912,2.34498
1.18693,0.65556,1.902,2.33584
1.1862,0.651768,1.891,2.32546
1.19234,0.651768,1.891,2.3286
1.19214,0.648322,1.881,2.31941
1.19187,0.644875,1.871,2.31021
1.19795,0.644875,1.871,2.31335
1.19759,0.641428,1.861,2.30412
1.20363,0.641428,1.861,2.30726
1.20967,0.641428,1.861,2.31042
1.20852,0.637637,1.85,2.29991
1.21452,0.637637,1.85,2.30307
1.22053,0.637637,1.85,2.30625
1.22653,0.637637,1.85,2.30943
1.23254,0.637637,1.85,2.31262
1.23854,0.637637,1.85,2.31583
1.24455,0.637637,1.85,2.31905
1.25055,0.637637,1.85,2.32228
1.26403,0.641428,1.861,2.33934
-1.50332,0.753928,2.167,2.74304
-1.49629,0.753928,2.167,2.73919
-1.48925,0.753928,2.167,2.73536
-1.49111,0.758451,2.18,2.74792
-1.48403,0.758451,2.18,2.74409
-1.47696,0.758451,2.18,2.74027
-1.47932,0.763322,2.194,2.75403
-1.48227,0.768541,2.209,2.76902
-1.4751,0.768541,2.209,2.76518
-1.46793,0.768541,2.209,2.76137
-1.46076,0.768541,2.209,2.75756
-1.45359,0.768541,2.209,2.75377
-1.44642,0.768541,2.209,2.74999
-1.43925,0.768541,2.209,2.74623
-1.42235,0.763322,2.194,2.72385
-1.41523,0.763322,2.194,2.72014
-1.40811,0.763322,2.194,2.71644
-1.40099,0.763322,2.194,2.71276
-1.39387,0.763322,2.194,2.70909
-1.38675,0.763322,2.194,2.70543
-1.37963,0.763322,2.194,2.70179
-1.3725,0.763322,2.194,2.69816
-1.36538,0.763322,2.194,2.69454
-1.35826,0.763322,2.194,2.69094
-1.35114,0.763322,2.194,2.68736
-1.35321,0.768541,2.209,2.70213
-1.34604,0.768541,2.209,2.69855
-1.33887,0.768541,2.209,2.69498
-1.3317,0.768541,2.209,2.69142
-1.32453,0.768541,2.209,2.68788
-1.31736,0.768541,2.209,2.68436
-1.31019,0.768541,2.209,2.68085
-1.29417,0.763322,2.194,2.65917
-1.28705,0.763322,2.194,2.65571
-1.27176,0.758451,2.18,2.63534
-1.25714,0.753928,2.167,2.61624
-1.25011,0.753928,2.167,2.61287
-1.24308,0.753928,2.167,2.60951
-1.22806,0.749057,2.153,2.58933
-1.2137,0.744535,2.14,2.57041
-1.20675,0.744535,2.14,2.56713
-1.19196,0.739664,2.126,2.5471
-1.18506,0.739664,2.126,2.54388
-1.17816,0.739664,2.126,2.54067
-1.16409,0.735141,2.113,2.52197
-1.15723,0.735141,2.113,2.51881
-1.15038,0.735141,2.113,2.51566
-1.14352,0.735141,2.113,2.51254
-1.12967,0.730618,2.1,2.49398
-1.12285,0.730618,2.1,2.4909
-1.10913,0.726095,2.087,2.47244
-1.09601,0.72192,2.075,2.45521
-1.08245,0.717397,2.062,2.43684
-1.07576,0.717397,2.062,2.43388
-1.06285,0.713222,2.05,2.41678
-1.04383,0.704872,2.026,2.3856
-1.03725,0.704872,2.026,2.38273
-1.01847,0.696523,2.002,2.35169
-1.01197,0.696523,2.002,2.34888
-1.00547,0.696523,2.002,2.34609
-0.992985,0.692348,1.99,2.32926
-0.981073,0.688521,1.979,2.31366
-0.97465,0.688521,1.979,2.31094
-0.962355,0.684346,1.967,2.29424
-0.955971,0.684346,1.967,2.29157
-0.949587,0.684346,1.967,2.28892
-0.937928,0.680519,1.956,2.27349
-0.931579,0.680519,1.956,2.27088
-0.92523,0.680519,1.956,2.26828
-0.918882,0.680519,1.956,2.2657
-0.907401,0.676691,1.945,2.2504
-0.895992,0.672864,1.934,2.23515
-0.889715,0.672864,1.934,2.23264
-0.883437,0.672864,1.934,2.23015
-0.872171,0.669037,1.923,2.215
-0.86593,0.669037,1.923,2.21255
-0.859688,0.669037,1.923,2.21011
-0.853446,0.669037,1.923,2.20769
-0.847205,0.669037,1.923,2.20529
-0.836153,0.66521,1.912,2.1903
-0.829947,0.66521,1.912,2.18794
-0.819433,0.661731,1.902,2.17416
-0.813259,0.661731,1.902,2.17184
-0.807086,0.661731,1.902,2.16953
-0.800912,0.661731,1.902,2.16725
-0.80811,0.672864,1.934,2.2014
-0.801833,0.672864,1.934,2.1991
-0.80008,0.676691,1.945,2.20931
-0.793767,0.676691,1.945,2.20703
-0.787454,0.676691,1.945,2.20477
-0.785559,0.680519,1.956,2.21498
-0.77921,0.680519,1.956,2.21274
-0.772862,0.680519,1.956,2.21051
-0.766513,0.680519,1.956,2.2083
-0.764439,0.684346,1.967,2.21851
-0.758055,0.684346,1.967,2.21632
-0.75167,0.684346,1.967,2.21414
-0.745286,0.684346,1.967,2.21198
-0.738902,0.684346,1.967,2.20984
-0.732517,0.684346,1.967,2.20771
-0.726133,0.684346,1.967,2.2056
-0.715724,0.680519,1.956,2.19119
-0.709375,0.680519,1.956,2.18912
-0.703026,0.680519,1.956,2.18707
-0.696677,0.680519,1.956,2.18504
-0.690329,0.680519,1.956,2.18302
-0.68398,0.680519,1.956,2.18103
-0.673821,0.676691,1.945,2.16679
-0.667508,0.676691,1.945,2.16483
-0.661195,0.676691,1.945,2.16289
-0.654882,0.676691,1.945,2.16097
-0.648569,0.676691,1.945,2.15907
-0.642256,0.676691,1.945,2.15718
-0.632346,0.672864,1.934,2.14312
-0.626069,0.672864,1.934,2.14128
-0.619791,0.672864,1.934,2.13945
-0.613514,0.672864,1.934,2.13764
-0.607237,0.672864,1.934,2.13585
-0.60096,0.672864,1.934,2.13407
-0.5913,0.669037,1.923,2.12018
-0.585058,0.669037,1.923,2.11845
-0.578817,0.669037,1.923,2.11674
-0.5693,0.66521,1.912,2.10294
-0.563094,0.66521,1.912,2.10127
-0.556888,0.66521,1.912,2.09961
-0.550682,0.66521,1.912,2.09798
-0.541629,0.661731,1.902,2.08539
-0.535455,0.661731,1.902,2.0838
-0.529282,0.661731,1.902,2.08222
-0.523108,0.661731,1.902,2.08066
-0.513945,0.657904,1.891,2.06709
-0.507808,0.657904,1.891,2.06557
-0.50167,0.657904,1.891,2.06407
-0.492912,0.654425,1.881,2.05168
-0.486807,0.654425,1.881,2.05022
-0.478146,0.650946,1.871,2.03789
-0.472073,0.650946,1.871,2.03647
-0.466,0.650946,1.871,2.03507
-0.459927,0.650946,1.871,2.03369
-0.451429,0.647467,1.861,2.02147
-0.445388,0.647467,1.861,2.02013
-0.439348,0.647467,1.861,2.0188
-0.430747,0.64364,1.85,2.00557
-0.424742,0.64364,1.85,2.00429
-0.418737,0.64364,1.85,2.00303
-0.412733,0.64364,1.85,2.00178
-0.404749,0.640508,1.841,1.99082
-0.398774,0.640508,1.841,1.98961
-0.392798,0.640508,1.841,1.98842
-0.386823,0.640508,1.841,1.98725
-0.380848,0.640508,1.841,1.9861
-0.374872,0.640508,1.841,1.98496
-0.368897,0.640508,1.841,1.98384
-0.362921,0.640508,1.841,1.98274
-0.356946,0.640508,1.841,1.98165
-0.35097,0.640508,1.841,1.98058
-0.344995,0.640508,1.841,1.97953
-0.340677,0.64364,1.85,1.98817
-0.334672,0.64364,1.85,1.98715
-0.328668,0.64364,1.85,1.98615
-0.322663,0.64364,1.85,1.98517
-0.316658,0.64364,1.85,1.9842
-0.312501,0.647467,1.861,1.99504
-0.306461,0.647467,1.861,1.9941
-0.30042,0.647467,1.861,1.99319
-0.29438,0.647467,1.861,1.99228
-0.288339,0.647467,1.861,1.9914
-0.282299,0.647467,1.861,1.99053
-0.276259,0.647467,1.861,1.98969
-0.268621,0.64364,1.85,1.9771
-0.262617,0.64364,1.85,1.97629
-0.255364,0.640508,1.841,1.96589
-0.249388,0.640508,1.841,1.96513
-0.243413,0.640508,1.841,1.96438
-0.236148,0.637029,1.831,1.95298
-0.228947,0.63355,1.821,1.94161
-0.223037,0.63355,1.821,1.94092
-0.217126,0.63355,1.821,1.94025
-0.210056,0.630071,1.811,1.92895
-0.203163,0.62694,1.802,1.91873
-0.197314,0.62694,1.802,1.91812
-0.190403,0.623461,1.792,1.90689
-0.184587,0.623461,1.792,1.90632
-0.17877,0.623461,1.792,1.90576
-0.172085,0.620329,1.783,1.89566
-0.166298,0.620329,1.783,1.89514
-0.160511,0.620329,1.783,1.89464
-0.153943,0.617198,1.774,1.8846
-0.148185,0.617198,1.774,1.88414
-0.141704,0.614067,1.765,1.87414
-0.135975,0.614067,1.765,1.87371
-0.130247,0.614067,1.765,1.8733
-0.124518,0.614067,1.765,1.87291
-0.118789,0.614067,1.765,1.87254
-0.112484,0.610936,1.756,1.86264
-0.106784,0.610936,1.756,1.86231
-0.101085,0.610936,1.756,1.86199
-0.0948964,0.607805,1.747,1.85214
-0.0892261,0.607805,1.747,1.85186
-0.0835558,0.607805,1.747,1.8516
-0.0778854,0.607805,1.747,1.85135
-0.0722151,0.607805,1.747,1.85112
-0.0665448,0.607805,1.747,1.85091
