-1.94439,-0.178299,2.926,3.51766
-1.91836,-0.176775,2.901,3.48241
-1.90894,-0.176775,2.901,3.47723
-1.89953,-0.176775,2.901,3.47207
-1.89011,-0.176775,2.901,3.46693
-1.8807,-0.176775,2.901,3.4618
-1.88741,-0.178299,2.926,3.48648
-1.87791,-0.178299,2.926,3.48135
-1.86841,-0.178299,2.926,3.47624
-1.8748,-0.179822,2.951,3.5008
-1.86522,-0.179822,2.951,3.49568
-1.88834,-0.182991,3.003,3.55209
-1.87859,-0.182991,3.003,3.54692
-1.88565,-0.184636,3.03,3.57361
-1.87581,-0.184636,3.03,3.56843
-1.88261,-0.186281,3.057,3.59502
-1.88922,-0.187927,3.084,3.62154
-1.87921,-0.187927,3.084,3.61633
-1.8692,-0.187927,3.084,3.61114
-1.85919,-0.187927,3.084,3.60596
-1.84918,-0.187927,3.084,3.60081
-1.83917,-0.187927,3.084,3.59568
-1.82916,-0.187927,3.084,3.59057
-1.81915,-0.187927,3.084,3.58548
-1.80915,-0.187927,3.084,3.58042
nan,nan,nan,NaN
nan,nan,nan,NaN
nan,nan,nan,NaN
nan,nan,nan,NaN
nan,nan,nan,NaN
nan,nan,nan,NaN
nan,nan,nan,NaN
nan,nan,nan,NaN
nan,nan,nan,NaN
nan,nan,nan,NaN
nan,nan,nan,NaN
nan,nan,nan,NaN
nan,nan,nan,NaN
nan,nan,nan,NaN
nan,nan,nan,NaN
nan,nan,nan,NaN
nan,nan,nan,NaN
nan,nan,nan,NaN
nan,nan,nan,NaN
nan,nan,nan,NaN
nan,nan,nan,NaN
nan,nan,nan,NaN
nan,nan,nan,NaN
nan,nan,nan,NaN
nan,nan,nan,NaN
nan,nan,nan,NaN
nan,nan,nan,NaN
nan,nan,nan,NaN
nan,nan,nan,NaN
-1.21383,-0.151182,2.481,2.76615
-1.20578,-0.151182,2.481,2.76263
-1.18904,-0.150085,2.463,2.73911
-1.18104,-0.150085,2.463,2.73564
-1.17305,-0.150085,2.463,2.7322
-1.16505,-0.150085,2.463,2.72878
-1.1486,-0.148989,2.445,2.70546
-1.14067,-0.148989,2.445,2.7021
-1.12485,-0.147953,2.428,2.67999
-1.11697,-0.147953,2.428,2.6767
-1.10133,-0.146917,2.411,2.6547
-1.0935,-0.146917,2.411,2.65146
-1.08568,-0.146917,2.411,2.64824
-1.07785,-0.146917,2.411,2.64505
-1.07003,-0.146917,2.411,2.64187
-1.0622,-0.146917,2.411,2.63871
-1.05437,-0.146917,2.411,2.63557
-1.04655,-0.146917,2.411,2.63245
-1.03872,-0.146917,2.411,2.62934
-1.0309,-0.146917,2.411,2.62626
-1.02307,-0.146917,2.411,2.6232
-1.01525,-0.146917,2.411,2.62016
-1.00742,-0.146917,2.411,2.61714
-1.00664,-0.147953,2.428,2.63257
-0.998763,-0.147953,2.428,2.62956
-0.990883,-0.147953,2.428,2.62658
-0.983002,-0.147953,2.428,2.62362
-0.975121,-0.147953,2.428,2.62067
-0.967241,-0.147953,2.428,2.61775
-0.95936,-0.147953,2.428,2.61485
-0.951479,-0.147953,2.428,2.61197
-0.943599,-0.147953,2.428,2.60911
-0.935718,-0.147953,2.428,2.60627
-0.927837,-0.147953,2.428,2.60345
-0.919957,-0.147953,2.428,2.60065
-0.912076,-0.147953,2.428,2.59788
-0.904195,-0.147953,2.428,2.59512
-0.896315,-0.147953,2.428,2.59238
-0.888434,-0.147953,2.428,2.58967
-0.880553,-0.147953,2.428,2.58698
-0.872672,-0.147953,2.428,2.58431
-0.858737,-0.146917,2.411,2.56358
-0.850911,-0.146917,2.411,2.56097
-0.843086,-0.146917,2.411,2.55838
-0.83526,-0.146917,2.411,2.55581
-0.827435,-0.146917,2.411,2.55326
-0.819609,-0.146917,2.411,2.55074
-0.811784,-0.146917,2.411,2.54823
-0.803958,-0.146917,2.411,2.54575
-0.796133,-0.146917,2.411,2.54329
-0.788307,-0.146917,2.411,2.54085
-0.780482,-0.146917,2.411,2.53844
-0.772656,-0.146917,2.411,2.53604
-0.764831,-0.146917,2.411,2.53367
-0.757005,-0.146917,2.411,2.53132
-0.74918,-0.146917,2.411,2.52899
-0.741354,-0.146917,2.411,2.52668
-0.733529,-0.146917,2.411,2.52439
-0.725703,-0.146917,2.411,2.52213
-0.717878,-0.146917,2.411,2.51989
-0.715059,-0.147953,2.428,2.53543
-0.707178,-0.147953,2.428,2.53321
-0.699297,-0.147953,2.428,2.53103
-0.691417,-0.147953,2.428,2.52886
-0.683536,-0.147953,2.428,2.52672
-0.675655,-0.147953,2.428,2.5246
-0.67245,-0.148989,2.445,2.54016
-0.664514,-0.148989,2.445,2.53807
-0.656578,-0.148989,2.445,2.536
-0.648643,-0.148989,2.445,2.53396
-0.640707,-0.148989,2.445,2.53194
-0.632771,-0.148989,2.445,2.52995
-0.624835,-0.148989,2.445,2.52797
-0.616899,-0.148989,2.445,2.52602
-0.608963,-0.148989,2.445,2.5241
-0.605452,-0.150085,2.463,2.54076
-0.597458,-0.150085,2.463,2.53887
-0.589464,-0.150085,2.463,2.537
-0.581469,-0.150085,2.463,2.53515
-0.573475,-0.150085,2.463,2.53333
-0.569613,-0.151182,2.481,2.55003
-0.561561,-0.151182,2.481,2.54825
-0.553508,-0.151182,2.481,2.54649
-0.545455,-0.151182,2.481,2.54475
-0.537403,-0.151182,2.481,2.54303
-0.53319,-0.152279,2.499,2.55978
-0.525079,-0.152279,2.499,2.5581
-0.520692,-0.153376,2.517,2.57487
-0.512522,-0.153376,2.517,2.57323
-0.504353,-0.153376,2.517,2.57161
-0.496183,-0.153376,2.517,2.57002
-0.488013,-0.153376,2.517,2.56846
-0.483466,-0.154534,2.536,2.58629
-0.475235,-0.154534,2.536,2.58477
-0.467004,-0.154534,2.536,2.58327
-0.458772,-0.154534,2.536,2.58179
-0.450541,-0.154534,2.536,2.58034
-0.44231,-0.154534,2.536,2.57892
-0.434079,-0.154534,2.536,2.57752
-0.425848,-0.154534,2.536,2.57614
-0.417616,-0.154534,2.536,2.5748
-0.409385,-0.154534,2.536,2.57347
-0.401154,-0.154534,2.536,2.57218
-0.392923,-0.154534,2.536,2.57091
-0.384691,-0.154534,2.536,2.56966
-0.37646,-0.154534,2.536,2.56844
-0.368229,-0.154534,2.536,2.56725
-0.359998,-0.154534,2.536,2.56608
-0.349131,-0.153376,2.517,2.54572
-0.340961,-0.153376,2.517,2.54462
-0.332792,-0.153376,2.517,2.54353
-0.324622,-0.153376,2.517,2.54248
-0.31419,-0.152279,2.499,2.52327
-0.306079,-0.152279,2.499,2.52228
-0.297967,-0.152279,2.499,2.5213
-0.289856,-0.152279,2.499,2.52036
-0.281745,-0.152279,2.499,2.51944
-0.273634,-0.152279,2.499,2.51854
-0.265523,-0.152279,2.499,2.51768
-0.257412,-0.152279,2.499,2.51683
-0.249301,-0.152279,2.499,2.51602
-0.24119,-0.152279,2.499,2.51523
-0.233078,-0.152279,2.499,2.51446
-0.224967,-0.152279,2.499,2.51372
-0.216856,-0.152279,2.499,2.51301
-0.208745,-0.152279,2.499,2.51232
-0.202079,-0.153376,2.517,2.52975
-0.193909,-0.153376,2.517,2.52911
-0.18574,-0.153376,2.517,2.5285
-0.17757,-0.153376,2.517,2.52791
-0.169401,-0.153376,2.517,2.52735
-0.161231,-0.153376,2.517,2.52682
-0.153062,-0.153376,2.517,2.52631
-0.144892,-0.153376,2.517,2.52583
-0.136723,-0.153376,2.517,2.52537
-0.128553,-0.153376,2.517,2.52494
-0.120383,-0.153376,2.517,2.52454
-0.111411,-0.152279,2.499,2.50611
-0.1033,-0.152279,2.499,2.50577
-0.0951891,-0.152279,2.499,2.50544
-0.087078,-0.152279,2.499,2.50515
-0.0789668,-0.152279,2.499,2.50488
-0.0708557,-0.152279,2.499,2.50464
-0.0622926,-0.151182,2.481,2.48638
-0.0538464,-0.150085,2.463,2.46816
-0.0458521,-0.150085,2.463,2.46799
-0.0378578,-0.150085,2.463,2.46786
-0.0296453,-0.148989,2.445,2.44971
-0.0217094,-0.148989,2.445,2.44963
-0.0137736,-0.148989,2.445,2.44957
-0.00583771,-0.148989,2.445,2.44954
0.00209816,-0.148989,2.445,2.44954
0.010034,-0.148989,2.445,2.44956
0.0179699,-0.148989,2.445,2.4496
0.0259057,-0.148989,2.445,2.44967
0.0338416,-0.148989,2.445,2.44977
0.0417775,-0.148989,2.445,2.44989
0.0500793,-0.150085,2.463,2.46808
0.0580736,-0.150085,2.463,2.46825
0.0660679,-0.150085,2.463,2.46845
0.0740622,-0.150085,2.463,2.46868
0.0826561,-0.151182,2.481,2.48698
0.0907089,-0.151182,2.481,2.48726
0.098045,-0.150085,2.463,2.46952
0.106039,-0.150085,2.463,2.46985
0.114867,-0.151182,2.481,2.48825
0.12292,-0.151182,2.481,2.48864
0.130972,-0.151182,2.481,2.48905
0.139025,-0.151182,2.481,2.48949
0.147078,-0.151182,2.481,2.48995
0.155131,-0.151182,2.481,2.49044
0.163183,-0.151182,2.481,2.49095
0.171236,-0.151182,2.481,2.49149
0.179289,-0.151182,2.481,2.49206
0.187341,-0.151182,2.481,2.49265
0.195394,-0.151182,2.481,2.49327
0.203447,-0.151182,2.481,2.49391
0.2115,-0.151182,2.481,2.49458
0.219552,-0.151182,2.481,2.49528
0.227605,-0.151182,2.481,2.496
0.235658,-0.151182,2.481,2.49675
0.24371,-0.151182,2.481,2.49752
0.251763,-0.151182,2.481,2.49832
0.259816,-0.151182,2.481,2.49914
0.267868,-0.151182,2.481,2.49999
0.275921,-0.151182,2.481,2.50087
0.283974,-0.151182,2.481,2.50177
0.292027,-0.151182,2.481,2.5027
0.300079,-0.151182,2.481,2.50365
0.308132,-0.151182,2.481,2.50463
0.316185,-0.151182,2.481,2.50563
0.32659,-0.152279,2.499,2.52485
0.334701,-0.152279,2.499,2.52591
0.342812,-0.152279,2.499,2.527
0.350923,-0.152279,2.499,2.52811
0.359034,-0.152279,2.499,2.52925
0.367146,-0.152279,2.499,2.53041
0.375257,-0.152279,2.499,2.5316
0.386129,-0.153376,2.517,2.55106
0.391479,-0.152279,2.499,2.53406
0.39959,-0.152279,2.499,2.53532
0.410638,-0.153376,2.517,2.55489
0.418807,-0.153376,2.517,2.55621
0.426977,-0.153376,2.517,2.55756
0.435146,-0.153376,2.517,2.55894
0.443316,-0.153376,2.517,2.56034
0.451486,-0.153376,2.517,2.56177
0.459655,-0.153376,2.517,2.56322
0.467825,-0.153376,2.517,2.5647
0.475994,-0.153376,2.517,2.5662
0.484164,-0.153376,2.517,2.56773
0.492333,-0.153376,2.517,2.56928
0.496924,-0.152279,2.499,2.55247
0.505035,-0.152279,2.499,2.55407
0.513146,-0.152279,2.499,2.55568
0.517502,-0.151182,2.481,2.5389
0.525555,-0.151182,2.481,2.54056
0.533608,-0.151182,2.481,2.54223
0.541661,-0.151182,2.481,2.54394
0.549713,-0.151182,2.481,2.54566
0.557766,-0.151182,2.481,2.54741
0.565819,-0.151182,2.481,2.54919
0.573871,-0.151182,2.481,2.55099
0.586146,-0.152279,2.499,2.57133
0.594257,-0.152279,2.499,2.57319
0.602368,-0.152279,2.499,2.57508
0.610479,-0.152279,2.499,2.57699
0.618591,-0.152279,2.499,2.57892
0.631216,-0.153376,2.517,2.59947
0.639385,-0.153376,2.517,2.60147
0.647555,-0.153376,2.517,2.60349
0.655725,-0.153376,2.517,2.60553
0.663894,-0.153376,2.517,2.6076
0.672064,-0.153376,2.517,2.60969
0.680233,-0.153376,2.517,2.61181
0.688403,-0.153376,2.517,2.61395
0.696572,-0.153376,2.517,2.61611
0.710062,-0.154534,2.536,2.63806
0.718293,-0.154534,2.536,2.64029
0.726524,-0.154534,2.536,2.64254
0.734755,-0.154534,2.536,2.64481
0.742987,-0.154534,2.536,2.64711
0.751218,-0.154534,2.536,2.64943
0.759449,-0.154534,2.536,2.65178
0.76768,-0.154534,2.536,2.65415
0.775912,-0.154534,2.536,2.65654
0.784143,-0.154534,2.536,2.65896
0.792374,-0.154534,2.536,2.6614
0.800605,-0.154534,2.536,2.66386
0.808836,-0.154534,2.536,2.66634
0.817068,-0.154534,2.536,2.66885
0.825299,-0.154534,2.536,2.67138
0.83353,-0.154534,2.536,2.67394
0.841761,-0.154534,2.536,2.67652
0.849993,-0.154534,2.536,2.67912
0.851794,-0.153376,2.517,2.66165
0.859963,-0.153376,2.517,2.66427
0.868133,-0.153376,2.517,2.66692
0.876303,-0.153376,2.517,2.66959
0.878147,-0.152279,2.499,2.65317
0.886258,-0.152279,2.499,2.65587
0.894369,-0.152279,2.499,2.65859
0.89598,-0.151182,2.481,2.64216
0.904033,-0.151182,2.481,2.6449
0.912085,-0.151182,2.481,2.64766
0.913462,-0.150085,2.463,2.63122
0.921457,-0.150085,2.463,2.634
0.929451,-0.150085,2.463,2.63681
0.930594,-0.148989,2.445,2.62035
0.93853,-0.148989,2.445,2.62318
0.946466,-0.148989,2.445,2.62603
0.947766,-0.147953,2.428,2.61062
0.948955,-0.146917,2.411,2.59519
0.956781,-0.146917,2.411,2.59806
0.964606,-0.146917,2.411,2.60096
nan,nan,nan,NaN
nan,nan,nan,NaN
nan,nan,nan,NaN
0.988886,-0.145881,2.394,2.5943
0.996657,-0.145881,2.394,2.59728
nan,nan,nan,NaN
nan,nan,nan,NaN
nan,nan,nan,NaN
nan,nan,nan,NaN
nan,nan,nan,NaN
nan,nan,nan,NaN
nan,nan,nan,NaN
nan,nan,nan,NaN
nan,nan,nan,NaN
nan,nan,nan,NaN
nan,nan,nan,NaN
nan,nan,nan,NaN
nan,nan,nan,NaN
nan,nan,nan,NaN
nan,nan,nan,NaN
nan,nan,nan,NaN
nan,nan,nan,NaN
nan,nan,nan,NaN
nan,nan,nan,NaN
nan,nan,nan,NaN
nan,nan,nan,NaN
nan,nan,nan,NaN
nan,nan,nan,NaN
nan,nan,nan,NaN
nan,nan,nan,NaN
nan,nan,nan,NaN
nan,nan,nan,NaN
nan,nan,nan,NaN
nan,nan,nan,NaN
nan,nan,nan,NaN
nan,nan,nan,NaN
nan,nan,nan,NaN
nan,nan,nan,NaN
nan,nan,nan,NaN
1.90982,-0.219614,3.604,4.08466
1.92151,-0.219614,3.604,4.09014
1.93321,-0.219614,3.604,4.09565
1.94491,-0.219614,3.604,4.10118
1.95661,-0.219614,3.604,4.10675
1.9683,-0.219614,3.604,4.11233
1.98,-0.219614,3.604,4.11794
1.9917,-0.219614,3.604,4.12358
2.0034,-0.219614,3.604,4.12924
2.0151,-0.219614,3.604,4.13493
2.00542,-0.217298,3.566,4.09699
1.99607,-0.215043,3.529,4.0601
2.00752,-0.215043,3.529,4.06574
1.97836,-0.210717,3.458,3.98949
1.96944,-0.208584,3.423,3.95464
1.96088,-0.206512,3.389,3.92085
1.97188,-0.206512,3.389,3.92636
1.96357,-0.204501,3.356,3.89361
1.95564,-0.202551,3.324,3.86193
1.96643,-0.202551,3.324,3.86741
1.95818,-0.200601,3.292,3.83562
1.94973,-0.198652,3.26,3.80375
1.96031,-0.198652,3.26,3.80918
1.93401,-0.194934,3.199,3.74326
1.92677,-0.193167,3.17,3.71465
1.93706,-0.193167,3.17,3.72
1.91172,-0.189633,3.112,3.65721
1.88785,-0.186281,3.057,3.59777
1.89778,-0.186281,3.057,3.60299
1.89085,-0.184636,3.03,3.57635
1.86744,-0.181407,2.977,3.51891
1.8771,-0.181407,2.977,3.52405
1.87028,-0.179822,2.951,3.49839
1.86394,-0.178299,2.926,3.47383
1.87343,-0.178299,2.926,3.47894
1.8514,-0.175313,2.877,3.42572
1.82969,-0.172388,2.829,3.37353
1.80897,-0.169585,2.783,3.32359
1.81801,-0.169585,2.783,3.32851
1.8126,-0.168244,2.761,3.3071
1.80704,-0.166904,2.739,3.28563
1.81593,-0.166904,2.739,3.29053
1.79618,-0.164284,2.696,3.24371
1.79087,-0.163004,2.675,3.22326
1.79955,-0.163004,2.675,3.22809
1.77984,-0.160445,2.633,3.18218
1.7748,-0.159226,2.613,3.16276
-2.01252,-0.167362,2.901,3.53469
-2.0031,-0.167362,2.901,3.52934
-1.99369,-0.167362,2.901,3.524
-1.98427,-0.167362,2.901,3.51868
-1.97485,-0.167362,2.901,3.51338
-1.96544,-0.167362,2.901,3.5081
-1.95602,-0.167362,2.901,3.50283
-1.96338,-0.168804,2.926,3.52772
-1.95389,-0.168804,2.926,3.52245
-1.92778,-0.167362,2.901,3.48714
-1.90249,-0.165978,2.877,3.45314
-1.89315,-0.165978,2.877,3.448
-1.88381,-0.165978,2.877,3.44288
-1.87447,-0.165978,2.877,3.43778
-1.86514,-0.165978,2.877,3.4327
-1.87128,-0.167362,2.901,3.45623
-1.86186,-0.167362,2.901,3.45114
-1.85245,-0.167362,2.901,3.44607
-1.85891,-0.168804,2.926,3.47067
-1.84942,-0.168804,2.926,3.46559
-1.87199,-0.171747,2.977,3.52085
-1.86233,-0.171747,2.977,3.51572
-1.86885,-0.173247,3.003,3.54127
-1.8591,-0.173247,3.003,3.53614
-1.86598,-0.174804,3.03,3.56277
-1.87268,-0.176362,3.057,3.58933
-1.86276,-0.176362,3.057,3.58416
-1.85284,-0.176362,3.057,3.57902
-1.85919,-0.17792,3.084,3.60546
-1.84918,-0.17792,3.084,3.60031
-1.83917,-0.17792,3.084,3.59517
-1.82916,-0.17792,3.084,3.59006
-1.81915,-0.17792,3.084,3.58497
-1.80915,-0.17792,3.084,3.5799
nan,nan,nan,NaN
nan,nan,nan,NaN
nan,nan,nan,NaN
nan,nan,nan,NaN
nan,nan,nan,NaN
nan,nan,nan,NaN
nan,nan,nan,NaN
nan,nan,nan,NaN
nan,nan,nan,NaN
nan,nan,nan,NaN
nan,nan,nan,NaN
nan,nan,nan,NaN
nan,nan,nan,NaN
nan,nan,nan,NaN
nan,nan,nan,NaN
nan,nan,nan,NaN
nan,nan,nan,NaN
nan,nan,nan,NaN
nan,nan,nan,NaN
nan,nan,nan,NaN
nan,nan,nan,NaN
nan,nan,nan,NaN
nan,nan,nan,NaN
nan,nan,nan,NaN
nan,nan,nan,NaN
nan,nan,nan,NaN
nan,nan,nan,NaN
nan,nan,nan,NaN
nan,nan,nan,NaN
-1.21383,-0.143132,2.481,2.76572
-1.20578,-0.143132,2.481,2.7622
-1.18904,-0.142093,2.463,2.73868
-1.18104,-0.142093,2.463,2.73522
-1.17305,-0.142093,2.463,2.73178
-1.16505,-0.142093,2.463,2.72835
-1.1486,-0.141055,2.445,2.70503
-1.14067,-0.141055,2.445,2.70167
-1.12485,-0.140074,2.428,2.67957
-1.11697,-0.140074,2.428,2.67627
-1.10133,-0.139094,2.411,2.65428
-1.0935,-0.139094,2.411,2.65104
-1.08568,-0.139094,2.411,2.64782
-1.07785,-0.139094,2.411,2.64462
-1.07003,-0.139094,2.411,2.64144
-1.0622,-0.139094,2.411,2.63828
-1.05437,-0.139094,2.411,2.63514
-1.04655,-0.139094,2.411,2.63202
-1.03872,-0.139094,2.411,2.62892
-1.0309,-0.139094,2.411,2.62584
-1.02307,-0.139094,2.411,2.62277
-1.02241,-0.140074,2.428,2.6382
-1.01452,-0.140074,2.428,2.63516
-1.00664,-0.140074,2.428,2.63214
-0.998763,-0.140074,2.428,2.62913
-0.990883,-0.140074,2.428,2.62615
-0.983002,-0.140074,2.428,2.62318
-0.975121,-0.140074,2.428,2.62024
-0.967241,-0.140074,2.428,2.61732
-0.95936,-0.140074,2.428,2.61442
-0.951479,-0.140074,2.428,2.61154
-0.943599,-0.140074,2.428,2.60867
-0.935718,-0.140074,2.428,2.60583
-0.927837,-0.140074,2.428,2.60302
-0.919957,-0.140074,2.428,2.60022
-0.912076,-0.140074,2.428,2.59744
-0.904195,-0.140074,2.428,2.59468
-0.896315,-0.140074,2.428,2.59195
-0.888434,-0.140074,2.428,2.58923
-0.880553,-0.140074,2.428,2.58654
-0.872672,-0.140074,2.428,2.58387
-0.858737,-0.139094,2.411,2.56314
-0.850911,-0.139094,2.411,2.56053
-0.843086,-0.139094,2.411,2.55794
-0.83526,-0.139094,2.411,2.55537
-0.827435,-0.139094,2.411,2.55283
-0.819609,-0.139094,2.411,2.5503
-0.811784,-0.139094,2.411,2.5478
-0.803958,-0.139094,2.411,2.54531
-0.796133,-0.139094,2.411,2.54285
-0.788307,-0.139094,2.411,2.54041
-0.780482,-0.139094,2.411,2.538
-0.772656,-0.139094,2.411,2.5356
-0.764831,-0.139094,2.411,2.53323
-0.757005,-0.139094,2.411,2.53087
-0.74918,-0.139094,2.411,2.52854
-0.741354,-0.139094,2.411,2.52624
-0.733529,-0.139094,2.411,2.52395
-0.725703,-0.139094,2.411,2.52169
-0.717878,-0.139094,2.411,2.51945
-0.715059,-0.140074,2.428,2.53498
-0.707178,-0.140074,2.428,2.53277
-0.699297,-0.140074,2.428,2.53058
-0.691417,-0.140074,2.428,2.52841
-0.683536,-0.140074,2.428,2.52627
-0.675655,-0.140074,2.428,2.52415
-0.67245,-0.141055,2.445,2.53971
-0.664514,-0.141055,2.445,2.53762
-0.656578,-0.141055,2.445,2.53555
-0.648643,-0.141055,2.445,2.53351
-0.640707,-0.141055,2.445,2.53149
-0.632771,-0.141055,2.445,2.52949
-0.624835,-0.141055,2.445,2.52752
-0.616899,-0.141055,2.445,2.52557
-0.608963,-0.141055,2.445,2.52364
-0.605452,-0.142093,2.463,2.5403
-0.597458,-0.142093,2.463,2.53841
-0.589464,-0.142093,2.463,2.53654
-0.581469,-0.142093,2.463,2.53469
-0.573475,-0.142093,2.463,2.53287
-0.569613,-0.143132,2.481,2.54957
-0.561561,-0.143132,2.481,2.54778
-0.553508,-0.143132,2.481,2.54602
-0.545455,-0.143132,2.481,2.54428
-0.537403,-0.143132,2.481,2.54257
-0.53319,-0.14417,2.499,2.55931
-0.525079,-0.14417,2.499,2.55763
-0.520692,-0.145209,2.517,2.57439
-0.512522,-0.145209,2.517,2.57275
-0.504353,-0.145209,2.517,2.57114
-0.496183,-0.145209,2.517,2.56955
-0.488013,-0.145209,2.517,2.56798
-0.483466,-0.146305,2.536,2.58582
-0.475235,-0.146305,2.536,2.58429
-0.467004,-0.146305,2.536,2.58279
-0.458772,-0.146305,2.536,2.58131
-0.450541,-0.146305,2.536,2.57986
-0.44231,-0.146305,2.536,2.57844
-0.434079,-0.146305,2.536,2.57704
-0.425848,-0.146305,2.536,2.57566
-0.417616,-0.146305,2.536,2.57432
-0.409385,-0.146305,2.536,2.57299
-0.401154,-0.146305,2.536,2.5717
-0.392923,-0.146305,2.536,2.57043
-0.384691,-0.146305,2.536,2.56918
-0.37646,-0.146305,2.536,2.56796
-0.368229,-0.146305,2.536,2.56677
-0.357301,-0.145209,2.517,2.54638
-0.349131,-0.145209,2.517,2.54524
-0.340961,-0.145209,2.517,2.54414
-0.332792,-0.145209,2.517,2.54305
-0.322301,-0.14417,2.499,2.52382
-0.31419,-0.14417,2.499,2.5228
-0.306079,-0.14417,2.499,2.5218
-0.297967,-0.14417,2.499,2.52083
-0.289856,-0.14417,2.499,2.51988
-0.281745,-0.14417,2.499,2.51896
-0.273634,-0.14417,2.499,2.51807
-0.265523,-0.14417,2.499,2.5172
-0.257412,-0.14417,2.499,2.51636
-0.249301,-0.14417,2.499,2.51554
-0.239452,-0.143132,2.481,2.49663
-0.2314,-0.143132,2.481,2.49588
-0.224967,-0.14417,2.499,2.51324
-0.216856,-0.14417,2.499,2.51253
-0.208745,-0.14417,2.499,2.51184
-0.200634,-0.14417,2.499,2.51118
-0.192523,-0.14417,2.499,2.51055
-0.184412,-0.14417,2.499,2.50994
-0.1763,-0.14417,2.499,2.50936
-0.168189,-0.14417,2.499,2.5088
-0.160078,-0.14417,2.499,2.50827
-0.153062,-0.145209,2.517,2.52583
-0.144892,-0.145209,2.517,2.52535
-0.136723,-0.145209,2.517,2.52489
-0.128553,-0.145209,2.517,2.52446
-0.120383,-0.145209,2.517,2.52406
-0.111411,-0.14417,2.499,2.50563
-0.1033,-0.14417,2.499,2.50529
-0.0951891,-0.14417,2.499,2.50496
-0.087078,-0.14417,2.499,2.50467
-0.078398,-0.143132,2.481,2.48636
-0.0703453,-0.143132,2.481,2.48612
-0.0622926,-0.143132,2.481,2.48591
-0.0538464,-0.142093,2.463,2.46768
-0.0458521,-0.142093,2.463,2.46752
-0.0378578,-0.142093,2.463,2.46739
-0.0296453,-0.141055,2.445,2.44924
-0.0217094,-0.141055,2.445,2.44916
-0.0137736,-0.141055,2.445,2.4491
-0.00583771,-0.141055,2.445,2.44907
0.00209816,-0.141055,2.445,2.44907
0.010034,-0.141055,2.445,2.44909
0.0179699,-0.141055,2.445,2.44913
0.0259057,-0.141055,2.445,2.4492
0.0338416,-0.141055,2.445,2.4493
0.0417775,-0.141055,2.445,2.44942
0.0497133,-0.141055,2.445,2.44957
0.0576492,-0.141055,2.445,2.44974
0.0660679,-0.142093,2.463,2.46798
0.0740622,-0.142093,2.463,2.46821
0.0820565,-0.142093,2.463,2.46846
0.0900507,-0.142093,2.463,2.46874
0.098045,-0.142093,2.463,2.46904
0.106039,-0.142093,2.463,2.46937
0.114034,-0.142093,2.463,2.46973
0.122028,-0.142093,2.463,2.47011
0.130022,-0.142093,2.463,2.47052
0.139025,-0.143132,2.481,2.48901
0.147078,-0.143132,2.481,2.48947
0.155131,-0.143132,2.481,2.48996
0.161999,-0.142093,2.463,2.47241
0.169994,-0.142093,2.463,2.47295
0.177988,-0.142093,2.463,2.47351
0.185982,-0.142093,2.463,2.4741
0.195394,-0.143132,2.481,2.4928
0.203447,-0.143132,2.481,2.49344
0.2115,-0.143132,2.481,2.49411
0.219552,-0.143132,2.481,2.49481
0.227605,-0.143132,2.481,2.49553
0.235658,-0.143132,2.481,2.49627
0.24371,-0.143132,2.481,2.49705
0.251763,-0.143132,2.481,2.49785
0.259816,-0.143132,2.481,2.49867
0.267868,-0.143132,2.481,2.49952
0.275921,-0.143132,2.481,2.5004
0.283974,-0.143132,2.481,2.5013
0.292027,-0.143132,2.481,2.50222
0.300079,-0.143132,2.481,2.50318
0.308132,-0.143132,2.481,2.50416
0.316185,-0.143132,2.481,2.50516
0.324237,-0.143132,2.481,2.50619
0.33229,-0.143132,2.481,2.50724
0.340343,-0.143132,2.481,2.50832
0.348396,-0.143132,2.481,2.50943
0.359034,-0.14417,2.499,2.52877
0.367146,-0.14417,2.499,2.52994
0.375257,-0.14417,2.499,2.53113
0.383368,-0.14417,2.499,2.53234
0.391479,-0.14417,2.499,2.53358
0.39959,-0.14417,2.499,2.53485
0.407701,-0.14417,2.499,2.53614
0.415812,-0.14417,2.499,2.53746
0.423923,-0.14417,2.499,2.5388
0.432035,-0.14417,2.499,2.54017
0.440146,-0.14417,2.499,2.54156
0.448257,-0.14417,2.499,2.54297
0.456368,-0.14417,2.499,2.54442
0.464479,-0.14417,2.499,2.54588
0.47259,-0.14417,2.499,2.54738
0.480701,-0.14417,2.499,2.54889
0.488812,-0.14417,2.499,2.55044
0.496924,-0.14417,2.499,2.552
0.505035,-0.14417,2.499,2.55359
0.513146,-0.14417,2.499,2.55521
0.517502,-0.143132,2.481,2.53844
0.525555,-0.143132,2.481,2.54009
0.533608,-0.143132,2.481,2.54177
0.541661,-0.143132,2.481,2.54347
0.549713,-0.143132,2.481,2.5452
0.561813,-0.14417,2.499,2.56543
0.569924,-0.14417,2.499,2.56722
0.578035,-0.14417,2.499,2.56903
0.586146,-0.14417,2.499,2.57087
0.594257,-0.14417,2.499,2.57273
0.602368,-0.14417,2.499,2.57461
0.614877,-0.145209,2.517,2.59508
0.623046,-0.145209,2.517,2.59703
0.631216,-0.145209,2.517,2.599
0.639385,-0.145209,2.517,2.601
0.647555,-0.145209,2.517,2.60302
0.655725,-0.145209,2.517,2.60506
0.663894,-0.145209,2.517,2.60713
0.677137,-0.146305,2.536,2.62892
0.685368,-0.146305,2.536,2.63105
0.693599,-0.146305,2.536,2.63321
0.70183,-0.146305,2.536,2.63539
0.710062,-0.146305,2.536,2.63759
0.718293,-0.146305,2.536,2.63982
0.726524,-0.146305,2.536,2.64207
0.734755,-0.146305,2.536,2.64435
0.742987,-0.146305,2.536,2.64665
0.751218,-0.146305,2.536,2.64897
0.759449,-0.146305,2.536,2.65131
0.76768,-0.146305,2.536,2.65368
0.775912,-0.146305,2.536,2.65608
0.784143,-0.146305,2.536,2.65849
0.792374,-0.146305,2.536,2.66093
0.800605,-0.146305,2.536,2.66339
0.808836,-0.146305,2.536,2.66588
0.817068,-0.146305,2.536,2.66839
0.825299,-0.146305,2.536,2.67092
0.83353,-0.146305,2.536,2.67348
0.841761,-0.146305,2.536,2.67605
0.849993,-0.146305,2.536,2.67865
0.851794,-0.145209,2.517,2.66119
0.859963,-0.145209,2.517,2.66382
0.868133,-0.145209,2.517,2.66646
0.876303,-0.145209,2.517,2.66914
0.878147,-0.14417,2.499,2.65272
0.886258,-0.14417,2.499,2.65542
0.894369,-0.14417,2.499,2.65814
0.89598,-0.143132,2.481,2.64171
0.904033,-0.143132,2.481,2.64445
0.912085,-0.143132,2.481,2.64722
0.913462,-0.142093,2.463,2.63077
0.921457,-0.142093,2.463,2.63356
0.929451,-0.142093,2.463,2.63637
0.930594,-0.141055,2.445,2.61991
0.93853,-0.141055,2.445,2.62274
0.946466,-0.141055,2.445,2.62559
0.947766,-0.140074,2.428,2.61018
0.948955,-0.139094,2.411,2.59476
0.956781,-0.139094,2.411,2.59763
0.964606,-0.139094,2.411,2.60053
nan,nan,nan,NaN
nan,nan,nan,NaN
nan,nan,nan,NaN
nan,nan,nan,NaN
nan,nan,nan,NaN
nan,nan,nan,NaN
nan,nan,nan,NaN
nan,nan,nan,NaN
nan,nan,nan,NaN
nan,nan,nan,NaN
nan,nan,nan,NaN
nan,nan,nan,NaN
nan,nan,nan,NaN
nan,nan,nan,NaN
nan,nan,nan,NaN
nan,nan,nan,NaN
nan,nan,nan,NaN
nan,nan,nan,NaN
nan,nan,nan,NaN
nan,nan,nan,NaN
nan,nan,nan,NaN
nan,nan,nan,NaN
nan,nan,nan,NaN
nan,nan,nan,NaN
nan,nan,nan,NaN
nan,nan,nan,NaN
nan,nan,nan,NaN
nan,nan,nan,NaN
nan,nan,nan,NaN
nan,nan,nan,NaN
nan,nan,nan,NaN
nan,nan,nan,NaN
nan,nan,nan,NaN
nan,nan,nan,NaN
nan,nan,nan,NaN
nan,nan,nan,NaN
nan,nan,nan,NaN
nan,nan,nan,NaN
nan,nan,nan,NaN
1.851,-0.201515,3.493,3.95826
1.86233,-0.201515,3.493,3.96358
1.89298,-0.203592,3.529,4.00982
1.9244,-0.205727,3.566,4.05734
1.93598,-0.205727,3.566,4.06284
1.94755,-0.205727,3.566,4.06837
1.95913,-0.205727,3.566,4.07392
1.9707,-0.205727,3.566,4.0795
1.96171,-0.203592,3.529,4.04272
1.97316,-0.203592,3.529,4.04829
1.96437,-0.201515,3.493,4.01253
1.97571,-0.201515,3.493,4.01809
1.98704,-0.201515,3.493,4.02368
1.95833,-0.197477,3.423,3.94854
1.94988,-0.195516,3.389,3.91479
1.94179,-0.193612,3.356,3.88211
1.95268,-0.193612,3.356,3.88757
1.94485,-0.191766,3.324,3.85593
1.93681,-0.189919,3.292,3.82421
1.9475,-0.189919,3.292,3.82963
1.93915,-0.188073,3.26,3.7978
1.93179,-0.186343,3.23,3.76821
1.94227,-0.186343,3.23,3.7736
1.91648,-0.182881,3.17,3.70881
1.90914,-0.181208,3.141,3.68016
1.91934,-0.181208,3.141,3.68545
1.91172,-0.179535,3.112,3.6567
1.88785,-0.176362,3.057,3.59727
1.89778,-0.176362,3.057,3.60249
1.874,-0.173247,3.003,3.54399
1.86744,-0.171747,2.977,3.51843
1.8771,-0.171747,2.977,3.52357
1.85444,-0.168804,2.926,3.46827
1.83272,-0.165978,2.877,3.41519
1.84206,-0.165978,2.877,3.42021
1.82051,-0.163208,2.829,3.36811
1.81482,-0.161882,2.806,3.34565
1.79467,-0.159285,2.761,3.29687
1.80364,-0.159285,2.761,3.30176
1.78371,-0.156747,2.717,3.25396
1.77867,-0.155536,2.696,3.23362
1.78743,-0.155536,2.696,3.23844
1.78218,-0.154324,2.675,3.21802
1.76275,-0.151901,2.633,3.17223
1.77129,-0.151901,2.633,3.17699
1.76632,-0.150747,2.613,3.15759
1.74831,-0.148497,2.574,3.11514
-2.01252,-0.157949,2.901,3.53426
-2.0031,-0.157949,2.901,3.5289
-1.99369,-0.157949,2.901,3.52357
-1.98427,-0.157949,2.901,3.51825
-1.97485,-0.157949,2.901,3.51295
-1.96544,-0.157949,2.901,3.50766
-1.95602,-0.157949,2.901,3.5024
-1.94661,-0.157949,2.901,3.49715
-1.93719,-0.157949,2.901,3.49191
-1.91183,-0.156642,2.877,3.45785
-1.90249,-0.156642,2.877,3.4527
-1.89315,-0.156642,2.877,3.44756
-1.8681,-0.155336,2.853,3.41373
-1.85884,-0.155336,2.853,3.40867
-1.84958,-0.155336,2.853,3.40363
-1.84032,-0.155336,2.853,3.3986
-1.83106,-0.155336,2.853,3.3936
-1.83712,-0.156642,2.877,3.41712
-1.84303,-0.157949,2.901,3.44057
-1.83362,-0.157949,2.901,3.43553
-1.85564,-0.160671,2.951,3.48965
-1.84606,-0.160671,2.951,3.48456
-1.86885,-0.163502,3.003,3.54081
-1.8591,-0.163502,3.003,3.53567
-1.86598,-0.164973,3.03,3.5623
-1.87268,-0.166443,3.057,3.58886
-1.86276,-0.166443,3.057,3.58369
-1.85284,-0.166443,3.057,3.57854
-1.84292,-0.166443,3.057,3.57342
-1.833,-0.166443,3.057,3.56831
-1.82307,-0.166443,3.057,3.56322
-1.81315,-0.166443,3.057,3.55816
-1.80323,-0.166443,3.057,3.55311
-1.79331,-0.166443,3.057,3.54808
-1.78338,-0.166443,3.057,3.54308
nan,nan,nan,NaN
nan,nan,nan,NaN
nan,nan,nan,NaN
nan,nan,nan,NaN
nan,nan,nan,NaN
nan,nan,nan,NaN
nan,nan,nan,NaN
nan,nan,nan,NaN
nan,nan,nan,NaN
nan,nan,nan,NaN
nan,nan,nan,NaN
nan,nan,nan,NaN
nan,nan,nan,NaN
nan,nan,nan,NaN
nan,nan,nan,NaN
nan,nan,nan,NaN
nan,nan,nan,NaN
nan,nan,nan,NaN
nan,nan,nan,NaN
nan,nan,nan,NaN
nan,nan,nan,NaN
nan,nan,nan,NaN
nan,nan,nan,NaN
nan,nan,nan,NaN
nan,nan,nan,NaN
nan,nan,nan,NaN
nan,nan,nan,NaN
nan,nan,nan,NaN
-1.22264,-0.136061,2.499,2.78538
-1.21453,-0.136061,2.499,2.78183
-1.19772,-0.135081,2.481,2.75829
-1.18104,-0.134101,2.463,2.73481
-1.17305,-0.134101,2.463,2.73137
-1.16505,-0.134101,2.463,2.72795
-1.1486,-0.133121,2.445,2.70463
-1.14067,-0.133121,2.445,2.70127
-1.12485,-0.132196,2.428,2.67917
-1.11697,-0.132196,2.428,2.67587
-1.10133,-0.13127,2.411,2.65388
-1.0935,-0.13127,2.411,2.65064
-1.08568,-0.13127,2.411,2.64742
-1.07785,-0.13127,2.411,2.64422
-1.07003,-0.13127,2.411,2.64104
-1.0622,-0.13127,2.411,2.63788
-1.05437,-0.13127,2.411,2.63474
-1.04655,-0.13127,2.411,2.63162
-1.03872,-0.13127,2.411,2.62852
-1.0309,-0.13127,2.411,2.62543
-1.02307,-0.13127,2.411,2.62237
-1.02241,-0.132196,2.428,2.6378
-1.01452,-0.132196,2.428,2.63475
-1.00664,-0.132196,2.428,2.63173
-0.998763,-0.132196,2.428,2.62872
-0.990883,-0.132196,2.428,2.62574
-0.983002,-0.132196,2.428,2.62278
-0.975121,-0.132196,2.428,2.61983
-0.967241,-0.132196,2.428,2.61691
-0.95936,-0.132196,2.428,2.61401
-0.951479,-0.132196,2.428,2.61112
-0.943599,-0.132196,2.428,2.60826
-0.935718,-0.132196,2.428,2.60542
-0.927837,-0.132196,2.428,2.6026
-0.919957,-0.132196,2.428,2.5998
-0.912076,-0.132196,2.428,2.59703
-0.904195,-0.132196,2.428,2.59427
-0.896315,-0.132196,2.428,2.59153
-0.888434,-0.132196,2.428,2.58882
-0.880553,-0.132196,2.428,2.58612
-0.872672,-0.132196,2.428,2.58345
-0.864792,-0.132196,2.428,2.5808
-0.850911,-0.13127,2.411,2.56012
-0.843086,-0.13127,2.411,2.55753
-0.83526,-0.13127,2.411,2.55496
-0.827435,-0.13127,2.411,2.55241
-0.819609,-0.13127,2.411,2.54988
-0.811784,-0.13127,2.411,2.54738
-0.803958,-0.13127,2.411,2.5449
-0.796133,-0.13127,2.411,2.54244
-0.788307,-0.13127,2.411,2.54
-0.780482,-0.13127,2.411,2.53758
-0.772656,-0.13127,2.411,2.53518
-0.764831,-0.13127,2.411,2.53281
-0.757005,-0.13127,2.411,2.53046
-0.74918,-0.13127,2.411,2.52813
-0.741354,-0.13127,2.411,2.52582
-0.733529,-0.13127,2.411,2.52353
-0.725703,-0.13127,2.411,2.52127
-0.717878,-0.13127,2.411,2.51903
-0.715059,-0.132196,2.428,2.53456
-0.707178,-0.132196,2.428,2.53234
-0.699297,-0.132196,2.428,2.53015
-0.691417,-0.132196,2.428,2.52799
-0.683536,-0.132196,2.428,2.52584
-0.675655,-0.132196,2.428,2.52372
-0.667775,-0.132196,2.428,2.52162
-0.664514,-0.133121,2.445,2.53719
-0.656578,-0.133121,2.445,2.53512
-0.648643,-0.133121,2.445,2.53308
-0.640707,-0.133121,2.445,2.53106
-0.632771,-0.133121,2.445,2.52906
-0.624835,-0.133121,2.445,2.52709
-0.616899,-0.133121,2.445,2.52514
-0.608963,-0.133121,2.445,2.52321
-0.601027,-0.133121,2.445,2.52131
-0.597458,-0.134101,2.463,2.53797
-0.589464,-0.134101,2.463,2.5361
-0.581469,-0.134101,2.463,2.53426
-0.573475,-0.134101,2.463,2.53243
-0.569613,-0.135081,2.481,2.54913
-0.561561,-0.135081,2.481,2.54734
-0.553508,-0.135081,2.481,2.54558
-0.545455,-0.135081,2.481,2.54384
-0.537403,-0.135081,2.481,2.54213
-0.53319,-0.136061,2.499,2.55887
-0.525079,-0.136061,2.499,2.55719
-0.516968,-0.136061,2.499,2.55554
-0.508857,-0.136061,2.499,2.55391
-0.504353,-0.137042,2.517,2.57069
-0.496183,-0.137042,2.517,2.5691
-0.488013,-0.137042,2.517,2.56753
-0.479844,-0.137042,2.517,2.56599
-0.475235,-0.138076,2.536,2.58384
-0.467004,-0.138076,2.536,2.58233
-0.458772,-0.138076,2.536,2.58086
-0.450541,-0.138076,2.536,2.57941
-0.44231,-0.138076,2.536,2.57798
-0.434079,-0.138076,2.536,2.57658
-0.425848,-0.138076,2.536,2.57521
-0.417616,-0.138076,2.536,2.57386
-0.409385,-0.138076,2.536,2.57254
-0.401154,-0.138076,2.536,2.57124
-0.392923,-0.138076,2.536,2.56997
-0.384691,-0.138076,2.536,2.56873
-0.37364,-0.137042,2.517,2.54827
-0.36547,-0.137042,2.517,2.54708
-0.357301,-0.137042,2.517,2.54592
-0.349131,-0.137042,2.517,2.54479
-0.340961,-0.137042,2.517,2.54368
-0.332792,-0.137042,2.517,2.5426
-0.322301,-0.136061,2.499,2.52337
-0.31419,-0.136061,2.499,2.52235
-0.306079,-0.136061,2.499,2.52135
-0.297967,-0.136061,2.499,2.52038
-0.289856,-0.136061,2.499,2.51943
-0.281745,-0.136061,2.499,2.51851
-0.273634,-0.136061,2.499,2.51762
-0.265523,-0.136061,2.499,2.51675
-0.257412,-0.136061,2.499,2.5159
-0.249301,-0.136061,2.499,2.51509
-0.239452,-0.135081,2.481,2.49619
-0.2314,-0.135081,2.481,2.49543
-0.224967,-0.136061,2.499,2.51279
-0.216856,-0.136061,2.499,2.51208
-0.208745,-0.136061,2.499,2.51139
-0.200634,-0.136061,2.499,2.51073
-0.192523,-0.136061,2.499,2.5101
-0.184412,-0.136061,2.499,2.50949
-0.1763,-0.136061,2.499,2.5089
-0.168189,-0.136061,2.499,2.50835
-0.160078,-0.136061,2.499,2.50782
-0.151967,-0.136061,2.499,2.50731
-0.144892,-0.137042,2.517,2.52489
-0.135745,-0.136061,2.499,2.50638
-0.127634,-0.136061,2.499,2.50595
-0.119523,-0.136061,2.499,2.50555
-0.111411,-0.136061,2.499,2.50518
-0.1033,-0.136061,2.499,2.50483
-0.0951891,-0.136061,2.499,2.50451
-0.0864508,-0.135081,2.481,2.48618
-0.078398,-0.135081,2.481,2.48591
-0.0703453,-0.135081,2.481,2.48567
-0.0618407,-0.134101,2.463,2.46742
-0.0538464,-0.134101,2.463,2.46724
-0.045517,-0.133121,2.445,2.44904
-0.0375812,-0.133121,2.445,2.44891
-0.0296453,-0.133121,2.445,2.4488
-0.0217094,-0.133121,2.445,2.44872
-0.0137736,-0.133121,2.445,2.44866
-0.00583771,-0.133121,2.445,2.44863
0.00208357,-0.132196,2.428,2.4316
0.00996425,-0.132196,2.428,2.43162
0.0178449,-0.132196,2.428,2.43166
0.0257256,-0.132196,2.428,2.43173
0.0338416,-0.133121,2.445,2.44886
0.0417775,-0.133121,2.445,2.44898
0.0497133,-0.133121,2.445,2.44913
0.0576492,-0.133121,2.445,2.4493
0.0655851,-0.133121,2.445,2.4495
0.0735209,-0.133121,2.445,2.44972
0.0820565,-0.134101,2.463,2.46801
0.0900507,-0.134101,2.463,2.46829
0.098045,-0.134101,2.463,2.4686
0.106039,-0.134101,2.463,2.46893
0.114034,-0.134101,2.463,2.46928
0.122028,-0.134101,2.463,2.46966
0.130022,-0.134101,2.463,2.47007
0.138016,-0.134101,2.463,2.47051
0.146011,-0.134101,2.463,2.47097
0.154005,-0.134101,2.463,2.47145
0.161999,-0.134101,2.463,2.47196
0.169994,-0.134101,2.463,2.4725
0.177988,-0.134101,2.463,2.47306
0.185982,-0.134101,2.463,2.47365
0.193976,-0.134101,2.463,2.47426
0.201971,-0.134101,2.463,2.4749
0.209965,-0.134101,2.463,2.47557
0.217959,-0.134101,2.463,2.47626
0.225954,-0.134101,2.463,2.47698
0.233948,-0.134101,2.463,2.47772
0.241942,-0.134101,2.463,2.47849
0.251763,-0.135081,2.481,2.4974
0.259816,-0.135081,2.481,2.49822
0.267868,-0.135081,2.481,2.49907
0.275921,-0.135081,2.481,2.49995
0.283974,-0.135081,2.481,2.50085
0.292027,-0.135081,2.481,2.50178
0.300079,-0.135081,2.481,2.50273
0.308132,-0.135081,2.481,2.50371
0.316185,-0.135081,2.481,2.50471
0.324237,-0.135081,2.481,2.50574
0.33229,-0.135081,2.481,2.5068
0.340343,-0.135081,2.481,2.50788
0.348396,-0.135081,2.481,2.50898
0.359034,-0.136061,2.499,2.52832
0.367146,-0.136061,2.499,2.52949
0.375257,-0.136061,2.499,2.53068
0.383368,-0.136061,2.499,2.53189
0.391479,-0.136061,2.499,2.53313
0.39959,-0.136061,2.499,2.5344
0.407701,-0.136061,2.499,2.53569
0.415812,-0.136061,2.499,2.53701
0.423923,-0.136061,2.499,2.53835
0.432035,-0.136061,2.499,2.53972
0.440146,-0.136061,2.499,2.54111
0.448257,-0.136061,2.499,2.54253
0.456368,-0.136061,2.499,2.54397
0.464479,-0.136061,2.499,2.54544
0.47259,-0.136061,2.499,2.54693
0.480701,-0.136061,2.499,2.54845
0.488812,-0.136061,2.499,2.54999
0.496924,-0.136061,2.499,2.55156
0.505035,-0.136061,2.499,2.55315
0.513146,-0.136061,2.499,2.55477
0.517502,-0.135081,2.481,2.53799
0.525555,-0.135081,2.481,2.53965
0.533608,-0.135081,2.481,2.54133
0.541661,-0.135081,2.481,2.54303
0.549713,-0.135081,2.481,2.54476
0.561813,-0.136061,2.499,2.56498
0.569924,-0.136061,2.499,2.56677
0.578035,-0.136061,2.499,2.56859
0.586146,-0.136061,2.499,2.57042
0.598538,-0.137042,2.517,2.59081
0.606707,-0.137042,2.517,2.59271
0.614877,-0.137042,2.517,2.59464
0.623046,-0.137042,2.517,2.59659
0.631216,-0.137042,2.517,2.59856
0.639385,-0.137042,2.517,2.60055
0.652443,-0.138076,2.536,2.62222
0.660674,-0.138076,2.536,2.62428
0.668906,-0.138076,2.536,2.62637
0.677137,-0.138076,2.536,2.62847
0.685368,-0.138076,2.536,2.63061
0.693599,-0.138076,2.536,2.63276
0.70183,-0.138076,2.536,2.63494
0.710062,-0.138076,2.536,2.63715
0.718293,-0.138076,2.536,2.63938
0.726524,-0.138076,2.536,2.64163
0.734755,-0.138076,2.536,2.6439
0.742987,-0.138076,2.536,2.6462
0.751218,-0.138076,2.536,2.64853
0.759449,-0.138076,2.536,2.65087
0.76768,-0.138076,2.536,2.65324
0.775912,-0.138076,2.536,2.65564
0.784143,-0.138076,2.536,2.65805
0.792374,-0.138076,2.536,2.66049
0.800605,-0.138076,2.536,2.66296
0.808836,-0.138076,2.536,2.66544
0.817068,-0.138076,2.536,2.66795
0.825299,-0.138076,2.536,2.67048
0.83353,-0.138076,2.536,2.67304
0.841761,-0.138076,2.536,2.67562
0.849993,-0.138076,2.536,2.67822
0.851794,-0.137042,2.517,2.66076
0.859963,-0.137042,2.517,2.66338
0.868133,-0.137042,2.517,2.66603
0.876303,-0.137042,2.517,2.6687
0.878147,-0.136061,2.499,2.65229
0.886258,-0.136061,2.499,2.65499
0.894369,-0.136061,2.499,2.65771
0.89598,-0.135081,2.481,2.64129
0.904033,-0.135081,2.481,2.64403
0.912085,-0.135081,2.481,2.64679
0.913462,-0.134101,2.463,2.63035
0.914722,-0.133121,2.445,2.6139
0.922658,-0.133121,2.445,2.61669
0.924124,-0.132196,2.428,2.60128
0.932004,-0.132196,2.428,2.60409
0.939885,-0.132196,2.428,2.60692
0.94113,-0.13127,2.411,2.5915
0.942264,-0.130345,2.394,2.57606
0.950035,-0.130345,2.394,2.57891
0.957805,-0.130345,2.394,2.58179
0.965575,-0.130345,2.394,2.58468
nan,nan,nan,NaN
nan,nan,nan,NaN
nan,nan,nan,NaN
1.01081,-0.132196,2.428,2.63333
1.01869,-0.132196,2.428,2.63636
1.02657,-0.132196,2.428,2.63942
nan,nan,nan,NaN
nan,nan,nan,NaN
nan,nan,nan,NaN
nan,nan,nan,NaN
nan,nan,nan,NaN
nan,nan,nan,NaN
nan,nan,nan,NaN
nan,nan,nan,NaN
nan,nan,nan,NaN
nan,nan,nan,NaN
nan,nan,nan,NaN
nan,nan,nan,NaN
nan,nan,nan,NaN
nan,nan,nan,NaN
nan,nan,nan,NaN
nan,nan,nan,NaN
nan,nan,nan,NaN
nan,nan,nan,NaN
nan,nan,nan,NaN
nan,nan,nan,NaN
nan,nan,nan,NaN
nan,nan,nan,NaN
nan,nan,nan,NaN
nan,nan,nan,NaN
nan,nan,nan,NaN
nan,nan,nan,NaN
nan,nan,nan,NaN
nan,nan,nan,NaN
nan,nan,nan,NaN
nan,nan,nan,NaN
nan,nan,nan,NaN
nan,nan,nan,NaN
1.79588,-0.184519,3.389,3.83987
1.80688,-0.184519,3.389,3.84502
1.8549,-0.188276,3.458,3.92859
1.86612,-0.188276,3.458,3.93391
1.87734,-0.188276,3.458,3.93924
1.90768,-0.190181,3.493,3.98453
1.91902,-0.190181,3.493,3.98997
1.93036,-0.190181,3.493,3.99543
1.94169,-0.190181,3.493,4.00092
1.95303,-0.190181,3.493,4.00644
1.94469,-0.188276,3.458,3.97178
1.95591,-0.188276,3.458,3.97729
1.96713,-0.188276,3.458,3.98282
1.93888,-0.184519,3.389,3.90879
1.9309,-0.182722,3.356,3.87614
1.92327,-0.18098,3.324,3.84457
1.93406,-0.18098,3.324,3.84998
1.92613,-0.179237,3.292,3.81829
1.91799,-0.177495,3.26,3.78653
1.92857,-0.177495,3.26,3.7919
1.9213,-0.175862,3.23,3.76234
1.93179,-0.175862,3.23,3.76771
1.94227,-0.175862,3.23,3.77309
1.91648,-0.172595,3.17,3.70831
1.90914,-0.171016,3.141,3.67967
1.91934,-0.171016,3.141,3.68497
1.87793,-0.166443,3.057,3.5916
1.85451,-0.163502,3.003,3.53326
1.86425,-0.163502,3.003,3.53839
1.874,-0.163502,3.003,3.54353
1.86744,-0.162087,2.977,3.51797
1.8771,-0.162087,2.977,3.52311
1.85444,-0.15931,2.926,3.46782
1.81743,-0.155336,2.853,3.38627
1.82669,-0.155336,2.853,3.39125
1.80571,-0.152777,2.806,3.34029
1.78571,-0.150326,2.761,3.29158
1.78037,-0.149129,2.739,3.27018
1.78926,-0.149129,2.739,3.27503
1.76992,-0.146787,2.696,3.2284
1.76482,-0.145644,2.675,3.20803
1.7735,-0.145644,2.675,3.21281
1.7542,-0.143357,2.633,3.16709
1.74936,-0.142268,2.613,3.14774
1.75784,-0.142268,2.613,3.15246
1.7528,-0.141179,2.593,3.13303
1.73541,-0.13911,2.555,3.09177
-2.01252,-0.148536,2.901,3.53385
-2.0031,-0.148536,2.901,3.5285
-1.99369,-0.148536,2.901,3.52316
-1.98427,-0.148536,2.901,3.51784
-1.97485,-0.148536,2.901,3.51254
-1.96544,-0.148536,2.901,3.50725
-1.95602,-0.148536,2.901,3.50198
-1.94661,-0.148536,2.901,3.49673
-1.93719,-0.148536,2.901,3.4915
-1.91183,-0.147307,2.877,3.45744
-1.90249,-0.147307,2.877,3.45229
-1.89315,-0.147307,2.877,3.44715
-1.8681,-0.146078,2.853,3.41332
-1.85884,-0.146078,2.853,3.40826
-1.84958,-0.146078,2.853,3.40322
-1.84032,-0.146078,2.853,3.39819
-1.83106,-0.146078,2.853,3.39319
-1.83712,-0.147307,2.877,3.4167
-1.84303,-0.148536,2.901,3.44015
-1.83362,-0.148536,2.901,3.43511
-1.85564,-0.151096,2.951,3.48922
-1.84606,-0.151096,2.951,3.48413
-1.86885,-0.153758,3.003,3.54037
-1.8591,-0.153758,3.003,3.53524
-1.86598,-0.155141,3.03,3.56186
-1.87268,-0.156523,3.057,3.58841
-1.86276,-0.156523,3.057,3.58324
-1.85284,-0.156523,3.057,3.5781
-1.84292,-0.156523,3.057,3.57297
-1.833,-0.156523,3.057,3.56786
-1.82307,-0.156523,3.057,3.56277
-1.81315,-0.156523,3.057,3.5577
-1.80323,-0.156523,3.057,3.55266
-1.79331,-0.156523,3.057,3.54763
-1.78338,-0.156523,3.057,3.54263
nan,nan,nan,NaN
nan,nan,nan,NaN
nan,nan,nan,NaN
nan,nan,nan,NaN
nan,nan,nan,NaN
nan,nan,nan,NaN
nan,nan,nan,NaN
nan,nan,nan,NaN
nan,nan,nan,NaN
nan,nan,nan,NaN
nan,nan,nan,NaN
nan,nan,nan,NaN
nan,nan,nan,NaN
nan,nan,nan,NaN
nan,nan,nan,NaN
nan,nan,nan,NaN
nan,nan,nan,NaN
nan,nan,nan,NaN
nan,nan,nan,NaN
nan,nan,nan,NaN
nan,nan,nan,NaN
nan,nan,nan,NaN
nan,nan,nan,NaN
nan,nan,nan,NaN
nan,nan,nan,NaN
nan,nan,nan,NaN
nan,nan,nan,NaN
-1.23075,-0.127953,2.499,2.78857
-1.21383,-0.127031,2.481,2.76494
-1.20578,-0.127031,2.481,2.76141
-1.19772,-0.127031,2.481,2.75791
-1.18104,-0.126109,2.463,2.73443
-1.17305,-0.126109,2.463,2.73099
-1.15654,-0.125188,2.445,2.70763
-1.14062,-0.124317,2.428,2.68545
-1.13274,-0.124317,2.428,2.68211
-1.12485,-0.124317,2.428,2.67879
-1.10915,-0.123447,2.411,2.65676
-1.10133,-0.123447,2.411,2.6535
-1.0935,-0.123447,2.411,2.65027
-1.08568,-0.123447,2.411,2.64705
-1.07785,-0.123447,2.411,2.64385
-1.07003,-0.123447,2.411,2.64067
-1.0622,-0.123447,2.411,2.6375
-1.05437,-0.123447,2.411,2.63436
-1.04655,-0.123447,2.411,2.63124
-1.03872,-0.123447,2.411,2.62814
-1.0309,-0.123447,2.411,2.62505
-1.02307,-0.123447,2.411,2.62199
-1.02241,-0.124317,2.428,2.63741
-1.01452,-0.124317,2.428,2.63437
-1.00664,-0.124317,2.428,2.63134
-0.998763,-0.124317,2.428,2.62834
-0.990883,-0.124317,2.428,2.62536
-0.983002,-0.124317,2.428,2.62239
-0.975121,-0.124317,2.428,2.61945
-0.967241,-0.124317,2.428,2.61652
-0.95936,-0.124317,2.428,2.61362
-0.951479,-0.124317,2.428,2.61074
-0.943599,-0.124317,2.428,2.60788
-0.935718,-0.124317,2.428,2.60504
-0.927837,-0.124317,2.428,2.60221
-0.919957,-0.124317,2.428,2.59942
-0.912076,-0.124317,2.428,2.59664
-0.904195,-0.124317,2.428,2.59388
-0.896315,-0.124317,2.428,2.59114
-0.888434,-0.124317,2.428,2.58843
-0.880553,-0.124317,2.428,2.58573
-0.872672,-0.124317,2.428,2.58306
-0.864792,-0.124317,2.428,2.58041
-0.850911,-0.123447,2.411,2.55973
-0.843086,-0.123447,2.411,2.55714
-0.83526,-0.123447,2.411,2.55457
-0.827435,-0.123447,2.411,2.55202
-0.819609,-0.123447,2.411,2.54949
-0.811784,-0.123447,2.411,2.54699
-0.803958,-0.123447,2.411,2.54451
-0.796133,-0.123447,2.411,2.54204
-0.788307,-0.123447,2.411,2.5396
-0.780482,-0.123447,2.411,2.53719
-0.772656,-0.123447,2.411,2.53479
-0.764831,-0.123447,2.411,2.53242
-0.757005,-0.123447,2.411,2.53006
-0.74918,-0.123447,2.411,2.52773
-0.741354,-0.123447,2.411,2.52542
-0.733529,-0.123447,2.411,2.52314
-0.725703,-0.123447,2.411,2.52087
-0.717878,-0.123447,2.411,2.51863
-0.710052,-0.123447,2.411,2.51641
-0.702227,-0.123447,2.411,2.51422
-0.699297,-0.124317,2.428,2.52975
-0.691417,-0.124317,2.428,2.52759
-0.683536,-0.124317,2.428,2.52544
-0.675655,-0.124317,2.428,2.52332
-0.667775,-0.124317,2.428,2.52122
-0.659894,-0.124317,2.428,2.51915
-0.652013,-0.124317,2.428,2.51709
-0.648643,-0.125188,2.445,2.53267
-0.640707,-0.125188,2.445,2.53065
-0.632771,-0.125188,2.445,2.52866
-0.624835,-0.125188,2.445,2.52668
-0.616899,-0.125188,2.445,2.52473
-0.608963,-0.125188,2.445,2.5228
-0.601027,-0.125188,2.445,2.5209
-0.593092,-0.125188,2.445,2.51902
-0.585156,-0.125188,2.445,2.51716
-0.57722,-0.125188,2.445,2.51533
-0.573475,-0.126109,2.463,2.53202
-0.565481,-0.126109,2.463,2.53023
-0.557486,-0.126109,2.463,2.52845
-0.553508,-0.127031,2.481,2.54517
-0.545455,-0.127031,2.481,2.54343
-0.537403,-0.127031,2.481,2.54171
-0.52935,-0.127031,2.481,2.54002
-0.525079,-0.127953,2.499,2.55677
-0.516968,-0.127953,2.499,2.55512
-0.508857,-0.127953,2.499,2.55349
-0.500746,-0.127953,2.499,2.55189
-0.496183,-0.128874,2.517,2.56868
-0.488013,-0.128874,2.517,2.56711
-0.479844,-0.128874,2.517,2.56557
-0.471674,-0.128874,2.517,2.56405
-0.463505,-0.128874,2.517,2.56256
-0.455335,-0.128874,2.517,2.5611
-0.447166,-0.128874,2.517,2.55966
-0.44231,-0.129847,2.536,2.57756
-0.434079,-0.129847,2.536,2.57616
-0.425848,-0.129847,2.536,2.57478
-0.417616,-0.129847,2.536,2.57343
-0.409385,-0.129847,2.536,2.57211
-0.401154,-0.129847,2.536,2.57081
-0.392923,-0.129847,2.536,2.56954
-0.384691,-0.129847,2.536,2.5683
-0.37364,-0.128874,2.517,2.54784
-0.36547,-0.128874,2.517,2.54666
-0.357301,-0.128874,2.517,2.5455
-0.349131,-0.128874,2.517,2.54436
-0.340961,-0.128874,2.517,2.54326
-0.332792,-0.128874,2.517,2.54217
-0.322301,-0.127953,2.499,2.52294
-0.31419,-0.127953,2.499,2.52192
-0.306079,-0.127953,2.499,2.52092
-0.297967,-0.127953,2.499,2.51995
-0.289856,-0.127953,2.499,2.51901
-0.281745,-0.127953,2.499,2.51809
-0.273634,-0.127953,2.499,2.51719
-0.265523,-0.127953,2.499,2.51632
-0.257412,-0.127953,2.499,2.51548
-0.249301,-0.127953,2.499,2.51466
-0.239452,-0.127031,2.481,2.49576
-0.2314,-0.127031,2.481,2.495
-0.224967,-0.127953,2.499,2.51237
-0.216856,-0.127953,2.499,2.51165
-0.208745,-0.127953,2.499,2.51097
-0.200634,-0.127953,2.499,2.5103
-0.192523,-0.127953,2.499,2.50967
-0.184412,-0.127953,2.499,2.50906
-0.1763,-0.127953,2.499,2.50848
-0.168189,-0.127953,2.499,2.50792
-0.160078,-0.127953,2.499,2.50739
-0.151967,-0.127953,2.499,2.50688
-0.144892,-0.128874,2.517,2.52446
-0.135745,-0.127953,2.499,2.50595
-0.127634,-0.127953,2.499,2.50553
-0.119523,-0.127953,2.499,2.50513
-0.111411,-0.127953,2.499,2.50475
-0.1033,-0.127953,2.499,2.50441
-0.0951891,-0.127953,2.499,2.50408
-0.0864508,-0.127031,2.481,2.48575
-0.078398,-0.127031,2.481,2.48549
-0.0703453,-0.127031,2.481,2.48525
-0.0618407,-0.126109,2.463,2.467
-0.0538464,-0.126109,2.463,2.46681
-0.045517,-0.125188,2.445,2.44863
-0.0375812,-0.125188,2.445,2.44849
-0.0296453,-0.125188,2.445,2.44838
-0.0217094,-0.125188,2.445,2.4483
-0.0137736,-0.125188,2.445,2.44824
-0.00583771,-0.125188,2.445,2.44821
0.00208357,-0.124317,2.428,2.43118
0.00996425,-0.124317,2.428,2.4312
0.0178449,-0.124317,2.428,2.43125
0.0257256,-0.124317,2.428,2.43132
0.0338416,-0.125188,2.445,2.44844
0.0417775,-0.125188,2.445,2.44856
0.0497133,-0.125188,2.445,2.44871
0.0576492,-0.125188,2.445,2.44888
0.0655851,-0.125188,2.445,2.44908
0.0735209,-0.125188,2.445,2.44931
0.0820565,-0.126109,2.463,2.46759
0.0900507,-0.126109,2.463,2.46787
0.098045,-0.126109,2.463,2.46817
0.106039,-0.126109,2.463,2.4685
0.114034,-0.126109,2.463,2.46886
0.122028,-0.126109,2.463,2.46924
0.130022,-0.126109,2.463,2.46965
0.138016,-0.126109,2.463,2.47009
0.146011,-0.126109,2.463,2.47054
0.154005,-0.126109,2.463,2.47103
0.161999,-0.126109,2.463,2.47154
0.169994,-0.126109,2.463,2.47208
0.177988,-0.126109,2.463,2.47264
0.185982,-0.126109,2.463,2.47323
0.193976,-0.126109,2.463,2.47384
0.201971,-0.126109,2.463,2.47448
0.209965,-0.126109,2.463,2.47515
0.217959,-0.126109,2.463,2.47584
0.225954,-0.126109,2.463,2.47656
0.233948,-0.126109,2.463,2.4773
0.241942,-0.126109,2.463,2.47807
0.249936,-0.126109,2.463,2.47886
0.257931,-0.126109,2.463,2.47968
0.265925,-0.126109,2.463,2.48052
0.273919,-0.126109,2.463,2.48139
0.281914,-0.126109,2.463,2.48229
0.289908,-0.126109,2.463,2.48321
0.297902,-0.126109,2.463,2.48415
0.305896,-0.126109,2.463,2.48512
0.313891,-0.126109,2.463,2.48612
0.324237,-0.127031,2.481,2.50532
0.33229,-0.127031,2.481,2.50638
0.340343,-0.127031,2.481,2.50746
0.348396,-0.127031,2.481,2.50856
0.356448,-0.127031,2.481,2.50969
0.364501,-0.127031,2.481,2.51085
0.372554,-0.127031,2.481,2.51203
0.380606,-0.127031,2.481,2.51324
0.388659,-0.127031,2.481,2.51447
0.396712,-0.127031,2.481,2.51573
0.404765,-0.127031,2.481,2.51701
0.412817,-0.127031,2.481,2.51832
0.423923,-0.127953,2.499,2.53793
0.432035,-0.127953,2.499,2.5393
0.440146,-0.127953,2.499,2.54069
0.448257,-0.127953,2.499,2.54211
0.456368,-0.127953,2.499,2.54355
0.464479,-0.127953,2.499,2.54502
0.47259,-0.127953,2.499,2.54651
0.480701,-0.127953,2.499,2.54803
0.488812,-0.127953,2.499,2.54957
0.496924,-0.127953,2.499,2.55114
0.505035,-0.127953,2.499,2.55273
0.513146,-0.127953,2.499,2.55435
0.517502,-0.127031,2.481,2.53758
0.525555,-0.127031,2.481,2.53923
0.533608,-0.127031,2.481,2.54091
0.541661,-0.127031,2.481,2.54262
0.549713,-0.127031,2.481,2.54434
0.561813,-0.127953,2.499,2.56457
0.569924,-0.127953,2.499,2.56636
0.578035,-0.127953,2.499,2.56817
0.586146,-0.127953,2.499,2.57001
0.598538,-0.128874,2.517,2.59039
0.606707,-0.128874,2.517,2.59229
0.614877,-0.128874,2.517,2.59422
0.623046,-0.128874,2.517,2.59617
0.631216,-0.128874,2.517,2.59814
0.639385,-0.128874,2.517,2.60014
0.647555,-0.128874,2.517,2.60216
0.660674,-0.129847,2.536,2.62386
0.668906,-0.129847,2.536,2.62595
0.677137,-0.129847,2.536,2.62805
0.685368,-0.129847,2.536,2.63019
0.693599,-0.129847,2.536,2.63234
0.70183,-0.129847,2.536,2.63453
0.710062,-0.129847,2.536,2.63673
0.718293,-0.129847,2.536,2.63896
0.726524,-0.129847,2.536,2.64121
0.734755,-0.129847,2.536,2.64349
0.742987,-0.129847,2.536,2.64579
