0.0021136,-0.36587,2.463,2.49003
0.0101818,-0.368544,2.481,2.50824
0.0182345,-0.368544,2.481,2.50829
0.0262872,-0.368544,2.481,2.50836
0.0343399,-0.368544,2.481,2.50846
0.0423926,-0.368544,2.481,2.50858
0.0504453,-0.368544,2.481,2.50873
0.058498,-0.368544,2.481,2.50891
0.0665507,-0.368544,2.481,2.50911
0.0746034,-0.368544,2.481,2.50933
0.0832558,-0.371218,2.499,2.52779
0.091367,-0.371218,2.499,2.52807
0.0987616,-0.368544,2.481,2.51017
0.106814,-0.368544,2.481,2.5105
0.114867,-0.368544,2.481,2.51085
0.12292,-0.368544,2.481,2.51123
0.130972,-0.368544,2.481,2.51164
0.139025,-0.368544,2.481,2.51207
0.147078,-0.368544,2.481,2.51253
0.155131,-0.368544,2.481,2.51302
0.164367,-0.371218,2.499,2.53176
0.172478,-0.371218,2.499,2.5323
0.180589,-0.371218,2.499,2.53287
0.188701,-0.371218,2.499,2.53346
0.196812,-0.371218,2.499,2.53408
0.203447,-0.368544,2.481,2.51646
0.2115,-0.368544,2.481,2.51713
0.219552,-0.368544,2.481,2.51781
0.225954,-0.36587,2.463,2.50026
0.233948,-0.36587,2.463,2.50099
0.241942,-0.36587,2.463,2.50175
0.249936,-0.36587,2.463,2.50254
0.256046,-0.363196,2.445,2.48505
0.263982,-0.363196,2.445,2.48588
0.271917,-0.363196,2.445,2.48674
0.279853,-0.363196,2.445,2.48762
0.287789,-0.363196,2.445,2.48853
0.295725,-0.363196,2.445,2.48946
0.303661,-0.363196,2.445,2.49041
0.311597,-0.363196,2.445,2.49139
0.319533,-0.363196,2.445,2.4924
0.327469,-0.363196,2.445,2.49343
0.337874,-0.36587,2.463,2.51284
0.345868,-0.36587,2.463,2.51393
0.353862,-0.36587,2.463,2.51504
0.364501,-0.368544,2.481,2.53457
0.372554,-0.368544,2.481,2.53574
0.380606,-0.368544,2.481,2.53694
0.388659,-0.368544,2.481,2.53816
0.39959,-0.371218,2.499,2.55783
0.407701,-0.371218,2.499,2.55911
0.415812,-0.371218,2.499,2.56041
0.423923,-0.371218,2.499,2.56174
0.432035,-0.371218,2.499,2.5631
0.440146,-0.371218,2.499,2.56448
0.448257,-0.371218,2.499,2.56588
0.456368,-0.371218,2.499,2.56731
0.464479,-0.371218,2.499,2.56876
0.47259,-0.371218,2.499,2.57024
0.477239,-0.368544,2.481,2.55322
0.485292,-0.368544,2.481,2.55474
0.493344,-0.368544,2.481,2.55628
0.501397,-0.368544,2.481,2.55785
0.50945,-0.368544,2.481,2.55944
0.517502,-0.368544,2.481,2.56105
0.525555,-0.368544,2.481,2.56269
0.533608,-0.368544,2.481,2.56436
0.541661,-0.368544,2.481,2.56604
0.549713,-0.368544,2.481,2.56776
0.557766,-0.368544,2.481,2.56949
0.565819,-0.368544,2.481,2.57125
0.573871,-0.368544,2.481,2.57304
0.586146,-0.371218,2.499,2.59352
0.594257,-0.371218,2.499,2.59537
0.602368,-0.371218,2.499,2.59724
0.610479,-0.371218,2.499,2.59913
0.618591,-0.371218,2.499,2.60105
0.626702,-0.371218,2.499,2.60299
0.634813,-0.371218,2.499,2.60496
0.642924,-0.371218,2.499,2.60694
0.651035,-0.371218,2.499,2.60896
0.659146,-0.371218,2.499,2.61099
0.667257,-0.371218,2.499,2.61305
0.675369,-0.371218,2.499,2.61513
0.678557,-0.368544,2.481,2.59839
0.686609,-0.368544,2.481,2.6005
0.694662,-0.368544,2.481,2.60264
0.702715,-0.368544,2.481,2.6048
0.710768,-0.368544,2.481,2.60699
0.71882,-0.368544,2.481,2.60919
0.721599,-0.36587,2.463,2.59248
0.729594,-0.36587,2.463,2.59471
0.737588,-0.36587,2.463,2.59697
0.745582,-0.36587,2.463,2.59925
0.753577,-0.36587,2.463,2.60156
0.761571,-0.36587,2.463,2.60389
0.769565,-0.36587,2.463,2.60624
0.777559,-0.36587,2.463,2.60861
0.785554,-0.36587,2.463,2.611
0.793548,-0.36587,2.463,2.61342
0.801542,-0.36587,2.463,2.61586
0.809537,-0.36587,2.463,2.61832
0.823505,-0.368544,2.481,2.63995
0.831558,-0.368544,2.481,2.64248
0.833519,-0.36587,2.463,2.62583
0.841514,-0.36587,2.463,2.62838
0.849508,-0.36587,2.463,2.63095
0.857502,-0.36587,2.463,2.63354
0.865497,-0.36587,2.463,2.63616
0.873491,-0.36587,2.463,2.63879
0.881485,-0.36587,2.463,2.64145
0.889479,-0.36587,2.463,2.64413
0.897474,-0.36587,2.463,2.64683
0.898851,-0.363196,2.445,2.63018
0.906787,-0.363196,2.445,2.63291
0.914722,-0.363196,2.445,2.63565
0.922658,-0.363196,2.445,2.63842
0.930594,-0.363196,2.445,2.6412
0.93853,-0.363196,2.445,2.64401
0.946466,-0.363196,2.445,2.64684
0.947766,-0.360671,2.428,2.63126
0.955646,-0.360671,2.428,2.63411
0.963527,-0.360671,2.428,2.63698
0.971408,-0.360671,2.428,2.63987
0.972432,-0.358146,2.411,2.62427
0.980257,-0.358146,2.411,2.62718
0.988083,-0.358146,2.411,2.63011
nan,nan,nan,NaN
nan,nan,nan,NaN
nan,nan,nan,NaN
nan,nan,nan,NaN
nan,nan,nan,NaN
nan,nan,nan,NaN
nan,nan,nan,NaN
1.32044,-0.450096,3.03,3.33572
1.33027,-0.450096,3.03,3.33963
1.34011,-0.450096,3.03,3.34356
1.34994,-0.450096,3.03,3.34751
1.35978,-0.450096,3.03,3.35149
1.38182,-0.454107,3.057,3.38539
1.39174,-0.454107,3.057,3.38945
1.40166,-0.454107,3.057,3.39354
1.41158,-0.454107,3.057,3.39765
1.42151,-0.454107,3.057,3.40179
1.43143,-0.454107,3.057,3.40594
1.44135,-0.454107,3.057,3.41013
1.45127,-0.454107,3.057,3.41433
1.4612,-0.454107,3.057,3.41856
1.48411,-0.458118,3.084,3.45304
1.49412,-0.458118,3.084,3.45736
1.50413,-0.458118,3.084,3.4617
1.52789,-0.462277,3.112,3.49753
1.53799,-0.462277,3.112,3.50195
1.54809,-0.462277,3.112,3.5064
1.57271,-0.466585,3.141,3.54359
1.58291,-0.466585,3.141,3.54812
1.5931,-0.466585,3.141,3.55268
1.6181,-0.470893,3.17,3.59011
1.64328,-0.475201,3.199,3.62764
1.66969,-0.479806,3.23,3.66756
1.68018,-0.479806,3.23,3.67234
1.70636,-0.484262,3.26,3.71131
1.7338,-0.489016,3.292,3.75266
1.74448,-0.489016,3.292,3.75761
1.77223,-0.493769,3.324,3.79915
1.80018,-0.498522,3.356,3.84082
1.81108,-0.498522,3.356,3.84594
1.83988,-0.503425,3.389,3.88895
1.88857,-0.513674,3.458,3.97345
1.91902,-0.518873,3.493,4.01907
1.93036,-0.518873,3.493,4.0245
1.94169,-0.518873,3.493,4.02995
1.95303,-0.518873,3.493,4.03542
1.96437,-0.518873,3.493,4.04092
1.97571,-0.518873,3.493,4.04644
1.98704,-0.518873,3.493,4.05199
1.99838,-0.518873,3.493,4.05756
2.00972,-0.518873,3.493,4.06316
2.02106,-0.518873,3.493,4.06878
2.03239,-0.518873,3.493,4.07442
2.04373,-0.518873,3.493,4.08009
2.05507,-0.518873,3.493,4.08578
2.06641,-0.518873,3.493,4.09149
2.07774,-0.518873,3.493,4.09723
2.06815,-0.513674,3.458,4.06188
2.07937,-0.513674,3.458,4.06761
2.06944,-0.508475,3.423,4.03213
2.05988,-0.503425,3.389,3.99773
2.07088,-0.503425,3.389,4.00341
2.04195,-0.493769,3.324,3.93222
2.01322,-0.484262,3.26,3.86201
2.0238,-0.484262,3.26,3.86754
1.99631,-0.475201,3.199,3.80062
1.95212,-0.462277,3.112,3.70257
1.96222,-0.462277,3.112,3.70791
1.93746,-0.454107,3.057,3.64763
1.91299,-0.446086,3.003,3.58839
1.92273,-0.446086,3.003,3.59359
1.91575,-0.442223,2.977,3.56766
1.89243,-0.434647,2.926,3.51165
1.90192,-0.434647,2.926,3.51678
1.89509,-0.430934,2.901,3.49183
1.87299,-0.423804,2.853,3.43909
1.86642,-0.420238,2.829,3.41517
1.8756,-0.420238,2.829,3.42019
1.85414,-0.413405,2.783,3.36954
1.84844,-0.410137,2.761,3.34785
1.8574,-0.410137,2.761,3.3528
1.85149,-0.406869,2.739,3.33102
1.83118,-0.400482,2.696,3.2836
-2.60982,-0.546625,3.762,4.61114
-2.54168,-0.534856,3.681,4.50511
-2.52974,-0.534856,3.681,4.49838
-2.46512,-0.523668,3.604,4.39771
-2.40237,-0.51277,3.529,4.29978
-2.39091,-0.51277,3.529,4.29339
-2.35518,-0.507539,3.493,4.24329
-2.29688,-0.497368,3.423,4.1521
-2.28577,-0.497368,3.423,4.14597
-2.25206,-0.492428,3.389,4.09873
-2.24106,-0.492428,3.389,4.0927
-2.23006,-0.492428,3.389,4.08668
-2.21906,-0.492428,3.389,4.08069
-2.20806,-0.492428,3.389,4.07472
-2.19706,-0.492428,3.389,4.06877
-2.18606,-0.492428,3.389,4.06284
-2.17506,-0.492428,3.389,4.05693
-2.16406,-0.492428,3.389,4.05105
-2.17466,-0.497368,3.423,4.08576
-2.16355,-0.497368,3.423,4.07986
-2.15244,-0.497368,3.423,4.07398
-2.16323,-0.502454,3.458,4.10972
-2.13022,-0.497368,3.423,4.06228
-2.11911,-0.497368,3.423,4.05647
-2.108,-0.497368,3.423,4.05068
-2.09689,-0.497368,3.423,4.04491
-2.08578,-0.497368,3.423,4.03916
-2.07467,-0.497368,3.423,4.03343
-2.06356,-0.497368,3.423,4.02773
-2.05245,-0.497368,3.423,4.02205
-2.04134,-0.497368,3.423,4.01639
nan,nan,nan,NaN
nan,nan,nan,NaN
nan,nan,nan,NaN
nan,nan,nan,NaN
nan,nan,nan,NaN
nan,nan,nan,NaN
nan,nan,nan,NaN
nan,nan,nan,NaN
nan,nan,nan,NaN
nan,nan,nan,NaN
nan,nan,nan,NaN
nan,nan,nan,NaN
nan,nan,nan,NaN
nan,nan,nan,NaN
nan,nan,nan,NaN
nan,nan,nan,NaN
nan,nan,nan,NaN
nan,nan,nan,NaN
nan,nan,nan,NaN
nan,nan,nan,NaN
nan,nan,nan,NaN
nan,nan,nan,NaN
nan,nan,nan,NaN
nan,nan,nan,NaN
nan,nan,nan,NaN
nan,nan,nan,NaN
nan,nan,nan,NaN
nan,nan,nan,NaN
nan,nan,nan,NaN
nan,nan,nan,NaN
nan,nan,nan,NaN
-1.16278,-0.343058,2.361,2.65407
-1.15512,-0.343058,2.361,2.65072
-1.14746,-0.343058,2.361,2.64739
-1.13979,-0.343058,2.361,2.64408
-1.13213,-0.343058,2.361,2.64078
-1.12447,-0.343058,2.361,2.63751
-1.1168,-0.343058,2.361,2.63425
-1.10914,-0.343058,2.361,2.63101
-1.10148,-0.343058,2.361,2.62779
-1.09381,-0.343058,2.361,2.62458
-1.08615,-0.343058,2.361,2.6214
-1.0858,-0.345382,2.377,2.63598
-1.07808,-0.345382,2.377,2.63281
-1.07037,-0.345382,2.377,2.62966
-1.06265,-0.345382,2.377,2.62653
-1.05494,-0.345382,2.377,2.62342
-1.04722,-0.345382,2.377,2.62032
-1.03951,-0.345382,2.377,2.61725
-1.03179,-0.345382,2.377,2.61419
-1.02408,-0.345382,2.377,2.61116
-1.01636,-0.345382,2.377,2.60814
-1.01586,-0.347852,2.394,2.62378
-1.00809,-0.347852,2.394,2.62078
-1.00032,-0.347852,2.394,2.6178
-0.992548,-0.347852,2.394,2.61484
-0.984778,-0.347852,2.394,2.6119
-0.970069,-0.345382,2.377,2.59045
-0.962354,-0.345382,2.377,2.58757
-0.954639,-0.345382,2.377,2.58472
-0.946924,-0.345382,2.377,2.58188
-0.939209,-0.345382,2.377,2.57906
-0.931494,-0.345382,2.377,2.57626
-0.91756,-0.343058,2.361,2.55615
-0.909897,-0.343058,2.361,2.55341
-0.902234,-0.343058,2.361,2.55069
-0.894571,-0.343058,2.361,2.54799
-0.886907,-0.343058,2.361,2.54531
-0.879244,-0.343058,2.361,2.54265
-0.871581,-0.343058,2.361,2.54001
-0.863918,-0.343058,2.361,2.53739
-0.850452,-0.340733,2.345,2.51762
-0.842841,-0.340733,2.345,2.51506
-0.835229,-0.340733,2.345,2.51252
-0.827618,-0.340733,2.345,2.51
-0.820007,-0.340733,2.345,2.5075
-0.812395,-0.340733,2.345,2.50502
-0.804784,-0.340733,2.345,2.50256
-0.797173,-0.340733,2.345,2.50012
-0.789562,-0.340733,2.345,2.49771
-0.78195,-0.340733,2.345,2.49531
-0.779622,-0.343058,2.361,2.50994
-0.771959,-0.343058,2.361,2.50757
-0.764296,-0.343058,2.361,2.50523
-0.756633,-0.343058,2.361,2.5029
-0.748969,-0.343058,2.361,2.50059
-0.741306,-0.343058,2.361,2.49831
-0.733643,-0.343058,2.361,2.49605
-0.72598,-0.343058,2.361,2.4938
-0.718317,-0.343058,2.361,2.49158
-0.710653,-0.343058,2.361,2.48938
-0.707754,-0.345382,2.377,2.50406
-0.700039,-0.345382,2.377,2.50189
-0.692324,-0.345382,2.377,2.49975
-0.684609,-0.345382,2.377,2.49762
-0.681735,-0.347852,2.394,2.51336
-0.673964,-0.347852,2.394,2.51127
-0.666194,-0.347852,2.394,2.50919
-0.658424,-0.347852,2.394,2.50714
-0.650653,-0.347852,2.394,2.50511
-0.647448,-0.350323,2.411,2.52088
-0.639623,-0.350323,2.411,2.51888
-0.631797,-0.350323,2.411,2.51691
-0.628371,-0.352793,2.428,2.53269
-0.620491,-0.352793,2.428,2.53074
-0.616899,-0.355263,2.445,2.54653
-0.608963,-0.355263,2.445,2.54462
-0.601027,-0.355263,2.445,2.54273
-0.597458,-0.357878,2.463,2.55957
-0.589464,-0.357878,2.463,2.55772
-0.581469,-0.357878,2.463,2.55589
-0.573475,-0.357878,2.463,2.55408
-0.565481,-0.357878,2.463,2.5523
-0.557486,-0.357878,2.463,2.55054
-0.553508,-0.360494,2.481,2.56743
-0.545455,-0.360494,2.481,2.5657
-0.537403,-0.360494,2.481,2.564
-0.52935,-0.360494,2.481,2.56233
-0.521297,-0.360494,2.481,2.56068
-0.513244,-0.360494,2.481,2.55905
-0.505192,-0.360494,2.481,2.55745
-0.497139,-0.360494,2.481,2.55587
-0.485538,-0.357878,2.463,2.53578
-0.477544,-0.357878,2.463,2.53426
-0.469549,-0.357878,2.463,2.53277
-0.461555,-0.357878,2.463,2.5313
-0.453561,-0.357878,2.463,2.52985
-0.445566,-0.357878,2.463,2.52843
-0.437572,-0.357878,2.463,2.52704
-0.426438,-0.355263,2.445,2.50721
-0.418503,-0.355263,2.445,2.50587
-0.410567,-0.355263,2.445,2.50456
-0.402631,-0.355263,2.445,2.50327
-0.394695,-0.355263,2.445,2.502
-0.386759,-0.355263,2.445,2.50076
-0.378823,-0.355263,2.445,2.49955
-0.370887,-0.355263,2.445,2.49836
-0.365624,-0.357878,2.463,2.51558
-0.357629,-0.357878,2.463,2.51443
-0.349635,-0.357878,2.463,2.5133
-0.341641,-0.357878,2.463,2.5122
-0.333646,-0.357878,2.463,2.51113
-0.325652,-0.357878,2.463,2.51008
-0.317658,-0.357878,2.463,2.50905
-0.309664,-0.357878,2.463,2.50805
-0.299465,-0.355263,2.445,2.48876
-0.291529,-0.355263,2.445,2.48782
-0.283593,-0.355263,2.445,2.4869
-0.275657,-0.355263,2.445,2.48601
-0.267721,-0.355263,2.445,2.48514
-0.257979,-0.352793,2.428,2.46702
-0.250098,-0.352793,2.428,2.46621
-0.242218,-0.352793,2.428,2.46542
-0.234337,-0.352793,2.428,2.46466
-0.226456,-0.352793,2.428,2.46393
-0.218576,-0.352793,2.428,2.46321
-0.210695,-0.352793,2.428,2.46253
-0.202814,-0.352793,2.428,2.46187
-0.193569,-0.350323,2.411,2.444
-0.185743,-0.350323,2.411,2.44339
-0.177918,-0.350323,2.411,2.44281
-0.170092,-0.350323,2.411,2.44225
-0.162267,-0.350323,2.411,2.44172
-0.154441,-0.350323,2.411,2.44121
-0.146616,-0.350323,2.411,2.44073
-0.13879,-0.350323,2.411,2.44027
-0.130965,-0.350323,2.411,2.43984
-0.123139,-0.350323,2.411,2.43943
-0.115314,-0.350323,2.411,2.43905
-0.107488,-0.350323,2.411,2.43869
-0.0996626,-0.350323,2.411,2.43836
-0.0918371,-0.350323,2.411,2.43805
-0.0840116,-0.350323,2.411,2.43777
-0.0767233,-0.352793,2.428,2.4547
-0.0693246,-0.355263,2.445,2.47165
-0.0613887,-0.355263,2.445,2.47144
-0.0534529,-0.355263,2.445,2.47125
-0.045517,-0.355263,2.445,2.47109
-0.0375812,-0.355263,2.445,2.47096
-0.0298635,-0.357878,2.463,2.48904
-0.0218693,-0.357878,2.463,2.48896
-0.013875,-0.357878,2.463,2.4889
-0.00588068,-0.357878,2.463,2.48887
0.0021136,-0.357878,2.463,2.48887
0.0101818,-0.360494,2.481,2.50707
0.0182345,-0.360494,2.481,2.50712
0.0262872,-0.360494,2.481,2.50719
0.0343399,-0.360494,2.481,2.50729
0.0423926,-0.360494,2.481,2.50741
0.0504453,-0.360494,2.481,2.50756
0.058498,-0.360494,2.481,2.50774
0.0665507,-0.360494,2.481,2.50794
0.0746034,-0.360494,2.481,2.50816
0.0832558,-0.363109,2.499,2.52661
0.091367,-0.363109,2.499,2.52689
0.0987616,-0.360494,2.481,2.509
0.106814,-0.360494,2.481,2.50933
0.114867,-0.360494,2.481,2.50968
0.12292,-0.360494,2.481,2.51007
0.130972,-0.360494,2.481,2.51047
0.139025,-0.360494,2.481,2.51091
0.147078,-0.360494,2.481,2.51136
0.155131,-0.360494,2.481,2.51185
0.164367,-0.363109,2.499,2.53059
0.172478,-0.363109,2.499,2.53113
0.180589,-0.363109,2.499,2.53169
0.188701,-0.363109,2.499,2.53228
0.196812,-0.363109,2.499,2.5329
0.203447,-0.360494,2.481,2.51529
0.2115,-0.360494,2.481,2.51596
0.219552,-0.360494,2.481,2.51665
0.225954,-0.357878,2.463,2.4991
0.233948,-0.357878,2.463,2.49984
0.241942,-0.357878,2.463,2.5006
0.249936,-0.357878,2.463,2.50138
0.256046,-0.355263,2.445,2.48391
0.263982,-0.355263,2.445,2.48474
0.271917,-0.355263,2.445,2.48559
0.279853,-0.355263,2.445,2.48647
0.287789,-0.355263,2.445,2.48738
0.295725,-0.355263,2.445,2.48831
0.303661,-0.355263,2.445,2.48927
0.311597,-0.355263,2.445,2.49025
0.319533,-0.355263,2.445,2.49125
0.327469,-0.355263,2.445,2.49228
0.337874,-0.357878,2.463,2.51169
0.345868,-0.357878,2.463,2.51278
0.353862,-0.357878,2.463,2.51389
0.364501,-0.360494,2.481,2.53341
0.372554,-0.360494,2.481,2.53458
0.380606,-0.360494,2.481,2.53578
0.388659,-0.360494,2.481,2.537
0.39959,-0.363109,2.499,2.55666
0.407701,-0.363109,2.499,2.55794
0.415812,-0.363109,2.499,2.55925
0.423923,-0.363109,2.499,2.56058
0.432035,-0.363109,2.499,2.56193
0.440146,-0.363109,2.499,2.56331
0.448257,-0.363109,2.499,2.56472
0.456368,-0.363109,2.499,2.56615
0.464479,-0.363109,2.499,2.5676
0.47259,-0.363109,2.499,2.56908
0.480701,-0.363109,2.499,2.57059
0.488812,-0.363109,2.499,2.57212
0.496924,-0.363109,2.499,2.57367
0.501397,-0.360494,2.481,2.5567
0.50945,-0.360494,2.481,2.55829
0.517502,-0.360494,2.481,2.55991
0.525555,-0.360494,2.481,2.56155
0.533608,-0.360494,2.481,2.56321
0.541661,-0.360494,2.481,2.5649
0.549713,-0.360494,2.481,2.56661
0.557766,-0.360494,2.481,2.56835
0.565819,-0.360494,2.481,2.57011
0.573871,-0.360494,2.481,2.5719
0.586146,-0.363109,2.499,2.59238
0.594257,-0.363109,2.499,2.59422
0.602368,-0.363109,2.499,2.59609
0.610479,-0.363109,2.499,2.59799
0.623046,-0.365725,2.517,2.61863
0.626702,-0.363109,2.499,2.60185
0.634813,-0.363109,2.499,2.60381
0.642924,-0.363109,2.499,2.6058
0.651035,-0.363109,2.499,2.60781
0.659146,-0.363109,2.499,2.60985
0.667257,-0.363109,2.499,2.61191
0.675369,-0.363109,2.499,2.614
0.68348,-0.363109,2.499,2.6161
0.686609,-0.360494,2.481,2.59938
0.694662,-0.360494,2.481,2.60151
0.702715,-0.360494,2.481,2.60368
0.710768,-0.360494,2.481,2.60586
0.71882,-0.360494,2.481,2.60807
0.726873,-0.360494,2.481,2.6103
0.729594,-0.357878,2.463,2.5936
0.737588,-0.357878,2.463,2.59586
0.745582,-0.357878,2.463,2.59814
0.753577,-0.357878,2.463,2.60045
0.761571,-0.357878,2.463,2.60277
0.769565,-0.357878,2.463,2.60512
0.777559,-0.357878,2.463,2.6075
0.785554,-0.357878,2.463,2.60989
0.793548,-0.357878,2.463,2.61231
0.801542,-0.357878,2.463,2.61475
0.809537,-0.357878,2.463,2.61721
0.817531,-0.357878,2.463,2.6197
0.825525,-0.357878,2.463,2.6222
0.833519,-0.357878,2.463,2.62473
0.841514,-0.357878,2.463,2.62728
0.849508,-0.357878,2.463,2.62985
0.857502,-0.357878,2.463,2.63244
0.865497,-0.357878,2.463,2.63506
0.873491,-0.357878,2.463,2.63769
0.881485,-0.357878,2.463,2.64035
0.889479,-0.357878,2.463,2.64303
0.897474,-0.357878,2.463,2.64573
0.898851,-0.355263,2.445,2.6291
0.906787,-0.355263,2.445,2.63182
0.914722,-0.355263,2.445,2.63457
0.922658,-0.355263,2.445,2.63734
0.930594,-0.355263,2.445,2.64012
0.93853,-0.355263,2.445,2.64293
0.946466,-0.355263,2.445,2.64576
0.947766,-0.352793,2.428,2.63019
0.955646,-0.352793,2.428,2.63304
nan,nan,nan,NaN
nan,nan,nan,NaN
nan,nan,nan,NaN
nan,nan,nan,NaN
nan,nan,nan,NaN
nan,nan,nan,NaN
nan,nan,nan,NaN
nan,nan,nan,NaN
nan,nan,nan,NaN
nan,nan,nan,NaN
nan,nan,nan,NaN
nan,nan,nan,NaN
1.32044,-0.440264,3.03,3.33441
1.33027,-0.440264,3.03,3.33832
1.35205,-0.444188,3.057,3.37203
1.36197,-0.444188,3.057,3.37602
1.3719,-0.444188,3.057,3.38004
1.39402,-0.448111,3.084,3.41397
1.40403,-0.448111,3.084,3.41806
1.41404,-0.448111,3.084,3.42219
1.42405,-0.448111,3.084,3.42634
1.43406,-0.448111,3.084,3.43051
1.45718,-0.452179,3.112,3.46589
1.46728,-0.452179,3.112,3.47015
1.47738,-0.452179,3.112,3.47443
1.50135,-0.456393,3.141,3.51116
1.51154,-0.456393,3.141,3.51553
1.53579,-0.460607,3.17,3.55242
1.54608,-0.460607,3.17,3.55688
1.55636,-0.460607,3.17,3.56137
1.56665,-0.460607,3.17,3.56587
1.57694,-0.460607,3.17,3.57041
1.58723,-0.460607,3.17,3.57496
1.59752,-0.460607,3.17,3.57954
1.60781,-0.460607,3.17,3.58415
1.6329,-0.46482,3.199,3.62161
1.65921,-0.469325,3.23,3.66144
1.66969,-0.469325,3.23,3.6662
1.68018,-0.469325,3.23,3.67099
1.70636,-0.473684,3.26,3.70994
1.7338,-0.478334,3.292,3.75128
1.74448,-0.478334,3.292,3.75623
1.77223,-0.482983,3.324,3.79777
1.80018,-0.487633,3.356,3.83942
1.81108,-0.487633,3.356,3.84454
1.85834,-0.497368,3.423,3.92654
1.88857,-0.502454,3.458,3.97202
1.91902,-0.507539,3.493,4.01762
1.93036,-0.507539,3.493,4.02305
1.94169,-0.507539,3.493,4.0285
1.95303,-0.507539,3.493,4.03398
1.96437,-0.507539,3.493,4.03948
1.97571,-0.507539,3.493,4.045
1.98704,-0.507539,3.493,4.05055
1.99838,-0.507539,3.493,4.05613
2.00972,-0.507539,3.493,4.06173
2.02106,-0.507539,3.493,4.06735
2.03239,-0.507539,3.493,4.07299
2.04373,-0.507539,3.493,4.07866
2.05507,-0.507539,3.493,4.08435
2.06641,-0.507539,3.493,4.09007
2.07774,-0.507539,3.493,4.09581
2.06815,-0.502454,3.458,4.06048
2.07937,-0.502454,3.458,4.0662
2.06944,-0.497368,3.423,4.03074
2.05988,-0.492428,3.389,3.99636
2.07088,-0.492428,3.389,4.00204
2.04195,-0.482983,3.324,3.93088
2.01322,-0.473684,3.26,3.8607
2.0238,-0.473684,3.26,3.86623
1.99631,-0.46482,3.199,3.79933
1.95212,-0.452179,3.112,3.70132
1.96222,-0.452179,3.112,3.70666
1.93746,-0.444188,3.057,3.64641
1.91299,-0.436341,3.003,3.58719
1.92273,-0.436341,3.003,3.5924
1.91575,-0.432563,2.977,3.56647
1.89243,-0.425153,2.926,3.51049
1.90192,-0.425153,2.926,3.51562
1.89509,-0.421521,2.901,3.49068
1.87299,-0.414546,2.853,3.43796
1.85125,-0.407717,2.806,3.38629
1.86035,-0.407717,2.806,3.39128
1.85414,-0.404375,2.783,3.36845
1.83371,-0.397982,2.739,3.32009
1.8426,-0.397982,2.739,3.32501
1.83662,-0.394785,2.717,3.3032
1.81691,-0.388682,2.675,3.25697
-2.58138,-0.528594,3.721,4.55947
-2.51475,-0.517371,3.642,4.45599
-2.50293,-0.517371,3.642,4.44933
-2.46512,-0.511973,3.604,4.39633
-2.40237,-0.501319,3.529,4.29843
-2.39091,-0.501319,3.529,4.29204
-2.33158,-0.491233,3.458,4.19945
-2.27406,-0.481431,3.389,4.10956
-2.26306,-0.481431,3.389,4.10348
-2.25206,-0.481431,3.389,4.09742
-2.24106,-0.481431,3.389,4.09139
-2.23006,-0.481431,3.389,4.08537
-2.21906,-0.481431,3.389,4.07938
-2.20806,-0.481431,3.389,4.07341
-2.19706,-0.481431,3.389,4.06745
-2.18606,-0.481431,3.389,4.06152
-2.17506,-0.481431,3.389,4.05561
-2.16406,-0.481431,3.389,4.04972
-2.15306,-0.481431,3.389,4.04386
-2.14206,-0.481431,3.389,4.03801
-2.15244,-0.486261,3.423,4.07264
-2.14133,-0.486261,3.423,4.06678
-2.13022,-0.486261,3.423,4.06094
-2.11911,-0.486261,3.423,4.05512
-2.08706,-0.481431,3.389,4.00911
-2.07606,-0.481431,3.389,4.00339
-2.06506,-0.481431,3.389,3.9977
-2.05406,-0.481431,3.389,3.99203
-2.04306,-0.481431,3.389,3.98638
-2.03206,-0.481431,3.389,3.98075
-2.02106,-0.481431,3.389,3.97515
nan,nan,nan,NaN
nan,nan,nan,NaN
nan,nan,nan,NaN
nan,nan,nan,NaN
nan,nan,nan,NaN
nan,nan,nan,NaN
nan,nan,nan,NaN
nan,nan,nan,NaN
nan,nan,nan,NaN
nan,nan,nan,NaN
nan,nan,nan,NaN
nan,nan,nan,NaN
nan,nan,nan,NaN
nan,nan,nan,NaN
nan,nan,nan,NaN
nan,nan,nan,NaN
nan,nan,nan,NaN
nan,nan,nan,NaN
nan,nan,nan,NaN
nan,nan,nan,NaN
nan,nan,nan,NaN
nan,nan,nan,NaN
nan,nan,nan,NaN
nan,nan,nan,NaN
nan,nan,nan,NaN
nan,nan,nan,NaN
nan,nan,nan,NaN
nan,nan,nan,NaN
nan,nan,nan,NaN
nan,nan,nan,NaN
nan,nan,nan,NaN
-1.16278,-0.335396,2.361,2.65309
-1.15512,-0.335396,2.361,2.64974
-1.14746,-0.335396,2.361,2.64641
-1.13979,-0.335396,2.361,2.64309
-1.13213,-0.335396,2.361,2.6398
-1.12447,-0.335396,2.361,2.63652
-1.1168,-0.335396,2.361,2.63326
-1.10914,-0.335396,2.361,2.63002
-1.10148,-0.335396,2.361,2.6268
-1.09381,-0.335396,2.361,2.62359
-1.08615,-0.335396,2.361,2.62041
-1.0858,-0.337669,2.377,2.63498
-1.07808,-0.337669,2.377,2.63181
-1.07037,-0.337669,2.377,2.62866
-1.06265,-0.337669,2.377,2.62552
-1.05494,-0.337669,2.377,2.62241
-1.04722,-0.337669,2.377,2.61932
-1.03951,-0.337669,2.377,2.61624
-1.03179,-0.337669,2.377,2.61319
-1.02408,-0.337669,2.377,2.61015
-1.01636,-0.337669,2.377,2.60713
-1.00865,-0.337669,2.377,2.60413
-1.00093,-0.337669,2.377,2.60116
-0.993215,-0.337669,2.377,2.5982
-0.9855,-0.337669,2.377,2.59526
-0.977785,-0.337669,2.377,2.59234
-0.970069,-0.337669,2.377,2.58944
-0.962354,-0.337669,2.377,2.58656
-0.954639,-0.337669,2.377,2.5837
-0.946924,-0.337669,2.377,2.58086
-0.939209,-0.337669,2.377,2.57803
-0.931494,-0.337669,2.377,2.57523
-0.91756,-0.335396,2.361,2.55514
-0.909897,-0.335396,2.361,2.5524
-0.902234,-0.335396,2.361,2.54967
-0.894571,-0.335396,2.361,2.54697
-0.886907,-0.335396,2.361,2.54429
-0.879244,-0.335396,2.361,2.54163
-0.871581,-0.335396,2.361,2.53899
-0.863918,-0.335396,2.361,2.53637
-0.856255,-0.335396,2.361,2.53377
-0.848591,-0.335396,2.361,2.53119
-0.835229,-0.333124,2.345,2.51149
-0.827618,-0.333124,2.345,2.50897
-0.820007,-0.333124,2.345,2.50647
-0.812395,-0.333124,2.345,2.50399
-0.804784,-0.333124,2.345,2.50153
-0.797173,-0.333124,2.345,2.4991
-0.789562,-0.333124,2.345,2.49668
-0.787286,-0.335396,2.361,2.5113
-0.779622,-0.335396,2.361,2.50891
-0.771959,-0.335396,2.361,2.50654
-0.764296,-0.335396,2.361,2.50419
-0.756633,-0.335396,2.361,2.50186
-0.748969,-0.335396,2.361,2.49955
-0.741306,-0.335396,2.361,2.49727
-0.733643,-0.335396,2.361,2.495
-0.7309,-0.337669,2.377,2.50965
-0.723184,-0.337669,2.377,2.50742
-0.715469,-0.337669,2.377,2.5052
-0.707754,-0.337669,2.377,2.50301
-0.700039,-0.337669,2.377,2.50084
-0.692324,-0.337669,2.377,2.49869
-0.689505,-0.340084,2.394,2.51442
-0.681735,-0.340084,2.394,2.5123
-0.673964,-0.340084,2.394,2.5102
-0.666194,-0.340084,2.394,2.50813
-0.663099,-0.342499,2.411,2.52387
-0.655274,-0.342499,2.411,2.52183
-0.647448,-0.342499,2.411,2.5198
-0.644133,-0.344914,2.428,2.53556
-0.640707,-0.347329,2.445,2.55131
-0.632771,-0.347329,2.445,2.54933
-0.624835,-0.347329,2.445,2.54737
-0.616899,-0.347329,2.445,2.54543
-0.608963,-0.347329,2.445,2.54352
-0.605452,-0.349886,2.463,2.56034
-0.597458,-0.349886,2.463,2.55847
-0.589464,-0.349886,2.463,2.55661
-0.585719,-0.352443,2.481,2.57345
-0.577666,-0.352443,2.481,2.57163
-0.569613,-0.352443,2.481,2.56983
-0.561561,-0.352443,2.481,2.56806
-0.557524,-0.355,2.499,2.58493
-0.549413,-0.355,2.499,2.58319
-0.541301,-0.355,2.499,2.58148
-0.53319,-0.355,2.499,2.57979
-0.525079,-0.355,2.499,2.57813
-0.513244,-0.352443,2.481,2.55793
-0.505192,-0.352443,2.481,2.55632
-0.497139,-0.352443,2.481,2.55475
-0.485538,-0.349886,2.463,2.53467
-0.477544,-0.349886,2.463,2.53315
-0.469549,-0.349886,2.463,2.53165
-0.461555,-0.349886,2.463,2.53018
-0.453561,-0.349886,2.463,2.52874
-0.445566,-0.349886,2.463,2.52731
-0.437572,-0.349886,2.463,2.52592
-0.426438,-0.347329,2.445,2.5061
-0.418503,-0.347329,2.445,2.50476
-0.410567,-0.347329,2.445,2.50344
-0.402631,-0.347329,2.445,2.50215
-0.394695,-0.347329,2.445,2.50089
-0.386759,-0.347329,2.445,2.49965
-0.378823,-0.347329,2.445,2.49843
-0.370887,-0.347329,2.445,2.49724
-0.365624,-0.349886,2.463,2.51445
-0.357629,-0.349886,2.463,2.5133
-0.349635,-0.349886,2.463,2.51218
-0.341641,-0.349886,2.463,2.51108
-0.333646,-0.349886,2.463,2.51
-0.325652,-0.349886,2.463,2.50895
-0.317658,-0.349886,2.463,2.50793
-0.309664,-0.349886,2.463,2.50693
-0.299465,-0.347329,2.445,2.48764
-0.291529,-0.347329,2.445,2.4867
-0.283593,-0.347329,2.445,2.48578
-0.275657,-0.347329,2.445,2.48488
-0.267721,-0.347329,2.445,2.48402
-0.257979,-0.344914,2.428,2.46591
-0.250098,-0.344914,2.428,2.4651
-0.242218,-0.344914,2.428,2.46431
-0.234337,-0.344914,2.428,2.46355
-0.226456,-0.344914,2.428,2.46281
-0.218576,-0.344914,2.428,2.4621
-0.210695,-0.344914,2.428,2.46141
-0.202814,-0.344914,2.428,2.46075
-0.193569,-0.342499,2.411,2.44289
-0.185743,-0.342499,2.411,2.44228
-0.177918,-0.342499,2.411,2.4417
-0.170092,-0.342499,2.411,2.44114
-0.162267,-0.342499,2.411,2.44061
-0.154441,-0.342499,2.411,2.4401
-0.146616,-0.342499,2.411,2.43962
-0.13879,-0.342499,2.411,2.43916
-0.130965,-0.342499,2.411,2.43872
-0.123139,-0.342499,2.411,2.43832
-0.115314,-0.342499,2.411,2.43793
-0.107488,-0.342499,2.411,2.43758
-0.0996626,-0.342499,2.411,2.43724
-0.0918371,-0.342499,2.411,2.43694
-0.0840116,-0.342499,2.411,2.43665
-0.0767233,-0.344914,2.428,2.45358
-0.0693246,-0.347329,2.445,2.47052
-0.0613887,-0.347329,2.445,2.47031
-0.0534529,-0.347329,2.445,2.47013
-0.045517,-0.347329,2.445,2.46997
-0.0375812,-0.347329,2.445,2.46983
-0.0298635,-0.349886,2.463,2.48791
-0.0218693,-0.349886,2.463,2.48782
-0.0139764,-0.352443,2.481,2.50595
-0.00592366,-0.352443,2.481,2.50592
0.00212905,-0.352443,2.481,2.50591
0.0102556,-0.355,2.499,2.52411
0.0183668,-0.355,2.499,2.52416
0.0264779,-0.355,2.499,2.52423
0.034589,-0.355,2.499,2.52433
0.0427002,-0.355,2.499,2.52445
0.0508113,-0.355,2.499,2.5246
0.0589224,-0.355,2.499,2.52478
0.0670336,-0.355,2.499,2.52498
0.0751447,-0.355,2.499,2.52521
0.0832558,-0.355,2.499,2.52546
0.091367,-0.355,2.499,2.52574
0.0994781,-0.355,2.499,2.52605
0.107589,-0.355,2.499,2.52638
0.1157,-0.355,2.499,2.52674
0.123811,-0.355,2.499,2.52712
0.131923,-0.355,2.499,2.52753
0.141042,-0.357557,2.517,2.54618
0.149212,-0.357557,2.517,2.54665
0.157382,-0.357557,2.517,2.54714
0.165551,-0.357557,2.517,2.54765
0.173721,-0.357557,2.517,2.5482
0.18189,-0.357557,2.517,2.54877
0.188701,-0.355,2.499,2.53113
0.196812,-0.355,2.499,2.53175
0.204923,-0.355,2.499,2.53239
0.213034,-0.355,2.499,2.53306
0.221145,-0.355,2.499,2.53376
0.229256,-0.355,2.499,2.53448
0.237367,-0.355,2.499,2.53523
0.245479,-0.355,2.499,2.536
0.251763,-0.352443,2.481,2.51852
0.259816,-0.352443,2.481,2.51934
0.267868,-0.352443,2.481,2.52018
0.275921,-0.352443,2.481,2.52105
0.283974,-0.352443,2.481,2.52195
0.289908,-0.349886,2.463,2.50456
0.297902,-0.349886,2.463,2.5055
0.305896,-0.349886,2.463,2.50646
0.313891,-0.349886,2.463,2.50745
0.321885,-0.349886,2.463,2.50847
0.329879,-0.349886,2.463,2.5095
0.340343,-0.352443,2.481,2.52892
0.348396,-0.352443,2.481,2.53001
0.356448,-0.352443,2.481,2.53113
0.364501,-0.352443,2.481,2.53228
0.375257,-0.355,2.499,2.55183
0.383368,-0.355,2.499,2.55304
0.391479,-0.355,2.499,2.55427
0.39959,-0.355,2.499,2.55552
0.407701,-0.355,2.499,2.5568
0.415812,-0.355,2.499,2.55811
0.426977,-0.357557,2.517,2.57788
0.435146,-0.357557,2.517,2.57924
0.440146,-0.355,2.499,2.56218
0.448257,-0.355,2.499,2.56358
0.456368,-0.355,2.499,2.56501
0.464479,-0.355,2.499,2.56647
0.47259,-0.355,2.499,2.56795
0.480701,-0.355,2.499,2.56946
0.488812,-0.355,2.499,2.57099
0.496924,-0.355,2.499,2.57254
0.501397,-0.352443,2.481,2.55558
0.50945,-0.352443,2.481,2.55717
0.517502,-0.352443,2.481,2.55879
0.525555,-0.352443,2.481,2.56043
0.533608,-0.352443,2.481,2.56209
0.541661,-0.352443,2.481,2.56378
0.549713,-0.352443,2.481,2.56549
0.557766,-0.352443,2.481,2.56723
0.569924,-0.355,2.499,2.58763
0.578035,-0.355,2.499,2.58943
0.586146,-0.355,2.499,2.59125
0.594257,-0.355,2.499,2.5931
0.602368,-0.355,2.499,2.59497
0.610479,-0.355,2.499,2.59687
0.623046,-0.357557,2.517,2.6175
0.631216,-0.357557,2.517,2.61946
0.639385,-0.357557,2.517,2.62144
0.647555,-0.357557,2.517,2.62345
0.655725,-0.357557,2.517,2.62547
0.659146,-0.355,2.499,2.60874
0.667257,-0.355,2.499,2.6108
0.675369,-0.355,2.499,2.61288
0.68348,-0.355,2.499,2.61499
0.686609,-0.352443,2.481,2.59827
0.694662,-0.352443,2.481,2.60041
0.702715,-0.352443,2.481,2.60257
0.710768,-0.352443,2.481,2.60476
0.71882,-0.352443,2.481,2.60697
0.726873,-0.352443,2.481,2.6092
0.734926,-0.352443,2.481,2.61145
0.742978,-0.352443,2.481,2.61373
0.745582,-0.349886,2.463,2.59705
0.753577,-0.349886,2.463,2.59936
0.761571,-0.349886,2.463,2.60169
0.769565,-0.349886,2.463,2.60404
0.777559,-0.349886,2.463,2.60641
0.785554,-0.349886,2.463,2.60881
0.793548,-0.349886,2.463,2.61123
0.801542,-0.349886,2.463,2.61367
0.809537,-0.349886,2.463,2.61613
0.817531,-0.349886,2.463,2.61862
0.825525,-0.349886,2.463,2.62112
0.833519,-0.349886,2.463,2.62365
0.841514,-0.349886,2.463,2.6262
0.849508,-0.349886,2.463,2.62877
0.857502,-0.349886,2.463,2.63137
0.865497,-0.349886,2.463,2.63398
0.873491,-0.349886,2.463,2.63662
0.881485,-0.349886,2.463,2.63928
0.889479,-0.349886,2.463,2.64196
0.897474,-0.349886,2.463,2.64466
0.898851,-0.347329,2.445,2.62804
0.906787,-0.347329,2.445,2.63077
0.914722,-0.347329,2.445,2.63351
0.922658,-0.347329,2.445,2.63628
0.930594,-0.347329,2.445,2.63907
0.93853,-0.347329,2.445,2.64187
0.946466,-0.347329,2.445,2.6447
0.954402,-0.347329,2.445,2.64755
0.962338,-0.347329,2.445,2.65043
nan,nan,nan,NaN
nan,nan,nan,NaN
nan,nan,nan,NaN
nan,nan,nan,NaN
nan,nan,nan,NaN
nan,nan,nan,NaN
nan,nan,nan,NaN
nan,nan,nan,NaN
nan,nan,nan,NaN
nan,nan,nan,NaN
nan,nan,nan,NaN
nan,nan,nan,NaN
nan,nan,nan,NaN
nan,nan,nan,NaN
nan,nan,nan,NaN
nan,nan,nan,NaN
1.39658,-0.442081,3.112,3.43954
1.40668,-0.442081,3.112,3.44365
1.40403,-0.438104,3.084,3.41677
1.41404,-0.438104,3.084,3.42089
1.42405,-0.438104,3.084,3.42504
1.43406,-0.438104,3.084,3.42922
1.45718,-0.442081,3.112,3.46459
1.46728,-0.442081,3.112,3.46885
1.47738,-0.442081,3.112,3.47313
1.50135,-0.446201,3.141,3.50985
1.51154,-0.446201,3.141,3.51422
1.53579,-0.450321,3.17,3.5511
1.54608,-0.450321,3.17,3.55556
1.55636,-0.450321,3.17,3.56005
1.56665,-0.450321,3.17,3.56456
1.57694,-0.450321,3.17,3.56909
1.58723,-0.450321,3.17,3.57365
1.59752,-0.450321,3.17,3.57823
1.60781,-0.450321,3.17,3.58284
1.6329,-0.45444,3.199,3.62029
1.65921,-0.458844,3.23,3.66011
1.66969,-0.458844,3.23,3.66488
1.68018,-0.458844,3.23,3.66966
1.70636,-0.463106,3.26,3.7086
1.7338,-0.467652,3.292,3.74994
1.74448,-0.467652,3.292,3.75489
1.77223,-0.472197,3.324,3.79641
1.80018,-0.476743,3.356,3.83806
1.81108,-0.476743,3.356,3.84318
1.85834,-0.486261,3.423,3.92515
1.88857,-0.491233,3.458,3.97061
1.91902,-0.496205,3.493,4.01621
1.93036,-0.496205,3.493,4.02164
1.94169,-0.496205,3.493,4.02709
1.95303,-0.496205,3.493,4.03257
1.96437,-0.496205,3.493,4.03807
1.97571,-0.496205,3.493,4.0436
1.98704,-0.496205,3.493,4.04915
1.99838,-0.496205,3.493,4.05473
2.00972,-0.496205,3.493,4.06033
2.02106,-0.496205,3.493,4.06595
2.03239,-0.496205,3.493,4.0716
2.04373,-0.496205,3.493,4.07727
2.05507,-0.496205,3.493,4.08296
2.06641,-0.496205,3.493,4.08868
2.05692,-0.491233,3.458,4.0534
2.04722,-0.486261,3.423,4.01802
2.05833,-0.486261,3.423,4.02369
2.04888,-0.481431,3.389,3.98936
2.03982,-0.476743,3.356,3.95612
2.05072,-0.476743,3.356,3.96175
2.02229,-0.467652,3.292,3.89174
2.01322,-0.463106,3.26,3.85942
2.0238,-0.463106,3.26,3.86495
1.99631,-0.45444,3.199,3.79808
1.95212,-0.442081,3.112,3.7001
1.96222,-0.442081,3.112,3.70544
1.93746,-0.434268,3.057,3.64522
1.91299,-0.426597,3.003,3.58602
1.92273,-0.426597,3.003,3.59123
1.89902,-0.41921,2.951,3.53418
1.89243,-0.415659,2.926,3.50935
1.90192,-0.415659,2.926,3.51448
1.89509,-0.412107,2.901,3.48956
1.87299,-0.405288,2.853,3.43686
1.85125,-0.398612,2.806,3.38521
1.86035,-0.398612,2.806,3.3902
1.83948,-0.392219,2.761,3.34076
1.83371,-0.389094,2.739,3.31904
1.8426,-0.389094,2.739,3.32396
1.82243,-0.382986,2.696,3.27663
1.81691,-0.380002,2.675,3.25595
-2.52657,-0.505554,3.642,4.46131
-2.48851,-0.500279,3.604,4.40815
-2.47682,-0.500279,3.604,4.40156
-2.43913,-0.495004,3.566,4.34865
-2.37786,-0.484871,3.493,4.25328
-2.36652,-0.484871,3.493,4.24695
-2.33158,-0.480012,3.458,4.19815
-2.27406,-0.470434,3.389,4.10828
-2.26306,-0.470434,3.389,4.1022
-2.25206,-0.470434,3.389,4.09615
-2.24106,-0.470434,3.389,4.09011
-2.23006,-0.470434,3.389,4.08409
-2.21906,-0.470434,3.389,4.0781
-2.20806,-0.470434,3.389,4.07212
-2.19706,-0.470434,3.389,4.06617
-2.18606,-0.470434,3.389,4.06023
-2.17506,-0.470434,3.389,4.05432
-2.16406,-0.470434,3.389,4.04843
-2.15306,-0.470434,3.389,4.04256
-2.14206,-0.470434,3.389,4.03671
-2.15244,-0.475154,3.423,4.07133
-2.14133,-0.475154,3.423,4.06547
-2.13022,-0.475154,3.423,4.05962
-2.09806,-0.470434,3.389,4.01354
-2.08706,-0.470434,3.389,4.0078
-2.07606,-0.470434,3.389,4.00208
-2.06506,-0.470434,3.389,3.99639
-2.05406,-0.470434,3.389,3.99072
-2.04306,-0.470434,3.389,3.98506
-2.03206,-0.470434,3.389,3.97944
-2.02106,-0.470434,3.389,3.97383
nan,nan,nan,NaN
nan,nan,nan,NaN
nan,nan,nan,NaN
nan,nan,nan,NaN
nan,nan,nan,NaN
nan,nan,nan,NaN
nan,nan,nan,NaN
nan,nan,nan,NaN
nan,nan,nan,NaN
nan,nan,nan,NaN
nan,nan,nan,NaN
nan,nan,nan,NaN
nan,nan,nan,NaN
nan,nan,nan,NaN
nan,nan,nan,NaN
nan,nan,nan,NaN
nan,nan,nan,NaN
nan,nan,nan,NaN
nan,nan,nan,NaN
nan,nan,nan,NaN
nan,nan,nan,NaN
nan,nan,nan,NaN
nan,nan,nan,NaN
nan,nan,nan,NaN
nan,nan,nan,NaN
nan,nan,nan,NaN
nan,nan,nan,NaN
nan,nan,nan,NaN
nan,nan,nan,NaN
nan,nan,nan,NaN
nan,nan,nan,NaN
-1.17066,-0.329956,2.377,2.6701
-1.16295,-0.329956,2.377,2.66673
-1.15523,-0.329956,2.377,2.66337
-1.14752,-0.329956,2.377,2.66004
-1.1398,-0.329956,2.377,2.65672
-1.13209,-0.329956,2.377,2.65342
-1.12437,-0.329956,2.377,2.65013
-1.11666,-0.329956,2.377,2.64687
-1.10894,-0.329956,2.377,2.64363
-1.10123,-0.329956,2.377,2.6404
-1.09351,-0.329956,2.377,2.63719
-1.0858,-0.329956,2.377,2.634
-1.07808,-0.329956,2.377,2.63083
-1.07037,-0.329956,2.377,2.62768
-1.06265,-0.329956,2.377,2.62454
-1.05494,-0.329956,2.377,2.62143
-1.04722,-0.329956,2.377,2.61833
-1.03951,-0.329956,2.377,2.61526
-1.03179,-0.329956,2.377,2.6122
-1.02408,-0.329956,2.377,2.60916
-1.01636,-0.329956,2.377,2.60614
-1.00865,-0.329956,2.377,2.60315
-1.00093,-0.329956,2.377,2.60017
-0.993215,-0.329956,2.377,2.59721
-0.9855,-0.329956,2.377,2.59426
-0.977785,-0.329956,2.377,2.59134
-0.970069,-0.329956,2.377,2.58844
-0.962354,-0.329956,2.377,2.58556
-0.954639,-0.329956,2.377,2.5827
-0.946924,-0.329956,2.377,2.57986
-0.939209,-0.329956,2.377,2.57704
-0.931494,-0.329956,2.377,2.57423
-0.91756,-0.327735,2.361,2.55414
-0.909897,-0.327735,2.361,2.5514
-0.902234,-0.327735,2.361,2.54868
-0.894571,-0.327735,2.361,2.54597
-0.886907,-0.327735,2.361,2.54329
-0.879244,-0.327735,2.361,2.54063
-0.871581,-0.327735,2.361,2.53799
-0.863918,-0.327735,2.361,2.53537
-0.856255,-0.327735,2.361,2.53277
-0.848591,-0.327735,2.361,2.53019
-0.835229,-0.325514,2.345,2.5105
-0.827618,-0.325514,2.345,2.50797
-0.820007,-0.325514,2.345,2.50547
-0.812395,-0.325514,2.345,2.50299
-0.804784,-0.325514,2.345,2.50053
-0.797173,-0.325514,2.345,2.49809
-0.789562,-0.325514,2.345,2.49567
-0.787286,-0.327735,2.361,2.51029
-0.779622,-0.327735,2.361,2.5079
-0.771959,-0.327735,2.361,2.50552
-0.764296,-0.327735,2.361,2.50317
-0.756633,-0.327735,2.361,2.50084
-0.748969,-0.327735,2.361,2.49854
-0.741306,-0.327735,2.361,2.49625
-0.733643,-0.327735,2.361,2.49399
-0.7309,-0.329956,2.377,2.50863
-0.723184,-0.329956,2.377,2.50639
-0.715469,-0.329956,2.377,2.50418
-0.707754,-0.329956,2.377,2.50198
-0.700039,-0.329956,2.377,2.49981
-0.692324,-0.329956,2.377,2.49766
-0.689505,-0.332316,2.394,2.51338
-0.681735,-0.332316,2.394,2.51126
-0.673964,-0.332316,2.394,2.50916
-0.666194,-0.332316,2.394,2.50709
-0.663099,-0.334676,2.411,2.52282
-0.655274,-0.334676,2.411,2.52078
-0.647448,-0.334676,2.411,2.51875
-0.644133,-0.337036,2.428,2.5345
-0.640707,-0.339396,2.445,2.55024
-0.632771,-0.339396,2.445,2.54826
-0.624835,-0.339396,2.445,2.5463
-0.616899,-0.339396,2.445,2.54436
-0.608963,-0.339396,2.445,2.54245
-0.605452,-0.341894,2.463,2.55926
-0.597458,-0.341894,2.463,2.55738
-0.589464,-0.341894,2.463,2.55553
-0.585719,-0.344393,2.481,2.57236
-0.577666,-0.344393,2.481,2.57054
-0.569613,-0.344393,2.481,2.56874
-0.561561,-0.344393,2.481,2.56697
-0.557524,-0.346891,2.499,2.58383
-0.549413,-0.346891,2.499,2.58209
-0.541301,-0.346891,2.499,2.58038
-0.53319,-0.346891,2.499,2.57869
-0.525079,-0.346891,2.499,2.57702
-0.516968,-0.346891,2.499,2.57538
-0.508857,-0.346891,2.499,2.57377
-0.500746,-0.346891,2.499,2.57217
-0.489086,-0.344393,2.481,2.55209
-0.481034,-0.344393,2.481,2.55056
-0.472981,-0.344393,2.481,2.54905
-0.464928,-0.344393,2.481,2.54757
-0.456875,-0.344393,2.481,2.54612
-0.445566,-0.341894,2.463,2.52622
-0.437572,-0.341894,2.463,2.52482
-0.429578,-0.341894,2.463,2.52345
-0.421584,-0.341894,2.463,2.5221
-0.413589,-0.341894,2.463,2.52078
-0.405595,-0.341894,2.463,2.51948
-0.397601,-0.341894,2.463,2.5182
-0.389606,-0.341894,2.463,2.51695
-0.381612,-0.341894,2.463,2.51573
-0.373618,-0.341894,2.463,2.51453
-0.365624,-0.341894,2.463,2.51335
-0.357629,-0.341894,2.463,2.5122
-0.349635,-0.341894,2.463,2.51108
-0.341641,-0.341894,2.463,2.50998
-0.333646,-0.341894,2.463,2.5089
-0.325652,-0.341894,2.463,2.50785
-0.317658,-0.341894,2.463,2.50682
-0.309664,-0.341894,2.463,2.50582
-0.301669,-0.341894,2.463,2.50485
-0.293675,-0.341894,2.463,2.5039
-0.285681,-0.341894,2.463,2.50297
-0.277686,-0.341894,2.463,2.50207
-0.267721,-0.339396,2.445,2.48292
-0.259785,-0.339396,2.445,2.48208
-0.251849,-0.339396,2.445,2.48126
-0.243914,-0.339396,2.445,2.48047
-0.235978,-0.339396,2.445,2.4797
-0.228042,-0.339396,2.445,2.47896
-0.218576,-0.337036,2.428,2.46101
-0.210695,-0.337036,2.428,2.46032
-0.202814,-0.337036,2.428,2.45966
-0.194934,-0.337036,2.428,2.45902
-0.185743,-0.334676,2.411,2.44119
-0.177918,-0.334676,2.411,2.44061
-0.170092,-0.334676,2.411,2.44005
-0.162267,-0.334676,2.411,2.43952
-0.15553,-0.337036,2.428,2.45621
-0.147649,-0.337036,2.428,2.45572
-0.139769,-0.337036,2.428,2.45526
-0.131888,-0.337036,2.428,2.45483
-0.124007,-0.337036,2.428,2.45442
-0.116127,-0.337036,2.428,2.45403
-0.108246,-0.337036,2.428,2.45367
-0.100365,-0.337036,2.428,2.45333
-0.0924847,-0.337036,2.428,2.45303
-0.084604,-0.337036,2.428,2.45274
-0.0772605,-0.339396,2.445,2.46965
-0.0693246,-0.339396,2.445,2.46942
-0.0613887,-0.339396,2.445,2.46921
-0.0534529,-0.339396,2.445,2.46902
-0.0458521,-0.341894,2.463,2.48704
-0.0378578,-0.341894,2.463,2.4869
-0.0300818,-0.344393,2.481,2.50497
-0.0220291,-0.344393,2.481,2.50489
-0.0140778,-0.346891,2.499,2.523
-0.00596664,-0.346891,2.499,2.52297
0.00214449,-0.346891,2.499,2.52296
0.0102556,-0.346891,2.499,2.52298
0.0183668,-0.346891,2.499,2.52303
0.0266686,-0.34939,2.517,2.54127
0.0348382,-0.34939,2.517,2.54137
0.0430077,-0.34939,2.517,2.5415
0.0511773,-0.34939,2.517,2.54165
0.0593468,-0.34939,2.517,2.54183
0.0675164,-0.34939,2.517,2.54203
0.075686,-0.34939,2.517,2.54226
0.0838555,-0.34939,2.517,2.54252
0.0920251,-0.34939,2.517,2.5428
0.100195,-0.34939,2.517,2.54311
0.108364,-0.34939,2.517,2.54344
0.116534,-0.34939,2.517,2.5438
0.124703,-0.34939,2.517,2.54419
0.133876,-0.352028,2.536,2.56381
0.142107,-0.352028,2.536,2.56426
0.150338,-0.352028,2.536,2.56473
0.15857,-0.352028,2.536,2.56522
0.165551,-0.34939,2.517,2.54652
0.173721,-0.34939,2.517,2.54707
0.18189,-0.34939,2.517,2.54764
0.19006,-0.34939,2.517,2.54823
0.198229,-0.34939,2.517,2.54885
0.206399,-0.34939,2.517,2.5495
0.214568,-0.34939,2.517,2.55018
0.222738,-0.34939,2.517,2.55088
0.230908,-0.34939,2.517,2.5516
0.239077,-0.34939,2.517,2.55236
0.247247,-0.34939,2.517,2.55313
0.25359,-0.346891,2.499,2.53567
0.261701,-0.346891,2.499,2.5365
0.269812,-0.346891,2.499,2.53735
0.277923,-0.346891,2.499,2.53822
0.286034,-0.346891,2.499,2.53912
0.294145,-0.346891,2.499,2.54005
0.302256,-0.346891,2.499,2.541
0.310368,-0.346891,2.499,2.54198
0.318479,-0.346891,2.499,2.54298
0.32659,-0.346891,2.499,2.54401
0.334701,-0.346891,2.499,2.54507
0.342812,-0.346891,2.499,2.54615
0.353451,-0.34939,2.517,2.5656
0.36162,-0.34939,2.517,2.56674
0.36979,-0.34939,2.517,2.5679
0.37796,-0.34939,2.517,2.56909
0.386129,-0.34939,2.517,2.5703
0.394299,-0.34939,2.517,2.57154
0.402468,-0.34939,2.517,2.57281
0.410638,-0.34939,2.517,2.5741
0.418807,-0.34939,2.517,2.57542
0.426977,-0.34939,2.517,2.57676
0.435146,-0.34939,2.517,2.57812
0.443316,-0.34939,2.517,2.57951
0.451486,-0.34939,2.517,2.58093
0.459655,-0.34939,2.517,2.58237
0.467825,-0.34939,2.517,2.58384
0.475994,-0.34939,2.517,2.58533
0.480701,-0.346891,2.499,2.56835
0.488812,-0.346891,2.499,2.56988
0.496924,-0.346891,2.499,2.57143
0.505035,-0.346891,2.499,2.57301
0.513146,-0.346891,2.499,2.57462
0.521257,-0.346891,2.499,2.57625
0.529368,-0.346891,2.499,2.5779
0.537479,-0.346891,2.499,2.57958
0.541661,-0.344393,2.481,2.56269
0.549713,-0.344393,2.481,2.5644
0.557766,-0.344393,2.481,2.56614
0.569924,-0.346891,2.499,2.58653
0.578035,-0.346891,2.499,2.58833
0.586146,-0.346891,2.499,2.59015
0.594257,-0.346891,2.499,2.592
0.602368,-0.346891,2.499,2.59387
0.610479,-0.346891,2.499,2.59577
0.623046,-0.34939,2.517,2.6164
0.631216,-0.34939,2.517,2.61836
0.639385,-0.34939,2.517,2.62034
0.647555,-0.34939,2.517,2.62234
0.655725,-0.34939,2.517,2.62437
0.659146,-0.346891,2.499,2.60764
0.667257,-0.346891,2.499,2.60971
0.675369,-0.346891,2.499,2.61179
0.68348,-0.346891,2.499,2.6139
0.686609,-0.344393,2.481,2.59719
0.694662,-0.344393,2.481,2.59933
0.702715,-0.344393,2.481,2.6015
0.710768,-0.344393,2.481,2.60368
0.71882,-0.344393,2.481,2.60589
0.726873,-0.344393,2.481,2.60812
0.734926,-0.344393,2.481,2.61038
0.742978,-0.344393,2.481,2.61266
0.745582,-0.341894,2.463,2.59599
0.753577,-0.341894,2.463,2.5983
0.761571,-0.341894,2.463,2.60063
0.769565,-0.341894,2.463,2.60298
0.777559,-0.341894,2.463,2.60535
0.785554,-0.341894,2.463,2.60775
0.793548,-0.341894,2.463,2.61017
0.801542,-0.341894,2.463,2.61261
0.809537,-0.341894,2.463,2.61507
0.817531,-0.341894,2.463,2.61756
0.825525,-0.341894,2.463,2.62007
0.833519,-0.341894,2.463,2.6226
0.841514,-0.341894,2.463,2.62515
0.849508,-0.341894,2.463,2.62772
0.857502,-0.341894,2.463,2.63032
0.859171,-0.339396,2.445,2.61369
0.867107,-0.339396,2.445,2.61631
0.875043,-0.339396,2.445,2.61895
0.889479,-0.341894,2.463,2.64092
0.897474,-0.341894,2.463,2.64362
0.898851,-0.339396,2.445,2.627
0.906787,-0.339396,2.445,2.62973
0.914722,-0.339396,2.445,2.63248
0.922658,-0.339396,2.445,2.63524
0.930594,-0.339396,2.445,2.63803
0.93853,-0.339396,2.445,2.64084
0.946466,-0.339396,2.445,2.64367
0.954402,-0.339396,2.445,2.64653
0.962338,-0.339396,2.445,2.6494
0.970273,-0.339396,2.445,2.65229
0.978209,-0.339396,2.445,2.6552
0.986145,-0.339396,2.445,2.65814
0.994081,-0.339396,2.445,2.66109
1.00202,-0.339396,2.445,2.66407
1.00995,-0.339396,2.445,2.66706
nan,nan,nan,NaN
nan,nan,nan,NaN
nan,nan,nan,NaN
nan,nan,nan,NaN
nan,nan,nan,NaN
nan,nan,nan,NaN
nan,nan,nan,NaN
nan,nan,nan,NaN
nan,nan,nan,NaN
nan,nan,nan,NaN
1.39658,-0.431983,3.112,3.43825
1.40668,-0.431983,3.112,3.44237
1.41678,-0.431983,3.112,3.44651
1.44018,-0.436009,3.141,3.48283
1.46376,-0.440034,3.17,3.51925
1.47405,-0.440034,3.17,3.52354
1.48434,-0.440034,3.17,3.52786
1.49463,-0.440034,3.17,3.5322
1.51869,-0.44406,3.199,3.56892
1.52907,-0.44406,3.199,3.57335
1.55437,-0.448363,3.23,3.61248
1.56485,-0.448363,3.23,3.617
1.57534,-0.448363,3.23,3.62155
1.58582,-0.448363,3.23,3.62612
1.59631,-0.448363,3.23,3.63072
1.60679,-0.448363,3.23,3.63534
1.60175,-0.44406,3.199,3.60505
1.61213,-0.44406,3.199,3.60968
1.62252,-0.44406,3.199,3.61433
1.64872,-0.448363,3.23,3.65407
1.67462,-0.452528,3.26,3.69279
1.6852,-0.452528,3.26,3.69761
1.69578,-0.452528,3.26,3.70244
1.72311,-0.45697,3.292,3.74369
1.75065,-0.461412,3.324,3.78506
1.76144,-0.461412,3.324,3.79006
1.78929,-0.465853,3.356,3.83162
1.81788,-0.470434,3.389,3.87445
1.82888,-0.470434,3.389,3.87962
1.85834,-0.475154,3.423,3.92379
1.88857,-0.480012,3.458,3.96924
1.91902,-0.484871,3.493,4.01482
1.93036,-0.484871,3.493,4.02025
1.94169,-0.484871,3.493,4.02571
1.95303,-0.484871,3.493,4.03119
1.96437,-0.484871,3.493,4.03669
1.97571,-0.484871,3.493,4.04222
1.98704,-0.484871,3.493,4.04778
1.99838,-0.484871,3.493,4.05335
2.03043,-0.489868,3.529,4.10079
2.04189,-0.489868,3.529,4.10647
2.05334,-0.489868,3.529,4.11218
2.06479,-0.489868,3.529,4.11791
2.05507,-0.484871,3.493,4.0816
2.06641,-0.484871,3.493,4.08732
2.05692,-0.480012,3.458,4.05205
2.04722,-0.475154,3.423,4.01669
2.05833,-0.475154,3.423,4.02236
2.04888,-0.470434,3.389,3.98805
2.03982,-0.465853,3.356,3.95482
2.05072,-0.465853,3.356,3.96045
2.02229,-0.45697,3.292,3.89047
1.99469,-0.448363,3.23,3.82266
2.00517,-0.448363,3.23,3.82814
1.97821,-0.440034,3.17,3.76243
1.93456,-0.428097,3.084,3.66563
1.94457,-0.428097,3.084,3.67092
1.92035,-0.420601,3.03,3.61186
1.91299,-0.416853,3.003,3.58487
1.92273,-0.416853,3.003,3.59008
1.89902,-0.409635,2.951,3.53305
1.89243,-0.406164,2.926,3.50824
1.90192,-0.406164,2.926,3.51337
1.87941,-0.399362,2.877,3.4596
1.85724,-0.3927,2.829,3.40687
1.85125,-0.389507,2.806,3.38415
1.86035,-0.389507,2.806,3.38914
1.83948,-0.38326,2.761,3.33972
1.81899,-0.377153,2.717,3.29136
1.8278,-0.377153,2.717,3.29624
1.82243,-0.374237,2.696,3.27562
1.80265,-0.368407,2.654,3.22939
-2.52657,-0.493736,3.642,4.45999
-2.48851,-0.488585,3.604,4.40684
-2.47682,-0.488585,3.604,4.40025
-2.43913,-0.483433,3.566,4.34735
-2.37786,-0.473537,3.493,4.252
-2.36652,-0.473537,3.493,4.24567
-2.33158,-0.468792,3.458,4.19688
-2.27406,-0.459438,3.389,4.10704
-2.26306,-0.459438,3.389,4.10096
-2.25206,-0.459438,3.389,4.0949
-2.24106,-0.459438,3.389,4.08886
-2.23006,-0.459438,3.389,4.08284
-2.21906,-0.459438,3.389,4.07684
-2.20806,-0.459438,3.389,4.07087
-2.19706,-0.459438,3.389,4.06491
-2.18606,-0.459438,3.389,4.05897
-2.17506,-0.459438,3.389,4.05306
-2.16406,-0.459438,3.389,4.04717
-2.15306,-0.459438,3.389,4.0413
-2.14206,-0.459438,3.389,4.03545
-2.15244,-0.464047,3.423,4.07005
-2.14133,-0.464047,3.423,4.06418
-2.13022,-0.464047,3.423,4.05834
-2.09806,-0.459438,3.389,4.01227
-2.08706,-0.459438,3.389,4.00652
-2.07606,-0.459438,3.389,4.00081
-2.06506,-0.459438,3.389,3.99511
-2.05406,-0.459438,3.389,3.98943
-2.04306,-0.459438,3.389,3.98378
-2.03206,-0.459438,3.389,3.97815
-2.02106,-0.459438,3.389,3.97254
nan,nan,nan,NaN
nan,nan,nan,NaN
nan,nan,nan,NaN
nan,nan,nan,NaN
nan,nan,nan,NaN
nan,nan,nan,NaN
nan,nan,nan,NaN
nan,nan,nan,NaN
nan,nan,nan,NaN
nan,nan,nan,NaN
nan,nan,nan,NaN
nan,nan,nan,NaN
nan,nan,nan,NaN
nan,nan,nan,NaN
nan,nan,nan,NaN
nan,nan,nan,NaN
nan,nan,nan,NaN
nan,nan,nan,NaN
nan,nan,nan,NaN
nan,nan,nan,NaN
nan,nan,nan,NaN
nan,nan,nan,NaN
nan,nan,nan,NaN
nan,nan,nan,NaN
nan,nan,nan,NaN
nan,nan,nan,NaN
nan,nan,nan,NaN
nan,nan,nan,NaN
nan,nan,nan,NaN
nan,nan,nan,NaN
nan,nan,nan,NaN
-1.17066,-0.322243,2.377,2.66916
-1.16295,-0.322243,2.377,2.66579
-1.15523,-0.322243,2.377,2.66243
-1.14752,-0.322243,2.377,2.65909
-1.1398,-0.322243,2.377,2.65577
-1.13209,-0.322243,2.377,2.65247
-1.12437,-0.322243,2.377,2.64919
-1.11666,-0.322243,2.377,2.64592
-1.10894,-0.322243,2.377,2.64267
