0.849993,-0.047558,2.536,2.67508
0.858224,-0.047558,2.536,2.67771
0.866455,-0.047558,2.536,2.68035
0.874686,-0.047558,2.536,2.68303
0.876303,-0.0472017,2.517,2.6656
0.878147,-0.0468642,2.499,2.64921
0.886258,-0.0468642,2.499,2.65191
0.887927,-0.0465266,2.481,2.63552
0.889479,-0.0461891,2.463,2.6191
0.897474,-0.0461891,2.463,2.62182
0.898851,-0.0458515,2.445,2.60539
0.906787,-0.0458515,2.445,2.60814
0.902002,-0.0452139,2.411,2.5746
0.909828,-0.0452139,2.411,2.57735
0.911183,-0.0448951,2.394,2.56193
0.912428,-0.0445763,2.377,2.5465
0.920143,-0.0445763,2.377,2.54927
0.921612,-0.0442762,2.361,2.53489
0.929276,-0.0442762,2.361,2.53768
0.936939,-0.0442762,2.361,2.5405
0.938201,-0.0439762,2.345,2.5261
0.945812,-0.0439762,2.345,2.52894
0.953423,-0.0439762,2.345,2.53179
0.961035,-0.0439762,2.345,2.53467
0.975255,-0.0442762,2.361,2.55488
0.989579,-0.0445763,2.377,2.57515
0.997294,-0.0445763,2.377,2.57812
1.00501,-0.0445763,2.377,2.58112
1.02721,-0.0452139,2.411,2.62109
1.04963,-0.0458515,2.445,2.66118
1.05757,-0.0458515,2.445,2.66432
1.07335,-0.0461891,2.463,2.68711
1.09715,-0.0468642,2.499,2.72964
1.10526,-0.0468642,2.499,2.73291
1.12985,-0.047558,2.536,2.77671
1.14661,-0.0479144,2.555,2.8009
1.16349,-0.0482707,2.574,2.82516
1.17185,-0.0482707,2.574,2.82861
1.19808,-0.049002,2.613,2.87499
1.20657,-0.049002,2.613,2.87854
1.21505,-0.049002,2.613,2.8821
1.23289,-0.0493771,2.633,2.90777
1.26124,-0.0501647,2.675,2.95785
1.26992,-0.0501647,2.675,2.96156
1.27861,-0.0501647,2.675,2.9653
1.29739,-0.0505585,2.696,2.99236
1.31632,-0.0509524,2.717,3.0195
1.32514,-0.0509524,2.717,3.02336
1.35556,-0.0517775,2.761,3.07625
1.37539,-0.0521901,2.783,3.10476
1.38443,-0.0521901,2.783,3.10877
1.41649,-0.0530527,2.829,3.16425
1.43777,-0.0535028,2.853,3.19525
1.44703,-0.0535028,2.853,3.19943
1.48079,-0.0544029,2.901,3.25753
1.50305,-0.0548718,2.926,3.28993
1.53891,-0.0558282,2.977,3.3517
1.54857,-0.0558282,2.977,3.35615
1.57184,-0.0563158,3.003,3.38997
1.59581,-0.0568221,3.03,3.42502
1.60564,-0.0568221,3.03,3.42961
1.64427,-0.0578348,3.084,3.49543
1.65428,-0.0578348,3.084,3.50015
1.66429,-0.0578348,3.084,3.50489
1.70524,-0.0589037,3.141,3.57452
1.71544,-0.0589037,3.141,3.5794
1.74157,-0.0594476,3.17,3.61739
1.75186,-0.0594476,3.17,3.62235
1.76214,-0.0594476,3.17,3.62734
1.77243,-0.0594476,3.17,3.63235
1.76641,-0.0589037,3.141,3.6041
1.77661,-0.0589037,3.141,3.60911
1.7868,-0.0589037,3.141,3.61414
1.797,-0.0589037,3.141,3.61919
1.80719,-0.0589037,3.141,3.62427
1.81739,-0.0589037,3.141,3.62936
1.82758,-0.0589037,3.141,3.63448
1.83778,-0.0589037,3.141,3.63961
1.83091,-0.0583599,3.112,3.61112
1.84101,-0.0583599,3.112,3.61625
1.83446,-0.0578348,3.084,3.58882
1.82832,-0.0573284,3.057,3.56248
1.83824,-0.0573284,3.057,3.56759
1.83184,-0.0568221,3.03,3.54115
1.82526,-0.0563158,3.003,3.51465
1.83501,-0.0563158,3.003,3.51972
1.82879,-0.0558282,2.977,3.4943
1.82239,-0.0553406,2.951,3.4688
1.83197,-0.0553406,2.951,3.47384
1.81035,-0.0544029,2.901,3.41996
1.80471,-0.0539529,2.877,3.39662
1.81405,-0.0539529,2.877,3.40159
1.79296,-0.0530527,2.829,3.34974
1.77284,-0.0521901,2.783,3.30012
1.76779,-0.0517775,2.761,3.27885
1.77675,-0.0517775,2.761,3.28369
1.75725,-0.0509524,2.717,3.23614
1.73877,-0.0501647,2.675,3.19084
1.74746,-0.0501647,2.675,3.19558
1.72856,-0.0493771,2.633,3.15009
1.71072,-0.048627,2.593,3.10686
1.71914,-0.048627,2.593,3.1115
1.70224,-0.0479144,2.555,3.07049
1.69781,-0.047558,2.536,3.05223
1.70604,-0.047558,2.536,3.05682
1.68926,-0.0468642,2.499,3.01675
1.68515,-0.0465266,2.481,2.99954
-1.97922,-0.0442453,2.853,3.47259
-1.95339,-0.0438731,2.829,3.43815
-1.94421,-0.0438731,2.829,3.43294
-1.90356,-0.0431597,2.783,3.37202
-1.86457,-0.0424773,2.739,3.31369
-1.85568,-0.0424773,2.739,3.3087
-1.83196,-0.0421361,2.717,3.27718
-1.80905,-0.0418105,2.696,3.24697
-1.8003,-0.0418105,2.696,3.2421
-1.77759,-0.0414848,2.675,3.21204
-1.75502,-0.0411591,2.654,3.18206
-1.74641,-0.0411591,2.654,3.17732
-1.7378,-0.0411591,2.654,3.17259
-1.72918,-0.0411591,2.654,3.16788
-1.72057,-0.0411591,2.654,3.16319
-1.71195,-0.0411591,2.654,3.15851
-1.70334,-0.0411591,2.654,3.15385
-1.69472,-0.0411591,2.654,3.14921
-1.68611,-0.0411591,2.654,3.14458
-1.6775,-0.0411591,2.654,3.13997
-1.68209,-0.0414848,2.675,3.16018
-1.68654,-0.0418105,2.696,3.18034
-1.67779,-0.0418105,2.696,3.17571
-1.68204,-0.0421361,2.717,3.1958
-1.67322,-0.0421361,2.717,3.19117
-1.67788,-0.0424773,2.739,3.21235
-1.66899,-0.0424773,2.739,3.20772
-1.67344,-0.0428185,2.761,3.22883
-1.67774,-0.0431597,2.783,3.24989
-1.6687,-0.0431597,2.783,3.24523
-1.65967,-0.0431597,2.783,3.2406
-1.66428,-0.0435164,2.806,3.26272
-1.66874,-0.0438731,2.829,3.28479
-1.65956,-0.0438731,2.829,3.28014
-1.65037,-0.0438731,2.829,3.2755
-1.65511,-0.0442453,2.853,3.29863
-1.64585,-0.0442453,2.853,3.294
-1.62283,-0.0438731,2.829,3.26171
-1.61365,-0.0438731,2.829,3.25715
-1.59142,-0.0435164,2.806,3.22617
-1.56934,-0.0431597,2.783,3.19528
-1.56031,-0.0431597,2.783,3.19085
-1.55128,-0.0431597,2.783,3.18644
-1.53005,-0.0428185,2.761,3.1569
-1.50897,-0.0424773,2.739,3.12745
-1.50008,-0.0424773,2.739,3.12317
-1.47921,-0.0421361,2.717,3.09385
-1.45903,-0.0418105,2.696,3.06577
-1.45028,-0.0418105,2.696,3.06161
-1.44153,-0.0418105,2.696,3.05748
-1.44394,-0.0421361,2.717,3.07714
-1.43512,-0.0421361,2.717,3.07302
-1.4263,-0.0421361,2.717,3.06891
-1.40652,-0.0418105,2.696,3.04113
-1.39777,-0.0418105,2.696,3.03709
-1.38902,-0.0418105,2.696,3.03308
-1.38027,-0.0418105,2.696,3.02908
-1.37152,-0.0418105,2.696,3.0251
-1.36277,-0.0418105,2.696,3.02114
-1.34347,-0.0414848,2.675,2.99371
-1.32431,-0.0411591,2.654,2.96635
-1.3157,-0.0411591,2.654,2.96251
-1.27704,-0.0402131,2.593,2.89069
-1.26863,-0.0402131,2.593,2.88698
-1.26021,-0.0402131,2.593,2.8833
-1.24262,-0.0399185,2.574,2.85853
-1.23427,-0.0399185,2.574,2.85491
-1.21686,-0.0396238,2.555,2.83026
-1.20857,-0.0396238,2.555,2.8267
-1.19135,-0.0393291,2.536,2.80217
-1.16586,-0.0387553,2.499,2.75785
-1.15775,-0.0387553,2.499,2.75443
-1.14136,-0.0384762,2.481,2.73122
-1.12508,-0.038197,2.463,2.70807
-1.11709,-0.038197,2.463,2.70476
-1.10099,-0.0379179,2.445,2.68172
-1.08545,-0.0376542,2.428,2.65985
-1.07757,-0.0376542,2.428,2.65664
-1.0622,-0.0373906,2.411,2.63488
-1.05437,-0.0373906,2.411,2.63173
-1.03917,-0.037127,2.394,2.61007
-1.0314,-0.037127,2.394,2.60699
-1.02363,-0.037127,2.394,2.60393
-1.00865,-0.0368633,2.377,2.58241
-1.00093,-0.0368633,2.377,2.57941
-0.993215,-0.0368633,2.377,2.57642
-0.9855,-0.0368633,2.377,2.57346
-0.984778,-0.037127,2.394,2.5889
-0.977007,-0.037127,2.394,2.58595
-0.969237,-0.037127,2.394,2.58303
-0.961466,-0.037127,2.394,2.58012
-0.953696,-0.037127,2.394,2.57724
-0.945926,-0.037127,2.394,2.57437
-0.938156,-0.037127,2.394,2.57153
-0.930385,-0.037127,2.394,2.5687
-0.922615,-0.037127,2.394,2.5659
-0.914845,-0.037127,2.394,2.56311
-0.907074,-0.037127,2.394,2.56035
-0.899304,-0.037127,2.394,2.55761
-0.891534,-0.037127,2.394,2.55489
-0.883763,-0.037127,2.394,2.55219
-0.875993,-0.037127,2.394,2.54951
-0.868223,-0.037127,2.394,2.54685
-0.854342,-0.0368633,2.377,2.52614
-0.846627,-0.0368633,2.377,2.52354
-0.838912,-0.0368633,2.377,2.52096
-0.831197,-0.0368633,2.377,2.51841
-0.823481,-0.0368633,2.377,2.51587
-0.815766,-0.0368633,2.377,2.51336
-0.808051,-0.0368633,2.377,2.51086
-0.800336,-0.0368633,2.377,2.50839
-0.792621,-0.0368633,2.377,2.50594
-0.790519,-0.037127,2.394,2.52142
-0.782749,-0.037127,2.394,2.51899
-0.774979,-0.037127,2.394,2.51659
-0.767208,-0.037127,2.394,2.5142
-0.759438,-0.037127,2.394,2.51184
-0.757005,-0.0373906,2.411,2.52733
-0.74918,-0.0373906,2.411,2.52499
-0.741354,-0.0373906,2.411,2.52268
-0.738701,-0.0376542,2.428,2.53817
-0.73082,-0.0376542,2.428,2.53588
-0.722939,-0.0376542,2.428,2.53362
-0.720065,-0.0379179,2.445,2.54911
-0.712129,-0.0379179,2.445,2.54688
-0.704194,-0.0379179,2.445,2.54467
-0.696258,-0.0379179,2.445,2.54249
-0.688322,-0.0379179,2.445,2.54032
-0.680386,-0.0379179,2.445,2.53819
-0.67245,-0.0379179,2.445,2.53607
-0.669406,-0.038197,2.463,2.55263
-0.661412,-0.038197,2.463,2.55055
-0.653418,-0.038197,2.463,2.54849
-0.645424,-0.038197,2.463,2.54645
-0.637429,-0.038197,2.463,2.54443
-0.629435,-0.038197,2.463,2.54244
-0.621441,-0.038197,2.463,2.54048
-0.613446,-0.038197,2.463,2.53853
-0.605452,-0.038197,2.463,2.53661
-0.601824,-0.0384762,2.481,2.55324
-0.593771,-0.0384762,2.481,2.55135
-0.585719,-0.0384762,2.481,2.54949
-0.577666,-0.0384762,2.481,2.54765
-0.573746,-0.0387553,2.499,2.56431
-0.565635,-0.0387553,2.499,2.56251
-0.557524,-0.0387553,2.499,2.56073
-0.549413,-0.0387553,2.499,2.55898
-0.541301,-0.0387553,2.499,2.55725
-0.53319,-0.0387553,2.499,2.55554
-0.528861,-0.0390345,2.517,2.57226
-0.520692,-0.0390345,2.517,2.57059
-0.512522,-0.0390345,2.517,2.56895
-0.50816,-0.0393291,2.536,2.58671
-0.499929,-0.0393291,2.536,2.58511
-0.491697,-0.0393291,2.536,2.58353
-0.483466,-0.0393291,2.536,2.58197
-0.475235,-0.0393291,2.536,2.58044
-0.467004,-0.0393291,2.536,2.57894
-0.458772,-0.0393291,2.536,2.57746
-0.450541,-0.0393291,2.536,2.57601
-0.44231,-0.0393291,2.536,2.57458
-0.434079,-0.0393291,2.536,2.57318
-0.425848,-0.0393291,2.536,2.57181
-0.417616,-0.0393291,2.536,2.57046
-0.409385,-0.0393291,2.536,2.56913
-0.401154,-0.0393291,2.536,2.56783
-0.392923,-0.0393291,2.536,2.56656
-0.381809,-0.0390345,2.517,2.54609
-0.37364,-0.0390345,2.517,2.54488
-0.36547,-0.0390345,2.517,2.54369
-0.357301,-0.0390345,2.517,2.54253
-0.349131,-0.0390345,2.517,2.5414
-0.340961,-0.0390345,2.517,2.54029
-0.332792,-0.0390345,2.517,2.53921
-0.322301,-0.0387553,2.499,2.52
-0.311927,-0.0384762,2.481,2.50083
-0.303874,-0.0384762,2.481,2.49984
-0.293675,-0.038197,2.463,2.48074
-0.285681,-0.038197,2.463,2.47981
-0.277686,-0.038197,2.463,2.4789
-0.269692,-0.038197,2.463,2.47802
-0.261698,-0.038197,2.463,2.47716
-0.253704,-0.038197,2.463,2.47633
-0.245709,-0.038197,2.463,2.47552
-0.237715,-0.038197,2.463,2.47474
-0.229721,-0.038197,2.463,2.47398
-0.221726,-0.038197,2.463,2.47326
-0.213732,-0.038197,2.463,2.47255
-0.205738,-0.038197,2.463,2.47187
-0.197744,-0.038197,2.463,2.47122
-0.189749,-0.038197,2.463,2.47059
-0.183083,-0.0384762,2.481,2.48804
-0.175031,-0.0384762,2.481,2.48746
-0.166978,-0.0384762,2.481,2.48691
-0.158925,-0.0384762,2.481,2.48638
-0.151967,-0.0387553,2.499,2.50392
-0.143856,-0.0387553,2.499,2.50344
-0.135745,-0.0387553,2.499,2.50298
-0.127634,-0.0387553,2.499,2.50256
-0.119523,-0.0387553,2.499,2.50216
-0.111411,-0.0387553,2.499,2.50178
-0.1033,-0.0387553,2.499,2.50143
-0.0951891,-0.0387553,2.499,2.50111
-0.087078,-0.0387553,2.499,2.50082
-0.0789668,-0.0387553,2.499,2.50055
-0.0708557,-0.0387553,2.499,2.5003
-0.0631965,-0.0390345,2.517,2.5181
-0.055027,-0.0390345,2.517,2.5179
-0.0465223,-0.0387553,2.499,2.49973
-0.0384112,-0.0387553,2.499,2.4996
-0.0303,-0.0387553,2.499,2.49948
-0.0221889,-0.0387553,2.499,2.4994
-0.0140778,-0.0387553,2.499,2.49934
-0.00596664,-0.0387553,2.499,2.49931
0.00214449,-0.0387553,2.499,2.4993
0.0102556,-0.0387553,2.499,2.49932
0.0183668,-0.0387553,2.499,2.49937
0.0262872,-0.0384762,2.481,2.48144
0.0343399,-0.0384762,2.481,2.48154
0.0423926,-0.0384762,2.481,2.48166
0.0504453,-0.0384762,2.481,2.48181
0.0580736,-0.038197,2.463,2.46398
0.0660679,-0.038197,2.463,2.46418
0.0740622,-0.038197,2.463,2.46441
0.0820565,-0.038197,2.463,2.46466
0.0900507,-0.038197,2.463,2.46494
0.098045,-0.038197,2.463,2.46525
0.106039,-0.038197,2.463,2.46558
0.114034,-0.038197,2.463,2.46593
0.122028,-0.038197,2.463,2.46632
0.130022,-0.038197,2.463,2.46673
0.138016,-0.038197,2.463,2.46716
0.147078,-0.0384762,2.481,2.48565
0.155131,-0.0384762,2.481,2.48614
0.163183,-0.0384762,2.481,2.48666
0.171236,-0.0384762,2.481,2.4872
0.179289,-0.0384762,2.481,2.48777
0.187341,-0.0384762,2.481,2.48836
0.196812,-0.0387553,2.499,2.50704
0.204923,-0.0387553,2.499,2.50769
0.213034,-0.0387553,2.499,2.50836
0.221145,-0.0387553,2.499,2.50907
0.230908,-0.0390345,2.517,2.52787
0.239077,-0.0390345,2.517,2.52863
0.247247,-0.0390345,2.517,2.52942
0.255416,-0.0390345,2.517,2.53023
0.263586,-0.0390345,2.517,2.53107
0.271755,-0.0390345,2.517,2.53193
0.282038,-0.0393291,2.536,2.55194
0.288094,-0.0390345,2.517,2.53373
0.296264,-0.0390345,2.517,2.53468
0.304434,-0.0390345,2.517,2.53564
0.312603,-0.0390345,2.517,2.53664
0.320773,-0.0390345,2.517,2.53766
0.32659,-0.0387553,2.499,2.52055
0.334701,-0.0387553,2.499,2.52161
0.342812,-0.0387553,2.499,2.5227
0.350923,-0.0387553,2.499,2.52382
0.359034,-0.0387553,2.499,2.52496
0.364501,-0.0384762,2.481,2.50793
0.369851,-0.038197,2.463,2.49091
0.377845,-0.038197,2.463,2.49211
0.385839,-0.038197,2.463,2.49333
0.393834,-0.038197,2.463,2.49458
0.398891,-0.0379179,2.445,2.47762
0.406827,-0.0379179,2.445,2.47891
0.414763,-0.0379179,2.445,2.48022
0.422699,-0.0379179,2.445,2.48156
0.430635,-0.0379179,2.445,2.48292
0.438571,-0.0379179,2.445,2.48431
0.446507,-0.0379179,2.445,2.48573
0.454442,-0.0379179,2.445,2.48716
0.462378,-0.0379179,2.445,2.48863
0.470314,-0.0379179,2.445,2.49011
0.481771,-0.038197,2.463,2.50997
0.489765,-0.038197,2.463,2.51151
0.497759,-0.038197,2.463,2.51308
0.505754,-0.038197,2.463,2.51468
0.517502,-0.0384762,2.481,2.53469
0.521742,-0.038197,2.463,2.51794
0.529737,-0.038197,2.463,2.51961
0.537731,-0.038197,2.463,2.52131
0.545725,-0.038197,2.463,2.52302
0.557766,-0.0384762,2.481,2.54322
0.565819,-0.0384762,2.481,2.54499
0.573871,-0.0384762,2.481,2.5468
0.581924,-0.0384762,2.481,2.54862
0.589977,-0.0384762,2.481,2.55047
0.59803,-0.0384762,2.481,2.55235
0.606082,-0.0384762,2.481,2.55425
0.614135,-0.0384762,2.481,2.55617
0.622188,-0.0384762,2.481,2.55812
0.63024,-0.0384762,2.481,2.56009
0.638293,-0.0384762,2.481,2.56208
0.646346,-0.0384762,2.481,2.5641
0.654399,-0.0384762,2.481,2.56614
0.662451,-0.0384762,2.481,2.56821
0.670504,-0.0384762,2.481,2.5703
0.678557,-0.0384762,2.481,2.57241
0.686609,-0.0384762,2.481,2.57454
0.694662,-0.0384762,2.481,2.5767
0.707813,-0.0387553,2.499,2.5976
0.715924,-0.0387553,2.499,2.59982
0.724035,-0.0387553,2.499,2.60206
0.732147,-0.0387553,2.499,2.60433
0.740258,-0.0387553,2.499,2.60662
0.748369,-0.0387553,2.499,2.60894
0.761929,-0.0390345,2.517,2.63009
0.770098,-0.0390345,2.517,2.63246
0.784143,-0.0393291,2.536,2.65475
0.792374,-0.0393291,2.536,2.6572
0.800605,-0.0393291,2.536,2.65966
0.808836,-0.0393291,2.536,2.66215
0.817068,-0.0393291,2.536,2.66467
0.825299,-0.0393291,2.536,2.6672
0.83353,-0.0393291,2.536,2.66976
0.841761,-0.0393291,2.536,2.67234
0.856361,-0.0396238,2.555,2.69499
0.858224,-0.0393291,2.536,2.67757
0.866455,-0.0393291,2.536,2.68022
0.874686,-0.0393291,2.536,2.68289
0.876303,-0.0390345,2.517,2.66547
0.878147,-0.0387553,2.499,2.64908
0.886258,-0.0387553,2.499,2.65178
0.887927,-0.0384762,2.481,2.63539
0.889479,-0.038197,2.463,2.61897
0.897474,-0.038197,2.463,2.6217
0.905468,-0.038197,2.463,2.62444
0.906787,-0.0379179,2.445,2.60801
0.908362,-0.0376542,2.428,2.59263
0.916243,-0.0376542,2.428,2.5954
0.917653,-0.0373906,2.411,2.58
0.918953,-0.037127,2.394,2.56458
0.926724,-0.037127,2.394,2.56738
0.927858,-0.0368633,2.377,2.55194
0.929276,-0.0366152,2.361,2.53756
0.936939,-0.0366152,2.361,2.54038
0.944602,-0.0366152,2.361,2.54321
0.952265,-0.0366152,2.361,2.54607
0.959929,-0.0366152,2.361,2.54895
0.967592,-0.0366152,2.361,2.55184
0.981864,-0.0368633,2.377,2.57207
0.996657,-0.037127,2.394,2.59344
1.00443,-0.037127,2.394,2.59644
1.0122,-0.037127,2.394,2.59945
1.03445,-0.0376542,2.428,2.63945
1.05736,-0.038197,2.463,2.68064
1.06535,-0.038197,2.463,2.6838
1.08119,-0.0384762,2.481,2.70662
1.10505,-0.0390345,2.517,2.74917
1.11322,-0.0390345,2.517,2.75247
1.13832,-0.0396238,2.555,2.79739
1.15514,-0.0399185,2.574,2.8216
1.17208,-0.0402131,2.593,2.84588
1.1805,-0.0402131,2.593,2.84936
1.19808,-0.0405233,2.613,2.87486
1.2158,-0.0408334,2.633,2.90044
1.22435,-0.0408334,2.633,2.90403
1.24273,-0.0411591,2.654,2.93083
1.26124,-0.0414848,2.675,2.95771
1.26992,-0.0414848,2.675,2.96143
1.27861,-0.0414848,2.675,2.96516
1.29739,-0.0418105,2.696,2.99222
1.31632,-0.0421361,2.717,3.01936
1.32514,-0.0421361,2.717,3.02322
1.35556,-0.0428185,2.761,3.07612
1.37539,-0.0431597,2.783,3.10462
1.38443,-0.0431597,2.783,3.10863
1.40498,-0.0435164,2.806,3.13839
1.43777,-0.0442453,2.853,3.19511
1.44703,-0.0442453,2.853,3.19929
1.46854,-0.0446175,2.877,3.23044
1.49021,-0.0449897,2.901,3.26168
1.52547,-0.0457651,2.951,3.32228
1.53505,-0.0457651,2.951,3.32669
1.55823,-0.0461683,2.977,3.36047
1.58159,-0.0465715,3.003,3.39435
1.59134,-0.0465715,3.003,3.3989
1.61548,-0.0469903,3.03,3.43408
1.6398,-0.047409,3.057,3.46936
1.64972,-0.047409,3.057,3.47406
1.6743,-0.0478277,3.084,3.5095
1.6996,-0.0482619,3.112,3.5462
1.7097,-0.0482619,3.112,3.55105
1.7198,-0.0482619,3.112,3.55592
1.7299,-0.0482619,3.112,3.56082
1.74,-0.0482619,3.112,3.56574
1.75011,-0.0482619,3.112,3.57068
1.76021,-0.0482619,3.112,3.57564
1.77031,-0.0482619,3.112,3.58062
1.78041,-0.0482619,3.112,3.58563
1.79051,-0.0482619,3.112,3.59065
1.80061,-0.0482619,3.112,3.5957
1.81071,-0.0482619,3.112,3.60077
1.80443,-0.0478277,3.084,3.57342
1.81444,-0.0478277,3.084,3.57848
1.82445,-0.0478277,3.084,3.58357
1.83446,-0.0478277,3.084,3.58867
1.82832,-0.047409,3.057,3.56234
1.83824,-0.047409,3.057,3.56744
1.83184,-0.0469903,3.03,3.54101
1.80946,-0.0461683,2.977,3.48408
1.81912,-0.0461683,2.977,3.48911
1.81281,-0.0457651,2.951,3.46364
1.80695,-0.0453774,2.926,3.43928
1.81645,-0.0453774,2.926,3.44428
1.81035,-0.0449897,2.901,3.41982
1.80471,-0.0446175,2.877,3.39648
1.81405,-0.0446175,2.877,3.40145
1.79296,-0.0438731,2.829,3.34961
1.77284,-0.0431597,2.783,3.29999
1.76779,-0.0428185,2.761,3.27872
1.77675,-0.0428185,2.761,3.28356
1.75725,-0.0421361,2.717,3.23602
1.73877,-0.0414848,2.675,3.19072
1.74746,-0.0414848,2.675,3.19546
1.72856,-0.0408334,2.633,3.14997
1.71072,-0.0402131,2.593,3.10674
1.71914,-0.0402131,2.593,3.11138
1.70224,-0.0396238,2.555,3.07037
1.69781,-0.0393291,2.536,3.05211
1.70604,-0.0393291,2.536,3.0567
1.68926,-0.0387553,2.499,3.01664
1.68515,-0.0384762,2.481,2.99943
-1.96257,-0.0346934,2.829,3.44327
-1.93751,-0.0344114,2.806,3.4101
-1.9284,-0.0344114,2.806,3.40493
-1.90356,-0.0341293,2.783,3.37191
-1.86457,-0.0335897,2.739,3.31359
-1.85568,-0.0335897,2.739,3.3086
-1.8178,-0.0330624,2.696,3.25175
-1.79496,-0.0328049,2.675,3.22158
-1.78628,-0.0328049,2.675,3.21675
-1.76364,-0.0325473,2.654,3.18672
-1.75502,-0.0325473,2.654,3.18196
-1.74641,-0.0325473,2.654,3.17722
-1.7378,-0.0325473,2.654,3.17249
-1.7155,-0.0322898,2.633,3.14272
-1.70695,-0.0322898,2.633,3.13806
-1.69841,-0.0322898,2.633,3.13342
-1.68986,-0.0322898,2.633,3.1288
-1.69472,-0.0325473,2.654,3.14911
-1.68611,-0.0325473,2.654,3.14448
-1.6775,-0.0325473,2.654,3.13987
-1.68209,-0.0328049,2.675,3.16008
-1.6734,-0.0328049,2.675,3.15547
-1.67779,-0.0330624,2.696,3.17561
-1.66904,-0.0330624,2.696,3.17099
-1.67322,-0.0333199,2.717,3.19106
-1.67788,-0.0335897,2.739,3.21225
-1.66899,-0.0335897,2.739,3.20761
-1.67344,-0.0338595,2.761,3.22872
-1.67774,-0.0341293,2.783,3.24978
-1.6687,-0.0341293,2.783,3.24512
-1.67339,-0.0344114,2.806,3.26727
-1.67792,-0.0346934,2.829,3.28936
-1.66874,-0.0346934,2.829,3.28468
-1.65956,-0.0346934,2.829,3.28003
-1.65037,-0.0346934,2.829,3.27539
-1.64119,-0.0346934,2.829,3.27077
-1.61874,-0.0344114,2.806,3.23962
-1.59644,-0.0341293,2.783,3.20856
-1.58741,-0.0341293,2.783,3.20408
-1.57837,-0.0341293,2.783,3.19961
-1.56934,-0.0341293,2.783,3.19517
-1.56031,-0.0341293,2.783,3.19074
-1.55128,-0.0341293,2.783,3.18633
-1.53005,-0.0338595,2.761,3.15679
-1.47371,-0.0328049,2.675,3.05426
-1.46503,-0.0328049,2.675,3.05008
-1.45635,-0.0328049,2.675,3.04592
-1.44766,-0.0328049,2.675,3.04178
-1.43898,-0.0328049,2.675,3.03766
-1.4303,-0.0328049,2.675,3.03355
-1.43278,-0.0330624,2.696,3.05325
-1.43512,-0.0333199,2.717,3.07291
-1.41528,-0.0330624,2.696,3.04508
-1.40652,-0.0330624,2.696,3.04102
-1.39777,-0.0330624,2.696,3.03699
-1.38902,-0.0330624,2.696,3.03297
-1.38027,-0.0330624,2.696,3.02897
-1.37152,-0.0330624,2.696,3.02499
-1.36277,-0.0330624,2.696,3.02104
-1.34347,-0.0328049,2.675,2.9936
-1.32431,-0.0325473,2.654,2.96624
-1.3157,-0.0325473,2.654,2.9624
-1.28689,-0.0320445,2.613,2.91288
-1.26863,-0.0317992,2.593,2.88688
-1.26021,-0.0317992,2.593,2.88319
-1.24262,-0.0315662,2.574,2.85842
-1.23427,-0.0315662,2.574,2.8548
-1.21686,-0.0313332,2.555,2.83015
-1.20857,-0.0313332,2.555,2.8266
-1.19135,-0.0311002,2.536,2.80207
-1.16586,-0.0306465,2.499,2.75775
-1.15775,-0.0306465,2.499,2.75433
-1.14136,-0.0304257,2.481,2.73111
-1.12508,-0.030205,2.463,2.70797
-1.11709,-0.030205,2.463,2.70466
-1.10099,-0.0299843,2.445,2.68162
-1.08545,-0.0297758,2.428,2.65975
-1.07757,-0.0297758,2.428,2.65654
-1.0622,-0.0295673,2.411,2.63478
-1.05437,-0.0295673,2.411,2.63163
-1.03917,-0.0293588,2.394,2.60998
-1.0314,-0.0293588,2.394,2.60689
-1.02363,-0.0293588,2.394,2.60383
-1.00865,-0.0291503,2.377,2.58231
-1.00093,-0.0291503,2.377,2.57931
-0.993215,-0.0291503,2.377,2.57633
-0.9855,-0.0291503,2.377,2.57336
-0.984778,-0.0293588,2.394,2.5888
-0.977007,-0.0293588,2.394,2.58585
-0.969237,-0.0293588,2.394,2.58293
-0.961466,-0.0293588,2.394,2.58002
-0.953696,-0.0293588,2.394,2.57714
-0.945926,-0.0293588,2.394,2.57427
-0.938156,-0.0293588,2.394,2.57143
-0.930385,-0.0293588,2.394,2.5686
-0.922615,-0.0293588,2.394,2.5658
-0.914845,-0.0293588,2.394,2.56301
-0.907074,-0.0293588,2.394,2.56025
-0.899304,-0.0293588,2.394,2.55751
-0.891534,-0.0293588,2.394,2.55479
-0.883763,-0.0293588,2.394,2.55208
-0.875993,-0.0293588,2.394,2.5494
-0.868223,-0.0293588,2.394,2.54674
-0.860452,-0.0293588,2.394,2.54411
-0.852682,-0.0293588,2.394,2.54149
-0.844912,-0.0293588,2.394,2.53889
-0.837141,-0.0293588,2.394,2.53632
-0.829371,-0.0293588,2.394,2.53376
-0.821601,-0.0293588,2.394,2.53123
-0.81383,-0.0293588,2.394,2.52872
-0.80606,-0.0293588,2.394,2.52623
-0.79829,-0.0293588,2.394,2.52376
-0.790519,-0.0293588,2.394,2.52131
-0.782749,-0.0293588,2.394,2.51889
-0.774979,-0.0293588,2.394,2.51648
-0.767208,-0.0293588,2.394,2.5141
-0.764831,-0.0295673,2.411,2.52958
-0.757005,-0.0295673,2.411,2.52722
-0.74918,-0.0295673,2.411,2.52489
-0.741354,-0.0295673,2.411,2.52258
-0.738701,-0.0297758,2.428,2.53806
-0.73082,-0.0297758,2.428,2.53578
-0.722939,-0.0297758,2.428,2.53352
-0.720065,-0.0299843,2.445,2.549
-0.712129,-0.0299843,2.445,2.54677
-0.704194,-0.0299843,2.445,2.54457
-0.696258,-0.0299843,2.445,2.54238
-0.688322,-0.0299843,2.445,2.54022
-0.680386,-0.0299843,2.445,2.53808
-0.67245,-0.0299843,2.445,2.53596
-0.669406,-0.030205,2.463,2.55253
-0.661412,-0.030205,2.463,2.55044
-0.653418,-0.030205,2.463,2.54838
-0.645424,-0.030205,2.463,2.54634
-0.637429,-0.030205,2.463,2.54433
-0.629435,-0.030205,2.463,2.54234
-0.621441,-0.030205,2.463,2.54037
-0.613446,-0.030205,2.463,2.53842
-0.605452,-0.030205,2.463,2.5365
-0.601824,-0.0304257,2.481,2.55313
-0.593771,-0.0304257,2.481,2.55125
-0.585719,-0.0304257,2.481,2.54938
-0.577666,-0.0304257,2.481,2.54755
-0.573746,-0.0306465,2.499,2.5642
-0.565635,-0.0306465,2.499,2.5624
-0.557524,-0.0306465,2.499,2.56062
-0.549413,-0.0306465,2.499,2.55887
-0.541301,-0.0306465,2.499,2.55714
-0.53319,-0.0306465,2.499,2.55543
-0.528861,-0.0308672,2.517,2.57215
-0.520692,-0.0308672,2.517,2.57048
-0.512522,-0.0308672,2.517,2.56884
-0.50816,-0.0311002,2.536,2.5866
-0.499929,-0.0311002,2.536,2.58499
-0.491697,-0.0311002,2.536,2.58341
-0.483466,-0.0311002,2.536,2.58186
-0.475235,-0.0311002,2.536,2.58033
-0.467004,-0.0311002,2.536,2.57883
-0.458772,-0.0311002,2.536,2.57735
-0.450541,-0.0311002,2.536,2.5759
-0.44231,-0.0311002,2.536,2.57447
-0.434079,-0.0311002,2.536,2.57307
-0.425848,-0.0311002,2.536,2.57169
-0.417616,-0.0311002,2.536,2.57034
-0.409385,-0.0311002,2.536,2.56902
-0.401154,-0.0311002,2.536,2.56772
-0.392923,-0.0311002,2.536,2.56645
-0.381809,-0.0308672,2.517,2.54598
-0.37364,-0.0308672,2.517,2.54477
-0.36547,-0.0308672,2.517,2.54358
-0.357301,-0.0308672,2.517,2.54242
-0.349131,-0.0308672,2.517,2.54129
-0.340961,-0.0308672,2.517,2.54018
-0.332792,-0.0308672,2.517,2.53909
-0.322301,-0.0306465,2.499,2.51988
-0.311927,-0.0304257,2.481,2.50072
-0.303874,-0.0304257,2.481,2.49973
-0.295821,-0.0304257,2.481,2.49876
-0.287769,-0.0304257,2.481,2.49782
-0.279716,-0.0304257,2.481,2.4969
-0.269692,-0.030205,2.463,2.47791
-0.261698,-0.030205,2.463,2.47705
-0.253704,-0.030205,2.463,2.47622
-0.245709,-0.030205,2.463,2.47541
-0.237715,-0.030205,2.463,2.47463
-0.229721,-0.030205,2.463,2.47387
-0.221726,-0.030205,2.463,2.47314
-0.213732,-0.030205,2.463,2.47244
-0.207241,-0.0304257,2.481,2.48983
-0.199189,-0.0304257,2.481,2.48917
-0.191136,-0.0304257,2.481,2.48854
-0.183083,-0.0304257,2.481,2.48793
-0.1763,-0.0306465,2.499,2.5054
-0.168189,-0.0306465,2.499,2.50484
-0.160078,-0.0306465,2.499,2.50431
-0.151967,-0.0306465,2.499,2.5038
-0.144892,-0.0308672,2.517,2.52136
-0.136723,-0.0308672,2.517,2.5209
-0.128553,-0.0308672,2.517,2.52047
-0.120383,-0.0308672,2.517,2.52007
-0.112214,-0.0308672,2.517,2.51969
-0.104044,-0.0308672,2.517,2.51934
-0.0958747,-0.0308672,2.517,2.51901
-0.0877052,-0.0308672,2.517,2.51872
-0.0795356,-0.0308672,2.517,2.51845
-0.0713661,-0.0308672,2.517,2.5182
-0.0631965,-0.0308672,2.517,2.51798
-0.055027,-0.0308672,2.517,2.51779
-0.0468574,-0.0308672,2.517,2.51763
-0.0386878,-0.0308672,2.517,2.51749
-0.0303,-0.0306465,2.499,2.49937
-0.0221889,-0.0306465,2.499,2.49929
-0.0140778,-0.0306465,2.499,2.49923
-0.00596664,-0.0306465,2.499,2.4992
0.00214449,-0.0306465,2.499,2.49919
0.0102556,-0.0306465,2.499,2.49921
0.0183668,-0.0306465,2.499,2.49926
0.0262872,-0.0304257,2.481,2.48133
0.0343399,-0.0304257,2.481,2.48142
0.0423926,-0.0304257,2.481,2.48155
0.0504453,-0.0304257,2.481,2.4817
0.058498,-0.0304257,2.481,2.48188
0.0665507,-0.0304257,2.481,2.48208
0.0746034,-0.0304257,2.481,2.48231
0.0826561,-0.0304257,2.481,2.48256
0.0907089,-0.0304257,2.481,2.48284
0.0987616,-0.0304257,2.481,2.48315
0.106814,-0.0304257,2.481,2.48348
0.114867,-0.0304257,2.481,2.48384
0.12292,-0.0304257,2.481,2.48423
0.130972,-0.0304257,2.481,2.48464
0.139025,-0.0304257,2.481,2.48508
0.147078,-0.0304257,2.481,2.48554
0.155131,-0.0304257,2.481,2.48603
0.164367,-0.0306465,2.499,2.50459
0.172478,-0.0306465,2.499,2.50513
0.180589,-0.0306465,2.499,2.5057
0.188701,-0.0306465,2.499,2.5063
0.196812,-0.0306465,2.499,2.50693
0.204923,-0.0306465,2.499,2.50758
0.214568,-0.0308672,2.517,2.52632
0.222738,-0.0308672,2.517,2.52702
0.230908,-0.0308672,2.517,2.52776
0.239077,-0.0308672,2.517,2.52852
0.247247,-0.0308672,2.517,2.5293
0.257344,-0.0311002,2.536,2.54921
0.263586,-0.0308672,2.517,2.53095
0.271755,-0.0308672,2.517,2.53182
0.282038,-0.0311002,2.536,2.55182
0.290269,-0.0311002,2.536,2.55275
0.2985,-0.0311002,2.536,2.5537
0.306732,-0.0311002,2.536,2.55467
0.314963,-0.0311002,2.536,2.55567
0.320773,-0.0308672,2.517,2.53755
0.328942,-0.0308672,2.517,2.53859
0.337112,-0.0308672,2.517,2.53966
0.342812,-0.0306465,2.499,2.52259
0.350923,-0.0306465,2.499,2.52371
0.359034,-0.0306465,2.499,2.52485
0.367146,-0.0306465,2.499,2.52601
0.372554,-0.0304257,2.481,2.509
0.380606,-0.0304257,2.481,2.51021
0.388659,-0.0304257,2.481,2.51144
0.393834,-0.030205,2.463,2.49447
0.401828,-0.030205,2.463,2.49575
0.409822,-0.030205,2.463,2.49705
0.414763,-0.0299843,2.445,2.48011
0.422699,-0.0299843,2.445,2.48145
0.430635,-0.0299843,2.445,2.48282
0.438571,-0.0299843,2.445,2.4842
0.446507,-0.0299843,2.445,2.48562
0.454442,-0.0299843,2.445,2.48706
0.462378,-0.0299843,2.445,2.48852
0.470314,-0.0299843,2.445,2.49
0.481771,-0.030205,2.463,2.50986
0.489765,-0.030205,2.463,2.5114
0.497759,-0.030205,2.463,2.51298
0.50945,-0.0304257,2.481,2.53295
0.517502,-0.0304257,2.481,2.53458
0.525555,-0.0304257,2.481,2.53624
0.533608,-0.0304257,2.481,2.53792
0.541661,-0.0304257,2.481,2.53962
0.549713,-0.0304257,2.481,2.54135
0.557766,-0.0304257,2.481,2.54311
0.565819,-0.0304257,2.481,2.54488
0.573871,-0.0304257,2.481,2.54669
0.586146,-0.0306465,2.499,2.567
0.594257,-0.0306465,2.499,2.56887
0.602368,-0.0306465,2.499,2.57076
0.606082,-0.0304257,2.481,2.55414
0.614135,-0.0304257,2.481,2.55606
0.622188,-0.0304257,2.481,2.55801
0.63024,-0.0304257,2.481,2.55998
0.638293,-0.0304257,2.481,2.56197
0.646346,-0.0304257,2.481,2.56399
0.654399,-0.0304257,2.481,2.56603
0.662451,-0.0304257,2.481,2.5681
0.670504,-0.0304257,2.481,2.57019
0.678557,-0.0304257,2.481,2.5723
0.691591,-0.0306465,2.499,2.59311
0.699702,-0.0306465,2.499,2.59529
0.707813,-0.0306465,2.499,2.59749
0.715924,-0.0306465,2.499,2.59971
0.724035,-0.0306465,2.499,2.60195
0.73742,-0.0308672,2.517,2.62298
0.74559,-0.0308672,2.517,2.62529
0.753759,-0.0308672,2.517,2.62762
0.761929,-0.0308672,2.517,2.62998
0.770098,-0.0308672,2.517,2.63236
0.784143,-0.0311002,2.536,2.65465
0.792374,-0.0311002,2.536,2.65709
0.800605,-0.0311002,2.536,2.65955
0.808836,-0.0311002,2.536,2.66204
0.817068,-0.0311002,2.536,2.66456
0.825299,-0.0311002,2.536,2.66709
0.83353,-0.0311002,2.536,2.66965
0.841761,-0.0311002,2.536,2.67223
0.856361,-0.0313332,2.555,2.69488
0.858224,-0.0311002,2.536,2.67746
0.859963,-0.0308672,2.517,2.66003
0.868133,-0.0308672,2.517,2.66269
0.876303,-0.0308672,2.517,2.66536
0.878147,-0.0306465,2.499,2.64898
0.886258,-0.0306465,2.499,2.65168
0.887927,-0.0304257,2.481,2.63528
0.889479,-0.030205,2.463,2.61887
0.897474,-0.030205,2.463,2.62159
0.905468,-0.030205,2.463,2.62434
0.906787,-0.0299843,2.445,2.60791
0.908362,-0.0297758,2.428,2.59253
0.916243,-0.0297758,2.428,2.5953
0.917653,-0.0295673,2.411,2.5799
0.918953,-0.0293588,2.394,2.56448
0.926724,-0.0293588,2.394,2.56728
0.927858,-0.0291503,2.377,2.55184
0.929276,-0.0289541,2.361,2.53746
0.936939,-0.0289541,2.361,2.54028
0.944602,-0.0289541,2.361,2.54311
0.952265,-0.0289541,2.361,2.54597
0.959929,-0.0289541,2.361,2.54885
0.967592,-0.0289541,2.361,2.55174
0.981864,-0.0291503,2.377,2.57197
0.996657,-0.0293588,2.394,2.59334
1.00443,-0.0293588,2.394,2.59634
1.0122,-0.0293588,2.394,2.59935
1.03445,-0.0297758,2.428,2.63935
1.05736,-0.030205,2.463,2.68054
1.06535,-0.030205,2.463,2.6837
1.08119,-0.0304257,2.481,2.70652
1.10505,-0.0308672,2.517,2.74907
1.11322,-0.0308672,2.517,2.75236
1.13832,-0.0313332,2.555,2.79728
1.15514,-0.0315662,2.574,2.82149
1.17208,-0.0317992,2.593,2.84578
1.1805,-0.0317992,2.593,2.84925
1.19808,-0.0320445,2.613,2.87475
1.2158,-0.0322898,2.633,2.90033
1.22435,-0.0322898,2.633,2.90392
1.24273,-0.0325473,2.654,2.93072
1.26124,-0.0328049,2.675,2.95761
1.26992,-0.0328049,2.675,2.96132
1.27861,-0.0328049,2.675,2.96505
1.29739,-0.0330624,2.696,2.99211
1.31632,-0.0333199,2.717,3.01925
1.32514,-0.0333199,2.717,3.02311
1.35556,-0.0338595,2.761,3.07601
1.37539,-0.0341293,2.783,3.10451
1.38443,-0.0341293,2.783,3.10852
1.40498,-0.0344114,2.806,3.13828
1.42567,-0.0346934,2.829,3.16812
1.43486,-0.0346934,2.829,3.17226
1.45629,-0.0349878,2.853,3.20337
1.49021,-0.0355764,2.901,3.26156
1.51254,-0.035883,2.926,3.29402
1.52204,-0.035883,2.926,3.29839
1.55823,-0.0365084,2.977,3.36035
1.5679,-0.0365084,2.977,3.36484
1.57756,-0.0365084,2.977,3.36936
1.60108,-0.0368273,3.003,3.40336
1.62531,-0.0371584,3.03,3.43859
1.63515,-0.0371584,3.03,3.44325
1.65964,-0.0374895,3.057,3.47866
1.68431,-0.0378206,3.084,3.51417
1.69432,-0.0378206,3.084,3.51898
1.70433,-0.0378206,3.084,3.52381
1.71434,-0.0378206,3.084,3.52866
1.72435,-0.0378206,3.084,3.53353
1.73436,-0.0378206,3.084,3.53843
1.74437,-0.0378206,3.084,3.54335
1.75438,-0.0378206,3.084,3.54829
1.76439,-0.0378206,3.084,3.55325
1.7744,-0.0378206,3.084,3.55823
1.78441,-0.0378206,3.084,3.56323
1.79442,-0.0378206,3.084,3.56825
1.80443,-0.0378206,3.084,3.5733
1.81444,-0.0378206,3.084,3.57836
1.82445,-0.0378206,3.084,3.58345
1.8184,-0.0374895,3.057,3.55714
1.81217,-0.0371584,3.03,3.53076
1.82201,-0.0371584,3.03,3.53582
1.83184,-0.0371584,3.03,3.54089
1.80946,-0.0365084,2.977,3.48397
1.81912,-0.0365084,2.977,3.48899
1.81281,-0.0361896,2.951,3.46353
1.80695,-0.035883,2.926,3.43916
1.81645,-0.035883,2.926,3.44416
1.81035,-0.0355764,2.901,3.41971
1.80471,-0.0352821,2.877,3.39637
1.81405,-0.0352821,2.877,3.40134
1.79296,-0.0346934,2.829,3.3495
1.78749,-0.0344114,2.806,3.32715
1.76779,-0.0338595,2.761,3.27862
1.77675,-0.0338595,2.761,3.28346
1.75725,-0.0333199,2.717,3.23591
1.73877,-0.0328049,2.675,3.19062
1.74746,-0.0328049,2.675,3.19536
1.72856,-0.0322898,2.633,3.14987
1.71072,-0.0317992,2.593,3.10664
1.71914,-0.0317992,2.593,3.11128
1.71489,-0.0315662,2.574,3.09311
1.69781,-0.0311002,2.536,3.05202
1.70604,-0.0311002,2.536,3.05661
1.70143,-0.0308672,2.517,3.03827
1.68515,-0.0304257,2.481,2.99933
-1.96257,-0.0255138,2.829,3.44319
-1.93751,-0.0253064,2.806,3.41002
-1.9284,-0.0253064,2.806,3.40485
-1.90356,-0.0250989,2.783,3.37183
-1.86457,-0.0247021,2.739,3.31351
-1.85568,-0.0247021,2.739,3.30852
-1.8178,-0.0243143,2.696,3.25168
-1.79496,-0.0241249,2.675,3.2215
-1.78628,-0.0241249,2.675,3.21667
-1.76364,-0.0239355,2.654,3.18665
-1.75502,-0.0239355,2.654,3.18189
-1.74641,-0.0239355,2.654,3.17714
-1.7378,-0.0239355,2.654,3.17242
-1.7155,-0.0237461,2.633,3.14264
-1.70695,-0.0237461,2.633,3.13798
-1.69841,-0.0237461,2.633,3.13334
-1.68986,-0.0237461,2.633,3.12872
-1.69472,-0.0239355,2.654,3.14903
-1.68611,-0.0239355,2.654,3.1444
-1.6775,-0.0239355,2.654,3.13979
-1.68209,-0.0241249,2.675,3.16
-1.6734,-0.0241249,2.675,3.15539
-1.67779,-0.0243143,2.696,3.17553
-1.66904,-0.0243143,2.696,3.17092
-1.67322,-0.0245037,2.717,3.19098
-1.67788,-0.0247021,2.739,3.21217
-1.66899,-0.0247021,2.739,3.20753
-1.67344,-0.0249005,2.761,3.22864
-1.67774,-0.0250989,2.783,3.2497
-1.6687,-0.0250989,2.783,3.24504
-1.67339,-0.0253064,2.806,3.26719
-1.67792,-0.0255138,2.829,3.28927
-1.66874,-0.0255138,2.829,3.2846
-1.65956,-0.0255138,2.829,3.27994
-1.65037,-0.0255138,2.829,3.27531
-1.64119,-0.0255138,2.829,3.27069
-1.61874,-0.0253064,2.806,3.23954
-1.59644,-0.0250989,2.783,3.20848
-1.58741,-0.0250989,2.783,3.20399
-1.57837,-0.0250989,2.783,3.19953
nan,nan,nan,NaN
nan,nan,nan,NaN
nan,nan,nan,NaN
nan,nan,nan,NaN
-1.47371,-0.0241249,2.675,3.05418
-1.46503,-0.0241249,2.675,3.05
-1.45635,-0.0241249,2.675,3.04584
-1.44766,-0.0241249,2.675,3.0417
-1.43898,-0.0241249,2.675,3.03758
-1.4303,-0.0241249,2.675,3.03347
-1.43278,-0.0243143,2.696,3.05317
-1.43512,-0.0245037,2.717,3.07283
-1.41528,-0.0243143,2.696,3.045
-1.40652,-0.0243143,2.696,3.04094
-1.39777,-0.0243143,2.696,3.0369
-1.39984,-0.0245037,2.717,3.05651
-1.39102,-0.0245037,2.717,3.05248
-1.37152,-0.0243143,2.696,3.02491
-1.36277,-0.0243143,2.696,3.02095
-1.34347,-0.0241249,2.675,2.99351
-1.32431,-0.0239355,2.654,2.96616
-1.3157,-0.0239355,2.654,2.96232
-1.28689,-0.0235658,2.613,2.9128
-1.26863,-0.0233854,2.593,2.8868
-1.26021,-0.0233854,2.593,2.88311
-1.24262,-0.023214,2.574,2.85834
-1.22516,-0.0230427,2.555,2.83365
-1.21686,-0.0230427,2.555,2.83007
-1.20857,-0.0230427,2.555,2.82652
-1.19135,-0.0228713,2.536,2.80199
-1.16586,-0.0225376,2.499,2.75767
-1.15775,-0.0225376,2.499,2.75425
-1.14136,-0.0223753,2.481,2.73104
-1.12508,-0.022213,2.463,2.70789
-1.11709,-0.022213,2.463,2.70458
-1.10099,-0.0220506,2.445,2.68155
-1.07785,-0.021744,2.411,2.64105
-1.07003,-0.021744,2.411,2.63787
-1.0622,-0.021744,2.411,2.6347
-1.04694,-0.0215907,2.394,2.613
-1.03917,-0.0215907,2.394,2.6099
-1.0314,-0.0215907,2.394,2.60682
-1.01636,-0.0214374,2.377,2.58526
-1.00865,-0.0214374,2.377,2.58224
-1.00093,-0.0214374,2.377,2.57923
-0.993215,-0.0214374,2.377,2.57625
-0.9855,-0.0214374,2.377,2.57329
-0.977785,-0.0214374,2.377,2.57034
-0.970069,-0.0214374,2.377,2.56742
-0.962354,-0.0214374,2.377,2.56451
-0.954639,-0.0214374,2.377,2.56163
-0.946924,-0.0214374,2.377,2.55876
-0.939209,-0.0214374,2.377,2.55592
-0.938156,-0.0215907,2.394,2.57135
-0.930385,-0.0215907,2.394,2.56852
-0.922615,-0.0215907,2.394,2.56572
-0.908348,-0.0214374,2.377,2.54474
-0.900633,-0.0214374,2.377,2.54199
-0.892918,-0.0214374,2.377,2.53927
-0.891534,-0.0215907,2.394,2.55471
-0.883763,-0.0215907,2.394,2.55201
-0.875993,-0.0215907,2.394,2.54933
-0.868223,-0.0215907,2.394,2.54667
-0.860452,-0.0215907,2.394,2.54403
-0.852682,-0.0215907,2.394,2.54141
-0.844912,-0.0215907,2.394,2.53881
-0.837141,-0.0215907,2.394,2.53624
-0.829371,-0.0215907,2.394,2.53368
-0.821601,-0.0215907,2.394,2.53115
-0.81383,-0.0215907,2.394,2.52864
-0.80606,-0.0215907,2.394,2.52615
-0.79829,-0.0215907,2.394,2.52368
-0.790519,-0.0215907,2.394,2.52123
-0.782749,-0.0215907,2.394,2.51881
-0.774979,-0.0215907,2.394,2.51641
-0.767208,-0.0215907,2.394,2.51402
-0.764831,-0.021744,2.411,2.5295
-0.757005,-0.021744,2.411,2.52714
-0.74918,-0.021744,2.411,2.52481
-0.741354,-0.021744,2.411,2.5225
-0.738701,-0.0218973,2.428,2.53798
-0.73082,-0.0218973,2.428,2.5357
-0.728001,-0.0220506,2.445,2.55118
-0.720065,-0.0220506,2.445,2.54892
-0.712129,-0.0220506,2.445,2.54669
-0.704194,-0.0220506,2.445,2.54448
-0.696258,-0.0220506,2.445,2.5423
-0.693389,-0.022213,2.463,2.55884
-0.685395,-0.022213,2.463,2.55668
-0.677401,-0.022213,2.463,2.55455
-0.669406,-0.022213,2.463,2.55244
-0.661412,-0.022213,2.463,2.55036
-0.653418,-0.022213,2.463,2.5483
-0.645424,-0.022213,2.463,2.54626
-0.637429,-0.022213,2.463,2.54424
-0.629435,-0.022213,2.463,2.54225
-0.621441,-0.022213,2.463,2.54029
-0.61793,-0.0223753,2.481,2.55689
-0.609877,-0.0223753,2.481,2.55496
-0.601824,-0.0223753,2.481,2.55305
-0.598079,-0.0225376,2.499,2.56967
-0.589968,-0.0225376,2.499,2.5678
-0.581857,-0.0225376,2.499,2.56594
-0.573746,-0.0225376,2.499,2.56412
-0.565635,-0.0225376,2.499,2.56231
-0.561539,-0.0227,2.517,2.57898
-0.55337,-0.0227,2.517,2.57721
-0.5452,-0.0227,2.517,2.57547
-0.537031,-0.0227,2.517,2.57375
-0.528861,-0.0227,2.517,2.57206
-0.524622,-0.0228713,2.536,2.5898
-0.516391,-0.0228713,2.536,2.58814
-0.50816,-0.0228713,2.536,2.58651
-0.499929,-0.0228713,2.536,2.58491
-0.491697,-0.0228713,2.536,2.58333
-0.483466,-0.0228713,2.536,2.58177
-0.475235,-0.0228713,2.536,2.58025
-0.467004,-0.0228713,2.536,2.57874
-0.458772,-0.0228713,2.536,2.57726
-0.450541,-0.0228713,2.536,2.57581
-0.445624,-0.0230427,2.555,2.59367
-0.437331,-0.0230427,2.555,2.59226
-0.429038,-0.0230427,2.555,2.59087
-0.420745,-0.0230427,2.555,2.58951
-0.409385,-0.0228713,2.536,2.56893
-0.401154,-0.0228713,2.536,2.56763
-0.392923,-0.0228713,2.536,2.56636
-0.384691,-0.0228713,2.536,2.56511
-0.37364,-0.0227,2.517,2.54468
-0.36547,-0.0227,2.517,2.5435
-0.357301,-0.0227,2.517,2.54234
-0.349131,-0.0227,2.517,2.5412
-0.340961,-0.0227,2.517,2.54009
-0.332792,-0.0227,2.517,2.53901
-0.322301,-0.0225376,2.499,2.5198
-0.31419,-0.0225376,2.499,2.51877
-0.306079,-0.0225376,2.499,2.51778
-0.295821,-0.0223753,2.481,2.49867
-0.287769,-0.0223753,2.481,2.49773
-0.279716,-0.0223753,2.481,2.49682
-0.271663,-0.0223753,2.481,2.49593
-0.26361,-0.0223753,2.481,2.49507
-0.255558,-0.0223753,2.481,2.49423
-0.247505,-0.0223753,2.481,2.49342
-0.239452,-0.0223753,2.481,2.49263
-0.2314,-0.0223753,2.481,2.49187
-0.223347,-0.0223753,2.481,2.49113
-0.215294,-0.0223753,2.481,2.49042
-0.207241,-0.0223753,2.481,2.48974
-0.200634,-0.0225376,2.499,2.50714
-0.192523,-0.0225376,2.499,2.50651
-0.184412,-0.0225376,2.499,2.5059
-0.1763,-0.0225376,2.499,2.50531
-0.169401,-0.0227,2.517,2.5228
-0.161231,-0.0227,2.517,2.52226
-0.153062,-0.0227,2.517,2.52175
-0.144892,-0.0227,2.517,2.52127
-0.136723,-0.0227,2.517,2.52081
-0.128553,-0.0227,2.517,2.52038
-0.120383,-0.0227,2.517,2.51998
-0.112214,-0.0227,2.517,2.5196
-0.104044,-0.0227,2.517,2.51925
-0.0958747,-0.0227,2.517,2.51893
-0.0877052,-0.0227,2.517,2.51863
-0.0795356,-0.0227,2.517,2.51836
-0.0713661,-0.0227,2.517,2.51811
-0.0631965,-0.0227,2.517,2.5179
-0.055027,-0.0227,2.517,2.5177
-0.0468574,-0.0227,2.517,2.51754
-0.0386878,-0.0227,2.517,2.5174
-0.0305183,-0.0227,2.517,2.51729
-0.0223487,-0.0227,2.517,2.5172
-0.0141792,-0.0227,2.517,2.51714
-0.00600962,-0.0227,2.517,2.51711
0.00215994,-0.0227,2.517,2.5171
0.0102556,-0.0225376,2.499,2.49912
0.0183668,-0.0225376,2.499,2.49917
0.0264779,-0.0225376,2.499,2.49924
0.034589,-0.0225376,2.499,2.49934
0.0427002,-0.0225376,2.499,2.49947
0.0508113,-0.0225376,2.499,2.49962
0.0589224,-0.0225376,2.499,2.4998
0.0670336,-0.0225376,2.499,2.5
0.0746034,-0.0223753,2.481,2.48222
0.0826561,-0.0223753,2.481,2.48248
0.0907089,-0.0223753,2.481,2.48276
0.0987616,-0.0223753,2.481,2.48307
0.106814,-0.0223753,2.481,2.4834
0.1157,-0.0225376,2.499,2.50178
0.123811,-0.0225376,2.499,2.50217
0.130972,-0.0223753,2.481,2.48456
0.139025,-0.0223753,2.481,2.48499
0.148145,-0.0225376,2.499,2.50349
0.156256,-0.0225376,2.499,2.50398
0.164367,-0.0225376,2.499,2.5045
0.172478,-0.0225376,2.499,2.50505
0.180589,-0.0225376,2.499,2.50562
0.19006,-0.0227,2.517,2.52427
0.198229,-0.0227,2.517,2.5249
0.206399,-0.0227,2.517,2.52555
0.214568,-0.0227,2.517,2.52623
0.222738,-0.0227,2.517,2.52694
0.232651,-0.0228713,2.536,2.54675
0.240882,-0.0228713,2.536,2.54752
0.249113,-0.0228713,2.536,2.54831
0.257344,-0.0228713,2.536,2.54913
0.265575,-0.0228713,2.536,2.54997
0.273807,-0.0228713,2.536,2.55084
0.282038,-0.0228713,2.536,2.55174
0.290269,-0.0228713,2.536,2.55266
0.2985,-0.0228713,2.536,2.55361
0.306732,-0.0228713,2.536,2.55458
0.314963,-0.0228713,2.536,2.55559
0.320773,-0.0227,2.517,2.53746
0.328942,-0.0227,2.517,2.53851
0.337112,-0.0227,2.517,2.53958
0.342812,-0.0225376,2.499,2.5225
0.350923,-0.0225376,2.499,2.52362
0.359034,-0.0225376,2.499,2.52476
0.367146,-0.0225376,2.499,2.52593
0.372554,-0.0223753,2.481,2.50892
0.380606,-0.0223753,2.481,2.51012
0.388659,-0.0223753,2.481,2.51136
0.393834,-0.022213,2.463,2.49439
0.401828,-0.022213,2.463,2.49566
0.409822,-0.022213,2.463,2.49696
0.414763,-0.0220506,2.445,2.48003
0.422699,-0.0220506,2.445,2.48137
0.430635,-0.0220506,2.445,2.48273
0.438571,-0.0220506,2.445,2.48412
0.446507,-0.0220506,2.445,2.48553
0.454442,-0.0220506,2.445,2.48697
0.462378,-0.0220506,2.445,2.48843
0.470314,-0.0220506,2.445,2.48992
0.481771,-0.022213,2.463,2.50977
0.489765,-0.022213,2.463,2.51132
0.497759,-0.022213,2.463,2.51289
0.50945,-0.0223753,2.481,2.53286
0.517502,-0.0223753,2.481,2.5345
0.525555,-0.0223753,2.481,2.53615
0.533608,-0.0223753,2.481,2.53783
0.541661,-0.0223753,2.481,2.53954
0.549713,-0.0223753,2.481,2.54127
0.557766,-0.0223753,2.481,2.54302
0.565819,-0.0223753,2.481,2.5448
0.573871,-0.0223753,2.481,2.5466
0.586146,-0.0225376,2.499,2.56692
0.594257,-0.0225376,2.499,2.56878
0.602368,-0.0225376,2.499,2.57067
0.606082,-0.0223753,2.481,2.55406
0.614135,-0.0223753,2.481,2.55598
0.622188,-0.0223753,2.481,2.55792
0.63024,-0.0223753,2.481,2.5599
0.638293,-0.0223753,2.481,2.56189
0.646346,-0.0223753,2.481,2.56391
0.654399,-0.0223753,2.481,2.56595
0.662451,-0.0223753,2.481,2.56802
0.670504,-0.0223753,2.481,2.5701
0.678557,-0.0223753,2.481,2.57222
0.691591,-0.0225376,2.499,2.59303
0.699702,-0.0225376,2.499,2.59521
0.707813,-0.0225376,2.499,2.5974
0.715924,-0.0225376,2.499,2.59963
0.724035,-0.0225376,2.499,2.60187
0.73742,-0.0227,2.517,2.6229
0.74559,-0.0227,2.517,2.62521
0.753759,-0.0227,2.517,2.62754
0.761929,-0.0227,2.517,2.62989
0.770098,-0.0227,2.517,2.63227
0.784143,-0.0228713,2.536,2.65456
0.798311,-0.0230427,2.555,2.67691
0.806603,-0.0230427,2.555,2.6794
0.808836,-0.0228713,2.536,2.66196
0.817068,-0.0228713,2.536,2.66447
0.825299,-0.0228713,2.536,2.66701
0.83353,-0.0228713,2.536,2.66957
0.841761,-0.0228713,2.536,2.67215
0.849993,-0.0228713,2.536,2.67475
0.858224,-0.0228713,2.536,2.67738
0.859963,-0.0227,2.517,2.65995
0.868133,-0.0227,2.517,2.6626
0.876303,-0.0227,2.517,2.66528
0.878147,-0.0225376,2.499,2.6489
0.886258,-0.0225376,2.499,2.6516
0.887927,-0.0223753,2.481,2.6352
0.889479,-0.022213,2.463,2.61879
0.897474,-0.022213,2.463,2.62151
0.905468,-0.022213,2.463,2.62426
0.906787,-0.0220506,2.445,2.60783
0.908362,-0.0218973,2.428,2.59245
0.916243,-0.0218973,2.428,2.59522
0.917653,-0.021744,2.411,2.57982
0.918953,-0.0215907,2.394,2.56441
0.926724,-0.0215907,2.394,2.5672
0.934494,-0.0215907,2.394,2.57002
0.935573,-0.0214374,2.377,2.55458
0.943288,-0.0214374,2.377,2.55742
0.951003,-0.0214374,2.377,2.56027
0.958719,-0.0214374,2.377,2.56315
0.966434,-0.0214374,2.377,2.56604
0.974149,-0.0214374,2.377,2.56896
0.988886,-0.0215907,2.394,2.59029
0.996657,-0.0215907,2.394,2.59327
1.01156,-0.021744,2.411,2.6147
1.01938,-0.021744,2.411,2.61774
1.0417,-0.0220506,2.445,2.65775
1.05736,-0.022213,2.463,2.68046
1.06535,-0.022213,2.463,2.68362
1.08904,-0.0225376,2.499,2.72608
1.10505,-0.0227,2.517,2.74899
1.11322,-0.0227,2.517,2.75228
1.13832,-0.0230427,2.555,2.7972
1.15514,-0.023214,2.574,2.82141
1.17208,-0.0233854,2.593,2.84569
1.1805,-0.0233854,2.593,2.84917
1.19808,-0.0235658,2.613,2.87467
1.2158,-0.0237461,2.633,2.90025
1.22435,-0.0237461,2.633,2.90384
1.24273,-0.0239355,2.654,2.93064
1.26124,-0.0241249,2.675,2.95752
1.26992,-0.0241249,2.675,2.96124
1.28864,-0.0243143,2.696,2.98825
1.3075,-0.0245037,2.717,3.01534
1.32698,-0.0247021,2.739,3.04362
1.33587,-0.0247021,2.739,3.0475
1.35556,-0.0249005,2.761,3.07592
1.37539,-0.0250989,2.783,3.10442
1.38443,-0.0250989,2.783,3.10843
1.40498,-0.0253064,2.806,3.13819
1.41408,-0.0253064,2.806,3.14228
1.42319,-0.0253064,2.806,3.14639
1.44404,-0.0255138,2.829,3.17634
1.47788,-0.0259467,2.877,3.23449
1.49962,-0.0261631,2.901,3.26578
1.50904,-0.0261631,2.901,3.27012
1.54462,-0.0266141,2.951,3.33091
1.5679,-0.0268486,2.977,3.36475
1.57756,-0.0268486,2.977,3.36926
1.58722,-0.0268486,2.977,3.3738
1.61083,-0.027083,3.003,3.40786
1.62058,-0.027083,3.003,3.41248
1.64498,-0.0273265,3.03,3.44784
1.66956,-0.02757,3.057,3.48331
1.69432,-0.0278136,3.084,3.51888
1.70433,-0.0278136,3.084,3.52372
1.71434,-0.0278136,3.084,3.52857
1.72435,-0.0278136,3.084,3.53344
1.73436,-0.0278136,3.084,3.53834
1.74437,-0.0278136,3.084,3.54325
1.75438,-0.0278136,3.084,3.54819
1.76439,-0.0278136,3.084,3.55315
1.7744,-0.0278136,3.084,3.55813
1.78441,-0.0278136,3.084,3.56314
1.79442,-0.0278136,3.084,3.56816
1.80443,-0.0278136,3.084,3.5732
1.81444,-0.0278136,3.084,3.57827
1.82445,-0.0278136,3.084,3.58336
1.8184,-0.02757,3.057,3.55705
1.81217,-0.0273265,3.03,3.53067
1.82201,-0.0273265,3.03,3.53573
1.83184,-0.0273265,3.03,3.5408
1.82526,-0.027083,3.003,3.5143
1.83501,-0.027083,3.003,3.51938
1.82879,-0.0268486,2.977,3.49395
1.82239,-0.0266141,2.951,3.46846
1.83197,-0.0266141,2.951,3.4735
1.82595,-0.0263886,2.926,3.4491
1.80471,-0.0259467,2.877,3.39629
1.81405,-0.0259467,2.877,3.40126
1.80817,-0.0257302,2.853,3.37783
1.78749,-0.0253064,2.806,3.32707
1.78187,-0.0250989,2.783,3.30466
1.79091,-0.0250989,2.783,3.30954
1.77148,-0.0247021,2.739,3.26204
1.75242,-0.0243143,2.696,3.21559
1.76117,-0.0243143,2.696,3.22036
1.74235,-0.0239355,2.654,3.17491
1.72392,-0.0235658,2.613,3.13053
1.7324,-0.0235658,2.613,3.13521
1.71489,-0.023214,2.574,3.09304
1.71053,-0.0230427,2.555,3.07481
1.71882,-0.0230427,2.555,3.07943
1.70143,-0.0227,2.517,3.0382
1.69737,-0.0225376,2.499,3.02102
-1.96257,-0.0163341,2.829,3.44314
-1.93751,-0.0162014,2.806,3.40996
-1.9284,-0.0162014,2.806,3.40479
-1.88851,-0.0159415,2.761,3.34512
-1.86457,-0.0158145,2.739,3.31346
-1.85568,-0.0158145,2.739,3.30846
-1.8178,-0.0155662,2.696,3.25162
-1.79496,-0.015445,2.675,3.22145
-1.78628,-0.015445,2.675,3.21662
-1.76364,-0.0153237,2.654,3.18659
-1.75502,-0.0153237,2.654,3.18183
-1.74641,-0.0153237,2.654,3.17709
-1.7378,-0.0153237,2.654,3.17236
-1.7155,-0.0152025,2.633,3.14259
-1.70695,-0.0152025,2.633,3.13793
-1.69841,-0.0152025,2.633,3.13329
-1.68986,-0.0152025,2.633,3.12867
-1.68132,-0.0152025,2.633,3.12406
-1.68611,-0.0153237,2.654,3.14435
-1.6775,-0.0153237,2.654,3.13974
-1.68209,-0.015445,2.675,3.15995
-1.6734,-0.015445,2.675,3.15534
-1.67779,-0.0155662,2.696,3.17548
-1.66904,-0.0155662,2.696,3.17086
-1.67322,-0.0156875,2.717,3.19093
-1.67788,-0.0158145,2.739,3.21211
-1.66899,-0.0158145,2.739,3.20748
-1.67344,-0.0159415,2.761,3.22859
-1.67774,-0.0160686,2.783,3.24964
-1.6687,-0.0160686,2.783,3.24498
-1.67339,-0.0162014,2.806,3.26713
-1.67792,-0.0163341,2.829,3.28921
-1.66874,-0.0163341,2.829,3.28454
-1.65956,-0.0163341,2.829,3.27988
-1.63696,-0.0162014,2.806,3.24862
-1.62785,-0.0162014,2.806,3.24404
-1.60547,-0.0160686,2.783,3.21293
-1.5712,-0.0158145,2.739,3.1577
-1.56231,-0.0158145,2.739,3.15328
-1.54094,-0.0156875,2.717,3.12359
-1.53212,-0.0156875,2.717,3.11925
nan,nan,nan,NaN
-1.50278,-0.0155662,2.696,3.08659
-1.47075,-0.0153237,2.654,3.03432
-1.46214,-0.0153237,2.654,3.03015
-1.45353,-0.0153237,2.654,3.026
-1.43348,-0.0152025,2.633,2.99796
-1.42493,-0.0152025,2.633,2.99389
-1.41639,-0.0152025,2.633,2.98983
-1.40784,-0.0152025,2.633,2.98579
-1.42162,-0.015445,2.675,3.02933
