nan,nan,nan,NaN
nan,nan,nan,NaN
nan,nan,nan,NaN
nan,nan,nan,NaN
nan,nan,nan,NaN
nan,nan,nan,NaN
nan,nan,nan,NaN
nan,nan,nan,NaN
nan,nan,nan,NaN
nan,nan,nan,NaN
nan,nan,nan,NaN
nan,nan,nan,NaN
nan,nan,nan,NaN
nan,nan,nan,NaN
nan,nan,nan,NaN
nan,nan,nan,NaN
nan,nan,nan,NaN
nan,nan,nan,NaN
nan,nan,nan,NaN
nan,nan,nan,NaN
nan,nan,nan,NaN
nan,nan,nan,NaN
nan,nan,nan,NaN
nan,nan,nan,NaN
nan,nan,nan,NaN
nan,nan,nan,NaN
nan,nan,nan,NaN
nan,nan,nan,NaN
-1.19578,-0.329157,2.428,2.72643
-1.1879,-0.329157,2.428,2.72298
-1.18002,-0.329157,2.428,2.71955
-1.17214,-0.329157,2.428,2.71614
-1.16426,-0.329157,2.428,2.71275
-1.15638,-0.329157,2.428,2.70938
-1.1485,-0.329157,2.428,2.70603
-1.13263,-0.326853,2.411,2.68377
-1.1248,-0.326853,2.411,2.68047
-1.11698,-0.326853,2.411,2.6772
-1.10915,-0.326853,2.411,2.67394
-1.10133,-0.326853,2.411,2.67071
-1.0935,-0.326853,2.411,2.66749
-1.08568,-0.326853,2.411,2.66429
-1.07785,-0.326853,2.411,2.66111
-1.07003,-0.326853,2.411,2.65795
-1.0622,-0.326853,2.411,2.65481
-1.05437,-0.326853,2.411,2.65169
-1.04655,-0.326853,2.411,2.64859
-1.03872,-0.326853,2.411,2.64551
-1.0309,-0.326853,2.411,2.64244
-1.02307,-0.326853,2.411,2.6394
-1.01525,-0.326853,2.411,2.63638
-1.00742,-0.326853,2.411,2.63337
-0.999596,-0.326853,2.411,2.63039
-0.99177,-0.326853,2.411,2.62742
-0.983945,-0.326853,2.411,2.62448
-0.976119,-0.326853,2.411,2.62156
-0.968294,-0.326853,2.411,2.61865
-0.960468,-0.326853,2.411,2.61577
-0.952643,-0.326853,2.411,2.61291
-0.944817,-0.326853,2.411,2.61006
-0.936992,-0.326853,2.411,2.60724
-0.929166,-0.326853,2.411,2.60444
-0.921341,-0.326853,2.411,2.60166
-0.913515,-0.326853,2.411,2.5989
-0.90569,-0.326853,2.411,2.59616
-0.897864,-0.326853,2.411,2.59344
-0.890039,-0.326853,2.411,2.59074
-0.882213,-0.326853,2.411,2.58806
-0.880553,-0.329157,2.428,2.60363
-0.872672,-0.329157,2.428,2.60098
-0.864792,-0.329157,2.428,2.59834
-0.856911,-0.329157,2.428,2.59573
-0.854975,-0.331462,2.445,2.6113
-0.847039,-0.331462,2.445,2.60871
-0.839103,-0.331462,2.445,2.60614
-0.831167,-0.331462,2.445,2.6036
-0.823232,-0.331462,2.445,2.60108
-0.815296,-0.331462,2.445,2.59858
-0.813304,-0.333902,2.463,2.61521
-0.805309,-0.333902,2.463,2.61273
-0.797315,-0.333902,2.463,2.61028
-0.789321,-0.333902,2.463,2.60785
-0.781326,-0.333902,2.463,2.60544
-0.773332,-0.333902,2.463,2.60306
-0.770931,-0.336342,2.481,2.6197
-0.762878,-0.336342,2.481,2.61734
-0.754826,-0.336342,2.481,2.615
-0.746773,-0.336342,2.481,2.61269
-0.73872,-0.336342,2.481,2.6104
-0.730668,-0.336342,2.481,2.60813
-0.717372,-0.333902,2.463,2.58698
-0.709378,-0.333902,2.463,2.58478
-0.701384,-0.333902,2.463,2.5826
-0.693389,-0.333902,2.463,2.58044
-0.685395,-0.333902,2.463,2.5783
-0.677401,-0.333902,2.463,2.57619
-0.669406,-0.333902,2.463,2.5741
-0.661412,-0.333902,2.463,2.57203
-0.653418,-0.333902,2.463,2.56998
-0.645424,-0.333902,2.463,2.56796
-0.637429,-0.333902,2.463,2.56596
-0.634035,-0.336342,2.481,2.58273
-0.625982,-0.336342,2.481,2.58076
-0.61793,-0.336342,2.481,2.57882
-0.609877,-0.336342,2.481,2.5769
-0.601824,-0.336342,2.481,2.57501
-0.593771,-0.336342,2.481,2.57314
-0.589968,-0.338783,2.499,2.58995
-0.581857,-0.338783,2.499,2.58811
-0.573746,-0.338783,2.499,2.5863
-0.565635,-0.338783,2.499,2.58452
-0.557524,-0.338783,2.499,2.58275
-0.55337,-0.341223,2.517,2.5996
-0.5452,-0.341223,2.517,2.59788
-0.537031,-0.341223,2.517,2.59618
-0.532853,-0.343799,2.536,2.61408
-0.524622,-0.343799,2.536,2.61242
-0.516391,-0.343799,2.536,2.61078
-0.50816,-0.343799,2.536,2.60916
-0.499929,-0.343799,2.536,2.60757
-0.491697,-0.343799,2.536,2.606
-0.487088,-0.346374,2.555,2.62398
-0.478795,-0.346374,2.555,2.62245
-0.470502,-0.346374,2.555,2.62095
-0.46221,-0.346374,2.555,2.61947
-0.453917,-0.346374,2.555,2.61802
-0.438996,-0.341223,2.517,2.57768
-0.430827,-0.341223,2.517,2.5763
-0.422657,-0.341223,2.517,2.57495
-0.414487,-0.341223,2.517,2.57362
-0.406318,-0.341223,2.517,2.57232
-0.395301,-0.338783,2.499,2.55265
-0.38719,-0.338783,2.499,2.55141
-0.379079,-0.338783,2.499,2.55019
-0.370968,-0.338783,2.499,2.549
-0.362857,-0.338783,2.499,2.54783
-0.354745,-0.338783,2.499,2.54669
-0.346634,-0.338783,2.499,2.54557
-0.338523,-0.338783,2.499,2.54448
-0.330412,-0.338783,2.499,2.54341
-0.322301,-0.338783,2.499,2.54237
-0.31419,-0.338783,2.499,2.54136
-0.306079,-0.338783,2.499,2.54037
-0.297967,-0.338783,2.499,2.5394
-0.289856,-0.338783,2.499,2.53846
-0.281745,-0.338783,2.499,2.53755
-0.273634,-0.338783,2.499,2.53666
-0.26361,-0.336342,2.481,2.51753
-0.255558,-0.336342,2.481,2.5167
-0.245709,-0.333902,2.463,2.49765
-0.237715,-0.333902,2.463,2.49687
-0.229721,-0.333902,2.463,2.49612
-0.221726,-0.333902,2.463,2.4954
-0.213732,-0.333902,2.463,2.4947
-0.204234,-0.331462,2.445,2.4758
-0.196298,-0.331462,2.445,2.47516
-0.188363,-0.331462,2.445,2.47455
-0.180427,-0.331462,2.445,2.47395
-0.172491,-0.331462,2.445,2.47339
-0.164555,-0.331462,2.445,2.47285
-0.157772,-0.333902,2.463,2.49053
-0.149778,-0.333902,2.463,2.49004
-0.141784,-0.333902,2.463,2.48957
-0.133789,-0.333902,2.463,2.48913
-0.125795,-0.333902,2.463,2.48871
-0.117801,-0.333902,2.463,2.48832
-0.109806,-0.333902,2.463,2.48795
-0.102556,-0.336342,2.481,2.50579
-0.0945035,-0.336342,2.481,2.50548
-0.0864508,-0.336342,2.481,2.50519
-0.078398,-0.336342,2.481,2.50492
-0.0708557,-0.338783,2.499,2.52285
-0.0627446,-0.338783,2.499,2.52264
-0.0546334,-0.338783,2.499,2.52245
-0.0468574,-0.341223,2.517,2.54046
-0.0386878,-0.341223,2.517,2.54032
-0.0305183,-0.341223,2.517,2.54021
-0.0223487,-0.341223,2.517,2.54012
-0.0141792,-0.341223,2.517,2.54006
-0.00600962,-0.341223,2.517,2.54003
0.00215994,-0.341223,2.517,2.54003
0.0103295,-0.341223,2.517,2.54005
0.0184991,-0.341223,2.517,2.54009
0.0266686,-0.341223,2.517,2.54016
0.0348382,-0.341223,2.517,2.54026
0.0430077,-0.341223,2.517,2.54039
0.0511773,-0.341223,2.517,2.54054
0.0593468,-0.341223,2.517,2.54072
0.0675164,-0.341223,2.517,2.54092
0.075686,-0.341223,2.517,2.54115
0.0838555,-0.341223,2.517,2.54141
0.0927197,-0.343799,2.536,2.56088
0.100951,-0.343799,2.536,2.56119
0.109182,-0.343799,2.536,2.56153
0.117413,-0.343799,2.536,2.56189
0.125645,-0.343799,2.536,2.56228
0.133876,-0.343799,2.536,2.5627
0.142107,-0.343799,2.536,2.56314
0.150338,-0.343799,2.536,2.56361
0.15857,-0.343799,2.536,2.56411
0.16805,-0.346374,2.555,2.58384
0.176343,-0.346374,2.555,2.58439
0.184636,-0.346374,2.555,2.58497
0.191494,-0.343799,2.536,2.56635
0.199726,-0.343799,2.536,2.56698
0.207957,-0.343799,2.536,2.56763
0.216188,-0.343799,2.536,2.56831
0.224419,-0.343799,2.536,2.56902
0.232651,-0.343799,2.536,2.56975
0.239077,-0.341223,2.517,2.55125
0.247247,-0.341223,2.517,2.55203
0.255416,-0.341223,2.517,2.55283
0.263586,-0.341223,2.517,2.55366
0.271755,-0.341223,2.517,2.55452
0.279925,-0.341223,2.517,2.5554
0.286034,-0.338783,2.499,2.53803
0.294145,-0.338783,2.499,2.53896
0.302256,-0.338783,2.499,2.53991
0.310368,-0.338783,2.499,2.54089
0.318479,-0.338783,2.499,2.54189
0.32659,-0.338783,2.499,2.54292
0.334701,-0.338783,2.499,2.54397
0.342812,-0.338783,2.499,2.54505
0.353451,-0.341223,2.517,2.5645
0.36162,-0.341223,2.517,2.56564
0.36979,-0.341223,2.517,2.5668
0.37796,-0.341223,2.517,2.56799
0.386129,-0.341223,2.517,2.56921
0.394299,-0.341223,2.517,2.57045
0.402468,-0.341223,2.517,2.57171
0.410638,-0.341223,2.517,2.573
0.418807,-0.341223,2.517,2.57432
0.4302,-0.343799,2.536,2.5951
0.438431,-0.343799,2.536,2.59648
0.446662,-0.343799,2.536,2.59788
0.454894,-0.343799,2.536,2.59931
0.459655,-0.341223,2.517,2.58128
0.467825,-0.341223,2.517,2.58275
0.475994,-0.341223,2.517,2.58424
0.484164,-0.341223,2.517,2.58576
0.49605,-0.343799,2.536,2.60683
0.500503,-0.341223,2.517,2.58887
0.508672,-0.341223,2.517,2.59046
0.516842,-0.341223,2.517,2.59207
0.525012,-0.341223,2.517,2.59372
0.533181,-0.341223,2.517,2.59538
0.541351,-0.341223,2.517,2.59707
0.54952,-0.341223,2.517,2.59879
0.55769,-0.341223,2.517,2.60053
0.565859,-0.341223,2.517,2.60229
0.574029,-0.341223,2.517,2.60408
0.582199,-0.341223,2.517,2.60589
0.590368,-0.341223,2.517,2.60773
0.598538,-0.341223,2.517,2.60959
0.606707,-0.341223,2.517,2.61148
0.614877,-0.341223,2.517,2.61339
0.623046,-0.341223,2.517,2.61532
0.631216,-0.341223,2.517,2.61728
0.639385,-0.341223,2.517,2.61926
0.647555,-0.341223,2.517,2.62127
0.655725,-0.341223,2.517,2.6233
0.659146,-0.338783,2.499,2.60658
0.667257,-0.338783,2.499,2.60864
0.675369,-0.338783,2.499,2.61073
0.68348,-0.338783,2.499,2.61284
0.691591,-0.338783,2.499,2.61497
0.699702,-0.338783,2.499,2.61713
0.707813,-0.338783,2.499,2.61931
0.715924,-0.338783,2.499,2.62151
0.724035,-0.338783,2.499,2.62374
0.732147,-0.338783,2.499,2.62599
0.740258,-0.338783,2.499,2.62826
0.748369,-0.338783,2.499,2.63056
0.75648,-0.338783,2.499,2.63288
0.764591,-0.338783,2.499,2.63522
0.772702,-0.338783,2.499,2.63758
0.780813,-0.338783,2.499,2.63997
0.788924,-0.338783,2.499,2.64238
0.797036,-0.338783,2.499,2.64481
0.805147,-0.338783,2.499,2.64727
0.8074,-0.336342,2.481,2.63066
0.815453,-0.336342,2.481,2.63314
0.82948,-0.338783,2.499,2.65477
0.837591,-0.338783,2.499,2.65732
0.839611,-0.336342,2.481,2.64073
0.847664,-0.336342,2.481,2.6433
0.855716,-0.336342,2.481,2.64589
0.863769,-0.336342,2.481,2.64851
0.871822,-0.336342,2.481,2.65114
0.879874,-0.336342,2.481,2.6538
0.887927,-0.336342,2.481,2.65648
0.889479,-0.333902,2.463,2.63989
0.897474,-0.333902,2.463,2.6426
0.905468,-0.333902,2.463,2.64532
0.913462,-0.333902,2.463,2.64807
0.921457,-0.333902,2.463,2.65084
0.922658,-0.331462,2.445,2.63423
0.930594,-0.331462,2.445,2.63702
0.93853,-0.331462,2.445,2.63984
0.946466,-0.331462,2.445,2.64267
0.954402,-0.331462,2.445,2.64552
0.962338,-0.331462,2.445,2.64839
0.970273,-0.331462,2.445,2.65129
0.978209,-0.331462,2.445,2.6542
0.986145,-0.331462,2.445,2.65714
nan,nan,nan,NaN
1.00202,-0.331462,2.445,2.66307
1.00995,-0.331462,2.445,2.66606
nan,nan,nan,NaN
nan,nan,nan,NaN
nan,nan,nan,NaN
nan,nan,nan,NaN
nan,nan,nan,NaN
nan,nan,nan,NaN
nan,nan,nan,NaN
nan,nan,nan,NaN
nan,nan,nan,NaN
nan,nan,nan,NaN
1.40959,-0.425817,3.141,3.46903
1.41979,-0.425817,3.141,3.47318
1.42998,-0.425817,3.141,3.47736
1.45347,-0.429748,3.17,3.51371
1.46376,-0.429748,3.17,3.51798
1.47405,-0.429748,3.17,3.52227
1.49792,-0.43368,3.199,3.55885
1.5083,-0.43368,3.199,3.56324
1.51869,-0.43368,3.199,3.56764
1.52907,-0.43368,3.199,3.57208
1.5255,-0.429748,3.17,3.54411
1.53579,-0.429748,3.17,3.54855
1.54608,-0.429748,3.17,3.55302
1.5706,-0.43368,3.199,3.59005
nan,nan,nan,NaN
1.59137,-0.43368,3.199,3.59919
1.58723,-0.429748,3.17,3.57112
1.59752,-0.429748,3.17,3.5757
1.60781,-0.429748,3.17,3.58031
1.6329,-0.43368,3.199,3.61774
1.65921,-0.437882,3.23,3.65754
1.6852,-0.441949,3.26,3.69633
1.69578,-0.441949,3.26,3.70116
1.70636,-0.441949,3.26,3.70602
1.75065,-0.450626,3.324,3.78376
1.76144,-0.450626,3.324,3.78876
1.78929,-0.454964,3.356,3.83031
1.81788,-0.459438,3.389,3.87313
1.82888,-0.459438,3.389,3.8783
1.87734,-0.468792,3.458,3.96257
1.90768,-0.473537,3.493,4.00806
1.91902,-0.473537,3.493,4.01347
1.93036,-0.473537,3.493,4.0189
1.96171,-0.478417,3.529,4.06584
1.99385,-0.483433,3.566,4.11406
2.00542,-0.483433,3.566,4.11968
2.017,-0.483433,3.566,4.12533
2.05019,-0.488585,3.604,4.17502
2.06189,-0.488585,3.604,4.18078
2.07358,-0.488585,3.604,4.18656
2.08528,-0.488585,3.604,4.19237
2.07487,-0.483433,3.566,4.15393
2.08644,-0.483433,3.566,4.15972
2.07625,-0.478417,3.529,4.12232
2.0877,-0.478417,3.529,4.1281
2.05692,-0.468792,3.458,4.05074
2.04722,-0.464047,3.423,4.01539
2.05833,-0.464047,3.423,4.02107
2.02893,-0.454964,3.356,3.94795
2.00092,-0.446288,3.292,3.87816
2.01161,-0.446288,3.292,3.88368
2.00264,-0.441949,3.26,3.85142
1.97555,-0.43368,3.199,3.78477
1.98593,-0.43368,3.199,3.7902
1.96012,-0.425817,3.141,3.72683
1.93456,-0.41809,3.084,3.66447
1.94457,-0.41809,3.084,3.66977
1.92035,-0.410769,3.03,3.61073
1.91299,-0.407109,3.003,3.58375
1.92273,-0.407109,3.003,3.58896
1.89902,-0.400059,2.951,3.53196
1.89243,-0.39667,2.926,3.50715
1.90192,-0.39667,2.926,3.51228
1.89509,-0.393281,2.901,3.48738
1.87299,-0.386773,2.853,3.43472
1.86642,-0.38352,2.829,3.41084
1.8756,-0.38352,2.829,3.41588
1.85414,-0.377284,2.783,3.3653
1.84844,-0.374301,2.761,3.34365
1.8574,-0.374301,2.761,3.34861
1.83662,-0.368336,2.717,3.30014
1.83118,-0.365489,2.696,3.27951
-2.24076,-0.427402,3.23,3.95431
-2.23027,-0.427402,3.23,3.94838
-2.21979,-0.427402,3.23,3.94247
-2.22983,-0.431371,3.26,3.97314
-2.24103,-0.435606,3.292,4.00615
-2.2737,-0.444074,3.356,4.07795
-2.26281,-0.444074,3.356,4.07189
-2.27406,-0.448441,3.389,4.10582
-2.26306,-0.448441,3.389,4.09974
-2.25206,-0.448441,3.389,4.09368
-2.24106,-0.448441,3.389,4.08764
-2.23006,-0.448441,3.389,4.08162
-2.24132,-0.45294,3.423,4.11651
-2.23021,-0.45294,3.423,4.11047
-2.2191,-0.45294,3.423,4.10445
-2.23057,-0.457571,3.458,4.14036
-2.21935,-0.457571,3.458,4.13432
-2.20812,-0.457571,3.458,4.12831
-2.21914,-0.462202,3.493,4.16404
-2.2078,-0.462202,3.493,4.15801
-2.19646,-0.462202,3.493,4.152
-2.18512,-0.462202,3.493,4.14602
-2.19619,-0.466966,3.529,4.18272
-2.14078,-0.457571,3.458,4.09269
-2.12956,-0.457571,3.458,4.08683
-2.13977,-0.462202,3.493,4.12229
-2.12844,-0.462202,3.493,4.11642
-2.1171,-0.462202,3.493,4.11057
-2.10576,-0.462202,3.493,4.10474
-2.09442,-0.462202,3.493,4.09894
-2.08309,-0.462202,3.493,4.09316
nan,nan,nan,NaN
nan,nan,nan,NaN
nan,nan,nan,NaN
nan,nan,nan,NaN
nan,nan,nan,NaN
nan,nan,nan,NaN
nan,nan,nan,NaN
nan,nan,nan,NaN
nan,nan,nan,NaN
nan,nan,nan,NaN
nan,nan,nan,NaN
nan,nan,nan,NaN
nan,nan,nan,NaN
nan,nan,nan,NaN
nan,nan,nan,NaN
nan,nan,nan,NaN
nan,nan,nan,NaN
nan,nan,nan,NaN
nan,nan,nan,NaN
nan,nan,nan,NaN
nan,nan,nan,NaN
nan,nan,nan,NaN
nan,nan,nan,NaN
nan,nan,nan,NaN
nan,nan,nan,NaN
nan,nan,nan,NaN
nan,nan,nan,NaN
nan,nan,nan,NaN
nan,nan,nan,NaN
nan,nan,nan,NaN
nan,nan,nan,NaN
-1.20415,-0.323528,2.445,2.74457
-1.19622,-0.323528,2.445,2.7411
-1.18828,-0.323528,2.445,2.73765
-1.18035,-0.323528,2.445,2.73421
-1.17241,-0.323528,2.445,2.73079
-1.16447,-0.323528,2.445,2.7274
-1.15654,-0.323528,2.445,2.72402
-1.1486,-0.323528,2.445,2.72066
-1.14067,-0.323528,2.445,2.71732
-1.12485,-0.321279,2.428,2.69513
-1.11697,-0.321279,2.428,2.69185
-1.10909,-0.321279,2.428,2.68859
-1.10121,-0.321279,2.428,2.68534
-1.09333,-0.321279,2.428,2.68212
-1.08545,-0.321279,2.428,2.67892
-1.07757,-0.321279,2.428,2.67574
-1.0622,-0.319029,2.411,2.65386
-1.05437,-0.319029,2.411,2.65074
-1.04655,-0.319029,2.411,2.64763
-1.03872,-0.319029,2.411,2.64455
-1.03817,-0.321279,2.428,2.66011
-1.03029,-0.321279,2.428,2.65705
-1.02241,-0.321279,2.428,2.654
-1.01452,-0.321279,2.428,2.65097
-1.00664,-0.321279,2.428,2.64797
-0.998763,-0.321279,2.428,2.64498
-0.990883,-0.321279,2.428,2.64202
-0.983002,-0.321279,2.428,2.63907
-0.975121,-0.321279,2.428,2.63615
-0.967241,-0.321279,2.428,2.63324
-0.95936,-0.321279,2.428,2.63036
-0.951479,-0.321279,2.428,2.62749
-0.943599,-0.321279,2.428,2.62465
-0.929166,-0.319029,2.411,2.60347
-0.921341,-0.319029,2.411,2.60069
-0.913515,-0.319029,2.411,2.59792
-0.90569,-0.319029,2.411,2.59518
-0.897864,-0.319029,2.411,2.59246
-0.896315,-0.321279,2.428,2.60802
-0.888434,-0.321279,2.428,2.60533
-0.880553,-0.321279,2.428,2.60265
-0.872672,-0.321279,2.428,2.59999
-0.864792,-0.321279,2.428,2.59736
-0.856911,-0.321279,2.428,2.59474
-0.854975,-0.323528,2.445,2.6103
-0.847039,-0.323528,2.445,2.60771
-0.839103,-0.323528,2.445,2.60515
-0.831167,-0.323528,2.445,2.6026
-0.823232,-0.323528,2.445,2.60008
-0.815296,-0.323528,2.445,2.59758
-0.813304,-0.32591,2.463,2.6142
-0.805309,-0.32591,2.463,2.61173
-0.797315,-0.32591,2.463,2.60927
-0.789321,-0.32591,2.463,2.60684
-0.781326,-0.32591,2.463,2.60443
-0.773332,-0.32591,2.463,2.60204
-0.770931,-0.328292,2.481,2.61868
-0.762878,-0.328292,2.481,2.61632
-0.754826,-0.328292,2.481,2.61398
-0.746773,-0.328292,2.481,2.61167
-0.73872,-0.328292,2.481,2.60938
-0.730668,-0.328292,2.481,2.60711
-0.722615,-0.328292,2.481,2.60486
-0.714562,-0.328292,2.481,2.60264
-0.706509,-0.328292,2.481,2.60044
-0.693389,-0.32591,2.463,2.57941
-0.685395,-0.32591,2.463,2.57728
-0.677401,-0.32591,2.463,2.57516
-0.669406,-0.32591,2.463,2.57307
-0.661412,-0.32591,2.463,2.571
-0.658193,-0.328292,2.481,2.58773
-0.65014,-0.328292,2.481,2.5857
-0.642088,-0.328292,2.481,2.58368
-0.634035,-0.328292,2.481,2.58169
-0.625982,-0.328292,2.481,2.57973
-0.61793,-0.328292,2.481,2.57778
-0.609877,-0.328292,2.481,2.57587
-0.601824,-0.328292,2.481,2.57397
-0.593771,-0.328292,2.481,2.5721
-0.589968,-0.330674,2.499,2.5889
-0.581857,-0.330674,2.499,2.58706
-0.573746,-0.330674,2.499,2.58525
-0.565635,-0.330674,2.499,2.58346
-0.557524,-0.330674,2.499,2.5817
-0.55337,-0.333056,2.517,2.59854
-0.5452,-0.333056,2.517,2.59682
-0.537031,-0.333056,2.517,2.59511
-0.532853,-0.33557,2.536,2.61301
-0.524622,-0.33557,2.536,2.61135
-0.516391,-0.33557,2.536,2.60971
-0.50816,-0.33557,2.536,2.60809
-0.499929,-0.33557,2.536,2.6065
-0.491697,-0.33557,2.536,2.60493
-0.487088,-0.338084,2.555,2.6229
-0.478795,-0.338084,2.555,2.62137
-0.470502,-0.338084,2.555,2.61987
-0.46221,-0.338084,2.555,2.61839
-0.453917,-0.338084,2.555,2.61694
-0.438996,-0.333056,2.517,2.57661
-0.430827,-0.333056,2.517,2.57523
-0.422657,-0.333056,2.517,2.57388
-0.414487,-0.333056,2.517,2.57255
-0.406318,-0.333056,2.517,2.57125
-0.395301,-0.330674,2.499,2.55159
-0.38719,-0.330674,2.499,2.55035
-0.379079,-0.330674,2.499,2.54913
-0.370968,-0.330674,2.499,2.54793
-0.362857,-0.330674,2.499,2.54676
-0.354745,-0.330674,2.499,2.54562
-0.346634,-0.330674,2.499,2.5445
-0.338523,-0.330674,2.499,2.54341
-0.330412,-0.330674,2.499,2.54235
-0.322301,-0.330674,2.499,2.5413
-0.31419,-0.330674,2.499,2.54029
-0.306079,-0.330674,2.499,2.5393
-0.297967,-0.330674,2.499,2.53833
-0.289856,-0.330674,2.499,2.53739
-0.281745,-0.330674,2.499,2.53648
-0.271663,-0.328292,2.481,2.51733
-0.26361,-0.328292,2.481,2.51647
-0.255558,-0.328292,2.481,2.51564
-0.245709,-0.32591,2.463,2.49659
-0.237715,-0.32591,2.463,2.49582
-0.229721,-0.32591,2.463,2.49507
-0.221726,-0.32591,2.463,2.49434
-0.21217,-0.323528,2.445,2.47542
-0.204234,-0.323528,2.445,2.47475
-0.196298,-0.323528,2.445,2.47411
-0.187053,-0.321279,2.428,2.4563
-0.179172,-0.321279,2.428,2.45571
-0.171292,-0.321279,2.428,2.45515
-0.163411,-0.321279,2.428,2.45461
-0.156619,-0.323528,2.445,2.47128
-0.148683,-0.323528,2.445,2.47079
-0.140747,-0.323528,2.445,2.47033
-0.132812,-0.323528,2.445,2.46989
-0.124876,-0.323528,2.445,2.46947
-0.11694,-0.323528,2.445,2.46908
-0.109806,-0.32591,2.463,2.48689
-0.101812,-0.32591,2.463,2.48655
-0.0945035,-0.328292,2.481,2.50441
-0.0864508,-0.328292,2.481,2.50412
-0.078398,-0.328292,2.481,2.50385
-0.0703453,-0.328292,2.481,2.50361
-0.0622926,-0.328292,2.481,2.5034
-0.0546334,-0.330674,2.499,2.52137
-0.0465223,-0.330674,2.499,2.52121
-0.0384112,-0.330674,2.499,2.52108
-0.0305183,-0.333056,2.517,2.53912
-0.0223487,-0.333056,2.517,2.53904
-0.0141792,-0.333056,2.517,2.53898
-0.00600962,-0.333056,2.517,2.53895
0.00215994,-0.333056,2.517,2.53894
0.0103295,-0.333056,2.517,2.53896
0.0184991,-0.333056,2.517,2.53901
0.0266686,-0.333056,2.517,2.53908
0.0348382,-0.333056,2.517,2.53918
0.0430077,-0.333056,2.517,2.5393
0.0511773,-0.333056,2.517,2.53946
0.0593468,-0.333056,2.517,2.53963
0.0675164,-0.333056,2.517,2.53984
0.075686,-0.333056,2.517,2.54007
0.0838555,-0.333056,2.517,2.54032
0.0927197,-0.33557,2.536,2.55979
0.100951,-0.33557,2.536,2.5601
0.109182,-0.33557,2.536,2.56043
0.117413,-0.33557,2.536,2.5608
0.125645,-0.33557,2.536,2.56119
0.133876,-0.33557,2.536,2.56161
0.142107,-0.33557,2.536,2.56205
0.150338,-0.33557,2.536,2.56252
0.15857,-0.33557,2.536,2.56302
0.166801,-0.33557,2.536,2.56354
0.175032,-0.33557,2.536,2.56409
0.183263,-0.33557,2.536,2.56466
0.191494,-0.33557,2.536,2.56526
0.199726,-0.33557,2.536,2.56589
0.207957,-0.33557,2.536,2.56654
0.216188,-0.33557,2.536,2.56722
0.224419,-0.33557,2.536,2.56793
0.230908,-0.333056,2.517,2.54942
0.239077,-0.333056,2.517,2.55017
0.247247,-0.333056,2.517,2.55095
0.255416,-0.333056,2.517,2.55175
0.263586,-0.333056,2.517,2.55259
0.271755,-0.333056,2.517,2.55344
0.279925,-0.333056,2.517,2.55432
0.286034,-0.330674,2.499,2.53696
0.294145,-0.330674,2.499,2.53789
0.302256,-0.330674,2.499,2.53884
0.310368,-0.330674,2.499,2.53982
0.318479,-0.330674,2.499,2.54082
0.32659,-0.330674,2.499,2.54185
0.334701,-0.330674,2.499,2.54291
0.342812,-0.330674,2.499,2.54399
0.350923,-0.330674,2.499,2.54509
0.359034,-0.330674,2.499,2.54622
0.367146,-0.330674,2.499,2.54738
0.375257,-0.330674,2.499,2.54856
0.383368,-0.330674,2.499,2.54977
0.391479,-0.330674,2.499,2.551
0.39959,-0.330674,2.499,2.55226
0.407701,-0.330674,2.499,2.55354
0.415812,-0.330674,2.499,2.55485
0.426977,-0.333056,2.517,2.57459
0.435146,-0.333056,2.517,2.57596
0.443316,-0.333056,2.517,2.57735
0.451486,-0.333056,2.517,2.57877
0.459655,-0.333056,2.517,2.58021
0.467825,-0.333056,2.517,2.58168
0.475994,-0.333056,2.517,2.58317
0.484164,-0.333056,2.517,2.58469
0.492333,-0.333056,2.517,2.58623
0.500503,-0.333056,2.517,2.5878
0.508672,-0.333056,2.517,2.58939
0.516842,-0.333056,2.517,2.59101
0.525012,-0.333056,2.517,2.59265
0.533181,-0.333056,2.517,2.59432
0.541351,-0.333056,2.517,2.59601
0.54559,-0.330674,2.499,2.57915
0.553702,-0.330674,2.499,2.58088
0.561813,-0.330674,2.499,2.58263
0.569924,-0.330674,2.499,2.58441
0.578035,-0.330674,2.499,2.58621
0.590368,-0.333056,2.517,2.60667
0.598538,-0.333056,2.517,2.60854
0.606707,-0.333056,2.517,2.61042
0.614877,-0.333056,2.517,2.61233
0.623046,-0.333056,2.517,2.61427
0.631216,-0.333056,2.517,2.61623
0.639385,-0.333056,2.517,2.61821
0.647555,-0.333056,2.517,2.62022
0.655725,-0.333056,2.517,2.62225
0.663894,-0.333056,2.517,2.6243
0.667257,-0.330674,2.499,2.6076
0.675369,-0.330674,2.499,2.60969
0.68348,-0.330674,2.499,2.6118
0.691591,-0.330674,2.499,2.61393
0.699702,-0.330674,2.499,2.61609
0.707813,-0.330674,2.499,2.61827
0.715924,-0.330674,2.499,2.62048
0.724035,-0.330674,2.499,2.6227
0.732147,-0.330674,2.499,2.62495
0.740258,-0.330674,2.499,2.62723
0.748369,-0.330674,2.499,2.62952
0.75648,-0.330674,2.499,2.63184
0.764591,-0.330674,2.499,2.63419
0.772702,-0.330674,2.499,2.63655
0.780813,-0.330674,2.499,2.63894
0.788924,-0.330674,2.499,2.64135
0.797036,-0.330674,2.499,2.64379
0.805147,-0.330674,2.499,2.64624
0.8074,-0.328292,2.481,2.62964
0.815453,-0.328292,2.481,2.63213
0.82948,-0.330674,2.499,2.65375
0.837591,-0.330674,2.499,2.6563
0.839611,-0.328292,2.481,2.63971
0.847664,-0.328292,2.481,2.64229
0.855716,-0.328292,2.481,2.64488
0.863769,-0.328292,2.481,2.6475
0.871822,-0.328292,2.481,2.65013
0.879874,-0.328292,2.481,2.65279
0.887927,-0.328292,2.481,2.65548
0.889479,-0.32591,2.463,2.63889
0.897474,-0.32591,2.463,2.6416
0.905468,-0.32591,2.463,2.64433
0.913462,-0.32591,2.463,2.64707
0.921457,-0.32591,2.463,2.64984
0.922658,-0.323528,2.445,2.63325
0.930594,-0.323528,2.445,2.63604
0.93853,-0.323528,2.445,2.63885
0.946466,-0.323528,2.445,2.64168
0.954402,-0.323528,2.445,2.64454
0.962338,-0.323528,2.445,2.64741
0.970273,-0.323528,2.445,2.65031
0.978209,-0.323528,2.445,2.65322
0.986145,-0.323528,2.445,2.65616
nan,nan,nan,NaN
1.00202,-0.323528,2.445,2.66209
1.00995,-0.323528,2.445,2.66509
nan,nan,nan,NaN
nan,nan,nan,NaN
nan,nan,nan,NaN
nan,nan,nan,NaN
nan,nan,nan,NaN
nan,nan,nan,NaN
nan,nan,nan,NaN
nan,nan,nan,NaN
nan,nan,nan,NaN
nan,nan,nan,NaN
nan,nan,nan,NaN
nan,nan,nan,NaN
1.4705,-0.427402,3.23,3.57463
1.48098,-0.427402,3.23,3.57895
1.49147,-0.427402,3.23,3.5833
1.50195,-0.427402,3.23,3.58768
1.52648,-0.431371,3.26,3.62544
1.53706,-0.431371,3.26,3.62991
1.56284,-0.435606,3.292,3.67008
1.57352,-0.435606,3.292,3.67464
1.56881,-0.431371,3.26,3.64347
1.57939,-0.431371,3.26,3.64803
1.58997,-0.431371,3.26,3.65263
1.60055,-0.431371,3.26,3.65725
nan,nan,nan,NaN
nan,nan,nan,NaN
1.63229,-0.431371,3.26,3.67125
1.64288,-0.431371,3.26,3.67597
1.62252,-0.4233,3.199,3.61183
1.6329,-0.4233,3.199,3.61651
1.65921,-0.427402,3.23,3.6563
1.6852,-0.431371,3.26,3.69508
1.69578,-0.431371,3.26,3.69991
1.70636,-0.431371,3.26,3.70477
1.75065,-0.43984,3.324,3.78249
1.76144,-0.43984,3.324,3.78749
1.78929,-0.444074,3.356,3.82903
1.81788,-0.448441,3.389,3.87184
1.82888,-0.448441,3.389,3.87701
1.87734,-0.457571,3.458,3.96126
1.90768,-0.462202,3.493,4.00674
1.91902,-0.462202,3.493,4.01215
1.93036,-0.462202,3.493,4.01758
1.96171,-0.466966,3.529,4.0645
1.99385,-0.471862,3.566,4.11272
2.00542,-0.471862,3.566,4.11834
2.017,-0.471862,3.566,4.12399
2.05019,-0.47689,3.604,4.17367
2.06189,-0.47689,3.604,4.17943
2.07358,-0.47689,3.604,4.18521
2.08528,-0.47689,3.604,4.19102
2.07487,-0.471862,3.566,4.1526
2.08644,-0.471862,3.566,4.1584
2.07625,-0.466966,3.529,4.12101
2.0877,-0.466966,3.529,4.12679
2.05692,-0.457571,3.458,4.04945
2.04722,-0.45294,3.423,4.01412
2.05833,-0.45294,3.423,4.0198
2.02893,-0.444074,3.356,3.94671
2.00092,-0.435606,3.292,3.87695
2.01161,-0.435606,3.292,3.88247
2.00264,-0.431371,3.26,3.85022
1.97555,-0.4233,3.199,3.78359
1.98593,-0.4233,3.199,3.78902
1.96012,-0.415625,3.141,3.72568
1.93456,-0.408082,3.084,3.66335
1.94457,-0.408082,3.084,3.66864
1.92035,-0.400937,3.03,3.60963
1.91299,-0.397364,3.003,3.58266
1.92273,-0.397364,3.003,3.58787
1.89902,-0.390484,2.951,3.53089
1.89243,-0.387176,2.926,3.50609
1.88567,-0.383867,2.901,3.48122
1.89509,-0.383867,2.901,3.48633
1.87299,-0.377516,2.853,3.43369
1.86642,-0.37434,2.829,3.40982
1.8756,-0.37434,2.829,3.41486
1.85414,-0.368253,2.783,3.3643
1.84844,-0.365342,2.761,3.34265
1.8574,-0.365342,2.761,3.34762
1.83662,-0.35952,2.717,3.29917
1.83118,-0.356741,2.696,3.27855
-2.21925,-0.412919,3.199,3.91525
-2.20887,-0.412919,3.199,3.90937
-2.19848,-0.412919,3.199,3.90352
-2.20931,-0.416921,3.23,3.93545
-2.21924,-0.420793,3.26,3.96607
-2.25202,-0.429054,3.324,4.0379
-2.24123,-0.429054,3.324,4.0319
-2.25192,-0.433184,3.356,4.06467
-2.24102,-0.433184,3.356,4.05864
-2.23013,-0.433184,3.356,4.05264
-2.24106,-0.437444,3.389,4.08645
-2.23006,-0.437444,3.389,4.08042
-2.21906,-0.437444,3.389,4.07442
-2.20806,-0.437444,3.389,4.06844
-2.2191,-0.441833,3.423,4.10324
-2.20799,-0.441833,3.423,4.09724
-2.19688,-0.441833,3.423,4.09126
-2.20812,-0.44635,3.458,4.12708
-2.1969,-0.44635,3.458,4.12109
-2.18568,-0.44635,3.458,4.11512
-2.17445,-0.44635,3.458,4.10916
-2.16323,-0.44635,3.458,4.10324
-2.152,-0.44635,3.458,4.09733
-2.14078,-0.44635,3.458,4.09145
-2.12956,-0.44635,3.458,4.08559
-2.11833,-0.44635,3.458,4.07975
-2.10711,-0.44635,3.458,4.07393
-2.09589,-0.44635,3.458,4.06814
-2.08466,-0.44635,3.458,4.06236
-2.07344,-0.44635,3.458,4.05662
-2.06221,-0.44635,3.458,4.05089
nan,nan,nan,NaN
nan,nan,nan,NaN
nan,nan,nan,NaN
nan,nan,nan,NaN
nan,nan,nan,NaN
nan,nan,nan,NaN
nan,nan,nan,NaN
nan,nan,nan,NaN
nan,nan,nan,NaN
nan,nan,nan,NaN
nan,nan,nan,NaN
nan,nan,nan,NaN
nan,nan,nan,NaN
nan,nan,nan,NaN
nan,nan,nan,NaN
nan,nan,nan,NaN
nan,nan,nan,NaN
nan,nan,nan,NaN
nan,nan,nan,NaN
nan,nan,nan,NaN
nan,nan,nan,NaN
nan,nan,nan,NaN
nan,nan,nan,NaN
nan,nan,nan,NaN
nan,nan,nan,NaN
nan,nan,nan,NaN
nan,nan,nan,NaN
nan,nan,nan,NaN
nan,nan,nan,NaN
nan,nan,nan,NaN
nan,nan,nan,NaN
-1.22188,-0.320242,2.481,2.78405
-1.21383,-0.320242,2.481,2.78052
-1.20578,-0.320242,2.481,2.77702
-1.19772,-0.320242,2.481,2.77353
-1.18967,-0.320242,2.481,2.77006
-1.18162,-0.320242,2.481,2.76661
-1.16505,-0.317918,2.463,2.74313
-1.15706,-0.317918,2.463,2.73975
-1.14906,-0.317918,2.463,2.73638
-1.13273,-0.315595,2.445,2.71306
-1.12479,-0.315595,2.445,2.70976
-1.11686,-0.315595,2.445,2.70647
-1.10892,-0.315595,2.445,2.70321
-1.10099,-0.315595,2.445,2.69996
-1.09305,-0.315595,2.445,2.69674
-1.08512,-0.315595,2.445,2.69353
-1.06969,-0.3134,2.428,2.67164
-1.06181,-0.3134,2.428,2.66849
-1.05393,-0.3134,2.428,2.66536
-1.04605,-0.3134,2.428,2.66226
-1.03817,-0.3134,2.428,2.65917
-1.03029,-0.3134,2.428,2.65611
-1.02241,-0.3134,2.428,2.65306
-1.01452,-0.3134,2.428,2.65003
-1.00664,-0.3134,2.428,2.64702
-0.998763,-0.3134,2.428,2.64404
-0.990883,-0.3134,2.428,2.64107
-0.983002,-0.3134,2.428,2.63812
-0.975121,-0.3134,2.428,2.6352
-0.967241,-0.3134,2.428,2.63229
-0.95936,-0.3134,2.428,2.62941
-0.951479,-0.3134,2.428,2.62654
-0.943599,-0.3134,2.428,2.6237
-0.935718,-0.3134,2.428,2.62087
-0.927837,-0.3134,2.428,2.61807
-0.913515,-0.311206,2.411,2.59698
-0.90569,-0.311206,2.411,2.59423
-0.904195,-0.3134,2.428,2.60978
-0.896315,-0.3134,2.428,2.60706
-0.888434,-0.3134,2.428,2.60437
-0.880553,-0.3134,2.428,2.60169
-0.872672,-0.3134,2.428,2.59903
-0.864792,-0.3134,2.428,2.5964
-0.862911,-0.315595,2.445,2.61194
-0.854975,-0.315595,2.445,2.60933
-0.847039,-0.315595,2.445,2.60674
-0.839103,-0.315595,2.445,2.60417
-0.831167,-0.315595,2.445,2.60163
-0.823232,-0.315595,2.445,2.5991
-0.815296,-0.315595,2.445,2.5966
-0.813304,-0.317918,2.463,2.61322
-0.805309,-0.317918,2.463,2.61074
-0.797315,-0.317918,2.463,2.60829
-0.789321,-0.317918,2.463,2.60585
-0.781326,-0.317918,2.463,2.60344
-0.773332,-0.317918,2.463,2.60105
-0.770931,-0.320242,2.481,2.61768
-0.762878,-0.320242,2.481,2.61532
-0.754826,-0.320242,2.481,2.61298
-0.746773,-0.320242,2.481,2.61067
-0.73872,-0.320242,2.481,2.60838
-0.730668,-0.320242,2.481,2.60611
-0.722615,-0.320242,2.481,2.60386
-0.714562,-0.320242,2.481,2.60164
-0.706509,-0.320242,2.481,2.59944
-0.693389,-0.317918,2.463,2.57842
-0.685395,-0.317918,2.463,2.57628
-0.677401,-0.317918,2.463,2.57416
-0.669406,-0.317918,2.463,2.57207
-0.661412,-0.317918,2.463,2.57
-0.658193,-0.320242,2.481,2.58672
-0.65014,-0.320242,2.481,2.58469
-0.642088,-0.320242,2.481,2.58267
-0.634035,-0.320242,2.481,2.58068
-0.625982,-0.320242,2.481,2.57871
-0.61793,-0.320242,2.481,2.57677
-0.609877,-0.320242,2.481,2.57485
-0.601824,-0.320242,2.481,2.57296
-0.593771,-0.320242,2.481,2.57109
-0.589968,-0.322565,2.499,2.58788
-0.581857,-0.322565,2.499,2.58604
-0.573746,-0.322565,2.499,2.58423
-0.565635,-0.322565,2.499,2.58244
-0.557524,-0.322565,2.499,2.58067
-0.55337,-0.324888,2.517,2.59751
-0.5452,-0.324888,2.517,2.59578
-0.537031,-0.324888,2.517,2.59408
-0.532853,-0.327341,2.536,2.61197
-0.524622,-0.327341,2.536,2.6103
-0.516391,-0.327341,2.536,2.60866
-0.50816,-0.327341,2.536,2.60704
-0.499929,-0.327341,2.536,2.60545
-0.491697,-0.327341,2.536,2.60388
-0.483466,-0.327341,2.536,2.60234
-0.478795,-0.329793,2.555,2.62031
-0.467004,-0.327341,2.536,2.59933
-0.458772,-0.327341,2.536,2.59787
-0.450541,-0.327341,2.536,2.59643
-0.438996,-0.324888,2.517,2.57557
-0.430827,-0.324888,2.517,2.57419
-0.422657,-0.324888,2.517,2.57284
-0.414487,-0.324888,2.517,2.57151
-0.406318,-0.324888,2.517,2.5702
-0.395301,-0.322565,2.499,2.55055
-0.38719,-0.322565,2.499,2.54931
-0.379079,-0.322565,2.499,2.54809
-0.370968,-0.322565,2.499,2.54689
-0.362857,-0.322565,2.499,2.54572
-0.35219,-0.320242,2.481,2.52625
-0.344137,-0.320242,2.481,2.52514
-0.336085,-0.320242,2.481,2.52406
-0.328032,-0.320242,2.481,2.523
-0.319979,-0.320242,2.481,2.52196
-0.311927,-0.320242,2.481,2.52096
-0.306079,-0.322565,2.499,2.53825
-0.297967,-0.322565,2.499,2.53729
-0.289856,-0.322565,2.499,2.53635
-0.281745,-0.322565,2.499,2.53543
-0.271663,-0.320242,2.481,2.51629
-0.261698,-0.317918,2.463,2.49718
-0.253704,-0.317918,2.463,2.49636
-0.245709,-0.317918,2.463,2.49556
-0.235978,-0.315595,2.445,2.47655
-0.228042,-0.315595,2.445,2.47581
-0.220106,-0.315595,2.445,2.47509
-0.21217,-0.315595,2.445,2.4744
-0.204234,-0.315595,2.445,2.47373
-0.196298,-0.315595,2.445,2.47309
-0.187053,-0.3134,2.428,2.45528
-0.179172,-0.3134,2.428,2.45469
-0.171292,-0.3134,2.428,2.45413
-0.163411,-0.3134,2.428,2.45359
-0.156619,-0.315595,2.445,2.47025
-0.148683,-0.315595,2.445,2.46976
-0.140747,-0.315595,2.445,2.4693
-0.132812,-0.315595,2.445,2.46886
-0.124876,-0.315595,2.445,2.46844
-0.11694,-0.315595,2.445,2.46806
-0.109004,-0.315595,2.445,2.46769
-0.101812,-0.317918,2.463,2.48552
-0.0938178,-0.317918,2.463,2.4852
-0.0858236,-0.317918,2.463,2.48492
-0.0778293,-0.317918,2.463,2.48465
-0.0703453,-0.320242,2.481,2.50257
-0.0622926,-0.320242,2.481,2.50236
-0.0542399,-0.320242,2.481,2.50217
-0.0465223,-0.322565,2.499,2.52016
-0.0384112,-0.322565,2.499,2.52002
-0.0305183,-0.324888,2.517,2.53806
-0.0223487,-0.324888,2.517,2.53798
-0.0141792,-0.324888,2.517,2.53792
-0.00600962,-0.324888,2.517,2.53789
0.00215994,-0.324888,2.517,2.53788
0.0103295,-0.324888,2.517,2.5379
0.0184991,-0.324888,2.517,2.53795
0.0266686,-0.324888,2.517,2.53802
0.0348382,-0.324888,2.517,2.53812
0.0430077,-0.324888,2.517,2.53825
0.0511773,-0.324888,2.517,2.5384
0.0593468,-0.324888,2.517,2.53858
0.0675164,-0.324888,2.517,2.53878
0.075686,-0.324888,2.517,2.53901
0.0838555,-0.324888,2.517,2.53927
0.0920251,-0.324888,2.517,2.53955
0.100195,-0.324888,2.517,2.53986
0.108364,-0.324888,2.517,2.54019
0.117413,-0.327341,2.536,2.55973
0.125645,-0.327341,2.536,2.56012
0.133876,-0.327341,2.536,2.56054
0.142107,-0.327341,2.536,2.56098
0.150338,-0.327341,2.536,2.56145
0.15857,-0.327341,2.536,2.56195
0.166801,-0.327341,2.536,2.56247
0.175032,-0.327341,2.536,2.56302
0.183263,-0.327341,2.536,2.5636
0.191494,-0.327341,2.536,2.5642
0.199726,-0.327341,2.536,2.56483
0.207957,-0.327341,2.536,2.56548
0.216188,-0.327341,2.536,2.56616
0.224419,-0.327341,2.536,2.56687
0.229256,-0.322565,2.499,2.53014
0.237367,-0.322565,2.499,2.53089
0.245479,-0.322565,2.499,2.53166
0.25359,-0.322565,2.499,2.53246
0.261701,-0.322565,2.499,2.53329
0.269812,-0.322565,2.499,2.53414
0.279925,-0.324888,2.517,2.55327
0.286034,-0.322565,2.499,2.53591
0.294145,-0.322565,2.499,2.53684
0.302256,-0.322565,2.499,2.5378
0.310368,-0.322565,2.499,2.53877
0.318479,-0.322565,2.499,2.53978
0.32659,-0.322565,2.499,2.54081
0.334701,-0.322565,2.499,2.54186
0.342812,-0.322565,2.499,2.54295
0.350923,-0.322565,2.499,2.54405
0.359034,-0.322565,2.499,2.54518
0.367146,-0.322565,2.499,2.54634
0.375257,-0.322565,2.499,2.54752
0.383368,-0.322565,2.499,2.54873
0.391479,-0.322565,2.499,2.54996
0.39959,-0.322565,2.499,2.55122
0.407701,-0.322565,2.499,2.5525
0.415812,-0.322565,2.499,2.55381
0.426977,-0.324888,2.517,2.57355
0.435146,-0.324888,2.517,2.57492
0.443316,-0.324888,2.517,2.57631
0.451486,-0.324888,2.517,2.57773
0.459655,-0.324888,2.517,2.57917
0.467825,-0.324888,2.517,2.58064
0.475994,-0.324888,2.517,2.58213
0.484164,-0.324888,2.517,2.58365
0.492333,-0.324888,2.517,2.5852
0.500503,-0.324888,2.517,2.58676
0.508672,-0.324888,2.517,2.58836
0.516842,-0.324888,2.517,2.58997
0.525012,-0.324888,2.517,2.59162
0.533181,-0.324888,2.517,2.59328
0.541351,-0.324888,2.517,2.59498
0.54559,-0.322565,2.499,2.57812
0.553702,-0.322565,2.499,2.57985
0.561813,-0.322565,2.499,2.5816
0.569924,-0.322565,2.499,2.58338
0.578035,-0.322565,2.499,2.58518
0.590368,-0.324888,2.517,2.60564
0.598538,-0.324888,2.517,2.60751
0.606707,-0.324888,2.517,2.60939
0.614877,-0.324888,2.517,2.61131
0.623046,-0.324888,2.517,2.61324
0.631216,-0.324888,2.517,2.6152
0.639385,-0.324888,2.517,2.61718
0.647555,-0.324888,2.517,2.61919
0.655725,-0.324888,2.517,2.62122
0.663894,-0.324888,2.517,2.62328
0.672064,-0.324888,2.517,2.62536
0.680233,-0.324888,2.517,2.62746
0.688403,-0.324888,2.517,2.62959
0.691591,-0.322565,2.499,2.61292
0.699702,-0.322565,2.499,2.61508
0.707813,-0.322565,2.499,2.61726
0.715924,-0.322565,2.499,2.61947
0.724035,-0.322565,2.499,2.62169
0.732147,-0.322565,2.499,2.62394
0.740258,-0.322565,2.499,2.62622
0.748369,-0.322565,2.499,2.62852
0.75648,-0.322565,2.499,2.63084
0.764591,-0.322565,2.499,2.63318
0.772702,-0.322565,2.499,2.63555
0.780813,-0.322565,2.499,2.63794
0.788924,-0.322565,2.499,2.64035
0.791295,-0.320242,2.481,2.62375
0.799347,-0.320242,2.481,2.62619
0.8074,-0.320242,2.481,2.62865
0.815453,-0.320242,2.481,2.63114
0.82948,-0.322565,2.499,2.65275
0.837591,-0.322565,2.499,2.6553
0.839611,-0.320242,2.481,2.63872
0.847664,-0.320242,2.481,2.6413
0.855716,-0.320242,2.481,2.64389
0.863769,-0.320242,2.481,2.64651
0.871822,-0.320242,2.481,2.64915
0.879874,-0.320242,2.481,2.65181
0.887927,-0.320242,2.481,2.65449
0.889479,-0.317918,2.463,2.63792
0.897474,-0.317918,2.463,2.64062
0.905468,-0.317918,2.463,2.64335
0.913462,-0.317918,2.463,2.6461
0.921457,-0.317918,2.463,2.64887
0.922658,-0.315595,2.445,2.63228
0.930594,-0.315595,2.445,2.63508
0.93853,-0.315595,2.445,2.63789
0.946466,-0.315595,2.445,2.64072
0.954402,-0.315595,2.445,2.64358
0.962338,-0.315595,2.445,2.64645
0.970273,-0.315595,2.445,2.64935
0.978209,-0.315595,2.445,2.65227
0.986145,-0.315595,2.445,2.6552
nan,nan,nan,NaN
1.00202,-0.315595,2.445,2.66114
1.00995,-0.315595,2.445,2.66414
nan,nan,nan,NaN
nan,nan,nan,NaN
nan,nan,nan,NaN
nan,nan,nan,NaN
nan,nan,nan,NaN
nan,nan,nan,NaN
nan,nan,nan,NaN
nan,nan,nan,NaN
nan,nan,nan,NaN
nan,nan,nan,NaN
nan,nan,nan,NaN
nan,nan,nan,NaN
1.4705,-0.416921,3.23,3.57339
1.48098,-0.416921,3.23,3.57771
1.49147,-0.416921,3.23,3.58207
1.50195,-0.416921,3.23,3.58644
1.52648,-0.420793,3.26,3.6242
1.53706,-0.420793,3.26,3.62867
1.56284,-0.424924,3.292,3.66883
1.57352,-0.424924,3.292,3.67339
1.56881,-0.420793,3.26,3.64223
1.57939,-0.420793,3.26,3.6468
1.58997,-0.420793,3.26,3.65139
1.60055,-0.420793,3.26,3.65601
1.65858,-0.433184,3.356,3.76846
1.66947,-0.433184,3.356,3.77326
1.63229,-0.420793,3.26,3.67002
1.64288,-0.420793,3.26,3.67474
1.65346,-0.420793,3.26,3.67948
1.66404,-0.420793,3.26,3.68425
1.69106,-0.424924,3.292,3.72525
1.70174,-0.424924,3.292,3.73011
1.71243,-0.424924,3.292,3.735
1.73986,-0.429054,3.324,3.77627
1.7675,-0.433184,3.356,3.81765
1.7784,-0.433184,3.356,3.82271
1.80688,-0.437444,3.389,3.86542
1.83612,-0.441833,3.423,3.90941
1.84723,-0.441833,3.423,3.91464
1.87734,-0.44635,3.458,3.95998
1.90768,-0.450868,3.493,4.00544
1.9388,-0.455515,3.529,4.05219
1.95025,-0.455515,3.529,4.05769
1.98227,-0.460291,3.566,4.1058
2.0151,-0.465196,3.604,4.15522
2.02679,-0.465196,3.604,4.1609
2.03849,-0.465196,3.604,4.16661
2.07181,-0.470101,3.642,4.21634
2.08363,-0.470101,3.642,4.22216
2.09545,-0.470101,3.642,4.22801
2.10727,-0.470101,3.642,4.23388
2.09698,-0.465196,3.604,4.19554
2.10868,-0.465196,3.604,4.2014
2.07625,-0.455515,3.529,4.11973
2.0877,-0.455515,3.529,4.12551
2.07774,-0.450868,3.493,4.08917
2.04722,-0.441833,3.423,4.01288
2.05833,-0.441833,3.423,4.01856
2.02893,-0.433184,3.356,3.9455
2.00092,-0.424924,3.292,3.87576
2.01161,-0.424924,3.292,3.88129
2.00264,-0.420793,3.26,3.84905
1.97555,-0.412919,3.199,3.78244
1.98593,-0.412919,3.199,3.78788
1.96012,-0.405433,3.141,3.72456
1.93456,-0.398075,3.084,3.66224
1.94457,-0.398075,3.084,3.66754
1.93746,-0.39459,3.057,3.6407
1.91299,-0.38762,3.003,3.58159
1.92273,-0.38762,3.003,3.5868
1.91575,-0.384264,2.977,3.56094
1.9086,-0.380908,2.951,3.535
1.88567,-0.374454,2.901,3.4802
1.89509,-0.374454,2.901,3.48531
1.88875,-0.371356,2.877,3.46156
1.86642,-0.365161,2.829,3.40883
1.8756,-0.365161,2.829,3.41386
1.86946,-0.362192,2.806,3.39112
1.84844,-0.356383,2.761,3.34169
1.8574,-0.356383,2.761,3.34665
1.85149,-0.353544,2.739,3.32493
1.83118,-0.347993,2.696,3.27761
-2.21925,-0.402539,3.199,3.91417
-2.20887,-0.402539,3.199,3.90829
-2.19848,-0.402539,3.199,3.90243
-2.20931,-0.40644,3.23,3.93435
-2.21924,-0.410215,3.26,3.96496
-2.25202,-0.418268,3.324,4.03677
-2.24123,-0.418268,3.324,4.03076
-2.25192,-0.422295,3.356,4.06352
-2.24102,-0.422295,3.356,4.05749
-2.23013,-0.422295,3.356,4.05149
-2.24106,-0.426447,3.389,4.08528
-2.23006,-0.426447,3.389,4.07926
-2.21906,-0.426447,3.389,4.07326
-2.20806,-0.426447,3.389,4.06727
-2.2191,-0.430726,3.423,4.10206
-2.20799,-0.430726,3.423,4.09606
-2.19688,-0.430726,3.423,4.09008
-2.20812,-0.43513,3.458,4.12588
-2.1969,-0.43513,3.458,4.11989
-2.18568,-0.43513,3.458,4.11391
-2.17445,-0.43513,3.458,4.10796
-2.16323,-0.43513,3.458,4.10203
-2.152,-0.43513,3.458,4.09612
-2.14078,-0.43513,3.458,4.09024
-2.12956,-0.43513,3.458,4.08437
-2.11833,-0.43513,3.458,4.07853
-2.10711,-0.43513,3.458,4.07272
-2.09589,-0.43513,3.458,4.06692
-2.08466,-0.43513,3.458,4.06115
-2.07344,-0.43513,3.458,4.0554
-2.06221,-0.43513,3.458,4.04967
nan,nan,nan,NaN
nan,nan,nan,NaN
nan,nan,nan,NaN
nan,nan,nan,NaN
nan,nan,nan,NaN
nan,nan,nan,NaN
nan,nan,nan,NaN
nan,nan,nan,NaN
nan,nan,nan,NaN
nan,nan,nan,NaN
nan,nan,nan,NaN
nan,nan,nan,NaN
nan,nan,nan,NaN
nan,nan,nan,NaN
nan,nan,nan,NaN
nan,nan,nan,NaN
nan,nan,nan,NaN
nan,nan,nan,NaN
nan,nan,nan,NaN
nan,nan,nan,NaN
nan,nan,nan,NaN
nan,nan,nan,NaN
nan,nan,nan,NaN
nan,nan,nan,NaN
nan,nan,nan,NaN
nan,nan,nan,NaN
nan,nan,nan,NaN
nan,nan,nan,NaN
nan,nan,nan,NaN
nan,nan,nan,NaN
nan,nan,nan,NaN
-1.22188,-0.312191,2.481,2.78313
-1.21383,-0.312191,2.481,2.77961
-1.20578,-0.312191,2.481,2.7761
-1.19772,-0.312191,2.481,2.77261
-1.18967,-0.312191,2.481,2.76914
-1.18162,-0.312191,2.481,2.76569
-1.16505,-0.309926,2.463,2.74222
-1.15706,-0.309926,2.463,2.73883
-1.14906,-0.309926,2.463,2.73547
-1.13273,-0.307661,2.445,2.71215
-1.12479,-0.307661,2.445,2.70885
-1.11686,-0.307661,2.445,2.70556
-1.10892,-0.307661,2.445,2.70229
-1.10099,-0.307661,2.445,2.69905
-1.09305,-0.307661,2.445,2.69582
-1.08512,-0.307661,2.445,2.69261
-1.06969,-0.305522,2.428,2.67072
-1.06181,-0.305522,2.428,2.66758
-1.05393,-0.305522,2.428,2.66445
-1.04605,-0.305522,2.428,2.66134
-1.03817,-0.305522,2.428,2.65825
-1.03029,-0.305522,2.428,2.65519
-1.02241,-0.305522,2.428,2.65214
-1.01452,-0.305522,2.428,2.64911
-1.00664,-0.305522,2.428,2.6461
-0.998763,-0.305522,2.428,2.64312
-0.990883,-0.305522,2.428,2.64015
-0.983002,-0.305522,2.428,2.6372
-0.975121,-0.305522,2.428,2.63427
-0.967241,-0.305522,2.428,2.63137
-0.95936,-0.305522,2.428,2.62848
-0.951479,-0.305522,2.428,2.62561
-0.943599,-0.305522,2.428,2.62277
-0.935718,-0.305522,2.428,2.61994
-0.927837,-0.305522,2.428,2.61714
-0.913515,-0.303383,2.411,2.59605
-0.90569,-0.303383,2.411,2.59331
-0.904195,-0.305522,2.428,2.60885
-0.896315,-0.305522,2.428,2.60613
-0.888434,-0.305522,2.428,2.60343
-0.880553,-0.305522,2.428,2.60075
-0.872672,-0.305522,2.428,2.59809
-0.864792,-0.305522,2.428,2.59546
-0.856911,-0.305522,2.428,2.59284
-0.84903,-0.305522,2.428,2.59025
-0.84115,-0.305522,2.428,2.58767
-0.839103,-0.307661,2.445,2.60322
-0.831167,-0.307661,2.445,2.60068
-0.823232,-0.307661,2.445,2.59815
-0.815296,-0.307661,2.445,2.59565
-0.80736,-0.307661,2.445,2.59317
-0.805309,-0.309926,2.463,2.60978
-0.797315,-0.309926,2.463,2.60732
-0.789321,-0.309926,2.463,2.60489
-0.781326,-0.309926,2.463,2.60248
-0.773332,-0.309926,2.463,2.60009
-0.770931,-0.312191,2.481,2.61671
-0.762878,-0.312191,2.481,2.61435
-0.754826,-0.312191,2.481,2.61201
-0.746773,-0.312191,2.481,2.60969
-0.73872,-0.312191,2.481,2.6074
-0.730668,-0.312191,2.481,2.60513
-0.722615,-0.312191,2.481,2.60288
-0.714562,-0.312191,2.481,2.60066
-0.706509,-0.312191,2.481,2.59846
-0.698457,-0.312191,2.481,2.59628
-0.690404,-0.312191,2.481,2.59412
-0.682351,-0.312191,2.481,2.59199
-0.674299,-0.312191,2.481,2.58988
-0.666246,-0.312191,2.481,2.5878
-0.658193,-0.312191,2.481,2.58574
-0.65014,-0.312191,2.481,2.5837
-0.642088,-0.312191,2.481,2.58169
-0.634035,-0.312191,2.481,2.57969
-0.625982,-0.312191,2.481,2.57773
-0.61793,-0.312191,2.481,2.57578
-0.614302,-0.314456,2.499,2.59254
-0.606191,-0.314456,2.499,2.59063
-0.598079,-0.314456,2.499,2.58874
-0.589968,-0.314456,2.499,2.58688
-0.581857,-0.314456,2.499,2.58504
-0.573746,-0.314456,2.499,2.58323
-0.565635,-0.314456,2.499,2.58144
-0.557524,-0.314456,2.499,2.57967
-0.55337,-0.316721,2.517,2.5965
-0.5452,-0.316721,2.517,2.59477
-0.537031,-0.316721,2.517,2.59307
-0.532853,-0.319112,2.536,2.61095
-0.524622,-0.319112,2.536,2.60928
-0.516391,-0.319112,2.536,2.60764
-0.50816,-0.319112,2.536,2.60602
-0.499929,-0.319112,2.536,2.60443
-0.491697,-0.319112,2.536,2.60286
-0.483466,-0.319112,2.536,2.60132
-0.478795,-0.321503,2.555,2.61928
-0.467004,-0.319112,2.536,2.59831
-0.455335,-0.316721,2.517,2.57739
-0.447166,-0.316721,2.517,2.57596
-0.438996,-0.316721,2.517,2.57455
-0.430827,-0.316721,2.517,2.57317
-0.422657,-0.316721,2.517,2.57182
-0.414487,-0.316721,2.517,2.57049
-0.403412,-0.314456,2.499,2.55081
-0.395301,-0.314456,2.499,2.54954
-0.38719,-0.314456,2.499,2.54829
-0.376348,-0.312191,2.481,2.52873
-0.368296,-0.312191,2.481,2.52754
-0.360243,-0.312191,2.481,2.52638
-0.35219,-0.312191,2.481,2.52525
-0.344137,-0.312191,2.481,2.52413
-0.336085,-0.312191,2.481,2.52305
-0.328032,-0.312191,2.481,2.52199
-0.319979,-0.312191,2.481,2.52095
-0.311927,-0.312191,2.481,2.51995
-0.306079,-0.314456,2.499,2.53724
-0.295821,-0.312191,2.481,2.518
-0.287769,-0.312191,2.481,2.51707
-0.279716,-0.312191,2.481,2.51616
-0.271663,-0.312191,2.481,2.51528
-0.261698,-0.309926,2.463,2.49618
-0.253704,-0.309926,2.463,2.49535
-0.243914,-0.307661,2.445,2.47632
-0.235978,-0.307661,2.445,2.47555
-0.228042,-0.307661,2.445,2.47481
-0.220106,-0.307661,2.445,2.47409
-0.21217,-0.307661,2.445,2.4734
-0.204234,-0.307661,2.445,2.47273
-0.196298,-0.307661,2.445,2.47209
-0.188363,-0.307661,2.445,2.47147
-0.180427,-0.307661,2.445,2.47088
-0.172491,-0.307661,2.445,2.47031
-0.164555,-0.307661,2.445,2.46977
-0.156619,-0.307661,2.445,2.46925
-0.148683,-0.307661,2.445,2.46876
-0.140747,-0.307661,2.445,2.4683
-0.132812,-0.307661,2.445,2.46786
-0.124876,-0.307661,2.445,2.46744
-0.11694,-0.307661,2.445,2.46705
-0.109004,-0.307661,2.445,2.46669
-0.101812,-0.309926,2.463,2.48451
-0.0938178,-0.309926,2.463,2.48419
-0.0858236,-0.309926,2.463,2.48391
-0.0778293,-0.309926,2.463,2.48364
-0.0703453,-0.312191,2.481,2.50155
-0.0622926,-0.312191,2.481,2.50134
-0.0542399,-0.312191,2.481,2.50115
-0.0465223,-0.314456,2.499,2.51914
-0.0384112,-0.314456,2.499,2.519
-0.0305183,-0.316721,2.517,2.53703
-0.0223487,-0.316721,2.517,2.53695
-0.0141792,-0.316721,2.517,2.53689
-0.00600962,-0.316721,2.517,2.53686
0.00215994,-0.316721,2.517,2.53685
0.0103295,-0.316721,2.517,2.53687
0.0184991,-0.316721,2.517,2.53692
0.0266686,-0.316721,2.517,2.53699
0.0348382,-0.316721,2.517,2.53709
0.0430077,-0.316721,2.517,2.53721
0.0511773,-0.316721,2.517,2.53736
0.0593468,-0.316721,2.517,2.53754
0.0675164,-0.316721,2.517,2.53775
0.075686,-0.316721,2.517,2.53798
0.0838555,-0.316721,2.517,2.53823
0.0920251,-0.316721,2.517,2.53852
0.100195,-0.316721,2.517,2.53883
0.108364,-0.316721,2.517,2.53916
0.117413,-0.319112,2.536,2.55869
0.125645,-0.319112,2.536,2.55908
0.133876,-0.319112,2.536,2.5595
0.142107,-0.319112,2.536,2.55995
0.150338,-0.319112,2.536,2.56042
0.15857,-0.319112,2.536,2.56091
0.166801,-0.319112,2.536,2.56144
0.175032,-0.319112,2.536,2.56198
0.183263,-0.319112,2.536,2.56256
0.191494,-0.319112,2.536,2.56316
0.199726,-0.319112,2.536,2.56379
0.207957,-0.319112,2.536,2.56444
0.216188,-0.319112,2.536,2.56512
0.224419,-0.319112,2.536,2.56583
0.229256,-0.314456,2.499,2.52912
0.237367,-0.314456,2.499,2.52987
0.245479,-0.314456,2.499,2.53064
0.25359,-0.314456,2.499,2.53144
0.261701,-0.314456,2.499,2.53227
0.267868,-0.312191,2.481,2.51487
0.275921,-0.312191,2.481,2.51574
0.283974,-0.312191,2.481,2.51664
0.292027,-0.312191,2.481,2.51756
0.300079,-0.312191,2.481,2.51851
0.308132,-0.312191,2.481,2.51948
0.316185,-0.312191,2.481,2.52048
0.324237,-0.312191,2.481,2.5215
0.33229,-0.312191,2.481,2.52255
0.340343,-0.312191,2.481,2.52362
0.348396,-0.312191,2.481,2.52472
0.356448,-0.312191,2.481,2.52584
0.364501,-0.312191,2.481,2.52699
0.372554,-0.312191,2.481,2.52817
0.380606,-0.312191,2.481,2.52936
0.388659,-0.312191,2.481,2.53059
0.396712,-0.312191,2.481,2.53184
0.404765,-0.312191,2.481,2.53311
0.412817,-0.312191,2.481,2.53441
0.42087,-0.312191,2.481,2.53574
0.432035,-0.314456,2.499,2.55549
0.440146,-0.314456,2.499,2.55688
0.448257,-0.314456,2.499,2.55828
0.456368,-0.314456,2.499,2.55972
0.464479,-0.314456,2.499,2.56118
0.47259,-0.314456,2.499,2.56266
0.480701,-0.314456,2.499,2.56417
0.488812,-0.314456,2.499,2.5657
0.496924,-0.314456,2.499,2.56726
0.505035,-0.314456,2.499,2.56884
0.513146,-0.314456,2.499,2.57045
0.521257,-0.314456,2.499,2.57208
0.529368,-0.314456,2.499,2.57374
0.537479,-0.314456,2.499,2.57542
0.54559,-0.314456,2.499,2.57712
0.553702,-0.314456,2.499,2.57885
0.561813,-0.314456,2.499,2.5806
0.569924,-0.314456,2.499,2.58238
0.578035,-0.314456,2.499,2.58418
0.586146,-0.314456,2.499,2.58601
0.594257,-0.314456,2.499,2.58786
0.602368,-0.314456,2.499,2.58974
0.610479,-0.314456,2.499,2.59163
0.618591,-0.314456,2.499,2.59356
0.626702,-0.314456,2.499,2.5955
0.634813,-0.314456,2.499,2.59747
0.642924,-0.314456,2.499,2.59947
0.651035,-0.314456,2.499,2.60149
0.659146,-0.314456,2.499,2.60353
0.667257,-0.314456,2.499,2.60559
0.675369,-0.314456,2.499,2.60768
0.68348,-0.314456,2.499,2.60979
0.691591,-0.314456,2.499,2.61193
0.699702,-0.314456,2.499,2.61409
0.707813,-0.314456,2.499,2.61627
0.715924,-0.314456,2.499,2.61848
