0.0182345,-0.449049,2.481,2.52138
0.0262872,-0.449049,2.481,2.52145
0.0343399,-0.449049,2.481,2.52154
0.0423926,-0.449049,2.481,2.52167
0.0504453,-0.449049,2.481,2.52182
0.058498,-0.449049,2.481,2.52199
0.0665507,-0.449049,2.481,2.52219
0.0746034,-0.449049,2.481,2.52241
0.0826561,-0.449049,2.481,2.52267
0.0907089,-0.449049,2.481,2.52294
0.0987616,-0.449049,2.481,2.52324
0.106814,-0.449049,2.481,2.52357
0.114867,-0.449049,2.481,2.52393
0.12292,-0.449049,2.481,2.52431
0.130972,-0.449049,2.481,2.52471
0.139025,-0.449049,2.481,2.52514
0.147078,-0.449049,2.481,2.5256
0.155131,-0.449049,2.481,2.52608
0.163183,-0.449049,2.481,2.52659
0.171236,-0.449049,2.481,2.52712
0.179289,-0.449049,2.481,2.52768
0.188701,-0.452306,2.499,2.5466
0.198229,-0.455564,2.517,2.56557
0.206399,-0.455564,2.517,2.56621
0.214568,-0.455564,2.517,2.56688
0.222738,-0.455564,2.517,2.56757
0.229256,-0.452306,2.499,2.54993
0.237367,-0.452306,2.499,2.55067
0.245479,-0.452306,2.499,2.55144
0.25359,-0.452306,2.499,2.55223
0.263586,-0.455564,2.517,2.57144
0.271755,-0.455564,2.517,2.57229
0.279925,-0.455564,2.517,2.57317
0.288094,-0.455564,2.517,2.57407
0.296264,-0.455564,2.517,2.575
0.304434,-0.455564,2.517,2.57595
0.312603,-0.455564,2.517,2.57693
0.320773,-0.455564,2.517,2.57793
0.328942,-0.455564,2.517,2.57896
0.337112,-0.455564,2.517,2.58001
0.345281,-0.455564,2.517,2.58109
0.353451,-0.455564,2.517,2.5822
0.36162,-0.455564,2.517,2.58333
0.36979,-0.455564,2.517,2.58449
0.37796,-0.455564,2.517,2.58567
0.389044,-0.459003,2.536,2.6064
0.397275,-0.459003,2.536,2.60764
0.405506,-0.459003,2.536,2.60891
0.413738,-0.459003,2.536,2.6102
0.421969,-0.459003,2.536,2.61152
0.4302,-0.459003,2.536,2.61286
0.438431,-0.459003,2.536,2.61423
0.446662,-0.459003,2.536,2.61562
0.454894,-0.459003,2.536,2.61704
0.463125,-0.459003,2.536,2.61849
0.471356,-0.459003,2.536,2.61995
0.479587,-0.459003,2.536,2.62145
0.487819,-0.459003,2.536,2.62297
0.49605,-0.459003,2.536,2.62451
0.504281,-0.459003,2.536,2.62608
0.508672,-0.455564,2.517,2.60798
0.516842,-0.455564,2.517,2.60959
0.525012,-0.455564,2.517,2.61122
0.533181,-0.455564,2.517,2.61287
0.541351,-0.455564,2.517,2.61455
0.54952,-0.455564,2.517,2.61626
0.55769,-0.455564,2.517,2.61799
0.565859,-0.455564,2.517,2.61974
0.574029,-0.455564,2.517,2.62151
0.582199,-0.455564,2.517,2.62332
0.594824,-0.459003,2.536,2.64496
0.603056,-0.459003,2.536,2.64682
0.611287,-0.459003,2.536,2.64871
0.62416,-0.462442,2.555,2.67048
0.632453,-0.462442,2.555,2.67243
0.640746,-0.462442,2.555,2.6744
0.649038,-0.462442,2.555,2.6764
0.662219,-0.465881,2.574,2.69834
0.670574,-0.465881,2.574,2.70041
0.678929,-0.465881,2.574,2.70249
0.687283,-0.465881,2.574,2.7046
0.695638,-0.465881,2.574,2.70674
0.703992,-0.465881,2.574,2.7089
0.712347,-0.465881,2.574,2.71108
0.720701,-0.465881,2.574,2.71329
0.729056,-0.465881,2.574,2.71552
0.737411,-0.465881,2.574,2.71777
0.745765,-0.465881,2.574,2.72005
0.75412,-0.465881,2.574,2.72236
0.762474,-0.465881,2.574,2.72468
0.770829,-0.465881,2.574,2.72703
0.779183,-0.465881,2.574,2.7294
0.787538,-0.465881,2.574,2.7318
0.790018,-0.462442,2.555,2.71404
0.798311,-0.462442,2.555,2.71646
0.806603,-0.462442,2.555,2.71891
0.814896,-0.462442,2.555,2.72138
0.823189,-0.462442,2.555,2.72388
0.831482,-0.462442,2.555,2.7264
0.83353,-0.459003,2.536,2.70864
0.841761,-0.459003,2.536,2.71119
0.849993,-0.459003,2.536,2.71376
0.858224,-0.459003,2.536,2.71634
0.866455,-0.459003,2.536,2.71896
0.874686,-0.459003,2.536,2.72159
0.876303,-0.455564,2.517,2.70384
0.884472,-0.455564,2.517,2.7065
0.892642,-0.455564,2.517,2.70918
0.900811,-0.455564,2.517,2.71188
0.90248,-0.452306,2.499,2.69519
0.910591,-0.452306,2.499,2.69792
0.918703,-0.452306,2.499,2.70067
0.926814,-0.452306,2.499,2.70344
0.934925,-0.452306,2.499,2.70623
0.936243,-0.449049,2.481,2.68953
0.944296,-0.449049,2.481,2.69234
0.959258,-0.452306,2.499,2.71473
0.960401,-0.449049,2.481,2.69803
0.961428,-0.445791,2.463,2.68131
0.969422,-0.445791,2.463,2.68419
nan,nan,nan,NaN
nan,nan,nan,NaN
nan,nan,nan,NaN
nan,nan,nan,NaN
nan,nan,nan,NaN
nan,nan,nan,NaN
nan,nan,nan,NaN
nan,nan,nan,NaN
nan,nan,nan,NaN
nan,nan,nan,NaN
nan,nan,nan,NaN
nan,nan,nan,NaN
1.28601,-0.534116,2.951,3.26305
1.29559,-0.534116,2.951,3.26684
1.30517,-0.534116,2.951,3.27065
1.32633,-0.538822,2.977,3.30333
1.33599,-0.538822,2.977,3.30723
1.34566,-0.538822,2.977,3.31114
1.35532,-0.538822,2.977,3.31508
1.3769,-0.543528,3.003,3.34803
1.38665,-0.543528,3.003,3.35205
1.3964,-0.543528,3.003,3.35609
1.40614,-0.543528,3.003,3.36016
1.41589,-0.543528,3.003,3.36425
1.42564,-0.543528,3.003,3.36836
1.43538,-0.543528,3.003,3.3725
1.44513,-0.543528,3.003,3.37666
1.45488,-0.543528,3.003,3.38084
1.46463,-0.543528,3.003,3.38505
1.47437,-0.543528,3.003,3.38928
1.48412,-0.543528,3.003,3.39353
1.49387,-0.543528,3.003,3.3978
1.51713,-0.548415,3.03,3.43269
1.52697,-0.548415,3.03,3.43705
1.52311,-0.543528,3.003,3.41076
1.53285,-0.543528,3.003,3.41512
1.5426,-0.543528,3.003,3.41951
1.55235,-0.543528,3.003,3.42392
1.59019,-0.553302,3.057,3.49
1.65925,-0.573754,3.17,3.6237
nan,nan,nan,NaN
nan,nan,nan,NaN
1.82501,-0.619546,3.423,3.92829
1.83612,-0.619546,3.423,3.93346
1.84723,-0.619546,3.423,3.93866
1.87734,-0.625881,3.458,3.98421
1.92734,-0.638731,3.529,4.07142
1.9388,-0.638731,3.529,4.07686
1.95025,-0.638731,3.529,4.08232
1.96171,-0.638731,3.529,4.0878
1.97316,-0.638731,3.529,4.09331
1.98461,-0.638731,3.529,4.09884
1.97571,-0.632216,3.493,4.06253
1.98704,-0.632216,3.493,4.06806
1.95833,-0.619546,3.423,3.99197
1.96944,-0.619546,3.423,3.99743
1.98055,-0.619546,3.423,4.00292
1.97188,-0.613392,3.389,3.96861
1.98288,-0.613392,3.389,3.97409
1.99388,-0.613392,3.389,3.97959
1.98536,-0.607419,3.356,3.94631
1.97722,-0.601627,3.324,3.91412
1.96887,-0.595836,3.292,3.88185
1.97955,-0.595836,3.292,3.88728
1.97089,-0.590044,3.26,3.85489
1.96324,-0.584614,3.23,3.82478
1.97372,-0.584614,3.23,3.83018
1.96516,-0.579003,3.199,3.79878
1.93973,-0.568505,3.141,3.73519
1.94992,-0.568505,3.141,3.74049
1.92455,-0.558189,3.084,3.67784
1.88375,-0.543528,3.003,3.58635
1.89349,-0.543528,3.003,3.59148
1.87028,-0.534116,2.951,3.53435
1.84801,-0.525066,2.901,3.47946
1.85743,-0.525066,2.901,3.48447
1.83595,-0.516379,2.853,3.43176
1.81482,-0.507872,2.806,3.38011
1.82392,-0.507872,2.806,3.38501
1.80364,-0.499727,2.761,3.33556
1.78371,-0.491763,2.717,3.28718
1.79253,-0.491763,2.717,3.29197
1.78743,-0.487963,2.696,3.2713
1.79618,-0.487963,2.696,3.27609
1.79087,-0.484162,2.675,3.25534
1.79955,-0.484162,2.675,3.26013
1.80823,-0.484162,2.675,3.26493
1.80265,-0.480361,2.654,3.24407
-2.26157,-0.579466,3.26,4.00975
-2.27308,-0.585154,3.292,4.04309
-2.2624,-0.585154,3.292,4.03709
-2.2736,-0.590842,3.324,4.0703
-2.2846,-0.59653,3.356,4.10341
-2.29606,-0.602395,3.389,4.13764
-2.28506,-0.602395,3.389,4.13155
-2.27406,-0.602395,3.389,4.12548
-2.26306,-0.602395,3.389,4.11942
-2.25206,-0.602395,3.389,4.11339
-2.26355,-0.608439,3.423,4.14859
-2.25243,-0.608439,3.423,4.14253
-2.24132,-0.608439,3.423,4.1365
-2.23021,-0.608439,3.423,4.13049
-2.24179,-0.61466,3.458,4.16668
-2.23057,-0.61466,3.458,4.16065
-2.21935,-0.61466,3.458,4.15464
-2.23047,-0.620881,3.493,4.19065
-2.21914,-0.620881,3.493,4.18463
-2.2078,-0.620881,3.493,4.17863
-2.19646,-0.620881,3.493,4.17265
-2.20764,-0.62728,3.529,4.20963
-2.19619,-0.62728,3.529,4.20364
-2.18474,-0.62728,3.529,4.19767
-2.17328,-0.62728,3.529,4.19171
-2.16183,-0.62728,3.529,4.18579
-2.12844,-0.620881,3.493,4.13724
-2.1171,-0.620881,3.493,4.13142
-2.10576,-0.620881,3.493,4.12562
-2.09442,-0.620881,3.493,4.11985
-2.08309,-0.620881,3.493,4.1141
nan,nan,nan,NaN
nan,nan,nan,NaN
nan,nan,nan,NaN
nan,nan,nan,NaN
nan,nan,nan,NaN
nan,nan,nan,NaN
nan,nan,nan,NaN
nan,nan,nan,NaN
nan,nan,nan,NaN
nan,nan,nan,NaN
nan,nan,nan,NaN
nan,nan,nan,NaN
nan,nan,nan,NaN
nan,nan,nan,NaN
nan,nan,nan,NaN
nan,nan,nan,NaN
nan,nan,nan,NaN
nan,nan,nan,NaN
nan,nan,nan,NaN
nan,nan,nan,NaN
nan,nan,nan,NaN
nan,nan,nan,NaN
nan,nan,nan,NaN
nan,nan,nan,NaN
nan,nan,nan,NaN
nan,nan,nan,NaN
nan,nan,nan,NaN
nan,nan,nan,NaN
nan,nan,nan,NaN
nan,nan,nan,NaN
nan,nan,nan,NaN
nan,nan,nan,NaN
nan,nan,nan,NaN
-1.12413,-0.411136,2.313,2.60436
-1.11662,-0.411136,2.313,2.60112
-1.10911,-0.411136,2.313,2.59791
-1.10161,-0.411136,2.313,2.59471
-1.0941,-0.411136,2.313,2.59154
-1.08659,-0.411136,2.313,2.58837
-1.07908,-0.411136,2.313,2.58523
-1.07899,-0.41398,2.329,2.59997
-1.07143,-0.41398,2.329,2.59684
-1.06387,-0.41398,2.329,2.59373
-1.05631,-0.41398,2.329,2.59064
-1.04875,-0.41398,2.329,2.58757
-1.04835,-0.416824,2.345,2.60227
-1.04073,-0.416824,2.345,2.59921
-1.03312,-0.416824,2.345,2.59617
-1.02551,-0.416824,2.345,2.59315
-1.0179,-0.416824,2.345,2.59015
-1.01029,-0.416824,2.345,2.58717
-1.00268,-0.416824,2.345,2.58421
-1.00186,-0.419668,2.361,2.59888
-0.994193,-0.419668,2.361,2.59593
-0.986529,-0.419668,2.361,2.59301
-0.978866,-0.419668,2.361,2.5901
-0.971203,-0.419668,2.361,2.58721
-0.96354,-0.419668,2.361,2.58435
-0.955876,-0.419668,2.361,2.5815
-0.948213,-0.419668,2.361,2.57867
-0.94055,-0.419668,2.361,2.57586
-0.926565,-0.416824,2.345,2.55564
-0.918953,-0.416824,2.345,2.55289
-0.911342,-0.416824,2.345,2.55016
-0.897565,-0.41398,2.329,2.53007
-0.890005,-0.41398,2.329,2.5274
-0.882446,-0.41398,2.329,2.52474
-0.874887,-0.41398,2.329,2.52211
-0.867327,-0.41398,2.329,2.5195
-0.859768,-0.41398,2.329,2.51691
-0.852209,-0.41398,2.329,2.51433
-0.844649,-0.41398,2.329,2.51178
-0.83709,-0.41398,2.329,2.50925
-0.829531,-0.41398,2.329,2.50674
-0.821971,-0.41398,2.329,2.50425
-0.814412,-0.41398,2.329,2.50178
-0.806852,-0.41398,2.329,2.49933
-0.799293,-0.41398,2.329,2.4969
-0.791734,-0.41398,2.329,2.49449
-0.784174,-0.41398,2.329,2.4921
-0.776615,-0.41398,2.329,2.48973
-0.774339,-0.416824,2.345,2.50447
-0.766728,-0.416824,2.345,2.50213
-0.759116,-0.416824,2.345,2.4998
-0.751505,-0.416824,2.345,2.4975
-0.743894,-0.416824,2.345,2.49522
-0.736283,-0.416824,2.345,2.49297
-0.733643,-0.419668,2.361,2.50772
-0.72598,-0.419668,2.361,2.50549
-0.718317,-0.419668,2.361,2.50328
-0.715469,-0.422512,2.377,2.51804
-0.712816,-0.425534,2.394,2.53386
-0.705046,-0.425534,2.394,2.53168
-0.697275,-0.425534,2.394,2.52953
-0.689505,-0.425534,2.394,2.5274
-0.686576,-0.428556,2.411,2.54322
-0.67875,-0.428556,2.411,2.54112
-0.670925,-0.428556,2.411,2.53904
-0.663099,-0.428556,2.411,2.53698
-0.655274,-0.428556,2.411,2.53495
-0.647448,-0.428556,2.411,2.53294
-0.639623,-0.428556,2.411,2.53095
-0.631797,-0.428556,2.411,2.52898
-0.623972,-0.428556,2.411,2.52704
-0.616146,-0.428556,2.411,2.52512
-0.608321,-0.428556,2.411,2.52322
-0.600495,-0.428556,2.411,2.52134
-0.59267,-0.428556,2.411,2.51949
-0.584844,-0.428556,2.411,2.51766
-0.577019,-0.428556,2.411,2.51586
-0.569193,-0.428556,2.411,2.51407
-0.561368,-0.428556,2.411,2.51231
-0.553542,-0.428556,2.411,2.51058
-0.541869,-0.425534,2.394,2.49117
-0.534098,-0.425534,2.394,2.48949
-0.526328,-0.425534,2.394,2.48784
-0.518558,-0.425534,2.394,2.48621
-0.510787,-0.425534,2.394,2.4846
-0.503017,-0.425534,2.394,2.48301
-0.495247,-0.425534,2.394,2.48145
-0.487476,-0.425534,2.394,2.47991
-0.479706,-0.425534,2.394,2.47839
-0.471936,-0.425534,2.394,2.4769
-0.464165,-0.425534,2.394,2.47543
-0.456395,-0.425534,2.394,2.47399
-0.448625,-0.425534,2.394,2.47257
-0.440854,-0.425534,2.394,2.47117
-0.433084,-0.425534,2.394,2.46979
-0.425314,-0.425534,2.394,2.46844
-0.417543,-0.425534,2.394,2.46712
-0.409773,-0.425534,2.394,2.46581
-0.402003,-0.425534,2.394,2.46453
-0.394232,-0.425534,2.394,2.46328
-0.389206,-0.428556,2.411,2.47953
-0.381381,-0.428556,2.411,2.47831
-0.373555,-0.428556,2.411,2.47712
-0.36573,-0.428556,2.411,2.47595
-0.357904,-0.428556,2.411,2.47481
-0.350079,-0.428556,2.411,2.47369
-0.342253,-0.428556,2.411,2.47259
-0.334428,-0.428556,2.411,2.47152
-0.326602,-0.428556,2.411,2.47048
-0.318777,-0.428556,2.411,2.46945
-0.310951,-0.428556,2.411,2.46846
-0.303126,-0.428556,2.411,2.46748
-0.2953,-0.428556,2.411,2.46653
-0.289502,-0.431577,2.428,2.48299
-0.281621,-0.431577,2.428,2.48209
-0.27374,-0.431577,2.428,2.4812
-0.26586,-0.431577,2.428,2.48035
-0.256173,-0.428556,2.411,2.46215
-0.248347,-0.428556,2.411,2.46135
-0.240522,-0.428556,2.411,2.46058
-0.232696,-0.428556,2.411,2.45982
-0.224871,-0.428556,2.411,2.4591
-0.215515,-0.425534,2.394,2.44106
-0.207745,-0.425534,2.394,2.44038
-0.199974,-0.425534,2.394,2.43973
-0.192204,-0.425534,2.394,2.43911
-0.184434,-0.425534,2.394,2.43851
-0.176663,-0.425534,2.394,2.43793
-0.167694,-0.422512,2.377,2.42008
-0.159978,-0.422512,2.377,2.41955
-0.152263,-0.422512,2.377,2.41906
-0.145582,-0.425534,2.394,2.43588
-0.137812,-0.425534,2.394,2.43543
-0.130041,-0.425534,2.394,2.435
-0.122271,-0.425534,2.394,2.4346
-0.114501,-0.425534,2.394,2.43422
-0.10673,-0.425534,2.394,2.43387
-0.0989599,-0.425534,2.394,2.43354
-0.0911896,-0.425534,2.394,2.43323
-0.0834192,-0.425534,2.394,2.43296
-0.0761861,-0.428556,2.411,2.44998
-0.0688426,-0.431577,2.428,2.46702
-0.0609619,-0.431577,2.428,2.46681
-0.0534529,-0.434599,2.445,2.4839
-0.045517,-0.434599,2.445,2.48374
-0.0375812,-0.434599,2.445,2.48361
-0.0298635,-0.437799,2.463,2.50179
-0.0218693,-0.437799,2.463,2.5017
-0.013875,-0.437799,2.463,2.50165
-0.00588068,-0.437799,2.463,2.50161
0.00212905,-0.440998,2.481,2.51989
0.0101818,-0.440998,2.481,2.51991
0.0182345,-0.440998,2.481,2.51996
0.0262872,-0.440998,2.481,2.52003
0.0343399,-0.440998,2.481,2.52012
0.0423926,-0.440998,2.481,2.52025
0.0504453,-0.440998,2.481,2.52039
0.058498,-0.440998,2.481,2.52057
0.0665507,-0.440998,2.481,2.52077
0.0740622,-0.437799,2.463,2.5027
0.0820565,-0.437799,2.463,2.50295
0.0900507,-0.437799,2.463,2.50323
0.098045,-0.437799,2.463,2.50353
0.106039,-0.437799,2.463,2.50385
0.114867,-0.440998,2.481,2.52251
0.12292,-0.440998,2.481,2.52289
0.130972,-0.440998,2.481,2.52329
0.139025,-0.440998,2.481,2.52372
0.147078,-0.440998,2.481,2.52418
0.155131,-0.440998,2.481,2.52466
0.163183,-0.440998,2.481,2.52517
0.171236,-0.440998,2.481,2.5257
0.179289,-0.440998,2.481,2.52626
0.187341,-0.440998,2.481,2.52684
0.198229,-0.447397,2.517,2.56413
0.206399,-0.447397,2.517,2.56477
0.214568,-0.447397,2.517,2.56544
0.222738,-0.447397,2.517,2.56614
0.229256,-0.444198,2.499,2.5485
0.237367,-0.444198,2.499,2.54925
0.245479,-0.444198,2.499,2.55001
0.25359,-0.444198,2.499,2.55081
0.261701,-0.444198,2.499,2.55163
0.269812,-0.444198,2.499,2.55247
0.277923,-0.444198,2.499,2.55334
0.288094,-0.447397,2.517,2.57264
0.296264,-0.447397,2.517,2.57356
0.304434,-0.447397,2.517,2.57452
0.312603,-0.447397,2.517,2.5755
0.320773,-0.447397,2.517,2.5765
0.328942,-0.447397,2.517,2.57753
0.337112,-0.447397,2.517,2.57858
0.345281,-0.447397,2.517,2.57967
0.353451,-0.447397,2.517,2.58077
0.36162,-0.447397,2.517,2.5819
0.36979,-0.447397,2.517,2.58306
0.37796,-0.447397,2.517,2.58424
0.389044,-0.450774,2.536,2.60497
0.397275,-0.450774,2.536,2.60621
0.405506,-0.450774,2.536,2.60748
0.413738,-0.450774,2.536,2.60877
0.421969,-0.450774,2.536,2.61009
0.4302,-0.450774,2.536,2.61143
0.438431,-0.450774,2.536,2.6128
0.446662,-0.450774,2.536,2.61419
0.454894,-0.450774,2.536,2.61561
0.463125,-0.450774,2.536,2.61706
0.471356,-0.450774,2.536,2.61852
0.479587,-0.450774,2.536,2.62002
0.487819,-0.450774,2.536,2.62154
0.49605,-0.450774,2.536,2.62308
0.504281,-0.450774,2.536,2.62465
0.508672,-0.447397,2.517,2.60657
0.516842,-0.447397,2.517,2.60818
0.525012,-0.447397,2.517,2.60981
0.533181,-0.447397,2.517,2.61146
0.541351,-0.447397,2.517,2.61314
0.54952,-0.447397,2.517,2.61485
0.55769,-0.447397,2.517,2.61658
0.565859,-0.447397,2.517,2.61833
0.574029,-0.447397,2.517,2.62011
0.582199,-0.447397,2.517,2.62191
0.594824,-0.450774,2.536,2.64354
0.603056,-0.450774,2.536,2.64541
0.611287,-0.450774,2.536,2.64729
0.62416,-0.454152,2.555,2.66905
0.632453,-0.454152,2.555,2.67101
0.640746,-0.454152,2.555,2.67298
0.649038,-0.454152,2.555,2.67498
0.662219,-0.457529,2.574,2.69691
0.670574,-0.457529,2.574,2.69898
0.678929,-0.457529,2.574,2.70107
0.687283,-0.457529,2.574,2.70318
0.700773,-0.460906,2.593,2.72528
0.709189,-0.460906,2.593,2.72746
0.717605,-0.460906,2.593,2.72966
0.726021,-0.460906,2.593,2.73188
0.729056,-0.457529,2.574,2.7141
0.737411,-0.457529,2.574,2.71635
0.745765,-0.457529,2.574,2.71863
0.75412,-0.457529,2.574,2.72094
0.762474,-0.457529,2.574,2.72327
0.770829,-0.457529,2.574,2.72562
0.779183,-0.457529,2.574,2.72799
0.787538,-0.457529,2.574,2.73039
0.790018,-0.454152,2.555,2.71264
0.798311,-0.454152,2.555,2.71507
0.806603,-0.454152,2.555,2.71751
0.808836,-0.450774,2.536,2.69976
0.817068,-0.450774,2.536,2.70224
0.825299,-0.450774,2.536,2.70474
0.83353,-0.450774,2.536,2.70726
0.841761,-0.450774,2.536,2.70981
0.843624,-0.447397,2.517,2.69205
0.851794,-0.447397,2.517,2.69463
0.859963,-0.447397,2.517,2.69722
0.868133,-0.447397,2.517,2.69984
0.876303,-0.447397,2.517,2.70247
0.878147,-0.444198,2.499,2.68579
0.886258,-0.444198,2.499,2.68845
0.894369,-0.444198,2.499,2.69114
0.90248,-0.444198,2.499,2.69384
0.910591,-0.444198,2.499,2.69657
0.918703,-0.444198,2.499,2.69932
0.920138,-0.440998,2.481,2.68263
0.928191,-0.440998,2.481,2.6854
0.936243,-0.440998,2.481,2.6882
0.944296,-0.440998,2.481,2.69101
0.952349,-0.440998,2.481,2.69385
0.953434,-0.437799,2.463,2.67714
0.961428,-0.437799,2.463,2.68
0.969422,-0.437799,2.463,2.68287
0.977417,-0.437799,2.463,2.68577
0.985411,-0.437799,2.463,2.68869
nan,nan,nan,NaN
nan,nan,nan,NaN
nan,nan,nan,NaN
nan,nan,nan,NaN
nan,nan,nan,NaN
nan,nan,nan,NaN
nan,nan,nan,NaN
nan,nan,nan,NaN
nan,nan,nan,NaN
1.21372,-0.498767,2.806,3.09766
1.22282,-0.498767,2.806,3.10124
1.29559,-0.524541,2.951,3.26529
1.30517,-0.524541,2.951,3.2691
1.31475,-0.524541,2.951,3.27294
1.32433,-0.524541,2.951,3.27679
1.3339,-0.524541,2.951,3.28068
1.34348,-0.524541,2.951,3.28458
1.36498,-0.529162,2.977,3.31749
1.37464,-0.529162,2.977,3.32147
1.38431,-0.529162,2.977,3.32548
1.39397,-0.529162,2.977,3.32952
1.40363,-0.529162,2.977,3.33358
1.41329,-0.529162,2.977,3.33766
1.42296,-0.529162,2.977,3.34176
1.44513,-0.533784,3.003,3.37511
1.45488,-0.533784,3.003,3.37929
1.46463,-0.533784,3.003,3.3835
1.47437,-0.533784,3.003,3.38773
1.48412,-0.533784,3.003,3.39198
1.49387,-0.533784,3.003,3.39626
1.51713,-0.538583,3.03,3.43113
1.52697,-0.538583,3.03,3.43549
1.52311,-0.533784,3.003,3.40922
1.53285,-0.533784,3.003,3.41359
1.5426,-0.533784,3.003,3.41798
1.55235,-0.533784,3.003,3.42239
1.59019,-0.543382,3.057,3.48844
1.65925,-0.563468,3.17,3.62209
nan,nan,nan,NaN
nan,nan,nan,NaN
1.82501,-0.608439,3.423,3.92655
1.83612,-0.608439,3.423,3.93173
1.84723,-0.608439,3.423,3.93693
1.87734,-0.61466,3.458,3.98246
1.92734,-0.62728,3.529,4.06964
1.9388,-0.62728,3.529,4.07508
1.95025,-0.62728,3.529,4.08054
1.96171,-0.62728,3.529,4.08603
1.97316,-0.62728,3.529,4.09154
1.98461,-0.62728,3.529,4.09707
1.97571,-0.620881,3.493,4.06078
1.98704,-0.620881,3.493,4.06631
1.95833,-0.608439,3.423,3.99026
1.96944,-0.608439,3.423,3.99573
1.98055,-0.608439,3.423,4.00122
1.97188,-0.602395,3.389,3.96693
1.98288,-0.602395,3.389,3.97241
1.99388,-0.602395,3.389,3.97791
1.98536,-0.59653,3.356,3.94465
1.97722,-0.590842,3.324,3.91247
1.96887,-0.585154,3.292,3.88022
1.97955,-0.585154,3.292,3.88565
1.97089,-0.579466,3.26,3.85328
1.96324,-0.574133,3.23,3.8232
1.97372,-0.574133,3.23,3.82859
1.96516,-0.568623,3.199,3.79721
1.93973,-0.558313,3.141,3.73365
1.94992,-0.558313,3.141,3.73896
1.92455,-0.548182,3.084,3.67634
1.88375,-0.533784,3.003,3.58489
1.89349,-0.533784,3.003,3.59002
1.90324,-0.533784,3.003,3.59517
1.84801,-0.515653,2.901,3.47805
1.85743,-0.515653,2.901,3.48306
1.83595,-0.507121,2.853,3.43038
1.81482,-0.498767,2.806,3.37875
1.82392,-0.498767,2.806,3.38365
1.80364,-0.490768,2.761,3.33423
1.78371,-0.482947,2.717,3.28587
1.79253,-0.482947,2.717,3.29067
1.78743,-0.479214,2.696,3.27001
1.79618,-0.479214,2.696,3.2748
1.79087,-0.475482,2.675,3.25406
1.79955,-0.475482,2.675,3.25885
1.80823,-0.475482,2.675,3.26365
1.80265,-0.471749,2.654,3.24281
-2.26157,-0.568887,3.26,4.00823
-2.27308,-0.574472,3.292,4.04156
-2.2624,-0.574472,3.292,4.03556
-2.25171,-0.574472,3.292,4.02958
-2.26281,-0.580056,3.324,4.06273
-2.2737,-0.58564,3.356,4.09578
-2.26281,-0.58564,3.356,4.08975
-2.27406,-0.591399,3.389,4.12389
-2.26306,-0.591399,3.389,4.11783
-2.25206,-0.591399,3.389,4.11179
-2.24106,-0.591399,3.389,4.10578
-2.23006,-0.591399,3.389,4.09979
-2.21906,-0.591399,3.389,4.09381
-2.23021,-0.597332,3.423,4.12887
-2.24179,-0.603439,3.458,4.16504
-2.23057,-0.603439,3.458,4.15901
-2.21935,-0.603439,3.458,4.153
-2.20812,-0.603439,3.458,4.14701
-2.21914,-0.609547,3.493,4.18296
-2.2078,-0.609547,3.493,4.17696
-2.19646,-0.609547,3.493,4.17098
-2.18512,-0.609547,3.493,4.16502
-2.17379,-0.609547,3.493,4.15908
-2.18474,-0.615829,3.529,4.19597
-2.15111,-0.609547,3.493,4.14727
-2.13977,-0.609547,3.493,4.1414
-2.12844,-0.609547,3.493,4.13556
-2.1171,-0.609547,3.493,4.12973
-2.10576,-0.609547,3.493,4.12393
-2.07344,-0.603439,3.458,4.07689
-2.06221,-0.603439,3.458,4.0712
nan,nan,nan,NaN
nan,nan,nan,NaN
nan,nan,nan,NaN
nan,nan,nan,NaN
nan,nan,nan,NaN
nan,nan,nan,NaN
nan,nan,nan,NaN
nan,nan,nan,NaN
nan,nan,nan,NaN
nan,nan,nan,NaN
nan,nan,nan,NaN
nan,nan,nan,NaN
nan,nan,nan,NaN
nan,nan,nan,NaN
nan,nan,nan,NaN
nan,nan,nan,NaN
nan,nan,nan,NaN
nan,nan,nan,NaN
nan,nan,nan,NaN
nan,nan,nan,NaN
nan,nan,nan,NaN
nan,nan,nan,NaN
nan,nan,nan,NaN
nan,nan,nan,NaN
nan,nan,nan,NaN
nan,nan,nan,NaN
nan,nan,nan,NaN
nan,nan,nan,NaN
nan,nan,nan,NaN
nan,nan,nan,NaN
nan,nan,nan,NaN
nan,nan,nan,NaN
nan,nan,nan,NaN
-1.12413,-0.403631,2.313,2.60318
-1.11662,-0.403631,2.313,2.59995
-1.10911,-0.403631,2.313,2.59673
-1.10161,-0.403631,2.313,2.59354
-1.0941,-0.403631,2.313,2.59036
-1.09411,-0.406423,2.329,2.60509
-1.08655,-0.406423,2.329,2.60192
-1.07899,-0.406423,2.329,2.59878
-1.07143,-0.406423,2.329,2.59565
-1.06387,-0.406423,2.329,2.59254
-1.05631,-0.406423,2.329,2.58944
-1.05596,-0.409215,2.345,2.60414
-1.04835,-0.409215,2.345,2.60106
-1.04073,-0.409215,2.345,2.598
-1.03312,-0.409215,2.345,2.59496
-1.02551,-0.409215,2.345,2.59194
-1.0179,-0.409215,2.345,2.58894
-1.01029,-0.409215,2.345,2.58596
-1.00952,-0.412007,2.361,2.60062
-1.00186,-0.412007,2.361,2.59765
-0.994193,-0.412007,2.361,2.5947
-0.986529,-0.412007,2.361,2.59178
-0.978866,-0.412007,2.361,2.58887
-0.971203,-0.412007,2.361,2.58598
-0.96354,-0.412007,2.361,2.58311
-0.955876,-0.412007,2.361,2.58027
-0.948213,-0.412007,2.361,2.57744
-0.94055,-0.412007,2.361,2.57463
-0.926565,-0.409215,2.345,2.55441
-0.918953,-0.409215,2.345,2.55166
-0.911342,-0.409215,2.345,2.54893
-0.903731,-0.409215,2.345,2.54622
-0.89612,-0.409215,2.345,2.54352
-0.888508,-0.409215,2.345,2.54085
-0.874887,-0.406423,2.329,2.52088
-0.867327,-0.406423,2.329,2.51827
-0.859768,-0.406423,2.329,2.51568
-0.852209,-0.406423,2.329,2.5131
-0.844649,-0.406423,2.329,2.51055
-0.83709,-0.406423,2.329,2.50802
-0.829531,-0.406423,2.329,2.5055
-0.821971,-0.406423,2.329,2.50301
-0.814412,-0.406423,2.329,2.50054
-0.806852,-0.406423,2.329,2.49809
-0.799293,-0.406423,2.329,2.49565
-0.791734,-0.406423,2.329,2.49324
-0.784174,-0.406423,2.329,2.49085
-0.776615,-0.406423,2.329,2.48848
-0.774339,-0.409215,2.345,2.50321
-0.766728,-0.409215,2.345,2.50087
-0.759116,-0.409215,2.345,2.49855
-0.751505,-0.409215,2.345,2.49625
-0.743894,-0.409215,2.345,2.49396
-0.736283,-0.409215,2.345,2.49171
-0.733643,-0.412007,2.361,2.50645
-0.72598,-0.412007,2.361,2.50422
-0.718317,-0.412007,2.361,2.50201
-0.715469,-0.414799,2.377,2.51676
-0.712816,-0.417766,2.394,2.53256
-0.705046,-0.417766,2.394,2.53039
-0.697275,-0.417766,2.394,2.52823
-0.689505,-0.417766,2.394,2.5261
-0.686576,-0.420732,2.411,2.54191
-0.67875,-0.420732,2.411,2.53981
-0.670925,-0.420732,2.411,2.53773
-0.663099,-0.420732,2.411,2.53567
-0.655274,-0.420732,2.411,2.53364
-0.647448,-0.420732,2.411,2.53163
-0.639623,-0.420732,2.411,2.52964
-0.631797,-0.420732,2.411,2.52767
-0.623972,-0.420732,2.411,2.52572
-0.616146,-0.420732,2.411,2.5238
-0.608321,-0.420732,2.411,2.5219
-0.600495,-0.420732,2.411,2.52003
-0.59267,-0.420732,2.411,2.51817
-0.584844,-0.420732,2.411,2.51634
-0.577019,-0.420732,2.411,2.51454
-0.569193,-0.420732,2.411,2.51275
-0.561368,-0.420732,2.411,2.51099
-0.553542,-0.420732,2.411,2.50925
-0.541869,-0.417766,2.394,2.48986
-0.534098,-0.417766,2.394,2.48818
-0.526328,-0.417766,2.394,2.48652
-0.52224,-0.420732,2.411,2.50253
-0.510787,-0.417766,2.394,2.48328
-0.503017,-0.417766,2.394,2.48169
-0.495247,-0.417766,2.394,2.48013
-0.487476,-0.417766,2.394,2.47859
-0.479706,-0.417766,2.394,2.47707
-0.471936,-0.417766,2.394,2.47558
-0.464165,-0.417766,2.394,2.47411
-0.456395,-0.417766,2.394,2.47266
-0.448625,-0.417766,2.394,2.47124
-0.440854,-0.417766,2.394,2.46984
-0.433084,-0.417766,2.394,2.46847
-0.425314,-0.417766,2.394,2.46711
-0.417543,-0.417766,2.394,2.46579
-0.406863,-0.414799,2.377,2.44698
-0.399148,-0.414799,2.377,2.44571
-0.391433,-0.414799,2.377,2.44446
-0.386462,-0.417766,2.394,2.46071
-0.378692,-0.417766,2.394,2.45951
-0.370921,-0.417766,2.394,2.45832
-0.36573,-0.420732,2.411,2.47461
-0.357904,-0.420732,2.411,2.47347
-0.350079,-0.420732,2.411,2.47235
-0.342253,-0.420732,2.411,2.47125
-0.334428,-0.420732,2.411,2.47018
-0.326602,-0.420732,2.411,2.46913
-0.318777,-0.420732,2.411,2.46811
-0.310951,-0.420732,2.411,2.46711
-0.303126,-0.420732,2.411,2.46614
-0.2953,-0.420732,2.411,2.46519
-0.289502,-0.423699,2.428,2.48164
-0.281621,-0.423699,2.428,2.48073
-0.27374,-0.423699,2.428,2.47985
-0.26586,-0.423699,2.428,2.47899
-0.256173,-0.420732,2.411,2.4608
-0.248347,-0.420732,2.411,2.46
-0.240522,-0.420732,2.411,2.45922
-0.232696,-0.420732,2.411,2.45847
-0.224871,-0.420732,2.411,2.45774
-0.215515,-0.417766,2.394,2.43972
-0.207745,-0.417766,2.394,2.43904
-0.199974,-0.417766,2.394,2.43839
-0.192204,-0.417766,2.394,2.43777
-0.184434,-0.417766,2.394,2.43717
-0.176663,-0.417766,2.394,2.43659
-0.167694,-0.414799,2.377,2.41874
-0.159978,-0.414799,2.377,2.41822
-0.152263,-0.414799,2.377,2.41772
-0.144548,-0.414799,2.377,2.41725
-0.136833,-0.414799,2.377,2.4168
-0.130041,-0.417766,2.394,2.43365
-0.122271,-0.417766,2.394,2.43325
-0.114501,-0.417766,2.394,2.43287
-0.10673,-0.417766,2.394,2.43252
-0.0989599,-0.417766,2.394,2.43219
-0.0911896,-0.417766,2.394,2.43189
-0.0834192,-0.417766,2.394,2.43161
-0.0761861,-0.420732,2.411,2.44862
-0.0688426,-0.423699,2.428,2.46565
-0.0609619,-0.423699,2.428,2.46545
-0.0530812,-0.423699,2.428,2.46526
-0.045517,-0.426666,2.445,2.48237
-0.0375812,-0.426666,2.445,2.48223
-0.0296453,-0.426666,2.445,2.48213
-0.0218693,-0.429807,2.463,2.50032
-0.013875,-0.429807,2.463,2.50026
-0.00588068,-0.429807,2.463,2.50023
0.00212905,-0.432948,2.481,2.51849
0.0101818,-0.432948,2.481,2.51851
0.0182345,-0.432948,2.481,2.51856
0.0262872,-0.432948,2.481,2.51863
0.0343399,-0.432948,2.481,2.51873
0.0423926,-0.432948,2.481,2.51885
0.0504453,-0.432948,2.481,2.519
0.058498,-0.432948,2.481,2.51917
0.0660679,-0.429807,2.463,2.50109
0.0740622,-0.429807,2.463,2.50132
0.0820565,-0.429807,2.463,2.50157
0.0900507,-0.429807,2.463,2.50184
0.098045,-0.429807,2.463,2.50214
0.106039,-0.429807,2.463,2.50247
0.114867,-0.432948,2.481,2.52111
0.12292,-0.432948,2.481,2.52149
0.130972,-0.432948,2.481,2.5219
0.139025,-0.432948,2.481,2.52233
0.147078,-0.432948,2.481,2.52278
0.155131,-0.432948,2.481,2.52327
0.163183,-0.432948,2.481,2.52377
0.171236,-0.432948,2.481,2.52431
0.179289,-0.432948,2.481,2.52487
0.187341,-0.432948,2.481,2.52545
0.198229,-0.43923,2.517,2.56271
0.206399,-0.43923,2.517,2.56336
0.214568,-0.43923,2.517,2.56403
0.222738,-0.43923,2.517,2.56473
0.230908,-0.43923,2.517,2.56545
0.237367,-0.436089,2.499,2.54785
0.245479,-0.436089,2.499,2.54861
0.25359,-0.436089,2.499,2.54941
0.261701,-0.436089,2.499,2.55023
0.269812,-0.436089,2.499,2.55107
0.277923,-0.436089,2.499,2.55194
0.288094,-0.43923,2.517,2.57123
0.296264,-0.43923,2.517,2.57216
0.304434,-0.43923,2.517,2.57311
0.312603,-0.43923,2.517,2.57409
0.320773,-0.43923,2.517,2.57509
0.328942,-0.43923,2.517,2.57612
0.337112,-0.43923,2.517,2.57718
0.345281,-0.43923,2.517,2.57826
0.353451,-0.43923,2.517,2.57937
0.36162,-0.43923,2.517,2.5805
0.36979,-0.43923,2.517,2.58166
0.380813,-0.442546,2.536,2.60234
0.389044,-0.442546,2.536,2.60355
0.397275,-0.442546,2.536,2.6048
0.405506,-0.442546,2.536,2.60607
0.413738,-0.442546,2.536,2.60736
0.421969,-0.442546,2.536,2.60868
0.4302,-0.442546,2.536,2.61002
0.438431,-0.442546,2.536,2.61139
0.446662,-0.442546,2.536,2.61279
0.454894,-0.442546,2.536,2.61421
0.466595,-0.445861,2.555,2.63525
0.474888,-0.445861,2.555,2.63673
0.479587,-0.442546,2.536,2.61862
0.487819,-0.442546,2.536,2.62014
0.49605,-0.442546,2.536,2.62168
0.504281,-0.442546,2.536,2.62325
0.508672,-0.43923,2.517,2.60518
0.516842,-0.43923,2.517,2.60679
0.525012,-0.43923,2.517,2.60842
0.533181,-0.43923,2.517,2.61008
0.541351,-0.43923,2.517,2.61176
0.54952,-0.43923,2.517,2.61346
0.55769,-0.43923,2.517,2.61519
0.565859,-0.43923,2.517,2.61695
0.574029,-0.43923,2.517,2.61873
0.582199,-0.43923,2.517,2.62053
0.594824,-0.442546,2.536,2.64215
0.603056,-0.442546,2.536,2.64402
0.611287,-0.442546,2.536,2.64591
0.62416,-0.445861,2.555,2.66766
0.632453,-0.445861,2.555,2.66961
0.640746,-0.445861,2.555,2.67159
0.649038,-0.445861,2.555,2.67359
0.662219,-0.449177,2.574,2.69551
0.670574,-0.449177,2.574,2.69757
0.678929,-0.449177,2.574,2.69966
0.687283,-0.449177,2.574,2.70178
0.695638,-0.449177,2.574,2.70391
0.703992,-0.449177,2.574,2.70607
0.712347,-0.449177,2.574,2.70826
0.720701,-0.449177,2.574,2.71047
0.729056,-0.449177,2.574,2.7127
0.737411,-0.449177,2.574,2.71496
0.745765,-0.449177,2.574,2.71724
0.75412,-0.449177,2.574,2.71955
0.762474,-0.449177,2.574,2.72187
0.770829,-0.449177,2.574,2.72423
0.779183,-0.449177,2.574,2.7266
0.787538,-0.449177,2.574,2.729
0.790018,-0.445861,2.555,2.71126
0.798311,-0.445861,2.555,2.71369
0.806603,-0.445861,2.555,2.71614
0.808836,-0.442546,2.536,2.6984
0.817068,-0.442546,2.536,2.70088
0.825299,-0.442546,2.536,2.70338
0.83353,-0.442546,2.536,2.7059
0.841761,-0.442546,2.536,2.70845
0.843624,-0.43923,2.517,2.69071
0.851794,-0.43923,2.517,2.69328
0.859963,-0.43923,2.517,2.69588
0.868133,-0.43923,2.517,2.69849
0.876303,-0.43923,2.517,2.70113
0.878147,-0.436089,2.499,2.68446
0.886258,-0.436089,2.499,2.68712
0.894369,-0.436089,2.499,2.68981
0.90248,-0.436089,2.499,2.69252
0.910591,-0.436089,2.499,2.69525
0.918703,-0.436089,2.499,2.698
0.920138,-0.432948,2.481,2.68132
0.928191,-0.432948,2.481,2.68409
0.936243,-0.432948,2.481,2.68689
0.944296,-0.432948,2.481,2.6897
0.952349,-0.432948,2.481,2.69254
0.953434,-0.429807,2.463,2.67584
0.961428,-0.429807,2.463,2.6787
0.969422,-0.429807,2.463,2.68158
0.977417,-0.429807,2.463,2.68448
0.985411,-0.429807,2.463,2.6874
nan,nan,nan,NaN
nan,nan,nan,NaN
nan,nan,nan,NaN
nan,nan,nan,NaN
nan,nan,nan,NaN
nan,nan,nan,NaN
nan,nan,nan,NaN
nan,nan,nan,NaN
nan,nan,nan,NaN
1.21372,-0.489662,2.806,3.09621
1.22282,-0.489662,2.806,3.09979
1.29559,-0.514965,2.951,3.26376
1.30517,-0.514965,2.951,3.26758
1.31475,-0.514965,2.951,3.27141
1.32433,-0.514965,2.951,3.27528
1.3339,-0.514965,2.951,3.27916
1.34348,-0.514965,2.951,3.28307
1.36498,-0.519502,2.977,3.31596
1.37464,-0.519502,2.977,3.31995
1.38431,-0.519502,2.977,3.32396
1.39397,-0.519502,2.977,3.328
1.40363,-0.519502,2.977,3.33206
1.41329,-0.519502,2.977,3.33614
1.42296,-0.519502,2.977,3.34024
1.44513,-0.52404,3.003,3.37358
1.45488,-0.52404,3.003,3.37777
1.46463,-0.52404,3.003,3.38198
1.47437,-0.52404,3.003,3.38621
1.48412,-0.52404,3.003,3.39046
1.49387,-0.52404,3.003,3.39474
1.50361,-0.52404,3.003,3.39904
1.51336,-0.52404,3.003,3.40336
1.52311,-0.52404,3.003,3.40771
1.53285,-0.52404,3.003,3.41208
1.5426,-0.52404,3.003,3.41647
1.55235,-0.52404,3.003,3.42088
1.59019,-0.533463,3.057,3.48691
1.64408,-0.548121,3.141,3.58738
nan,nan,nan,NaN
1.76144,-0.580056,3.324,3.80633
1.77223,-0.580056,3.324,3.81133
1.81788,-0.591399,3.389,3.89099
1.82888,-0.591399,3.389,3.89614
1.87734,-0.603439,3.458,3.98074
1.90768,-0.609547,3.493,4.02639
1.91902,-0.609547,3.493,4.03178
1.93036,-0.609547,3.493,4.03719
1.96171,-0.615829,3.529,4.08428
1.97316,-0.615829,3.529,4.0898
1.96437,-0.609547,3.493,4.05356
1.95591,-0.603439,3.458,4.01839
1.96713,-0.603439,3.458,4.02387
1.95833,-0.597332,3.423,3.98858
1.94988,-0.591399,3.389,3.95438
1.96088,-0.591399,3.389,3.95981
1.97188,-0.591399,3.389,3.96527
1.96357,-0.58564,3.356,3.93209
1.97447,-0.58564,3.356,3.93754
1.98536,-0.58564,3.356,3.94301
1.97722,-0.580056,3.324,3.91086
1.96887,-0.574472,3.292,3.87862
1.96031,-0.568887,3.26,3.8463
1.97089,-0.568887,3.26,3.85171
1.96324,-0.563652,3.23,3.82164
1.97372,-0.563652,3.23,3.82703
1.96516,-0.558243,3.199,3.79567
1.93973,-0.548121,3.141,3.73214
1.94992,-0.548121,3.141,3.73745
1.9077,-0.533463,3.057,3.64268
1.86744,-0.519502,2.977,3.55243
1.8771,-0.519502,2.977,3.55752
1.85444,-0.510603,2.926,3.50159
1.83272,-0.502052,2.877,3.44791
1.84206,-0.502052,2.877,3.45288
1.82051,-0.493676,2.829,3.40018
1.79994,-0.485648,2.783,3.34974
1.80897,-0.485648,2.783,3.3546
1.78926,-0.47797,2.739,3.30636
1.78371,-0.474131,2.717,3.28459
1.79253,-0.474131,2.717,3.28938
1.78743,-0.470466,2.696,3.26874
1.78218,-0.466802,2.675,3.24803
1.79087,-0.466802,2.675,3.2528
1.79955,-0.466802,2.675,3.25759
1.80823,-0.466802,2.675,3.2624
1.80265,-0.463137,2.654,3.24157
-2.26157,-0.558309,3.26,4.00674
-2.25099,-0.558309,3.26,4.00078
-2.24041,-0.558309,3.26,3.99484
-2.25171,-0.56379,3.292,4.02807
-2.24103,-0.56379,3.292,4.02211
-2.25202,-0.56927,3.324,4.0552
-2.24123,-0.56927,3.324,4.04922
-2.25192,-0.57475,3.356,4.08218
-2.24102,-0.57475,3.356,4.07618
-2.23013,-0.57475,3.356,4.0702
-2.24106,-0.580402,3.389,4.10421
-2.23006,-0.580402,3.389,4.09821
-2.21906,-0.580402,3.389,4.09224
-2.23021,-0.586225,3.423,4.12728
-2.2191,-0.586225,3.423,4.12129
-2.23057,-0.592219,3.458,4.15739
-2.21935,-0.592219,3.458,4.15138
-2.20812,-0.592219,3.458,4.14539
-2.21914,-0.598213,3.493,4.18132
-2.2078,-0.598213,3.493,4.17532
-2.19646,-0.598213,3.493,4.16933
-2.18512,-0.598213,3.493,4.16337
-2.17379,-0.598213,3.493,4.15743
-2.16245,-0.598213,3.493,4.15152
-2.15111,-0.598213,3.493,4.14562
-2.13977,-0.598213,3.493,4.13975
-2.12844,-0.598213,3.493,4.1339
-2.09589,-0.592219,3.458,4.08671
-2.08466,-0.592219,3.458,4.08097
-2.07344,-0.592219,3.458,4.07525
-2.06221,-0.592219,3.458,4.06955
nan,nan,nan,NaN
nan,nan,nan,NaN
nan,nan,nan,NaN
nan,nan,nan,NaN
nan,nan,nan,NaN
nan,nan,nan,NaN
nan,nan,nan,NaN
nan,nan,nan,NaN
nan,nan,nan,NaN
nan,nan,nan,NaN
nan,nan,nan,NaN
nan,nan,nan,NaN
nan,nan,nan,NaN
nan,nan,nan,NaN
nan,nan,nan,NaN
nan,nan,nan,NaN
nan,nan,nan,NaN
nan,nan,nan,NaN
nan,nan,nan,NaN
nan,nan,nan,NaN
nan,nan,nan,NaN
nan,nan,nan,NaN
nan,nan,nan,NaN
nan,nan,nan,NaN
nan,nan,nan,NaN
nan,nan,nan,NaN
nan,nan,nan,NaN
nan,nan,nan,NaN
nan,nan,nan,NaN
nan,nan,nan,NaN
nan,nan,nan,NaN
nan,nan,nan,NaN
nan,nan,nan,NaN
-1.12413,-0.396126,2.313,2.60203
-1.11662,-0.396126,2.313,2.59879
-1.10911,-0.396126,2.313,2.59558
-1.10161,-0.396126,2.313,2.59238
-1.0941,-0.396126,2.313,2.5892
-1.09411,-0.398866,2.329,2.60392
-1.08655,-0.398866,2.329,2.60075
-1.07899,-0.398866,2.329,2.59761
-1.07143,-0.398866,2.329,2.59447
-1.06387,-0.398866,2.329,2.59136
-1.05631,-0.398866,2.329,2.58827
-1.05596,-0.401606,2.345,2.60295
-1.04835,-0.401606,2.345,2.59987
-1.04073,-0.401606,2.345,2.59681
-1.03312,-0.401606,2.345,2.59377
-1.03251,-0.404346,2.361,2.60843
-1.02485,-0.404346,2.361,2.6054
-1.01718,-0.404346,2.361,2.6024
-1.00952,-0.404346,2.361,2.59941
-1.00186,-0.404346,2.361,2.59645
-0.994193,-0.404346,2.361,2.5935
-0.986529,-0.404346,2.361,2.59057
-0.9855,-0.407086,2.377,2.6052
-0.971203,-0.404346,2.361,2.58477
-0.96354,-0.404346,2.361,2.5819
-0.955876,-0.404346,2.361,2.57905
-0.948213,-0.404346,2.361,2.57622
-0.94055,-0.404346,2.361,2.57341
-0.932887,-0.404346,2.361,2.57062
-0.925224,-0.404346,2.361,2.56785
-0.91756,-0.404346,2.361,2.5651
-0.903731,-0.401606,2.345,2.545
-0.89612,-0.401606,2.345,2.54231
-0.888508,-0.401606,2.345,2.53964
-0.874887,-0.398866,2.329,2.51967
-0.867327,-0.398866,2.329,2.51706
-0.859768,-0.398866,2.329,2.51447
-0.852209,-0.398866,2.329,2.51189
-0.844649,-0.398866,2.329,2.50934
-0.83709,-0.398866,2.329,2.5068
-0.829531,-0.398866,2.329,2.50429
-0.821971,-0.398866,2.329,2.50179
-0.814412,-0.398866,2.329,2.49932
-0.806852,-0.398866,2.329,2.49687
-0.799293,-0.398866,2.329,2.49443
-0.791734,-0.398866,2.329,2.49202
-0.784174,-0.398866,2.329,2.48963
-0.776615,-0.398866,2.329,2.48726
-0.774339,-0.401606,2.345,2.50198
-0.766728,-0.401606,2.345,2.49964
-0.759116,-0.401606,2.345,2.49731
-0.751505,-0.401606,2.345,2.49501
-0.743894,-0.401606,2.345,2.49273
-0.736283,-0.401606,2.345,2.49047
-0.733643,-0.404346,2.361,2.5052
-0.72598,-0.404346,2.361,2.50297
-0.718317,-0.404346,2.361,2.50076
-0.715469,-0.407086,2.377,2.5155
-0.707754,-0.407086,2.377,2.51332
-0.700039,-0.407086,2.377,2.51116
-0.697275,-0.409998,2.394,2.52696
-0.689505,-0.409998,2.394,2.52483
-0.681735,-0.409998,2.394,2.52272
-0.673964,-0.409998,2.394,2.52063
-0.670925,-0.412909,2.411,2.53645
-0.663099,-0.412909,2.411,2.53439
-0.655274,-0.412909,2.411,2.53235
-0.647448,-0.412909,2.411,2.53034
-0.639623,-0.412909,2.411,2.52835
-0.631797,-0.412909,2.411,2.52638
-0.623972,-0.412909,2.411,2.52443
-0.616146,-0.412909,2.411,2.52251
-0.608321,-0.412909,2.411,2.52061
-0.600495,-0.412909,2.411,2.51873
-0.59267,-0.412909,2.411,2.51688
-0.584844,-0.412909,2.411,2.51505
-0.577019,-0.412909,2.411,2.51324
-0.569193,-0.412909,2.411,2.51145
-0.561368,-0.412909,2.411,2.50969
-0.553542,-0.412909,2.411,2.50795
-0.541869,-0.409998,2.394,2.48856
-0.534098,-0.409998,2.394,2.48688
-0.526328,-0.409998,2.394,2.48523
-0.52224,-0.412909,2.411,2.50123
-0.510787,-0.409998,2.394,2.48198
-0.503017,-0.409998,2.394,2.4804
-0.495247,-0.409998,2.394,2.47883
-0.487476,-0.409998,2.394,2.47729
-0.479706,-0.409998,2.394,2.47577
-0.471936,-0.409998,2.394,2.47428
-0.464165,-0.409998,2.394,2.47281
-0.456395,-0.409998,2.394,2.47136
-0.448625,-0.409998,2.394,2.46994
-0.440854,-0.409998,2.394,2.46854
-0.433084,-0.409998,2.394,2.46716
-0.425314,-0.409998,2.394,2.46581
-0.417543,-0.409998,2.394,2.46448
-0.406863,-0.407086,2.377,2.44569
-0.399148,-0.407086,2.377,2.44442
-0.391433,-0.407086,2.377,2.44317
-0.386462,-0.409998,2.394,2.45941
-0.378692,-0.409998,2.394,2.4582
-0.370921,-0.409998,2.394,2.45701
-0.363151,-0.409998,2.394,2.45585
-0.355381,-0.409998,2.394,2.45472
-0.34761,-0.409998,2.394,2.4536
-0.33984,-0.409998,2.394,2.45251
-0.33207,-0.409998,2.394,2.45145
-0.326602,-0.412909,2.411,2.46781
-0.318777,-0.412909,2.411,2.46679
-0.310951,-0.412909,2.411,2.46579
-0.303126,-0.412909,2.411,2.46481
-0.2953,-0.412909,2.411,2.46386
-0.287475,-0.412909,2.411,2.46294
-0.279649,-0.412909,2.411,2.46204
-0.271824,-0.412909,2.411,2.46116
-0.263998,-0.412909,2.411,2.46031
-0.256173,-0.412909,2.411,2.45948
-0.248347,-0.412909,2.411,2.45868
-0.240522,-0.412909,2.411,2.4579
-0.232696,-0.412909,2.411,2.45715
-0.224871,-0.412909,2.411,2.45642
-0.215515,-0.409998,2.394,2.4384
-0.207745,-0.409998,2.394,2.43772
-0.199974,-0.409998,2.394,2.43707
-0.192204,-0.409998,2.394,2.43645
-0.184434,-0.409998,2.394,2.43585
-0.176663,-0.409998,2.394,2.43527
-0.168893,-0.409998,2.394,2.43472
-0.159978,-0.407086,2.377,2.41691
-0.152263,-0.407086,2.377,2.41641
-0.144548,-0.407086,2.377,2.41594
-0.136833,-0.407086,2.377,2.41549
-0.129118,-0.407086,2.377,2.41506
-0.122271,-0.409998,2.394,2.43193
-0.114501,-0.409998,2.394,2.43155
-0.10673,-0.409998,2.394,2.4312
-0.0989599,-0.409998,2.394,2.43087
-0.0911896,-0.409998,2.394,2.43057
-0.0840116,-0.412909,2.411,2.44754
-0.0761861,-0.412909,2.411,2.44729
-0.0688426,-0.41582,2.428,2.46431
-0.0609619,-0.41582,2.428,2.4641
-0.0530812,-0.41582,2.428,2.46392
-0.045517,-0.418732,2.445,2.48101
-0.0375812,-0.418732,2.445,2.48088
-0.0296453,-0.418732,2.445,2.48077
-0.0218693,-0.421815,2.463,2.49895
-0.013875,-0.421815,2.463,2.4989
-0.00588068,-0.421815,2.463,2.49887
0.00212905,-0.424897,2.481,2.51712
0.0101818,-0.424897,2.481,2.51714
0.0182345,-0.424897,2.481,2.51719
0.0262872,-0.424897,2.481,2.51726
0.0343399,-0.424897,2.481,2.51736
0.0423926,-0.424897,2.481,2.51748
0.0504453,-0.424897,2.481,2.51763
0.058498,-0.424897,2.481,2.5178
0.0660679,-0.421815,2.463,2.49973
0.0740622,-0.421815,2.463,2.49996
0.0826561,-0.424897,2.481,2.51848
0.0907089,-0.424897,2.481,2.51876
0.0987616,-0.424897,2.481,2.51906
0.106814,-0.424897,2.481,2.51939
0.114867,-0.424897,2.481,2.51974
0.12292,-0.424897,2.481,2.52012
0.130972,-0.424897,2.481,2.52053
0.139025,-0.424897,2.481,2.52096
0.147078,-0.424897,2.481,2.52141
0.155131,-0.424897,2.481,2.5219
0.163183,-0.424897,2.481,2.52241
0.171236,-0.424897,2.481,2.52294
0.179289,-0.424897,2.481,2.5235
0.188701,-0.42798,2.499,2.5424
0.198229,-0.431063,2.517,2.56133
0.206399,-0.431063,2.517,2.56197
0.214568,-0.431063,2.517,2.56264
0.222738,-0.431063,2.517,2.56334
0.230908,-0.431063,2.517,2.56406
0.239077,-0.431063,2.517,2.56481
0.247247,-0.431063,2.517,2.56559
0.25359,-0.42798,2.499,2.54803
0.261701,-0.42798,2.499,2.54885
0.269812,-0.42798,2.499,2.5497
0.277923,-0.42798,2.499,2.55057
0.288094,-0.431063,2.517,2.56984
0.296264,-0.431063,2.517,2.57077
0.304434,-0.431063,2.517,2.57173
0.312603,-0.431063,2.517,2.57271
0.320773,-0.431063,2.517,2.57371
0.328942,-0.431063,2.517,2.57474
0.337112,-0.431063,2.517,2.5758
0.345281,-0.431063,2.517,2.57688
0.353451,-0.431063,2.517,2.57799
0.36162,-0.431063,2.517,2.57912
0.372581,-0.434317,2.536,2.59976
0.380813,-0.434317,2.536,2.60095
0.389044,-0.434317,2.536,2.60217
0.397275,-0.434317,2.536,2.60341
0.405506,-0.434317,2.536,2.60468
0.413738,-0.434317,2.536,2.60597
0.421969,-0.434317,2.536,2.60729
0.4302,-0.434317,2.536,2.60864
0.438431,-0.434317,2.536,2.61001
0.446662,-0.434317,2.536,2.6114
0.458302,-0.437571,2.555,2.6324
0.466595,-0.437571,2.555,2.63386
0.474888,-0.437571,2.555,2.63534
0.479587,-0.434317,2.536,2.61724
0.487819,-0.434317,2.536,2.61876
0.49605,-0.434317,2.536,2.6203
0.504281,-0.434317,2.536,2.62187
0.512512,-0.434317,2.536,2.62347
0.520743,-0.434317,2.536,2.62509
0.525012,-0.431063,2.517,2.60706
0.533181,-0.431063,2.517,2.60871
0.541351,-0.431063,2.517,2.6104
0.54952,-0.431063,2.517,2.6121
0.55769,-0.431063,2.517,2.61383
0.565859,-0.431063,2.517,2.61559
0.574029,-0.431063,2.517,2.61737
0.582199,-0.431063,2.517,2.61917
0.594824,-0.434317,2.536,2.64078
0.603056,-0.434317,2.536,2.64265
0.611287,-0.434317,2.536,2.64454
0.62416,-0.437571,2.555,2.66628
0.632453,-0.437571,2.555,2.66824
0.640746,-0.437571,2.555,2.67021
0.649038,-0.437571,2.555,2.67222
0.662219,-0.440824,2.574,2.69413
0.670574,-0.440824,2.574,2.6962
0.678929,-0.440824,2.574,2.69829
0.687283,-0.440824,2.574,2.7004
0.695638,-0.440824,2.574,2.70254
0.703992,-0.440824,2.574,2.7047
0.712347,-0.440824,2.574,2.70689
0.720701,-0.440824,2.574,2.7091
0.729056,-0.440824,2.574,2.71133
0.737411,-0.440824,2.574,2.71359
0.745765,-0.440824,2.574,2.71587
0.75412,-0.440824,2.574,2.71818
0.762474,-0.440824,2.574,2.72051
0.770829,-0.440824,2.574,2.72286
0.773432,-0.437571,2.555,2.70512
0.781725,-0.437571,2.555,2.70751
0.790018,-0.437571,2.555,2.70991
0.798311,-0.437571,2.555,2.71234
0.800605,-0.434317,2.536,2.6946
0.808836,-0.434317,2.536,2.69706
0.817068,-0.434317,2.536,2.69954
0.819116,-0.431063,2.517,2.6818
0.827285,-0.431063,2.517,2.68431
0.835455,-0.431063,2.517,2.68684
0.843624,-0.431063,2.517,2.68939
0.851794,-0.431063,2.517,2.69196
0.859963,-0.431063,2.517,2.69456
0.861925,-0.42798,2.499,2.67789
0.870036,-0.42798,2.499,2.68051
0.878147,-0.42798,2.499,2.68315
0.886258,-0.42798,2.499,2.68582
0.887927,-0.424897,2.481,2.66914
0.89598,-0.424897,2.481,2.67183
0.904033,-0.424897,2.481,2.67454
0.912085,-0.424897,2.481,2.67727
0.920138,-0.424897,2.481,2.68003
0.928191,-0.424897,2.481,2.6828
0.936243,-0.424897,2.481,2.6856
0.944296,-0.424897,2.481,2.68842
0.952349,-0.424897,2.481,2.69126
0.953434,-0.421815,2.463,2.67457
0.961428,-0.421815,2.463,2.67743
0.962338,-0.418732,2.445,2.66072
0.970273,-0.418732,2.445,2.66361
0.978209,-0.418732,2.445,2.66651
0.986145,-0.418732,2.445,2.66943
0.994081,-0.418732,2.445,2.67237
1.00202,-0.418732,2.445,2.67533
1.01739,-0.421815,2.463,2.69803
1.02538,-0.421815,2.463,2.70106
1.03338,-0.421815,2.463,2.7041
nan,nan,nan,NaN
nan,nan,nan,NaN
nan,nan,nan,NaN
1.21372,-0.480557,2.806,3.09478
1.22282,-0.480557,2.806,3.09837
1.29559,-0.50539,2.951,3.26227
1.30517,-0.50539,2.951,3.26608
1.31475,-0.50539,2.951,3.26992
1.32433,-0.50539,2.951,3.27378
1.3339,-0.50539,2.951,3.27767
1.34348,-0.50539,2.951,3.28158
1.36498,-0.509842,2.977,3.31446
1.37464,-0.509842,2.977,3.31845
1.38431,-0.509842,2.977,3.32247
1.39397,-0.509842,2.977,3.3265
1.40363,-0.509842,2.977,3.33056
1.41329,-0.509842,2.977,3.33465
1.42296,-0.509842,2.977,3.33875
1.44513,-0.514295,3.003,3.37208
1.45488,-0.514295,3.003,3.37627
1.46463,-0.514295,3.003,3.38048
1.47437,-0.514295,3.003,3.38471
1.48412,-0.514295,3.003,3.38897
1.49387,-0.514295,3.003,3.39325
1.50361,-0.514295,3.003,3.39755
1.51336,-0.514295,3.003,3.40188
1.52311,-0.514295,3.003,3.40622
1.53285,-0.514295,3.003,3.41059
1.5426,-0.514295,3.003,3.41499
1.55235,-0.514295,3.003,3.4194
1.59019,-0.523543,3.057,3.4854
1.64408,-0.537929,3.141,3.58584
nan,nan,nan,NaN
1.74448,-0.56379,3.292,3.76807
1.75517,-0.56379,3.292,3.77303
1.78302,-0.56927,3.324,3.81473
1.79381,-0.56927,3.324,3.81979
1.83988,-0.580402,3.389,3.89966
1.88857,-0.592219,3.458,3.98437
1.89979,-0.592219,3.458,3.9897
1.93036,-0.598213,3.493,4.03549
1.94169,-0.598213,3.493,4.04093
1.95303,-0.598213,3.493,4.04639
1.94469,-0.592219,3.458,4.01127
1.95591,-0.592219,3.458,4.01672
1.96713,-0.592219,3.458,4.0222
1.95833,-0.586225,3.423,3.98694
1.94988,-0.580402,3.389,3.95275
1.96088,-0.580402,3.389,3.95819
1.97188,-0.580402,3.389,3.96365
1.96357,-0.57475,3.356,3.93048
1.97447,-0.57475,3.356,3.93594
1.96643,-0.56927,3.324,3.90383
1.97722,-0.56927,3.324,3.90928
1.96887,-0.56379,3.292,3.87706
1.96031,-0.558309,3.26,3.84475
1.97089,-0.558309,3.26,3.85016
1.96324,-0.553171,3.23,3.82011
1.97372,-0.553171,3.23,3.8255
1.94735,-0.542896,3.17,3.75976
1.93973,-0.537929,3.141,3.73066
1.94992,-0.537929,3.141,3.73597
1.9077,-0.523543,3.057,3.64124
1.86744,-0.509842,2.977,3.55103
1.8771,-0.509842,2.977,3.55612
1.85444,-0.501108,2.926,3.50022
1.83272,-0.492716,2.877,3.44656
1.84206,-0.492716,2.877,3.45153
1.82051,-0.484496,2.829,3.39886
1.78571,-0.47285,2.761,3.32197
1.79467,-0.47285,2.761,3.32679
1.77489,-0.465315,2.717,3.27854
1.76992,-0.461718,2.696,3.25795
1.77867,-0.461718,2.696,3.26271
1.7735,-0.458122,2.675,3.24204
1.78218,-0.458122,2.675,3.2468
1.79087,-0.458122,2.675,3.25157
1.79955,-0.458122,2.675,3.25636
1.79404,-0.454525,2.654,3.23556
1.80265,-0.454525,2.654,3.24035
-2.26157,-0.547731,3.26,4.00528
-2.25099,-0.547731,3.26,3.99932
-2.24041,-0.547731,3.26,3.99337
-2.25171,-0.553108,3.292,4.02659
-2.24103,-0.553108,3.292,4.02062
-2.25202,-0.558484,3.324,4.0537
-2.24123,-0.558484,3.324,4.04772
-2.25192,-0.563861,3.356,4.08066
-2.24102,-0.563861,3.356,4.07466
-2.23013,-0.563861,3.356,4.06868
-2.24106,-0.569405,3.389,4.10267
-2.23006,-0.569405,3.389,4.09667
-2.21906,-0.569405,3.389,4.09069
-2.23021,-0.575118,3.423,4.12572
-2.2191,-0.575118,3.423,4.11972
-2.23057,-0.580998,3.458,4.15581
-2.21935,-0.580998,3.458,4.1498
-2.20812,-0.580998,3.458,4.14381
-2.21914,-0.586879,3.493,4.17972
-2.2078,-0.586879,3.493,4.17371
-2.19646,-0.586879,3.493,4.16772
-2.18512,-0.586879,3.493,4.16176
-2.17379,-0.586879,3.493,4.15582
-2.16245,-0.586879,3.493,4.1499
-2.15111,-0.586879,3.493,4.144
-2.13977,-0.586879,3.493,4.13813
-2.12844,-0.586879,3.493,4.13228
-2.09589,-0.580998,3.458,4.0851
-2.08466,-0.580998,3.458,4.07935
-2.07344,-0.580998,3.458,4.07363
-2.06221,-0.580998,3.458,4.06793
nan,nan,nan,NaN
nan,nan,nan,NaN
nan,nan,nan,NaN
nan,nan,nan,NaN
nan,nan,nan,NaN
nan,nan,nan,NaN
nan,nan,nan,NaN
nan,nan,nan,NaN
nan,nan,nan,NaN
nan,nan,nan,NaN
nan,nan,nan,NaN
nan,nan,nan,NaN
nan,nan,nan,NaN
nan,nan,nan,NaN
nan,nan,nan,NaN
nan,nan,nan,NaN
nan,nan,nan,NaN
nan,nan,nan,NaN
nan,nan,nan,NaN
nan,nan,nan,NaN
nan,nan,nan,NaN
nan,nan,nan,NaN
nan,nan,nan,NaN
nan,nan,nan,NaN
nan,nan,nan,NaN
nan,nan,nan,NaN
nan,nan,nan,NaN
nan,nan,nan,NaN
nan,nan,nan,NaN
nan,nan,nan,NaN
nan,nan,nan,NaN
-1.13176,-0.3861,2.298,2.59051
-1.1243,-0.3861,2.298,2.58726
-1.11684,-0.3861,2.298,2.58403
-1.11662,-0.38862,2.313,2.59766
-1.10911,-0.38862,2.313,2.59444
-1.10161,-0.38862,2.313,2.59124
-1.0941,-0.38862,2.313,2.58806
-1.08659,-0.38862,2.313,2.58489
