1.89979,-0.188276,3.458,3.94999
1.91102,-0.188276,3.458,3.9554
1.94169,-0.190181,3.493,4.00092
1.95303,-0.190181,3.493,4.00644
1.94469,-0.188276,3.458,3.97178
1.95591,-0.188276,3.458,3.97729
1.98704,-0.190181,3.493,4.02313
1.99838,-0.190181,3.493,4.02874
2.00972,-0.190181,3.493,4.03438
1.98055,-0.18637,3.423,3.95907
1.99166,-0.18637,3.423,3.96464
2.00277,-0.18637,3.423,3.97024
1.97447,-0.182722,3.356,3.89803
1.98536,-0.182722,3.356,3.90356
1.97722,-0.18098,3.324,3.87184
1.98801,-0.18098,3.324,3.87736
1.99879,-0.18098,3.324,3.8829
1.99024,-0.179237,3.292,3.85103
1.92677,-0.172595,3.17,3.71364
1.93706,-0.172595,3.17,3.71899
1.91172,-0.169437,3.112,3.65622
1.88785,-0.166443,3.057,3.5968
1.89778,-0.166443,3.057,3.60201
1.9077,-0.166443,3.057,3.60725
1.90068,-0.164973,3.03,3.5806
1.91052,-0.164973,3.03,3.58583
1.87028,-0.160671,2.951,3.49745
1.84801,-0.157949,2.901,3.44324
1.82669,-0.155336,2.853,3.39125
1.83595,-0.155336,2.853,3.39624
1.81482,-0.152777,2.806,3.34523
1.79467,-0.150326,2.761,3.29645
1.80364,-0.150326,2.761,3.30134
1.79815,-0.149129,2.739,3.2799
1.79253,-0.147931,2.717,3.25839
1.80135,-0.147931,2.717,3.26325
1.78218,-0.145644,2.675,3.21761
1.77681,-0.144501,2.654,3.19713
1.78542,-0.144501,2.654,3.20193
1.76632,-0.142268,2.613,3.1572
1.76122,-0.141179,2.593,3.13775
-2.10201,-0.155141,3.03,3.69099
-2.07353,-0.153758,3.003,3.65256
-2.06379,-0.153758,3.003,3.64703
-2.03625,-0.152427,2.977,3.61
-1.99187,-0.149816,2.926,3.54281
-1.98238,-0.149816,2.926,3.53748
-1.95602,-0.148536,2.901,3.50198
-1.9305,-0.147307,2.877,3.4678
-1.92116,-0.147307,2.877,3.46262
-1.91183,-0.147307,2.877,3.45744
-1.88662,-0.146078,2.853,3.42349
-1.87736,-0.146078,2.853,3.41839
-1.85238,-0.144849,2.829,3.3846
-1.8432,-0.144849,2.829,3.37959
-1.83402,-0.144849,2.829,3.37459
-1.82484,-0.144849,2.829,3.36961
-1.81565,-0.144849,2.829,3.36464
-1.8218,-0.146078,2.853,3.3882
-1.81254,-0.146078,2.853,3.38323
-1.80328,-0.146078,2.853,3.37828
-1.79402,-0.146078,2.853,3.37334
-1.78476,-0.146078,2.853,3.36843
-1.7755,-0.146078,2.853,3.36353
-1.76624,-0.146078,2.853,3.35865
-1.7422,-0.144849,2.829,3.32558
-1.73301,-0.144849,2.829,3.32078
-1.72383,-0.144849,2.829,3.31599
-1.70071,-0.143672,2.806,3.28431
-1.6916,-0.143672,2.806,3.2796
-1.68249,-0.143672,2.806,3.27491
-1.67339,-0.143672,2.806,3.27024
-1.66428,-0.143672,2.806,3.26559
-1.65517,-0.143672,2.806,3.26096
-1.63257,-0.142494,2.783,3.22966
-1.62354,-0.142494,2.783,3.2251
nan,nan,nan,NaN
nan,nan,nan,NaN
nan,nan,nan,NaN
nan,nan,nan,NaN
nan,nan,nan,NaN
nan,nan,nan,NaN
nan,nan,nan,NaN
nan,nan,nan,NaN
nan,nan,nan,NaN
nan,nan,nan,NaN
nan,nan,nan,NaN
nan,nan,nan,NaN
nan,nan,nan,NaN
nan,nan,nan,NaN
nan,nan,nan,NaN
nan,nan,nan,NaN
nan,nan,nan,NaN
nan,nan,nan,NaN
nan,nan,nan,NaN
nan,nan,nan,NaN
nan,nan,nan,NaN
nan,nan,nan,NaN
nan,nan,nan,NaN
nan,nan,nan,NaN
nan,nan,nan,NaN
nan,nan,nan,NaN
nan,nan,nan,NaN
-1.27704,-0.132766,2.593,2.89346
-1.24074,-0.129847,2.536,2.82623
-1.23251,-0.129847,2.536,2.82263
-1.22428,-0.129847,2.536,2.81904
-1.20693,-0.128874,2.517,2.79439
-1.19876,-0.128874,2.517,2.79087
-1.18208,-0.127953,2.499,2.76743
-1.16551,-0.127031,2.481,2.74407
-1.15746,-0.127031,2.481,2.74066
-1.14107,-0.126109,2.463,2.71741
-1.12479,-0.125188,2.445,2.69423
-1.10909,-0.124317,2.428,2.67221
-1.10121,-0.124317,2.428,2.66895
-1.08568,-0.123447,2.411,2.64705
-1.07025,-0.122576,2.394,2.6252
-1.06248,-0.122576,2.394,2.62205
-1.05471,-0.122576,2.394,2.61891
-1.03951,-0.121706,2.377,2.59721
-1.03179,-0.121706,2.377,2.59413
-1.02408,-0.121706,2.377,2.59108
-1.01636,-0.121706,2.377,2.58804
-1.00865,-0.121706,2.377,2.58502
-1.00093,-0.121706,2.377,2.58202
-0.993215,-0.121706,2.377,2.57903
-0.978866,-0.120887,2.361,2.55873
-0.971203,-0.120887,2.361,2.55581
-0.96354,-0.120887,2.361,2.55291
-0.955876,-0.120887,2.361,2.55003
-0.948213,-0.120887,2.361,2.54716
-0.94055,-0.120887,2.361,2.54432
-0.932887,-0.120887,2.361,2.5415
-0.925224,-0.120887,2.361,2.5387
-0.91756,-0.120887,2.361,2.53591
-0.909897,-0.120887,2.361,2.53315
-0.902234,-0.120887,2.361,2.53041
-0.894571,-0.120887,2.361,2.52768
-0.886907,-0.120887,2.361,2.52498
-0.879244,-0.120887,2.361,2.5223
-0.871581,-0.120887,2.361,2.51964
-0.863918,-0.120887,2.361,2.517
-0.856255,-0.120887,2.361,2.51438
-0.848591,-0.120887,2.361,2.51178
-0.840928,-0.120887,2.361,2.5092
-0.833265,-0.120887,2.361,2.50664
-0.825602,-0.120887,2.361,2.50411
-0.817938,-0.120887,2.361,2.50159
-0.810275,-0.120887,2.361,2.4991
-0.802612,-0.120887,2.361,2.49662
-0.794949,-0.120887,2.361,2.49417
-0.787286,-0.120887,2.361,2.49174
-0.779622,-0.120887,2.361,2.48933
-0.771959,-0.120887,2.361,2.48694
-0.764296,-0.120887,2.361,2.48457
-0.76176,-0.121706,2.377,2.49904
-0.754045,-0.121706,2.377,2.4967
-0.74633,-0.121706,2.377,2.49438
-0.738615,-0.121706,2.377,2.49209
-0.736127,-0.122576,2.394,2.50762
-0.728357,-0.122576,2.394,2.50535
-0.720586,-0.122576,2.394,2.5031
-0.712816,-0.122576,2.394,2.50087
-0.705046,-0.122576,2.394,2.49867
-0.697275,-0.122576,2.394,2.49649
-0.689505,-0.122576,2.394,2.49433
-0.681735,-0.122576,2.394,2.49219
-0.673964,-0.122576,2.394,2.49008
-0.666194,-0.122576,2.394,2.48799
-0.658424,-0.122576,2.394,2.48592
-0.650653,-0.122576,2.394,2.48387
-0.642883,-0.122576,2.394,2.48185
-0.635113,-0.122576,2.394,2.47984
-0.627342,-0.122576,2.394,2.47787
-0.619572,-0.122576,2.394,2.47591
-0.611802,-0.122576,2.394,2.47398
-0.604031,-0.122576,2.394,2.47207
-0.596261,-0.122576,2.394,2.47018
-0.588491,-0.122576,2.394,2.46832
-0.584844,-0.123447,2.411,2.48399
-0.577019,-0.123447,2.411,2.48216
-0.569193,-0.123447,2.411,2.48035
-0.561368,-0.123447,2.411,2.47857
-0.553542,-0.123447,2.411,2.47681
-0.545717,-0.123447,2.411,2.47507
-0.537891,-0.123447,2.411,2.47336
-0.533803,-0.124317,2.428,2.48909
-0.525922,-0.124317,2.428,2.48742
-0.518042,-0.124317,2.428,2.48576
-0.510161,-0.124317,2.428,2.48413
-0.50228,-0.124317,2.428,2.48252
-0.4944,-0.124317,2.428,2.48094
-0.489925,-0.125188,2.445,2.49674
-0.481989,-0.125188,2.445,2.4952
-0.474054,-0.125188,2.445,2.49368
-0.466118,-0.125188,2.445,2.49218
-0.458182,-0.125188,2.445,2.49071
-0.450246,-0.125188,2.445,2.48926
-0.44231,-0.125188,2.445,2.48784
-0.434374,-0.125188,2.445,2.48644
-0.426438,-0.125188,2.445,2.48506
-0.418503,-0.125188,2.445,2.48372
-0.413589,-0.126109,2.463,2.50067
-0.405595,-0.126109,2.463,2.49936
-0.397601,-0.126109,2.463,2.49807
-0.389606,-0.126109,2.463,2.49681
-0.381612,-0.126109,2.463,2.49558
-0.373618,-0.126109,2.463,2.49437
-0.365624,-0.126109,2.463,2.49318
-0.357629,-0.126109,2.463,2.49202
-0.349635,-0.126109,2.463,2.49089
-0.344137,-0.127031,2.481,2.50797
-0.336085,-0.127031,2.481,2.50688
-0.328032,-0.127031,2.481,2.50581
-0.319979,-0.127031,2.481,2.50477
-0.311927,-0.127031,2.481,2.50376
-0.303874,-0.127031,2.481,2.50277
-0.295821,-0.127031,2.481,2.5018
-0.287769,-0.127031,2.481,2.50086
-0.279716,-0.127031,2.481,2.49995
-0.271663,-0.127031,2.481,2.49906
-0.26361,-0.127031,2.481,2.4982
-0.255558,-0.127031,2.481,2.49736
-0.247505,-0.127031,2.481,2.49655
-0.239452,-0.127031,2.481,2.49576
-0.2314,-0.127031,2.481,2.495
-0.223347,-0.127031,2.481,2.49427
-0.215294,-0.127031,2.481,2.49356
-0.207241,-0.127031,2.481,2.49288
-0.199189,-0.127031,2.481,2.49222
-0.191136,-0.127031,2.481,2.49159
-0.183083,-0.127031,2.481,2.49099
-0.175031,-0.127031,2.481,2.49041
-0.166978,-0.127031,2.481,2.48986
-0.158925,-0.127031,2.481,2.48933
-0.150872,-0.127031,2.481,2.48883
-0.14282,-0.127031,2.481,2.48835
-0.134767,-0.127031,2.481,2.4879
-0.126714,-0.127031,2.481,2.48748
-0.119523,-0.127953,2.499,2.50513
-0.110609,-0.127031,2.481,2.48671
-0.102556,-0.127031,2.481,2.48637
-0.0945035,-0.127031,2.481,2.48605
-0.0864508,-0.127031,2.481,2.48575
-0.078398,-0.127031,2.481,2.48549
-0.0703453,-0.127031,2.481,2.48525
-0.0622926,-0.127031,2.481,2.48503
-0.0542399,-0.127031,2.481,2.48484
-0.0458521,-0.126109,2.463,2.46665
-0.0378578,-0.126109,2.463,2.46652
-0.0298635,-0.126109,2.463,2.46641
-0.0218693,-0.126109,2.463,2.46632
-0.013875,-0.126109,2.463,2.46627
-0.00588068,-0.126109,2.463,2.46623
0.0021136,-0.126109,2.463,2.46623
0.0101079,-0.126109,2.463,2.46625
0.0179699,-0.125188,2.445,2.44827
0.0259057,-0.125188,2.445,2.44834
0.0338416,-0.125188,2.445,2.44844
0.0417775,-0.125188,2.445,2.44856
0.0493677,-0.124317,2.428,2.43168
0.0572484,-0.124317,2.428,2.43185
0.065129,-0.124317,2.428,2.43205
0.0724985,-0.123447,2.411,2.41525
0.0803241,-0.123447,2.411,2.41549
0.0881496,-0.123447,2.411,2.41577
0.0959751,-0.123447,2.411,2.41607
0.103069,-0.122576,2.394,2.39935
0.110839,-0.122576,2.394,2.3997
0.118609,-0.122576,2.394,2.40007
0.12638,-0.122576,2.394,2.40047
0.13415,-0.122576,2.394,2.40089
0.14192,-0.122576,2.394,2.40133
0.149691,-0.122576,2.394,2.40181
0.157461,-0.122576,2.394,2.4023
0.166405,-0.123447,2.411,2.41989
0.17423,-0.123447,2.411,2.42044
0.182056,-0.123447,2.411,2.42101
0.189881,-0.123447,2.411,2.42161
0.197707,-0.123447,2.411,2.42224
0.206981,-0.124317,2.428,2.43998
0.214862,-0.124317,2.428,2.44066
0.222743,-0.124317,2.428,2.44136
0.232238,-0.125188,2.445,2.45919
0.240174,-0.125188,2.445,2.45996
0.24811,-0.125188,2.445,2.46074
0.256046,-0.125188,2.445,2.46156
0.263982,-0.125188,2.445,2.46239
0.271917,-0.125188,2.445,2.46326
0.279853,-0.125188,2.445,2.46415
0.289908,-0.126109,2.463,2.48321
0.297902,-0.126109,2.463,2.48415
0.305896,-0.126109,2.463,2.48512
0.313891,-0.126109,2.463,2.48612
0.321885,-0.126109,2.463,2.48714
0.329879,-0.126109,2.463,2.48819
0.337874,-0.126109,2.463,2.48926
0.34334,-0.125188,2.445,2.47216
0.351276,-0.125188,2.445,2.47328
0.359212,-0.125188,2.445,2.47442
0.367148,-0.125188,2.445,2.47558
0.375084,-0.125188,2.445,2.47677
0.380356,-0.124317,2.428,2.46075
0.388237,-0.124317,2.428,2.46198
0.396118,-0.124317,2.428,2.46324
0.403999,-0.124317,2.428,2.46452
0.411879,-0.124317,2.428,2.46582
0.41976,-0.124317,2.428,2.46715
0.427641,-0.124317,2.428,2.4685
0.435521,-0.124317,2.428,2.46988
0.443402,-0.124317,2.428,2.47128
0.451283,-0.124317,2.428,2.47271
0.459163,-0.124317,2.428,2.47416
0.467044,-0.124317,2.428,2.47564
0.474925,-0.124317,2.428,2.47713
0.482805,-0.124317,2.428,2.47866
0.490686,-0.124317,2.428,2.4802
0.502058,-0.125188,2.445,2.49915
0.509993,-0.125188,2.445,2.50076
0.517929,-0.125188,2.445,2.50239
0.525865,-0.125188,2.445,2.50404
0.533801,-0.125188,2.445,2.50572
0.541737,-0.125188,2.445,2.50742
0.549673,-0.125188,2.445,2.50915
0.561714,-0.126109,2.463,2.52939
0.569708,-0.126109,2.463,2.53117
0.577702,-0.126109,2.463,2.53298
0.585697,-0.126109,2.463,2.53482
0.593691,-0.126109,2.463,2.53668
0.601685,-0.126109,2.463,2.53856
0.614135,-0.127031,2.481,2.55904
0.622188,-0.127031,2.481,2.56098
0.63024,-0.127031,2.481,2.56295
0.633662,-0.126109,2.463,2.54633
0.641657,-0.126109,2.463,2.54833
0.649651,-0.126109,2.463,2.55036
0.657645,-0.126109,2.463,2.5524
0.665639,-0.126109,2.463,2.55448
0.673634,-0.126109,2.463,2.55657
0.681628,-0.126109,2.463,2.55869
0.694662,-0.127031,2.481,2.57955
0.702715,-0.127031,2.481,2.58173
0.710768,-0.127031,2.481,2.58393
0.71882,-0.127031,2.481,2.58616
0.726873,-0.127031,2.481,2.58841
0.734926,-0.127031,2.481,2.59068
0.748369,-0.127953,2.499,2.61179
0.75648,-0.127953,2.499,2.61412
0.764591,-0.127953,2.499,2.61648
0.772702,-0.127953,2.499,2.61886
0.780813,-0.127953,2.499,2.62127
0.788924,-0.127953,2.499,2.62369
0.802777,-0.128874,2.517,2.64506
0.810946,-0.128874,2.517,2.64755
0.819116,-0.128874,2.517,2.65007
0.83353,-0.129847,2.536,2.67263
0.841761,-0.129847,2.536,2.6752
0.849993,-0.129847,2.536,2.67781
0.858224,-0.129847,2.536,2.68043
0.866455,-0.129847,2.536,2.68308
0.874686,-0.129847,2.536,2.68575
0.882918,-0.129847,2.536,2.68844
0.884472,-0.128874,2.517,2.67099
0.892642,-0.128874,2.517,2.67371
0.900811,-0.128874,2.517,2.67645
0.90248,-0.127953,2.499,2.66005
0.910591,-0.127953,2.499,2.66281
0.918703,-0.127953,2.499,2.66559
0.920138,-0.127031,2.481,2.64918
0.921457,-0.126109,2.463,2.63275
0.929451,-0.126109,2.463,2.63556
0.930594,-0.125188,2.445,2.6191
0.93853,-0.125188,2.445,2.62193
0.946466,-0.125188,2.445,2.62478
0.947766,-0.124317,2.428,2.60939
0.948955,-0.123447,2.411,2.59397
0.956781,-0.123447,2.411,2.59684
0.964606,-0.123447,2.411,2.59974
0.972432,-0.123447,2.411,2.60265
0.980257,-0.123447,2.411,2.60558
0.988083,-0.123447,2.411,2.60854
1.00293,-0.124317,2.428,2.62993
1.01789,-0.125188,2.445,2.65138
1.04093,-0.127031,2.481,2.69352
1.04898,-0.127031,2.481,2.69664
1.08047,-0.129847,2.536,2.75963
1.10501,-0.131793,2.574,2.80426
1.11337,-0.131793,2.574,2.80757
1.14743,-0.134814,2.633,2.87532
1.19286,-0.139115,2.717,2.97058
1.25121,-0.144849,2.829,3.09673
1.26039,-0.144849,2.829,3.10045
1.30189,-0.148536,2.901,3.1832
1.3339,-0.151096,2.951,3.242
1.34348,-0.151096,2.951,3.24595
1.36498,-0.152427,2.977,3.27856
1.38665,-0.153758,3.003,3.31126
1.3964,-0.153758,3.003,3.31535
1.40614,-0.153758,3.003,3.31947
1.41589,-0.153758,3.003,3.32361
1.42564,-0.153758,3.003,3.32778
1.42296,-0.152427,2.977,3.30312
1.43262,-0.152427,2.977,3.30729
1.44228,-0.152427,2.977,3.31149
1.45195,-0.152427,2.977,3.31571
1.46161,-0.152427,2.977,3.31995
1.47127,-0.152427,2.977,3.32421
1.48093,-0.152427,2.977,3.3285
1.4906,-0.152427,2.977,3.33281
1.50026,-0.152427,2.977,3.33715
1.49673,-0.151096,2.951,3.31232
1.50631,-0.151096,2.951,3.31666
1.5426,-0.153758,3.003,3.37954
1.58026,-0.156523,3.057,3.44485
1.59019,-0.156523,3.057,3.44941
1.64408,-0.160824,3.141,3.54891
1.66954,-0.162309,3.17,3.58645
1.67983,-0.162309,3.17,3.59125
1.72211,-0.165381,3.23,3.66414
1.76585,-0.168555,3.292,3.73951
1.82888,-0.173522,3.389,3.8549
1.83988,-0.173522,3.389,3.86013
1.88857,-0.177055,3.458,3.94408
1.89979,-0.177055,3.458,3.94947
1.91102,-0.177055,3.458,3.95488
1.94169,-0.178847,3.493,4.0004
1.95303,-0.178847,3.493,4.00592
1.94469,-0.177055,3.458,3.97126
1.95591,-0.177055,3.458,3.97677
1.98704,-0.178847,3.493,4.02261
1.99838,-0.178847,3.493,4.02822
2.00972,-0.178847,3.493,4.03386
1.98055,-0.175263,3.423,3.95857
1.99166,-0.175263,3.423,3.96414
2.00277,-0.175263,3.423,3.96973
1.97447,-0.171832,3.356,3.89754
1.98536,-0.171832,3.356,3.90306
1.97722,-0.170194,3.324,3.87135
1.98801,-0.170194,3.324,3.87687
1.99879,-0.170194,3.324,3.88241
2.00958,-0.170194,3.324,3.88798
1.92677,-0.162309,3.17,3.71318
1.93706,-0.162309,3.17,3.71853
1.91172,-0.159339,3.112,3.65576
1.88785,-0.156523,3.057,3.59635
1.89778,-0.156523,3.057,3.60157
1.9077,-0.156523,3.057,3.60681
nan,nan,nan,NaN
nan,nan,nan,NaN
1.87028,-0.151096,2.951,3.49703
1.84801,-0.148536,2.901,3.44282
1.82669,-0.146078,2.853,3.39083
1.83595,-0.146078,2.853,3.39583
1.81482,-0.143672,2.806,3.34482
1.79467,-0.141367,2.761,3.29605
1.80364,-0.141367,2.761,3.30094
1.79815,-0.140241,2.739,3.2795
1.79253,-0.139115,2.717,3.25801
1.80135,-0.139115,2.717,3.26287
1.78218,-0.136964,2.675,3.21723
1.77681,-0.135889,2.654,3.19675
1.78542,-0.135889,2.654,3.20155
1.76632,-0.13379,2.613,3.15683
1.76122,-0.132766,2.593,3.13738
-2.10201,-0.145309,3.03,3.69059
-2.07353,-0.144014,3.003,3.65216
-2.06379,-0.144014,3.003,3.64664
-2.03625,-0.142767,2.977,3.6096
-1.99187,-0.140321,2.926,3.54242
-1.98238,-0.140321,2.926,3.53709
-1.95602,-0.139122,2.901,3.5016
-1.9305,-0.137971,2.877,3.46742
-1.92116,-0.137971,2.877,3.46223
-1.91183,-0.137971,2.877,3.45706
-1.88662,-0.13682,2.853,3.42311
-1.87736,-0.13682,2.853,3.41801
-1.85238,-0.135669,2.829,3.38422
-1.8432,-0.135669,2.829,3.37921
-1.83402,-0.135669,2.829,3.37421
-1.82484,-0.135669,2.829,3.36923
-1.81565,-0.135669,2.829,3.36426
-1.8218,-0.13682,2.853,3.38781
-1.81254,-0.13682,2.853,3.38284
-1.78811,-0.135669,2.829,3.34947
-1.77893,-0.135669,2.829,3.34458
-1.76974,-0.135669,2.829,3.33971
-1.76056,-0.135669,2.829,3.33485
-1.75138,-0.135669,2.829,3.33001
-1.7422,-0.135669,2.829,3.32519
-1.73301,-0.135669,2.829,3.32039
-1.72383,-0.135669,2.829,3.31561
-1.70071,-0.134567,2.806,3.28392
-1.6916,-0.134567,2.806,3.27922
-1.68249,-0.134567,2.806,3.27453
-1.67339,-0.134567,2.806,3.26986
-1.66428,-0.134567,2.806,3.26521
-1.65517,-0.134567,2.806,3.26057
-1.63257,-0.133464,2.783,3.22927
-1.62354,-0.133464,2.783,3.22471
nan,nan,nan,NaN
nan,nan,nan,NaN
nan,nan,nan,NaN
nan,nan,nan,NaN
nan,nan,nan,NaN
nan,nan,nan,NaN
nan,nan,nan,NaN
nan,nan,nan,NaN
nan,nan,nan,NaN
nan,nan,nan,NaN
nan,nan,nan,NaN
nan,nan,nan,NaN
nan,nan,nan,NaN
nan,nan,nan,NaN
nan,nan,nan,NaN
nan,nan,nan,NaN
nan,nan,nan,NaN
nan,nan,nan,NaN
nan,nan,nan,NaN
nan,nan,nan,NaN
nan,nan,nan,NaN
nan,nan,nan,NaN
nan,nan,nan,NaN
nan,nan,nan,NaN
nan,nan,nan,NaN
nan,nan,nan,NaN
nan,nan,nan,NaN
-1.27704,-0.124352,2.593,2.89309
-1.25003,-0.122529,2.555,2.84704
-1.24174,-0.122529,2.555,2.84341
-1.22428,-0.121618,2.536,2.81868
-1.21605,-0.121618,2.536,2.81511
-1.20781,-0.121618,2.536,2.81157
-1.1906,-0.120707,2.517,2.787
-1.17397,-0.119844,2.499,2.76362
-1.15746,-0.118981,2.481,2.7403
-1.14941,-0.118981,2.481,2.73691
-1.13308,-0.118117,2.463,2.7137
-1.11686,-0.117254,2.445,2.69057
-1.10892,-0.117254,2.445,2.68728
-1.09333,-0.116439,2.428,2.66535
-1.07785,-0.115624,2.411,2.64349
-1.07003,-0.115624,2.411,2.64031
-1.05471,-0.114808,2.394,2.61856
-1.04694,-0.114808,2.394,2.61544
-1.03917,-0.114808,2.394,2.61233
-1.02408,-0.113993,2.377,2.59072
-1.01636,-0.113993,2.377,2.58768
-1.00865,-0.113993,2.377,2.58466
-1.00093,-0.113993,2.377,2.58166
-0.993215,-0.113993,2.377,2.57868
-0.9855,-0.113993,2.377,2.57572
-0.977785,-0.113993,2.377,2.57278
-0.970069,-0.113993,2.377,2.56986
-0.962354,-0.113993,2.377,2.56695
-0.954639,-0.113993,2.377,2.56407
-0.946924,-0.113993,2.377,2.56121
-0.932887,-0.113226,2.361,2.54115
-0.925224,-0.113226,2.361,2.53834
-0.91756,-0.113226,2.361,2.53556
-0.909897,-0.113226,2.361,2.5328
-0.902234,-0.113226,2.361,2.53005
-0.894571,-0.113226,2.361,2.52733
-0.886907,-0.113226,2.361,2.52463
-0.879244,-0.113226,2.361,2.52195
-0.871581,-0.113226,2.361,2.51928
-0.863918,-0.113226,2.361,2.51664
-0.856255,-0.113226,2.361,2.51402
-0.848591,-0.113226,2.361,2.51142
-0.840928,-0.113226,2.361,2.50884
-0.833265,-0.113226,2.361,2.50629
-0.825602,-0.113226,2.361,2.50375
-0.817938,-0.113226,2.361,2.50123
-0.810275,-0.113226,2.361,2.49874
-0.802612,-0.113226,2.361,2.49626
-0.794949,-0.113226,2.361,2.49381
-0.787286,-0.113226,2.361,2.49138
-0.779622,-0.113226,2.361,2.48897
-0.771959,-0.113226,2.361,2.48658
-0.764296,-0.113226,2.361,2.48421
-0.76176,-0.113993,2.377,2.49868
-0.754045,-0.113993,2.377,2.49634
-0.74633,-0.113993,2.377,2.49402
-0.738615,-0.113993,2.377,2.49172
-0.736127,-0.114808,2.394,2.50725
-0.728357,-0.114808,2.394,2.50498
-0.720586,-0.114808,2.394,2.50273
-0.712816,-0.114808,2.394,2.5005
-0.705046,-0.114808,2.394,2.4983
-0.697275,-0.114808,2.394,2.49612
-0.689505,-0.114808,2.394,2.49396
-0.681735,-0.114808,2.394,2.49182
-0.673964,-0.114808,2.394,2.48971
-0.666194,-0.114808,2.394,2.48762
-0.658424,-0.114808,2.394,2.48555
-0.650653,-0.114808,2.394,2.4835
-0.642883,-0.114808,2.394,2.48147
-0.635113,-0.114808,2.394,2.47947
-0.627342,-0.114808,2.394,2.47749
-0.619572,-0.114808,2.394,2.47554
-0.611802,-0.114808,2.394,2.4736
-0.604031,-0.114808,2.394,2.47169
-0.596261,-0.114808,2.394,2.46981
-0.59267,-0.115624,2.411,2.48547
-0.584844,-0.115624,2.411,2.48361
-0.577019,-0.115624,2.411,2.48178
-0.569193,-0.115624,2.411,2.47997
-0.561368,-0.115624,2.411,2.47819
-0.553542,-0.115624,2.411,2.47643
-0.545717,-0.115624,2.411,2.47469
-0.537891,-0.115624,2.411,2.47298
-0.533803,-0.116439,2.428,2.48871
-0.525922,-0.116439,2.428,2.48703
-0.518042,-0.116439,2.428,2.48538
-0.510161,-0.116439,2.428,2.48375
-0.50228,-0.116439,2.428,2.48214
-0.4944,-0.116439,2.428,2.48056
-0.489925,-0.117254,2.445,2.49636
-0.481989,-0.117254,2.445,2.49481
-0.474054,-0.117254,2.445,2.49329
-0.466118,-0.117254,2.445,2.49179
-0.458182,-0.117254,2.445,2.49032
-0.450246,-0.117254,2.445,2.48887
-0.44231,-0.117254,2.445,2.48745
-0.434374,-0.117254,2.445,2.48605
-0.426438,-0.117254,2.445,2.48468
-0.418503,-0.117254,2.445,2.48333
-0.413589,-0.118117,2.463,2.50028
-0.405595,-0.118117,2.463,2.49897
-0.397601,-0.118117,2.463,2.49768
-0.389606,-0.118117,2.463,2.49642
-0.381612,-0.118117,2.463,2.49519
-0.373618,-0.118117,2.463,2.49397
-0.365624,-0.118117,2.463,2.49279
-0.357629,-0.118117,2.463,2.49163
-0.349635,-0.118117,2.463,2.49049
-0.344137,-0.118981,2.481,2.50758
-0.336085,-0.118981,2.481,2.50649
-0.328032,-0.118981,2.481,2.50542
-0.319979,-0.118981,2.481,2.50438
-0.311927,-0.118981,2.481,2.50336
-0.303874,-0.118981,2.481,2.50237
-0.295821,-0.118981,2.481,2.50141
-0.287769,-0.118981,2.481,2.50047
-0.279716,-0.118981,2.481,2.49955
-0.271663,-0.118981,2.481,2.49866
-0.26361,-0.118981,2.481,2.4978
-0.255558,-0.118981,2.481,2.49696
-0.247505,-0.118981,2.481,2.49615
-0.239452,-0.118981,2.481,2.49537
-0.2314,-0.118981,2.481,2.49461
-0.223347,-0.118981,2.481,2.49387
-0.215294,-0.118981,2.481,2.49316
-0.207241,-0.118981,2.481,2.49248
-0.199189,-0.118981,2.481,2.49183
-0.191136,-0.118981,2.481,2.49119
-0.183083,-0.118981,2.481,2.49059
-0.175031,-0.118981,2.481,2.49001
-0.166978,-0.118981,2.481,2.48946
-0.158925,-0.118981,2.481,2.48893
-0.150872,-0.118981,2.481,2.48843
-0.14282,-0.118981,2.481,2.48795
-0.134767,-0.118981,2.481,2.4875
-0.126714,-0.118981,2.481,2.48708
-0.118662,-0.118981,2.481,2.48668
-0.109806,-0.118117,2.463,2.46827
-0.101812,-0.118117,2.463,2.46793
-0.0945035,-0.118981,2.481,2.48565
-0.0864508,-0.118981,2.481,2.48536
-0.078398,-0.118981,2.481,2.48509
-0.0703453,-0.118981,2.481,2.48485
-0.0618407,-0.118117,2.463,2.46661
-0.0538464,-0.118117,2.463,2.46642
-0.0458521,-0.118117,2.463,2.46626
-0.0378578,-0.118117,2.463,2.46612
-0.0298635,-0.118117,2.463,2.46601
-0.0218693,-0.118117,2.463,2.46593
-0.013875,-0.118117,2.463,2.46587
-0.00588068,-0.118117,2.463,2.46584
0.0021136,-0.118117,2.463,2.46583
0.0101079,-0.118117,2.463,2.46585
0.0179699,-0.117254,2.445,2.44788
0.0259057,-0.117254,2.445,2.44795
0.0338416,-0.117254,2.445,2.44804
0.0417775,-0.117254,2.445,2.44817
0.0493677,-0.116439,2.428,2.43129
0.0572484,-0.116439,2.428,2.43146
0.065129,-0.116439,2.428,2.43166
0.0724985,-0.115624,2.411,2.41486
0.0803241,-0.115624,2.411,2.41511
0.0881496,-0.115624,2.411,2.41538
0.0959751,-0.115624,2.411,2.41568
0.103069,-0.114808,2.394,2.39897
0.110839,-0.114808,2.394,2.39931
0.118609,-0.114808,2.394,2.39968
0.12638,-0.114808,2.394,2.40008
0.13415,-0.114808,2.394,2.4005
0.14192,-0.114808,2.394,2.40095
0.149691,-0.114808,2.394,2.40142
0.157461,-0.114808,2.394,2.40192
0.166405,-0.115624,2.411,2.4195
0.17423,-0.115624,2.411,2.42005
0.182056,-0.115624,2.411,2.42063
0.189881,-0.115624,2.411,2.42123
0.197707,-0.115624,2.411,2.42185
0.205532,-0.115624,2.411,2.42251
0.214862,-0.116439,2.428,2.44027
0.222743,-0.116439,2.428,2.44097
0.230623,-0.116439,2.428,2.44171
0.238504,-0.116439,2.428,2.44246
0.24811,-0.117254,2.445,2.46035
0.256046,-0.117254,2.445,2.46117
0.263982,-0.117254,2.445,2.462
0.271917,-0.117254,2.445,2.46287
0.279853,-0.117254,2.445,2.46376
0.287789,-0.117254,2.445,2.46467
0.295725,-0.117254,2.445,2.46561
0.303661,-0.117254,2.445,2.46657
0.311597,-0.117254,2.445,2.46756
0.321885,-0.118117,2.463,2.48675
0.329879,-0.118117,2.463,2.4878
0.335404,-0.117254,2.445,2.47068
0.34334,-0.117254,2.445,2.47177
0.351276,-0.117254,2.445,2.47289
0.359212,-0.117254,2.445,2.47403
0.367148,-0.117254,2.445,2.47519
0.375084,-0.117254,2.445,2.47638
0.380356,-0.116439,2.428,2.46037
0.388237,-0.116439,2.428,2.4616
0.396118,-0.116439,2.428,2.46285
0.403999,-0.116439,2.428,2.46413
0.411879,-0.116439,2.428,2.46544
0.41976,-0.116439,2.428,2.46677
0.427641,-0.116439,2.428,2.46812
0.435521,-0.116439,2.428,2.4695
0.443402,-0.116439,2.428,2.4709
0.451283,-0.116439,2.428,2.47233
0.459163,-0.116439,2.428,2.47378
0.467044,-0.116439,2.428,2.47525
0.474925,-0.116439,2.428,2.47675
0.482805,-0.116439,2.428,2.47827
0.490686,-0.116439,2.428,2.47982
0.498567,-0.116439,2.428,2.48139
0.506447,-0.116439,2.428,2.48299
0.517929,-0.117254,2.445,2.502
0.525865,-0.117254,2.445,2.50366
0.533801,-0.117254,2.445,2.50534
0.541737,-0.117254,2.445,2.50704
0.549673,-0.117254,2.445,2.50877
0.561714,-0.118117,2.463,2.529
0.569708,-0.118117,2.463,2.53079
0.577702,-0.118117,2.463,2.5326
0.585697,-0.118117,2.463,2.53444
0.593691,-0.118117,2.463,2.53629
0.601685,-0.118117,2.463,2.53818
0.614135,-0.118981,2.481,2.55865
0.622188,-0.118981,2.481,2.56059
0.63024,-0.118981,2.481,2.56256
0.638293,-0.118981,2.481,2.56455
0.646346,-0.118981,2.481,2.56657
0.649651,-0.118117,2.463,2.54997
0.657645,-0.118117,2.463,2.55202
0.665639,-0.118117,2.463,2.55409
0.673634,-0.118117,2.463,2.55619
0.681628,-0.118117,2.463,2.55831
0.694662,-0.118981,2.481,2.57916
0.702715,-0.118981,2.481,2.58134
0.710768,-0.118981,2.481,2.58355
0.71882,-0.118981,2.481,2.58577
0.726873,-0.118981,2.481,2.58802
0.734926,-0.118981,2.481,2.5903
0.748369,-0.119844,2.499,2.6114
0.75648,-0.119844,2.499,2.61374
0.764591,-0.119844,2.499,2.6161
0.772702,-0.119844,2.499,2.61848
0.780813,-0.119844,2.499,2.62088
0.788924,-0.119844,2.499,2.62331
0.802777,-0.120707,2.517,2.64468
0.810946,-0.120707,2.517,2.64717
0.819116,-0.120707,2.517,2.64968
0.827285,-0.120707,2.517,2.65222
0.841761,-0.121618,2.536,2.67482
0.849993,-0.121618,2.536,2.67742
0.858224,-0.121618,2.536,2.68004
0.866455,-0.121618,2.536,2.68269
0.874686,-0.121618,2.536,2.68536
0.882918,-0.121618,2.536,2.68805
0.891149,-0.121618,2.536,2.69077
0.89938,-0.121618,2.536,2.69351
0.900811,-0.120707,2.517,2.67606
0.908981,-0.120707,2.517,2.67883
0.91715,-0.120707,2.517,2.68161
0.918703,-0.119844,2.499,2.66522
0.920138,-0.118981,2.481,2.64881
0.921457,-0.118117,2.463,2.63238
0.929451,-0.118117,2.463,2.63519
0.930594,-0.117254,2.445,2.61874
0.93853,-0.117254,2.445,2.62157
0.946466,-0.117254,2.445,2.62442
0.947766,-0.116439,2.428,2.60902
0.948955,-0.115624,2.411,2.59361
0.956781,-0.115624,2.411,2.59648
0.964606,-0.115624,2.411,2.59938
0.972432,-0.115624,2.411,2.60229
0.980257,-0.115624,2.411,2.60522
0.988083,-0.115624,2.411,2.60818
1.00293,-0.116439,2.428,2.62957
1.01789,-0.117254,2.445,2.65101
1.04093,-0.118981,2.481,2.69315
1.04898,-0.118981,2.481,2.69627
1.08047,-0.121618,2.536,2.75926
1.10501,-0.123441,2.574,2.80388
1.11337,-0.123441,2.574,2.80719
1.14743,-0.12627,2.633,2.87493
1.19286,-0.130298,2.717,2.97018
1.25121,-0.135669,2.829,3.09632
1.26039,-0.135669,2.829,3.10004
1.30189,-0.139122,2.901,3.18278
1.3339,-0.14152,2.951,3.24156
1.34348,-0.14152,2.951,3.24552
1.36498,-0.142767,2.977,3.27812
1.38665,-0.144014,3.003,3.31082
1.3964,-0.144014,3.003,3.31492
1.40614,-0.144014,3.003,3.31903
1.41589,-0.144014,3.003,3.32318
1.42564,-0.144014,3.003,3.32734
1.42296,-0.142767,2.977,3.30268
1.43262,-0.142767,2.977,3.30686
1.44228,-0.142767,2.977,3.31106
1.45195,-0.142767,2.977,3.31528
1.46161,-0.142767,2.977,3.31952
1.47127,-0.142767,2.977,3.32379
1.48093,-0.142767,2.977,3.32807
1.4906,-0.142767,2.977,3.33238
1.50026,-0.142767,2.977,3.33672
1.49673,-0.14152,2.951,3.31189
1.50631,-0.14152,2.951,3.31623
1.5426,-0.144014,3.003,3.37911
1.58026,-0.146604,3.057,3.44441
1.59019,-0.146604,3.057,3.44898
1.64408,-0.150632,3.141,3.54846
1.66954,-0.152023,3.17,3.586
1.67983,-0.152023,3.17,3.5908
1.72211,-0.1549,3.23,3.66368
1.76585,-0.157873,3.292,3.73904
1.81108,-0.160943,3.356,3.81689
1.82197,-0.160943,3.356,3.82207
1.85088,-0.162525,3.389,3.86491
1.88056,-0.164156,3.423,3.90901
1.89167,-0.164156,3.423,3.91437
1.90278,-0.164156,3.423,3.91975
1.91389,-0.164156,3.423,3.92516
1.925,-0.164156,3.423,3.93059
1.93611,-0.164156,3.423,3.93604
1.96713,-0.165834,3.458,3.98182
1.97836,-0.165834,3.458,3.98738
1.98958,-0.165834,3.458,3.99296
1.96088,-0.162525,3.389,3.91877
1.97188,-0.162525,3.389,3.92429
1.98288,-0.162525,3.389,3.92983
1.95564,-0.159408,3.324,3.85991
1.96643,-0.159408,3.324,3.86539
1.95818,-0.157873,3.292,3.83362
1.94973,-0.156339,3.26,3.80177
1.96031,-0.156339,3.26,3.80721
1.93401,-0.153413,3.199,3.74133
1.92677,-0.152023,3.17,3.71274
1.93706,-0.152023,3.17,3.71809
1.89452,-0.147898,3.084,3.62245
1.88785,-0.146604,3.057,3.59593
1.89778,-0.146604,3.057,3.60115
1.89085,-0.145309,3.03,3.57454
1.86744,-0.142767,2.977,3.51713
1.8771,-0.142767,2.977,3.52227
1.85444,-0.140321,2.926,3.467
1.84801,-0.139122,2.901,3.44243
1.82669,-0.13682,2.853,3.39045
1.82051,-0.135669,2.829,3.36688
1.79994,-0.133464,2.783,3.31703
1.78037,-0.131353,2.739,3.26942
1.78926,-0.131353,2.739,3.27427
1.78371,-0.130298,2.717,3.2528
1.77867,-0.129291,2.696,3.23246
1.78743,-0.129291,2.696,3.23729
1.76819,-0.127277,2.654,3.19162
1.74936,-0.125311,2.613,3.14702
1.75784,-0.125311,2.613,3.15174
1.7528,-0.124352,2.593,3.13232
1.74831,-0.123441,2.574,3.11405
-2.13947,-0.137891,3.084,3.75598
-2.11082,-0.136684,3.057,3.71746
-2.1009,-0.136684,3.057,3.71183
-2.07251,-0.135477,3.03,3.67349
-2.02659,-0.133107,2.977,3.60379
-2.01693,-0.133107,2.977,3.59837
-1.98974,-0.131945,2.951,3.56158
-1.98016,-0.131945,2.951,3.55624
-1.97058,-0.131945,2.951,3.55091
-1.92778,-0.129709,2.901,3.48553
-1.88662,-0.127563,2.853,3.42275
-1.87736,-0.127563,2.853,3.41765
-1.8681,-0.127563,2.853,3.41258
-1.85884,-0.127563,2.853,3.40752
-1.83402,-0.12649,2.829,3.37385
-1.82484,-0.12649,2.829,3.36887
-1.81565,-0.12649,2.829,3.3639
nan,nan,nan,NaN
nan,nan,nan,NaN
-1.78811,-0.12649,2.829,3.34911
-1.76446,-0.125461,2.806,3.31703
-1.75535,-0.125461,2.806,3.3122
-1.74625,-0.125461,2.806,3.30738
-1.73714,-0.125461,2.806,3.30258
-1.72803,-0.125461,2.806,3.2978
-1.71892,-0.125461,2.806,3.29304
-1.70982,-0.125461,2.806,3.28829
-1.70071,-0.125461,2.806,3.28356
-1.6916,-0.125461,2.806,3.27886
-1.68249,-0.125461,2.806,3.27417
-1.67339,-0.125461,2.806,3.2695
-1.66428,-0.125461,2.806,3.26484
-1.65517,-0.125461,2.806,3.26021
-1.64606,-0.125461,2.806,3.2556
-1.63696,-0.125461,2.806,3.251
nan,nan,nan,NaN
nan,nan,nan,NaN
nan,nan,nan,NaN
nan,nan,nan,NaN
nan,nan,nan,NaN
nan,nan,nan,NaN
nan,nan,nan,NaN
nan,nan,nan,NaN
nan,nan,nan,NaN
nan,nan,nan,NaN
nan,nan,nan,NaN
nan,nan,nan,NaN
nan,nan,nan,NaN
nan,nan,nan,NaN
nan,nan,nan,NaN
nan,nan,nan,NaN
nan,nan,nan,NaN
nan,nan,nan,NaN
nan,nan,nan,NaN
nan,nan,nan,NaN
nan,nan,nan,NaN
nan,nan,nan,NaN
nan,nan,nan,NaN
nan,nan,nan,NaN
nan,nan,nan,NaN
-1.31383,-0.117726,2.633,2.94495
-1.30529,-0.117726,2.633,2.94114
-1.27704,-0.115938,2.593,2.89274
-1.25933,-0.115088,2.574,2.86786
-1.25098,-0.115088,2.574,2.8642
-1.23345,-0.114239,2.555,2.83945
-1.21605,-0.113389,2.536,2.81477
-1.20781,-0.113389,2.536,2.81122
-1.1906,-0.11254,2.517,2.78666
-1.18243,-0.11254,2.517,2.78318
-1.15746,-0.11093,2.481,2.73996
-1.14941,-0.11093,2.481,2.73657
-1.13308,-0.110125,2.463,2.71337
-1.11686,-0.109321,2.445,2.69023
-1.10892,-0.109321,2.445,2.68695
-1.09333,-0.10856,2.428,2.66502
-1.07785,-0.1078,2.411,2.64316
-1.07003,-0.1078,2.411,2.63998
-1.05471,-0.10704,2.394,2.61823
-1.04694,-0.10704,2.394,2.61511
-1.03917,-0.10704,2.394,2.612
-1.0314,-0.10704,2.394,2.60892
-1.02363,-0.10704,2.394,2.60586
-1.00865,-0.10628,2.377,2.58434
-1.00093,-0.10628,2.377,2.58133
-0.993215,-0.10628,2.377,2.57835
-0.9855,-0.10628,2.377,2.57539
-0.977785,-0.10628,2.377,2.57245
-0.970069,-0.10628,2.377,2.56953
-0.962354,-0.10628,2.377,2.56662
-0.954639,-0.10628,2.377,2.56374
-0.946924,-0.10628,2.377,2.56088
-0.939209,-0.10628,2.377,2.55803
-0.931494,-0.10628,2.377,2.55521
-0.91756,-0.105565,2.361,2.53523
-0.909897,-0.105565,2.361,2.53246
-0.902234,-0.105565,2.361,2.52972
-0.894571,-0.105565,2.361,2.527
-0.886907,-0.105565,2.361,2.5243
-0.879244,-0.105565,2.361,2.52161
-0.871581,-0.105565,2.361,2.51895
-0.863918,-0.105565,2.361,2.51631
-0.856255,-0.105565,2.361,2.51369
-0.848591,-0.105565,2.361,2.51109
-0.840928,-0.105565,2.361,2.50851
-0.833265,-0.105565,2.361,2.50595
-0.825602,-0.105565,2.361,2.50341
-0.817938,-0.105565,2.361,2.5009
-0.810275,-0.105565,2.361,2.4984
-0.802612,-0.105565,2.361,2.49593
-0.794949,-0.105565,2.361,2.49347
-0.787286,-0.105565,2.361,2.49104
-0.779622,-0.105565,2.361,2.48863
-0.771959,-0.105565,2.361,2.48624
-0.764296,-0.105565,2.361,2.48387
-0.76176,-0.10628,2.377,2.49834
-0.754045,-0.10628,2.377,2.496
-0.74633,-0.10628,2.377,2.49368
-0.738615,-0.10628,2.377,2.49138
-0.736127,-0.10704,2.394,2.50691
-0.728357,-0.10704,2.394,2.50464
-0.720586,-0.10704,2.394,2.50239
-0.712816,-0.10704,2.394,2.50016
-0.705046,-0.10704,2.394,2.49796
-0.697275,-0.10704,2.394,2.49577
-0.689505,-0.10704,2.394,2.49361
-0.681735,-0.10704,2.394,2.49148
-0.673964,-0.10704,2.394,2.48936
-0.666194,-0.10704,2.394,2.48727
-0.658424,-0.10704,2.394,2.4852
-0.650653,-0.10704,2.394,2.48315
-0.642883,-0.10704,2.394,2.48113
-0.635113,-0.10704,2.394,2.47913
-0.627342,-0.10704,2.394,2.47715
-0.619572,-0.10704,2.394,2.47519
-0.611802,-0.10704,2.394,2.47326
-0.604031,-0.10704,2.394,2.47135
-0.596261,-0.10704,2.394,2.46946
-0.59267,-0.1078,2.411,2.48512
-0.584844,-0.1078,2.411,2.48326
-0.577019,-0.1078,2.411,2.48143
-0.569193,-0.1078,2.411,2.47962
-0.561368,-0.1078,2.411,2.47784
-0.553542,-0.1078,2.411,2.47608
-0.545717,-0.1078,2.411,2.47434
-0.537891,-0.1078,2.411,2.47262
-0.533803,-0.10856,2.428,2.48836
-0.52224,-0.1078,2.411,2.46927
-0.514415,-0.1078,2.411,2.46762
-0.510161,-0.10856,2.428,2.48339
-0.50228,-0.10856,2.428,2.48178
-0.4944,-0.10856,2.428,2.4802
-0.486519,-0.10856,2.428,2.47864
-0.481989,-0.109321,2.445,2.49445
-0.470758,-0.10856,2.428,2.4756
-0.462877,-0.10856,2.428,2.47411
-0.454996,-0.10856,2.428,2.47265
-0.447115,-0.10856,2.428,2.47121
-0.44231,-0.109321,2.445,2.48709
-0.434374,-0.109321,2.445,2.48569
-0.426438,-0.109321,2.445,2.48432
-0.418503,-0.109321,2.445,2.48297
-0.410567,-0.109321,2.445,2.48164
-0.402631,-0.109321,2.445,2.48034
-0.394695,-0.109321,2.445,2.47906
-0.389606,-0.110125,2.463,2.49605
-0.381612,-0.110125,2.463,2.49482
-0.373618,-0.110125,2.463,2.49361
-0.365624,-0.110125,2.463,2.49242
-0.357629,-0.110125,2.463,2.49126
-0.349635,-0.110125,2.463,2.49013
-0.344137,-0.11093,2.481,2.50721
-0.336085,-0.11093,2.481,2.50612
-0.328032,-0.11093,2.481,2.50505
-0.319979,-0.11093,2.481,2.50401
-0.311927,-0.11093,2.481,2.50299
-0.303874,-0.11093,2.481,2.502
-0.295821,-0.11093,2.481,2.50104
-0.287769,-0.11093,2.481,2.5001
-0.279716,-0.11093,2.481,2.49918
-0.271663,-0.11093,2.481,2.49829
-0.261698,-0.110125,2.463,2.47931
-0.253704,-0.110125,2.463,2.47848
-0.247505,-0.11093,2.481,2.49578
-0.239452,-0.11093,2.481,2.495
-0.2314,-0.11093,2.481,2.49424
-0.223347,-0.11093,2.481,2.4935
-0.215294,-0.11093,2.481,2.49279
-0.205738,-0.110125,2.463,2.47403
-0.197744,-0.110125,2.463,2.47338
-0.189749,-0.110125,2.463,2.47275
-0.181755,-0.110125,2.463,2.47215
-0.173761,-0.110125,2.463,2.47158
-0.165766,-0.110125,2.463,2.47103
-0.157772,-0.110125,2.463,2.4705
-0.149778,-0.110125,2.463,2.47001
-0.141784,-0.110125,2.463,2.46953
-0.133789,-0.110125,2.463,2.46909
-0.125795,-0.110125,2.463,2.46867
-0.117801,-0.110125,2.463,2.46827
-0.109806,-0.110125,2.463,2.4679
-0.101812,-0.110125,2.463,2.46756
-0.0938178,-0.110125,2.463,2.46725
-0.0858236,-0.110125,2.463,2.46695
-0.0778293,-0.110125,2.463,2.46669
-0.069835,-0.110125,2.463,2.46645
-0.0618407,-0.110125,2.463,2.46624
-0.0538464,-0.110125,2.463,2.46605
-0.0458521,-0.110125,2.463,2.46589
-0.0378578,-0.110125,2.463,2.46575
-0.0298635,-0.110125,2.463,2.46564
-0.0218693,-0.110125,2.463,2.46556
-0.013875,-0.110125,2.463,2.4655
-0.00588068,-0.110125,2.463,2.46547
0.0021136,-0.110125,2.463,2.46546
0.0101079,-0.110125,2.463,2.46548
0.0179699,-0.109321,2.445,2.44751
0.0259057,-0.109321,2.445,2.44758
0.0338416,-0.109321,2.445,2.44768
0.0417775,-0.109321,2.445,2.4478
0.0493677,-0.10856,2.428,2.43093
0.0572484,-0.10856,2.428,2.4311
0.065129,-0.10856,2.428,2.4313
0.0730097,-0.10856,2.428,2.43152
0.0803241,-0.1078,2.411,2.41475
0.0881496,-0.1078,2.411,2.41502
0.0959751,-0.1078,2.411,2.41532
0.103801,-0.1078,2.411,2.41564
0.111626,-0.1078,2.411,2.41599
0.118609,-0.10704,2.394,2.39933
0.12638,-0.10704,2.394,2.39972
0.13415,-0.10704,2.394,2.40014
0.14192,-0.10704,2.394,2.40059
0.149691,-0.10704,2.394,2.40106
0.158579,-0.1078,2.411,2.41861
0.166405,-0.1078,2.411,2.41914
0.17423,-0.1078,2.411,2.41969
0.182056,-0.1078,2.411,2.42027
0.189881,-0.1078,2.411,2.42087
0.197707,-0.1078,2.411,2.42149
0.205532,-0.1078,2.411,2.42214
0.214862,-0.10856,2.428,2.4399
0.222743,-0.10856,2.428,2.44061
0.230623,-0.10856,2.428,2.44134
0.238504,-0.10856,2.428,2.4421
0.24811,-0.109321,2.445,2.45999
0.256046,-0.109321,2.445,2.4608
0.263982,-0.109321,2.445,2.46164
0.271917,-0.109321,2.445,2.4625
0.279853,-0.109321,2.445,2.46339
0.287789,-0.109321,2.445,2.46431
0.295725,-0.109321,2.445,2.46524
0.303661,-0.109321,2.445,2.46621
0.311597,-0.109321,2.445,2.4672
0.321885,-0.110125,2.463,2.48638
0.329879,-0.110125,2.463,2.48743
0.335404,-0.109321,2.445,2.47032
0.34334,-0.109321,2.445,2.47141
0.351276,-0.109321,2.445,2.47252
0.359212,-0.109321,2.445,2.47366
0.367148,-0.109321,2.445,2.47483
0.375084,-0.109321,2.445,2.47602
0.38302,-0.109321,2.445,2.47723
0.388237,-0.10856,2.428,2.46124
0.396118,-0.10856,2.428,2.46249
0.403999,-0.10856,2.428,2.46377
0.411879,-0.10856,2.428,2.46508
0.41976,-0.10856,2.428,2.46641
0.427641,-0.10856,2.428,2.46776
0.435521,-0.10856,2.428,2.46914
0.443402,-0.10856,2.428,2.47054
0.451283,-0.10856,2.428,2.47197
0.459163,-0.10856,2.428,2.47342
0.467044,-0.10856,2.428,2.47489
0.474925,-0.10856,2.428,2.47639
0.482805,-0.10856,2.428,2.47792
0.490686,-0.10856,2.428,2.47946
0.498567,-0.10856,2.428,2.48104
0.506447,-0.10856,2.428,2.48263
0.517929,-0.109321,2.445,2.50164
0.525865,-0.109321,2.445,2.5033
0.533801,-0.109321,2.445,2.50498
0.541737,-0.109321,2.445,2.50668
0.549673,-0.109321,2.445,2.50841
0.561714,-0.110125,2.463,2.52864
0.569708,-0.110125,2.463,2.53043
0.577702,-0.110125,2.463,2.53224
0.585697,-0.110125,2.463,2.53408
0.593691,-0.110125,2.463,2.53593
0.601685,-0.110125,2.463,2.53782
0.614135,-0.11093,2.481,2.55829
0.622188,-0.11093,2.481,2.56023
0.63024,-0.11093,2.481,2.5622
0.638293,-0.11093,2.481,2.56419
0.646346,-0.11093,2.481,2.56621
0.654399,-0.11093,2.481,2.56825
0.662451,-0.11093,2.481,2.57031
0.670504,-0.11093,2.481,2.5724
0.678557,-0.11093,2.481,2.57451
0.686609,-0.11093,2.481,2.57665
0.694662,-0.11093,2.481,2.5788
0.702715,-0.11093,2.481,2.58098
0.710768,-0.11093,2.481,2.58319
0.71882,-0.11093,2.481,2.58541
0.726873,-0.11093,2.481,2.58767
0.734926,-0.11093,2.481,2.58994
0.748369,-0.111735,2.499,2.61104
0.75648,-0.111735,2.499,2.61338
0.764591,-0.111735,2.499,2.61574
0.772702,-0.111735,2.499,2.61812
0.780813,-0.111735,2.499,2.62053
0.788924,-0.111735,2.499,2.62295
0.802777,-0.11254,2.517,2.64432
0.810946,-0.11254,2.517,2.64681
0.819116,-0.11254,2.517,2.64932
0.827285,-0.11254,2.517,2.65186
0.841761,-0.113389,2.536,2.67446
0.849993,-0.113389,2.536,2.67706
0.858224,-0.113389,2.536,2.67968
0.866455,-0.113389,2.536,2.68233
0.874686,-0.113389,2.536,2.685
0.882918,-0.113389,2.536,2.68769
0.891149,-0.113389,2.536,2.69041
0.89938,-0.113389,2.536,2.69315
0.900811,-0.11254,2.517,2.67571
0.908981,-0.11254,2.517,2.67847
0.91715,-0.11254,2.517,2.68125
0.918703,-0.111735,2.499,2.66486
0.920138,-0.11093,2.481,2.64846
0.921457,-0.110125,2.463,2.63203
0.929451,-0.110125,2.463,2.63484
0.930594,-0.109321,2.445,2.61839
0.93853,-0.109321,2.445,2.62122
0.946466,-0.109321,2.445,2.62408
0.947766,-0.10856,2.428,2.60868
0.948955,-0.1078,2.411,2.59327
0.956781,-0.1078,2.411,2.59615
0.964606,-0.1078,2.411,2.59904
0.972432,-0.1078,2.411,2.60195
0.980257,-0.1078,2.411,2.60489
0.988083,-0.1078,2.411,2.60784
1.00293,-0.10856,2.428,2.62923
1.01789,-0.109321,2.445,2.65067
1.04093,-0.11093,2.481,2.69281
1.04898,-0.11093,2.481,2.69593
1.08047,-0.113389,2.536,2.75891
1.10501,-0.115088,2.574,2.80353
1.11337,-0.115088,2.574,2.80683
1.14743,-0.117726,2.633,2.87457
1.19286,-0.121482,2.717,2.96981
1.24104,-0.125461,2.806,3.07076
1.25015,-0.125461,2.806,3.07445
1.28035,-0.127563,2.853,3.12972
1.3113,-0.129709,2.901,3.18624
1.32072,-0.129709,2.901,3.19013
1.3416,-0.130827,2.926,3.22156
1.36264,-0.131945,2.951,3.25309
1.36059,-0.130827,2.926,3.22952
1.37009,-0.130827,2.926,3.23353
1.37959,-0.130827,2.926,3.23757
1.38908,-0.130827,2.926,3.24163
1.38663,-0.129709,2.901,3.21798
1.3845,-0.128636,2.877,3.19539
1.39384,-0.128636,2.877,3.19945
1.40317,-0.128636,2.877,3.20352
1.41251,-0.128636,2.877,3.20763
1.42185,-0.128636,2.877,3.21175
1.43119,-0.128636,2.877,3.21589
1.45254,-0.129709,2.901,3.24692
1.46196,-0.129709,2.901,3.25115
1.47137,-0.129709,2.901,3.25539
1.49355,-0.130827,2.926,3.28775
1.52925,-0.133107,2.977,3.34945
1.56631,-0.135477,3.03,3.41359
1.57614,-0.135477,3.03,3.41811
1.61424,-0.137891,3.084,3.48365
1.639,-0.139143,3.112,3.51997
1.6491,-0.139143,3.112,3.52469
1.69012,-0.141737,3.17,3.59521
1.7326,-0.144419,3.23,3.66819
1.77654,-0.147191,3.292,3.74366
1.78722,-0.147191,3.292,3.74875
1.81538,-0.148622,3.324,3.79034
1.84375,-0.150053,3.356,3.83206
1.85465,-0.150053,3.356,3.83731
1.88388,-0.151529,3.389,3.88037
1.89488,-0.151529,3.389,3.88573
1.90588,-0.151529,3.389,3.8911
1.91688,-0.151529,3.389,3.8965
1.94722,-0.153049,3.423,3.94107
1.95833,-0.153049,3.423,3.94657
1.94988,-0.151529,3.389,3.91284
1.94179,-0.150053,3.356,3.88018
1.95268,-0.150053,3.356,3.88564
1.94485,-0.148622,3.324,3.85403
1.93681,-0.147191,3.292,3.82233
1.9475,-0.147191,3.292,3.82775
1.93915,-0.145761,3.26,3.79594
1.93179,-0.144419,3.23,3.76637
1.94227,-0.144419,3.23,3.77176
1.93401,-0.143033,3.199,3.74092
1.90914,-0.14044,3.141,3.67837
1.91934,-0.14044,3.141,3.68368
1.87793,-0.136684,3.057,3.59034
1.87118,-0.135477,3.03,3.56379
1.88101,-0.135477,3.03,3.56896
1.874,-0.13427,3.003,3.5423
1.86744,-0.133107,2.977,3.51676
1.8771,-0.133107,2.977,3.5219
1.85444,-0.130827,2.926,3.46663
1.83272,-0.128636,2.877,3.41358
1.81133,-0.12649,2.829,3.36157
1.82051,-0.12649,2.829,3.36653
1.79994,-0.124433,2.783,3.31668
1.78037,-0.122466,2.739,3.26907
1.78926,-0.122466,2.739,3.27392
1.76992,-0.120543,2.696,3.22732
1.76482,-0.119604,2.675,3.20695
1.7735,-0.119604,2.675,3.21173
1.7542,-0.117726,2.633,3.16603
1.73597,-0.115938,2.593,3.12261
1.74439,-0.115938,2.593,3.12729
1.73996,-0.115088,2.574,3.10905
1.7225,-0.113389,2.536,3.06776
-2.12074,-0.126765,3.057,3.72275
-2.11082,-0.126765,3.057,3.71711
-2.1009,-0.126765,3.057,3.71148
-2.05404,-0.124525,3.003,3.64041
-2.02659,-0.123447,2.977,3.60345
-2.01693,-0.123447,2.977,3.59802
-1.98974,-0.122369,2.951,3.56124
-1.96338,-0.121333,2.926,3.52577
-1.95389,-0.121333,2.926,3.52049
-1.92778,-0.120296,2.901,3.4852
-1.90249,-0.119301,2.877,3.45121
-1.87736,-0.118305,2.853,3.41732
-1.8681,-0.118305,2.853,3.41224
-1.85884,-0.118305,2.853,3.40718
nan,nan,nan,NaN
nan,nan,nan,NaN
nan,nan,nan,NaN
nan,nan,nan,NaN
nan,nan,nan,NaN
nan,nan,nan,NaN
-1.76446,-0.116356,2.806,3.3167
-1.75535,-0.116356,2.806,3.31186
-1.74625,-0.116356,2.806,3.30705
-1.73714,-0.116356,2.806,3.30225
-1.72803,-0.116356,2.806,3.29746
-1.71892,-0.116356,2.806,3.2927
-1.70982,-0.116356,2.806,3.28796
-1.70071,-0.116356,2.806,3.28323
-1.6916,-0.116356,2.806,3.27852
-1.68249,-0.116356,2.806,3.27383
-1.67339,-0.116356,2.806,3.26916
-1.66428,-0.116356,2.806,3.26451
-1.65517,-0.116356,2.806,3.25987
-1.65956,-0.11731,2.829,3.28194
-1.66438,-0.118305,2.853,3.30511
nan,nan,nan,NaN
nan,nan,nan,NaN
nan,nan,nan,NaN
nan,nan,nan,NaN
nan,nan,nan,NaN
nan,nan,nan,NaN
nan,nan,nan,NaN
nan,nan,nan,NaN
nan,nan,nan,NaN
nan,nan,nan,NaN
nan,nan,nan,NaN
nan,nan,nan,NaN
nan,nan,nan,NaN
nan,nan,nan,NaN
nan,nan,nan,NaN
nan,nan,nan,NaN
nan,nan,nan,NaN
nan,nan,nan,NaN
nan,nan,nan,NaN
nan,nan,nan,NaN
nan,nan,nan,NaN
nan,nan,nan,NaN
nan,nan,nan,NaN
nan,nan,nan,NaN
nan,nan,nan,NaN
-1.31383,-0.109183,2.633,2.94462
-1.30529,-0.109183,2.633,2.94081
-1.27704,-0.107524,2.593,2.89241
-1.25933,-0.106736,2.574,2.86754
-1.25098,-0.106736,2.574,2.86388
-1.23345,-0.105948,2.555,2.83913
-1.21605,-0.10516,2.536,2.81445
-1.20781,-0.10516,2.536,2.8109
-1.1906,-0.104373,2.517,2.78634
-1.18243,-0.104373,2.517,2.78286
-1.15746,-0.10288,2.481,2.73965
-1.14941,-0.10288,2.481,2.73625
-1.13308,-0.102133,2.463,2.71305
-1.11686,-0.101387,2.445,2.68992
-1.10892,-0.101387,2.445,2.68664
-1.09333,-0.100682,2.428,2.66471
-1.07785,-0.099977,2.411,2.64285
-1.07003,-0.099977,2.411,2.63967
-1.05471,-0.0992721,2.394,2.61792
-1.04694,-0.0992721,2.394,2.6148
-1.03917,-0.0992721,2.394,2.6117
-1.0314,-0.0992721,2.394,2.60862
-1.02363,-0.0992721,2.394,2.60555
-1.00865,-0.0985671,2.377,2.58403
-1.00093,-0.0985671,2.377,2.58103
-0.993215,-0.0985671,2.377,2.57805
-0.9855,-0.0985671,2.377,2.57508
-0.977785,-0.0985671,2.377,2.57214
-0.970069,-0.0985671,2.377,2.56922
-0.962354,-0.0985671,2.377,2.56631
-0.954639,-0.0985671,2.377,2.56343
-0.946924,-0.0985671,2.377,2.56057
-0.939209,-0.0985671,2.377,2.55773
-0.931494,-0.0985671,2.377,2.5549
-0.91756,-0.0979037,2.361,2.53492
-0.909897,-0.0979037,2.361,2.53216
-0.902234,-0.0979037,2.361,2.52941
-0.894571,-0.0979037,2.361,2.52669
-0.886907,-0.0979037,2.361,2.52399
-0.879244,-0.0979037,2.361,2.5213
-0.871581,-0.0979037,2.361,2.51864
-0.863918,-0.0979037,2.361,2.516
-0.856255,-0.0979037,2.361,2.51338
-0.848591,-0.0979037,2.361,2.51078
-0.840928,-0.0979037,2.361,2.5082
-0.833265,-0.0979037,2.361,2.50564
-0.820007,-0.0972402,2.345,2.48614
-0.812395,-0.0972402,2.345,2.48364
-0.804784,-0.0972402,2.345,2.48116
-0.802612,-0.0979037,2.361,2.49561
-0.794949,-0.0979037,2.361,2.49316
-0.787286,-0.0979037,2.361,2.49073
-0.779622,-0.0979037,2.361,2.48832
-0.771959,-0.0979037,2.361,2.48593
-0.764296,-0.0979037,2.361,2.48356
-0.76176,-0.0985671,2.377,2.49802
-0.754045,-0.0985671,2.377,2.49568
-0.74633,-0.0985671,2.377,2.49336
-0.738615,-0.0985671,2.377,2.49106
-0.7309,-0.0985671,2.377,2.48879
-0.723184,-0.0985671,2.377,2.48653
-0.715469,-0.0985671,2.377,2.4843
-0.707754,-0.0985671,2.377,2.48209
-0.700039,-0.0985671,2.377,2.4799
-0.692324,-0.0985671,2.377,2.47773
-0.689505,-0.0992721,2.394,2.49329
-0.681735,-0.0992721,2.394,2.49116
-0.673964,-0.0992721,2.394,2.48904
-0.666194,-0.0992721,2.394,2.48695
-0.658424,-0.0992721,2.394,2.48488
-0.650653,-0.0992721,2.394,2.48283
-0.642883,-0.0992721,2.394,2.4808
-0.635113,-0.0992721,2.394,2.4788
-0.631797,-0.099977,2.411,2.49441
-0.623972,-0.099977,2.411,2.49244
-0.616146,-0.099977,2.411,2.49049
-0.608321,-0.099977,2.411,2.48857
-0.600495,-0.099977,2.411,2.48667
-0.59267,-0.099977,2.411,2.48479
-0.584844,-0.099977,2.411,2.48293
-0.577019,-0.099977,2.411,2.4811
-0.569193,-0.099977,2.411,2.47929
-0.561368,-0.099977,2.411,2.47751
-0.553542,-0.099977,2.411,2.47575
-0.545717,-0.099977,2.411,2.47401
-0.537891,-0.099977,2.411,2.4723
-0.533803,-0.100682,2.428,2.48802
-0.52224,-0.099977,2.411,2.46894
-0.514415,-0.099977,2.411,2.46729
-0.510161,-0.100682,2.428,2.48306
-0.50228,-0.100682,2.428,2.48145
-0.4944,-0.100682,2.428,2.47987
-0.486519,-0.100682,2.428,2.47831
-0.478638,-0.100682,2.428,2.47678
-0.470758,-0.100682,2.428,2.47526
-0.462877,-0.100682,2.428,2.47378
-0.454996,-0.100682,2.428,2.47232
-0.447115,-0.100682,2.428,2.47088
-0.439235,-0.100682,2.428,2.46946
-0.434374,-0.101387,2.445,2.48535
-0.426438,-0.101387,2.445,2.48398
-0.418503,-0.101387,2.445,2.48263
-0.410567,-0.101387,2.445,2.4813
-0.402631,-0.101387,2.445,2.48
-0.394695,-0.101387,2.445,2.47873
-0.386759,-0.101387,2.445,2.47748
-0.381612,-0.102133,2.463,2.49448
-0.373618,-0.102133,2.463,2.49327
-0.365624,-0.102133,2.463,2.49208
-0.357629,-0.102133,2.463,2.49092
-0.349635,-0.102133,2.463,2.48979
-0.344137,-0.10288,2.481,2.50687
-0.336085,-0.10288,2.481,2.50577
-0.328032,-0.10288,2.481,2.50471
-0.319979,-0.10288,2.481,2.50366
-0.311927,-0.10288,2.481,2.50265
-0.303874,-0.10288,2.481,2.50166
-0.295821,-0.10288,2.481,2.50069
-0.287769,-0.10288,2.481,2.49975
-0.279716,-0.10288,2.481,2.49884
-0.269692,-0.102133,2.463,2.47983
-0.261698,-0.102133,2.463,2.47897
-0.253704,-0.102133,2.463,2.47814
-0.245709,-0.102133,2.463,2.47733
-0.237715,-0.102133,2.463,2.47655
-0.229721,-0.102133,2.463,2.4758
-0.221726,-0.102133,2.463,2.47507
-0.213732,-0.102133,2.463,2.47436
-0.205738,-0.102133,2.463,2.47369
-0.197744,-0.102133,2.463,2.47304
-0.189749,-0.102133,2.463,2.47241
-0.181755,-0.102133,2.463,2.47181
-0.173761,-0.102133,2.463,2.47123
-0.165766,-0.102133,2.463,2.47068
-0.157772,-0.102133,2.463,2.47016
-0.149778,-0.102133,2.463,2.46966
-0.141784,-0.102133,2.463,2.46919
-0.133789,-0.102133,2.463,2.46874
-0.125795,-0.102133,2.463,2.46832
-0.117801,-0.102133,2.463,2.46793
-0.109806,-0.102133,2.463,2.46756
-0.101812,-0.102133,2.463,2.46722
-0.0938178,-0.102133,2.463,2.4669
-0.0858236,-0.102133,2.463,2.46661
-0.0778293,-0.102133,2.463,2.46635
-0.069835,-0.102133,2.463,2.46611
