-0.37364,-0.210547,2.517,2.55328
-0.36547,-0.210547,2.517,2.55209
-0.357301,-0.210547,2.517,2.55094
-0.349131,-0.210547,2.517,2.54981
-0.340961,-0.210547,2.517,2.5487
-0.332792,-0.210547,2.517,2.54762
-0.324622,-0.210547,2.517,2.54657
-0.316453,-0.210547,2.517,2.54554
-0.31061,-0.212136,2.536,2.56374
-0.300114,-0.210547,2.517,2.54356
-0.291944,-0.210547,2.517,2.54261
-0.283775,-0.210547,2.517,2.54168
-0.275605,-0.210547,2.517,2.54078
-0.267435,-0.210547,2.517,2.53991
-0.259266,-0.210547,2.517,2.53906
-0.249301,-0.209041,2.499,2.52009
-0.24119,-0.209041,2.499,2.5193
-0.233078,-0.209041,2.499,2.51854
-0.224967,-0.209041,2.499,2.5178
-0.216856,-0.209041,2.499,2.51709
-0.208745,-0.209041,2.499,2.5164
-0.200634,-0.209041,2.499,2.51574
-0.191136,-0.207535,2.481,2.49699
-0.183083,-0.207535,2.481,2.49639
-0.1763,-0.209041,2.499,2.51392
-0.168189,-0.209041,2.499,2.51336
-0.160078,-0.209041,2.499,2.51283
-0.151967,-0.209041,2.499,2.51233
-0.143856,-0.209041,2.499,2.51185
-0.135745,-0.209041,2.499,2.5114
-0.127634,-0.209041,2.499,2.51097
-0.119523,-0.209041,2.499,2.51057
-0.111411,-0.209041,2.499,2.5102
-0.1033,-0.209041,2.499,2.50985
-0.0951891,-0.209041,2.499,2.50953
-0.087078,-0.209041,2.499,2.50924
-0.0789668,-0.209041,2.499,2.50897
-0.0713661,-0.210547,2.517,2.5268
-0.0631965,-0.210547,2.517,2.52658
-0.055027,-0.210547,2.517,2.52639
-0.0472111,-0.212136,2.536,2.5453
-0.0389799,-0.212136,2.536,2.54516
-0.0307487,-0.212136,2.536,2.54504
-0.0225174,-0.212136,2.536,2.54496
-0.0142862,-0.212136,2.536,2.5449
-0.00605498,-0.212136,2.536,2.54486
0.00219255,-0.213725,2.555,2.56392
0.0104854,-0.213725,2.555,2.56395
0.0187783,-0.213725,2.555,2.56399
0.0270712,-0.213725,2.555,2.56407
0.0353641,-0.213725,2.555,2.56417
0.043657,-0.213725,2.555,2.5643
0.0519499,-0.213725,2.555,2.56445
0.0602428,-0.213725,2.555,2.56463
0.0685357,-0.213725,2.555,2.56484
0.0762573,-0.212136,2.536,2.546
0.0844885,-0.212136,2.536,2.54626
0.0927197,-0.212136,2.536,2.54655
0.100951,-0.212136,2.536,2.54686
0.109182,-0.212136,2.536,2.5472
0.117413,-0.212136,2.536,2.54756
0.125645,-0.212136,2.536,2.54796
0.133876,-0.212136,2.536,2.54838
0.142107,-0.212136,2.536,2.54882
0.150338,-0.212136,2.536,2.54929
0.15857,-0.212136,2.536,2.54979
0.166801,-0.212136,2.536,2.55032
0.175032,-0.212136,2.536,2.55087
0.183263,-0.212136,2.536,2.55145
0.191494,-0.212136,2.536,2.55205
0.201222,-0.213725,2.555,2.57181
0.209515,-0.213725,2.555,2.57247
0.217808,-0.213725,2.555,2.57316
0.226101,-0.213725,2.555,2.57387
0.234394,-0.213725,2.555,2.57462
0.242687,-0.213725,2.555,2.57538
0.250979,-0.213725,2.555,2.57618
0.259272,-0.213725,2.555,2.577
0.267565,-0.213725,2.555,2.57785
0.275858,-0.213725,2.555,2.57872
0.284151,-0.213725,2.555,2.57962
0.292444,-0.213725,2.555,2.58055
0.302973,-0.215315,2.574,2.6007
0.311328,-0.215315,2.574,2.60168
0.317323,-0.213725,2.555,2.58349
0.325615,-0.213725,2.555,2.58452
0.333908,-0.213725,2.555,2.58558
0.344746,-0.215315,2.574,2.60589
0.353101,-0.215315,2.574,2.60701
0.361455,-0.215315,2.574,2.60816
0.36981,-0.215315,2.574,2.60933
0.378164,-0.215315,2.574,2.61053
0.386519,-0.215315,2.574,2.61175
0.394873,-0.215315,2.574,2.613
0.403228,-0.215315,2.574,2.61427
0.411583,-0.215315,2.574,2.61558
0.419937,-0.215315,2.574,2.6169
0.428292,-0.215315,2.574,2.61826
0.436646,-0.215315,2.574,2.61964
0.445001,-0.215315,2.574,2.62104
0.453355,-0.215315,2.574,2.62247
0.458302,-0.213725,2.555,2.60456
0.466595,-0.213725,2.555,2.60603
0.474888,-0.213725,2.555,2.60753
0.479587,-0.212136,2.536,2.58965
0.487819,-0.212136,2.536,2.59119
0.49605,-0.212136,2.536,2.59275
0.504281,-0.212136,2.536,2.59434
0.512512,-0.212136,2.536,2.59595
0.520743,-0.212136,2.536,2.59759
0.525012,-0.210547,2.517,2.57978
0.533181,-0.210547,2.517,2.58145
0.541351,-0.210547,2.517,2.58315
0.54952,-0.210547,2.517,2.58488
0.55769,-0.210547,2.517,2.58663
0.561813,-0.209041,2.499,2.56989
0.569924,-0.209041,2.499,2.57168
0.578035,-0.209041,2.499,2.57348
0.586146,-0.209041,2.499,2.57532
0.594257,-0.209041,2.499,2.57718
0.602368,-0.209041,2.499,2.57906
0.610479,-0.209041,2.499,2.58097
0.618591,-0.209041,2.499,2.5829
0.622188,-0.207535,2.481,2.56623
0.63024,-0.207535,2.481,2.5682
0.638293,-0.207535,2.481,2.57018
0.646346,-0.207535,2.481,2.5722
0.654399,-0.207535,2.481,2.57423
0.662451,-0.207535,2.481,2.57629
0.670504,-0.207535,2.481,2.57837
0.678557,-0.207535,2.481,2.58048
0.686609,-0.207535,2.481,2.58261
0.694662,-0.207535,2.481,2.58476
0.702715,-0.207535,2.481,2.58694
0.715924,-0.209041,2.499,2.60792
0.724035,-0.209041,2.499,2.61016
0.732147,-0.209041,2.499,2.61242
0.740258,-0.209041,2.499,2.6147
0.748369,-0.209041,2.499,2.61701
0.75648,-0.209041,2.499,2.61934
0.764591,-0.209041,2.499,2.6217
0.772702,-0.209041,2.499,2.62407
0.780813,-0.209041,2.499,2.62647
0.788924,-0.209041,2.499,2.6289
0.791295,-0.207535,2.481,2.61239
0.799347,-0.207535,2.481,2.61484
0.8074,-0.207535,2.481,2.61731
0.815453,-0.207535,2.481,2.61981
0.823505,-0.207535,2.481,2.62233
0.831558,-0.207535,2.481,2.62487
0.839611,-0.207535,2.481,2.62743
0.841514,-0.20603,2.463,2.61093
0.849508,-0.20603,2.463,2.61352
0.857502,-0.20603,2.463,2.61613
0.859171,-0.204524,2.445,2.59962
0.867107,-0.204524,2.445,2.60225
0.875043,-0.204524,2.445,2.60491
0.87684,-0.203102,2.428,2.58946
0.88472,-0.203102,2.428,2.59214
0.892601,-0.203102,2.428,2.59484
0.894177,-0.20168,2.411,2.57937
0.902002,-0.20168,2.411,2.58209
0.903413,-0.200258,2.394,2.56661
0.904712,-0.198836,2.377,2.55111
0.912428,-0.198836,2.377,2.55386
0.920143,-0.198836,2.377,2.55662
0.927858,-0.198836,2.377,2.55941
0.935573,-0.198836,2.377,2.56222
0.943288,-0.198836,2.377,2.56505
0.951003,-0.198836,2.377,2.56789
0.958719,-0.198836,2.377,2.57076
0.966434,-0.198836,2.377,2.57365
0.974149,-0.198836,2.377,2.57655
nan,nan,nan,NaN
nan,nan,nan,NaN
nan,nan,nan,NaN
nan,nan,nan,NaN
nan,nan,nan,NaN
nan,nan,nan,NaN
nan,nan,nan,NaN
nan,nan,nan,NaN
nan,nan,nan,NaN
nan,nan,nan,NaN
nan,nan,nan,NaN
nan,nan,nan,NaN
nan,nan,nan,NaN
nan,nan,nan,NaN
nan,nan,nan,NaN
nan,nan,nan,NaN
nan,nan,nan,NaN
1.66977,-0.298296,3.566,3.94886
1.68134,-0.298296,3.566,3.95376
1.69292,-0.298296,3.566,3.9587
1.6868,-0.2952,3.529,3.92254
1.69826,-0.2952,3.529,3.92748
1.70971,-0.2952,3.529,3.93244
1.72117,-0.2952,3.529,3.93744
1.73262,-0.2952,3.529,3.94246
1.74408,-0.2952,3.529,3.9475
1.77394,-0.298296,3.566,3.99402
1.78551,-0.298296,3.566,3.99917
nan,nan,nan,NaN
nan,nan,nan,NaN
nan,nan,nan,NaN
nan,nan,nan,NaN
nan,nan,nan,NaN
nan,nan,nan,NaN
nan,nan,nan,NaN
nan,nan,nan,NaN
nan,nan,nan,NaN
2.00575,-0.314691,3.762,4.27489
1.99597,-0.311261,3.721,4.23398
2.00805,-0.311261,3.721,4.23969
2.02013,-0.311261,3.721,4.24543
2.01036,-0.307915,3.681,4.20549
2.02231,-0.307915,3.681,4.21121
2.03425,-0.307915,3.681,4.21696
2.0034,-0.301474,3.604,4.13441
2.0151,-0.301474,3.604,4.14009
2.00542,-0.298296,3.566,4.10208
1.99607,-0.2952,3.529,4.06513
2.00752,-0.2952,3.529,4.07077
1.99838,-0.292189,3.493,4.03484
1.98958,-0.289261,3.458,3.99998
2.00081,-0.289261,3.458,4.00558
2.01203,-0.289261,3.458,4.0112
2.02325,-0.289261,3.458,4.01684
2.01389,-0.286334,3.423,3.98179
2.025,-0.286334,3.423,3.98742
2.01588,-0.283489,3.389,3.95341
2.02688,-0.283489,3.389,3.95903
2.03788,-0.283489,3.389,3.96467
2.02893,-0.280729,3.356,3.93168
2.02037,-0.278052,3.324,3.89977
2.03116,-0.278052,3.324,3.90537
2.04195,-0.278052,3.324,3.91099
nan,nan,nan,NaN
nan,nan,nan,NaN
1.96012,-0.262744,3.141,3.71173
1.93456,-0.257976,3.084,3.64967
1.94457,-0.257976,3.084,3.65499
1.92035,-0.253459,3.03,3.59623
1.91299,-0.251201,3.003,3.5694
1.90609,-0.249026,2.977,3.54369
1.91575,-0.249026,2.977,3.54889
1.89243,-0.24476,2.926,3.49323
1.87007,-0.240661,2.877,3.4398
1.87941,-0.240661,2.877,3.44489
1.87299,-0.238653,2.853,3.42121
1.85125,-0.234722,2.806,3.36984
1.86035,-0.234722,2.806,3.37486
1.85414,-0.232798,2.783,3.35218
1.83371,-0.229117,2.739,3.30411
1.8426,-0.229117,2.739,3.30905
1.83662,-0.227277,2.717,3.28739
1.81691,-0.223763,2.675,3.24143
-2.13947,-0.247969,3.084,3.76163
-2.09218,-0.243627,3.03,3.69018
-2.08234,-0.243627,3.03,3.68462
-2.03625,-0.239366,2.977,3.61471
-1.99187,-0.235265,2.926,3.54745
-1.98238,-0.235265,2.926,3.54212
-1.97288,-0.235265,2.926,3.53682
-1.96338,-0.235265,2.926,3.53153
-1.95389,-0.235265,2.926,3.52626
-1.94439,-0.235265,2.926,3.521
-1.93489,-0.235265,2.926,3.51577
-1.94185,-0.237275,2.951,3.54055
-1.93227,-0.237275,2.951,3.5353
-1.93963,-0.239366,2.977,3.56118
-1.94682,-0.241456,3.003,3.58698
-1.97191,-0.245798,3.057,3.64611
-1.96198,-0.245798,3.057,3.64075
-1.9693,-0.247969,3.084,3.66752
-1.97708,-0.250221,3.112,3.6954
-1.96698,-0.250221,3.112,3.69001
-1.95688,-0.250221,3.112,3.68464
-1.96492,-0.252552,3.141,3.71357
-1.95473,-0.252552,3.141,3.70818
-1.94453,-0.252552,3.141,3.70282
-1.93434,-0.252552,3.141,3.69747
-1.92414,-0.252552,3.141,3.69215
-1.91395,-0.252552,3.141,3.68685
-1.90375,-0.252552,3.141,3.68157
-1.89356,-0.252552,3.141,3.67631
-1.88336,-0.252552,3.141,3.67106
-1.87317,-0.252552,3.141,3.66584
nan,nan,nan,NaN
nan,nan,nan,NaN
nan,nan,nan,NaN
nan,nan,nan,NaN
nan,nan,nan,NaN
nan,nan,nan,NaN
nan,nan,nan,NaN
nan,nan,nan,NaN
nan,nan,nan,NaN
nan,nan,nan,NaN
nan,nan,nan,NaN
nan,nan,nan,NaN
nan,nan,nan,NaN
nan,nan,nan,NaN
nan,nan,nan,NaN
nan,nan,nan,NaN
nan,nan,nan,NaN
nan,nan,nan,NaN
nan,nan,nan,NaN
nan,nan,nan,NaN
nan,nan,nan,NaN
nan,nan,nan,NaN
nan,nan,nan,NaN
nan,nan,nan,NaN
nan,nan,nan,NaN
nan,nan,nan,NaN
nan,nan,nan,NaN
nan,nan,nan,NaN
nan,nan,nan,NaN
nan,nan,nan,NaN
nan,nan,nan,NaN
nan,nan,nan,NaN
-1.21383,-0.199485,2.481,2.76921
-1.20578,-0.199485,2.481,2.76569
-1.18904,-0.198038,2.463,2.74215
-1.18104,-0.198038,2.463,2.73869
-1.17305,-0.198038,2.463,2.73526
-1.16505,-0.198038,2.463,2.73184
-1.15706,-0.198038,2.463,2.72844
-1.14906,-0.198038,2.463,2.72506
-1.14107,-0.198038,2.463,2.7217
-1.12479,-0.19659,2.445,2.69849
-1.11686,-0.19659,2.445,2.69519
-1.10892,-0.19659,2.445,2.69191
-1.10099,-0.19659,2.445,2.68865
-1.08545,-0.195223,2.428,2.66674
-1.07757,-0.195223,2.428,2.66354
-1.06969,-0.195223,2.428,2.66036
-1.06181,-0.195223,2.428,2.6572
-1.06131,-0.19659,2.445,2.67265
-1.05337,-0.19659,2.445,2.66951
-1.03817,-0.195223,2.428,2.64785
-1.03029,-0.195223,2.428,2.64477
-1.02241,-0.195223,2.428,2.64171
-1.01452,-0.195223,2.428,2.63867
-1.00664,-0.195223,2.428,2.63565
-0.998763,-0.195223,2.428,2.63265
-0.990883,-0.195223,2.428,2.62967
-0.983002,-0.195223,2.428,2.62671
-0.975121,-0.195223,2.428,2.62377
-0.960468,-0.193857,2.411,2.6025
-0.952643,-0.193857,2.411,2.59962
-0.944817,-0.193857,2.411,2.59676
-0.936992,-0.193857,2.411,2.59393
-0.922615,-0.19249,2.394,2.57284
-0.914845,-0.19249,2.394,2.57006
-0.907074,-0.19249,2.394,2.56731
-0.899304,-0.19249,2.394,2.56457
-0.891534,-0.19249,2.394,2.56186
-0.883763,-0.19249,2.394,2.55917
-0.875993,-0.19249,2.394,2.55649
-0.862057,-0.191123,2.377,2.53571
-0.854342,-0.191123,2.377,2.53309
-0.846627,-0.191123,2.377,2.5305
-0.838912,-0.191123,2.377,2.52793
-0.831197,-0.191123,2.377,2.52538
-0.823481,-0.191123,2.377,2.52285
-0.815766,-0.191123,2.377,2.52034
-0.81383,-0.19249,2.394,2.53586
-0.80606,-0.19249,2.394,2.53338
-0.79829,-0.19249,2.394,2.53092
-0.796133,-0.193857,2.411,2.54643
-0.788307,-0.193857,2.411,2.544
-0.780482,-0.193857,2.411,2.54158
-0.772656,-0.193857,2.411,2.53919
-0.764831,-0.193857,2.411,2.53682
-0.757005,-0.193857,2.411,2.53447
-0.754462,-0.195223,2.428,2.55
-0.746581,-0.195223,2.428,2.54768
-0.738701,-0.195223,2.428,2.54538
-0.73082,-0.195223,2.428,2.54311
-0.722939,-0.195223,2.428,2.54085
-0.715059,-0.195223,2.428,2.53862
-0.707178,-0.195223,2.428,2.53641
-0.704194,-0.19659,2.445,2.55197
-0.696258,-0.19659,2.445,2.54979
-0.688322,-0.19659,2.445,2.54764
-0.680386,-0.19659,2.445,2.54551
-0.67245,-0.19659,2.445,2.5434
-0.669406,-0.198038,2.463,2.56002
-0.656578,-0.19659,2.445,2.53925
-0.648643,-0.19659,2.445,2.53721
-0.640707,-0.19659,2.445,2.53519
-0.632771,-0.19659,2.445,2.53319
-0.624835,-0.19659,2.445,2.53122
-0.616899,-0.19659,2.445,2.52928
-0.608963,-0.19659,2.445,2.52735
-0.601027,-0.19659,2.445,2.52545
-0.597458,-0.198038,2.463,2.54215
-0.589464,-0.198038,2.463,2.54029
-0.581469,-0.198038,2.463,2.53844
-0.577666,-0.199485,2.481,2.55516
-0.569613,-0.199485,2.481,2.55335
-0.561561,-0.199485,2.481,2.55157
-0.553508,-0.199485,2.481,2.54981
-0.545455,-0.199485,2.481,2.54807
-0.537403,-0.199485,2.481,2.54636
-0.52935,-0.199485,2.481,2.54467
-0.521297,-0.199485,2.481,2.54301
-0.513244,-0.199485,2.481,2.54137
-0.505192,-0.199485,2.481,2.53976
-0.497139,-0.199485,2.481,2.53817
-0.489086,-0.199485,2.481,2.5366
-0.481034,-0.199485,2.481,2.53506
-0.476412,-0.200932,2.499,2.55193
-0.468301,-0.200932,2.499,2.55043
-0.46019,-0.200932,2.499,2.54895
-0.455335,-0.20238,2.517,2.56585
-0.447166,-0.20238,2.517,2.56441
-0.438996,-0.20238,2.517,2.563
-0.430827,-0.20238,2.517,2.56161
-0.422657,-0.20238,2.517,2.56025
-0.414487,-0.20238,2.517,2.55892
-0.406318,-0.20238,2.517,2.5576
-0.398148,-0.20238,2.517,2.55632
-0.389979,-0.20238,2.517,2.55506
-0.381809,-0.20238,2.517,2.55383
-0.37364,-0.20238,2.517,2.55262
-0.36547,-0.20238,2.517,2.55143
-0.357301,-0.20238,2.517,2.55028
-0.349131,-0.20238,2.517,2.54914
-0.340961,-0.20238,2.517,2.54804
-0.335304,-0.203907,2.536,2.56618
-0.327073,-0.203907,2.536,2.56512
-0.318842,-0.203907,2.536,2.56409
-0.31061,-0.203907,2.536,2.56307
-0.302379,-0.203907,2.536,2.56209
-0.294148,-0.203907,2.536,2.56113
-0.285917,-0.203907,2.536,2.5602
-0.277685,-0.203907,2.536,2.55929
-0.267435,-0.20238,2.517,2.53925
-0.259266,-0.20238,2.517,2.5384
-0.251096,-0.20238,2.517,2.53758
-0.242927,-0.20238,2.517,2.53678
-0.233078,-0.200932,2.499,2.51788
-0.224967,-0.200932,2.499,2.51714
-0.216856,-0.200932,2.499,2.51643
-0.208745,-0.200932,2.499,2.51574
-0.200634,-0.200932,2.499,2.51508
-0.192523,-0.200932,2.499,2.51445
-0.184412,-0.200932,2.499,2.51384
-0.1763,-0.200932,2.499,2.51326
-0.168189,-0.200932,2.499,2.5127
-0.160078,-0.200932,2.499,2.51217
-0.151967,-0.200932,2.499,2.51167
-0.143856,-0.200932,2.499,2.51119
-0.135745,-0.200932,2.499,2.51074
-0.127634,-0.200932,2.499,2.51031
-0.119523,-0.200932,2.499,2.50991
-0.111411,-0.200932,2.499,2.50954
-0.1033,-0.200932,2.499,2.50919
-0.0951891,-0.200932,2.499,2.50887
-0.087078,-0.200932,2.499,2.50858
-0.0789668,-0.200932,2.499,2.50831
-0.0713661,-0.20238,2.517,2.52613
-0.0631965,-0.20238,2.517,2.52591
-0.0546334,-0.200932,2.499,2.50766
-0.0465223,-0.200932,2.499,2.5075
-0.0389799,-0.203907,2.536,2.54448
-0.0307487,-0.203907,2.536,2.54437
-0.0225174,-0.203907,2.536,2.54428
-0.0142862,-0.203907,2.536,2.54422
-0.00605498,-0.203907,2.536,2.54419
0.00217625,-0.203907,2.536,2.54419
0.0104854,-0.205435,2.555,2.56327
0.0187783,-0.205435,2.555,2.56331
0.0270712,-0.205435,2.555,2.56339
0.0353641,-0.205435,2.555,2.56349
0.043657,-0.205435,2.555,2.56362
0.0519499,-0.205435,2.555,2.56377
0.0597948,-0.203907,2.536,2.54489
0.0680261,-0.203907,2.536,2.54509
0.0762573,-0.203907,2.536,2.54533
0.0844885,-0.203907,2.536,2.54559
0.0927197,-0.203907,2.536,2.54587
0.100951,-0.203907,2.536,2.54619
0.109182,-0.203907,2.536,2.54653
0.117413,-0.203907,2.536,2.54689
0.125645,-0.203907,2.536,2.54729
0.133876,-0.203907,2.536,2.5477
0.142107,-0.203907,2.536,2.54815
0.150338,-0.203907,2.536,2.54862
0.15857,-0.203907,2.536,2.54912
0.166801,-0.203907,2.536,2.54965
0.175032,-0.203907,2.536,2.5502
0.183263,-0.203907,2.536,2.55078
0.191494,-0.203907,2.536,2.55138
0.201222,-0.205435,2.555,2.57113
0.209515,-0.205435,2.555,2.57179
0.217808,-0.205435,2.555,2.57248
0.226101,-0.205435,2.555,2.5732
0.234394,-0.205435,2.555,2.57394
0.242687,-0.205435,2.555,2.57471
0.250979,-0.205435,2.555,2.5755
0.259272,-0.205435,2.555,2.57632
0.267565,-0.205435,2.555,2.57717
0.275858,-0.205435,2.555,2.57805
0.284151,-0.205435,2.555,2.57895
0.292444,-0.205435,2.555,2.57987
0.300737,-0.205435,2.555,2.58083
0.30903,-0.205435,2.555,2.58181
0.317323,-0.205435,2.555,2.58281
0.325615,-0.205435,2.555,2.58384
0.333908,-0.205435,2.555,2.5849
0.342201,-0.205435,2.555,2.58599
0.350494,-0.205435,2.555,2.5871
0.361455,-0.206963,2.574,2.60748
0.36981,-0.206963,2.574,2.60865
0.378164,-0.206963,2.574,2.60985
0.386519,-0.206963,2.574,2.61107
0.394873,-0.206963,2.574,2.61232
0.403228,-0.206963,2.574,2.6136
0.411583,-0.206963,2.574,2.6149
0.419937,-0.206963,2.574,2.61623
0.428292,-0.206963,2.574,2.61758
0.436646,-0.206963,2.574,2.61896
0.441716,-0.205435,2.555,2.60103
0.450009,-0.205435,2.555,2.60245
0.458302,-0.205435,2.555,2.60389
0.463125,-0.203907,2.536,2.58599
0.471356,-0.203907,2.536,2.58748
0.479587,-0.203907,2.536,2.58899
0.487819,-0.203907,2.536,2.59053
0.49605,-0.203907,2.536,2.59209
0.504281,-0.203907,2.536,2.59368
0.512512,-0.203907,2.536,2.59529
0.520743,-0.203907,2.536,2.59693
0.525012,-0.20238,2.517,2.57912
0.533181,-0.20238,2.517,2.5808
0.541351,-0.20238,2.517,2.5825
0.54952,-0.20238,2.517,2.58423
0.55769,-0.20238,2.517,2.58597
0.561813,-0.200932,2.499,2.56924
0.569924,-0.200932,2.499,2.57103
0.578035,-0.200932,2.499,2.57284
0.586146,-0.200932,2.499,2.57467
0.594257,-0.200932,2.499,2.57653
0.602368,-0.200932,2.499,2.57841
0.606082,-0.199485,2.481,2.56174
0.614135,-0.199485,2.481,2.56365
0.622188,-0.199485,2.481,2.56559
0.63024,-0.199485,2.481,2.56756
0.638293,-0.199485,2.481,2.56955
0.646346,-0.199485,2.481,2.57156
0.654399,-0.199485,2.481,2.5736
0.662451,-0.199485,2.481,2.57565
0.670504,-0.199485,2.481,2.57774
0.678557,-0.199485,2.481,2.57984
0.686609,-0.199485,2.481,2.58197
0.694662,-0.199485,2.481,2.58413
0.702715,-0.199485,2.481,2.5863
0.715924,-0.200932,2.499,2.60728
0.724035,-0.200932,2.499,2.60952
0.732147,-0.200932,2.499,2.61178
0.740258,-0.200932,2.499,2.61407
0.748369,-0.200932,2.499,2.61638
0.75648,-0.200932,2.499,2.61871
0.764591,-0.200932,2.499,2.62106
0.772702,-0.200932,2.499,2.62344
0.780813,-0.200932,2.499,2.62584
0.788924,-0.200932,2.499,2.62826
0.791295,-0.199485,2.481,2.61176
0.799347,-0.199485,2.481,2.61421
0.8074,-0.199485,2.481,2.61669
0.815453,-0.199485,2.481,2.61918
0.823505,-0.199485,2.481,2.6217
0.831558,-0.199485,2.481,2.62424
0.839611,-0.199485,2.481,2.6268
0.841514,-0.198038,2.463,2.61031
0.849508,-0.198038,2.463,2.6129
0.857502,-0.198038,2.463,2.61551
0.859171,-0.19659,2.445,2.59901
0.867107,-0.19659,2.445,2.60164
0.875043,-0.19659,2.445,2.6043
0.87684,-0.195223,2.428,2.58885
0.88472,-0.195223,2.428,2.59153
0.892601,-0.195223,2.428,2.59423
0.894177,-0.193857,2.411,2.57877
0.902002,-0.193857,2.411,2.58149
0.903413,-0.19249,2.394,2.56602
0.904712,-0.191123,2.377,2.55052
0.912428,-0.191123,2.377,2.55327
0.920143,-0.191123,2.377,2.55604
0.927858,-0.191123,2.377,2.55882
0.935573,-0.191123,2.377,2.56163
0.943288,-0.191123,2.377,2.56446
0.951003,-0.191123,2.377,2.56731
0.958719,-0.191123,2.377,2.57017
0.966434,-0.191123,2.377,2.57306
0.974149,-0.191123,2.377,2.57597
nan,nan,nan,NaN
nan,nan,nan,NaN
nan,nan,nan,NaN
nan,nan,nan,NaN
nan,nan,nan,NaN
nan,nan,nan,NaN
nan,nan,nan,NaN
nan,nan,nan,NaN
nan,nan,nan,NaN
nan,nan,nan,NaN
nan,nan,nan,NaN
nan,nan,nan,NaN
nan,nan,nan,NaN
nan,nan,nan,NaN
nan,nan,nan,NaN
nan,nan,nan,NaN
nan,nan,nan,NaN
1.66977,-0.286724,3.566,3.948
1.68134,-0.286724,3.566,3.95291
1.69292,-0.286724,3.566,3.95784
1.6868,-0.283749,3.529,3.92169
1.69826,-0.283749,3.529,3.92663
1.70971,-0.283749,3.529,3.9316
1.72117,-0.283749,3.529,3.93659
1.73262,-0.283749,3.529,3.94162
1.74408,-0.283749,3.529,3.94666
nan,nan,nan,NaN
nan,nan,nan,NaN
nan,nan,nan,NaN
nan,nan,nan,NaN
nan,nan,nan,NaN
nan,nan,nan,NaN
nan,nan,nan,NaN
nan,nan,nan,NaN
nan,nan,nan,NaN
nan,nan,nan,NaN
nan,nan,nan,NaN
2.00575,-0.302484,3.762,4.27401
1.99597,-0.299187,3.721,4.23311
2.00805,-0.299187,3.721,4.23882
2.02013,-0.299187,3.721,4.24456
2.01036,-0.295971,3.681,4.20463
2.02231,-0.295971,3.681,4.21035
2.03425,-0.295971,3.681,4.21611
2.0034,-0.28978,3.604,4.13357
2.0151,-0.28978,3.604,4.13925
2.00542,-0.286724,3.566,4.10125
1.99607,-0.283749,3.529,4.06431
2.00752,-0.283749,3.529,4.06995
1.99838,-0.280855,3.493,4.03404
1.98958,-0.278041,3.458,3.99919
2.00081,-0.278041,3.458,4.00478
2.01203,-0.278041,3.458,4.0104
2.02325,-0.278041,3.458,4.01605
2.01389,-0.275227,3.423,3.98101
2.025,-0.275227,3.423,3.98664
2.01588,-0.272493,3.389,3.95264
2.00714,-0.269839,3.356,3.91972
2.01804,-0.269839,3.356,3.92531
2.00958,-0.267266,3.324,3.89344
2.00092,-0.264693,3.292,3.86148
2.01161,-0.264693,3.292,3.86703
2.02229,-0.264693,3.292,3.8726
nan,nan,nan,NaN
nan,nan,nan,NaN
1.96012,-0.252552,3.141,3.71103
1.93456,-0.247969,3.084,3.64898
1.94457,-0.247969,3.084,3.6543
1.92035,-0.243627,3.03,3.59555
1.91299,-0.241456,3.003,3.56873
1.90609,-0.239366,2.977,3.54302
1.91575,-0.239366,2.977,3.54823
1.89243,-0.235265,2.926,3.49258
1.87007,-0.231325,2.877,3.43916
1.87941,-0.231325,2.877,3.44425
1.87299,-0.229396,2.853,3.42058
1.85125,-0.225617,2.806,3.36922
1.86035,-0.225617,2.806,3.37423
1.85414,-0.223767,2.783,3.35157
1.83371,-0.220229,2.739,3.3035
1.8426,-0.220229,2.739,3.30845
1.83662,-0.218461,2.717,3.28679
1.81691,-0.215084,2.675,3.24084
-2.13947,-0.237962,3.084,3.76099
-2.09218,-0.233795,3.03,3.68955
-2.08234,-0.233795,3.03,3.68398
-2.03625,-0.229706,2.977,3.61409
-1.99187,-0.225771,2.926,3.54683
-1.98238,-0.225771,2.926,3.54151
-1.97288,-0.225771,2.926,3.5362
-1.96338,-0.225771,2.926,3.53091
-1.95389,-0.225771,2.926,3.52564
-1.94439,-0.225771,2.926,3.52038
-1.93489,-0.225771,2.926,3.51515
-1.94185,-0.2277,2.951,3.53992
-1.93227,-0.2277,2.951,3.53467
-1.92269,-0.2277,2.951,3.52944
-1.92997,-0.229706,2.977,3.55529
-1.95449,-0.233795,3.03,3.61325
-1.94466,-0.233795,3.03,3.60794
-1.95206,-0.235879,3.057,3.63475
-1.95929,-0.237962,3.084,3.66149
-1.94928,-0.237962,3.084,3.65614
-1.93927,-0.237962,3.084,3.65082
-1.94678,-0.240123,3.112,3.67861
-1.93668,-0.240123,3.112,3.67327
-1.92658,-0.240123,3.112,3.66796
-1.91648,-0.240123,3.112,3.66266
-1.90638,-0.240123,3.112,3.65739
-1.89628,-0.240123,3.112,3.65213
-1.88618,-0.240123,3.112,3.6469
-1.87607,-0.240123,3.112,3.64168
-1.84918,-0.237962,3.084,3.60377
-1.83917,-0.237962,3.084,3.59865
nan,nan,nan,NaN
nan,nan,nan,NaN
nan,nan,nan,NaN
nan,nan,nan,NaN
nan,nan,nan,NaN
nan,nan,nan,NaN
nan,nan,nan,NaN
nan,nan,nan,NaN
nan,nan,nan,NaN
nan,nan,nan,NaN
nan,nan,nan,NaN
nan,nan,nan,NaN
nan,nan,nan,NaN
nan,nan,nan,NaN
nan,nan,nan,NaN
nan,nan,nan,NaN
nan,nan,nan,NaN
nan,nan,nan,NaN
nan,nan,nan,NaN
nan,nan,nan,NaN
nan,nan,nan,NaN
nan,nan,nan,NaN
nan,nan,nan,NaN
nan,nan,nan,NaN
nan,nan,nan,NaN
nan,nan,nan,NaN
nan,nan,nan,NaN
nan,nan,nan,NaN
nan,nan,nan,NaN
nan,nan,nan,NaN
nan,nan,nan,NaN
nan,nan,nan,NaN
-1.21383,-0.191435,2.481,2.76864
-1.20578,-0.191435,2.481,2.76512
-1.19772,-0.191435,2.481,2.76162
-1.18967,-0.191435,2.481,2.75814
-1.18162,-0.191435,2.481,2.75467
-1.17357,-0.191435,2.481,2.75123
-1.16551,-0.191435,2.481,2.7478
-1.15746,-0.191435,2.481,2.7444
-1.14107,-0.190046,2.463,2.72113
-1.13308,-0.190046,2.463,2.71778
-1.12508,-0.190046,2.463,2.71446
-1.11709,-0.190046,2.463,2.71116
-1.10099,-0.188657,2.445,2.68808
-1.09305,-0.188657,2.445,2.68484
-1.08512,-0.188657,2.445,2.68162
-1.07718,-0.188657,2.445,2.67842
-1.06924,-0.188657,2.445,2.67524
-1.06131,-0.188657,2.445,2.67208
-1.05337,-0.188657,2.445,2.66893
-1.04544,-0.188657,2.445,2.66581
-1.0375,-0.188657,2.445,2.66271
-1.02956,-0.188657,2.445,2.65963
-1.02163,-0.188657,2.445,2.65657
-1.01369,-0.188657,2.445,2.65352
-1.00576,-0.188657,2.445,2.6505
-0.990883,-0.187345,2.428,2.62909
-0.983002,-0.187345,2.428,2.62613
-0.975121,-0.187345,2.428,2.62319
-0.967241,-0.187345,2.428,2.62027
-0.95936,-0.187345,2.428,2.61738
-0.951479,-0.187345,2.428,2.6145
-0.936992,-0.186033,2.411,2.59335
-0.929166,-0.186033,2.411,2.59054
-0.921341,-0.186033,2.411,2.58774
-0.913515,-0.186033,2.411,2.58496
-0.899304,-0.184722,2.394,2.564
-0.891534,-0.184722,2.394,2.56129
-0.883763,-0.184722,2.394,2.55859
-0.875993,-0.184722,2.394,2.55592
-0.868223,-0.184722,2.394,2.55327
-0.860452,-0.184722,2.394,2.55063
-0.852682,-0.184722,2.394,2.54802
-0.844912,-0.184722,2.394,2.54543
-0.837141,-0.184722,2.394,2.54287
-0.829371,-0.184722,2.394,2.54032
-0.821601,-0.184722,2.394,2.53779
-0.81383,-0.184722,2.394,2.53529
-0.811784,-0.186033,2.411,2.55079
-0.803958,-0.186033,2.411,2.54831
-0.796133,-0.186033,2.411,2.54585
-0.788307,-0.186033,2.411,2.54341
-0.780482,-0.186033,2.411,2.541
-0.772656,-0.186033,2.411,2.53861
-0.770224,-0.187345,2.428,2.55412
-0.762343,-0.187345,2.428,2.55175
-0.754462,-0.187345,2.428,2.54941
-0.746581,-0.187345,2.428,2.54709
-0.738701,-0.187345,2.428,2.54479
-0.73082,-0.187345,2.428,2.54251
-0.728001,-0.188657,2.445,2.55805
-0.720065,-0.188657,2.445,2.5558
-0.712129,-0.188657,2.445,2.55358
-0.704194,-0.188657,2.445,2.55137
-0.701384,-0.190046,2.463,2.56796
-0.693389,-0.190046,2.463,2.56579
-0.685395,-0.190046,2.463,2.56364
-0.677401,-0.190046,2.463,2.56151
-0.669406,-0.190046,2.463,2.55941
-0.656578,-0.188657,2.445,2.53864
-0.648643,-0.188657,2.445,2.5366
-0.640707,-0.188657,2.445,2.53459
-0.632771,-0.188657,2.445,2.53259
-0.624835,-0.188657,2.445,2.53062
-0.616899,-0.188657,2.445,2.52867
-0.608963,-0.188657,2.445,2.52675
-0.601027,-0.188657,2.445,2.52485
-0.597458,-0.190046,2.463,2.54154
-0.589464,-0.190046,2.463,2.53968
-0.581469,-0.190046,2.463,2.53783
-0.573475,-0.190046,2.463,2.53601
-0.569613,-0.191435,2.481,2.55274
-0.561561,-0.191435,2.481,2.55095
-0.553508,-0.191435,2.481,2.54919
-0.545455,-0.191435,2.481,2.54746
-0.537403,-0.191435,2.481,2.54574
-0.52935,-0.191435,2.481,2.54406
-0.521297,-0.191435,2.481,2.54239
-0.513244,-0.191435,2.481,2.54075
-0.505192,-0.191435,2.481,2.53914
-0.497139,-0.191435,2.481,2.53755
-0.489086,-0.191435,2.481,2.53598
-0.481034,-0.191435,2.481,2.53444
-0.476412,-0.192823,2.499,2.5513
-0.468301,-0.192823,2.499,2.5498
-0.46019,-0.192823,2.499,2.54832
-0.455335,-0.194212,2.517,2.56522
-0.447166,-0.194212,2.517,2.56378
-0.438996,-0.194212,2.517,2.56237
-0.430827,-0.194212,2.517,2.56098
-0.422657,-0.194212,2.517,2.55962
-0.414487,-0.194212,2.517,2.55828
-0.406318,-0.194212,2.517,2.55697
-0.398148,-0.194212,2.517,2.55569
-0.389979,-0.194212,2.517,2.55443
-0.381809,-0.194212,2.517,2.55319
-0.37364,-0.194212,2.517,2.55198
-0.36547,-0.194212,2.517,2.5508
-0.357301,-0.194212,2.517,2.54964
-0.349131,-0.194212,2.517,2.54851
-0.340961,-0.194212,2.517,2.5474
-0.335304,-0.195678,2.536,2.56554
-0.327073,-0.195678,2.536,2.56448
-0.318842,-0.195678,2.536,2.56344
-0.31061,-0.195678,2.536,2.56243
-0.302379,-0.195678,2.536,2.56145
-0.294148,-0.195678,2.536,2.56049
-0.285917,-0.195678,2.536,2.55956
-0.277685,-0.195678,2.536,2.55865
-0.267435,-0.194212,2.517,2.53861
-0.259266,-0.194212,2.517,2.53776
-0.251096,-0.194212,2.517,2.53694
-0.242927,-0.194212,2.517,2.53614
-0.233078,-0.192823,2.499,2.51724
-0.224967,-0.192823,2.499,2.5165
-0.216856,-0.192823,2.499,2.51579
-0.208745,-0.192823,2.499,2.51511
-0.200634,-0.192823,2.499,2.51445
-0.192523,-0.192823,2.499,2.51381
-0.184412,-0.192823,2.499,2.5132
-0.1763,-0.192823,2.499,2.51262
-0.168189,-0.192823,2.499,2.51206
-0.160078,-0.192823,2.499,2.51153
-0.151967,-0.192823,2.499,2.51103
-0.143856,-0.192823,2.499,2.51055
-0.135745,-0.192823,2.499,2.5101
-0.127634,-0.192823,2.499,2.50968
-0.119523,-0.192823,2.499,2.50928
-0.111411,-0.192823,2.499,2.5089
-0.1033,-0.192823,2.499,2.50856
-0.0951891,-0.192823,2.499,2.50823
-0.087078,-0.192823,2.499,2.50794
-0.0789668,-0.192823,2.499,2.50767
-0.0713661,-0.194212,2.517,2.52549
-0.0627446,-0.192823,2.499,2.50721
-0.0546334,-0.192823,2.499,2.50702
-0.0465223,-0.192823,2.499,2.50686
-0.0384112,-0.192823,2.499,2.50672
-0.0303,-0.192823,2.499,2.50661
-0.0223487,-0.194212,2.517,2.52458
-0.0141792,-0.194212,2.517,2.52452
-0.00600962,-0.194212,2.517,2.52449
0.00215994,-0.194212,2.517,2.52448
0.0103295,-0.194212,2.517,2.5245
0.0184991,-0.194212,2.517,2.52455
0.0268699,-0.195678,2.536,2.54368
0.0351011,-0.195678,2.536,2.54378
0.0433324,-0.195678,2.536,2.54391
0.0515636,-0.195678,2.536,2.54406
0.0597948,-0.195678,2.536,2.54424
0.0680261,-0.195678,2.536,2.54445
0.075686,-0.194212,2.517,2.52562
0.0838555,-0.194212,2.517,2.52587
0.0927197,-0.195678,2.536,2.54523
0.100951,-0.195678,2.536,2.54554
0.11,-0.197144,2.555,2.56495
0.118293,-0.197144,2.555,2.56532
0.125645,-0.195678,2.536,2.54664
0.133876,-0.195678,2.536,2.54706
0.142107,-0.195678,2.536,2.5475
0.150338,-0.195678,2.536,2.54798
0.15857,-0.195678,2.536,2.54848
0.166801,-0.195678,2.536,2.549
0.175032,-0.195678,2.536,2.54955
0.183263,-0.195678,2.536,2.55013
0.191494,-0.195678,2.536,2.55074
0.201222,-0.197144,2.555,2.57048
0.209515,-0.197144,2.555,2.57115
0.216188,-0.195678,2.536,2.55271
0.224419,-0.195678,2.536,2.55342
0.232651,-0.195678,2.536,2.55416
0.240882,-0.195678,2.536,2.55492
0.249113,-0.195678,2.536,2.55571
0.257344,-0.195678,2.536,2.55652
0.265575,-0.195678,2.536,2.55737
0.273807,-0.195678,2.536,2.55823
0.282038,-0.195678,2.536,2.55913
0.290269,-0.195678,2.536,2.56005
0.2985,-0.195678,2.536,2.56099
0.306732,-0.195678,2.536,2.56197
0.314963,-0.195678,2.536,2.56296
0.323194,-0.195678,2.536,2.56399
0.331425,-0.195678,2.536,2.56504
0.339657,-0.195678,2.536,2.56612
0.347888,-0.195678,2.536,2.56722
0.358787,-0.197144,2.555,2.58759
0.36708,-0.197144,2.555,2.58875
0.375373,-0.197144,2.555,2.58994
0.383666,-0.197144,2.555,2.59116
0.391959,-0.197144,2.555,2.5924
0.400252,-0.197144,2.555,2.59366
0.408544,-0.197144,2.555,2.59496
0.416837,-0.197144,2.555,2.59628
0.42513,-0.197144,2.555,2.59762
0.433423,-0.197144,2.555,2.59899
0.441716,-0.197144,2.555,2.60039
0.450009,-0.197144,2.555,2.60181
0.454894,-0.195678,2.536,2.5839
0.463125,-0.195678,2.536,2.58536
0.471356,-0.195678,2.536,2.58684
0.479587,-0.195678,2.536,2.58836
0.487819,-0.195678,2.536,2.58989
0.49605,-0.195678,2.536,2.59146
0.504281,-0.195678,2.536,2.59305
0.512512,-0.195678,2.536,2.59466
0.520743,-0.195678,2.536,2.5963
0.528975,-0.195678,2.536,2.59796
0.533181,-0.194212,2.517,2.58017
0.541351,-0.194212,2.517,2.58187
0.54952,-0.194212,2.517,2.5836
0.55769,-0.194212,2.517,2.58535
0.561813,-0.192823,2.499,2.56862
0.569924,-0.192823,2.499,2.57041
0.578035,-0.192823,2.499,2.57222
0.586146,-0.192823,2.499,2.57405
0.594257,-0.192823,2.499,2.57591
0.602368,-0.192823,2.499,2.5778
0.606082,-0.191435,2.481,2.56112
0.614135,-0.191435,2.481,2.56304
0.622188,-0.191435,2.481,2.56498
0.63024,-0.191435,2.481,2.56695
0.638293,-0.191435,2.481,2.56894
0.646346,-0.191435,2.481,2.57095
0.654399,-0.191435,2.481,2.57298
0.662451,-0.191435,2.481,2.57504
0.670504,-0.191435,2.481,2.57713
0.678557,-0.191435,2.481,2.57923
0.686609,-0.191435,2.481,2.58136
0.694662,-0.191435,2.481,2.58352
0.702715,-0.191435,2.481,2.58569
0.715924,-0.192823,2.499,2.60667
0.724035,-0.192823,2.499,2.60891
0.732147,-0.192823,2.499,2.61117
0.740258,-0.192823,2.499,2.61346
0.748369,-0.192823,2.499,2.61577
0.75648,-0.192823,2.499,2.6181
0.764591,-0.192823,2.499,2.62045
0.772702,-0.192823,2.499,2.62283
0.780813,-0.192823,2.499,2.62523
0.788924,-0.192823,2.499,2.62766
0.791295,-0.191435,2.481,2.61116
0.799347,-0.191435,2.481,2.61361
0.8074,-0.191435,2.481,2.61609
0.815453,-0.191435,2.481,2.61858
0.823505,-0.191435,2.481,2.6211
0.831558,-0.191435,2.481,2.62364
0.839611,-0.191435,2.481,2.62621
0.841514,-0.190046,2.463,2.60972
0.849508,-0.190046,2.463,2.61231
0.857502,-0.190046,2.463,2.61492
0.859171,-0.188657,2.445,2.59842
0.867107,-0.188657,2.445,2.60106
0.875043,-0.188657,2.445,2.60371
0.87684,-0.187345,2.428,2.58827
0.88472,-0.187345,2.428,2.59095
0.892601,-0.187345,2.428,2.59365
0.894177,-0.186033,2.411,2.57819
0.902002,-0.186033,2.411,2.58092
0.903413,-0.184722,2.394,2.56545
0.904712,-0.18341,2.377,2.54996
0.912428,-0.18341,2.377,2.5527
0.920143,-0.18341,2.377,2.55547
0.927858,-0.18341,2.377,2.55826
0.935573,-0.18341,2.377,2.56107
0.943288,-0.18341,2.377,2.5639
0.951003,-0.18341,2.377,2.56674
0.958719,-0.18341,2.377,2.56961
0.966434,-0.18341,2.377,2.5725
0.974149,-0.18341,2.377,2.57541
0.988886,-0.184722,2.394,2.59678
nan,nan,nan,NaN
nan,nan,nan,NaN
nan,nan,nan,NaN
nan,nan,nan,NaN
nan,nan,nan,NaN
nan,nan,nan,NaN
nan,nan,nan,NaN
nan,nan,nan,NaN
nan,nan,nan,NaN
nan,nan,nan,NaN
nan,nan,nan,NaN
nan,nan,nan,NaN
nan,nan,nan,NaN
nan,nan,nan,NaN
nan,nan,nan,NaN
nan,nan,nan,NaN
1.65244,-0.272298,3.529,3.90622
1.6639,-0.272298,3.529,3.91108
1.67535,-0.272298,3.529,3.91597
1.6696,-0.269521,3.493,3.88088
1.68093,-0.269521,3.493,3.88577
1.69227,-0.269521,3.493,3.89069
1.70361,-0.269521,3.493,3.89564
1.71495,-0.269521,3.493,3.90061
1.72628,-0.269521,3.493,3.9056
nan,nan,nan,NaN
nan,nan,nan,NaN
nan,nan,nan,NaN
nan,nan,nan,NaN
nan,nan,nan,NaN
nan,nan,nan,NaN
nan,nan,nan,NaN
nan,nan,nan,NaN
nan,nan,nan,NaN
nan,nan,nan,NaN
nan,nan,nan,NaN
2.00575,-0.290277,3.762,4.27317
1.99597,-0.287113,3.721,4.23228
2.00805,-0.287113,3.721,4.23799
1.99841,-0.284027,3.681,4.1981
2.01036,-0.284027,3.681,4.2038
2.02231,-0.284027,3.681,4.20953
2.0127,-0.281018,3.642,4.17062
2.0034,-0.278085,3.604,4.13277
2.0151,-0.278085,3.604,4.13845
2.00542,-0.275153,3.566,4.10046
1.97571,-0.269521,3.493,4.02208
1.98704,-0.269521,3.493,4.02766
1.99838,-0.269521,3.493,4.03326
1.98958,-0.26682,3.458,3.99842
2.00081,-0.26682,3.458,4.00402
2.01203,-0.26682,3.458,4.00964
2.00277,-0.264119,3.423,3.97464
1.99388,-0.261496,3.389,3.94072
2.00488,-0.261496,3.389,3.9463
2.01588,-0.261496,3.389,3.9519
2.00714,-0.25895,3.356,3.91898
2.01804,-0.25895,3.356,3.92457
2.00958,-0.256481,3.324,3.89271
1.98147,-0.251542,3.26,3.82323
1.99205,-0.251542,3.26,3.82873
2.00264,-0.251542,3.26,3.83424
1.99469,-0.249228,3.23,3.80445
2.00517,-0.249228,3.23,3.80995
1.96012,-0.24236,3.141,3.71035
1.93456,-0.237962,3.084,3.64831
1.94457,-0.237962,3.084,3.65363
1.92035,-0.233795,3.03,3.5949
1.91299,-0.231712,3.003,3.56808
1.90609,-0.229706,2.977,3.54238
1.91575,-0.229706,2.977,3.54759
1.9086,-0.2277,2.951,3.52179
1.88567,-0.223842,2.901,3.46723
1.89509,-0.223842,2.901,3.47236
1.87299,-0.220138,2.853,3.41997
1.86642,-0.218286,2.829,3.39624
1.8756,-0.218286,2.829,3.40129
1.85414,-0.214737,2.783,3.35097
1.84844,-0.213039,2.761,3.32945
1.8574,-0.213039,2.761,3.33444
1.83662,-0.209644,2.717,3.28622
1.81691,-0.206404,2.675,3.24028
-2.13947,-0.227955,3.084,3.76037
-2.09218,-0.223964,3.03,3.68894
-2.08234,-0.223964,3.03,3.68337
-2.03625,-0.220046,2.977,3.61349
-2.00889,-0.218124,2.951,3.57654
-1.99931,-0.218124,2.951,3.57117
-1.97288,-0.216276,2.926,3.53561
-1.96338,-0.216276,2.926,3.53031
-1.95389,-0.216276,2.926,3.52504
-1.94439,-0.216276,2.926,3.51979
-1.93489,-0.216276,2.926,3.51455
-1.92539,-0.216276,2.926,3.50933
-1.9159,-0.216276,2.926,3.50413
-1.9064,-0.216276,2.926,3.49894
-1.91311,-0.218124,2.951,3.52363
-1.9203,-0.220046,2.977,3.54944
-1.91064,-0.220046,2.977,3.54422
-1.93482,-0.223964,3.03,3.60203
-1.95929,-0.227955,3.084,3.66085
-1.94928,-0.227955,3.084,3.65551
-1.93927,-0.227955,3.084,3.65018
-1.94678,-0.230025,3.112,3.67796
-1.93668,-0.230025,3.112,3.67263
-1.92658,-0.230025,3.112,3.66731
-1.91648,-0.230025,3.112,3.66201
-1.90638,-0.230025,3.112,3.65674
-1.89628,-0.230025,3.112,3.65148
-1.88618,-0.230025,3.112,3.64625
-1.87607,-0.230025,3.112,3.64103
-1.84918,-0.227955,3.084,3.60312
-1.83917,-0.227955,3.084,3.598
nan,nan,nan,NaN
nan,nan,nan,NaN
nan,nan,nan,NaN
nan,nan,nan,NaN
nan,nan,nan,NaN
nan,nan,nan,NaN
nan,nan,nan,NaN
nan,nan,nan,NaN
nan,nan,nan,NaN
nan,nan,nan,NaN
nan,nan,nan,NaN
nan,nan,nan,NaN
nan,nan,nan,NaN
nan,nan,nan,NaN
nan,nan,nan,NaN
nan,nan,nan,NaN
nan,nan,nan,NaN
nan,nan,nan,NaN
nan,nan,nan,NaN
nan,nan,nan,NaN
nan,nan,nan,NaN
nan,nan,nan,NaN
nan,nan,nan,NaN
nan,nan,nan,NaN
nan,nan,nan,NaN
nan,nan,nan,NaN
nan,nan,nan,NaN
nan,nan,nan,NaN
nan,nan,nan,NaN
nan,nan,nan,NaN
nan,nan,nan,NaN
nan,nan,nan,NaN
-1.22264,-0.184715,2.499,2.78818
-1.21453,-0.184715,2.499,2.78464
-1.20641,-0.184715,2.499,2.78111
-1.18967,-0.183384,2.481,2.75759
-1.18162,-0.183384,2.481,2.75413
-1.17357,-0.183384,2.481,2.75068
-1.16551,-0.183384,2.481,2.74726
-1.15746,-0.183384,2.481,2.74385
-1.14941,-0.183384,2.481,2.74046
-1.13308,-0.182054,2.463,2.71724
-1.12508,-0.182054,2.463,2.71391
-1.11709,-0.182054,2.463,2.71061
-1.10099,-0.180723,2.445,2.68754
-1.09305,-0.180723,2.445,2.6843
-1.08512,-0.180723,2.445,2.68107
-1.07718,-0.180723,2.445,2.67787
-1.06924,-0.180723,2.445,2.67469
-1.06131,-0.180723,2.445,2.67153
-1.05337,-0.180723,2.445,2.66839
-1.04544,-0.180723,2.445,2.66526
-1.0375,-0.180723,2.445,2.66216
-1.02956,-0.180723,2.445,2.65908
-1.02163,-0.180723,2.445,2.65601
-1.01369,-0.180723,2.445,2.65297
-1.00576,-0.180723,2.445,2.64995
-0.990883,-0.179467,2.428,2.62854
-0.983002,-0.179467,2.428,2.62558
-0.975121,-0.179467,2.428,2.62264
-0.967241,-0.179467,2.428,2.61972
-0.95936,-0.179467,2.428,2.61682
-0.951479,-0.179467,2.428,2.61394
-0.936992,-0.17821,2.411,2.5928
-0.929166,-0.17821,2.411,2.58999
-0.921341,-0.17821,2.411,2.58719
-0.913515,-0.17821,2.411,2.58441
-0.899304,-0.176953,2.394,2.56345
-0.891534,-0.176953,2.394,2.56074
-0.883763,-0.176953,2.394,2.55804
-0.875993,-0.176953,2.394,2.55537
-0.868223,-0.176953,2.394,2.55272
-0.860452,-0.176953,2.394,2.55008
-0.852682,-0.176953,2.394,2.54747
-0.844912,-0.176953,2.394,2.54488
-0.837141,-0.176953,2.394,2.54231
-0.829371,-0.176953,2.394,2.53976
-0.821601,-0.176953,2.394,2.53724
-0.81383,-0.176953,2.394,2.53473
-0.811784,-0.17821,2.411,2.55023
-0.803958,-0.17821,2.411,2.54775
-0.796133,-0.17821,2.411,2.54529
-0.788307,-0.17821,2.411,2.54285
-0.780482,-0.17821,2.411,2.54044
-0.772656,-0.17821,2.411,2.53805
-0.770224,-0.179467,2.428,2.55355
-0.762343,-0.179467,2.428,2.55119
-0.754462,-0.179467,2.428,2.54884
-0.746581,-0.179467,2.428,2.54652
-0.738701,-0.179467,2.428,2.54422
-0.73082,-0.179467,2.428,2.54195
-0.728001,-0.180723,2.445,2.55747
-0.720065,-0.180723,2.445,2.55523
-0.712129,-0.180723,2.445,2.553
-0.704194,-0.180723,2.445,2.5508
-0.701384,-0.182054,2.463,2.56738
-0.693389,-0.182054,2.463,2.56521
-0.685395,-0.182054,2.463,2.56306
-0.677401,-0.182054,2.463,2.56093
-0.669406,-0.182054,2.463,2.55883
-0.656578,-0.180723,2.445,2.53807
-0.648643,-0.180723,2.445,2.53603
-0.640707,-0.180723,2.445,2.53401
-0.632771,-0.180723,2.445,2.53201
-0.629435,-0.182054,2.463,2.54867
-0.621441,-0.182054,2.463,2.5467
-0.613446,-0.182054,2.463,2.54476
-0.605452,-0.182054,2.463,2.54285
-0.597458,-0.182054,2.463,2.54096
-0.589464,-0.182054,2.463,2.53909
-0.581469,-0.182054,2.463,2.53725
-0.573475,-0.182054,2.463,2.53543
-0.569613,-0.183384,2.481,2.55215
-0.561561,-0.183384,2.481,2.55036
-0.553508,-0.183384,2.481,2.5486
-0.545455,-0.183384,2.481,2.54686
-0.537403,-0.183384,2.481,2.54515
-0.52935,-0.183384,2.481,2.54346
-0.521297,-0.183384,2.481,2.5418
-0.513244,-0.183384,2.481,2.54016
-0.505192,-0.183384,2.481,2.53854
-0.497139,-0.183384,2.481,2.53695
-0.492635,-0.184715,2.499,2.55378
-0.484524,-0.184715,2.499,2.55223
-0.476412,-0.184715,2.499,2.5507
-0.471674,-0.186045,2.517,2.56756
-0.463505,-0.186045,2.517,2.56607
-0.455335,-0.186045,2.517,2.56461
-0.447166,-0.186045,2.517,2.56317
-0.438996,-0.186045,2.517,2.56176
-0.434079,-0.187449,2.536,2.5797
-0.425848,-0.187449,2.536,2.57833
-0.417616,-0.187449,2.536,2.57698
-0.409385,-0.187449,2.536,2.57566
-0.401154,-0.187449,2.536,2.57437
-0.392923,-0.187449,2.536,2.5731
-0.384691,-0.187449,2.536,2.57185
-0.37646,-0.187449,2.536,2.57063
-0.368229,-0.187449,2.536,2.56944
-0.359998,-0.187449,2.536,2.56827
-0.351766,-0.187449,2.536,2.56713
-0.343535,-0.187449,2.536,2.56602
-0.335304,-0.187449,2.536,2.56493
-0.327073,-0.187449,2.536,2.56387
-0.318842,-0.187449,2.536,2.56283
-0.31061,-0.187449,2.536,2.56182
-0.302379,-0.187449,2.536,2.56083
-0.294148,-0.187449,2.536,2.55987
-0.285917,-0.187449,2.536,2.55894
-0.277685,-0.187449,2.536,2.55803
-0.269454,-0.187449,2.536,2.55715
-0.261223,-0.187449,2.536,2.5563
-0.252992,-0.187449,2.536,2.55547
-0.242927,-0.186045,2.517,2.53553
-0.234757,-0.186045,2.517,2.53476
-0.226588,-0.186045,2.517,2.53402
-0.216856,-0.184715,2.499,2.51518
-0.208745,-0.184715,2.499,2.5145
-0.200634,-0.184715,2.499,2.51384
-0.192523,-0.184715,2.499,2.5132
-0.184412,-0.184715,2.499,2.51259
-0.1763,-0.184715,2.499,2.51201
-0.168189,-0.184715,2.499,2.51146
-0.160078,-0.184715,2.499,2.51093
-0.151967,-0.184715,2.499,2.51042
-0.143856,-0.184715,2.499,2.50994
-0.135745,-0.184715,2.499,2.50949
-0.127634,-0.184715,2.499,2.50907
-0.119523,-0.184715,2.499,2.50867
-0.111411,-0.184715,2.499,2.50829
-0.1033,-0.184715,2.499,2.50795
-0.0951891,-0.184715,2.499,2.50762
-0.087078,-0.184715,2.499,2.50733
-0.0789668,-0.184715,2.499,2.50706
-0.0708557,-0.184715,2.499,2.50682
-0.0627446,-0.184715,2.499,2.5066
-0.0546334,-0.184715,2.499,2.50641
-0.0465223,-0.184715,2.499,2.50625
-0.0384112,-0.184715,2.499,2.50611
-0.0303,-0.184715,2.499,2.506
-0.0221889,-0.184715,2.499,2.50592
-0.0141792,-0.186045,2.517,2.52391
-0.00600962,-0.186045,2.517,2.52387
0.00215994,-0.186045,2.517,2.52387
0.0103295,-0.186045,2.517,2.52389
0.0184991,-0.186045,2.517,2.52393
0.0268699,-0.187449,2.536,2.54306
0.0351011,-0.187449,2.536,2.54316
0.0433324,-0.187449,2.536,2.54329
0.0515636,-0.187449,2.536,2.54344
0.0597948,-0.187449,2.536,2.54362
0.0680261,-0.187449,2.536,2.54383
0.075686,-0.186045,2.517,2.525
0.0838555,-0.186045,2.517,2.52526
0.0927197,-0.187449,2.536,2.54461
0.100951,-0.187449,2.536,2.54492
0.11,-0.188854,2.555,2.56433
0.118293,-0.188854,2.555,2.5647
0.125645,-0.187449,2.536,2.54602
0.133876,-0.187449,2.536,2.54644
0.142107,-0.187449,2.536,2.54689
0.150338,-0.187449,2.536,2.54736
0.15857,-0.187449,2.536,2.54786
0.166801,-0.187449,2.536,2.54838
0.175032,-0.187449,2.536,2.54893
0.183263,-0.187449,2.536,2.54951
0.191494,-0.187449,2.536,2.55012
0.201222,-0.188854,2.555,2.56986
0.209515,-0.188854,2.555,2.57052
0.216188,-0.187449,2.536,2.55209
0.224419,-0.187449,2.536,2.5528
0.232651,-0.187449,2.536,2.55354
0.240882,-0.187449,2.536,2.5543
0.249113,-0.187449,2.536,2.55509
0.257344,-0.187449,2.536,2.55591
0.265575,-0.187449,2.536,2.55675
0.273807,-0.187449,2.536,2.55762
0.282038,-0.187449,2.536,2.55851
0.290269,-0.187449,2.536,2.55943
0.2985,-0.187449,2.536,2.56038
0.306732,-0.187449,2.536,2.56135
0.314963,-0.187449,2.536,2.56235
0.323194,-0.187449,2.536,2.56337
0.331425,-0.187449,2.536,2.56442
0.339657,-0.187449,2.536,2.5655
0.347888,-0.187449,2.536,2.5666
0.358787,-0.188854,2.555,2.58697
0.36708,-0.188854,2.555,2.58813
0.375373,-0.188854,2.555,2.58932
0.383666,-0.188854,2.555,2.59054
0.391959,-0.188854,2.555,2.59178
0.400252,-0.188854,2.555,2.59305
0.408544,-0.188854,2.555,2.59434
0.416837,-0.188854,2.555,2.59566
0.42513,-0.188854,2.555,2.597
0.433423,-0.188854,2.555,2.59837
0.441716,-0.188854,2.555,2.59977
0.450009,-0.188854,2.555,2.60119
0.454894,-0.187449,2.536,2.58329
0.463125,-0.187449,2.536,2.58475
0.471356,-0.187449,2.536,2.58623
0.479587,-0.187449,2.536,2.58775
0.487819,-0.187449,2.536,2.58929
0.49605,-0.187449,2.536,2.59085
0.504281,-0.187449,2.536,2.59244
0.512512,-0.187449,2.536,2.59405
0.520743,-0.187449,2.536,2.59569
0.525012,-0.186045,2.517,2.57789
0.533181,-0.186045,2.517,2.57957
0.541351,-0.186045,2.517,2.58127
0.54952,-0.186045,2.517,2.583
0.553702,-0.184715,2.499,2.56626
0.561813,-0.184715,2.499,2.56803
0.569924,-0.184715,2.499,2.56981
0.578035,-0.184715,2.499,2.57162
0.586146,-0.184715,2.499,2.57346
0.594257,-0.184715,2.499,2.57532
0.59803,-0.183384,2.481,2.55864
0.606082,-0.183384,2.481,2.56053
0.614135,-0.183384,2.481,2.56245
0.622188,-0.183384,2.481,2.56439
0.63024,-0.183384,2.481,2.56636
0.638293,-0.183384,2.481,2.56835
0.646346,-0.183384,2.481,2.57036
0.654399,-0.183384,2.481,2.5724
0.662451,-0.183384,2.481,2.57446
0.670504,-0.183384,2.481,2.57654
0.678557,-0.183384,2.481,2.57865
0.686609,-0.183384,2.481,2.58078
0.694662,-0.183384,2.481,2.58293
0.702715,-0.183384,2.481,2.58511
0.715924,-0.184715,2.499,2.60608
0.724035,-0.184715,2.499,2.60832
0.732147,-0.184715,2.499,2.61059
0.740258,-0.184715,2.499,2.61287
0.748369,-0.184715,2.499,2.61518
0.75648,-0.184715,2.499,2.61751
0.764591,-0.184715,2.499,2.61987
0.772702,-0.184715,2.499,2.62225
0.780813,-0.184715,2.499,2.62465
0.788924,-0.184715,2.499,2.62707
0.791295,-0.183384,2.481,2.61058
0.799347,-0.183384,2.481,2.61303
0.8074,-0.183384,2.481,2.61551
0.815453,-0.183384,2.481,2.61801
0.823505,-0.183384,2.481,2.62053
0.831558,-0.183384,2.481,2.62307
0.839611,-0.183384,2.481,2.62563
0.841514,-0.182054,2.463,2.60915
0.849508,-0.182054,2.463,2.61174
0.857502,-0.182054,2.463,2.61435
0.859171,-0.180723,2.445,2.59786
0.867107,-0.180723,2.445,2.60049
0.875043,-0.180723,2.445,2.60315
0.87684,-0.179467,2.428,2.58771
0.88472,-0.179467,2.428,2.59039
0.892601,-0.179467,2.428,2.59309
0.894177,-0.17821,2.411,2.57764
0.902002,-0.17821,2.411,2.58037
0.903413,-0.176953,2.394,2.5649
0.911183,-0.176953,2.394,2.56765
0.918953,-0.176953,2.394,2.57041
0.926724,-0.176953,2.394,2.5732
0.934494,-0.176953,2.394,2.57601
0.942264,-0.176953,2.394,2.57884
0.950035,-0.176953,2.394,2.58169
0.957805,-0.176953,2.394,2.58456
0.965575,-0.176953,2.394,2.58745
0.973346,-0.176953,2.394,2.59036
0.981116,-0.176953,2.394,2.59329
0.988886,-0.176953,2.394,2.59624
1.00373,-0.17821,2.411,2.61766
nan,nan,nan,NaN
nan,nan,nan,NaN
nan,nan,nan,NaN
nan,nan,nan,NaN
nan,nan,nan,NaN
nan,nan,nan,NaN
nan,nan,nan,NaN
nan,nan,nan,NaN
nan,nan,nan,NaN
nan,nan,nan,NaN
nan,nan,nan,NaN
nan,nan,nan,NaN
nan,nan,nan,NaN
nan,nan,nan,NaN
nan,nan,nan,NaN
1.65244,-0.260847,3.529,3.90544
1.6639,-0.260847,3.529,3.9103
1.67535,-0.260847,3.529,3.91519
1.6696,-0.258186,3.493,3.88011
1.66409,-0.255599,3.458,3.84608
1.67532,-0.255599,3.458,3.85094
1.68654,-0.255599,3.458,3.85584
1.69776,-0.255599,3.458,3.86076
1.69169,-0.253012,3.423,3.82659
1.7028,-0.253012,3.423,3.83151
1.71391,-0.253012,3.423,3.83646
nan,nan,nan,NaN
nan,nan,nan,NaN
nan,nan,nan,NaN
nan,nan,nan,NaN
nan,nan,nan,NaN
nan,nan,nan,NaN
nan,nan,nan,NaN
nan,nan,nan,NaN
nan,nan,nan,NaN
nan,nan,nan,NaN
1.97451,-0.272083,3.681,4.18599
1.98646,-0.272083,3.681,4.19164
1.97724,-0.2692,3.642,4.15284
1.98906,-0.2692,3.642,4.15848
2.00088,-0.2692,3.642,4.16415
2.0127,-0.2692,3.642,4.16984
2.0034,-0.266391,3.604,4.132
2.0151,-0.266391,3.604,4.13768
1.98461,-0.260847,3.529,4.05716
1.97571,-0.258186,3.493,4.02133
1.98704,-0.258186,3.493,4.02692
1.97836,-0.255599,3.458,3.99212
1.98958,-0.255599,3.458,3.99769
1.98055,-0.253012,3.423,3.96277
1.99166,-0.253012,3.423,3.96833
2.00277,-0.253012,3.423,3.97392
1.99388,-0.250499,3.389,3.94
2.00488,-0.250499,3.389,3.94558
1.99625,-0.24806,3.356,3.91271
2.00714,-0.24806,3.356,3.91828
2.01804,-0.24806,3.356,3.92387
2.00958,-0.245695,3.324,3.89201
1.98147,-0.240964,3.26,3.82255
1.99205,-0.240964,3.26,3.82805
2.00264,-0.240964,3.26,3.83356
1.97555,-0.236455,3.199,3.76727
1.98593,-0.236455,3.199,3.77272
1.97821,-0.234312,3.17,3.74395
1.93456,-0.227955,3.084,3.64767
1.94457,-0.227955,3.084,3.65299
1.93746,-0.225959,3.057,3.6263
1.93019,-0.223964,3.03,3.59954
1.90609,-0.220046,2.977,3.54177
1.91575,-0.220046,2.977,3.54698
1.9086,-0.218124,2.951,3.52118
1.88567,-0.214429,2.901,3.46663
1.89509,-0.214429,2.901,3.47176
1.88875,-0.212655,2.877,3.44815
1.86642,-0.209107,2.829,3.39566
1.8756,-0.209107,2.829,3.40071
1.85414,-0.205707,2.783,3.35041
1.84844,-0.20408,2.761,3.32889
1.8574,-0.20408,2.761,3.33387
1.83662,-0.200828,2.717,3.28567
1.83118,-0.199276,2.696,3.26517
-2.1589,-0.219927,3.112,3.79391
-2.11082,-0.21604,3.057,3.72122
-2.1009,-0.21604,3.057,3.7156
-2.05404,-0.212224,3.003,3.64446
-2.00889,-0.208549,2.951,3.57597
-1.99931,-0.208549,2.951,3.5706
-1.97288,-0.206782,2.926,3.53504
-1.96338,-0.206782,2.926,3.52975
-1.95389,-0.206782,2.926,3.52447
-1.94439,-0.206782,2.926,3.51922
-1.93489,-0.206782,2.926,3.51398
-1.92539,-0.206782,2.926,3.50876
-1.9159,-0.206782,2.926,3.50355
-1.9064,-0.206782,2.926,3.49837
-1.91311,-0.208549,2.951,3.52305
-1.9203,-0.210386,2.977,3.54885
-1.91064,-0.210386,2.977,3.54363
-1.93482,-0.214132,3.03,3.60143
-1.92499,-0.214132,3.03,3.59615
-1.91515,-0.214132,3.03,3.5909
-1.9223,-0.21604,3.057,3.61762
-1.91237,-0.21604,3.057,3.61235
-1.90245,-0.21604,3.057,3.60711
-1.89253,-0.21604,3.057,3.60189
-1.89923,-0.217948,3.084,3.62845
-1.88922,-0.217948,3.084,3.62322
-1.87921,-0.217948,3.084,3.61801
-1.8692,-0.217948,3.084,3.61282
-1.85919,-0.217948,3.084,3.60765
-1.833,-0.21604,3.057,3.57097
-1.82307,-0.21604,3.057,3.56588
nan,nan,nan,NaN
nan,nan,nan,NaN
nan,nan,nan,NaN
nan,nan,nan,NaN
nan,nan,nan,NaN
nan,nan,nan,NaN
nan,nan,nan,NaN
nan,nan,nan,NaN
nan,nan,nan,NaN
nan,nan,nan,NaN
nan,nan,nan,NaN
nan,nan,nan,NaN
nan,nan,nan,NaN
nan,nan,nan,NaN
