-0.722615,-0.505402,2.481,2.63305
-0.719746,-0.509068,2.499,2.64994
-0.716761,-0.512735,2.517,2.66682
-0.708592,-0.512735,2.517,2.66464
-0.700422,-0.512735,2.517,2.66248
-0.697478,-0.516606,2.536,2.68042
-0.689247,-0.516606,2.536,2.67829
-0.681016,-0.516606,2.536,2.67618
-0.672784,-0.516606,2.536,2.6741
-0.664553,-0.516606,2.536,2.67204
-0.656322,-0.516606,2.536,2.67001
-0.648091,-0.516606,2.536,2.668
-0.639859,-0.516606,2.536,2.66601
-0.631628,-0.516606,2.536,2.66404
-0.623397,-0.516606,2.536,2.6621
-0.615166,-0.516606,2.536,2.66019
-0.606935,-0.516606,2.536,2.6583
-0.598703,-0.516606,2.536,2.65643
-0.590472,-0.516606,2.536,2.65459
-0.582241,-0.516606,2.536,2.65277
-0.57401,-0.516606,2.536,2.65097
-0.565778,-0.516606,2.536,2.6492
-0.557547,-0.516606,2.536,2.64746
-0.549316,-0.516606,2.536,2.64574
-0.541085,-0.516606,2.536,2.64404
-0.532853,-0.516606,2.536,2.64237
-0.524622,-0.516606,2.536,2.64072
-0.516391,-0.516606,2.536,2.6391
-0.50816,-0.516606,2.536,2.6375
-0.499929,-0.516606,2.536,2.63593
-0.491697,-0.516606,2.536,2.63438
-0.483466,-0.516606,2.536,2.63285
-0.475235,-0.516606,2.536,2.63135
-0.467004,-0.516606,2.536,2.62988
-0.458772,-0.516606,2.536,2.62843
-0.453917,-0.520476,2.555,2.64669
-0.445624,-0.520476,2.555,2.64528
-0.437331,-0.520476,2.555,2.64389
-0.429038,-0.520476,2.555,2.64254
-0.420745,-0.520476,2.555,2.6412
-0.415519,-0.524347,2.574,2.65952
-0.407165,-0.524347,2.574,2.65823
-0.39881,-0.524347,2.574,2.65697
-0.390456,-0.524347,2.574,2.65572
-0.382101,-0.524347,2.574,2.65451
-0.373747,-0.524347,2.574,2.65332
-0.365392,-0.524347,2.574,2.65216
-0.357037,-0.524347,2.574,2.65102
-0.348683,-0.524347,2.574,2.6499
-0.340328,-0.524347,2.574,2.64882
-0.331974,-0.524347,2.574,2.64776
-0.323619,-0.524347,2.574,2.64672
-0.315265,-0.524347,2.574,2.64571
-0.30691,-0.524347,2.574,2.64473
-0.298555,-0.524347,2.574,2.64378
-0.290201,-0.524347,2.574,2.64285
-0.281846,-0.524347,2.574,2.64194
-0.271473,-0.520476,2.555,2.62157
-0.26318,-0.520476,2.555,2.62072
-0.254887,-0.520476,2.555,2.6199
-0.248428,-0.524347,2.574,2.63859
-0.240074,-0.524347,2.574,2.63781
-0.230009,-0.520476,2.555,2.6176
-0.221716,-0.520476,2.555,2.61688
-0.213423,-0.520476,2.555,2.61619
-0.203604,-0.516606,2.536,2.59608
-0.195373,-0.516606,2.536,2.59545
-0.187142,-0.516606,2.536,2.59484
-0.178911,-0.516606,2.536,2.59426
-0.170679,-0.516606,2.536,2.59371
-0.162448,-0.516606,2.536,2.59318
-0.154217,-0.516606,2.536,2.59267
-0.145986,-0.516606,2.536,2.5922
-0.136723,-0.512735,2.517,2.57233
-0.128553,-0.512735,2.517,2.57191
-0.120383,-0.512735,2.517,2.57151
-0.112214,-0.512735,2.517,2.57114
-0.104044,-0.512735,2.517,2.5708
-0.0958747,-0.512735,2.517,2.57048
-0.0883672,-0.516606,2.536,2.58959
-0.080136,-0.516606,2.536,2.58932
-0.0719048,-0.516606,2.536,2.58908
-0.0636736,-0.516606,2.536,2.58887
-0.0554423,-0.516606,2.536,2.58868
-0.0472111,-0.516606,2.536,2.58851
-0.0389799,-0.516606,2.536,2.58838
-0.0307487,-0.516606,2.536,2.58827
-0.0225174,-0.516606,2.536,2.58818
-0.0142862,-0.516606,2.536,2.58812
-0.00605498,-0.516606,2.536,2.58809
0.00217625,-0.516606,2.536,2.58808
0.0104854,-0.520476,2.555,2.6075
0.0187783,-0.520476,2.555,2.60754
0.0270712,-0.520476,2.555,2.60761
0.0353641,-0.520476,2.555,2.60771
0.043657,-0.520476,2.555,2.60784
0.0519499,-0.520476,2.555,2.60799
0.0602428,-0.520476,2.555,2.60817
0.0685357,-0.520476,2.555,2.60837
0.0773999,-0.524347,2.574,2.628
0.0857545,-0.524347,2.574,2.62826
0.0941091,-0.524347,2.574,2.62855
0.102464,-0.524347,2.574,2.62886
0.110818,-0.524347,2.574,2.6292
0.119173,-0.524347,2.574,2.62957
0.127527,-0.524347,2.574,2.62996
0.135882,-0.524347,2.574,2.63038
0.144236,-0.524347,2.574,2.63082
0.151465,-0.520476,2.555,2.61187
0.159758,-0.520476,2.555,2.61236
0.16805,-0.520476,2.555,2.61288
0.176343,-0.520476,2.555,2.61343
0.184636,-0.520476,2.555,2.614
0.192929,-0.520476,2.555,2.6146
0.201222,-0.520476,2.555,2.61523
0.209515,-0.520476,2.555,2.61588
0.217808,-0.520476,2.555,2.61656
0.226101,-0.520476,2.555,2.61726
0.234394,-0.520476,2.555,2.61799
0.242687,-0.520476,2.555,2.61874
0.250979,-0.520476,2.555,2.61952
0.259272,-0.520476,2.555,2.62033
0.267565,-0.520476,2.555,2.62117
0.275858,-0.520476,2.555,2.62203
0.284151,-0.520476,2.555,2.62291
0.292444,-0.520476,2.555,2.62382
0.300737,-0.520476,2.555,2.62476
0.311328,-0.524347,2.574,2.64525
0.319682,-0.524347,2.574,2.64625
0.328037,-0.524347,2.574,2.64727
0.336391,-0.524347,2.574,2.64832
0.344746,-0.524347,2.574,2.64939
0.353101,-0.524347,2.574,2.65049
0.361455,-0.524347,2.574,2.65162
0.36981,-0.524347,2.574,2.65277
0.378164,-0.524347,2.574,2.65395
0.386519,-0.524347,2.574,2.65515
0.394873,-0.524347,2.574,2.65638
0.403228,-0.524347,2.574,2.65763
0.411583,-0.524347,2.574,2.65891
0.419937,-0.524347,2.574,2.66022
0.428292,-0.524347,2.574,2.66155
0.436646,-0.524347,2.574,2.66291
0.445001,-0.524347,2.574,2.66429
0.453355,-0.524347,2.574,2.6657
0.46171,-0.524347,2.574,2.66713
0.470064,-0.524347,2.574,2.66859
0.478419,-0.524347,2.574,2.67008
0.486774,-0.524347,2.574,2.67158
0.495128,-0.524347,2.574,2.67312
0.503483,-0.524347,2.574,2.67468
0.511837,-0.524347,2.574,2.67626
0.520192,-0.524347,2.574,2.67788
0.528546,-0.524347,2.574,2.67951
0.536901,-0.524347,2.574,2.68117
0.545256,-0.524347,2.574,2.68286
0.55361,-0.524347,2.574,2.68457
0.561965,-0.524347,2.574,2.6863
0.570319,-0.524347,2.574,2.68806
0.578674,-0.524347,2.574,2.68985
0.587028,-0.524347,2.574,2.69166
0.595383,-0.524347,2.574,2.69349
0.599281,-0.520476,2.555,2.67545
0.607574,-0.520476,2.555,2.67732
0.615867,-0.520476,2.555,2.67922
0.62416,-0.520476,2.555,2.68114
0.632453,-0.520476,2.555,2.68308
0.640746,-0.520476,2.555,2.68505
0.649038,-0.520476,2.555,2.68704
0.657331,-0.520476,2.555,2.68905
0.665624,-0.520476,2.555,2.69109
0.673917,-0.520476,2.555,2.69316
0.687283,-0.524347,2.574,2.71529
0.690503,-0.520476,2.555,2.69735
0.698796,-0.520476,2.555,2.69949
0.707089,-0.520476,2.555,2.70165
0.715382,-0.520476,2.555,2.70383
0.723674,-0.520476,2.555,2.70603
0.731967,-0.520476,2.555,2.70826
0.74026,-0.520476,2.555,2.71052
0.748553,-0.520476,2.555,2.71279
0.756846,-0.520476,2.555,2.71509
0.765139,-0.520476,2.555,2.71742
0.773432,-0.520476,2.555,2.71976
0.781725,-0.520476,2.555,2.72213
0.790018,-0.520476,2.555,2.72453
0.798311,-0.520476,2.555,2.72694
0.806603,-0.520476,2.555,2.72938
0.814896,-0.520476,2.555,2.73184
0.823189,-0.520476,2.555,2.73433
0.831482,-0.520476,2.555,2.73684
0.839775,-0.520476,2.555,2.73937
0.848068,-0.520476,2.555,2.74192
0.856361,-0.520476,2.555,2.7445
0.864654,-0.520476,2.555,2.7471
0.872947,-0.520476,2.555,2.74972
0.881239,-0.520476,2.555,2.75236
0.882918,-0.516606,2.536,2.73454
0.891149,-0.516606,2.536,2.73721
0.89938,-0.516606,2.536,2.7399
0.907611,-0.516606,2.536,2.74261
nan,nan,nan,NaN
nan,nan,nan,NaN
nan,nan,nan,NaN
nan,nan,nan,NaN
nan,nan,nan,NaN
nan,nan,nan,NaN
nan,nan,nan,NaN
nan,nan,nan,NaN
nan,nan,nan,NaN
nan,nan,nan,NaN
nan,nan,nan,NaN
nan,nan,nan,NaN
nan,nan,nan,NaN
nan,nan,nan,NaN
nan,nan,nan,NaN
nan,nan,nan,NaN
nan,nan,nan,NaN
nan,nan,nan,NaN
nan,nan,nan,NaN
nan,nan,nan,NaN
nan,nan,nan,NaN
nan,nan,nan,NaN
nan,nan,nan,NaN
nan,nan,nan,NaN
nan,nan,nan,NaN
nan,nan,nan,NaN
nan,nan,nan,NaN
nan,nan,nan,NaN
nan,nan,nan,NaN
nan,nan,nan,NaN
nan,nan,nan,NaN
nan,nan,nan,NaN
nan,nan,nan,NaN
1.52648,-0.664091,3.26,3.66043
1.53706,-0.664091,3.26,3.66486
1.5334,-0.65798,3.23,3.63554
1.52907,-0.651665,3.199,3.60504
1.53945,-0.651665,3.199,3.60946
1.54984,-0.651665,3.199,3.6139
1.56022,-0.651665,3.199,3.61836
1.5706,-0.651665,3.199,3.62285
1.58099,-0.651665,3.199,3.62737
1.59137,-0.651665,3.199,3.6319
1.60175,-0.651665,3.199,3.63646
nan,nan,nan,NaN
nan,nan,nan,NaN
nan,nan,nan,NaN
nan,nan,nan,NaN
nan,nan,nan,NaN
nan,nan,nan,NaN
nan,nan,nan,NaN
nan,nan,nan,NaN
nan,nan,nan,NaN
nan,nan,nan,NaN
nan,nan,nan,NaN
2.07551,-0.783464,3.846,4.43996
2.06519,-0.774908,3.804,4.39726
2.0546,-0.766353,3.762,4.35446
2.06681,-0.766353,3.762,4.36023
2.05636,-0.758001,3.721,4.31845
2.0462,-0.749852,3.681,4.27773
2.05815,-0.749852,3.681,4.28346
2.02679,-0.734167,3.604,4.19949
2.017,-0.726426,3.566,4.16081
2.02857,-0.726426,3.566,4.16643
2.01898,-0.718889,3.529,4.12879
2.00972,-0.711555,3.493,4.09223
2.02106,-0.711555,3.493,4.09781
2.01203,-0.704425,3.458,4.0623
2.00277,-0.697295,3.423,4.02669
2.01389,-0.697295,3.423,4.03223
2.00488,-0.690369,3.389,3.99768
1.99625,-0.683647,3.356,3.96423
2.00714,-0.683647,3.356,3.96973
1.97955,-0.67061,3.292,3.89944
1.97089,-0.664091,3.26,3.86691
1.96324,-0.65798,3.23,3.83668
1.97372,-0.65798,3.23,3.84206
1.96516,-0.651665,3.199,3.81053
1.95764,-0.645757,3.17,3.7813
1.96793,-0.645757,3.17,3.78664
1.94202,-0.633942,3.112,3.72262
1.91762,-0.622738,3.057,3.66201
1.92754,-0.622738,3.057,3.66722
1.90324,-0.611738,3.003,3.60757
1.89642,-0.606441,2.977,3.58144
1.90609,-0.606441,2.977,3.58657
1.89902,-0.601145,2.951,3.56034
1.89243,-0.596052,2.926,3.53526
1.90192,-0.596052,2.926,3.54035
1.87941,-0.58607,2.877,3.48609
1.85724,-0.576292,2.829,3.43288
1.86642,-0.576292,2.829,3.43786
1.84511,-0.566922,2.783,3.38687
1.83948,-0.56244,2.761,3.36499
1.83371,-0.557959,2.739,3.34304
1.8426,-0.557959,2.739,3.34793
1.83662,-0.553477,2.717,3.3259
1.83118,-0.549199,2.696,3.30503
-2.37465,-0.686188,3.423,4.22217
-2.36354,-0.686188,3.423,4.21593
-2.35243,-0.686188,3.423,4.20971
-2.31806,-0.679373,3.389,4.16176
-2.30706,-0.679373,3.389,4.15565
-2.29606,-0.679373,3.389,4.14955
-2.30799,-0.686188,3.423,4.18504
-2.29688,-0.686188,3.423,4.17893
-2.28577,-0.686188,3.423,4.17283
-2.27466,-0.686188,3.423,4.16675
-2.26355,-0.686188,3.423,4.1607
-2.25243,-0.686188,3.423,4.15467
-2.24132,-0.686188,3.423,4.14865
-2.20806,-0.679373,3.389,4.10151
-2.19706,-0.679373,3.389,4.0956
-2.18606,-0.679373,3.389,4.08971
-2.17506,-0.679373,3.389,4.08384
-2.16406,-0.679373,3.389,4.07799
-2.15306,-0.679373,3.389,4.07217
-2.14206,-0.679373,3.389,4.06636
-2.13106,-0.679373,3.389,4.06058
-2.12006,-0.679373,3.389,4.05482
-2.08853,-0.672757,3.356,4.00965
-2.05782,-0.666342,3.324,3.96581
-2.04703,-0.666342,3.324,3.96022
-2.03625,-0.666342,3.324,3.95465
-2.02546,-0.666342,3.324,3.94911
-1.99527,-0.659928,3.292,3.90562
-1.98459,-0.659928,3.292,3.90017
-1.9739,-0.659928,3.292,3.89475
-1.96322,-0.659928,3.292,3.88934
nan,nan,nan,NaN
nan,nan,nan,NaN
nan,nan,nan,NaN
nan,nan,nan,NaN
nan,nan,nan,NaN
nan,nan,nan,NaN
nan,nan,nan,NaN
nan,nan,nan,NaN
nan,nan,nan,NaN
nan,nan,nan,NaN
nan,nan,nan,NaN
nan,nan,nan,NaN
nan,nan,nan,NaN
nan,nan,nan,NaN
nan,nan,nan,NaN
nan,nan,nan,NaN
nan,nan,nan,NaN
nan,nan,nan,NaN
nan,nan,nan,NaN
nan,nan,nan,NaN
nan,nan,nan,NaN
nan,nan,nan,NaN
nan,nan,nan,NaN
nan,nan,nan,NaN
nan,nan,nan,NaN
nan,nan,nan,NaN
nan,nan,nan,NaN
nan,nan,nan,NaN
nan,nan,nan,NaN
nan,nan,nan,NaN
nan,nan,nan,NaN
nan,nan,nan,NaN
nan,nan,nan,NaN
nan,nan,nan,NaN
nan,nan,nan,NaN
nan,nan,nan,NaN
nan,nan,nan,NaN
nan,nan,nan,NaN
nan,nan,nan,NaN
nan,nan,nan,NaN
nan,nan,nan,NaN
nan,nan,nan,NaN
nan,nan,nan,NaN
nan,nan,nan,NaN
nan,nan,nan,NaN
nan,nan,nan,NaN
nan,nan,nan,NaN
nan,nan,nan,NaN
nan,nan,nan,NaN
nan,nan,nan,NaN
nan,nan,nan,NaN
nan,nan,nan,NaN
nan,nan,nan,NaN
-1.02956,-0.490135,2.445,2.69782
-1.02163,-0.490135,2.445,2.69481
-1.01369,-0.490135,2.445,2.69181
-1.00576,-0.490135,2.445,2.68883
-0.997821,-0.490135,2.445,2.68587
-0.989885,-0.490135,2.445,2.68293
-0.981949,-0.490135,2.445,2.68002
-0.974013,-0.490135,2.445,2.67712
-0.966077,-0.490135,2.445,2.67424
-0.958141,-0.490135,2.445,2.67138
-0.943599,-0.486727,2.428,2.64999
-0.935718,-0.486727,2.428,2.6472
-0.927837,-0.486727,2.428,2.64442
-0.913515,-0.483319,2.411,2.62317
-0.90569,-0.483319,2.411,2.62046
-0.897864,-0.483319,2.411,2.61776
-0.883763,-0.479911,2.394,2.59665
-0.875993,-0.479911,2.394,2.59402
-0.868223,-0.479911,2.394,2.5914
-0.860452,-0.479911,2.394,2.58881
-0.852682,-0.479911,2.394,2.58624
-0.844912,-0.479911,2.394,2.58368
-0.837141,-0.479911,2.394,2.58115
-0.829371,-0.479911,2.394,2.57864
-0.821601,-0.479911,2.394,2.57616
-0.81383,-0.479911,2.394,2.57369
-0.80606,-0.479911,2.394,2.57124
-0.79829,-0.479911,2.394,2.56882
-0.790519,-0.479911,2.394,2.56641
-0.782749,-0.479911,2.394,2.56403
-0.774979,-0.479911,2.394,2.56167
-0.772656,-0.483319,2.411,2.5775
-0.764831,-0.483319,2.411,2.57517
-0.757005,-0.483319,2.411,2.57285
-0.754462,-0.486727,2.428,2.58869
-0.746581,-0.486727,2.428,2.5864
-0.738701,-0.486727,2.428,2.58414
-0.735937,-0.490135,2.445,2.59997
-0.733361,-0.493743,2.463,2.61686
-0.725366,-0.493743,2.463,2.61463
-0.717372,-0.493743,2.463,2.61243
-0.714562,-0.497351,2.481,2.62932
-0.711635,-0.50096,2.499,2.6462
-0.703524,-0.50096,2.499,2.64403
-0.695413,-0.50096,2.499,2.64189
-0.692252,-0.504568,2.517,2.65878
-0.684083,-0.504568,2.517,2.65666
-0.675913,-0.504568,2.517,2.65457
-0.667744,-0.504568,2.517,2.6525
-0.659574,-0.504568,2.517,2.65046
-0.656322,-0.508377,2.536,2.66843
-0.648091,-0.508377,2.536,2.66641
-0.639859,-0.508377,2.536,2.66443
-0.631628,-0.508377,2.536,2.66246
-0.623397,-0.508377,2.536,2.66052
-0.615166,-0.508377,2.536,2.6586
-0.606935,-0.508377,2.536,2.65671
-0.598703,-0.508377,2.536,2.65484
-0.590472,-0.508377,2.536,2.653
-0.582241,-0.508377,2.536,2.65118
-0.57401,-0.508377,2.536,2.64938
-0.565778,-0.508377,2.536,2.64761
-0.557547,-0.508377,2.536,2.64586
-0.549316,-0.508377,2.536,2.64414
-0.537031,-0.504568,2.517,2.62265
-0.528861,-0.504568,2.517,2.62099
-0.520692,-0.504568,2.517,2.61935
-0.512522,-0.504568,2.517,2.61774
-0.504353,-0.504568,2.517,2.61615
-0.496183,-0.504568,2.517,2.61459
-0.488013,-0.504568,2.517,2.61305
-0.483466,-0.508377,2.536,2.63125
-0.475235,-0.508377,2.536,2.62975
-0.467004,-0.508377,2.536,2.62828
-0.458772,-0.508377,2.536,2.62683
-0.450541,-0.508377,2.536,2.6254
-0.44231,-0.508377,2.536,2.624
-0.434079,-0.508377,2.536,2.62263
-0.425848,-0.508377,2.536,2.62128
-0.417616,-0.508377,2.536,2.61995
-0.409385,-0.508377,2.536,2.61865
-0.401154,-0.508377,2.536,2.61738
-0.392923,-0.508377,2.536,2.61613
-0.384691,-0.508377,2.536,2.61491
-0.37646,-0.508377,2.536,2.61371
-0.368229,-0.508377,2.536,2.61253
-0.359998,-0.508377,2.536,2.61139
-0.351766,-0.508377,2.536,2.61026
-0.343535,-0.508377,2.536,2.60917
-0.335304,-0.508377,2.536,2.6081
-0.327073,-0.508377,2.536,2.60705
-0.318842,-0.508377,2.536,2.60603
-0.31061,-0.508377,2.536,2.60504
-0.302379,-0.508377,2.536,2.60407
-0.294148,-0.508377,2.536,2.60313
-0.285917,-0.508377,2.536,2.60221
-0.277685,-0.508377,2.536,2.60132
-0.267435,-0.504568,2.517,2.58097
-0.259266,-0.504568,2.517,2.58014
-0.251096,-0.504568,2.517,2.57933
-0.242927,-0.504568,2.517,2.57854
-0.234757,-0.504568,2.517,2.57779
-0.226588,-0.504568,2.517,2.57706
-0.218418,-0.504568,2.517,2.57635
-0.213423,-0.512186,2.555,2.61456
-0.203604,-0.508377,2.536,2.59446
-0.195373,-0.508377,2.536,2.59382
-0.187142,-0.508377,2.536,2.59322
-0.178911,-0.508377,2.536,2.59263
-0.170679,-0.508377,2.536,2.59208
-0.162448,-0.508377,2.536,2.59155
-0.154217,-0.508377,2.536,2.59105
-0.145986,-0.508377,2.536,2.59057
-0.136723,-0.504568,2.517,2.57071
-0.128553,-0.504568,2.517,2.57029
-0.120383,-0.504568,2.517,2.5699
-0.112214,-0.504568,2.517,2.56953
-0.104044,-0.504568,2.517,2.56918
-0.0958747,-0.504568,2.517,2.56887
-0.0883672,-0.508377,2.536,2.58796
-0.080136,-0.508377,2.536,2.58769
-0.0719048,-0.508377,2.536,2.58745
-0.0636736,-0.508377,2.536,2.58724
-0.0554423,-0.508377,2.536,2.58705
-0.0472111,-0.508377,2.536,2.58688
-0.0389799,-0.508377,2.536,2.58675
-0.0307487,-0.508377,2.536,2.58664
-0.0225174,-0.508377,2.536,2.58655
-0.0142862,-0.508377,2.536,2.58649
-0.00605498,-0.508377,2.536,2.58646
0.00217625,-0.508377,2.536,2.58645
0.0104854,-0.512186,2.555,2.60585
0.0187783,-0.512186,2.555,2.6059
0.0270712,-0.512186,2.555,2.60597
0.0353641,-0.512186,2.555,2.60607
0.043657,-0.512186,2.555,2.6062
0.0519499,-0.512186,2.555,2.60635
0.0602428,-0.512186,2.555,2.60653
0.0685357,-0.512186,2.555,2.60673
0.0773999,-0.515994,2.574,2.62635
0.0857545,-0.515994,2.574,2.62661
0.0941091,-0.515994,2.574,2.6269
0.102464,-0.515994,2.574,2.62721
0.110818,-0.515994,2.574,2.62755
0.119173,-0.515994,2.574,2.62791
0.127527,-0.515994,2.574,2.62831
0.135882,-0.515994,2.574,2.62872
0.144236,-0.515994,2.574,2.62917
0.151465,-0.512186,2.555,2.61023
0.159758,-0.512186,2.555,2.61072
0.16805,-0.512186,2.555,2.61124
0.176343,-0.512186,2.555,2.61179
0.184636,-0.512186,2.555,2.61236
0.192929,-0.512186,2.555,2.61296
0.201222,-0.512186,2.555,2.61359
0.209515,-0.512186,2.555,2.61424
0.217808,-0.512186,2.555,2.61492
0.226101,-0.512186,2.555,2.61562
0.234394,-0.512186,2.555,2.61635
0.242687,-0.512186,2.555,2.61711
0.250979,-0.512186,2.555,2.61789
0.259272,-0.512186,2.555,2.6187
0.267565,-0.512186,2.555,2.61953
0.275858,-0.512186,2.555,2.62039
0.284151,-0.512186,2.555,2.62128
0.292444,-0.512186,2.555,2.62219
0.300737,-0.512186,2.555,2.62313
0.30903,-0.512186,2.555,2.62409
0.317323,-0.512186,2.555,2.62508
0.325615,-0.512186,2.555,2.6261
0.333908,-0.512186,2.555,2.62714
0.342201,-0.512186,2.555,2.6282
0.350494,-0.512186,2.555,2.6293
0.358787,-0.512186,2.555,2.63042
0.36708,-0.512186,2.555,2.63156
0.375373,-0.512186,2.555,2.63273
0.383666,-0.512186,2.555,2.63392
0.391959,-0.512186,2.555,2.63515
0.400252,-0.512186,2.555,2.63639
0.408544,-0.512186,2.555,2.63766
0.416837,-0.512186,2.555,2.63896
0.42513,-0.512186,2.555,2.64028
0.433423,-0.512186,2.555,2.64163
0.441716,-0.512186,2.555,2.643
0.450009,-0.512186,2.555,2.6444
0.458302,-0.512186,2.555,2.64583
0.466595,-0.512186,2.555,2.64728
0.474888,-0.512186,2.555,2.64875
0.48318,-0.512186,2.555,2.65025
0.491473,-0.512186,2.555,2.65177
0.499766,-0.512186,2.555,2.65332
0.508059,-0.512186,2.555,2.6549
0.516352,-0.512186,2.555,2.6565
0.528546,-0.515994,2.574,2.67789
0.532938,-0.512186,2.555,2.65977
0.541231,-0.512186,2.555,2.66145
0.549524,-0.512186,2.555,2.66314
0.557817,-0.512186,2.555,2.66487
0.566109,-0.512186,2.555,2.66662
0.574402,-0.512186,2.555,2.66839
0.582695,-0.512186,2.555,2.67019
0.590988,-0.512186,2.555,2.67201
0.599281,-0.512186,2.555,2.67385
0.607574,-0.512186,2.555,2.67573
0.615867,-0.512186,2.555,2.67762
0.62416,-0.512186,2.555,2.67954
0.632453,-0.512186,2.555,2.68148
0.640746,-0.512186,2.555,2.68345
0.649038,-0.512186,2.555,2.68544
0.657331,-0.512186,2.555,2.68746
0.665624,-0.512186,2.555,2.6895
0.673917,-0.512186,2.555,2.69157
0.687283,-0.515994,2.574,2.71368
0.690503,-0.512186,2.555,2.69577
0.698796,-0.512186,2.555,2.6979
0.707089,-0.512186,2.555,2.70006
0.715382,-0.512186,2.555,2.70225
0.723674,-0.512186,2.555,2.70445
0.731967,-0.512186,2.555,2.70668
0.74026,-0.512186,2.555,2.70894
0.748553,-0.512186,2.555,2.71122
0.751218,-0.508377,2.536,2.69334
0.759449,-0.508377,2.536,2.69565
0.76768,-0.508377,2.536,2.69798
0.781725,-0.512186,2.555,2.72056
0.790018,-0.512186,2.555,2.72296
0.798311,-0.512186,2.555,2.72537
0.806603,-0.512186,2.555,2.72781
0.814896,-0.512186,2.555,2.73028
0.823189,-0.512186,2.555,2.73276
0.825299,-0.508377,2.536,2.71493
0.83353,-0.508377,2.536,2.71745
0.848068,-0.512186,2.555,2.74036
0.849993,-0.508377,2.536,2.72254
0.858224,-0.508377,2.536,2.72512
0.866455,-0.508377,2.536,2.72773
0.874686,-0.508377,2.536,2.73035
0.876303,-0.504568,2.517,2.71252
0.884472,-0.504568,2.517,2.71517
0.89938,-0.508377,2.536,2.73836
0.900811,-0.504568,2.517,2.72054
0.908981,-0.504568,2.517,2.72326
0.924074,-0.508377,2.536,2.74657
0.932305,-0.508377,2.536,2.74935
nan,nan,nan,NaN
nan,nan,nan,NaN
nan,nan,nan,NaN
nan,nan,nan,NaN
nan,nan,nan,NaN
nan,nan,nan,NaN
nan,nan,nan,NaN
nan,nan,nan,NaN
nan,nan,nan,NaN
nan,nan,nan,NaN
nan,nan,nan,NaN
nan,nan,nan,NaN
nan,nan,nan,NaN
nan,nan,nan,NaN
nan,nan,nan,NaN
nan,nan,nan,NaN
nan,nan,nan,NaN
nan,nan,nan,NaN
nan,nan,nan,NaN
nan,nan,nan,NaN
nan,nan,nan,NaN
nan,nan,nan,NaN
nan,nan,nan,NaN
nan,nan,nan,NaN
nan,nan,nan,NaN
nan,nan,nan,NaN
nan,nan,nan,NaN
nan,nan,nan,NaN
nan,nan,nan,NaN
1.5159,-0.653513,3.26,3.65413
1.51244,-0.647499,3.23,3.62486
1.52292,-0.647499,3.23,3.62925
1.5334,-0.647499,3.23,3.63366
1.52907,-0.641284,3.199,3.60318
1.53945,-0.641284,3.199,3.6076
1.54984,-0.641284,3.199,3.61204
1.56022,-0.641284,3.199,3.61651
1.5706,-0.641284,3.199,3.621
1.58099,-0.641284,3.199,3.62552
1.57694,-0.635471,3.17,3.59715
1.58723,-0.635471,3.17,3.60167
1.59752,-0.635471,3.17,3.60622
1.60781,-0.635471,3.17,3.61079
1.6181,-0.635471,3.17,3.61538
1.62839,-0.635471,3.17,3.62
1.63868,-0.635471,3.17,3.62464
nan,nan,nan,NaN
nan,nan,nan,NaN
nan,nan,nan,NaN
nan,nan,nan,NaN
nan,nan,nan,NaN
nan,nan,nan,NaN
2.05284,-0.762565,3.804,4.38931
2.04238,-0.754146,3.762,4.34658
2.0322,-0.745927,3.721,4.30489
2.04428,-0.745927,3.721,4.31061
2.05636,-0.745927,3.721,4.31635
2.0462,-0.737908,3.681,4.27565
2.05815,-0.737908,3.681,4.28138
2.02679,-0.722472,3.604,4.19746
1.99607,-0.707438,3.529,4.11565
2.00752,-0.707438,3.529,4.12122
1.99838,-0.700221,3.493,4.08471
1.98958,-0.693205,3.458,4.04929
2.00081,-0.693205,3.458,4.05481
1.99166,-0.686188,3.423,4.01927
2.00277,-0.686188,3.423,4.02478
2.01389,-0.686188,3.423,4.03032
2.00488,-0.679373,3.389,3.9958
1.99625,-0.672757,3.356,3.96237
2.00714,-0.672757,3.356,3.96787
1.97955,-0.659928,3.292,3.89761
1.97089,-0.653513,3.26,3.86511
1.96324,-0.647499,3.23,3.8349
1.97372,-0.647499,3.23,3.84028
1.96516,-0.641284,3.199,3.80877
1.95764,-0.635471,3.17,3.77956
1.96793,-0.635471,3.17,3.7849
1.94202,-0.623844,3.112,3.72091
1.91762,-0.612819,3.057,3.66034
1.92754,-0.612819,3.057,3.66554
1.90324,-0.601993,3.003,3.60593
1.89642,-0.596781,2.977,3.57982
1.90609,-0.596781,2.977,3.58495
1.89902,-0.591569,2.951,3.55874
1.89243,-0.586558,2.926,3.53367
1.90192,-0.586558,2.926,3.53876
1.87941,-0.576735,2.877,3.48453
1.85724,-0.567113,2.829,3.43135
1.86642,-0.567113,2.829,3.43633
1.84511,-0.557891,2.783,3.38537
1.83948,-0.553481,2.761,3.3635
1.83371,-0.549071,2.739,3.34157
1.8426,-0.549071,2.739,3.34646
1.83662,-0.544661,2.717,3.32444
1.83118,-0.540451,2.696,3.30359
-2.37465,-0.675081,3.423,4.22038
-2.36354,-0.675081,3.423,4.21414
-2.35243,-0.675081,3.423,4.20792
-2.31806,-0.668376,3.389,4.15998
-2.30706,-0.668376,3.389,4.15386
-2.29606,-0.668376,3.389,4.14776
-2.28506,-0.668376,3.389,4.14169
-2.27406,-0.668376,3.389,4.13563
-2.28577,-0.675081,3.423,4.17102
-2.25206,-0.668376,3.389,4.12357
-2.24106,-0.668376,3.389,4.11757
-2.25243,-0.675081,3.423,4.15285
-2.24132,-0.675081,3.423,4.14683
-2.20806,-0.668376,3.389,4.09971
-2.19706,-0.668376,3.389,4.09379
-2.18606,-0.668376,3.389,4.0879
-2.17506,-0.668376,3.389,4.08203
-2.16406,-0.668376,3.389,4.07618
-2.15306,-0.668376,3.389,4.07035
-2.14206,-0.668376,3.389,4.06454
-2.13106,-0.668376,3.389,4.05875
-2.12006,-0.668376,3.389,4.05299
-2.08853,-0.661868,3.356,4.00784
-2.05782,-0.655557,3.324,3.96401
-2.04703,-0.655557,3.324,3.95842
-2.03625,-0.655557,3.324,3.95285
-2.02546,-0.655557,3.324,3.9473
-1.99527,-0.649246,3.292,3.90383
-1.98459,-0.649246,3.292,3.89838
-1.9739,-0.649246,3.292,3.89295
-1.96322,-0.649246,3.292,3.88755
nan,nan,nan,NaN
nan,nan,nan,NaN
nan,nan,nan,NaN
nan,nan,nan,NaN
nan,nan,nan,NaN
nan,nan,nan,NaN
nan,nan,nan,NaN
nan,nan,nan,NaN
nan,nan,nan,NaN
nan,nan,nan,NaN
nan,nan,nan,NaN
nan,nan,nan,NaN
nan,nan,nan,NaN
nan,nan,nan,NaN
nan,nan,nan,NaN
nan,nan,nan,NaN
nan,nan,nan,NaN
nan,nan,nan,NaN
nan,nan,nan,NaN
nan,nan,nan,NaN
nan,nan,nan,NaN
nan,nan,nan,NaN
nan,nan,nan,NaN
nan,nan,nan,NaN
nan,nan,nan,NaN
nan,nan,nan,NaN
nan,nan,nan,NaN
nan,nan,nan,NaN
nan,nan,nan,NaN
nan,nan,nan,NaN
nan,nan,nan,NaN
nan,nan,nan,NaN
nan,nan,nan,NaN
nan,nan,nan,NaN
nan,nan,nan,NaN
nan,nan,nan,NaN
nan,nan,nan,NaN
nan,nan,nan,NaN
nan,nan,nan,NaN
nan,nan,nan,NaN
nan,nan,nan,NaN
-1.08615,-0.465634,2.361,2.64024
-1.07849,-0.465634,2.361,2.6371
-1.07082,-0.465634,2.361,2.63397
-1.06316,-0.465634,2.361,2.63086
-1.0555,-0.465634,2.361,2.62778
-1.04784,-0.465634,2.361,2.62471
-1.04017,-0.465634,2.361,2.62166
-1.03251,-0.465634,2.361,2.61863
-1.02485,-0.465634,2.361,2.61562
-1.01718,-0.465634,2.361,2.61262
-1.01636,-0.46879,2.377,2.62733
-1.01586,-0.472143,2.394,2.64313
-1.00809,-0.472143,2.394,2.64015
-1.00742,-0.475495,2.411,2.65592
-1.00664,-0.478848,2.428,2.67167
-0.998763,-0.478848,2.428,2.66871
-0.990883,-0.478848,2.428,2.66577
-0.983002,-0.478848,2.428,2.66285
-0.975121,-0.478848,2.428,2.65995
-0.967241,-0.478848,2.428,2.65707
-0.95936,-0.478848,2.428,2.65421
-0.951479,-0.478848,2.428,2.65138
-0.943599,-0.478848,2.428,2.64856
-0.929166,-0.475495,2.411,2.62724
-0.921341,-0.475495,2.411,2.62448
-0.913515,-0.475495,2.411,2.62174
-0.899304,-0.472143,2.394,2.60056
-0.891534,-0.472143,2.394,2.59788
-0.883763,-0.472143,2.394,2.59522
-0.875993,-0.472143,2.394,2.59259
-0.868223,-0.472143,2.394,2.58997
-0.854342,-0.46879,2.377,2.56901
-0.846627,-0.46879,2.377,2.56645
-0.838912,-0.46879,2.377,2.56392
-0.831197,-0.46879,2.377,2.5614
-0.823481,-0.46879,2.377,2.55891
-0.815766,-0.46879,2.377,2.55644
-0.808051,-0.46879,2.377,2.55399
-0.800336,-0.46879,2.377,2.55155
-0.792621,-0.46879,2.377,2.54915
-0.784906,-0.46879,2.377,2.54676
-0.777191,-0.46879,2.377,2.54439
-0.769475,-0.46879,2.377,2.54204
-0.767208,-0.472143,2.394,2.55788
-0.759438,-0.472143,2.394,2.55556
-0.751668,-0.472143,2.394,2.55326
-0.74918,-0.475495,2.411,2.5691
-0.741354,-0.475495,2.411,2.56683
-0.733529,-0.475495,2.411,2.56458
-0.73082,-0.478848,2.428,2.58042
-0.722939,-0.478848,2.428,2.5782
-0.715059,-0.478848,2.428,2.576
-0.712129,-0.482201,2.445,2.59185
-0.714562,-0.489301,2.481,2.62781
-0.711635,-0.492851,2.499,2.64468
-0.703524,-0.492851,2.499,2.64251
-0.695413,-0.492851,2.499,2.64036
-0.692252,-0.496401,2.517,2.65724
-0.684083,-0.496401,2.517,2.65512
-0.675913,-0.496401,2.517,2.65303
-0.667744,-0.496401,2.517,2.65096
-0.659574,-0.496401,2.517,2.64891
-0.656322,-0.500148,2.536,2.66687
-0.648091,-0.500148,2.536,2.66486
-0.639859,-0.500148,2.536,2.66287
-0.631628,-0.500148,2.536,2.6609
-0.623397,-0.500148,2.536,2.65896
-0.615166,-0.500148,2.536,2.65704
-0.606935,-0.500148,2.536,2.65515
-0.598703,-0.500148,2.536,2.65328
-0.590472,-0.500148,2.536,2.65143
-0.582241,-0.500148,2.536,2.64961
-0.57401,-0.500148,2.536,2.64782
-0.565778,-0.500148,2.536,2.64604
-0.557547,-0.500148,2.536,2.6443
-0.549316,-0.500148,2.536,2.64257
-0.537031,-0.496401,2.517,2.62109
-0.528861,-0.496401,2.517,2.61943
-0.520692,-0.496401,2.517,2.61779
-0.512522,-0.496401,2.517,2.61618
-0.504353,-0.496401,2.517,2.61459
-0.496183,-0.496401,2.517,2.61303
-0.488013,-0.496401,2.517,2.61149
-0.483466,-0.500148,2.536,2.62967
-0.475235,-0.500148,2.536,2.62817
-0.467004,-0.500148,2.536,2.6267
-0.458772,-0.500148,2.536,2.62525
-0.450541,-0.500148,2.536,2.62382
-0.44231,-0.500148,2.536,2.62242
-0.434079,-0.500148,2.536,2.62104
-0.425848,-0.500148,2.536,2.61969
-0.417616,-0.500148,2.536,2.61837
-0.409385,-0.500148,2.536,2.61707
-0.401154,-0.500148,2.536,2.61579
-0.392923,-0.500148,2.536,2.61454
-0.384691,-0.500148,2.536,2.61332
-0.37646,-0.500148,2.536,2.61212
-0.368229,-0.500148,2.536,2.61095
-0.359998,-0.500148,2.536,2.6098
-0.351766,-0.500148,2.536,2.60867
-0.343535,-0.500148,2.536,2.60758
-0.335304,-0.500148,2.536,2.60651
-0.327073,-0.500148,2.536,2.60546
-0.318842,-0.500148,2.536,2.60444
-0.31061,-0.500148,2.536,2.60344
-0.302379,-0.500148,2.536,2.60248
-0.294148,-0.500148,2.536,2.60153
-0.285917,-0.500148,2.536,2.60061
-0.277685,-0.500148,2.536,2.59972
-0.267435,-0.496401,2.517,2.57938
-0.259266,-0.496401,2.517,2.57855
-0.251096,-0.496401,2.517,2.57774
-0.242927,-0.496401,2.517,2.57696
-0.234757,-0.496401,2.517,2.5762
-0.226588,-0.496401,2.517,2.57547
-0.218418,-0.496401,2.517,2.57476
-0.210249,-0.496401,2.517,2.57408
-0.202079,-0.496401,2.517,2.57343
-0.193909,-0.496401,2.517,2.5728
-0.18574,-0.496401,2.517,2.5722
-0.17757,-0.496401,2.517,2.57162
-0.169401,-0.496401,2.517,2.57107
-0.161231,-0.496401,2.517,2.57054
-0.153062,-0.496401,2.517,2.57004
-0.144892,-0.496401,2.517,2.56957
-0.136723,-0.496401,2.517,2.56912
-0.128553,-0.496401,2.517,2.5687
-0.120383,-0.496401,2.517,2.56831
-0.112214,-0.496401,2.517,2.56794
-0.104044,-0.496401,2.517,2.56759
-0.0958747,-0.496401,2.517,2.56727
-0.0877052,-0.496401,2.517,2.56698
-0.0795356,-0.496401,2.517,2.56672
-0.0713661,-0.496401,2.517,2.56648
-0.0631965,-0.496401,2.517,2.56626
-0.055027,-0.496401,2.517,2.56607
-0.0468574,-0.496401,2.517,2.56591
-0.0386878,-0.496401,2.517,2.56577
-0.0305183,-0.496401,2.517,2.56566
-0.0225174,-0.500148,2.536,2.58495
-0.0141792,-0.496401,2.517,2.56552
-0.00600962,-0.496401,2.517,2.56549
0.00215994,-0.496401,2.517,2.56548
0.0104075,-0.500148,2.536,2.58487
0.0186387,-0.500148,2.536,2.58492
0.0268699,-0.500148,2.536,2.58499
0.0351011,-0.500148,2.536,2.58509
0.0433324,-0.500148,2.536,2.58521
0.0515636,-0.500148,2.536,2.58536
0.0597948,-0.500148,2.536,2.58554
0.0680261,-0.500148,2.536,2.58574
0.0762573,-0.500148,2.536,2.58597
0.0844885,-0.500148,2.536,2.58623
0.0927197,-0.500148,2.536,2.58651
0.100951,-0.500148,2.536,2.58682
0.109182,-0.500148,2.536,2.58715
0.117413,-0.500148,2.536,2.58751
0.125645,-0.500148,2.536,2.5879
0.133876,-0.500148,2.536,2.58831
0.142107,-0.500148,2.536,2.58875
0.150338,-0.500148,2.536,2.58922
0.15857,-0.500148,2.536,2.58971
0.166801,-0.500148,2.536,2.59023
0.175032,-0.500148,2.536,2.59077
0.183263,-0.500148,2.536,2.59134
0.191494,-0.500148,2.536,2.59193
0.199726,-0.500148,2.536,2.59255
0.207957,-0.500148,2.536,2.5932
0.216188,-0.500148,2.536,2.59387
0.224419,-0.500148,2.536,2.59457
0.232651,-0.500148,2.536,2.5953
0.240882,-0.500148,2.536,2.59605
0.249113,-0.500148,2.536,2.59683
0.257344,-0.500148,2.536,2.59763
0.265575,-0.500148,2.536,2.59846
0.273807,-0.500148,2.536,2.59931
0.282038,-0.500148,2.536,2.60019
0.290269,-0.500148,2.536,2.6011
0.296264,-0.496401,2.517,2.58253
0.304434,-0.496401,2.517,2.58348
0.312603,-0.496401,2.517,2.58446
0.323194,-0.500148,2.536,2.60498
0.331425,-0.500148,2.536,2.60601
0.339657,-0.500148,2.536,2.60707
0.347888,-0.500148,2.536,2.60815
0.358787,-0.503895,2.555,2.62881
0.36435,-0.500148,2.536,2.6104
0.372581,-0.500148,2.536,2.61156
0.380813,-0.500148,2.536,2.61275
0.391959,-0.503895,2.555,2.63355
0.400252,-0.503895,2.555,2.63479
0.408544,-0.503895,2.555,2.63607
0.416837,-0.503895,2.555,2.63736
0.42513,-0.503895,2.555,2.63869
0.433423,-0.503895,2.555,2.64004
0.441716,-0.503895,2.555,2.64141
0.450009,-0.503895,2.555,2.64281
0.458302,-0.503895,2.555,2.64423
0.466595,-0.503895,2.555,2.64568
0.471356,-0.500148,2.536,2.62747
0.479587,-0.500148,2.536,2.62896
0.491473,-0.503895,2.555,2.65019
0.499766,-0.503895,2.555,2.65174
0.508059,-0.503895,2.555,2.65331
0.516352,-0.503895,2.555,2.65491
0.524645,-0.503895,2.555,2.65654
0.532938,-0.503895,2.555,2.65819
0.541231,-0.503895,2.555,2.65986
0.549524,-0.503895,2.555,2.66156
0.557817,-0.503895,2.555,2.66329
0.566109,-0.503895,2.555,2.66504
0.574402,-0.503895,2.555,2.66681
0.582695,-0.503895,2.555,2.66861
0.590988,-0.503895,2.555,2.67043
0.599281,-0.503895,2.555,2.67228
0.607574,-0.503895,2.555,2.67415
0.615867,-0.503895,2.555,2.67605
0.62416,-0.503895,2.555,2.67797
0.632453,-0.503895,2.555,2.67991
0.640746,-0.503895,2.555,2.68188
0.649038,-0.503895,2.555,2.68388
0.657331,-0.503895,2.555,2.68589
0.665624,-0.503895,2.555,2.68793
0.673917,-0.503895,2.555,2.69
0.68221,-0.503895,2.555,2.69209
0.690503,-0.503895,2.555,2.6942
0.698796,-0.503895,2.555,2.69634
0.707089,-0.503895,2.555,2.6985
0.715382,-0.503895,2.555,2.70069
0.723674,-0.503895,2.555,2.70289
0.731967,-0.503895,2.555,2.70513
0.74026,-0.503895,2.555,2.70738
0.748553,-0.503895,2.555,2.70966
0.751218,-0.500148,2.536,2.6918
0.759449,-0.500148,2.536,2.69411
0.76768,-0.500148,2.536,2.69644
0.775912,-0.500148,2.536,2.69879
0.784143,-0.500148,2.536,2.70117
0.792374,-0.500148,2.536,2.70357
0.800605,-0.500148,2.536,2.706
0.808836,-0.500148,2.536,2.70844
0.817068,-0.500148,2.536,2.71091
0.825299,-0.500148,2.536,2.7134
0.83353,-0.500148,2.536,2.71592
0.848068,-0.503895,2.555,2.73882
0.849993,-0.500148,2.536,2.72102
0.858224,-0.500148,2.536,2.7236
0.866455,-0.500148,2.536,2.7262
0.874686,-0.500148,2.536,2.72883
0.876303,-0.496401,2.517,2.71102
0.884472,-0.496401,2.517,2.71367
0.89938,-0.500148,2.536,2.73685
0.900811,-0.496401,2.517,2.71904
0.908981,-0.496401,2.517,2.72175
0.924074,-0.500148,2.536,2.74506
0.92532,-0.496401,2.517,2.72726
0.933489,-0.496401,2.517,2.73004
nan,nan,nan,NaN
nan,nan,nan,NaN
nan,nan,nan,NaN
nan,nan,nan,NaN
nan,nan,nan,NaN
nan,nan,nan,NaN
nan,nan,nan,NaN
nan,nan,nan,NaN
nan,nan,nan,NaN
nan,nan,nan,NaN
nan,nan,nan,NaN
nan,nan,nan,NaN
nan,nan,nan,NaN
nan,nan,nan,NaN
nan,nan,nan,NaN
nan,nan,nan,NaN
nan,nan,nan,NaN
nan,nan,nan,NaN
nan,nan,nan,NaN
nan,nan,nan,NaN
nan,nan,nan,NaN
nan,nan,nan,NaN
nan,nan,nan,NaN
nan,nan,nan,NaN
nan,nan,nan,NaN
nan,nan,nan,NaN
nan,nan,nan,NaN
nan,nan,nan,NaN
1.5159,-0.642935,3.26,3.65225
1.51244,-0.637018,3.23,3.623
1.52292,-0.637018,3.23,3.62739
1.5334,-0.637018,3.23,3.63181
1.52907,-0.630904,3.199,3.60135
1.53945,-0.630904,3.199,3.60577
1.54984,-0.630904,3.199,3.61021
1.56022,-0.630904,3.199,3.61468
1.5706,-0.630904,3.199,3.61918
1.58099,-0.630904,3.199,3.62369
1.57694,-0.625185,3.17,3.59534
1.58723,-0.625185,3.17,3.59987
1.59752,-0.625185,3.17,3.60442
1.60781,-0.625185,3.17,3.60899
1.6181,-0.625185,3.17,3.61359
1.62839,-0.625185,3.17,3.6182
1.63868,-0.625185,3.17,3.62285
nan,nan,nan,NaN
nan,nan,nan,NaN
nan,nan,nan,NaN
nan,nan,nan,NaN
nan,nan,nan,NaN
nan,nan,nan,NaN
2.05284,-0.750222,3.804,4.38719
2.04238,-0.741939,3.762,4.34447
2.0322,-0.733853,3.721,4.30282
2.04428,-0.733853,3.721,4.30853
2.05636,-0.733853,3.721,4.31428
2.0462,-0.725964,3.681,4.27361
2.05815,-0.725964,3.681,4.27934
2.02679,-0.710778,3.604,4.19546
1.99607,-0.695987,3.529,4.1137
2.00752,-0.695987,3.529,4.11927
1.99838,-0.688887,3.493,4.08279
1.98958,-0.681984,3.458,4.04738
2.00081,-0.681984,3.458,4.05291
1.99166,-0.675081,3.423,4.01739
2.00277,-0.675081,3.423,4.02291
2.01389,-0.675081,3.423,4.02845
2.00488,-0.668376,3.389,3.99395
1.97722,-0.655557,3.324,3.92277
1.98801,-0.655557,3.324,3.92822
1.97955,-0.649246,3.292,3.89582
1.97089,-0.642935,3.26,3.86334
1.96324,-0.637018,3.23,3.83314
1.97372,-0.637018,3.23,3.83852
1.96516,-0.630904,3.199,3.80703
1.95764,-0.625185,3.17,3.77784
1.96793,-0.625185,3.17,3.78319
1.94202,-0.613746,3.112,3.71923
1.91762,-0.602899,3.057,3.65869
1.92754,-0.602899,3.057,3.6639
1.90324,-0.592249,3.003,3.60432
1.89642,-0.587121,2.977,3.57822
1.90609,-0.587121,2.977,3.58335
1.89902,-0.581994,2.951,3.55716
1.87626,-0.572133,2.901,3.50193
1.88567,-0.572133,2.901,3.50698
1.86373,-0.562666,2.853,3.45394
1.84214,-0.553397,2.806,3.40196
1.85125,-0.553397,2.806,3.4069
1.84511,-0.548861,2.783,3.3839
1.83948,-0.544522,2.761,3.36204
1.83371,-0.540183,2.739,3.34012
1.8426,-0.540183,2.739,3.34501
1.83662,-0.535845,2.717,3.32301
1.83118,-0.531703,2.696,3.30217
-2.37465,-0.663974,3.423,4.21862
-2.36354,-0.663974,3.423,4.21237
-2.35243,-0.663974,3.423,4.20615
-2.31806,-0.657379,3.389,4.15823
-2.30706,-0.657379,3.389,4.15211
-2.29606,-0.657379,3.389,4.14601
-2.28506,-0.657379,3.389,4.13992
-2.27406,-0.657379,3.389,4.13386
-2.28577,-0.663974,3.423,4.16923
-2.25206,-0.657379,3.389,4.1218
-2.24106,-0.657379,3.389,4.1158
-2.25243,-0.663974,3.423,4.15105
-2.24132,-0.663974,3.423,4.14504
-2.20806,-0.657379,3.389,4.09793
-2.19706,-0.657379,3.389,4.09201
-2.18606,-0.657379,3.389,4.08612
-2.17506,-0.657379,3.389,4.08024
-2.18577,-0.663974,3.423,4.11526
-2.17466,-0.663974,3.423,4.10937
-2.14206,-0.657379,3.389,4.06275
-2.13106,-0.657379,3.389,4.05696
-2.12006,-0.657379,3.389,4.05119
-2.10906,-0.657379,3.389,4.04544
-2.07763,-0.650978,3.356,4.00038
-2.06674,-0.650978,3.356,3.99474
-2.05585,-0.650978,3.356,3.98911
-2.04496,-0.650978,3.356,3.98351
-2.01467,-0.644771,3.324,3.94
-2.00388,-0.644771,3.324,3.93449
-1.99309,-0.644771,3.324,3.92901
-1.9823,-0.644771,3.324,3.92355
nan,nan,nan,NaN
nan,nan,nan,NaN
nan,nan,nan,NaN
nan,nan,nan,NaN
nan,nan,nan,NaN
nan,nan,nan,NaN
nan,nan,nan,NaN
nan,nan,nan,NaN
nan,nan,nan,NaN
nan,nan,nan,NaN
nan,nan,nan,NaN
nan,nan,nan,NaN
nan,nan,nan,NaN
nan,nan,nan,NaN
nan,nan,nan,NaN
nan,nan,nan,NaN
nan,nan,nan,NaN
nan,nan,nan,NaN
nan,nan,nan,NaN
nan,nan,nan,NaN
nan,nan,nan,NaN
nan,nan,nan,NaN
nan,nan,nan,NaN
nan,nan,nan,NaN
nan,nan,nan,NaN
nan,nan,nan,NaN
nan,nan,nan,NaN
nan,nan,nan,NaN
nan,nan,nan,NaN
nan,nan,nan,NaN
nan,nan,nan,NaN
nan,nan,nan,NaN
nan,nan,nan,NaN
nan,nan,nan,NaN
nan,nan,nan,NaN
nan,nan,nan,NaN
nan,nan,nan,NaN
nan,nan,nan,NaN
nan,nan,nan,NaN
nan,nan,nan,NaN
nan,nan,nan,NaN
-1.08615,-0.457973,2.361,2.6389
-1.07849,-0.457973,2.361,2.63575
-1.07082,-0.457973,2.361,2.63263
-1.06316,-0.457973,2.361,2.62952
-1.0555,-0.457973,2.361,2.62643
-1.04784,-0.457973,2.361,2.62336
-1.04017,-0.457973,2.361,2.62031
-1.03251,-0.457973,2.361,2.61728
-1.02485,-0.457973,2.361,2.61426
-1.01718,-0.457973,2.361,2.61127
-1.01636,-0.461077,2.377,2.62597
-1.01586,-0.464375,2.394,2.64175
-1.00809,-0.464375,2.394,2.63877
-1.00742,-0.467672,2.411,2.65453
-1.00664,-0.47097,2.428,2.67027
-0.998763,-0.47097,2.428,2.66731
-0.990883,-0.47097,2.428,2.66437
-0.983002,-0.47097,2.428,2.66145
-0.975121,-0.47097,2.428,2.65854
-0.967241,-0.47097,2.428,2.65566
-0.95936,-0.47097,2.428,2.6528
-0.951479,-0.47097,2.428,2.64996
-0.943599,-0.47097,2.428,2.64714
-0.929166,-0.467672,2.411,2.62583
-0.921341,-0.467672,2.411,2.62307
-0.913515,-0.467672,2.411,2.62033
-0.899304,-0.464375,2.394,2.59916
-0.891534,-0.464375,2.394,2.59648
-0.883763,-0.464375,2.394,2.59382
-0.875993,-0.464375,2.394,2.59119
-0.868223,-0.464375,2.394,2.58857
-0.854342,-0.461077,2.377,2.56761
-0.846627,-0.461077,2.377,2.56505
-0.838912,-0.461077,2.377,2.56252
-0.831197,-0.461077,2.377,2.56
-0.823481,-0.461077,2.377,2.55751
-0.815766,-0.461077,2.377,2.55503
-0.808051,-0.461077,2.377,2.55258
-0.800336,-0.461077,2.377,2.55015
-0.792621,-0.461077,2.377,2.54774
-0.784906,-0.461077,2.377,2.54535
-0.777191,-0.461077,2.377,2.54298
-0.769475,-0.461077,2.377,2.54063
-0.767208,-0.464375,2.394,2.55646
-0.759438,-0.464375,2.394,2.55414
-0.751668,-0.464375,2.394,2.55184
-0.74918,-0.467672,2.411,2.56767
-0.741354,-0.467672,2.411,2.56539
-0.733529,-0.467672,2.411,2.56314
-0.73082,-0.47097,2.428,2.57897
-0.722939,-0.47097,2.428,2.57675
-0.715059,-0.47097,2.428,2.57455
-0.712129,-0.474267,2.445,2.59038
-0.709378,-0.477759,2.463,2.60727
-0.706509,-0.48125,2.481,2.62414
-0.698457,-0.48125,2.481,2.62199
-0.690404,-0.48125,2.481,2.61985
-0.687302,-0.484742,2.499,2.63673
-0.679191,-0.484742,2.499,2.63463
-0.67108,-0.484742,2.499,2.63255
-0.662968,-0.484742,2.499,2.63049
-0.654857,-0.484742,2.499,2.62846
-0.651405,-0.488233,2.517,2.64537
-0.643235,-0.488233,2.517,2.64337
-0.635065,-0.488233,2.517,2.6414
-0.626896,-0.488233,2.517,2.63944
-0.618726,-0.488233,2.517,2.63751
-0.610557,-0.488233,2.517,2.63561
-0.602387,-0.488233,2.517,2.63373
-0.594218,-0.488233,2.517,2.63187
-0.586048,-0.488233,2.517,2.63004
-0.577879,-0.488233,2.517,2.62823
-0.569709,-0.488233,2.517,2.62645
-0.561539,-0.488233,2.517,2.62469
-0.55337,-0.488233,2.517,2.62295
-0.5452,-0.488233,2.517,2.62124
-0.537031,-0.488233,2.517,2.61955
-0.528861,-0.488233,2.517,2.61789
-0.520692,-0.488233,2.517,2.61625
-0.512522,-0.488233,2.517,2.61464
-0.504353,-0.488233,2.517,2.61305
-0.496183,-0.488233,2.517,2.61149
-0.488013,-0.488233,2.517,2.60995
-0.479844,-0.488233,2.517,2.60843
-0.471674,-0.488233,2.517,2.60694
-0.463505,-0.488233,2.517,2.60547
-0.455335,-0.488233,2.517,2.60403
-0.447166,-0.488233,2.517,2.60262
-0.438996,-0.488233,2.517,2.60123
-0.430827,-0.488233,2.517,2.59986
-0.422657,-0.488233,2.517,2.59852
-0.414487,-0.488233,2.517,2.5972
-0.406318,-0.488233,2.517,2.59591
-0.398148,-0.488233,2.517,2.59465
-0.389979,-0.488233,2.517,2.5934
-0.384691,-0.491919,2.536,2.61176
-0.37646,-0.491919,2.536,2.61056
-0.368229,-0.491919,2.536,2.60938
-0.359998,-0.491919,2.536,2.60823
-0.351766,-0.491919,2.536,2.60711
-0.343535,-0.491919,2.536,2.60601
-0.335304,-0.491919,2.536,2.60494
-0.327073,-0.491919,2.536,2.60389
-0.318842,-0.491919,2.536,2.60287
-0.31061,-0.491919,2.536,2.60188
-0.300114,-0.488233,2.517,2.58142
-0.291944,-0.488233,2.517,2.58048
-0.283775,-0.488233,2.517,2.57957
-0.273634,-0.484742,2.499,2.56024
-0.265523,-0.484742,2.499,2.55939
-0.257412,-0.484742,2.499,2.55856
-0.249301,-0.484742,2.499,2.55776
-0.24119,-0.484742,2.499,2.55698
-0.233078,-0.484742,2.499,2.55623
-0.224967,-0.484742,2.499,2.5555
-0.216856,-0.484742,2.499,2.5548
-0.208745,-0.484742,2.499,2.55412
-0.200634,-0.484742,2.499,2.55347
-0.192523,-0.484742,2.499,2.55285
-0.184412,-0.484742,2.499,2.55225
-0.1763,-0.484742,2.499,2.55168
-0.168189,-0.484742,2.499,2.55113
-0.160078,-0.484742,2.499,2.55061
-0.153062,-0.488233,2.517,2.56848
-0.144892,-0.488233,2.517,2.56801
-0.136723,-0.488233,2.517,2.56756
-0.128553,-0.488233,2.517,2.56714
-0.120383,-0.488233,2.517,2.56674
-0.112214,-0.488233,2.517,2.56637
-0.104044,-0.488233,2.517,2.56603
-0.0958747,-0.488233,2.517,2.56571
-0.0877052,-0.488233,2.517,2.56541
-0.0795356,-0.488233,2.517,2.56515
-0.0713661,-0.488233,2.517,2.56491
-0.0631965,-0.488233,2.517,2.56469
-0.055027,-0.488233,2.517,2.56451
-0.0468574,-0.488233,2.517,2.56434
-0.0386878,-0.488233,2.517,2.56421
-0.0305183,-0.488233,2.517,2.5641
-0.0223487,-0.488233,2.517,2.56401
-0.0141792,-0.488233,2.517,2.56395
-0.00600962,-0.488233,2.517,2.56392
0.00214449,-0.484742,2.499,2.54558
0.0102556,-0.484742,2.499,2.5456
0.0183668,-0.484742,2.499,2.54565
0.0264779,-0.484742,2.499,2.54572
0.034589,-0.484742,2.499,2.54581
0.0427002,-0.484742,2.499,2.54594
0.0508113,-0.484742,2.499,2.54609
0.0589224,-0.484742,2.499,2.54626
0.0670336,-0.484742,2.499,2.54646
0.0751447,-0.484742,2.499,2.54669
0.0832558,-0.484742,2.499,2.54694
0.091367,-0.484742,2.499,2.54722
0.100195,-0.488233,2.517,2.56587
0.107589,-0.484742,2.499,2.54785
0.1157,-0.484742,2.499,2.54821
0.123811,-0.484742,2.499,2.54859
0.132873,-0.488233,2.517,2.56736
0.141042,-0.488233,2.517,2.56779
0.149212,-0.488233,2.517,2.56825
0.157382,-0.488233,2.517,2.56874
0.165551,-0.488233,2.517,2.56925
0.173721,-0.488233,2.517,2.56979
0.18189,-0.488233,2.517,2.57036
0.19006,-0.488233,2.517,2.57095
0.198229,-0.488233,2.517,2.57157
0.204923,-0.484742,2.499,2.55381
0.213034,-0.484742,2.499,2.55448
0.221145,-0.484742,2.499,2.55517
0.229256,-0.484742,2.499,2.55588
0.237367,-0.484742,2.499,2.55662
0.245479,-0.484742,2.499,2.55739
0.25359,-0.484742,2.499,2.55818
0.261701,-0.484742,2.499,2.559
0.271755,-0.488233,2.517,2.57828
0.279925,-0.488233,2.517,2.57915
0.288094,-0.488233,2.517,2.58005
0.296264,-0.488233,2.517,2.58098
0.304434,-0.488233,2.517,2.58193
0.312603,-0.488233,2.517,2.5829
0.320773,-0.488233,2.517,2.5839
0.328942,-0.488233,2.517,2.58493
0.337112,-0.488233,2.517,2.58598
0.345281,-0.488233,2.517,2.58706
0.356119,-0.491919,2.536,2.6077
0.36162,-0.488233,2.517,2.58929
0.36979,-0.488233,2.517,2.59045
0.380813,-0.491919,2.536,2.61119
0.389044,-0.491919,2.536,2.6124
0.397275,-0.491919,2.536,2.61364
0.405506,-0.491919,2.536,2.6149
0.413738,-0.491919,2.536,2.61619
0.421969,-0.491919,2.536,2.61751
0.4302,-0.491919,2.536,2.61885
0.441716,-0.495604,2.555,2.63984
0.450009,-0.495604,2.555,2.64124
0.458302,-0.495604,2.555,2.64267
0.466595,-0.495604,2.555,2.64412
0.471356,-0.491919,2.536,2.62592
0.479587,-0.491919,2.536,2.62741
0.491473,-0.495604,2.555,2.64862
0.499766,-0.495604,2.555,2.65017
0.508059,-0.495604,2.555,2.65175
0.516352,-0.495604,2.555,2.65335
0.524645,-0.495604,2.555,2.65498
0.532938,-0.495604,2.555,2.65663
0.541231,-0.495604,2.555,2.6583
0.549524,-0.495604,2.555,2.66
0.557817,-0.495604,2.555,2.66173
0.566109,-0.495604,2.555,2.66348
0.574402,-0.495604,2.555,2.66526
0.582695,-0.495604,2.555,2.66706
0.590988,-0.495604,2.555,2.66888
0.599281,-0.495604,2.555,2.67073
0.607574,-0.495604,2.555,2.6726
0.615867,-0.495604,2.555,2.6745
0.62416,-0.495604,2.555,2.67642
0.632453,-0.495604,2.555,2.67837
0.640746,-0.495604,2.555,2.68034
0.649038,-0.495604,2.555,2.68233
0.657331,-0.495604,2.555,2.68435
0.665624,-0.495604,2.555,2.68639
0.673917,-0.495604,2.555,2.68846
0.68221,-0.495604,2.555,2.69055
0.690503,-0.495604,2.555,2.69266
0.698796,-0.495604,2.555,2.6948
0.707089,-0.495604,2.555,2.69697
0.715382,-0.495604,2.555,2.69915
0.723674,-0.495604,2.555,2.70136
0.731967,-0.495604,2.555,2.70359
0.74026,-0.495604,2.555,2.70585
0.748553,-0.495604,2.555,2.70813
0.751218,-0.491919,2.536,2.69028
0.759449,-0.491919,2.536,2.69259
0.76768,-0.491919,2.536,2.69492
0.775912,-0.491919,2.536,2.69728
0.784143,-0.491919,2.536,2.69966
0.792374,-0.491919,2.536,2.70206
0.800605,-0.491919,2.536,2.70449
0.808836,-0.491919,2.536,2.70693
0.817068,-0.491919,2.536,2.70941
0.825299,-0.491919,2.536,2.7119
0.83353,-0.491919,2.536,2.71442
0.848068,-0.495604,2.555,2.73731
0.849993,-0.491919,2.536,2.71952
0.858224,-0.491919,2.536,2.7221
0.866455,-0.491919,2.536,2.72471
0.874686,-0.491919,2.536,2.72733
0.876303,-0.488233,2.517,2.70953
0.884472,-0.488233,2.517,2.71219
0.89938,-0.491919,2.536,2.73535
0.900811,-0.488233,2.517,2.71756
0.908981,-0.488233,2.517,2.72028
0.924074,-0.491919,2.536,2.74357
0.92532,-0.488233,2.517,2.72578
0.933489,-0.488233,2.517,2.72856
nan,nan,nan,NaN
nan,nan,nan,NaN
nan,nan,nan,NaN
nan,nan,nan,NaN
nan,nan,nan,NaN
nan,nan,nan,NaN
nan,nan,nan,NaN
nan,nan,nan,NaN
nan,nan,nan,NaN
nan,nan,nan,NaN
nan,nan,nan,NaN
nan,nan,nan,NaN
nan,nan,nan,NaN
nan,nan,nan,NaN
nan,nan,nan,NaN
nan,nan,nan,NaN
nan,nan,nan,NaN
nan,nan,nan,NaN
nan,nan,nan,NaN
nan,nan,nan,NaN
nan,nan,nan,NaN
nan,nan,nan,NaN
nan,nan,nan,NaN
nan,nan,nan,NaN
nan,nan,nan,NaN
nan,nan,nan,NaN
1.48098,-0.626537,3.23,3.60815
1.49147,-0.626537,3.23,3.61247
1.50195,-0.626537,3.23,3.61681
1.51244,-0.626537,3.23,3.62118
1.52292,-0.626537,3.23,3.62557
1.51869,-0.620524,3.199,3.59514
1.52907,-0.620524,3.199,3.59954
1.53945,-0.620524,3.199,3.60397
1.54984,-0.620524,3.199,3.60841
1.56022,-0.620524,3.199,3.61288
1.5706,-0.620524,3.199,3.61738
1.58099,-0.620524,3.199,3.6219
1.57694,-0.614899,3.17,3.59357
1.58723,-0.614899,3.17,3.5981
1.59752,-0.614899,3.17,3.60265
1.60781,-0.614899,3.17,3.60722
1.6033,-0.609273,3.141,3.57878
1.61349,-0.609273,3.141,3.58336
1.62369,-0.609273,3.141,3.58796
nan,nan,nan,NaN
nan,nan,nan,NaN
nan,nan,nan,NaN
nan,nan,nan,NaN
nan,nan,nan,NaN
nan,nan,nan,NaN
2.05284,-0.737878,3.804,4.38509
2.04238,-0.729732,3.762,4.34241
2.0322,-0.721779,3.721,4.30077
2.04428,-0.721779,3.721,4.30649
2.03425,-0.71402,3.681,4.26588
2.0462,-0.71402,3.681,4.27159
2.05815,-0.71402,3.681,4.27733
2.02679,-0.699084,3.604,4.1935
1.99607,-0.684536,3.529,4.11178
2.00752,-0.684536,3.529,4.11735
1.99838,-0.677552,3.493,4.08089
1.98958,-0.670763,3.458,4.04551
2.00081,-0.670763,3.458,4.05104
1.99166,-0.663974,3.423,4.01553
1.98288,-0.657379,3.389,3.98112
1.99388,-0.657379,3.389,3.98661
1.98536,-0.650978,3.356,3.95325
1.97722,-0.644771,3.324,3.92098
1.98801,-0.644771,3.324,3.92643
1.97955,-0.638564,3.292,3.89405
1.97089,-0.632356,3.26,3.86159
1.96324,-0.626537,3.23,3.83142
1.97372,-0.626537,3.23,3.8368
1.96516,-0.620524,3.199,3.80533
1.95764,-0.614899,3.17,3.77615
1.96793,-0.614899,3.17,3.7815
1.94202,-0.603648,3.112,3.71758
1.90068,-0.587742,3.03,3.62477
1.91052,-0.587742,3.03,3.62993
1.90324,-0.582505,3.003,3.60273
1.89642,-0.577462,2.977,3.57665
1.90609,-0.577462,2.977,3.58178
1.89902,-0.572418,2.951,3.55561
1.87626,-0.56272,2.901,3.5004
1.88567,-0.56272,2.901,3.50546
1.86373,-0.553409,2.853,3.45245
1.84214,-0.544292,2.806,3.4005
1.85125,-0.544292,2.806,3.40544
1.83052,-0.535563,2.761,3.3557
1.83948,-0.535563,2.761,3.3606
1.83371,-0.531296,2.739,3.3387
1.8426,-0.531296,2.739,3.34359
1.83662,-0.527028,2.717,3.3216
1.81691,-0.518881,2.675,3.27506
-2.37465,-0.652867,3.423,4.21688
-2.36354,-0.652867,3.423,4.21064
-2.35243,-0.652867,3.423,4.20441
-2.31806,-0.646382,3.389,4.15651
-2.30706,-0.646382,3.389,4.15038
-2.29606,-0.646382,3.389,4.14428
-2.30799,-0.652867,3.423,4.17971
-2.29688,-0.652867,3.423,4.17358
-2.28577,-0.652867,3.423,4.16748
-2.27466,-0.652867,3.423,4.1614
-2.26355,-0.652867,3.423,4.15533
-2.25243,-0.652867,3.423,4.14929
-2.24132,-0.652867,3.423,4.14327
-2.23021,-0.652867,3.423,4.13727
-2.2191,-0.652867,3.423,4.13129
-2.20799,-0.652867,3.423,4.12534
-2.19688,-0.652867,3.423,4.1194
-2.18577,-0.652867,3.423,4.11349
-2.17466,-0.652867,3.423,4.10759
-2.16355,-0.652867,3.423,4.10172
-2.15244,-0.652867,3.423,4.09587
-2.14133,-0.652867,3.423,4.09005
-2.13022,-0.652867,3.423,4.08424
-2.09806,-0.646382,3.389,4.03795
-2.08706,-0.646382,3.389,4.03224
-2.07606,-0.646382,3.389,4.02656
-2.06506,-0.646382,3.389,4.0209
