nan,nan,nan,NaN
nan,nan,nan,NaN
nan,nan,nan,NaN
nan,nan,nan,NaN
nan,nan,nan,NaN
nan,nan,nan,NaN
nan,nan,nan,NaN
nan,nan,nan,NaN
nan,nan,nan,NaN
nan,nan,nan,NaN
nan,nan,nan,NaN
nan,nan,nan,NaN
nan,nan,nan,NaN
nan,nan,nan,NaN
nan,nan,nan,NaN
nan,nan,nan,NaN
nan,nan,nan,NaN
nan,nan,nan,NaN
nan,nan,nan,NaN
nan,nan,nan,NaN
nan,nan,nan,NaN
nan,nan,nan,NaN
nan,nan,nan,NaN
nan,nan,nan,NaN
-1.15523,-0.229688,2.377,2.65282
-1.14752,-0.229688,2.377,2.64947
-1.1398,-0.229688,2.377,2.64614
-1.13209,-0.229688,2.377,2.64282
-1.12437,-0.229688,2.377,2.63953
-1.11666,-0.229688,2.377,2.63625
-1.10894,-0.229688,2.377,2.63299
-1.09381,-0.228142,2.361,2.61205
-1.08615,-0.228142,2.361,2.60885
-1.07849,-0.228142,2.361,2.60567
-1.07082,-0.228142,2.361,2.60251
-1.06316,-0.228142,2.361,2.59936
-1.0555,-0.228142,2.361,2.59624
-1.04784,-0.228142,2.361,2.59313
-1.03312,-0.226596,2.345,2.57249
-1.02551,-0.226596,2.345,2.56944
-1.0179,-0.226596,2.345,2.56642
-1.01029,-0.226596,2.345,2.56341
-1.00268,-0.226596,2.345,2.56042
-0.995066,-0.226596,2.345,2.55745
-0.987455,-0.226596,2.345,2.55449
-0.979844,-0.226596,2.345,2.55156
-0.978866,-0.228142,2.361,2.56604
-0.971203,-0.228142,2.361,2.56312
-0.96354,-0.228142,2.361,2.56023
-0.955876,-0.228142,2.361,2.55736
-0.948213,-0.228142,2.361,2.5545
-0.934176,-0.226596,2.345,2.53437
-0.926565,-0.226596,2.345,2.53158
-0.918953,-0.226596,2.345,2.5288
-0.911342,-0.226596,2.345,2.52605
-0.903731,-0.226596,2.345,2.52331
-0.89612,-0.226596,2.345,2.5206
-0.882446,-0.22505,2.329,2.50072
-0.874887,-0.22505,2.329,2.49806
-0.867327,-0.22505,2.329,2.49542
-0.859768,-0.22505,2.329,2.49281
-0.846354,-0.223503,2.313,2.4731
-0.838847,-0.223503,2.313,2.47054
-0.831339,-0.223503,2.313,2.468
-0.823832,-0.223503,2.313,2.46549
-0.816324,-0.223503,2.313,2.46299
-0.808817,-0.223503,2.313,2.46051
-0.801309,-0.223503,2.313,2.45805
-0.793802,-0.223503,2.313,2.45562
-0.786295,-0.223503,2.313,2.4532
-0.778787,-0.223503,2.313,2.4508
-0.77128,-0.223503,2.313,2.44843
-0.763772,-0.223503,2.313,2.44607
-0.756265,-0.223503,2.313,2.44374
-0.748757,-0.223503,2.313,2.44143
-0.746378,-0.22505,2.329,2.45601
-0.738818,-0.22505,2.329,2.45372
-0.731259,-0.22505,2.329,2.45145
-0.728671,-0.226596,2.345,2.46604
-0.72106,-0.226596,2.345,2.4638
-0.713449,-0.226596,2.345,2.46158
-0.710653,-0.228142,2.361,2.47617
-0.70299,-0.228142,2.361,2.47398
-0.695327,-0.228142,2.361,2.47181
-0.687664,-0.228142,2.361,2.46967
-0.684609,-0.229688,2.377,2.48427
-0.676894,-0.229688,2.377,2.48215
-0.669178,-0.229688,2.377,2.48006
-0.661463,-0.229688,2.377,2.47799
-0.658424,-0.23133,2.394,2.49365
-0.650653,-0.23133,2.394,2.49161
-0.642883,-0.23133,2.394,2.48959
-0.635113,-0.23133,2.394,2.48759
-0.631797,-0.232973,2.411,2.50327
-0.623972,-0.232973,2.411,2.50131
-0.616146,-0.232973,2.411,2.49937
-0.608321,-0.232973,2.411,2.49745
-0.600495,-0.232973,2.411,2.49555
-0.59267,-0.232973,2.411,2.49368
-0.584844,-0.232973,2.411,2.49183
-0.577019,-0.232973,2.411,2.49001
-0.573206,-0.234616,2.428,2.50575
-0.565326,-0.234616,2.428,2.50396
-0.557445,-0.234616,2.428,2.50219
-0.549564,-0.234616,2.428,2.50045
-0.541684,-0.234616,2.428,2.49873
-0.53754,-0.236259,2.445,2.51452
-0.529605,-0.236259,2.445,2.51283
-0.521669,-0.236259,2.445,2.51117
-0.513733,-0.236259,2.445,2.50954
-0.505797,-0.236259,2.445,2.50792
-0.497861,-0.236259,2.445,2.50633
-0.493532,-0.237998,2.463,2.52321
-0.485538,-0.237998,2.463,2.52166
-0.477544,-0.237998,2.463,2.52013
-0.469549,-0.237998,2.463,2.51863
-0.464928,-0.239737,2.481,2.53555
-0.456875,-0.239737,2.481,2.53408
-0.448823,-0.239737,2.481,2.53264
-0.44077,-0.239737,2.481,2.53123
-0.432717,-0.239737,2.481,2.52984
-0.424665,-0.239737,2.481,2.52847
-0.419634,-0.241477,2.499,2.54547
-0.408559,-0.239737,2.481,2.52582
-0.400506,-0.239737,2.481,2.52453
-0.395301,-0.241477,2.499,2.54157
-0.38719,-0.241477,2.499,2.54032
-0.379079,-0.241477,2.499,2.5391
-0.370968,-0.241477,2.499,2.5379
-0.362857,-0.241477,2.499,2.53673
-0.35219,-0.239737,2.481,2.51731
-0.344137,-0.239737,2.481,2.5162
-0.336085,-0.239737,2.481,2.51511
-0.328032,-0.239737,2.481,2.51405
-0.319979,-0.239737,2.481,2.51301
-0.311927,-0.239737,2.481,2.512
-0.303874,-0.239737,2.481,2.51101
-0.295821,-0.239737,2.481,2.51005
-0.287769,-0.239737,2.481,2.50911
-0.279716,-0.239737,2.481,2.5082
-0.271663,-0.239737,2.481,2.50732
-0.26361,-0.239737,2.481,2.50646
-0.255558,-0.239737,2.481,2.50562
-0.247505,-0.239737,2.481,2.50481
-0.239452,-0.239737,2.481,2.50403
-0.2314,-0.239737,2.481,2.50327
-0.224967,-0.241477,2.499,2.5207
-0.216856,-0.241477,2.499,2.51999
-0.208745,-0.241477,2.499,2.5193
-0.200634,-0.241477,2.499,2.51864
-0.192523,-0.241477,2.499,2.51801
-0.184412,-0.241477,2.499,2.5174
-0.178911,-0.245052,2.536,2.55409
-0.170679,-0.245052,2.536,2.55352
-0.162448,-0.245052,2.536,2.55299
-0.154217,-0.245052,2.536,2.55247
-0.145986,-0.245052,2.536,2.55199
-0.137755,-0.245052,2.536,2.55153
-0.129523,-0.245052,2.536,2.5511
-0.122201,-0.246888,2.555,2.56981
-0.113908,-0.246888,2.555,2.56943
-0.105615,-0.246888,2.555,2.56907
-0.0973222,-0.246888,2.555,2.56874
-0.0890293,-0.246888,2.555,2.56844
-0.0807364,-0.246888,2.555,2.56817
-0.0724435,-0.246888,2.555,2.56792
-0.0641506,-0.246888,2.555,2.5677
-0.0558577,-0.246888,2.555,2.56751
-0.0475648,-0.246888,2.555,2.56734
-0.0392719,-0.246888,2.555,2.5672
-0.030979,-0.246888,2.555,2.56709
-0.0226861,-0.246888,2.555,2.567
-0.0143932,-0.246888,2.555,2.56694
-0.00610034,-0.246888,2.555,2.56691
0.00219255,-0.246888,2.555,2.5669
0.0104854,-0.246888,2.555,2.56692
0.0187783,-0.246888,2.555,2.56697
0.0268699,-0.245052,2.536,2.54795
0.0351011,-0.245052,2.536,2.54805
0.0433324,-0.245052,2.536,2.54818
0.0515636,-0.245052,2.536,2.54833
0.0593468,-0.243216,2.517,2.52942
0.0675164,-0.243216,2.517,2.52962
0.075686,-0.243216,2.517,2.52986
0.0838555,-0.243216,2.517,2.53011
0.0920251,-0.243216,2.517,2.5304
0.0994781,-0.241477,2.499,2.51261
0.107589,-0.241477,2.499,2.51294
0.1157,-0.241477,2.499,2.5133
0.123811,-0.241477,2.499,2.51369
0.130972,-0.239737,2.481,2.49599
0.139025,-0.239737,2.481,2.49643
0.147078,-0.239737,2.481,2.49689
0.155131,-0.239737,2.481,2.49738
0.163183,-0.239737,2.481,2.49789
0.171236,-0.239737,2.481,2.49843
0.179289,-0.239737,2.481,2.499
0.187341,-0.239737,2.481,2.49959
0.195394,-0.239737,2.481,2.5002
0.203447,-0.239737,2.481,2.50085
0.2115,-0.239737,2.481,2.50151
0.219552,-0.239737,2.481,2.50221
0.227605,-0.239737,2.481,2.50293
0.235658,-0.239737,2.481,2.50367
0.24371,-0.239737,2.481,2.50444
0.251763,-0.239737,2.481,2.50524
0.259816,-0.239737,2.481,2.50606
0.267868,-0.239737,2.481,2.50691
0.275921,-0.239737,2.481,2.50778
0.283974,-0.239737,2.481,2.50868
0.292027,-0.239737,2.481,2.5096
0.300079,-0.239737,2.481,2.51055
0.308132,-0.239737,2.481,2.51153
0.316185,-0.239737,2.481,2.51253
0.324237,-0.239737,2.481,2.51356
0.33229,-0.239737,2.481,2.51461
0.340343,-0.239737,2.481,2.51568
0.348396,-0.239737,2.481,2.51679
0.356448,-0.239737,2.481,2.51791
0.361856,-0.237998,2.463,2.50079
0.369851,-0.237998,2.463,2.50196
0.377845,-0.237998,2.463,2.50315
0.385839,-0.237998,2.463,2.50437
0.393834,-0.237998,2.463,2.50562
0.401828,-0.237998,2.463,2.50689
0.409822,-0.237998,2.463,2.50818
0.417816,-0.237998,2.463,2.5095
0.425811,-0.237998,2.463,2.51084
0.433805,-0.237998,2.463,2.51221
0.441799,-0.237998,2.463,2.5136
0.449794,-0.237998,2.463,2.51502
0.457788,-0.237998,2.463,2.51646
0.465782,-0.237998,2.463,2.51793
0.473776,-0.237998,2.463,2.51942
0.481771,-0.237998,2.463,2.52094
0.489765,-0.237998,2.463,2.52248
0.501397,-0.239737,2.481,2.54249
0.50945,-0.239737,2.481,2.54409
0.517502,-0.239737,2.481,2.54571
0.525555,-0.239737,2.481,2.54736
0.533608,-0.239737,2.481,2.54903
0.541661,-0.239737,2.481,2.55073
0.549713,-0.239737,2.481,2.55245
0.561813,-0.241477,2.499,2.57273
0.569924,-0.241477,2.499,2.57451
0.573871,-0.239737,2.481,2.55777
0.581924,-0.239737,2.481,2.55958
0.589977,-0.239737,2.481,2.56143
0.59803,-0.239737,2.481,2.56329
0.606082,-0.239737,2.481,2.56518
0.618591,-0.241477,2.499,2.58572
0.626702,-0.241477,2.499,2.58768
0.63024,-0.239737,2.481,2.571
0.638293,-0.239737,2.481,2.57299
0.646346,-0.239737,2.481,2.575
0.654399,-0.239737,2.481,2.57703
0.662451,-0.239737,2.481,2.57908
0.670504,-0.239737,2.481,2.58116
0.678557,-0.239737,2.481,2.58327
0.681628,-0.237998,2.463,2.56664
0.689622,-0.237998,2.463,2.56877
0.697617,-0.237998,2.463,2.57093
0.705611,-0.237998,2.463,2.57311
0.713605,-0.237998,2.463,2.57531
0.721599,-0.237998,2.463,2.57754
0.729594,-0.237998,2.463,2.57979
0.737588,-0.237998,2.463,2.58206
0.745582,-0.237998,2.463,2.58436
0.753577,-0.237998,2.463,2.58668
0.761571,-0.237998,2.463,2.58902
0.769565,-0.237998,2.463,2.59138
0.777559,-0.237998,2.463,2.59376
0.785554,-0.237998,2.463,2.59617
0.793548,-0.237998,2.463,2.5986
0.801542,-0.237998,2.463,2.60105
0.809537,-0.237998,2.463,2.60353
0.823505,-0.239737,2.481,2.62507
0.825525,-0.237998,2.463,2.60854
0.833519,-0.237998,2.463,2.61109
0.847664,-0.239737,2.481,2.63275
0.855716,-0.239737,2.481,2.63535
0.863769,-0.239737,2.481,2.63798
0.865497,-0.237998,2.463,2.62147
0.873491,-0.237998,2.463,2.62412
0.881485,-0.237998,2.463,2.62679
0.889479,-0.237998,2.463,2.62948
0.897474,-0.237998,2.463,2.6322
0.905468,-0.237998,2.463,2.63494
0.906787,-0.236259,2.445,2.61842
0.914722,-0.236259,2.445,2.62118
0.922658,-0.236259,2.445,2.62396
0.930594,-0.236259,2.445,2.62676
0.932004,-0.234616,2.428,2.61129
0.939885,-0.234616,2.428,2.61412
0.947766,-0.234616,2.428,2.61696
0.955646,-0.234616,2.428,2.61983
0.970273,-0.236259,2.445,2.64107
0.971408,-0.234616,2.428,2.62562
0.979289,-0.234616,2.428,2.62854
nan,nan,nan,NaN
nan,nan,nan,NaN
nan,nan,nan,NaN
nan,nan,nan,NaN
nan,nan,nan,NaN
nan,nan,nan,NaN
nan,nan,nan,NaN
nan,nan,nan,NaN
nan,nan,nan,NaN
nan,nan,nan,NaN
nan,nan,nan,NaN
nan,nan,nan,NaN
nan,nan,nan,NaN
nan,nan,nan,NaN
nan,nan,nan,NaN
nan,nan,nan,NaN
nan,nan,nan,NaN
1.73712,-0.363519,3.762,4.15961
1.74933,-0.363519,3.762,4.16473
1.76154,-0.363519,3.762,4.16987
1.79356,-0.367578,3.804,4.22166
1.8059,-0.367578,3.804,4.22692
1.81825,-0.367578,3.804,4.23221
1.8306,-0.367578,3.804,4.23752
1.86329,-0.371636,3.846,4.28972
1.87577,-0.371636,3.846,4.29516
1.88826,-0.371636,3.846,4.30062
1.92249,-0.375888,3.89,4.35538
1.93511,-0.375888,3.89,4.36097
1.94774,-0.375888,3.89,4.36659
1.98304,-0.380236,3.935,4.42281
nan,nan,nan,NaN
nan,nan,nan,NaN
nan,nan,nan,NaN
nan,nan,nan,NaN
nan,nan,nan,NaN
nan,nan,nan,NaN
nan,nan,nan,NaN
nan,nan,nan,NaN
2.05054,-0.371636,3.846,4.3743
2.06302,-0.371636,3.846,4.38017
2.09925,-0.375888,3.89,4.43624
2.11188,-0.375888,3.89,4.44223
2.1245,-0.375888,3.89,4.44825
2.13713,-0.375888,3.89,4.45429
2.14975,-0.375888,3.89,4.46036
2.13792,-0.371636,3.846,4.41594
2.1504,-0.371636,3.846,4.422
2.16289,-0.371636,3.846,4.42808
2.17537,-0.371636,3.846,4.43419
2.16396,-0.367578,3.804,4.39184
2.17631,-0.367578,3.804,4.39794
2.16449,-0.363519,3.762,4.35543
2.15298,-0.359557,3.721,4.31398
2.16506,-0.359557,3.721,4.32002
2.17713,-0.359557,3.721,4.32609
2.14273,-0.351924,3.642,4.2402
2.15455,-0.351924,3.642,4.24619
2.12117,-0.34458,3.566,4.16346
2.08908,-0.337526,3.493,4.08402
2.10042,-0.337526,3.493,4.08983
2.06944,-0.330762,3.423,4.01359
2.00092,-0.318103,3.292,3.86551
2.01161,-0.318103,3.292,3.87105
1.96516,-0.309117,3.199,3.7671
1.97555,-0.309117,3.199,3.77252
nan,nan,nan,NaN
nan,nan,nan,NaN
1.86744,-0.287665,2.977,3.52599
1.8771,-0.287665,2.977,3.53112
1.8386,-0.280321,2.901,3.44599
1.84801,-0.280321,2.901,3.45102
1.85743,-0.280321,2.901,3.45607
1.83595,-0.275683,2.853,3.40387
1.82969,-0.273364,2.829,3.3802
1.82392,-0.271142,2.806,3.35766
1.83303,-0.271142,2.806,3.36261
1.82704,-0.268919,2.783,3.33998
1.82156,-0.266793,2.761,3.31849
1.83052,-0.266793,2.761,3.32342
1.81017,-0.262542,2.717,3.27532
1.80493,-0.260512,2.696,3.25485
1.81368,-0.260512,2.696,3.25971
1.79404,-0.256454,2.654,3.21373
1.80265,-0.256454,2.654,3.21855
-1.99587,-0.268667,2.877,3.51181
-1.98653,-0.268667,2.877,3.50651
-1.97719,-0.268667,2.877,3.50123
-1.96786,-0.268667,2.877,3.49596
-1.95852,-0.268667,2.877,3.49072
-1.94918,-0.268667,2.877,3.48549
-1.93984,-0.268667,2.877,3.48027
-1.94661,-0.270908,2.901,3.50407
-1.95389,-0.273243,2.926,3.529
-1.94439,-0.273243,2.926,3.52375
-1.95142,-0.275577,2.951,3.54858
-1.95895,-0.278005,2.977,3.57454
-1.94929,-0.278005,2.977,3.56925
-1.95657,-0.280433,3.003,3.59511
-1.98183,-0.285476,3.057,3.65437
-1.97191,-0.285476,3.057,3.64899
-1.96198,-0.285476,3.057,3.64364
-1.9693,-0.287998,3.084,3.67044
-1.97708,-0.290612,3.112,3.69836
-1.96698,-0.290612,3.112,3.69297
-1.93927,-0.287998,3.084,3.65442
-1.92926,-0.287998,3.084,3.64912
-1.91925,-0.287998,3.084,3.64384
-1.89253,-0.285476,3.057,3.60672
-1.86598,-0.282955,3.03,3.56971
-1.85614,-0.282955,3.03,3.56458
-1.84631,-0.282955,3.03,3.55947
-1.85284,-0.285476,3.057,3.58605
-1.84292,-0.285476,3.057,3.58093
-1.81681,-0.282955,3.03,3.54426
-1.80697,-0.282955,3.03,3.53922
nan,nan,nan,NaN
nan,nan,nan,NaN
nan,nan,nan,NaN
nan,nan,nan,NaN
nan,nan,nan,NaN
nan,nan,nan,NaN
nan,nan,nan,NaN
nan,nan,nan,NaN
nan,nan,nan,NaN
nan,nan,nan,NaN
nan,nan,nan,NaN
nan,nan,nan,NaN
nan,nan,nan,NaN
nan,nan,nan,NaN
nan,nan,nan,NaN
nan,nan,nan,NaN
nan,nan,nan,NaN
nan,nan,nan,NaN
nan,nan,nan,NaN
nan,nan,nan,NaN
nan,nan,nan,NaN
nan,nan,nan,NaN
nan,nan,nan,NaN
nan,nan,nan,NaN
nan,nan,nan,NaN
nan,nan,nan,NaN
nan,nan,nan,NaN
nan,nan,nan,NaN
nan,nan,nan,NaN
nan,nan,nan,NaN
nan,nan,nan,NaN
nan,nan,nan,NaN
nan,nan,nan,NaN
-1.15523,-0.221975,2.377,2.65216
-1.14752,-0.221975,2.377,2.64881
-1.1398,-0.221975,2.377,2.64548
-1.13209,-0.221975,2.377,2.64216
-1.12437,-0.221975,2.377,2.63887
-1.11666,-0.221975,2.377,2.63559
-1.10894,-0.221975,2.377,2.63233
-1.09381,-0.220481,2.361,2.61139
-1.08615,-0.220481,2.361,2.60819
-1.07849,-0.220481,2.361,2.60501
-1.07082,-0.220481,2.361,2.60185
-1.06316,-0.220481,2.361,2.5987
-1.0555,-0.220481,2.361,2.59558
-1.04784,-0.220481,2.361,2.59247
-1.03312,-0.218986,2.345,2.57183
-1.02551,-0.218986,2.345,2.56878
-1.0179,-0.218986,2.345,2.56576
-1.01029,-0.218986,2.345,2.56275
-1.00268,-0.218986,2.345,2.55975
-0.995066,-0.218986,2.345,2.55678
-0.987455,-0.218986,2.345,2.55383
-0.979844,-0.218986,2.345,2.5509
-0.978866,-0.220481,2.361,2.56537
-0.971203,-0.220481,2.361,2.56245
-0.96354,-0.220481,2.361,2.55956
-0.955876,-0.220481,2.361,2.55668
-0.948213,-0.220481,2.361,2.55383
-0.934176,-0.218986,2.345,2.53371
-0.926565,-0.218986,2.345,2.53091
-0.918953,-0.218986,2.345,2.52813
-0.911342,-0.218986,2.345,2.52538
-0.903731,-0.218986,2.345,2.52264
-0.89612,-0.218986,2.345,2.51992
-0.882446,-0.217492,2.329,2.50005
-0.874887,-0.217492,2.329,2.49739
-0.867327,-0.217492,2.329,2.49475
-0.859768,-0.217492,2.329,2.49214
-0.846354,-0.215998,2.313,2.47244
-0.838847,-0.215998,2.313,2.46988
-0.831339,-0.215998,2.313,2.46734
-0.823832,-0.215998,2.313,2.46482
-0.816324,-0.215998,2.313,2.46232
-0.808817,-0.215998,2.313,2.45984
-0.801309,-0.215998,2.313,2.45738
-0.793802,-0.215998,2.313,2.45494
-0.786295,-0.215998,2.313,2.45253
-0.778787,-0.215998,2.313,2.45013
-0.77128,-0.215998,2.313,2.44775
-0.763772,-0.215998,2.313,2.4454
-0.756265,-0.215998,2.313,2.44306
-0.748757,-0.215998,2.313,2.44075
-0.746378,-0.217492,2.329,2.45533
-0.738818,-0.217492,2.329,2.45304
-0.731259,-0.217492,2.329,2.45077
-0.728671,-0.218986,2.345,2.46535
-0.72106,-0.218986,2.345,2.46311
-0.713449,-0.218986,2.345,2.46089
-0.710653,-0.220481,2.361,2.47547
-0.70299,-0.220481,2.361,2.47328
-0.695327,-0.220481,2.361,2.47112
-0.687664,-0.220481,2.361,2.46897
-0.684609,-0.221975,2.377,2.48356
-0.676894,-0.221975,2.377,2.48145
-0.669178,-0.221975,2.377,2.47936
-0.661463,-0.221975,2.377,2.47728
-0.658424,-0.223562,2.394,2.49294
-0.650653,-0.223562,2.394,2.4909
-0.642883,-0.223562,2.394,2.48888
-0.635113,-0.223562,2.394,2.48688
-0.631797,-0.22515,2.411,2.50255
-0.623972,-0.22515,2.411,2.50059
-0.616146,-0.22515,2.411,2.49865
-0.608321,-0.22515,2.411,2.49673
-0.600495,-0.22515,2.411,2.49484
-0.59267,-0.22515,2.411,2.49296
-0.588968,-0.226737,2.428,2.50868
-0.581087,-0.226737,2.428,2.50684
-0.573206,-0.226737,2.428,2.50503
-0.565326,-0.226737,2.428,2.50324
-0.557445,-0.226737,2.428,2.50147
-0.549564,-0.226737,2.428,2.49972
-0.545476,-0.228325,2.445,2.51549
-0.53754,-0.228325,2.445,2.51378
-0.529605,-0.228325,2.445,2.5121
-0.521669,-0.228325,2.445,2.51044
-0.513733,-0.228325,2.445,2.5088
-0.505797,-0.228325,2.445,2.50719
-0.497861,-0.228325,2.445,2.5056
-0.493532,-0.230006,2.463,2.52247
-0.485538,-0.230006,2.463,2.52092
-0.477544,-0.230006,2.463,2.51939
-0.469549,-0.230006,2.463,2.51789
-0.461555,-0.230006,2.463,2.51641
-0.453561,-0.230006,2.463,2.51495
-0.445566,-0.230006,2.463,2.51352
-0.44077,-0.231687,2.481,2.53048
-0.432717,-0.231687,2.481,2.52909
-0.424665,-0.231687,2.481,2.52772
-0.416612,-0.231687,2.481,2.52638
-0.411523,-0.233368,2.499,2.54339
-0.403412,-0.233368,2.499,2.54209
-0.395301,-0.233368,2.499,2.54081
-0.38719,-0.233368,2.499,2.53956
-0.379079,-0.233368,2.499,2.53834
-0.370968,-0.233368,2.499,2.53714
-0.362857,-0.233368,2.499,2.53597
-0.354745,-0.233368,2.499,2.53482
-0.349131,-0.235049,2.517,2.55195
-0.340961,-0.235049,2.517,2.55084
-0.330412,-0.233368,2.499,2.53153
-0.322301,-0.233368,2.499,2.53048
-0.31419,-0.233368,2.499,2.52946
-0.306079,-0.233368,2.499,2.52847
-0.297967,-0.233368,2.499,2.5275
-0.289856,-0.233368,2.499,2.52655
-0.281745,-0.233368,2.499,2.52564
-0.273634,-0.233368,2.499,2.52474
-0.265523,-0.233368,2.499,2.52388
-0.257412,-0.233368,2.499,2.52304
-0.249301,-0.233368,2.499,2.52222
-0.24119,-0.233368,2.499,2.52144
-0.234757,-0.235049,2.517,2.53883
-0.226588,-0.235049,2.517,2.53809
-0.218418,-0.235049,2.517,2.53737
-0.210249,-0.235049,2.517,2.53668
-0.202079,-0.235049,2.517,2.53602
-0.193909,-0.235049,2.517,2.53538
-0.187142,-0.236823,2.536,2.5539
-0.178911,-0.236823,2.536,2.55331
-0.170679,-0.236823,2.536,2.55275
-0.163665,-0.238597,2.555,2.57133
-0.155372,-0.238597,2.555,2.57082
-0.14708,-0.238597,2.555,2.57033
-0.138787,-0.238597,2.555,2.56987
-0.130494,-0.238597,2.555,2.56943
-0.122201,-0.238597,2.555,2.56902
-0.113908,-0.238597,2.555,2.56864
-0.105615,-0.238597,2.555,2.56829
-0.0973222,-0.238597,2.555,2.56796
-0.0890293,-0.238597,2.555,2.56766
-0.0813368,-0.240371,2.574,2.58648
-0.0729822,-0.240371,2.574,2.58623
-0.0646277,-0.240371,2.574,2.58601
-0.0558577,-0.238597,2.555,2.56672
-0.0475648,-0.238597,2.555,2.56656
-0.0392719,-0.238597,2.555,2.56642
-0.030979,-0.238597,2.555,2.5663
-0.0226861,-0.238597,2.555,2.56622
-0.0145003,-0.240371,2.574,2.58524
-0.00610034,-0.238597,2.555,2.56612
0.00219255,-0.238597,2.555,2.56612
0.0104854,-0.238597,2.555,2.56614
0.0187783,-0.238597,2.555,2.56619
0.0270712,-0.238597,2.555,2.56626
0.0353641,-0.238597,2.555,2.56636
0.0433324,-0.236823,2.536,2.5474
0.0515636,-0.236823,2.536,2.54756
0.0593468,-0.235049,2.517,2.52865
0.0675164,-0.235049,2.517,2.52885
0.075686,-0.235049,2.517,2.52908
0.0838555,-0.235049,2.517,2.52934
0.0920251,-0.235049,2.517,2.52963
0.0994781,-0.233368,2.499,2.51184
0.107589,-0.233368,2.499,2.51218
0.1157,-0.233368,2.499,2.51254
0.123811,-0.233368,2.499,2.51292
0.131923,-0.233368,2.499,2.51334
0.140034,-0.233368,2.499,2.51378
0.148145,-0.233368,2.499,2.51424
0.156256,-0.233368,2.499,2.51473
0.164367,-0.233368,2.499,2.51525
0.172478,-0.233368,2.499,2.51579
0.179289,-0.231687,2.481,2.49824
0.187341,-0.231687,2.481,2.49883
0.195394,-0.231687,2.481,2.49944
0.203447,-0.231687,2.481,2.50009
0.2115,-0.231687,2.481,2.50075
0.219552,-0.231687,2.481,2.50145
0.227605,-0.231687,2.481,2.50217
0.235658,-0.231687,2.481,2.50291
0.24371,-0.231687,2.481,2.50368
0.251763,-0.231687,2.481,2.50448
0.259816,-0.231687,2.481,2.5053
0.267868,-0.231687,2.481,2.50615
0.275921,-0.231687,2.481,2.50702
0.283974,-0.231687,2.481,2.50792
0.292027,-0.231687,2.481,2.50885
0.300079,-0.231687,2.481,2.5098
0.308132,-0.231687,2.481,2.51077
0.316185,-0.231687,2.481,2.51178
0.324237,-0.231687,2.481,2.5128
0.33229,-0.231687,2.481,2.51385
0.340343,-0.231687,2.481,2.51493
0.345868,-0.230006,2.463,2.49778
0.353862,-0.230006,2.463,2.4989
0.361856,-0.230006,2.463,2.50004
0.369851,-0.230006,2.463,2.50121
0.377845,-0.230006,2.463,2.50241
0.385839,-0.230006,2.463,2.50363
0.393834,-0.230006,2.463,2.50487
0.401828,-0.230006,2.463,2.50614
0.409822,-0.230006,2.463,2.50743
0.417816,-0.230006,2.463,2.50875
0.425811,-0.230006,2.463,2.5101
0.433805,-0.230006,2.463,2.51147
0.441799,-0.230006,2.463,2.51286
0.449794,-0.230006,2.463,2.51428
0.457788,-0.230006,2.463,2.51572
0.465782,-0.230006,2.463,2.51719
0.473776,-0.230006,2.463,2.51868
0.481771,-0.230006,2.463,2.52019
0.489765,-0.230006,2.463,2.52173
0.497759,-0.230006,2.463,2.5233
0.505754,-0.230006,2.463,2.52489
0.513748,-0.230006,2.463,2.5265
0.525555,-0.231687,2.481,2.54662
0.533608,-0.231687,2.481,2.54829
0.541661,-0.231687,2.481,2.54999
0.549713,-0.231687,2.481,2.55171
0.557766,-0.231687,2.481,2.55346
0.565819,-0.231687,2.481,2.55523
0.573871,-0.231687,2.481,2.55702
0.581924,-0.231687,2.481,2.55884
0.589977,-0.231687,2.481,2.56069
0.59803,-0.231687,2.481,2.56255
0.606082,-0.231687,2.481,2.56444
0.614135,-0.231687,2.481,2.56636
0.622188,-0.231687,2.481,2.5683
0.63024,-0.231687,2.481,2.57026
0.638293,-0.231687,2.481,2.57225
0.646346,-0.231687,2.481,2.57426
0.654399,-0.231687,2.481,2.57629
0.662451,-0.231687,2.481,2.57835
0.670504,-0.231687,2.481,2.58043
0.678557,-0.231687,2.481,2.58253
0.681628,-0.230006,2.463,2.56591
0.689622,-0.230006,2.463,2.56804
0.697617,-0.230006,2.463,2.5702
0.705611,-0.230006,2.463,2.57238
0.713605,-0.230006,2.463,2.57459
0.721599,-0.230006,2.463,2.57682
0.729594,-0.230006,2.463,2.57907
0.737588,-0.230006,2.463,2.58134
0.745582,-0.230006,2.463,2.58363
0.753577,-0.230006,2.463,2.58595
0.761571,-0.230006,2.463,2.58829
0.769565,-0.230006,2.463,2.59066
0.777559,-0.230006,2.463,2.59304
0.785554,-0.230006,2.463,2.59545
0.793548,-0.230006,2.463,2.59788
0.801542,-0.230006,2.463,2.60033
0.815453,-0.231687,2.481,2.62183
0.823505,-0.231687,2.481,2.62435
0.825525,-0.230006,2.463,2.60783
0.833519,-0.230006,2.463,2.61037
0.847664,-0.231687,2.481,2.63203
0.855716,-0.231687,2.481,2.63463
0.863769,-0.231687,2.481,2.63726
0.865497,-0.230006,2.463,2.62075
0.873491,-0.230006,2.463,2.62341
0.881485,-0.230006,2.463,2.62608
0.889479,-0.230006,2.463,2.62877
0.897474,-0.230006,2.463,2.63149
0.905468,-0.230006,2.463,2.63423
0.906787,-0.228325,2.445,2.61771
0.914722,-0.228325,2.445,2.62047
0.922658,-0.228325,2.445,2.62325
0.930594,-0.228325,2.445,2.62605
0.93853,-0.228325,2.445,2.62888
0.946466,-0.228325,2.445,2.63172
0.947766,-0.226737,2.428,2.61627
0.955646,-0.226737,2.428,2.61913
0.970273,-0.228325,2.445,2.64038
0.971408,-0.226737,2.428,2.62492
0.979289,-0.226737,2.428,2.62785
0.987169,-0.226737,2.428,2.6308
0.99505,-0.226737,2.428,2.63377
nan,nan,nan,NaN
nan,nan,nan,NaN
nan,nan,nan,NaN
nan,nan,nan,NaN
nan,nan,nan,NaN
nan,nan,nan,NaN
nan,nan,nan,NaN
nan,nan,nan,NaN
nan,nan,nan,NaN
nan,nan,nan,NaN
nan,nan,nan,NaN
nan,nan,nan,NaN
nan,nan,nan,NaN
nan,nan,nan,NaN
nan,nan,nan,NaN
1.71819,-0.347483,3.721,4.11324
1.73027,-0.347483,3.721,4.1183
1.74234,-0.347483,3.721,4.12339
1.75442,-0.347483,3.721,4.12851
1.78596,-0.351312,3.762,4.1792
1.79817,-0.351312,3.762,4.18443
1.81038,-0.351312,3.762,4.1897
1.8226,-0.351312,3.762,4.19499
1.83481,-0.351312,3.762,4.20031
1.86764,-0.355234,3.804,4.25261
1.87998,-0.355234,3.804,4.25805
1.91322,-0.359156,3.846,4.31058
1.92571,-0.359156,3.846,4.31614
1.93819,-0.359156,3.846,4.32172
nan,nan,nan,NaN
nan,nan,nan,NaN
nan,nan,nan,NaN
nan,nan,nan,NaN
nan,nan,nan,NaN
nan,nan,nan,NaN
nan,nan,nan,NaN
nan,nan,nan,NaN
2.09799,-0.367468,3.935,4.47446
2.11076,-0.367468,3.935,4.48047
2.12353,-0.367468,3.935,4.4865
2.13631,-0.367468,3.935,4.49256
2.14908,-0.367468,3.935,4.49864
2.16185,-0.367468,3.935,4.50476
2.17462,-0.367468,3.935,4.5109
2.18739,-0.367468,3.935,4.51707
2.20017,-0.367468,3.935,4.52327
2.18763,-0.363265,3.89,4.4777
2.17537,-0.359156,3.846,4.43316
2.16396,-0.355234,3.804,4.39082
2.17631,-0.355234,3.804,4.39692
2.16449,-0.351312,3.762,4.35443
2.15298,-0.347483,3.721,4.31299
2.16506,-0.347483,3.721,4.31903
2.17713,-0.347483,3.721,4.3251
2.14273,-0.340106,3.642,4.23924
2.15455,-0.340106,3.642,4.24522
2.12117,-0.333009,3.566,4.16252
2.08908,-0.326192,3.493,4.0831
2.10042,-0.326192,3.493,4.08891
2.06944,-0.319655,3.423,4.01269
2.00092,-0.307422,3.292,3.86464
2.01161,-0.307422,3.292,3.87019
1.96516,-0.298737,3.199,3.76626
1.97555,-0.298737,3.199,3.77169
nan,nan,nan,NaN
nan,nan,nan,NaN
1.86744,-0.278005,2.977,3.52521
1.8771,-0.278005,2.977,3.53034
1.8386,-0.270908,2.901,3.44523
1.84801,-0.270908,2.901,3.45027
1.85743,-0.270908,2.901,3.45532
1.83595,-0.266426,2.853,3.40313
1.82969,-0.264185,2.829,3.37947
1.82392,-0.262037,2.806,3.35693
1.83303,-0.262037,2.806,3.36189
1.82704,-0.259889,2.783,3.33927
1.82156,-0.257834,2.761,3.31778
1.83052,-0.257834,2.761,3.32271
1.81017,-0.253725,2.717,3.27463
1.80493,-0.251764,2.696,3.25416
1.81368,-0.251764,2.696,3.25902
1.79404,-0.247842,2.654,3.21305
1.80265,-0.247842,2.654,3.21787
-1.96257,-0.255005,2.829,3.45253
-1.95339,-0.255005,2.829,3.44732
-1.94421,-0.255005,2.829,3.44212
-1.93502,-0.255005,2.829,3.43694
-1.92584,-0.255005,2.829,3.43178
-1.91666,-0.255005,2.829,3.42664
-1.90748,-0.255005,2.829,3.42151
-1.9144,-0.257168,2.853,3.44538
-1.92116,-0.259332,2.877,3.46919
-1.91183,-0.259332,2.877,3.46402
-1.91836,-0.261495,2.901,3.48773
-1.92539,-0.263748,2.926,3.51257
-1.9159,-0.263748,2.926,3.50738
-1.92269,-0.266002,2.951,3.53212
-1.92997,-0.268346,2.977,3.55799
-1.95449,-0.273123,3.03,3.61601
-1.94466,-0.273123,3.03,3.6107
-1.93482,-0.273123,3.03,3.60542
-1.94214,-0.275557,3.057,3.63223
-1.93222,-0.275557,3.057,3.62693
-1.9223,-0.275557,3.057,3.62166
-1.91237,-0.275557,3.057,3.6164
-1.90245,-0.275557,3.057,3.61116
-1.87581,-0.273123,3.03,3.5741
-1.84935,-0.270689,3.003,3.53714
-1.8396,-0.270689,3.003,3.53206
-1.82986,-0.270689,3.003,3.52699
-1.82011,-0.270689,3.003,3.52194
-1.81036,-0.270689,3.003,3.51692
-1.80062,-0.270689,3.003,3.51191
-1.79087,-0.270689,3.003,3.50692
nan,nan,nan,NaN
nan,nan,nan,NaN
nan,nan,nan,NaN
nan,nan,nan,NaN
nan,nan,nan,NaN
nan,nan,nan,NaN
nan,nan,nan,NaN
nan,nan,nan,NaN
nan,nan,nan,NaN
nan,nan,nan,NaN
nan,nan,nan,NaN
nan,nan,nan,NaN
nan,nan,nan,NaN
nan,nan,nan,NaN
nan,nan,nan,NaN
nan,nan,nan,NaN
nan,nan,nan,NaN
nan,nan,nan,NaN
nan,nan,nan,NaN
nan,nan,nan,NaN
nan,nan,nan,NaN
nan,nan,nan,NaN
nan,nan,nan,NaN
nan,nan,nan,NaN
nan,nan,nan,NaN
nan,nan,nan,NaN
nan,nan,nan,NaN
nan,nan,nan,NaN
nan,nan,nan,NaN
nan,nan,nan,NaN
nan,nan,nan,NaN
nan,nan,nan,NaN
nan,nan,nan,NaN
-1.1635,-0.215794,2.394,2.67049
-1.15572,-0.215794,2.394,2.66712
-1.1398,-0.214262,2.377,2.64484
-1.13209,-0.214262,2.377,2.64153
-1.12437,-0.214262,2.377,2.63823
-1.11666,-0.214262,2.377,2.63495
-1.10894,-0.214262,2.377,2.63169
-1.10123,-0.214262,2.377,2.62845
-1.08615,-0.21282,2.361,2.60755
-1.07849,-0.21282,2.361,2.60437
-1.07082,-0.21282,2.361,2.60121
-1.06316,-0.21282,2.361,2.59806
-1.0555,-0.21282,2.361,2.59494
-1.04784,-0.21282,2.361,2.59183
-1.04017,-0.21282,2.361,2.58874
-1.03251,-0.21282,2.361,2.58567
-1.02485,-0.21282,2.361,2.58262
-1.01718,-0.21282,2.361,2.57959
-1.00952,-0.21282,2.361,2.57658
-1.00186,-0.21282,2.361,2.57358
-0.994193,-0.21282,2.361,2.57061
-0.986529,-0.21282,2.361,2.56766
-0.978866,-0.21282,2.361,2.56472
-0.971203,-0.21282,2.361,2.56181
-0.96354,-0.21282,2.361,2.55891
-0.955876,-0.21282,2.361,2.55603
-0.948213,-0.21282,2.361,2.55318
-0.94055,-0.21282,2.361,2.55034
-0.926565,-0.211377,2.345,2.53026
-0.918953,-0.211377,2.345,2.52749
-0.911342,-0.211377,2.345,2.52473
-0.903731,-0.211377,2.345,2.52199
-0.89612,-0.211377,2.345,2.51927
-0.882446,-0.209935,2.329,2.4994
-0.874887,-0.209935,2.329,2.49675
-0.867327,-0.209935,2.329,2.49411
-0.859768,-0.209935,2.329,2.49149
-0.846354,-0.208493,2.313,2.47179
-0.838847,-0.208493,2.313,2.46923
-0.831339,-0.208493,2.313,2.46669
-0.823832,-0.208493,2.313,2.46417
-0.816324,-0.208493,2.313,2.46167
-0.808817,-0.208493,2.313,2.45919
-0.801309,-0.208493,2.313,2.45673
-0.793802,-0.208493,2.313,2.45429
-0.786295,-0.208493,2.313,2.45188
-0.778787,-0.208493,2.313,2.44948
-0.77128,-0.208493,2.313,2.4471
-0.763772,-0.208493,2.313,2.44475
-0.756265,-0.208493,2.313,2.44241
-0.748757,-0.208493,2.313,2.4401
-0.746378,-0.209935,2.329,2.45467
-0.738818,-0.209935,2.329,2.45238
-0.731259,-0.209935,2.329,2.45011
-0.728671,-0.211377,2.345,2.46468
-0.72106,-0.211377,2.345,2.46244
-0.718317,-0.21282,2.361,2.47701
-0.710653,-0.21282,2.361,2.4748
-0.70299,-0.21282,2.361,2.47261
-0.695327,-0.21282,2.361,2.47044
-0.687664,-0.21282,2.361,2.4683
-0.684609,-0.214262,2.377,2.48289
-0.676894,-0.214262,2.377,2.48077
-0.669178,-0.214262,2.377,2.47868
-0.661463,-0.214262,2.377,2.4766
-0.658424,-0.215794,2.394,2.49225
-0.650653,-0.215794,2.394,2.49021
-0.642883,-0.215794,2.394,2.48819
-0.639623,-0.217327,2.411,2.50385
-0.631797,-0.217327,2.411,2.50186
-0.623972,-0.217327,2.411,2.4999
-0.616146,-0.217327,2.411,2.49796
-0.608321,-0.217327,2.411,2.49604
-0.600495,-0.217327,2.411,2.49414
-0.59267,-0.217327,2.411,2.49227
-0.588968,-0.218859,2.428,2.50798
-0.581087,-0.218859,2.428,2.50614
-0.573206,-0.218859,2.428,2.50433
-0.565326,-0.218859,2.428,2.50253
-0.557445,-0.218859,2.428,2.50077
-0.549564,-0.218859,2.428,2.49902
-0.545476,-0.220391,2.445,2.51478
-0.53754,-0.220391,2.445,2.51308
-0.529605,-0.220391,2.445,2.51139
-0.521669,-0.220391,2.445,2.50973
-0.513733,-0.220391,2.445,2.50809
-0.505797,-0.220391,2.445,2.50648
-0.497861,-0.220391,2.445,2.50489
-0.493532,-0.222014,2.463,2.52175
-0.485538,-0.222014,2.463,2.5202
-0.477544,-0.222014,2.463,2.51867
-0.469549,-0.222014,2.463,2.51717
-0.461555,-0.222014,2.463,2.51569
-0.453561,-0.222014,2.463,2.51423
-0.445566,-0.222014,2.463,2.5128
-0.44077,-0.223636,2.481,2.52975
-0.432717,-0.223636,2.481,2.52836
-0.424665,-0.223636,2.481,2.527
-0.416612,-0.223636,2.481,2.52566
-0.411523,-0.225259,2.499,2.54265
-0.403412,-0.225259,2.499,2.54135
-0.395301,-0.225259,2.499,2.54008
-0.38719,-0.225259,2.499,2.53883
-0.379079,-0.225259,2.499,2.53761
-0.37364,-0.226881,2.517,2.55468
-0.36547,-0.226881,2.517,2.55349
-0.357301,-0.226881,2.517,2.55234
-0.349131,-0.226881,2.517,2.55121
-0.340961,-0.226881,2.517,2.5501
-0.332792,-0.226881,2.517,2.54902
-0.324622,-0.226881,2.517,2.54797
-0.316453,-0.226881,2.517,2.54694
-0.308283,-0.226881,2.517,2.54594
-0.297967,-0.225259,2.499,2.52676
-0.289856,-0.225259,2.499,2.52582
-0.281745,-0.225259,2.499,2.5249
-0.273634,-0.225259,2.499,2.52401
-0.265523,-0.225259,2.499,2.52314
-0.257412,-0.225259,2.499,2.5223
-0.249301,-0.225259,2.499,2.52149
-0.24119,-0.225259,2.499,2.5207
-0.234757,-0.226881,2.517,2.53808
-0.226588,-0.226881,2.517,2.53734
-0.218418,-0.226881,2.517,2.53663
-0.210249,-0.226881,2.517,2.53594
-0.202079,-0.226881,2.517,2.53527
-0.193909,-0.226881,2.517,2.53463
-0.187142,-0.228594,2.536,2.55315
-0.178911,-0.228594,2.536,2.55256
-0.170679,-0.228594,2.536,2.552
-0.163665,-0.230307,2.555,2.57057
-0.155372,-0.230307,2.555,2.57006
-0.14708,-0.230307,2.555,2.56957
-0.138787,-0.230307,2.555,2.56911
-0.130494,-0.230307,2.555,2.56868
-0.122201,-0.230307,2.555,2.56827
-0.113908,-0.230307,2.555,2.56789
-0.105615,-0.230307,2.555,2.56753
-0.0973222,-0.230307,2.555,2.5672
-0.0890293,-0.230307,2.555,2.5669
-0.0813368,-0.232019,2.574,2.58572
-0.0729822,-0.232019,2.574,2.58547
-0.0641506,-0.230307,2.555,2.56616
-0.0558577,-0.230307,2.555,2.56597
-0.0475648,-0.230307,2.555,2.5658
-0.0392719,-0.230307,2.555,2.56566
-0.030979,-0.230307,2.555,2.56555
-0.0226861,-0.230307,2.555,2.56546
-0.0143932,-0.230307,2.555,2.5654
-0.00610034,-0.230307,2.555,2.56537
0.00219255,-0.230307,2.555,2.56536
0.0104854,-0.230307,2.555,2.56538
0.0187783,-0.230307,2.555,2.56543
0.0268699,-0.228594,2.536,2.54642
0.0351011,-0.228594,2.536,2.54652
0.0433324,-0.228594,2.536,2.54665
0.0515636,-0.228594,2.536,2.5468
0.0593468,-0.226881,2.517,2.5279
0.0675164,-0.226881,2.517,2.52811
0.075686,-0.226881,2.517,2.52834
0.0832558,-0.225259,2.499,2.51051
0.091367,-0.225259,2.499,2.51079
0.0994781,-0.225259,2.499,2.5111
0.107589,-0.225259,2.499,2.51144
0.1157,-0.225259,2.499,2.5118
0.12292,-0.223636,2.481,2.49409
0.130972,-0.223636,2.481,2.4945
0.140034,-0.225259,2.499,2.51304
0.148145,-0.225259,2.499,2.5135
0.155131,-0.223636,2.481,2.49588
0.163183,-0.223636,2.481,2.4964
0.171236,-0.223636,2.481,2.49694
0.179289,-0.223636,2.481,2.4975
0.188701,-0.225259,2.499,2.51622
0.196812,-0.225259,2.499,2.51684
0.204923,-0.225259,2.499,2.51749
0.213034,-0.225259,2.499,2.51816
0.221145,-0.225259,2.499,2.51886
0.229256,-0.225259,2.499,2.51958
0.237367,-0.225259,2.499,2.52033
0.245479,-0.225259,2.499,2.52111
0.25359,-0.225259,2.499,2.52191
0.261701,-0.225259,2.499,2.52274
0.269812,-0.225259,2.499,2.5236
0.277923,-0.225259,2.499,2.52448
0.283974,-0.223636,2.481,2.50719
0.292027,-0.223636,2.481,2.50812
0.300079,-0.223636,2.481,2.50907
0.308132,-0.223636,2.481,2.51004
0.316185,-0.223636,2.481,2.51105
0.324237,-0.223636,2.481,2.51207
0.33229,-0.223636,2.481,2.51312
0.340343,-0.223636,2.481,2.5142
0.345868,-0.222014,2.463,2.49706
0.353862,-0.222014,2.463,2.49817
0.361856,-0.222014,2.463,2.49932
0.369851,-0.222014,2.463,2.50049
0.377845,-0.222014,2.463,2.50168
0.385839,-0.222014,2.463,2.5029
0.393834,-0.222014,2.463,2.50415
0.401828,-0.222014,2.463,2.50542
0.409822,-0.222014,2.463,2.50671
0.414763,-0.220391,2.445,2.4897
0.422699,-0.220391,2.445,2.49104
0.430635,-0.220391,2.445,2.4924
0.441799,-0.222014,2.463,2.51214
0.449794,-0.222014,2.463,2.51356
0.457788,-0.222014,2.463,2.515
0.465782,-0.222014,2.463,2.51647
0.473776,-0.222014,2.463,2.51796
0.481771,-0.222014,2.463,2.51948
0.489765,-0.222014,2.463,2.52102
0.497759,-0.222014,2.463,2.52258
0.505754,-0.222014,2.463,2.52417
0.513748,-0.222014,2.463,2.52579
0.521742,-0.222014,2.463,2.52742
0.533608,-0.223636,2.481,2.54757
0.541661,-0.223636,2.481,2.54927
0.549713,-0.223636,2.481,2.55099
0.557766,-0.223636,2.481,2.55274
0.565819,-0.223636,2.481,2.55451
0.573871,-0.223636,2.481,2.55631
0.581924,-0.223636,2.481,2.55813
0.589977,-0.223636,2.481,2.55997
0.59803,-0.223636,2.481,2.56184
0.606082,-0.223636,2.481,2.56373
0.614135,-0.223636,2.481,2.56565
0.622188,-0.223636,2.481,2.56758
0.63024,-0.223636,2.481,2.56955
0.638293,-0.223636,2.481,2.57154
0.646346,-0.223636,2.481,2.57355
0.654399,-0.223636,2.481,2.57558
0.662451,-0.223636,2.481,2.57764
0.670504,-0.223636,2.481,2.57972
0.678557,-0.223636,2.481,2.58182
0.686609,-0.223636,2.481,2.58395
0.694662,-0.223636,2.481,2.5861
0.697617,-0.222014,2.463,2.5695
0.705611,-0.222014,2.463,2.57168
0.713605,-0.222014,2.463,2.57389
0.721599,-0.222014,2.463,2.57611
0.729594,-0.222014,2.463,2.57836
0.737588,-0.222014,2.463,2.58064
0.745582,-0.222014,2.463,2.58293
0.753577,-0.222014,2.463,2.58525
0.761571,-0.222014,2.463,2.5876
0.769565,-0.222014,2.463,2.58996
0.777559,-0.222014,2.463,2.59235
0.785554,-0.222014,2.463,2.59475
0.799347,-0.223636,2.481,2.61617
0.8074,-0.223636,2.481,2.61864
0.815453,-0.223636,2.481,2.62113
0.823505,-0.223636,2.481,2.62365
0.831558,-0.223636,2.481,2.62619
0.839611,-0.223636,2.481,2.62875
0.847664,-0.223636,2.481,2.63133
0.855716,-0.223636,2.481,2.63394
0.863769,-0.223636,2.481,2.63656
0.871822,-0.223636,2.481,2.63921
0.879874,-0.223636,2.481,2.64188
0.881485,-0.222014,2.463,2.62539
0.889479,-0.222014,2.463,2.62809
0.897474,-0.222014,2.463,2.6308
0.905468,-0.222014,2.463,2.63354
0.906787,-0.220391,2.445,2.61703
0.914722,-0.220391,2.445,2.61979
0.922658,-0.220391,2.445,2.62257
0.930594,-0.220391,2.445,2.62538
0.93853,-0.220391,2.445,2.6282
0.946466,-0.220391,2.445,2.63104
0.947766,-0.218859,2.428,2.6156
0.955646,-0.218859,2.428,2.61846
0.970273,-0.220391,2.445,2.6397
0.971408,-0.218859,2.428,2.62426
0.979289,-0.218859,2.428,2.62718
0.987169,-0.218859,2.428,2.63013
0.99505,-0.218859,2.428,2.6331
nan,nan,nan,NaN
nan,nan,nan,NaN
nan,nan,nan,NaN
nan,nan,nan,NaN
nan,nan,nan,NaN
nan,nan,nan,NaN
nan,nan,nan,NaN
nan,nan,nan,NaN
nan,nan,nan,NaN
nan,nan,nan,NaN
nan,nan,nan,NaN
nan,nan,nan,NaN
nan,nan,nan,NaN
nan,nan,nan,NaN
nan,nan,nan,NaN
1.71819,-0.335409,3.721,4.11224
1.73027,-0.335409,3.721,4.1173
1.74234,-0.335409,3.721,4.12239
1.75442,-0.335409,3.721,4.12751
1.78596,-0.339105,3.762,4.17819
1.79817,-0.339105,3.762,4.18343
1.81038,-0.339105,3.762,4.18869
1.8226,-0.339105,3.762,4.19398
1.83481,-0.339105,3.762,4.1993
1.86764,-0.342891,3.804,4.2516
1.87998,-0.342891,3.804,4.25703
1.91322,-0.346677,3.846,4.30956
1.92571,-0.346677,3.846,4.31512
1.93819,-0.346677,3.846,4.3207
nan,nan,nan,NaN
nan,nan,nan,NaN
nan,nan,nan,NaN
nan,nan,nan,NaN
nan,nan,nan,NaN
nan,nan,nan,NaN
nan,nan,nan,NaN
nan,nan,nan,NaN
2.09799,-0.354699,3.935,4.47343
2.11076,-0.354699,3.935,4.47944
2.12353,-0.354699,3.935,4.48547
2.13631,-0.354699,3.935,4.49153
2.14908,-0.354699,3.935,4.49762
2.16185,-0.354699,3.935,4.50374
2.17462,-0.354699,3.935,4.50988
2.18739,-0.354699,3.935,4.51605
2.20017,-0.354699,3.935,4.52225
2.18763,-0.350643,3.89,4.47669
2.17537,-0.346677,3.846,4.43217
2.16396,-0.342891,3.804,4.38984
2.17631,-0.342891,3.804,4.39594
2.16449,-0.339105,3.762,4.35346
2.15298,-0.335409,3.721,4.31204
2.16506,-0.335409,3.721,4.31808
2.15373,-0.331804,3.681,4.27766
2.14273,-0.328288,3.642,4.23831
2.15455,-0.328288,3.642,4.24429
2.09916,-0.318103,3.529,4.11843
2.06815,-0.311703,3.458,4.04131
2.07937,-0.311703,3.458,4.04706
2.02893,-0.302508,3.356,3.93329
1.96324,-0.291151,3.23,3.79104
1.97372,-0.291151,3.23,3.79648
1.96516,-0.288357,3.199,3.76545
1.97555,-0.288357,3.199,3.77088
nan,nan,nan,NaN
1.89085,-0.273123,3.03,3.58201
1.85113,-0.266002,2.951,3.49368
1.86071,-0.266002,2.951,3.49877
1.8386,-0.261495,2.901,3.4445
1.83272,-0.259332,2.877,3.421
1.84206,-0.259332,2.877,3.42601
1.83595,-0.257168,2.853,3.40242
1.81482,-0.252932,2.806,3.35129
1.82392,-0.252932,2.806,3.35623
1.83303,-0.252932,2.806,3.36119
1.8126,-0.248875,2.761,3.31218
1.80704,-0.246892,2.739,3.29067
1.81593,-0.246892,2.739,3.29556
1.81017,-0.244909,2.717,3.27395
1.80493,-0.243016,2.696,3.2535
1.81368,-0.243016,2.696,3.25836
1.79404,-0.23923,2.654,3.2124
1.78839,-0.237338,2.633,3.19176
-1.94661,-0.243827,2.806,3.4238
-1.93751,-0.243827,2.806,3.41863
-1.91259,-0.241828,2.783,3.3855
-1.90356,-0.241828,2.783,3.3804
-1.89453,-0.241828,2.783,3.37532
-1.88549,-0.241828,2.783,3.37026
-1.87646,-0.241828,2.783,3.36522
-1.88286,-0.243827,2.806,3.38796
-1.88911,-0.245825,2.829,3.41063
-1.87993,-0.245825,2.829,3.40556
-1.88662,-0.247911,2.853,3.42934
-1.89315,-0.249996,2.877,3.45306
-1.88381,-0.249996,2.877,3.44795
-1.89011,-0.252082,2.901,3.47158
-1.91311,-0.256426,2.951,3.52621
-1.9203,-0.258686,2.977,3.55204
-1.91064,-0.258686,2.977,3.54683
-1.91758,-0.260945,3.003,3.57256
-1.90783,-0.260945,3.003,3.56734
-1.89809,-0.260945,3.003,3.56214
-1.90532,-0.263291,3.03,3.58894
-1.89548,-0.263291,3.03,3.58372
-1.88565,-0.263291,3.03,3.57853
-1.8591,-0.260945,3.003,3.54152
-1.84935,-0.260945,3.003,3.53641
-1.8396,-0.260945,3.003,3.53132
-1.81401,-0.258686,2.977,3.49573
-1.80435,-0.258686,2.977,3.49072
-1.79469,-0.258686,2.977,3.48574
-1.78503,-0.258686,2.977,3.48077
-1.77536,-0.258686,2.977,3.47583
nan,nan,nan,NaN
nan,nan,nan,NaN
nan,nan,nan,NaN
nan,nan,nan,NaN
nan,nan,nan,NaN
nan,nan,nan,NaN
nan,nan,nan,NaN
nan,nan,nan,NaN
nan,nan,nan,NaN
nan,nan,nan,NaN
nan,nan,nan,NaN
nan,nan,nan,NaN
nan,nan,nan,NaN
nan,nan,nan,NaN
nan,nan,nan,NaN
nan,nan,nan,NaN
nan,nan,nan,NaN
nan,nan,nan,NaN
nan,nan,nan,NaN
nan,nan,nan,NaN
nan,nan,nan,NaN
nan,nan,nan,NaN
nan,nan,nan,NaN
nan,nan,nan,NaN
nan,nan,nan,NaN
nan,nan,nan,NaN
nan,nan,nan,NaN
nan,nan,nan,NaN
nan,nan,nan,NaN
nan,nan,nan,NaN
nan,nan,nan,NaN
nan,nan,nan,NaN
nan,nan,nan,NaN
-1.1635,-0.208026,2.394,2.66987
-1.15572,-0.208026,2.394,2.6665
-1.14795,-0.208026,2.394,2.66314
-1.14018,-0.208026,2.394,2.6598
-1.12437,-0.206549,2.377,2.63761
-1.11666,-0.206549,2.377,2.63433
-1.10894,-0.206549,2.377,2.63107
-1.10123,-0.206549,2.377,2.62783
-1.09351,-0.206549,2.377,2.62461
-1.0858,-0.206549,2.377,2.6214
-1.07082,-0.205158,2.361,2.60059
-1.06316,-0.205158,2.361,2.59745
-1.0555,-0.205158,2.361,2.59432
-1.04784,-0.205158,2.361,2.59121
-1.04017,-0.205158,2.361,2.58812
-1.03251,-0.205158,2.361,2.58505
-1.02485,-0.205158,2.361,2.582
-1.01718,-0.205158,2.361,2.57897
-1.00952,-0.205158,2.361,2.57595
-1.00186,-0.205158,2.361,2.57296
-0.994193,-0.205158,2.361,2.56999
-0.986529,-0.205158,2.361,2.56703
-0.978866,-0.205158,2.361,2.5641
-0.971203,-0.205158,2.361,2.56118
-0.96354,-0.205158,2.361,2.55828
-0.955876,-0.205158,2.361,2.55541
-0.948213,-0.205158,2.361,2.55255
-0.94055,-0.205158,2.361,2.54971
-0.932887,-0.205158,2.361,2.5469
-0.925224,-0.205158,2.361,2.5441
-0.91756,-0.205158,2.361,2.54132
-0.903731,-0.203768,2.345,2.52136
-0.89612,-0.203768,2.345,2.51865
-0.882446,-0.202378,2.329,2.49878
-0.874887,-0.202378,2.329,2.49612
-0.867327,-0.202378,2.329,2.49348
-0.859768,-0.202378,2.329,2.49086
-0.852209,-0.202378,2.329,2.48826
-0.844649,-0.202378,2.329,2.48569
-0.83709,-0.202378,2.329,2.48313
-0.823832,-0.200988,2.313,2.46355
-0.816324,-0.200988,2.313,2.46105
-0.808817,-0.200988,2.313,2.45857
-0.801309,-0.200988,2.313,2.45611
-0.793802,-0.200988,2.313,2.45367
-0.786295,-0.200988,2.313,2.45125
-0.778787,-0.200988,2.313,2.44885
-0.77128,-0.200988,2.313,2.44647
-0.763772,-0.200988,2.313,2.44412
-0.756265,-0.200988,2.313,2.44178
-0.748757,-0.200988,2.313,2.43947
-0.746378,-0.202378,2.329,2.45403
-0.743894,-0.203768,2.345,2.46859
-0.736283,-0.203768,2.345,2.4663
-0.728671,-0.203768,2.345,2.46404
-0.72106,-0.203768,2.345,2.4618
-0.718317,-0.205158,2.361,2.47637
-0.710653,-0.205158,2.361,2.47415
-0.70299,-0.205158,2.361,2.47196
-0.695327,-0.205158,2.361,2.4698
-0.687664,-0.205158,2.361,2.46765
-0.684609,-0.206549,2.377,2.48223
-0.676894,-0.206549,2.377,2.48012
-0.669178,-0.206549,2.377,2.47802
-0.661463,-0.206549,2.377,2.47595
-0.658424,-0.208026,2.394,2.49159
-0.650653,-0.208026,2.394,2.48955
-0.642883,-0.208026,2.394,2.48753
-0.639623,-0.209503,2.411,2.50318
-0.631797,-0.209503,2.411,2.5012
-0.623972,-0.209503,2.411,2.49923
-0.616146,-0.209503,2.411,2.49729
-0.608321,-0.209503,2.411,2.49537
-0.600495,-0.209503,2.411,2.49347
-0.59267,-0.209503,2.411,2.4916
-0.588968,-0.21098,2.428,2.50731
-0.581087,-0.21098,2.428,2.50547
-0.573206,-0.21098,2.428,2.50365
-0.565326,-0.21098,2.428,2.50186
-0.557445,-0.21098,2.428,2.50009
-0.549564,-0.21098,2.428,2.49834
-0.545476,-0.212458,2.445,2.5141
-0.53754,-0.212458,2.445,2.51239
-0.529605,-0.212458,2.445,2.51071
-0.521669,-0.212458,2.445,2.50904
-0.513733,-0.212458,2.445,2.50741
-0.505797,-0.212458,2.445,2.50579
-0.497861,-0.212458,2.445,2.5042
-0.493532,-0.214022,2.463,2.52106
-0.485538,-0.214022,2.463,2.51951
-0.477544,-0.214022,2.463,2.51798
-0.469549,-0.214022,2.463,2.51648
-0.461555,-0.214022,2.463,2.515
-0.453561,-0.214022,2.463,2.51354
-0.445566,-0.214022,2.463,2.51211
-0.44077,-0.215586,2.481,2.52905
-0.432717,-0.215586,2.481,2.52766
-0.424665,-0.215586,2.481,2.5263
-0.416612,-0.215586,2.481,2.52496
-0.411523,-0.21715,2.499,2.54195
-0.403412,-0.21715,2.499,2.54065
-0.395301,-0.21715,2.499,2.53937
-0.38719,-0.21715,2.499,2.53812
-0.379079,-0.21715,2.499,2.5369
-0.37364,-0.218714,2.517,2.55396
-0.36547,-0.218714,2.517,2.55278
-0.357301,-0.218714,2.517,2.55162
-0.349131,-0.218714,2.517,2.55049
-0.340961,-0.218714,2.517,2.54939
-0.332792,-0.218714,2.517,2.54831
-0.324622,-0.218714,2.517,2.54725
-0.316453,-0.218714,2.517,2.54623
-0.308283,-0.218714,2.517,2.54522
-0.300114,-0.218714,2.517,2.54425
-0.291944,-0.218714,2.517,2.5433
-0.283775,-0.218714,2.517,2.54237
-0.273634,-0.21715,2.499,2.5233
-0.265523,-0.21715,2.499,2.52243
-0.257412,-0.21715,2.499,2.52159
-0.249301,-0.21715,2.499,2.52077
-0.242927,-0.218714,2.517,2.53814
-0.234757,-0.218714,2.517,2.53737
-0.226588,-0.218714,2.517,2.53663
-0.218418,-0.218714,2.517,2.53591
-0.211836,-0.220365,2.536,2.55436
-0.203604,-0.220365,2.536,2.55369
-0.195373,-0.220365,2.536,2.55304
-0.187142,-0.220365,2.536,2.55243
-0.180251,-0.222016,2.555,2.57095
-0.171958,-0.222016,2.555,2.57039
-0.163665,-0.222016,2.555,2.56984
-0.155372,-0.222016,2.555,2.56933
-0.14708,-0.222016,2.555,2.56884
-0.138787,-0.222016,2.555,2.56838
-0.131464,-0.223667,2.574,2.58704
-0.12311,-0.223667,2.574,2.58663
-0.114755,-0.223667,2.574,2.58625
-0.1064,-0.223667,2.574,2.58589
-0.0980459,-0.223667,2.574,2.58556
-0.0896914,-0.223667,2.574,2.58526
-0.0813368,-0.223667,2.574,2.58498
-0.0729822,-0.223667,2.574,2.58473
-0.0641506,-0.222016,2.555,2.56543
-0.0558577,-0.222016,2.555,2.56524
-0.0475648,-0.222016,2.555,2.56507
-0.0392719,-0.222016,2.555,2.56493
-0.030979,-0.222016,2.555,2.56482
-0.0226861,-0.222016,2.555,2.56473
-0.0143932,-0.222016,2.555,2.56467
-0.00610034,-0.222016,2.555,2.56464
0.00219255,-0.222016,2.555,2.56463
0.0104854,-0.222016,2.555,2.56465
0.0187783,-0.222016,2.555,2.5647
0.0268699,-0.220365,2.536,2.5457
0.0351011,-0.220365,2.536,2.5458
0.0433324,-0.220365,2.536,2.54593
0.0515636,-0.220365,2.536,2.54608
0.0593468,-0.218714,2.517,2.52718
0.0675164,-0.218714,2.517,2.52739
0.075686,-0.218714,2.517,2.52762
0.0832558,-0.21715,2.499,2.5098
0.091367,-0.21715,2.499,2.51008
0.0994781,-0.21715,2.499,2.51039
0.106814,-0.215586,2.481,2.49264
0.114867,-0.215586,2.481,2.493
0.12292,-0.215586,2.481,2.49338
0.130972,-0.215586,2.481,2.49379
0.139025,-0.215586,2.481,2.49423
0.147078,-0.215586,2.481,2.49469
0.155131,-0.215586,2.481,2.49518
0.163183,-0.215586,2.481,2.49569
0.171236,-0.215586,2.481,2.49623
0.179289,-0.215586,2.481,2.49679
0.188701,-0.21715,2.499,2.5155
0.196812,-0.21715,2.499,2.51613
0.204923,-0.21715,2.499,2.51677
0.213034,-0.21715,2.499,2.51745
0.221145,-0.21715,2.499,2.51815
0.229256,-0.21715,2.499,2.51887
0.237367,-0.21715,2.499,2.51962
0.245479,-0.21715,2.499,2.5204
0.25359,-0.21715,2.499,2.5212
0.261701,-0.21715,2.499,2.52203
0.269812,-0.21715,2.499,2.52289
0.277923,-0.21715,2.499,2.52377
0.283974,-0.215586,2.481,2.50649
0.292027,-0.215586,2.481,2.50741
0.300079,-0.215586,2.481,2.50836
0.308132,-0.215586,2.481,2.50934
0.316185,-0.215586,2.481,2.51034
0.324237,-0.215586,2.481,2.51137
0.33229,-0.215586,2.481,2.51242
0.340343,-0.215586,2.481,2.5135
0.345868,-0.214022,2.463,2.49636
0.353862,-0.214022,2.463,2.49748
0.361856,-0.214022,2.463,2.49862
0.369851,-0.214022,2.463,2.49979
0.377845,-0.214022,2.463,2.50099
0.385839,-0.214022,2.463,2.50221
0.393834,-0.214022,2.463,2.50345
0.401828,-0.214022,2.463,2.50472
0.409822,-0.214022,2.463,2.50602
0.414763,-0.212458,2.445,2.48901
0.422699,-0.212458,2.445,2.49035
0.430635,-0.212458,2.445,2.49171
0.441799,-0.214022,2.463,2.51145
0.449794,-0.214022,2.463,2.51286
0.457788,-0.214022,2.463,2.51431
0.465782,-0.214022,2.463,2.51578
0.473776,-0.214022,2.463,2.51727
0.481771,-0.214022,2.463,2.51878
0.489765,-0.214022,2.463,2.52033
0.497759,-0.214022,2.463,2.52189
0.505754,-0.214022,2.463,2.52348
0.513748,-0.214022,2.463,2.5251
0.521742,-0.214022,2.463,2.52673
0.533608,-0.215586,2.481,2.54688
0.541661,-0.215586,2.481,2.54858
0.549713,-0.215586,2.481,2.5503
0.557766,-0.215586,2.481,2.55205
0.565819,-0.215586,2.481,2.55382
0.573871,-0.215586,2.481,2.55561
0.581924,-0.215586,2.481,2.55744
0.589977,-0.215586,2.481,2.55928
0.59803,-0.215586,2.481,2.56115
0.606082,-0.215586,2.481,2.56304
0.614135,-0.215586,2.481,2.56496
0.622188,-0.215586,2.481,2.5669
0.63024,-0.215586,2.481,2.56886
0.638293,-0.215586,2.481,2.57085
0.646346,-0.215586,2.481,2.57286
0.654399,-0.215586,2.481,2.57489
0.662451,-0.215586,2.481,2.57695
0.670504,-0.215586,2.481,2.57903
0.678557,-0.215586,2.481,2.58114
0.686609,-0.215586,2.481,2.58327
0.694662,-0.215586,2.481,2.58542
0.697617,-0.214022,2.463,2.56882
0.705611,-0.214022,2.463,2.571
0.71882,-0.215586,2.481,2.59202
0.726873,-0.215586,2.481,2.59426
0.734926,-0.215586,2.481,2.59653
0.737588,-0.214022,2.463,2.57996
0.745582,-0.214022,2.463,2.58226
0.753577,-0.214022,2.463,2.58458
0.767137,-0.215586,2.481,2.60583
0.775189,-0.215586,2.481,2.60821
0.783242,-0.215586,2.481,2.61061
0.791295,-0.215586,2.481,2.61304
0.799347,-0.215586,2.481,2.61549
0.8074,-0.215586,2.481,2.61796
0.815453,-0.215586,2.481,2.62046
0.823505,-0.215586,2.481,2.62298
0.831558,-0.215586,2.481,2.62551
0.839611,-0.215586,2.481,2.62808
0.847664,-0.215586,2.481,2.63066
0.855716,-0.215586,2.481,2.63327
0.863769,-0.215586,2.481,2.63589
0.871822,-0.215586,2.481,2.63854
