nan,nan,nan,NaN
nan,nan,nan,NaN
nan,nan,nan,NaN
nan,nan,nan,NaN
nan,nan,nan,NaN
nan,nan,nan,NaN
nan,nan,nan,NaN
nan,nan,nan,NaN
nan,nan,nan,NaN
nan,nan,nan,NaN
nan,nan,nan,NaN
nan,nan,nan,NaN
nan,nan,nan,NaN
nan,nan,nan,NaN
nan,nan,nan,NaN
nan,nan,nan,NaN
1.74234,-0.287113,3.721,4.11874
1.73556,-0.284027,3.681,4.07954
1.74751,-0.284027,3.681,4.08463
1.74082,-0.281018,3.642,4.04643
1.75264,-0.281018,3.642,4.05153
1.76446,-0.281018,3.642,4.05665
1.77628,-0.281018,3.642,4.06181
1.76944,-0.278085,3.604,4.02456
1.78114,-0.278085,3.604,4.02972
nan,nan,nan,NaN
nan,nan,nan,NaN
nan,nan,nan,NaN
nan,nan,nan,NaN
nan,nan,nan,NaN
nan,nan,nan,NaN
nan,nan,nan,NaN
nan,nan,nan,NaN
nan,nan,nan,NaN
nan,nan,nan,NaN
nan,nan,nan,NaN
2.02815,-0.293518,3.804,4.32087
1.99597,-0.287113,3.721,4.23228
2.00805,-0.287113,3.721,4.23799
2.02013,-0.287113,3.721,4.24372
2.01036,-0.284027,3.681,4.2038
2.02231,-0.284027,3.681,4.20953
2.03425,-0.284027,3.681,4.21528
2.02452,-0.281018,3.642,4.17634
2.03634,-0.281018,3.642,4.18208
2.02679,-0.278085,3.604,4.14416
2.017,-0.275153,3.566,4.10613
2.02857,-0.275153,3.566,4.11183
2.01898,-0.272298,3.529,4.07483
2.00972,-0.269521,3.493,4.03889
1.98055,-0.264119,3.423,3.96349
1.99166,-0.264119,3.423,3.96906
1.98288,-0.261496,3.389,3.93516
1.97447,-0.25895,3.356,3.90235
1.98536,-0.25895,3.356,3.90787
1.97722,-0.256481,3.324,3.8761
1.96887,-0.254011,3.292,3.84425
1.97955,-0.254011,3.292,3.84973
1.95275,-0.249228,3.23,3.78263
1.92677,-0.244598,3.17,3.71768
1.93706,-0.244598,3.17,3.72303
1.94735,-0.244598,3.17,3.72839
1.88785,-0.235879,3.057,3.60068
1.89778,-0.235879,3.057,3.60589
1.874,-0.231712,3.003,3.54733
1.85113,-0.2277,2.951,3.49098
1.86071,-0.2277,2.951,3.49607
1.8386,-0.223842,2.901,3.44185
1.83272,-0.22199,2.877,3.41837
1.84206,-0.22199,2.877,3.42339
1.83595,-0.220138,2.853,3.39982
1.81482,-0.216512,2.806,3.34874
1.80897,-0.214737,2.783,3.3262
1.81801,-0.214737,2.783,3.33112
1.79815,-0.211342,2.739,3.28331
1.79253,-0.209644,2.717,3.26178
1.80135,-0.209644,2.717,3.26663
1.78218,-0.206404,2.675,3.22093
1.77681,-0.204783,2.654,3.20042
1.78542,-0.204783,2.654,3.20521
1.77984,-0.203163,2.633,3.18462
1.7748,-0.20162,2.613,3.16518
-2.08328,-0.221968,3.003,3.6616
-2.05558,-0.220046,2.977,3.62441
-2.04592,-0.220046,2.977,3.61894
-2.01847,-0.218124,2.951,3.58193
-1.99187,-0.216276,2.926,3.54624
-1.98238,-0.216276,2.926,3.54091
-1.95602,-0.214429,2.901,3.5054
-1.94661,-0.214429,2.901,3.50015
-1.93719,-0.214429,2.901,3.49492
-1.92778,-0.214429,2.901,3.48971
-1.91836,-0.214429,2.901,3.48452
-1.90894,-0.214429,2.901,3.47935
-1.89953,-0.214429,2.901,3.47419
-1.89011,-0.214429,2.901,3.46905
-1.8807,-0.214429,2.901,3.46393
-1.88741,-0.216276,2.926,3.48863
-1.87791,-0.216276,2.926,3.4835
-1.88438,-0.218124,2.951,3.50811
-1.94214,-0.225959,3.057,3.6288
-1.93222,-0.225959,3.057,3.6235
-1.93927,-0.227955,3.084,3.65018
-1.94678,-0.230025,3.112,3.67796
-1.95473,-0.232168,3.141,3.70685
-1.94453,-0.232168,3.141,3.70148
-1.9522,-0.234312,3.17,3.73026
-1.95967,-0.236455,3.199,3.75897
-1.94929,-0.236455,3.199,3.75356
-1.93891,-0.236455,3.199,3.74818
-1.92852,-0.236455,3.199,3.74282
-1.91814,-0.236455,3.199,3.73748
-1.90776,-0.236455,3.199,3.73216
nan,nan,nan,NaN
nan,nan,nan,NaN
nan,nan,nan,NaN
nan,nan,nan,NaN
nan,nan,nan,NaN
nan,nan,nan,NaN
nan,nan,nan,NaN
nan,nan,nan,NaN
nan,nan,nan,NaN
nan,nan,nan,NaN
nan,nan,nan,NaN
nan,nan,nan,NaN
nan,nan,nan,NaN
nan,nan,nan,NaN
nan,nan,nan,NaN
nan,nan,nan,NaN
nan,nan,nan,NaN
nan,nan,nan,NaN
nan,nan,nan,NaN
nan,nan,nan,NaN
nan,nan,nan,NaN
nan,nan,nan,NaN
nan,nan,nan,NaN
nan,nan,nan,NaN
nan,nan,nan,NaN
nan,nan,nan,NaN
nan,nan,nan,NaN
nan,nan,nan,NaN
nan,nan,nan,NaN
nan,nan,nan,NaN
nan,nan,nan,NaN
nan,nan,nan,NaN
-1.19622,-0.180723,2.445,2.72793
-1.18828,-0.180723,2.445,2.72446
-1.18035,-0.180723,2.445,2.72101
-1.17241,-0.180723,2.445,2.71758
-1.16447,-0.180723,2.445,2.71416
-1.15654,-0.180723,2.445,2.71077
-1.1486,-0.180723,2.445,2.70739
-1.14067,-0.180723,2.445,2.70404
-1.12485,-0.179467,2.428,2.68192
-1.11697,-0.179467,2.428,2.67862
-1.10909,-0.179467,2.428,2.67535
-1.10121,-0.179467,2.428,2.67209
-1.09333,-0.179467,2.428,2.66885
-1.08545,-0.179467,2.428,2.66563
-1.07757,-0.179467,2.428,2.66243
-1.06969,-0.179467,2.428,2.65925
-1.05437,-0.17821,2.411,2.6375
-1.04655,-0.17821,2.411,2.63438
-1.03872,-0.17821,2.411,2.63128
-1.0309,-0.17821,2.411,2.6282
-1.02307,-0.17821,2.411,2.62514
-1.01525,-0.17821,2.411,2.6221
-1.00742,-0.17821,2.411,2.61908
-0.992548,-0.176953,2.394,2.59763
-0.984778,-0.176953,2.394,2.59467
-0.977007,-0.176953,2.394,2.59174
-0.969237,-0.176953,2.394,2.58882
-0.961466,-0.176953,2.394,2.58592
-0.953696,-0.176953,2.394,2.58304
-0.939209,-0.175697,2.377,2.56186
-0.931494,-0.175697,2.377,2.55904
-0.923778,-0.175697,2.377,2.55624
-0.909897,-0.174514,2.361,2.53627
-0.902234,-0.174514,2.361,2.53354
-0.894571,-0.174514,2.361,2.53082
-0.880897,-0.173332,2.345,2.51099
-0.873286,-0.173332,2.345,2.50833
-0.865674,-0.173332,2.345,2.50569
-0.858063,-0.173332,2.345,2.50307
-0.844649,-0.172149,2.329,2.48341
-0.83709,-0.172149,2.329,2.48085
-0.829531,-0.172149,2.329,2.47831
-0.821971,-0.172149,2.329,2.47579
-0.814412,-0.172149,2.329,2.47329
-0.806852,-0.172149,2.329,2.47081
-0.799293,-0.172149,2.329,2.46835
-0.791734,-0.172149,2.329,2.46591
-0.789562,-0.173332,2.345,2.48042
-0.78195,-0.173332,2.345,2.47801
-0.774339,-0.173332,2.345,2.47562
-0.766728,-0.173332,2.345,2.47324
-0.759116,-0.173332,2.345,2.4709
-0.756633,-0.174514,2.361,2.48541
-0.748969,-0.174514,2.361,2.48309
-0.741306,-0.174514,2.361,2.48079
-0.738615,-0.175697,2.377,2.49531
-0.7309,-0.175697,2.377,2.49303
-0.723184,-0.175697,2.377,2.49078
-0.715469,-0.175697,2.377,2.48855
-0.712816,-0.176953,2.394,2.50413
-0.705046,-0.176953,2.394,2.50193
-0.697275,-0.176953,2.394,2.49975
-0.689505,-0.176953,2.394,2.49759
-0.681735,-0.176953,2.394,2.49546
-0.673964,-0.176953,2.394,2.49335
-0.666194,-0.176953,2.394,2.49126
-0.658424,-0.176953,2.394,2.48919
-0.650653,-0.176953,2.394,2.48715
-0.642883,-0.176953,2.394,2.48513
-0.635113,-0.176953,2.394,2.48313
-0.627342,-0.176953,2.394,2.48115
-0.619572,-0.176953,2.394,2.4792
-0.616146,-0.17821,2.411,2.49486
-0.608321,-0.17821,2.411,2.49294
-0.600495,-0.17821,2.411,2.49104
-0.59267,-0.17821,2.411,2.48916
-0.584844,-0.17821,2.411,2.48731
-0.581087,-0.179467,2.428,2.50301
-0.573206,-0.179467,2.428,2.50119
-0.565326,-0.179467,2.428,2.4994
-0.557445,-0.179467,2.428,2.49763
-0.549564,-0.179467,2.428,2.49588
-0.545476,-0.180723,2.445,2.51162
-0.53754,-0.180723,2.445,2.50991
-0.529605,-0.180723,2.445,2.50822
-0.525509,-0.182054,2.463,2.52501
-0.517515,-0.182054,2.463,2.52336
-0.509521,-0.182054,2.463,2.52173
-0.501526,-0.182054,2.463,2.52013
-0.497139,-0.183384,2.481,2.53695
-0.489086,-0.183384,2.481,2.53539
-0.481034,-0.183384,2.481,2.53385
-0.476412,-0.184715,2.499,2.5507
-0.468301,-0.184715,2.499,2.5492
-0.46019,-0.184715,2.499,2.54772
-0.455335,-0.186045,2.517,2.56461
-0.447166,-0.186045,2.517,2.56317
-0.438996,-0.186045,2.517,2.56176
-0.430827,-0.186045,2.517,2.56037
-0.425848,-0.187449,2.536,2.57833
-0.417616,-0.187449,2.536,2.57698
-0.409385,-0.187449,2.536,2.57566
-0.401154,-0.187449,2.536,2.57437
-0.395866,-0.188854,2.555,2.59237
-0.387574,-0.188854,2.555,2.59112
-0.379281,-0.188854,2.555,2.58989
-0.370988,-0.188854,2.555,2.58869
-0.362695,-0.188854,2.555,2.58752
-0.354402,-0.188854,2.555,2.58637
-0.346109,-0.188854,2.555,2.58524
-0.337816,-0.188854,2.555,2.58415
-0.329523,-0.188854,2.555,2.58308
-0.32123,-0.188854,2.555,2.58203
-0.315265,-0.190258,2.574,2.60021
-0.30691,-0.190258,2.574,2.59921
-0.298555,-0.190258,2.574,2.59823
-0.290201,-0.190258,2.574,2.59729
-0.281846,-0.190258,2.574,2.59637
-0.273492,-0.190258,2.574,2.59547
-0.265137,-0.190258,2.574,2.5946
-0.254887,-0.188854,2.555,2.57462
-0.246594,-0.188854,2.555,2.57381
-0.238301,-0.188854,2.555,2.57303
-0.231719,-0.190258,2.574,2.5914
-0.223364,-0.190258,2.574,2.59067
-0.21501,-0.190258,2.574,2.58996
-0.206655,-0.190258,2.574,2.58928
-0.198301,-0.190258,2.574,2.58863
-0.188544,-0.188854,2.555,2.5689
-0.180251,-0.188854,2.555,2.5683
-0.171958,-0.188854,2.555,2.56773
-0.163665,-0.188854,2.555,2.56719
-0.155372,-0.188854,2.555,2.56668
-0.148173,-0.190258,2.574,2.58527
-0.139819,-0.190258,2.574,2.58481
-0.131464,-0.190258,2.574,2.58437
-0.12311,-0.190258,2.574,2.58396
-0.114755,-0.190258,2.574,2.58357
-0.1064,-0.190258,2.574,2.58321
-0.0980459,-0.190258,2.574,2.58288
-0.0890293,-0.188854,2.555,2.56352
-0.0807364,-0.188854,2.555,2.56324
-0.0724435,-0.188854,2.555,2.56299
-0.0641506,-0.188854,2.555,2.56277
-0.0558577,-0.188854,2.555,2.56258
-0.0472111,-0.187449,2.536,2.54336
-0.0389799,-0.187449,2.536,2.54322
-0.0305183,-0.186045,2.517,2.52405
-0.0223487,-0.186045,2.517,2.52397
-0.0141792,-0.186045,2.517,2.52391
-0.00600962,-0.186045,2.517,2.52387
0.00214449,-0.184715,2.499,2.50582
0.0102556,-0.184715,2.499,2.50584
0.0182345,-0.183384,2.481,2.48784
0.0262872,-0.183384,2.481,2.48791
0.0343399,-0.183384,2.481,2.48801
0.042085,-0.182054,2.463,2.47008
0.0500793,-0.182054,2.463,2.47023
0.0576492,-0.180723,2.445,2.45235
0.0655851,-0.180723,2.445,2.45255
0.0735209,-0.180723,2.445,2.45277
0.0814568,-0.180723,2.445,2.45302
0.0893926,-0.180723,2.445,2.4533
0.0973285,-0.180723,2.445,2.4536
0.105264,-0.180723,2.445,2.45393
0.1132,-0.180723,2.445,2.45428
0.121136,-0.180723,2.445,2.45466
0.130022,-0.182054,2.463,2.47314
0.138016,-0.182054,2.463,2.47357
0.146011,-0.182054,2.463,2.47403
0.154005,-0.182054,2.463,2.47452
0.163183,-0.183384,2.481,2.49311
0.171236,-0.183384,2.481,2.49365
0.179289,-0.183384,2.481,2.49422
0.188701,-0.184715,2.499,2.51291
0.196812,-0.184715,2.499,2.51353
0.204923,-0.184715,2.499,2.51418
0.213034,-0.184715,2.499,2.51486
0.221145,-0.184715,2.499,2.51556
0.229256,-0.184715,2.499,2.51628
0.239077,-0.186045,2.517,2.53516
0.247247,-0.186045,2.517,2.53595
0.255416,-0.186045,2.517,2.53676
0.263586,-0.186045,2.517,2.53759
0.271755,-0.186045,2.517,2.53846
0.279925,-0.186045,2.517,2.53934
0.288094,-0.186045,2.517,2.54026
0.296264,-0.186045,2.517,2.5412
0.304434,-0.186045,2.517,2.54216
0.312603,-0.186045,2.517,2.54315
0.323194,-0.187449,2.536,2.56337
0.331425,-0.187449,2.536,2.56442
0.339657,-0.187449,2.536,2.5655
0.347888,-0.187449,2.536,2.5666
0.356119,-0.187449,2.536,2.56773
0.36435,-0.187449,2.536,2.56889
0.372581,-0.187449,2.536,2.57007
0.380813,-0.187449,2.536,2.57127
0.389044,-0.187449,2.536,2.57251
0.397275,-0.187449,2.536,2.57376
0.405506,-0.187449,2.536,2.57505
0.413738,-0.187449,2.536,2.57636
0.421969,-0.187449,2.536,2.57769
0.426977,-0.186045,2.517,2.55973
0.432035,-0.184715,2.499,2.54279
0.440146,-0.184715,2.499,2.54418
0.448257,-0.184715,2.499,2.5456
0.456368,-0.184715,2.499,2.54704
0.464479,-0.184715,2.499,2.5485
0.47259,-0.184715,2.499,2.54999
0.477239,-0.183384,2.481,2.53313
0.485292,-0.183384,2.481,2.53466
0.493344,-0.183384,2.481,2.53621
0.501397,-0.183384,2.481,2.53779
0.50945,-0.183384,2.481,2.5394
0.517502,-0.183384,2.481,2.54102
0.525555,-0.183384,2.481,2.54268
0.533608,-0.183384,2.481,2.54435
0.541661,-0.183384,2.481,2.54605
0.549713,-0.183384,2.481,2.54778
0.557766,-0.183384,2.481,2.54953
0.565819,-0.183384,2.481,2.5513
0.573871,-0.183384,2.481,2.5531
0.586146,-0.184715,2.499,2.57346
0.594257,-0.184715,2.499,2.57532
0.602368,-0.184715,2.499,2.5772
0.610479,-0.184715,2.499,2.57911
0.618591,-0.184715,2.499,2.58104
0.626702,-0.184715,2.499,2.583
0.634813,-0.184715,2.499,2.58498
0.642924,-0.184715,2.499,2.58698
0.651035,-0.184715,2.499,2.58901
0.659146,-0.184715,2.499,2.59106
0.667257,-0.184715,2.499,2.59314
0.675369,-0.184715,2.499,2.59523
0.68348,-0.184715,2.499,2.59736
0.691591,-0.184715,2.499,2.5995
0.699702,-0.184715,2.499,2.60167
0.707813,-0.184715,2.499,2.60387
0.715924,-0.184715,2.499,2.60608
0.724035,-0.184715,2.499,2.60832
0.732147,-0.184715,2.499,2.61059
0.740258,-0.184715,2.499,2.61287
0.748369,-0.184715,2.499,2.61518
0.75648,-0.184715,2.499,2.61751
0.764591,-0.184715,2.499,2.61987
0.772702,-0.184715,2.499,2.62225
0.780813,-0.184715,2.499,2.62465
0.788924,-0.184715,2.499,2.62707
0.791295,-0.183384,2.481,2.61058
0.799347,-0.183384,2.481,2.61303
0.8074,-0.183384,2.481,2.61551
0.815453,-0.183384,2.481,2.61801
0.823505,-0.183384,2.481,2.62053
0.831558,-0.183384,2.481,2.62307
0.833519,-0.182054,2.463,2.60658
0.841514,-0.182054,2.463,2.60915
0.849508,-0.182054,2.463,2.61174
0.851236,-0.180723,2.445,2.59524
0.859171,-0.180723,2.445,2.59786
0.867107,-0.180723,2.445,2.60049
0.875043,-0.180723,2.445,2.60315
0.87684,-0.179467,2.428,2.58771
0.88472,-0.179467,2.428,2.59039
0.892601,-0.179467,2.428,2.59309
0.894177,-0.17821,2.411,2.57764
0.902002,-0.17821,2.411,2.58037
0.903413,-0.176953,2.394,2.5649
0.911183,-0.176953,2.394,2.56765
0.912428,-0.175697,2.377,2.55216
0.920143,-0.175697,2.377,2.55493
0.927858,-0.175697,2.377,2.55772
0.935573,-0.175697,2.377,2.56053
0.943288,-0.175697,2.377,2.56336
0.951003,-0.175697,2.377,2.5662
0.958719,-0.175697,2.377,2.56907
nan,nan,nan,NaN
nan,nan,nan,NaN
nan,nan,nan,NaN
nan,nan,nan,NaN
nan,nan,nan,NaN
nan,nan,nan,NaN
nan,nan,nan,NaN
nan,nan,nan,NaN
nan,nan,nan,NaN
nan,nan,nan,NaN
nan,nan,nan,NaN
nan,nan,nan,NaN
nan,nan,nan,NaN
nan,nan,nan,NaN
nan,nan,nan,NaN
nan,nan,nan,NaN
nan,nan,nan,NaN
nan,nan,nan,NaN
nan,nan,nan,NaN
1.74234,-0.275039,3.721,4.11792
1.73556,-0.272083,3.681,4.07872
1.74751,-0.272083,3.681,4.08382
1.72265,-0.266391,3.604,4.00341
1.73435,-0.266391,3.604,4.00846
1.74605,-0.266391,3.604,4.01354
1.75775,-0.266391,3.604,4.01864
1.75079,-0.263582,3.566,3.98134
1.76236,-0.263582,3.566,3.98645
nan,nan,nan,NaN
nan,nan,nan,NaN
nan,nan,nan,NaN
nan,nan,nan,NaN
nan,nan,nan,NaN
nan,nan,nan,NaN
nan,nan,nan,NaN
nan,nan,nan,NaN
nan,nan,nan,NaN
nan,nan,nan,NaN
nan,nan,nan,NaN
2.02815,-0.281174,3.804,4.32005
1.99597,-0.275039,3.721,4.23148
2.00805,-0.275039,3.721,4.23719
2.02013,-0.275039,3.721,4.24292
2.01036,-0.272083,3.681,4.20301
2.02231,-0.272083,3.681,4.20874
2.03425,-0.272083,3.681,4.2145
2.02452,-0.2692,3.642,4.17556
2.03634,-0.2692,3.642,4.18131
2.02679,-0.266391,3.604,4.14339
2.017,-0.263582,3.566,4.10538
2.02857,-0.263582,3.566,4.11107
2.01898,-0.260847,3.529,4.07408
2.00972,-0.258186,3.493,4.03815
1.98055,-0.253012,3.423,3.96277
1.99166,-0.253012,3.423,3.96833
1.98288,-0.250499,3.389,3.93445
1.97447,-0.24806,3.356,3.90164
1.98536,-0.24806,3.356,3.90716
1.97722,-0.245695,3.324,3.8754
1.96887,-0.243329,3.292,3.84355
1.97955,-0.243329,3.292,3.84904
1.95275,-0.238747,3.23,3.78195
1.92677,-0.234312,3.17,3.71702
1.93706,-0.234312,3.17,3.72236
1.91172,-0.230025,3.112,3.65952
1.88785,-0.225959,3.057,3.60004
1.89778,-0.225959,3.057,3.60525
1.874,-0.221968,3.003,3.54671
1.86744,-0.220046,2.977,3.52112
1.8771,-0.220046,2.977,3.52625
1.85444,-0.216276,2.926,3.47091
1.83272,-0.212655,2.877,3.41778
1.84206,-0.212655,2.877,3.4228
1.83595,-0.210881,2.853,3.39924
1.82969,-0.209107,2.829,3.37561
1.80897,-0.205707,2.783,3.32563
1.81801,-0.205707,2.783,3.33055
1.79815,-0.202454,2.739,3.28275
1.79253,-0.200828,2.717,3.26122
1.80135,-0.200828,2.717,3.26608
1.78218,-0.197724,2.675,3.22039
1.77681,-0.196171,2.654,3.19988
1.78542,-0.196171,2.654,3.20467
1.77984,-0.194619,2.633,3.18409
1.7748,-0.193141,2.613,3.16465
-2.08328,-0.212224,3.003,3.66102
-2.05558,-0.210386,2.977,3.62384
-2.04592,-0.210386,2.977,3.61837
-2.01847,-0.208549,2.951,3.58136
-1.99187,-0.206782,2.926,3.54567
-1.98238,-0.206782,2.926,3.54035
-1.95602,-0.205015,2.901,3.50483
-1.94661,-0.205015,2.901,3.49959
-1.93719,-0.205015,2.901,3.49436
-1.92778,-0.205015,2.901,3.48915
-1.91836,-0.205015,2.901,3.48395
-1.90894,-0.205015,2.901,3.47878
-1.89953,-0.205015,2.901,3.47362
-1.89011,-0.205015,2.901,3.46848
-1.8807,-0.205015,2.901,3.46336
-1.88741,-0.206782,2.926,3.48806
-1.87791,-0.206782,2.926,3.48293
-1.88438,-0.208549,2.951,3.50753
-1.90783,-0.212224,3.003,3.56411
-1.89809,-0.212224,3.003,3.5589
-1.90532,-0.214132,3.03,3.58566
-1.91237,-0.21604,3.057,3.61235
-1.91925,-0.217948,3.084,3.63897
-1.90924,-0.217948,3.084,3.6337
-1.89923,-0.217948,3.084,3.62845
-1.90638,-0.219927,3.112,3.65612
-1.89628,-0.219927,3.112,3.65086
-1.88618,-0.219927,3.112,3.64562
-1.87607,-0.219927,3.112,3.64041
-1.86597,-0.219927,3.112,3.63521
-1.83917,-0.217948,3.084,3.59738
-1.82916,-0.217948,3.084,3.59227
nan,nan,nan,NaN
nan,nan,nan,NaN
nan,nan,nan,NaN
nan,nan,nan,NaN
nan,nan,nan,NaN
nan,nan,nan,NaN
nan,nan,nan,NaN
nan,nan,nan,NaN
nan,nan,nan,NaN
nan,nan,nan,NaN
nan,nan,nan,NaN
nan,nan,nan,NaN
nan,nan,nan,NaN
nan,nan,nan,NaN
nan,nan,nan,NaN
nan,nan,nan,NaN
nan,nan,nan,NaN
nan,nan,nan,NaN
nan,nan,nan,NaN
nan,nan,nan,NaN
nan,nan,nan,NaN
nan,nan,nan,NaN
nan,nan,nan,NaN
nan,nan,nan,NaN
nan,nan,nan,NaN
nan,nan,nan,NaN
nan,nan,nan,NaN
nan,nan,nan,NaN
nan,nan,nan,NaN
nan,nan,nan,NaN
nan,nan,nan,NaN
-1.19622,-0.17279,2.445,2.72742
-1.18828,-0.17279,2.445,2.72395
-1.18035,-0.17279,2.445,2.7205
-1.17241,-0.17279,2.445,2.71706
-1.16447,-0.17279,2.445,2.71365
-1.15654,-0.17279,2.445,2.71025
-1.1486,-0.17279,2.445,2.70687
-1.14067,-0.17279,2.445,2.70352
-1.12485,-0.171588,2.428,2.6814
-1.11697,-0.171588,2.428,2.67811
-1.10909,-0.171588,2.428,2.67483
-1.10121,-0.171588,2.428,2.67157
-1.09333,-0.171588,2.428,2.66833
-1.08545,-0.171588,2.428,2.66511
-1.07757,-0.171588,2.428,2.66191
-1.06969,-0.171588,2.428,2.65873
-1.05437,-0.170387,2.411,2.63698
-1.04655,-0.170387,2.411,2.63386
-1.03872,-0.170387,2.411,2.63076
-1.0309,-0.170387,2.411,2.62768
-1.02307,-0.170387,2.411,2.62462
-1.01525,-0.170387,2.411,2.62158
-1.00742,-0.170387,2.411,2.61856
-0.992548,-0.169185,2.394,2.59712
-0.984778,-0.169185,2.394,2.59416
-0.977007,-0.169185,2.394,2.59122
-0.969237,-0.169185,2.394,2.5883
-0.961466,-0.169185,2.394,2.5854
-0.953696,-0.169185,2.394,2.58252
-0.939209,-0.167984,2.377,2.56134
-0.931494,-0.167984,2.377,2.55852
-0.923778,-0.167984,2.377,2.55572
-0.909897,-0.166853,2.361,2.53576
-0.902234,-0.166853,2.361,2.53302
-0.894571,-0.166853,2.361,2.5303
-0.880897,-0.165722,2.345,2.51047
-0.873286,-0.165722,2.345,2.50781
-0.865674,-0.165722,2.345,2.50517
-0.858063,-0.165722,2.345,2.50255
-0.850452,-0.165722,2.345,2.49995
-0.842841,-0.165722,2.345,2.49737
-0.835229,-0.165722,2.345,2.49481
-0.821971,-0.164592,2.329,2.47527
-0.814412,-0.164592,2.329,2.47277
-0.806852,-0.164592,2.329,2.47029
-0.799293,-0.164592,2.329,2.46783
-0.791734,-0.164592,2.329,2.4654
-0.789562,-0.165722,2.345,2.4799
-0.78195,-0.165722,2.345,2.47749
-0.774339,-0.165722,2.345,2.47509
-0.766728,-0.165722,2.345,2.47272
-0.759116,-0.165722,2.345,2.47037
-0.756633,-0.166853,2.361,2.48489
-0.748969,-0.166853,2.361,2.48256
-0.741306,-0.166853,2.361,2.48026
-0.738615,-0.167984,2.377,2.49477
-0.7309,-0.167984,2.377,2.4925
-0.723184,-0.167984,2.377,2.49025
-0.715469,-0.167984,2.377,2.48802
-0.712816,-0.169185,2.394,2.50359
-0.705046,-0.169185,2.394,2.50139
-0.697275,-0.169185,2.394,2.49921
-0.689505,-0.169185,2.394,2.49705
-0.681735,-0.169185,2.394,2.49492
-0.673964,-0.169185,2.394,2.49281
-0.666194,-0.169185,2.394,2.49072
-0.658424,-0.169185,2.394,2.48865
-0.650653,-0.169185,2.394,2.48661
-0.642883,-0.169185,2.394,2.48458
-0.635113,-0.169185,2.394,2.48258
-0.627342,-0.169185,2.394,2.48061
-0.619572,-0.169185,2.394,2.47865
-0.611802,-0.169185,2.394,2.47672
-0.608321,-0.170387,2.411,2.49239
-0.600495,-0.170387,2.411,2.49049
-0.59267,-0.170387,2.411,2.48862
-0.584844,-0.170387,2.411,2.48676
-0.581087,-0.171588,2.428,2.50246
-0.573206,-0.171588,2.428,2.50064
-0.565326,-0.171588,2.428,2.49884
-0.557445,-0.171588,2.428,2.49707
-0.549564,-0.171588,2.428,2.49533
-0.541684,-0.171588,2.428,2.4936
-0.53754,-0.17279,2.445,2.50935
-0.529605,-0.17279,2.445,2.50766
-0.525509,-0.174062,2.463,2.52445
-0.517515,-0.174062,2.463,2.52279
-0.509521,-0.174062,2.463,2.52117
-0.501526,-0.174062,2.463,2.51956
-0.497139,-0.175334,2.481,2.53639
-0.489086,-0.175334,2.481,2.53482
-0.481034,-0.175334,2.481,2.53328
-0.476412,-0.176606,2.499,2.55013
-0.468301,-0.176606,2.499,2.54863
-0.46019,-0.176606,2.499,2.54715
-0.455335,-0.177878,2.517,2.56403
-0.447166,-0.177878,2.517,2.56259
-0.438996,-0.177878,2.517,2.56118
-0.430827,-0.177878,2.517,2.55979
-0.425848,-0.179221,2.536,2.57774
-0.417616,-0.179221,2.536,2.5764
-0.409385,-0.179221,2.536,2.57508
-0.401154,-0.179221,2.536,2.57378
-0.395866,-0.180563,2.555,2.59178
-0.387574,-0.180563,2.555,2.59053
-0.379281,-0.180563,2.555,2.5893
-0.370988,-0.180563,2.555,2.5881
-0.362695,-0.180563,2.555,2.58692
-0.354402,-0.180563,2.555,2.58577
-0.346109,-0.180563,2.555,2.58465
-0.337816,-0.180563,2.555,2.58355
-0.329523,-0.180563,2.555,2.58248
-0.32123,-0.180563,2.555,2.58144
-0.315265,-0.181906,2.574,2.59961
-0.30691,-0.181906,2.574,2.59861
-0.298555,-0.181906,2.574,2.59763
-0.290201,-0.181906,2.574,2.59669
-0.281846,-0.181906,2.574,2.59577
-0.273492,-0.181906,2.574,2.59487
-0.265137,-0.181906,2.574,2.59401
-0.254887,-0.180563,2.555,2.57402
-0.246594,-0.180563,2.555,2.57322
-0.238301,-0.180563,2.555,2.57243
-0.231719,-0.181906,2.574,2.5908
-0.223364,-0.181906,2.574,2.59007
-0.21501,-0.181906,2.574,2.58936
-0.206655,-0.181906,2.574,2.58868
-0.198301,-0.181906,2.574,2.58803
-0.188544,-0.180563,2.555,2.5683
-0.180251,-0.180563,2.555,2.56771
-0.171958,-0.180563,2.555,2.56714
-0.163665,-0.180563,2.555,2.5666
-0.155372,-0.180563,2.555,2.56608
-0.148173,-0.181906,2.574,2.58467
-0.139819,-0.181906,2.574,2.58421
-0.131464,-0.181906,2.574,2.58377
-0.12311,-0.181906,2.574,2.58335
-0.114755,-0.181906,2.574,2.58297
-0.1064,-0.181906,2.574,2.58261
-0.0980459,-0.181906,2.574,2.58228
-0.0890293,-0.180563,2.555,2.56292
-0.0807364,-0.180563,2.555,2.56264
-0.0724435,-0.180563,2.555,2.5624
-0.0641506,-0.180563,2.555,2.56218
-0.0558577,-0.180563,2.555,2.56198
-0.0472111,-0.179221,2.536,2.54276
-0.0389799,-0.179221,2.536,2.54262
-0.0305183,-0.177878,2.517,2.52346
-0.0221889,-0.176606,2.499,2.50533
-0.0140778,-0.176606,2.499,2.50527
-0.00596664,-0.176606,2.499,2.50524
0.00212905,-0.175334,2.481,2.48719
0.0101818,-0.175334,2.481,2.48721
0.0182345,-0.175334,2.481,2.48725
0.0260965,-0.174062,2.463,2.46928
0.0340907,-0.174062,2.463,2.46938
0.042085,-0.174062,2.463,2.4695
0.0497133,-0.17279,2.445,2.4516
0.0576492,-0.17279,2.445,2.45178
0.0655851,-0.17279,2.445,2.45198
0.0735209,-0.17279,2.445,2.4522
0.0814568,-0.17279,2.445,2.45245
0.0893926,-0.17279,2.445,2.45273
0.0973285,-0.17279,2.445,2.45303
0.105264,-0.17279,2.445,2.45336
0.1132,-0.17279,2.445,2.45371
0.121136,-0.17279,2.445,2.45409
0.129072,-0.17279,2.445,2.45449
0.138016,-0.174062,2.463,2.473
0.146011,-0.174062,2.463,2.47346
0.154005,-0.174062,2.463,2.47394
0.161999,-0.174062,2.463,2.47445
0.171236,-0.175334,2.481,2.49308
0.179289,-0.175334,2.481,2.49364
0.188701,-0.176606,2.499,2.51233
0.196812,-0.176606,2.499,2.51295
0.204923,-0.176606,2.499,2.5136
0.213034,-0.176606,2.499,2.51427
0.221145,-0.176606,2.499,2.51497
0.229256,-0.176606,2.499,2.5157
0.237367,-0.176606,2.499,2.51645
0.247247,-0.177878,2.517,2.53536
0.255416,-0.177878,2.517,2.53617
0.263586,-0.177878,2.517,2.53701
0.271755,-0.177878,2.517,2.53787
0.279925,-0.177878,2.517,2.53876
0.288094,-0.177878,2.517,2.53967
0.296264,-0.177878,2.517,2.54061
0.304434,-0.177878,2.517,2.54158
0.312603,-0.177878,2.517,2.54257
0.320773,-0.177878,2.517,2.54359
0.331425,-0.179221,2.536,2.56384
0.339657,-0.179221,2.536,2.56491
0.347888,-0.179221,2.536,2.56602
0.353451,-0.177878,2.517,2.54791
0.36162,-0.177878,2.517,2.54906
0.36979,-0.177878,2.517,2.55023
0.380813,-0.179221,2.536,2.57069
0.389044,-0.179221,2.536,2.57192
0.394299,-0.177878,2.517,2.5539
0.402468,-0.177878,2.517,2.55517
0.410638,-0.177878,2.517,2.55647
0.418807,-0.177878,2.517,2.5578
0.423923,-0.176606,2.499,2.54085
0.432035,-0.176606,2.499,2.54221
0.440146,-0.176606,2.499,2.5436
0.448257,-0.176606,2.499,2.54502
0.456368,-0.176606,2.499,2.54646
0.464479,-0.176606,2.499,2.54793
0.47259,-0.176606,2.499,2.54942
0.477239,-0.175334,2.481,2.53256
0.485292,-0.175334,2.481,2.53409
0.493344,-0.175334,2.481,2.53564
0.501397,-0.175334,2.481,2.53722
0.50945,-0.175334,2.481,2.53883
0.517502,-0.175334,2.481,2.54046
0.525555,-0.175334,2.481,2.54211
0.533608,-0.175334,2.481,2.54378
0.541661,-0.175334,2.481,2.54549
0.549713,-0.175334,2.481,2.54721
0.557766,-0.175334,2.481,2.54896
0.565819,-0.175334,2.481,2.55074
0.573871,-0.175334,2.481,2.55253
0.581924,-0.175334,2.481,2.55436
0.594257,-0.176606,2.499,2.57475
0.602368,-0.176606,2.499,2.57663
0.610479,-0.176606,2.499,2.57854
0.618591,-0.176606,2.499,2.58047
0.626702,-0.176606,2.499,2.58243
0.634813,-0.176606,2.499,2.58441
0.642924,-0.176606,2.499,2.58642
0.651035,-0.176606,2.499,2.58844
0.659146,-0.176606,2.499,2.5905
0.667257,-0.176606,2.499,2.59257
0.675369,-0.176606,2.499,2.59467
0.68348,-0.176606,2.499,2.59679
0.691591,-0.176606,2.499,2.59894
0.699702,-0.176606,2.499,2.60111
0.707813,-0.176606,2.499,2.6033
0.715924,-0.176606,2.499,2.60552
0.724035,-0.176606,2.499,2.60776
0.732147,-0.176606,2.499,2.61002
0.740258,-0.176606,2.499,2.61231
0.748369,-0.176606,2.499,2.61462
0.75648,-0.176606,2.499,2.61695
0.764591,-0.176606,2.499,2.61931
0.772702,-0.176606,2.499,2.62169
0.780813,-0.176606,2.499,2.62409
0.788924,-0.176606,2.499,2.62652
0.791295,-0.175334,2.481,2.61003
0.799347,-0.175334,2.481,2.61248
0.8074,-0.175334,2.481,2.61496
0.815453,-0.175334,2.481,2.61745
0.823505,-0.175334,2.481,2.61997
0.831558,-0.175334,2.481,2.62252
0.833519,-0.174062,2.463,2.60604
0.841514,-0.174062,2.463,2.6086
0.849508,-0.174062,2.463,2.61119
0.857502,-0.174062,2.463,2.61381
0.859171,-0.17279,2.445,2.59732
0.867107,-0.17279,2.445,2.59995
0.875043,-0.17279,2.445,2.60261
0.87684,-0.171588,2.428,2.58718
0.88472,-0.171588,2.428,2.58986
0.892601,-0.171588,2.428,2.59256
0.894177,-0.170387,2.411,2.57711
0.902002,-0.170387,2.411,2.57984
0.909828,-0.170387,2.411,2.58258
0.911183,-0.169185,2.394,2.56712
0.912428,-0.167984,2.377,2.55164
0.920143,-0.167984,2.377,2.55441
0.927858,-0.167984,2.377,2.5572
0.935573,-0.167984,2.377,2.56001
0.943288,-0.167984,2.377,2.56284
0.951003,-0.167984,2.377,2.56569
nan,nan,nan,NaN
nan,nan,nan,NaN
nan,nan,nan,NaN
nan,nan,nan,NaN
nan,nan,nan,NaN
nan,nan,nan,NaN
nan,nan,nan,NaN
nan,nan,nan,NaN
nan,nan,nan,NaN
nan,nan,nan,NaN
nan,nan,nan,NaN
nan,nan,nan,NaN
nan,nan,nan,NaN
nan,nan,nan,NaN
nan,nan,nan,NaN
nan,nan,nan,NaN
nan,nan,nan,NaN
nan,nan,nan,NaN
nan,nan,nan,NaN
nan,nan,nan,NaN
1.74234,-0.262965,3.721,4.11713
1.73556,-0.260138,3.681,4.07794
1.74751,-0.260138,3.681,4.08304
1.72265,-0.254697,3.604,4.00265
1.73435,-0.254697,3.604,4.0077
1.74605,-0.254697,3.604,4.01278
1.75775,-0.254697,3.604,4.01788
1.75079,-0.252011,3.566,3.98059
1.76236,-0.252011,3.566,3.9857
nan,nan,nan,NaN
nan,nan,nan,NaN
nan,nan,nan,NaN
nan,nan,nan,NaN
nan,nan,nan,NaN
nan,nan,nan,NaN
nan,nan,nan,NaN
nan,nan,nan,NaN
nan,nan,nan,NaN
nan,nan,nan,NaN
nan,nan,nan,NaN
nan,nan,nan,NaN
1.99597,-0.262965,3.721,4.23071
2.00805,-0.262965,3.721,4.23642
2.02013,-0.262965,3.721,4.24216
2.01036,-0.260138,3.681,4.20226
2.02231,-0.260138,3.681,4.20799
2.03425,-0.260138,3.681,4.21374
2.02452,-0.257382,3.642,4.17482
2.03634,-0.257382,3.642,4.18056
2.02679,-0.254697,3.604,4.14265
2.017,-0.252011,3.566,4.10465
2.02857,-0.252011,3.566,4.11035
2.01898,-0.249396,3.529,4.07337
2.00972,-0.246852,3.493,4.03744
1.98055,-0.241905,3.423,3.96208
1.99166,-0.241905,3.423,3.96764
1.98288,-0.239503,3.389,3.93376
1.97447,-0.23717,3.356,3.90096
1.98536,-0.23717,3.356,3.90649
1.99625,-0.23717,3.356,3.91203
1.96887,-0.232647,3.292,3.84289
1.97955,-0.232647,3.292,3.84838
1.95275,-0.228266,3.23,3.7813
1.92677,-0.224026,3.17,3.71639
1.93706,-0.224026,3.17,3.72173
1.91172,-0.219927,3.112,3.6589
1.88785,-0.21604,3.057,3.59943
1.89778,-0.21604,3.057,3.60465
1.874,-0.212224,3.003,3.54611
1.86744,-0.210386,2.977,3.52053
1.8771,-0.210386,2.977,3.52566
1.85444,-0.206782,2.926,3.47033
1.83272,-0.203319,2.877,3.41721
1.84206,-0.203319,2.877,3.42223
1.83595,-0.201623,2.853,3.39867
1.81482,-0.198302,2.806,3.34761
1.79467,-0.195121,2.761,3.29879
1.80364,-0.195121,2.761,3.30368
1.79815,-0.193567,2.739,3.28222
1.79253,-0.192012,2.717,3.26069
1.80135,-0.192012,2.717,3.26555
1.78218,-0.189044,2.675,3.21987
1.77681,-0.18756,2.654,3.19937
1.78542,-0.18756,2.654,3.20416
1.77984,-0.186076,2.633,3.18357
1.7748,-0.184662,2.613,3.16414
-2.06524,-0.200726,2.977,3.62878
-2.05558,-0.200726,2.977,3.62329
-2.04592,-0.200726,2.977,3.61782
-2.00137,-0.197288,2.926,3.55048
-1.97485,-0.195602,2.901,3.51484
-1.96544,-0.195602,2.901,3.50956
-1.93984,-0.193984,2.877,3.4753
-1.9305,-0.193984,2.877,3.4701
-1.92116,-0.193984,2.877,3.46491
-1.91183,-0.193984,2.877,3.45975
-1.88662,-0.192366,2.853,3.42578
-1.87736,-0.192366,2.853,3.42069
-1.8681,-0.192366,2.853,3.41561
-1.85884,-0.192366,2.853,3.41056
-1.84958,-0.192366,2.853,3.40552
-1.8558,-0.193984,2.877,3.4291
-1.84646,-0.193984,2.877,3.42406
-1.85245,-0.195602,2.901,3.44755
-1.85891,-0.197288,2.926,3.47217
-1.84942,-0.197288,2.926,3.46709
-1.87199,-0.200726,2.977,3.52238
-1.86233,-0.200726,2.977,3.51726
-1.86885,-0.202479,3.003,3.54282
-1.8591,-0.202479,3.003,3.53769
-1.86598,-0.2043,3.03,3.56434
-1.87268,-0.20612,3.057,3.59092
-1.86276,-0.20612,3.057,3.58575
-1.83648,-0.2043,3.03,3.54898
-1.82664,-0.2043,3.03,3.5439
-1.81681,-0.2043,3.03,3.53884
-1.79087,-0.202479,3.003,3.50232
-1.78112,-0.202479,3.003,3.49734
-1.77138,-0.202479,3.003,3.49239
-1.76163,-0.202479,3.003,3.48746
nan,nan,nan,NaN
nan,nan,nan,NaN
nan,nan,nan,NaN
nan,nan,nan,NaN
nan,nan,nan,NaN
nan,nan,nan,NaN
nan,nan,nan,NaN
nan,nan,nan,NaN
nan,nan,nan,NaN
nan,nan,nan,NaN
nan,nan,nan,NaN
nan,nan,nan,NaN
nan,nan,nan,NaN
nan,nan,nan,NaN
nan,nan,nan,NaN
nan,nan,nan,NaN
nan,nan,nan,NaN
nan,nan,nan,NaN
nan,nan,nan,NaN
nan,nan,nan,NaN
nan,nan,nan,NaN
nan,nan,nan,NaN
nan,nan,nan,NaN
nan,nan,nan,NaN
nan,nan,nan,NaN
nan,nan,nan,NaN
nan,nan,nan,NaN
nan,nan,nan,NaN
nan,nan,nan,NaN
nan,nan,nan,NaN
nan,nan,nan,NaN
-1.19772,-0.167283,2.481,2.76005
-1.18104,-0.16607,2.463,2.73657
-1.17305,-0.16607,2.463,2.73313
-1.16505,-0.16607,2.463,2.72971
-1.1486,-0.164856,2.445,2.70638
-1.14067,-0.164856,2.445,2.70302
-1.13273,-0.164856,2.445,2.69968
-1.11697,-0.16371,2.428,2.67761
-1.10909,-0.16371,2.428,2.67434
-1.10121,-0.16371,2.428,2.67108
-1.09333,-0.16371,2.428,2.66784
-1.08545,-0.16371,2.428,2.66462
-1.07757,-0.16371,2.428,2.66142
-1.06969,-0.16371,2.428,2.65824
-1.05437,-0.162563,2.411,2.63649
-1.04655,-0.162563,2.411,2.63337
-1.03872,-0.162563,2.411,2.63026
-1.0309,-0.162563,2.411,2.62718
-1.02307,-0.162563,2.411,2.62412
-1.01525,-0.162563,2.411,2.62108
-1.00742,-0.162563,2.411,2.61806
-0.992548,-0.161417,2.394,2.59662
-0.984778,-0.161417,2.394,2.59366
-0.977007,-0.161417,2.394,2.59072
-0.969237,-0.161417,2.394,2.5878
-0.961466,-0.161417,2.394,2.5849
-0.953696,-0.161417,2.394,2.58202
-0.939209,-0.160271,2.377,2.56085
-0.931494,-0.160271,2.377,2.55803
-0.923778,-0.160271,2.377,2.55523
-0.916063,-0.160271,2.377,2.55245
-0.902234,-0.159192,2.361,2.53253
-0.894571,-0.159192,2.361,2.52981
-0.886907,-0.159192,2.361,2.52711
-0.873286,-0.158113,2.345,2.50732
-0.865674,-0.158113,2.345,2.50468
-0.858063,-0.158113,2.345,2.50206
-0.850452,-0.158113,2.345,2.49946
-0.842841,-0.158113,2.345,2.49688
-0.835229,-0.158113,2.345,2.49432
-0.827618,-0.158113,2.345,2.49178
-0.820007,-0.158113,2.345,2.48926
-0.812395,-0.158113,2.345,2.48677
-0.804784,-0.158113,2.345,2.48429
-0.797173,-0.158113,2.345,2.48184
-0.789562,-0.158113,2.345,2.4794
-0.78195,-0.158113,2.345,2.47699
-0.774339,-0.158113,2.345,2.4746
-0.766728,-0.158113,2.345,2.47222
-0.759116,-0.158113,2.345,2.46988
-0.756633,-0.159192,2.361,2.48438
-0.748969,-0.159192,2.361,2.48206
-0.741306,-0.159192,2.361,2.47976
-0.738615,-0.160271,2.377,2.49427
-0.7309,-0.160271,2.377,2.49199
-0.723184,-0.160271,2.377,2.48974
-0.715469,-0.160271,2.377,2.48751
-0.712816,-0.161417,2.394,2.50308
-0.705046,-0.161417,2.394,2.50088
-0.697275,-0.161417,2.394,2.4987
-0.689505,-0.161417,2.394,2.49654
-0.681735,-0.161417,2.394,2.4944
-0.673964,-0.161417,2.394,2.49229
-0.666194,-0.161417,2.394,2.4902
-0.658424,-0.161417,2.394,2.48813
-0.650653,-0.161417,2.394,2.48609
-0.642883,-0.161417,2.394,2.48407
-0.635113,-0.161417,2.394,2.48207
-0.627342,-0.161417,2.394,2.48009
-0.619572,-0.161417,2.394,2.47814
-0.611802,-0.161417,2.394,2.47621
-0.608321,-0.162563,2.411,2.49187
-0.600495,-0.162563,2.411,2.48997
-0.59267,-0.162563,2.411,2.48809
-0.584844,-0.162563,2.411,2.48624
-0.581087,-0.16371,2.428,2.50193
-0.573206,-0.16371,2.428,2.50011
-0.565326,-0.16371,2.428,2.49832
-0.557445,-0.16371,2.428,2.49654
-0.549564,-0.16371,2.428,2.4948
-0.541684,-0.16371,2.428,2.49307
-0.53754,-0.164856,2.445,2.50882
-0.529605,-0.164856,2.445,2.50713
-0.525509,-0.16607,2.463,2.52391
-0.517515,-0.16607,2.463,2.52225
-0.509521,-0.16607,2.463,2.52063
-0.501526,-0.16607,2.463,2.51902
-0.497139,-0.167283,2.481,2.53584
-0.489086,-0.167283,2.481,2.53428
-0.481034,-0.167283,2.481,2.53273
-0.476412,-0.168497,2.499,2.54958
-0.468301,-0.168497,2.499,2.54808
-0.46019,-0.168497,2.499,2.5466
-0.452079,-0.168497,2.499,2.54515
-0.447166,-0.169711,2.517,2.56204
-0.438996,-0.169711,2.517,2.56063
-0.430827,-0.169711,2.517,2.55924
-0.425848,-0.170992,2.536,2.57718
-0.417616,-0.170992,2.536,2.57584
-0.409385,-0.170992,2.536,2.57452
-0.401154,-0.170992,2.536,2.57322
-0.395866,-0.172273,2.555,2.59122
-0.387574,-0.172273,2.555,2.58996
-0.379281,-0.172273,2.555,2.58874
-0.370988,-0.172273,2.555,2.58753
-0.362695,-0.172273,2.555,2.58636
-0.354402,-0.172273,2.555,2.58521
-0.346109,-0.172273,2.555,2.58408
-0.337816,-0.172273,2.555,2.58299
-0.329523,-0.172273,2.555,2.58192
-0.32123,-0.172273,2.555,2.58087
-0.312937,-0.172273,2.555,2.57985
-0.304645,-0.172273,2.555,2.57886
-0.296352,-0.172273,2.555,2.57789
-0.288059,-0.172273,2.555,2.57695
-0.279766,-0.172273,2.555,2.57604
-0.271473,-0.172273,2.555,2.57515
-0.26318,-0.172273,2.555,2.57429
-0.254887,-0.172273,2.555,2.57346
-0.246594,-0.172273,2.555,2.57265
-0.238301,-0.172273,2.555,2.57187
-0.230009,-0.172273,2.555,2.57111
-0.221716,-0.172273,2.555,2.57038
-0.213423,-0.172273,2.555,2.56968
-0.20513,-0.172273,2.555,2.569
-0.196837,-0.172273,2.555,2.56836
-0.188544,-0.172273,2.555,2.56773
-0.180251,-0.172273,2.555,2.56714
-0.171958,-0.172273,2.555,2.56657
-0.163665,-0.172273,2.555,2.56603
-0.155372,-0.172273,2.555,2.56551
-0.14708,-0.172273,2.555,2.56502
-0.138787,-0.172273,2.555,2.56456
-0.130494,-0.172273,2.555,2.56412
-0.122201,-0.172273,2.555,2.56372
-0.113908,-0.172273,2.555,2.56333
-0.105615,-0.172273,2.555,2.56298
-0.0973222,-0.172273,2.555,2.56265
-0.0883672,-0.170992,2.536,2.54329
-0.080136,-0.170992,2.536,2.54302
-0.0719048,-0.170992,2.536,2.54277
-0.0631965,-0.169711,2.517,2.52351
-0.055027,-0.169711,2.517,2.52332
-0.0468574,-0.169711,2.517,2.52315
-0.0386878,-0.169711,2.517,2.52301
-0.0303,-0.168497,2.499,2.50486
-0.0221889,-0.168497,2.499,2.50477
-0.0140778,-0.168497,2.499,2.50471
-0.00592366,-0.167283,2.481,2.48664
0.0021136,-0.16607,2.463,2.46859
0.0101079,-0.16607,2.463,2.46861
0.0181022,-0.16607,2.463,2.46866
0.0259057,-0.164856,2.445,2.45069
0.0338416,-0.164856,2.445,2.45079
0.0417775,-0.164856,2.445,2.45091
0.0497133,-0.164856,2.445,2.45106
0.0572484,-0.16371,2.428,2.43419
0.065129,-0.16371,2.428,2.43438
0.0730097,-0.16371,2.428,2.43461
0.0808904,-0.16371,2.428,2.43486
0.0887711,-0.16371,2.428,2.43513
0.0966518,-0.16371,2.428,2.43543
0.105264,-0.164856,2.445,2.45281
0.1132,-0.164856,2.445,2.45316
0.121136,-0.164856,2.445,2.45354
0.129072,-0.164856,2.445,2.45395
0.137008,-0.164856,2.445,2.45438
0.146011,-0.16607,2.463,2.47291
0.154005,-0.16607,2.463,2.47339
0.161999,-0.16607,2.463,2.4739
0.171236,-0.167283,2.481,2.49252
0.179289,-0.167283,2.481,2.49309
0.187341,-0.167283,2.481,2.49368
0.196812,-0.168497,2.499,2.51239
0.204923,-0.168497,2.499,2.51304
0.213034,-0.168497,2.499,2.51372
0.221145,-0.168497,2.499,2.51442
0.229256,-0.168497,2.499,2.51514
0.237367,-0.168497,2.499,2.5159
0.245479,-0.168497,2.499,2.51667
0.255416,-0.169711,2.517,2.53561
0.263586,-0.169711,2.517,2.53645
0.271755,-0.169711,2.517,2.53731
0.279925,-0.169711,2.517,2.5382
0.288094,-0.169711,2.517,2.53911
0.296264,-0.169711,2.517,2.54005
0.304434,-0.169711,2.517,2.54102
0.312603,-0.169711,2.517,2.54201
0.320773,-0.169711,2.517,2.54303
0.331425,-0.170992,2.536,2.56327
0.339657,-0.170992,2.536,2.56435
0.345281,-0.169711,2.517,2.54623
0.353451,-0.169711,2.517,2.54736
0.36162,-0.169711,2.517,2.5485
0.36979,-0.169711,2.517,2.54967
0.37796,-0.169711,2.517,2.55087
0.386129,-0.169711,2.517,2.55209
0.394299,-0.169711,2.517,2.55334
0.402468,-0.169711,2.517,2.55462
0.410638,-0.169711,2.517,2.55592
0.418807,-0.169711,2.517,2.55724
0.423923,-0.168497,2.499,2.5403
0.432035,-0.168497,2.499,2.54166
0.440146,-0.168497,2.499,2.54305
0.448257,-0.168497,2.499,2.54447
0.456368,-0.168497,2.499,2.54591
0.464479,-0.168497,2.499,2.54738
0.47259,-0.168497,2.499,2.54887
0.477239,-0.167283,2.481,2.53202
0.485292,-0.167283,2.481,2.53355
0.493344,-0.167283,2.481,2.5351
0.501397,-0.167283,2.481,2.53668
0.50945,-0.167283,2.481,2.53828
0.517502,-0.167283,2.481,2.53991
0.525555,-0.167283,2.481,2.54157
0.533608,-0.167283,2.481,2.54324
0.541661,-0.167283,2.481,2.54494
0.549713,-0.167283,2.481,2.54667
0.557766,-0.167283,2.481,2.54842
0.565819,-0.167283,2.481,2.5502
0.573871,-0.167283,2.481,2.55199
0.581924,-0.167283,2.481,2.55382
0.594257,-0.168497,2.499,2.57421
0.602368,-0.168497,2.499,2.57609
0.610479,-0.168497,2.499,2.578
0.618591,-0.168497,2.499,2.57993
0.626702,-0.168497,2.499,2.58189
0.634813,-0.168497,2.499,2.58387
0.642924,-0.168497,2.499,2.58587
0.651035,-0.168497,2.499,2.5879
0.659146,-0.168497,2.499,2.58995
0.667257,-0.168497,2.499,2.59203
0.675369,-0.168497,2.499,2.59413
0.68348,-0.168497,2.499,2.59625
0.691591,-0.168497,2.499,2.5984
0.699702,-0.168497,2.499,2.60057
0.707813,-0.168497,2.499,2.60277
0.715924,-0.168497,2.499,2.60498
0.724035,-0.168497,2.499,2.60722
0.732147,-0.168497,2.499,2.60949
0.740258,-0.168497,2.499,2.61178
0.748369,-0.168497,2.499,2.61409
0.75648,-0.168497,2.499,2.61642
0.764591,-0.168497,2.499,2.61878
0.772702,-0.168497,2.499,2.62116
0.780813,-0.168497,2.499,2.62356
0.788924,-0.168497,2.499,2.62598
0.797036,-0.168497,2.499,2.62843
0.805147,-0.168497,2.499,2.6309
0.8074,-0.167283,2.481,2.61443
0.815453,-0.167283,2.481,2.61693
0.823505,-0.167283,2.481,2.61945
0.831558,-0.167283,2.481,2.62199
0.839611,-0.167283,2.481,2.62456
0.847664,-0.167283,2.481,2.62714
0.855716,-0.167283,2.481,2.62975
0.857502,-0.16607,2.463,2.61328
0.859171,-0.164856,2.445,2.5968
0.867107,-0.164856,2.445,2.59944
0.875043,-0.164856,2.445,2.6021
0.882979,-0.164856,2.445,2.60478
0.890915,-0.164856,2.445,2.60748
0.892601,-0.16371,2.428,2.59205
0.894177,-0.162563,2.411,2.57661
0.902002,-0.162563,2.411,2.57933
0.909828,-0.162563,2.411,2.58208
0.911183,-0.161417,2.394,2.56662
0.918953,-0.161417,2.394,2.56939
0.926724,-0.161417,2.394,2.57218
0.927858,-0.160271,2.377,2.5567
0.935573,-0.160271,2.377,2.55951
0.943288,-0.160271,2.377,2.56234
0.951003,-0.160271,2.377,2.56519
nan,nan,nan,NaN
nan,nan,nan,NaN
nan,nan,nan,NaN
nan,nan,nan,NaN
nan,nan,nan,NaN
nan,nan,nan,NaN
nan,nan,nan,NaN
nan,nan,nan,NaN
nan,nan,nan,NaN
nan,nan,nan,NaN
nan,nan,nan,NaN
nan,nan,nan,NaN
nan,nan,nan,NaN
nan,nan,nan,NaN
nan,nan,nan,NaN
nan,nan,nan,NaN
nan,nan,nan,NaN
nan,nan,nan,NaN
1.66416,-0.243002,3.604,3.9771
1.67586,-0.243002,3.604,3.98201
1.68756,-0.243002,3.604,3.98694
1.68134,-0.24044,3.566,3.94982
1.69292,-0.24044,3.566,3.95476
1.6868,-0.237945,3.529,3.91864
1.69826,-0.237945,3.529,3.92359
1.70971,-0.237945,3.529,3.92856
1.70361,-0.235518,3.493,3.89343
1.69776,-0.233158,3.458,3.85934
1.67489,-0.228506,3.389,3.78719
1.68589,-0.228506,3.389,3.79206
1.69689,-0.228506,3.389,3.79697
1.67513,-0.224123,3.324,3.72898
1.68592,-0.224123,3.324,3.73384
1.69671,-0.224123,3.324,3.73872
nan,nan,nan,NaN
nan,nan,nan,NaN
nan,nan,nan,NaN
nan,nan,nan,NaN
nan,nan,nan,NaN
nan,nan,nan,NaN
1.96257,-0.248194,3.681,4.17888
1.95359,-0.245564,3.642,4.14017
1.96542,-0.245564,3.642,4.14576
1.97724,-0.245564,3.642,4.15138
1.98906,-0.245564,3.642,4.15702
2.00088,-0.245564,3.642,4.16269
2.0127,-0.245564,3.642,4.16838
2.02452,-0.245564,3.642,4.17411
2.03634,-0.245564,3.642,4.17985
2.02679,-0.243002,3.604,4.14195
2.017,-0.24044,3.566,4.10395
2.02857,-0.24044,3.566,4.10966
2.01898,-0.237945,3.529,4.07268
1.98958,-0.233158,3.458,3.99632
1.98055,-0.230798,3.423,3.96141
1.99166,-0.230798,3.423,3.96698
1.98288,-0.228506,3.389,3.93311
1.97447,-0.226281,3.356,3.90032
1.98536,-0.226281,3.356,3.90584
1.97722,-0.224123,3.324,3.87409
1.96887,-0.221965,3.292,3.84226
1.97955,-0.221965,3.292,3.84775
1.95275,-0.217785,3.23,3.78069
1.92677,-0.21374,3.17,3.71578
1.93706,-0.21374,3.17,3.72113
1.91172,-0.209829,3.112,3.65831
1.88785,-0.20612,3.057,3.59885
1.89778,-0.20612,3.057,3.60407
1.89085,-0.2043,3.03,3.57742
1.86744,-0.200726,2.977,3.51996
1.8771,-0.200726,2.977,3.5251
1.85444,-0.197288,2.926,3.46978
1.83272,-0.193984,2.877,3.41667
1.84206,-0.193984,2.877,3.42169
1.82051,-0.190747,2.829,3.36955
1.81482,-0.189197,2.806,3.34709
1.79467,-0.186162,2.761,3.29828
1.80364,-0.186162,2.761,3.30316
1.79815,-0.184679,2.739,3.2817
1.77867,-0.18178,2.696,3.23499
1.78743,-0.18178,2.696,3.23981
1.78218,-0.180364,2.675,3.21937
1.77681,-0.178948,2.654,3.19887
1.78542,-0.178948,2.654,3.20367
1.76632,-0.176183,2.613,3.15891
1.76122,-0.174835,2.593,3.13944
-2.06524,-0.191066,2.977,3.62826
-2.03763,-0.189398,2.951,3.59113
-2.02805,-0.189398,2.951,3.5857
-2.00137,-0.187793,2.926,3.54996
-1.97485,-0.186189,2.901,3.51433
-1.96544,-0.186189,2.901,3.50905
-1.93984,-0.184648,2.877,3.4748
-1.9144,-0.183108,2.853,3.44065
-1.90514,-0.183108,2.853,3.4355
-1.89588,-0.183108,2.853,3.43038
-1.87075,-0.181568,2.829,3.39645
-1.86157,-0.181568,2.829,3.39141
-1.83732,-0.180092,2.806,3.35884
-1.82822,-0.180092,2.806,3.35387
-1.81911,-0.180092,2.806,3.34891
-1.82484,-0.181568,2.829,3.37139
-1.81565,-0.181568,2.829,3.36642
-1.8218,-0.183108,2.853,3.39
-1.82778,-0.184648,2.877,3.41351
-1.81845,-0.184648,2.877,3.40851
-1.83992,-0.187793,2.926,3.46151
-1.83042,-0.187793,2.926,3.45647
-1.82093,-0.187793,2.926,3.45145
-1.82691,-0.189398,2.951,3.4759
-1.83334,-0.191066,2.977,3.50145
-1.82368,-0.191066,2.977,3.4964
-1.81401,-0.191066,2.977,3.49137
-1.80435,-0.191066,2.977,3.48636
-1.79469,-0.191066,2.977,3.48137
-1.78503,-0.191066,2.977,3.4764
-1.75986,-0.189398,2.951,3.44113
-1.75028,-0.189398,2.951,3.43624
-1.7407,-0.189398,2.951,3.43137
-1.73112,-0.189398,2.951,3.42652
nan,nan,nan,NaN
nan,nan,nan,NaN
nan,nan,nan,NaN
nan,nan,nan,NaN
nan,nan,nan,NaN
nan,nan,nan,NaN
nan,nan,nan,NaN
nan,nan,nan,NaN
nan,nan,nan,NaN
nan,nan,nan,NaN
nan,nan,nan,NaN
nan,nan,nan,NaN
nan,nan,nan,NaN
nan,nan,nan,NaN
nan,nan,nan,NaN
nan,nan,nan,NaN
nan,nan,nan,NaN
nan,nan,nan,NaN
nan,nan,nan,NaN
nan,nan,nan,NaN
nan,nan,nan,NaN
nan,nan,nan,NaN
nan,nan,nan,NaN
nan,nan,nan,NaN
nan,nan,nan,NaN
nan,nan,nan,NaN
nan,nan,nan,NaN
nan,nan,nan,NaN
nan,nan,nan,NaN
nan,nan,nan,NaN
nan,nan,nan,NaN
-1.19772,-0.159233,2.481,2.75958
-1.18967,-0.159233,2.481,2.75609
-1.18162,-0.159233,2.481,2.75262
-1.17357,-0.159233,2.481,2.74918
-1.15706,-0.158078,2.463,2.72583
-1.14906,-0.158078,2.463,2.72244
-1.13273,-0.156922,2.445,2.69921
-1.12479,-0.156922,2.445,2.69589
-1.11686,-0.156922,2.445,2.69259
-1.10892,-0.156922,2.445,2.6893
-1.09333,-0.155831,2.428,2.66737
-1.08545,-0.155831,2.428,2.66415
-1.07757,-0.155831,2.428,2.66094
-1.06969,-0.155831,2.428,2.65776
-1.06181,-0.155831,2.428,2.6546
-1.05393,-0.155831,2.428,2.65146
-1.04605,-0.155831,2.428,2.64834
-1.03817,-0.155831,2.428,2.64523
-1.02307,-0.15474,2.411,2.62365
-1.01525,-0.15474,2.411,2.62061
-1.00742,-0.15474,2.411,2.61759
-0.999596,-0.15474,2.411,2.61459
-0.99177,-0.15474,2.411,2.6116
-0.977007,-0.153649,2.394,2.59025
-0.969237,-0.153649,2.394,2.58733
-0.961466,-0.153649,2.394,2.58443
-0.953696,-0.153649,2.394,2.58155
-0.939209,-0.152558,2.377,2.56037
-0.931494,-0.152558,2.377,2.55755
-0.923778,-0.152558,2.377,2.55475
-0.916063,-0.152558,2.377,2.55197
-0.902234,-0.151531,2.361,2.53206
-0.894571,-0.151531,2.361,2.52934
-0.886907,-0.151531,2.361,2.52664
-0.873286,-0.150504,2.345,2.50685
-0.865674,-0.150504,2.345,2.50421
-0.858063,-0.150504,2.345,2.50159
-0.850452,-0.150504,2.345,2.49899
-0.842841,-0.150504,2.345,2.49641
-0.835229,-0.150504,2.345,2.49385
-0.827618,-0.150504,2.345,2.49131
-0.820007,-0.150504,2.345,2.48879
-0.812395,-0.150504,2.345,2.48629
-0.804784,-0.150504,2.345,2.48382
-0.797173,-0.150504,2.345,2.48136
-0.789562,-0.150504,2.345,2.47893
-0.78195,-0.150504,2.345,2.47651
-0.774339,-0.150504,2.345,2.47412
-0.766728,-0.150504,2.345,2.47175
-0.759116,-0.150504,2.345,2.4694
-0.756633,-0.151531,2.361,2.4839
-0.748969,-0.151531,2.361,2.48158
-0.741306,-0.151531,2.361,2.47928
-0.738615,-0.152558,2.377,2.49378
-0.7309,-0.152558,2.377,2.49151
-0.723184,-0.152558,2.377,2.48926
-0.715469,-0.152558,2.377,2.48703
-0.712816,-0.153649,2.394,2.50259
-0.705046,-0.153649,2.394,2.50039
-0.697275,-0.153649,2.394,2.49821
-0.689505,-0.153649,2.394,2.49605
-0.681735,-0.153649,2.394,2.49391
-0.673964,-0.153649,2.394,2.4918
-0.666194,-0.153649,2.394,2.48971
-0.658424,-0.153649,2.394,2.48764
-0.650653,-0.153649,2.394,2.4856
-0.642883,-0.153649,2.394,2.48357
-0.635113,-0.153649,2.394,2.48157
-0.627342,-0.153649,2.394,2.4796
-0.619572,-0.153649,2.394,2.47764
-0.611802,-0.153649,2.394,2.47571
-0.608321,-0.15474,2.411,2.49137
-0.600495,-0.15474,2.411,2.48947
-0.59267,-0.15474,2.411,2.48759
-0.584844,-0.15474,2.411,2.48574
-0.581087,-0.155831,2.428,2.50143
-0.573206,-0.155831,2.428,2.49961
-0.565326,-0.155831,2.428,2.49781
-0.557445,-0.155831,2.428,2.49604
-0.549564,-0.155831,2.428,2.49429
-0.541684,-0.155831,2.428,2.49257
-0.53754,-0.156922,2.445,2.50831
-0.529605,-0.156922,2.445,2.50662
-0.521669,-0.156922,2.445,2.50495
-0.517515,-0.158078,2.463,2.52174
-0.509521,-0.158078,2.463,2.52011
-0.501526,-0.158078,2.463,2.51851
-0.497139,-0.159233,2.481,2.53532
-0.489086,-0.159233,2.481,2.53376
-0.481034,-0.159233,2.481,2.53221
-0.472981,-0.159233,2.481,2.5307
-0.468301,-0.160388,2.499,2.54755
-0.46019,-0.160388,2.499,2.54608
-0.452079,-0.160388,2.499,2.54462
-0.447166,-0.161543,2.517,2.56151
-0.438996,-0.161543,2.517,2.5601
-0.430827,-0.161543,2.517,2.55871
-0.425848,-0.162763,2.536,2.57665
-0.417616,-0.162763,2.536,2.5753
-0.409385,-0.162763,2.536,2.57398
-0.401154,-0.162763,2.536,2.57269
-0.395866,-0.163982,2.555,2.59068
-0.387574,-0.163982,2.555,2.58943
-0.379281,-0.163982,2.555,2.5882
-0.370988,-0.163982,2.555,2.587
-0.362695,-0.163982,2.555,2.58582
-0.354402,-0.163982,2.555,2.58467
-0.346109,-0.163982,2.555,2.58355
-0.337816,-0.163982,2.555,2.58245
-0.329523,-0.163982,2.555,2.58138
-0.32123,-0.163982,2.555,2.58033
-0.312937,-0.163982,2.555,2.57931
-0.304645,-0.163982,2.555,2.57832
-0.296352,-0.163982,2.555,2.57735
-0.288059,-0.163982,2.555,2.57641
-0.279766,-0.163982,2.555,2.5755
-0.271473,-0.163982,2.555,2.57461
-0.26318,-0.163982,2.555,2.57375
-0.254887,-0.163982,2.555,2.57291
-0.246594,-0.163982,2.555,2.5721
-0.238301,-0.163982,2.555,2.57132
-0.230009,-0.163982,2.555,2.57057
-0.220067,-0.162763,2.536,2.55073
-0.211836,-0.162763,2.536,2.55003
-0.203604,-0.162763,2.536,2.54936
-0.195373,-0.162763,2.536,2.54872
-0.188544,-0.163982,2.555,2.56719
-0.180251,-0.163982,2.555,2.56659
-0.171958,-0.163982,2.555,2.56603
-0.163665,-0.163982,2.555,2.56548
-0.155372,-0.163982,2.555,2.56497
-0.14708,-0.163982,2.555,2.56448
-0.137755,-0.162763,2.536,2.54495
-0.129523,-0.162763,2.536,2.54452
-0.121292,-0.162763,2.536,2.54411
-0.113061,-0.162763,2.536,2.54373
-0.10483,-0.162763,2.536,2.54338
-0.0965985,-0.162763,2.536,2.54305
-0.0883672,-0.162763,2.536,2.54275
-0.0795356,-0.161543,2.517,2.52343
-0.0713661,-0.161543,2.517,2.52319
-0.0631965,-0.161543,2.517,2.52297
-0.0546334,-0.160388,2.499,2.50474
-0.0465223,-0.160388,2.499,2.50457
-0.0384112,-0.160388,2.499,2.50444
-0.0300818,-0.159233,2.481,2.48629
-0.0220291,-0.159233,2.481,2.4862
-0.0139764,-0.159233,2.481,2.48614
-0.00592366,-0.159233,2.481,2.48611
0.0021136,-0.158078,2.463,2.46807
0.0101079,-0.158078,2.463,2.46809
0.0181022,-0.158078,2.463,2.46813
0.0259057,-0.156922,2.445,2.45017
0.0338416,-0.156922,2.445,2.45026
0.0417775,-0.156922,2.445,2.45039
0.0493677,-0.155831,2.428,2.4335
0.0572484,-0.155831,2.428,2.43367
0.065129,-0.155831,2.428,2.43387
