-1.85238,-0.12649,2.829,3.38387
-1.8432,-0.12649,2.829,3.37885
-1.84958,-0.127563,2.853,3.40247
-1.8558,-0.128636,2.877,3.42603
-1.83106,-0.127563,2.853,3.39244
-1.8218,-0.127563,2.853,3.38745
-1.82778,-0.128636,2.877,3.41093
-1.81845,-0.128636,2.877,3.40594
-1.8242,-0.129709,2.901,3.42933
-1.81478,-0.129709,2.901,3.42433
-1.82093,-0.130827,2.926,3.44882
-1.81143,-0.130827,2.926,3.44382
-1.81733,-0.131945,2.951,3.46821
-1.82368,-0.133107,2.977,3.49372
-1.81401,-0.133107,2.977,3.48868
-1.82011,-0.13427,3.003,3.51409
-1.81036,-0.13427,3.003,3.50905
-1.80062,-0.13427,3.003,3.50403
-1.79087,-0.13427,3.003,3.49904
-1.79714,-0.135477,3.03,3.52547
-1.80323,-0.136684,3.057,3.55184
-1.79331,-0.136684,3.057,3.54681
-1.78338,-0.136684,3.057,3.54181
nan,nan,nan,NaN
nan,nan,nan,NaN
nan,nan,nan,NaN
nan,nan,nan,NaN
nan,nan,nan,NaN
nan,nan,nan,NaN
nan,nan,nan,NaN
nan,nan,nan,NaN
nan,nan,nan,NaN
nan,nan,nan,NaN
nan,nan,nan,NaN
nan,nan,nan,NaN
nan,nan,nan,NaN
nan,nan,nan,NaN
nan,nan,nan,NaN
nan,nan,nan,NaN
nan,nan,nan,NaN
nan,nan,nan,NaN
nan,nan,nan,NaN
nan,nan,nan,NaN
nan,nan,nan,NaN
nan,nan,nan,NaN
nan,nan,nan,NaN
nan,nan,nan,NaN
nan,nan,nan,NaN
-1.26543,-0.113389,2.536,2.83645
-1.2572,-0.113389,2.536,2.83279
-1.23961,-0.11254,2.517,2.80795
-1.21383,-0.11093,2.481,2.76425
-1.20578,-0.11093,2.481,2.76072
-1.19772,-0.11093,2.481,2.75721
-1.18104,-0.110125,2.463,2.73374
-1.17305,-0.110125,2.463,2.7303
-1.16505,-0.110125,2.463,2.72687
-1.1486,-0.109321,2.445,2.70356
-1.14067,-0.109321,2.445,2.7002
-1.12485,-0.10856,2.428,2.67811
-1.10915,-0.1078,2.411,2.65608
-1.09356,-0.10704,2.394,2.63412
-1.08579,-0.10704,2.394,2.6309
-1.07802,-0.10704,2.394,2.6277
-1.07025,-0.10704,2.394,2.62453
-1.06248,-0.10704,2.394,2.62137
-1.04722,-0.10628,2.377,2.59963
-1.03951,-0.10628,2.377,2.59654
-1.03179,-0.10628,2.377,2.59346
-1.02408,-0.10628,2.377,2.5904
-1.01636,-0.10628,2.377,2.58736
-1.00865,-0.10628,2.377,2.58434
-1.00093,-0.10628,2.377,2.58133
-0.993215,-0.10628,2.377,2.57835
-0.992548,-0.10704,2.394,2.59381
-0.984778,-0.10704,2.394,2.59085
-0.977007,-0.10704,2.394,2.5879
-0.969237,-0.10704,2.394,2.58498
-0.961466,-0.10704,2.394,2.58208
-0.953696,-0.10704,2.394,2.57919
-0.952643,-0.1078,2.411,2.59462
-0.944817,-0.1078,2.411,2.59176
-0.936992,-0.1078,2.411,2.58892
-0.929166,-0.1078,2.411,2.5861
-0.921341,-0.1078,2.411,2.58329
-0.913515,-0.1078,2.411,2.58051
-0.90569,-0.1078,2.411,2.57775
-0.897864,-0.1078,2.411,2.57502
-0.890039,-0.1078,2.411,2.5723
-0.882213,-0.1078,2.411,2.5696
-0.880553,-0.10856,2.428,2.58502
-0.872672,-0.10856,2.428,2.58235
-0.864792,-0.10856,2.428,2.5797
-0.856911,-0.10856,2.428,2.57707
-0.84903,-0.10856,2.428,2.57446
-0.84115,-0.10856,2.428,2.57187
-0.833269,-0.10856,2.428,2.5693
-0.825388,-0.10856,2.428,2.56676
-0.817508,-0.10856,2.428,2.56423
-0.809627,-0.10856,2.428,2.56173
-0.796133,-0.1078,2.411,2.54133
-0.788307,-0.1078,2.411,2.53889
-0.780482,-0.1078,2.411,2.53647
-0.772656,-0.1078,2.411,2.53408
-0.764831,-0.1078,2.411,2.5317
-0.757005,-0.1078,2.411,2.52935
-0.74918,-0.1078,2.411,2.52702
-0.741354,-0.1078,2.411,2.52471
-0.733529,-0.1078,2.411,2.52242
-0.725703,-0.1078,2.411,2.52016
-0.717878,-0.1078,2.411,2.51791
-0.715059,-0.10856,2.428,2.53343
-0.707178,-0.10856,2.428,2.53122
-0.694401,-0.1078,2.411,2.51132
-0.686576,-0.1078,2.411,2.50917
-0.67875,-0.1078,2.411,2.50704
-0.670925,-0.1078,2.411,2.50493
-0.667775,-0.10856,2.428,2.52049
-0.659894,-0.10856,2.428,2.51842
-0.652013,-0.10856,2.428,2.51636
-0.644133,-0.10856,2.428,2.51433
-0.640707,-0.109321,2.445,2.52992
-0.632771,-0.109321,2.445,2.52792
-0.624835,-0.109321,2.445,2.52594
-0.616899,-0.109321,2.445,2.52399
-0.608963,-0.109321,2.445,2.52207
-0.601027,-0.109321,2.445,2.52016
-0.593092,-0.109321,2.445,2.51828
-0.585156,-0.109321,2.445,2.51642
-0.57722,-0.109321,2.445,2.51459
-0.569284,-0.109321,2.445,2.51278
-0.561348,-0.109321,2.445,2.51099
-0.553412,-0.109321,2.445,2.50923
-0.545476,-0.109321,2.445,2.50749
-0.53754,-0.109321,2.445,2.50578
-0.529605,-0.109321,2.445,2.50409
-0.525509,-0.110125,2.463,2.52084
-0.517515,-0.110125,2.463,2.51919
-0.509521,-0.110125,2.463,2.51756
-0.501526,-0.110125,2.463,2.51595
-0.493532,-0.110125,2.463,2.51437
-0.485538,-0.110125,2.463,2.51282
-0.477544,-0.110125,2.463,2.51128
-0.472981,-0.11093,2.481,2.52812
-0.464928,-0.11093,2.481,2.52662
-0.456875,-0.11093,2.481,2.52515
-0.448823,-0.11093,2.481,2.52371
-0.44077,-0.11093,2.481,2.52229
-0.435857,-0.111735,2.499,2.53918
-0.427746,-0.111735,2.499,2.5378
-0.419634,-0.111735,2.499,2.53645
-0.411523,-0.111735,2.499,2.53512
-0.403412,-0.111735,2.499,2.53382
-0.398148,-0.11254,2.517,2.55078
-0.389979,-0.11254,2.517,2.54952
-0.381809,-0.11254,2.517,2.54828
-0.37364,-0.11254,2.517,2.54707
-0.368229,-0.113389,2.536,2.5651
-0.359998,-0.113389,2.536,2.56393
-0.351766,-0.113389,2.536,2.56279
-0.343535,-0.113389,2.536,2.56167
-0.335304,-0.113389,2.536,2.56058
-0.327073,-0.113389,2.536,2.55952
-0.318842,-0.113389,2.536,2.55848
-0.31061,-0.113389,2.536,2.55747
-0.302379,-0.113389,2.536,2.55648
-0.291944,-0.11254,2.517,2.53637
-0.283775,-0.11254,2.517,2.53545
-0.275605,-0.11254,2.517,2.53454
-0.267435,-0.11254,2.517,2.53367
-0.257412,-0.111735,2.499,2.51471
-0.249301,-0.111735,2.499,2.51389
-0.24119,-0.111735,2.499,2.5131
-0.233078,-0.111735,2.499,2.51233
-0.224967,-0.111735,2.499,2.51159
-0.216856,-0.111735,2.499,2.51088
-0.208745,-0.111735,2.499,2.51019
-0.202079,-0.11254,2.517,2.52761
-0.192523,-0.111735,2.499,2.50889
-0.184412,-0.111735,2.499,2.50829
-0.1763,-0.111735,2.499,2.5077
-0.168189,-0.111735,2.499,2.50714
-0.160078,-0.111735,2.499,2.50661
-0.151967,-0.111735,2.499,2.50611
-0.143856,-0.111735,2.499,2.50563
-0.135745,-0.111735,2.499,2.50518
-0.126714,-0.11093,2.481,2.48671
-0.118662,-0.11093,2.481,2.48631
-0.110609,-0.11093,2.481,2.48594
-0.102556,-0.11093,2.481,2.4856
-0.0945035,-0.11093,2.481,2.48528
-0.0864508,-0.11093,2.481,2.48498
-0.078398,-0.11093,2.481,2.48472
-0.0708557,-0.111735,2.499,2.5025
-0.0627446,-0.111735,2.499,2.50228
-0.0542399,-0.11093,2.481,2.48407
-0.0461872,-0.11093,2.481,2.48391
-0.0381345,-0.11093,2.481,2.48377
-0.0300818,-0.11093,2.481,2.48366
-0.0220291,-0.11093,2.481,2.48358
-0.0139764,-0.11093,2.481,2.48352
-0.00592366,-0.11093,2.481,2.48349
0.00212905,-0.11093,2.481,2.48348
0.0101818,-0.11093,2.481,2.4835
0.0181022,-0.110125,2.463,2.46553
0.0260965,-0.110125,2.463,2.4656
0.0338416,-0.109321,2.445,2.44768
0.0417775,-0.109321,2.445,2.4478
0.0497133,-0.109321,2.445,2.44795
0.0576492,-0.109321,2.445,2.44812
0.0655851,-0.109321,2.445,2.44832
0.0735209,-0.109321,2.445,2.44855
0.0814568,-0.109321,2.445,2.4488
0.0893926,-0.109321,2.445,2.44907
0.0966518,-0.10856,2.428,2.43235
0.104532,-0.10856,2.428,2.43267
0.112413,-0.10856,2.428,2.43302
0.120294,-0.10856,2.428,2.4334
0.127277,-0.1078,2.411,2.41676
0.135103,-0.1078,2.411,2.41719
0.143936,-0.10856,2.428,2.43468
0.151817,-0.10856,2.428,2.43516
0.159697,-0.10856,2.428,2.43567
0.167578,-0.10856,2.428,2.4362
0.175459,-0.10856,2.428,2.43675
0.183339,-0.10856,2.428,2.43733
0.192559,-0.109321,2.445,2.45501
0.200495,-0.109321,2.445,2.45564
0.208431,-0.109321,2.445,2.4563
0.217959,-0.110125,2.463,2.47508
0.225954,-0.110125,2.463,2.47579
0.233948,-0.110125,2.463,2.47654
0.241942,-0.110125,2.463,2.4773
0.249936,-0.110125,2.463,2.4781
0.257931,-0.110125,2.463,2.47892
0.265925,-0.110125,2.463,2.47976
0.275921,-0.11093,2.481,2.49876
0.283974,-0.11093,2.481,2.49966
0.292027,-0.11093,2.481,2.50059
0.300079,-0.11093,2.481,2.50154
0.308132,-0.11093,2.481,2.50252
0.316185,-0.11093,2.481,2.50353
0.32659,-0.111735,2.499,2.52273
0.334701,-0.111735,2.499,2.52379
0.342812,-0.111735,2.499,2.52488
0.350923,-0.111735,2.499,2.52599
0.359034,-0.111735,2.499,2.52713
0.367146,-0.111735,2.499,2.5283
0.375257,-0.111735,2.499,2.52949
0.383368,-0.111735,2.499,2.5307
0.391479,-0.111735,2.499,2.53194
0.39959,-0.111735,2.499,2.53321
0.410638,-0.11254,2.517,2.55276
0.418807,-0.11254,2.517,2.55409
0.426977,-0.11254,2.517,2.55544
0.432035,-0.111735,2.499,2.53853
0.440146,-0.111735,2.499,2.53992
0.448257,-0.111735,2.499,2.54134
0.456368,-0.111735,2.499,2.54279
0.464479,-0.111735,2.499,2.54425
0.47259,-0.111735,2.499,2.54575
0.480701,-0.111735,2.499,2.54727
0.488812,-0.111735,2.499,2.54881
0.496924,-0.111735,2.499,2.55038
0.505035,-0.111735,2.499,2.55197
0.513146,-0.111735,2.499,2.55359
0.525012,-0.11254,2.517,2.57363
0.533181,-0.11254,2.517,2.57531
0.541351,-0.11254,2.517,2.57702
0.54952,-0.11254,2.517,2.57875
0.55769,-0.11254,2.517,2.5805
0.565859,-0.11254,2.517,2.58228
0.574029,-0.11254,2.517,2.58408
0.582199,-0.11254,2.517,2.58591
0.590368,-0.11254,2.517,2.58776
0.598538,-0.11254,2.517,2.58963
0.606707,-0.11254,2.517,2.59153
0.619518,-0.113389,2.536,2.61304
0.627749,-0.113389,2.536,2.615
0.635981,-0.113389,2.536,2.61699
0.644212,-0.113389,2.536,2.619
0.647555,-0.11254,2.517,2.6014
0.655725,-0.11254,2.517,2.60345
0.663894,-0.11254,2.517,2.60552
0.677137,-0.113389,2.536,2.62729
0.685368,-0.113389,2.536,2.62943
0.693599,-0.113389,2.536,2.63158
0.70183,-0.113389,2.536,2.63377
0.710062,-0.113389,2.536,2.63597
0.718293,-0.113389,2.536,2.6382
0.731967,-0.114239,2.555,2.66024
0.74026,-0.114239,2.555,2.66253
0.748553,-0.114239,2.555,2.66485
0.751218,-0.113389,2.536,2.64735
0.759449,-0.113389,2.536,2.6497
0.76768,-0.113389,2.536,2.65207
0.775912,-0.113389,2.536,2.65447
0.784143,-0.113389,2.536,2.65688
0.792374,-0.113389,2.536,2.65933
0.794607,-0.11254,2.517,2.64185
0.802777,-0.11254,2.517,2.64432
0.810946,-0.11254,2.517,2.64681
0.819116,-0.11254,2.517,2.64932
0.821369,-0.111735,2.499,2.63289
0.82948,-0.111735,2.499,2.63544
0.837591,-0.111735,2.499,2.638
0.839611,-0.11093,2.481,2.62157
0.841514,-0.110125,2.463,2.60512
0.849508,-0.110125,2.463,2.60771
0.857502,-0.110125,2.463,2.61033
0.859171,-0.109321,2.445,2.59387
0.867107,-0.109321,2.445,2.59651
0.868959,-0.10856,2.428,2.5811
0.8707,-0.1078,2.411,2.56567
0.878526,-0.1078,2.411,2.56834
0.886351,-0.1078,2.411,2.57102
0.887872,-0.10704,2.394,2.55558
0.889282,-0.10628,2.377,2.54013
0.896997,-0.10628,2.377,2.54284
0.898623,-0.105565,2.361,2.52844
0.900144,-0.104849,2.345,2.51402
0.907756,-0.104849,2.345,2.51675
0.909121,-0.104134,2.329,2.50232
0.916681,-0.104134,2.329,2.50507
0.92424,-0.104134,2.329,2.50785
0.925398,-0.103419,2.313,2.4934
0.932905,-0.103419,2.313,2.49619
0.940413,-0.103419,2.313,2.49901
0.94792,-0.103419,2.313,2.50184
0.955428,-0.103419,2.313,2.5047
0.962935,-0.103419,2.313,2.50757
0.970443,-0.103419,2.313,2.51046
0.984715,-0.104134,2.329,2.53076
1.01272,-0.10628,2.377,2.58593
1.04963,-0.109321,2.445,2.66303
1.05757,-0.109321,2.445,2.66616
1.08904,-0.111735,2.499,2.72828
1.13842,-0.115938,2.593,2.83427
1.14683,-0.115938,2.593,2.83766
1.18243,-0.118665,2.654,2.90791
1.21931,-0.121482,2.717,2.98053
1.25796,-0.124433,2.783,3.05664
1.267,-0.124433,2.783,3.06037
1.29712,-0.12649,2.829,3.11477
1.32847,-0.128636,2.877,3.17151
1.33781,-0.128636,2.877,3.17544
1.34714,-0.128636,2.877,3.17938
1.35648,-0.128636,2.877,3.18335
1.36582,-0.128636,2.877,3.18734
1.37516,-0.128636,2.877,3.19135
1.3845,-0.128636,2.877,3.19539
1.40546,-0.129709,2.901,3.22614
1.41488,-0.129709,2.901,3.23025
1.43657,-0.130827,2.926,3.26226
1.45842,-0.131945,2.951,3.29436
1.468,-0.131945,2.951,3.29861
1.4906,-0.133107,2.977,3.33198
1.51336,-0.13427,3.003,3.36546
1.5368,-0.135477,3.03,3.40015
1.54664,-0.135477,3.03,3.40461
1.57034,-0.136684,3.057,3.43946
1.62369,-0.14044,3.141,3.53864
1.63388,-0.14044,3.141,3.54333
1.65925,-0.141737,3.17,3.5808
1.70114,-0.144419,3.23,3.65344
1.71163,-0.144419,3.23,3.65834
1.73811,-0.145761,3.26,3.69728
1.78302,-0.148622,3.324,3.77495
1.81108,-0.150053,3.356,3.81644
1.82197,-0.150053,3.356,3.82163
1.85088,-0.151529,3.389,3.86446
1.86188,-0.151529,3.389,3.86974
1.87288,-0.151529,3.389,3.87505
1.90278,-0.153049,3.423,3.9193
1.91389,-0.153049,3.423,3.92471
1.925,-0.153049,3.423,3.93014
1.91688,-0.151529,3.389,3.8965
1.92788,-0.151529,3.389,3.90192
1.93888,-0.151529,3.389,3.90737
1.9309,-0.150053,3.356,3.87474
1.92327,-0.148622,3.324,3.84318
1.93406,-0.148622,3.324,3.84859
1.94485,-0.148622,3.324,3.85403
1.93681,-0.147191,3.292,3.82233
1.9475,-0.147191,3.292,3.82775
1.9213,-0.144419,3.23,3.76101
1.91325,-0.143033,3.199,3.73022
1.92363,-0.143033,3.199,3.73556
1.91648,-0.141737,3.17,3.70701
1.89152,-0.139143,3.112,3.64441
1.90162,-0.139143,3.112,3.64966
1.87793,-0.136684,3.057,3.59034
1.87118,-0.135477,3.03,3.56379
1.88101,-0.135477,3.03,3.56896
1.85777,-0.133107,2.977,3.51163
1.83545,-0.130827,2.926,3.45651
1.84494,-0.130827,2.926,3.46156
1.82338,-0.128636,2.877,3.40858
1.80215,-0.12649,2.829,3.35663
1.81133,-0.12649,2.829,3.36157
1.79091,-0.124433,2.783,3.31179
1.78571,-0.123449,2.761,3.29046
1.76607,-0.121482,2.717,3.24282
1.77489,-0.121482,2.717,3.24763
1.75614,-0.119604,2.675,3.20218
1.73711,-0.117726,2.633,3.1566
1.74566,-0.117726,2.633,3.16131
1.74088,-0.116832,2.613,3.14199
1.73597,-0.115938,2.593,3.12261
1.74439,-0.115938,2.593,3.12729
1.72711,-0.114239,2.555,3.0861
1.7225,-0.113389,2.536,3.06776
-2.02986,-0.121333,2.926,3.56322
-2.0031,-0.120296,2.901,3.52742
-1.99369,-0.120296,2.901,3.52208
-1.98427,-0.120296,2.901,3.51676
-1.95852,-0.119301,2.877,3.48241
-1.94918,-0.119301,2.877,3.47716
-1.92366,-0.118305,2.853,3.44297
-1.9144,-0.118305,2.853,3.43781
-1.90514,-0.118305,2.853,3.43266
-1.87993,-0.11731,2.829,3.3987
-1.87075,-0.11731,2.829,3.39363
-1.86157,-0.11731,2.829,3.38857
-1.85238,-0.11731,2.829,3.38354
-1.8432,-0.11731,2.829,3.37852
nan,nan,nan,NaN
nan,nan,nan,NaN
-1.83106,-0.118305,2.853,3.39211
-1.8218,-0.118305,2.853,3.38712
-1.82778,-0.119301,2.877,3.41059
-1.81845,-0.119301,2.877,3.4056
-1.8242,-0.120296,2.901,3.42899
-1.81478,-0.120296,2.901,3.42399
-1.82093,-0.121333,2.926,3.44847
-1.81143,-0.121333,2.926,3.44347
-1.81733,-0.122369,2.951,3.46786
-1.82368,-0.123447,2.977,3.49336
-1.81401,-0.123447,2.977,3.48833
-1.82011,-0.124525,3.003,3.51373
-1.81036,-0.124525,3.003,3.50869
-1.80062,-0.124525,3.003,3.50367
-1.79087,-0.124525,3.003,3.49868
-1.79714,-0.125645,3.03,3.52511
-1.80323,-0.126765,3.057,3.55147
-1.79331,-0.126765,3.057,3.54644
nan,nan,nan,NaN
nan,nan,nan,NaN
nan,nan,nan,NaN
nan,nan,nan,NaN
nan,nan,nan,NaN
nan,nan,nan,NaN
nan,nan,nan,NaN
nan,nan,nan,NaN
nan,nan,nan,NaN
nan,nan,nan,NaN
nan,nan,nan,NaN
nan,nan,nan,NaN
nan,nan,nan,NaN
nan,nan,nan,NaN
nan,nan,nan,NaN
nan,nan,nan,NaN
nan,nan,nan,NaN
nan,nan,nan,NaN
nan,nan,nan,NaN
nan,nan,nan,NaN
nan,nan,nan,NaN
nan,nan,nan,NaN
nan,nan,nan,NaN
nan,nan,nan,NaN
nan,nan,nan,NaN
nan,nan,nan,NaN
-1.28439,-0.106736,2.574,2.87863
-1.27604,-0.106736,2.574,2.87492
-1.23961,-0.104373,2.517,2.80764
-1.22264,-0.103626,2.499,2.78399
-1.21453,-0.103626,2.499,2.78043
-1.19772,-0.10288,2.481,2.7569
-1.18104,-0.102133,2.463,2.73343
-1.17305,-0.102133,2.463,2.72999
-1.16505,-0.102133,2.463,2.72656
-1.1486,-0.101387,2.445,2.70326
-1.14067,-0.101387,2.445,2.69989
-1.12485,-0.100682,2.428,2.6778
-1.10915,-0.099977,2.411,2.65577
-1.09356,-0.0992721,2.394,2.63381
-1.08579,-0.0992721,2.394,2.6306
-1.07802,-0.0992721,2.394,2.6274
-1.07025,-0.0992721,2.394,2.62422
-1.06248,-0.0992721,2.394,2.62106
-1.04722,-0.0985671,2.377,2.59933
-1.03951,-0.0985671,2.377,2.59623
-1.03179,-0.0985671,2.377,2.59315
-1.02408,-0.0985671,2.377,2.59009
-1.01636,-0.0985671,2.377,2.58705
-1.00865,-0.0985671,2.377,2.58403
-1.00093,-0.0985671,2.377,2.58103
-0.993215,-0.0985671,2.377,2.57805
-0.992548,-0.0992721,2.394,2.5935
-0.984778,-0.0992721,2.394,2.59054
-0.977007,-0.0992721,2.394,2.58759
-0.969237,-0.0992721,2.394,2.58467
-0.961466,-0.0992721,2.394,2.58176
-0.953696,-0.0992721,2.394,2.57888
-0.952643,-0.099977,2.411,2.59431
-0.944817,-0.099977,2.411,2.59145
-0.936992,-0.099977,2.411,2.5886
-0.929166,-0.099977,2.411,2.58578
-0.921341,-0.099977,2.411,2.58298
-0.913515,-0.099977,2.411,2.5802
-0.90569,-0.099977,2.411,2.57744
-0.897864,-0.099977,2.411,2.5747
-0.890039,-0.099977,2.411,2.57198
-0.882213,-0.099977,2.411,2.56928
-0.874388,-0.099977,2.411,2.56661
-0.866562,-0.099977,2.411,2.56395
-0.858737,-0.099977,2.411,2.56132
-0.856911,-0.100682,2.428,2.57675
-0.84903,-0.100682,2.428,2.57414
-0.84115,-0.100682,2.428,2.57155
-0.833269,-0.100682,2.428,2.56898
-0.825388,-0.100682,2.428,2.56643
-0.817508,-0.100682,2.428,2.56391
-0.809627,-0.100682,2.428,2.56141
-0.796133,-0.099977,2.411,2.54101
-0.788307,-0.099977,2.411,2.53857
-0.780482,-0.099977,2.411,2.53615
-0.772656,-0.099977,2.411,2.53376
-0.764831,-0.099977,2.411,2.53138
-0.757005,-0.099977,2.411,2.52903
-0.74918,-0.099977,2.411,2.52669
-0.741354,-0.099977,2.411,2.52439
-0.733529,-0.099977,2.411,2.5221
-0.725703,-0.099977,2.411,2.51983
-0.717878,-0.099977,2.411,2.51759
-0.715059,-0.100682,2.428,2.53311
-0.707178,-0.100682,2.428,2.53089
-0.699297,-0.100682,2.428,2.5287
-0.691417,-0.100682,2.428,2.52654
-0.683536,-0.100682,2.428,2.52439
-0.675655,-0.100682,2.428,2.52227
-0.667775,-0.100682,2.428,2.52017
-0.664514,-0.101387,2.445,2.53572
-0.656578,-0.101387,2.445,2.53365
-0.648643,-0.101387,2.445,2.53161
-0.640707,-0.101387,2.445,2.52959
-0.632771,-0.101387,2.445,2.52759
-0.624835,-0.101387,2.445,2.52561
-0.616899,-0.101387,2.445,2.52366
-0.608963,-0.101387,2.445,2.52173
-0.601027,-0.101387,2.445,2.51983
-0.593092,-0.101387,2.445,2.51795
-0.585156,-0.101387,2.445,2.51609
-0.57722,-0.101387,2.445,2.51426
-0.569284,-0.101387,2.445,2.51245
-0.561348,-0.101387,2.445,2.51066
-0.553412,-0.101387,2.445,2.5089
-0.545476,-0.101387,2.445,2.50716
-0.541498,-0.102133,2.463,2.52389
-0.533504,-0.102133,2.463,2.52219
-0.525509,-0.102133,2.463,2.52051
-0.517515,-0.102133,2.463,2.51885
-0.509521,-0.102133,2.463,2.51722
-0.501526,-0.102133,2.463,2.51562
-0.493532,-0.102133,2.463,2.51404
-0.489086,-0.10288,2.481,2.53084
-0.481034,-0.10288,2.481,2.5293
-0.472981,-0.10288,2.481,2.52778
-0.464928,-0.10288,2.481,2.52628
-0.456875,-0.10288,2.481,2.52481
-0.448823,-0.10288,2.481,2.52337
-0.443968,-0.103626,2.499,2.54025
-0.435857,-0.103626,2.499,2.53884
-0.427746,-0.103626,2.499,2.53746
-0.419634,-0.103626,2.499,2.53611
-0.411523,-0.103626,2.499,2.53478
-0.403412,-0.103626,2.499,2.53347
-0.398148,-0.104373,2.517,2.55043
-0.389979,-0.104373,2.517,2.54917
-0.381809,-0.104373,2.517,2.54793
-0.37364,-0.104373,2.517,2.54672
-0.368229,-0.10516,2.536,2.56475
-0.359998,-0.10516,2.536,2.56358
-0.351766,-0.10516,2.536,2.56244
-0.343535,-0.10516,2.536,2.56132
-0.335304,-0.10516,2.536,2.56023
-0.327073,-0.10516,2.536,2.55917
-0.318842,-0.10516,2.536,2.55813
-0.31061,-0.10516,2.536,2.55711
-0.302379,-0.10516,2.536,2.55613
-0.294148,-0.10516,2.536,2.55517
-0.285917,-0.10516,2.536,2.55423
-0.275605,-0.104373,2.517,2.53419
-0.267435,-0.104373,2.517,2.53332
-0.259266,-0.104373,2.517,2.53247
-0.251096,-0.104373,2.517,2.53165
-0.24119,-0.103626,2.499,2.51275
-0.233078,-0.103626,2.499,2.51198
-0.224967,-0.103626,2.499,2.51124
-0.216856,-0.103626,2.499,2.51053
-0.208745,-0.103626,2.499,2.50984
-0.202079,-0.104373,2.517,2.52726
-0.192523,-0.103626,2.499,2.50855
-0.184412,-0.103626,2.499,2.50794
-0.1763,-0.103626,2.499,2.50735
-0.168189,-0.103626,2.499,2.5068
-0.160078,-0.103626,2.499,2.50627
-0.151967,-0.103626,2.499,2.50576
-0.143856,-0.103626,2.499,2.50528
-0.135745,-0.103626,2.499,2.50483
-0.127634,-0.103626,2.499,2.5044
-0.119523,-0.103626,2.499,2.504
-0.110609,-0.10288,2.481,2.48559
-0.102556,-0.10288,2.481,2.48525
-0.0945035,-0.10288,2.481,2.48493
-0.0864508,-0.10288,2.481,2.48464
-0.078398,-0.10288,2.481,2.48437
-0.0708557,-0.103626,2.499,2.50215
-0.0627446,-0.103626,2.499,2.50193
-0.0542399,-0.10288,2.481,2.48372
-0.0461872,-0.10288,2.481,2.48356
-0.0381345,-0.10288,2.481,2.48343
-0.0300818,-0.10288,2.481,2.48331
-0.0220291,-0.10288,2.481,2.48323
-0.0139764,-0.10288,2.481,2.48317
-0.00592366,-0.10288,2.481,2.48314
0.00212905,-0.10288,2.481,2.48313
0.0101818,-0.10288,2.481,2.48315
0.0182345,-0.10288,2.481,2.4832
0.0260965,-0.102133,2.463,2.46525
0.0340907,-0.102133,2.463,2.46535
0.042085,-0.102133,2.463,2.46548
0.0497133,-0.101387,2.445,2.44761
0.0576492,-0.101387,2.445,2.44778
0.0655851,-0.101387,2.445,2.44798
0.0735209,-0.101387,2.445,2.44821
0.0814568,-0.101387,2.445,2.44846
0.0893926,-0.101387,2.445,2.44873
0.0966518,-0.100682,2.428,2.43201
0.104532,-0.100682,2.428,2.43233
0.112413,-0.100682,2.428,2.43269
0.120294,-0.100682,2.428,2.43306
0.128175,-0.100682,2.428,2.43346
0.136055,-0.100682,2.428,2.43389
0.143936,-0.100682,2.428,2.43435
0.151817,-0.100682,2.428,2.43482
0.159697,-0.100682,2.428,2.43533
0.167578,-0.100682,2.428,2.43586
0.175459,-0.100682,2.428,2.43641
0.183339,-0.100682,2.428,2.43699
0.192559,-0.101387,2.445,2.45467
0.200495,-0.101387,2.445,2.4553
0.208431,-0.101387,2.445,2.45596
0.217959,-0.102133,2.463,2.47473
0.225954,-0.102133,2.463,2.47545
0.233948,-0.102133,2.463,2.47619
0.241942,-0.102133,2.463,2.47696
0.249936,-0.102133,2.463,2.47775
0.257931,-0.102133,2.463,2.47857
0.267868,-0.10288,2.481,2.49754
0.275921,-0.10288,2.481,2.49842
0.283974,-0.10288,2.481,2.49932
0.292027,-0.10288,2.481,2.50025
0.300079,-0.10288,2.481,2.5012
0.308132,-0.10288,2.481,2.50218
0.316185,-0.10288,2.481,2.50318
0.32659,-0.103626,2.499,2.52238
0.334701,-0.103626,2.499,2.52344
0.342812,-0.103626,2.499,2.52453
0.350923,-0.103626,2.499,2.52565
0.36162,-0.104373,2.517,2.54499
0.367146,-0.103626,2.499,2.52795
0.375257,-0.103626,2.499,2.52914
0.383368,-0.103626,2.499,2.53036
0.391479,-0.103626,2.499,2.5316
0.39959,-0.103626,2.499,2.53287
0.410638,-0.104373,2.517,2.55241
0.415812,-0.103626,2.499,2.53548
0.423923,-0.103626,2.499,2.53682
0.432035,-0.103626,2.499,2.53819
0.440146,-0.103626,2.499,2.53958
0.448257,-0.103626,2.499,2.541
0.456368,-0.103626,2.499,2.54244
0.464479,-0.103626,2.499,2.54391
0.47259,-0.103626,2.499,2.5454
0.480701,-0.103626,2.499,2.54692
0.488812,-0.103626,2.499,2.54847
0.496924,-0.103626,2.499,2.55003
0.505035,-0.103626,2.499,2.55163
0.513146,-0.103626,2.499,2.55324
0.525012,-0.104373,2.517,2.57329
0.533181,-0.104373,2.517,2.57497
0.541351,-0.104373,2.517,2.57667
0.54952,-0.104373,2.517,2.5784
0.55769,-0.104373,2.517,2.58016
0.565859,-0.104373,2.517,2.58193
0.574029,-0.104373,2.517,2.58374
0.582199,-0.104373,2.517,2.58556
0.590368,-0.104373,2.517,2.58742
0.598538,-0.104373,2.517,2.58929
0.606707,-0.104373,2.517,2.59119
0.619518,-0.10516,2.536,2.61269
0.627749,-0.10516,2.536,2.61466
0.635981,-0.10516,2.536,2.61664
0.644212,-0.10516,2.536,2.61866
0.647555,-0.104373,2.517,2.60106
0.655725,-0.104373,2.517,2.60311
0.663894,-0.104373,2.517,2.60518
0.677137,-0.10516,2.536,2.62695
0.685368,-0.10516,2.536,2.62908
0.693599,-0.10516,2.536,2.63124
0.70183,-0.10516,2.536,2.63342
0.710062,-0.10516,2.536,2.63563
0.718293,-0.10516,2.536,2.63786
0.731967,-0.105948,2.555,2.65989
0.74026,-0.105948,2.555,2.66219
0.748553,-0.105948,2.555,2.6645
0.751218,-0.10516,2.536,2.64701
0.759449,-0.10516,2.536,2.64936
0.76768,-0.10516,2.536,2.65173
0.775912,-0.10516,2.536,2.65413
0.784143,-0.10516,2.536,2.65655
0.792374,-0.10516,2.536,2.65899
0.794607,-0.104373,2.517,2.64151
0.802777,-0.104373,2.517,2.64398
0.810946,-0.104373,2.517,2.64647
0.819116,-0.104373,2.517,2.64899
0.821369,-0.103626,2.499,2.63256
0.82948,-0.103626,2.499,2.6351
0.837591,-0.103626,2.499,2.63767
0.845702,-0.103626,2.499,2.64026
0.847664,-0.10288,2.481,2.62383
0.855716,-0.10288,2.481,2.62644
0.857502,-0.102133,2.463,2.61
0.865497,-0.102133,2.463,2.61264
0.873491,-0.102133,2.463,2.6153
0.875043,-0.101387,2.445,2.59885
0.87684,-0.100682,2.428,2.58344
0.88472,-0.100682,2.428,2.58613
0.886351,-0.099977,2.411,2.57071
0.887872,-0.0992721,2.394,2.55527
0.889282,-0.0985671,2.377,2.53982
0.896997,-0.0985671,2.377,2.54253
0.898623,-0.0979037,2.361,2.52813
0.900144,-0.0972402,2.345,2.51371
0.907756,-0.0972402,2.345,2.51645
0.909121,-0.0965767,2.329,2.50201
0.916681,-0.0965767,2.329,2.50477
0.92424,-0.0965767,2.329,2.50755
0.925398,-0.0959132,2.313,2.4931
0.932905,-0.0959132,2.313,2.49589
0.940413,-0.0959132,2.313,2.49871
0.94792,-0.0959132,2.313,2.50154
0.955428,-0.0959132,2.313,2.5044
0.962935,-0.0959132,2.313,2.50727
0.970443,-0.0959132,2.313,2.51016
0.984715,-0.0965767,2.329,2.53046
1.01272,-0.0985671,2.377,2.58562
1.04963,-0.101387,2.445,2.66271
1.05757,-0.101387,2.445,2.66585
1.08904,-0.103626,2.499,2.72796
1.13008,-0.106736,2.574,2.81317
1.13843,-0.106736,2.574,2.81654
1.18243,-0.110053,2.654,2.90757
1.20989,-0.111795,2.696,2.95715
1.23808,-0.113578,2.739,3.00797
1.24697,-0.113578,2.739,3.01164
1.28658,-0.116356,2.806,3.08909
1.31739,-0.118305,2.853,3.1447
1.32665,-0.118305,2.853,3.14859
1.33591,-0.118305,2.853,3.1525
1.34517,-0.118305,2.853,3.15644
1.35443,-0.118305,2.853,3.16039
1.36369,-0.118305,2.853,3.16437
1.37295,-0.118305,2.853,3.16837
1.39384,-0.119301,2.877,3.19908
1.40317,-0.119301,2.877,3.20316
1.42429,-0.120296,2.901,3.23402
1.44607,-0.121333,2.926,3.26608
1.45556,-0.121333,2.926,3.2703
1.47758,-0.122369,2.951,3.30252
1.50026,-0.123447,2.977,3.33595
1.52311,-0.124525,3.003,3.36948
1.53285,-0.124525,3.003,3.37389
1.57034,-0.126765,3.057,3.43908
1.60869,-0.129045,3.112,3.50558
1.6188,-0.129045,3.112,3.51023
1.64408,-0.130248,3.141,3.54765
1.68482,-0.132653,3.199,3.61798
1.6952,-0.132653,3.199,3.62283
1.70558,-0.132653,3.199,3.6277
1.74869,-0.135182,3.26,3.70186
1.77654,-0.136509,3.292,3.74326
1.78722,-0.136509,3.292,3.74834
1.81538,-0.137836,3.324,3.78993
1.84375,-0.139163,3.356,3.83165
1.85465,-0.139163,3.356,3.8369
1.86554,-0.139163,3.356,3.84218
1.87643,-0.139163,3.356,3.84748
1.88732,-0.139163,3.356,3.8528
1.89822,-0.139163,3.356,3.85815
1.90911,-0.139163,3.356,3.86352
1.92,-0.139163,3.356,3.86892
1.91248,-0.137836,3.324,3.83739
1.90476,-0.136509,3.292,3.80579
1.91544,-0.136509,3.292,3.81114
1.92613,-0.136509,3.292,3.81653
1.93681,-0.136509,3.292,3.82193
1.9475,-0.136509,3.292,3.82735
1.9213,-0.133939,3.23,3.76062
1.91325,-0.132653,3.199,3.72984
1.92363,-0.132653,3.199,3.73518
1.91648,-0.13145,3.17,3.70663
1.89152,-0.129045,3.112,3.64404
1.90162,-0.129045,3.112,3.64929
1.87793,-0.126765,3.057,3.58998
1.87118,-0.125645,3.03,3.56343
1.88101,-0.125645,3.03,3.5686
1.85777,-0.123447,2.977,3.51128
1.83545,-0.121333,2.926,3.45616
1.84494,-0.121333,2.926,3.46122
1.82338,-0.119301,2.877,3.40824
1.80215,-0.11731,2.829,3.3563
1.81133,-0.11731,2.829,3.36124
1.79091,-0.115403,2.783,3.31146
1.78571,-0.11449,2.761,3.29014
1.76607,-0.112666,2.717,3.2425
1.77489,-0.112666,2.717,3.24731
1.75614,-0.110924,2.675,3.20187
1.73711,-0.109183,2.633,3.15629
1.74566,-0.109183,2.633,3.161
1.74088,-0.108353,2.613,3.14168
1.73597,-0.107524,2.593,3.12231
1.74439,-0.107524,2.593,3.12699
1.72711,-0.105948,2.555,3.0858
1.7225,-0.10516,2.536,3.06747
-2.02986,-0.111838,2.926,3.56291
-2.0031,-0.110883,2.901,3.52711
-1.99369,-0.110883,2.901,3.52177
-1.98427,-0.110883,2.901,3.51645
-1.95852,-0.109965,2.877,3.4821
-1.94918,-0.109965,2.877,3.47685
-1.92366,-0.109048,2.853,3.44267
-1.9144,-0.109048,2.853,3.4375
-1.90514,-0.109048,2.853,3.43235
-1.87993,-0.108131,2.829,3.39839
-1.85554,-0.107251,2.806,3.36573
-1.84643,-0.107251,2.806,3.36072
-1.83732,-0.107251,2.806,3.35573
-1.82822,-0.107251,2.806,3.35075
-1.81911,-0.107251,2.806,3.34579
nan,nan,nan,NaN
-1.83106,-0.109048,2.853,3.39179
-1.8218,-0.109048,2.853,3.3868
-1.82778,-0.109965,2.877,3.41028
-1.81845,-0.109965,2.877,3.40529
-1.8242,-0.110883,2.901,3.42867
-1.81478,-0.110883,2.901,3.42367
-1.82093,-0.111838,2.926,3.44815
-1.81143,-0.111838,2.926,3.44315
-1.80193,-0.111838,2.926,3.43816
-1.82368,-0.113787,2.977,3.49303
-1.81401,-0.113787,2.977,3.488
-1.80435,-0.113787,2.977,3.48298
-1.79469,-0.113787,2.977,3.47799
-1.78503,-0.113787,2.977,3.47301
-1.79087,-0.114781,3.003,3.49834
-1.78112,-0.114781,3.003,3.49336
-1.7873,-0.115813,3.03,3.51977
-1.77747,-0.115813,3.03,3.51478
-1.76763,-0.115813,3.03,3.50982
nan,nan,nan,NaN
nan,nan,nan,NaN
nan,nan,nan,NaN
nan,nan,nan,NaN
nan,nan,nan,NaN
nan,nan,nan,NaN
nan,nan,nan,NaN
nan,nan,nan,NaN
nan,nan,nan,NaN
nan,nan,nan,NaN
nan,nan,nan,NaN
nan,nan,nan,NaN
nan,nan,nan,NaN
nan,nan,nan,NaN
nan,nan,nan,NaN
nan,nan,nan,NaN
nan,nan,nan,NaN
nan,nan,nan,NaN
nan,nan,nan,NaN
nan,nan,nan,NaN
nan,nan,nan,NaN
nan,nan,nan,NaN
nan,nan,nan,NaN
nan,nan,nan,NaN
nan,nan,nan,NaN
-1.28439,-0.0983839,2.574,2.87834
-1.27604,-0.0983839,2.574,2.87462
-1.23961,-0.0962052,2.517,2.80734
-1.22264,-0.0955173,2.499,2.7837
-1.21453,-0.0955173,2.499,2.78014
-1.18904,-0.0941413,2.463,2.73661
-1.18104,-0.0941413,2.463,2.73315
-1.17305,-0.0941413,2.463,2.7297
-1.16505,-0.0941413,2.463,2.72628
-1.14062,-0.0928035,2.428,2.68418
-1.13274,-0.0928035,2.428,2.68084
-1.11698,-0.0921537,2.411,2.65877
-1.10133,-0.0915039,2.394,2.63677
-1.09356,-0.0915039,2.394,2.63353
-1.08579,-0.0915039,2.394,2.63031
-1.07802,-0.0915039,2.394,2.62712
-1.07025,-0.0915039,2.394,2.62394
-1.06248,-0.0915039,2.394,2.62078
-1.04722,-0.0908541,2.377,2.59905
-1.03951,-0.0908541,2.377,2.59595
-1.03179,-0.0908541,2.377,2.59287
-1.02408,-0.0908541,2.377,2.58981
-1.02363,-0.0915039,2.394,2.60527
-1.01586,-0.0915039,2.394,2.60223
-1.00809,-0.0915039,2.394,2.5992
-1.00032,-0.0915039,2.394,2.5962
-0.992548,-0.0915039,2.394,2.59321
-0.99177,-0.0921537,2.411,2.60864
-0.983945,-0.0921537,2.411,2.60568
-0.976119,-0.0921537,2.411,2.60273
-0.968294,-0.0921537,2.411,2.59981
-0.960468,-0.0921537,2.411,2.5969
-0.952643,-0.0921537,2.411,2.59402
-0.944817,-0.0921537,2.411,2.59116
-0.936992,-0.0921537,2.411,2.58831
-0.929166,-0.0921537,2.411,2.58549
-0.921341,-0.0921537,2.411,2.58269
-0.913515,-0.0921537,2.411,2.57991
-0.90569,-0.0921537,2.411,2.57715
-0.897864,-0.0921537,2.411,2.57441
-0.890039,-0.0921537,2.411,2.57169
-0.882213,-0.0921537,2.411,2.56899
-0.874388,-0.0921537,2.411,2.56631
-0.866562,-0.0921537,2.411,2.56366
-0.858737,-0.0921537,2.411,2.56102
-0.856911,-0.0928035,2.428,2.57645
-0.84903,-0.0928035,2.428,2.57384
-0.84115,-0.0928035,2.428,2.57125
-0.833269,-0.0928035,2.428,2.56868
-0.825388,-0.0928035,2.428,2.56614
-0.817508,-0.0928035,2.428,2.56361
-0.809627,-0.0928035,2.428,2.56111
-0.801746,-0.0928035,2.428,2.55863
-0.793866,-0.0928035,2.428,2.55617
-0.785985,-0.0928035,2.428,2.55374
-0.772656,-0.0921537,2.411,2.53346
-0.764831,-0.0921537,2.411,2.53108
-0.757005,-0.0921537,2.411,2.52873
-0.74918,-0.0921537,2.411,2.5264
-0.741354,-0.0921537,2.411,2.52409
-0.733529,-0.0921537,2.411,2.5218
-0.725703,-0.0921537,2.411,2.51954
-0.722939,-0.0928035,2.428,2.53504
-0.715059,-0.0928035,2.428,2.53281
-0.707178,-0.0928035,2.428,2.53059
-0.699297,-0.0928035,2.428,2.5284
-0.691417,-0.0928035,2.428,2.52623
-0.683536,-0.0928035,2.428,2.52409
-0.675655,-0.0928035,2.428,2.52197
-0.67245,-0.0934533,2.445,2.53751
-0.664514,-0.0934533,2.445,2.53542
-0.656578,-0.0934533,2.445,2.53335
-0.648643,-0.0934533,2.445,2.5313
-0.645424,-0.0941413,2.463,2.5479
-0.637429,-0.0941413,2.463,2.54589
-0.629435,-0.0941413,2.463,2.5439
-0.621441,-0.0941413,2.463,2.54193
-0.613446,-0.0941413,2.463,2.53999
-0.605452,-0.0941413,2.463,2.53807
-0.593092,-0.0934533,2.445,2.51764
-0.585156,-0.0934533,2.445,2.51578
-0.57722,-0.0934533,2.445,2.51395
-0.569284,-0.0934533,2.445,2.51214
-0.561348,-0.0934533,2.445,2.51035
-0.553412,-0.0934533,2.445,2.50859
-0.549492,-0.0941413,2.463,2.52531
-0.541498,-0.0941413,2.463,2.52358
-0.533504,-0.0941413,2.463,2.52188
-0.525509,-0.0941413,2.463,2.5202
-0.517515,-0.0941413,2.463,2.51854
-0.509521,-0.0941413,2.463,2.51691
-0.501526,-0.0941413,2.463,2.51531
-0.497139,-0.0948293,2.481,2.53209
-0.489086,-0.0948293,2.481,2.53053
-0.481034,-0.0948293,2.481,2.52898
-0.472981,-0.0948293,2.481,2.52746
-0.464928,-0.0948293,2.481,2.52597
-0.456875,-0.0948293,2.481,2.5245
-0.452079,-0.0955173,2.499,2.54136
-0.443968,-0.0955173,2.499,2.53993
-0.435857,-0.0955173,2.499,2.53852
-0.427746,-0.0955173,2.499,2.53714
-0.419634,-0.0955173,2.499,2.53579
-0.411523,-0.0955173,2.499,2.53446
-0.403412,-0.0955173,2.499,2.53315
-0.398148,-0.0962052,2.517,2.55011
-0.389979,-0.0962052,2.517,2.54885
-0.381809,-0.0962052,2.517,2.54761
-0.37364,-0.0962052,2.517,2.5464
-0.368229,-0.0969315,2.536,2.56443
-0.359998,-0.0969315,2.536,2.56326
-0.351766,-0.0969315,2.536,2.56211
-0.343535,-0.0969315,2.536,2.561
-0.337816,-0.0976577,2.555,2.57909
-0.329523,-0.0976577,2.555,2.57801
-0.318842,-0.0969315,2.536,2.5578
-0.31061,-0.0969315,2.536,2.55679
-0.302379,-0.0969315,2.536,2.5558
-0.294148,-0.0969315,2.536,2.55484
-0.285917,-0.0969315,2.536,2.55391
-0.277685,-0.0969315,2.536,2.553
-0.267435,-0.0962052,2.517,2.533
-0.259266,-0.0962052,2.517,2.53215
-0.251096,-0.0962052,2.517,2.53132
-0.242927,-0.0962052,2.517,2.53053
-0.233078,-0.0955173,2.499,2.51166
-0.224967,-0.0955173,2.499,2.51092
-0.216856,-0.0955173,2.499,2.51021
-0.208745,-0.0955173,2.499,2.50952
-0.202079,-0.0962052,2.517,2.52693
-0.192523,-0.0955173,2.499,2.50822
-0.184412,-0.0955173,2.499,2.50761
-0.1763,-0.0955173,2.499,2.50703
-0.168189,-0.0955173,2.499,2.50647
-0.160078,-0.0955173,2.499,2.50594
-0.151967,-0.0955173,2.499,2.50544
-0.143856,-0.0955173,2.499,2.50496
-0.135745,-0.0955173,2.499,2.50451
-0.127634,-0.0955173,2.499,2.50408
-0.119523,-0.0955173,2.499,2.50368
-0.110609,-0.0948293,2.481,2.48527
-0.102556,-0.0948293,2.481,2.48493
-0.0945035,-0.0948293,2.481,2.48461
-0.0864508,-0.0948293,2.481,2.48432
-0.078398,-0.0948293,2.481,2.48405
-0.0708557,-0.0955173,2.499,2.50183
-0.0627446,-0.0955173,2.499,2.50161
-0.0542399,-0.0948293,2.481,2.4834
-0.0461872,-0.0948293,2.481,2.48324
-0.0381345,-0.0948293,2.481,2.4831
-0.0300818,-0.0948293,2.481,2.48299
-0.0220291,-0.0948293,2.481,2.48291
-0.0139764,-0.0948293,2.481,2.48285
-0.00592366,-0.0948293,2.481,2.48282
0.0021136,-0.0941413,2.463,2.4648
0.0101079,-0.0941413,2.463,2.46482
0.0181022,-0.0941413,2.463,2.46486
0.0260965,-0.0941413,2.463,2.46494
0.0340907,-0.0941413,2.463,2.46503
0.042085,-0.0941413,2.463,2.46516
0.0497133,-0.0934533,2.445,2.44729
0.0576492,-0.0934533,2.445,2.44746
0.0655851,-0.0934533,2.445,2.44766
0.0735209,-0.0934533,2.445,2.44789
0.0814568,-0.0934533,2.445,2.44814
0.0893926,-0.0934533,2.445,2.44842
0.0966518,-0.0928035,2.428,2.43169
0.104532,-0.0928035,2.428,2.43202
0.112413,-0.0928035,2.428,2.43237
0.120294,-0.0928035,2.428,2.43275
0.128175,-0.0928035,2.428,2.43315
0.136055,-0.0928035,2.428,2.43358
0.143936,-0.0928035,2.428,2.43403
0.151817,-0.0928035,2.428,2.43451
0.159697,-0.0928035,2.428,2.43502
0.167578,-0.0928035,2.428,2.43555
0.175459,-0.0928035,2.428,2.4361
0.183339,-0.0928035,2.428,2.43668
0.192559,-0.0934533,2.445,2.45435
0.200495,-0.0934533,2.445,2.45499
0.208431,-0.0934533,2.445,2.45565
0.217959,-0.0941413,2.463,2.47442
0.225954,-0.0941413,2.463,2.47513
0.233948,-0.0941413,2.463,2.47588
0.241942,-0.0941413,2.463,2.47664
0.249936,-0.0941413,2.463,2.47744
0.257931,-0.0941413,2.463,2.47826
0.267868,-0.0948293,2.481,2.49722
0.275921,-0.0948293,2.481,2.4981
0.283974,-0.0948293,2.481,2.499
0.292027,-0.0948293,2.481,2.49993
0.300079,-0.0948293,2.481,2.50088
0.308132,-0.0948293,2.481,2.50186
0.316185,-0.0948293,2.481,2.50286
0.32659,-0.0955173,2.499,2.52206
0.334701,-0.0955173,2.499,2.52312
0.342812,-0.0955173,2.499,2.52421
0.350923,-0.0955173,2.499,2.52533
0.359034,-0.0955173,2.499,2.52647
0.367146,-0.0955173,2.499,2.52763
0.37796,-0.0962052,2.517,2.54704
0.386129,-0.0962052,2.517,2.54826
0.394299,-0.0962052,2.517,2.54951
0.402468,-0.0962052,2.517,2.55079
0.410638,-0.0962052,2.517,2.55209
0.415812,-0.0955173,2.499,2.53516
0.423923,-0.0955173,2.499,2.5365
0.432035,-0.0955173,2.499,2.53787
0.440146,-0.0955173,2.499,2.53926
0.448257,-0.0955173,2.499,2.54068
0.456368,-0.0955173,2.499,2.54212
0.464479,-0.0955173,2.499,2.54359
0.47259,-0.0955173,2.499,2.54509
0.484164,-0.0962052,2.517,2.56495
0.492333,-0.0962052,2.517,2.5665
0.500503,-0.0962052,2.517,2.56808
0.508672,-0.0962052,2.517,2.56969
0.516842,-0.0962052,2.517,2.57132
0.525012,-0.0962052,2.517,2.57297
0.533181,-0.0962052,2.517,2.57465
0.541351,-0.0962052,2.517,2.57636
0.54952,-0.0962052,2.517,2.57808
0.55769,-0.0962052,2.517,2.57984
0.565859,-0.0962052,2.517,2.58162
0.574029,-0.0962052,2.517,2.58342
0.582199,-0.0962052,2.517,2.58525
0.590368,-0.0962052,2.517,2.5871
0.598538,-0.0962052,2.517,2.58898
0.606707,-0.0962052,2.517,2.59088
0.619518,-0.0969315,2.536,2.61237
0.627749,-0.0969315,2.536,2.61434
0.635981,-0.0969315,2.536,2.61633
0.644212,-0.0969315,2.536,2.61834
0.652443,-0.0969315,2.536,2.62038
0.660674,-0.0969315,2.536,2.62244
0.668906,-0.0969315,2.536,2.62452
0.677137,-0.0969315,2.536,2.62663
0.685368,-0.0969315,2.536,2.62877
0.693599,-0.0969315,2.536,2.63093
0.70183,-0.0969315,2.536,2.63311
0.710062,-0.0969315,2.536,2.63531
0.718293,-0.0969315,2.536,2.63754
0.731967,-0.0976577,2.555,2.65957
0.74026,-0.0976577,2.555,2.66187
0.748553,-0.0976577,2.555,2.66419
0.751218,-0.0969315,2.536,2.6467
0.759449,-0.0969315,2.536,2.64905
0.76768,-0.0969315,2.536,2.65142
0.775912,-0.0969315,2.536,2.65381
0.784143,-0.0969315,2.536,2.65623
0.792374,-0.0969315,2.536,2.65867
0.800605,-0.0969315,2.536,2.66114
0.802777,-0.0962052,2.517,2.64367
0.810946,-0.0962052,2.517,2.64616
0.819116,-0.0962052,2.517,2.64868
0.827285,-0.0962052,2.517,2.65122
0.82948,-0.0955173,2.499,2.6348
0.837591,-0.0955173,2.499,2.63736
0.845702,-0.0955173,2.499,2.63995
0.847664,-0.0948293,2.481,2.62353
0.855716,-0.0948293,2.481,2.62614
0.863769,-0.0948293,2.481,2.62877
0.865497,-0.0941413,2.463,2.61234
0.873491,-0.0941413,2.463,2.615
0.875043,-0.0934533,2.445,2.59855
0.87684,-0.0928035,2.428,2.58315
0.88472,-0.0928035,2.428,2.58583
0.886351,-0.0921537,2.411,2.57041
0.887872,-0.0915039,2.394,2.55498
0.895642,-0.0915039,2.394,2.55769
0.903413,-0.0915039,2.394,2.56042
0.898623,-0.0902426,2.361,2.52784
0.906286,-0.0902426,2.361,2.53058
0.913949,-0.0902426,2.361,2.53333
0.915367,-0.089631,2.345,2.51892
0.916681,-0.0890195,2.329,2.50449
0.92424,-0.0890195,2.329,2.50727
0.925398,-0.0884079,2.313,2.49282
0.932905,-0.0884079,2.313,2.49562
0.940413,-0.0884079,2.313,2.49843
0.94792,-0.0884079,2.313,2.50127
0.955428,-0.0884079,2.313,2.50412
0.962935,-0.0884079,2.313,2.507
0.970443,-0.0884079,2.313,2.50989
0.99148,-0.089631,2.345,2.54757
1.01272,-0.0908541,2.377,2.58534
1.04963,-0.0934533,2.445,2.66242
1.05757,-0.0934533,2.445,2.66556
1.08904,-0.0955173,2.499,2.72766
1.13008,-0.0983839,2.574,2.81287
1.13843,-0.0983839,2.574,2.81623
1.18243,-0.101442,2.654,2.90726
1.20989,-0.103047,2.696,2.95683
1.23808,-0.104691,2.739,3.00764
1.24697,-0.104691,2.739,3.01131
1.28658,-0.107251,2.806,3.08876
1.31739,-0.109048,2.853,3.14436
1.32665,-0.109048,2.853,3.14825
1.33591,-0.109048,2.853,3.15217
1.34517,-0.109048,2.853,3.1561
1.35443,-0.109048,2.853,3.16006
1.36369,-0.109048,2.853,3.16404
1.37295,-0.109048,2.853,3.16804
1.39384,-0.109965,2.877,3.19875
1.40317,-0.109965,2.877,3.20283
1.42429,-0.110883,2.901,3.23368
1.44607,-0.111838,2.926,3.26574
1.45556,-0.111838,2.926,3.26996
1.47758,-0.112794,2.951,3.30218
1.50026,-0.113787,2.977,3.3356
1.52311,-0.114781,3.003,3.36913
1.53285,-0.114781,3.003,3.37355
1.57034,-0.116845,3.057,3.43873
1.60869,-0.118947,3.112,3.50522
1.6188,-0.118947,3.112,3.50987
1.64408,-0.120056,3.141,3.54729
1.68482,-0.122273,3.199,3.61762
1.6952,-0.122273,3.199,3.62247
1.70558,-0.122273,3.199,3.62734
1.74869,-0.124604,3.26,3.70149
1.77654,-0.125827,3.292,3.74288
1.78722,-0.125827,3.292,3.74797
1.81538,-0.127051,3.324,3.78956
1.84375,-0.128274,3.356,3.83127
1.85465,-0.128274,3.356,3.83652
1.86554,-0.128274,3.356,3.8418
1.87643,-0.128274,3.356,3.8471
1.88732,-0.128274,3.356,3.85243
1.89822,-0.128274,3.356,3.85777
1.90911,-0.128274,3.356,3.86315
1.92,-0.128274,3.356,3.86854
1.91248,-0.127051,3.324,3.83702
1.90476,-0.125827,3.292,3.80542
1.91544,-0.125827,3.292,3.81078
1.92613,-0.125827,3.292,3.81616
1.90034,-0.123458,3.23,3.74959
1.91082,-0.123458,3.23,3.75491
1.9213,-0.123458,3.23,3.76026
1.8959,-0.121164,3.17,3.69568
1.90619,-0.121164,3.17,3.70097
1.88142,-0.118947,3.112,3.63846
1.8745,-0.117877,3.084,3.61091
1.88451,-0.117877,3.084,3.61612
1.86134,-0.115813,3.03,3.55794
1.85451,-0.114781,3.003,3.53134
1.86425,-0.114781,3.003,3.53647
1.84155,-0.112794,2.951,3.48029
1.81976,-0.110883,2.901,3.42631
1.82918,-0.110883,2.901,3.43133
1.80817,-0.109048,2.853,3.3795
1.78749,-0.107251,2.806,3.3287
1.7966,-0.107251,2.806,3.3336
1.77675,-0.105531,2.761,3.28498
1.77148,-0.104691,2.739,3.26362
1.75242,-0.103047,2.696,3.21714
1.76117,-0.103047,2.696,3.22192
1.74235,-0.101442,2.654,3.17644
1.73711,-0.100639,2.633,3.15601
1.74566,-0.100639,2.633,3.16072
1.72755,-0.0991101,2.593,3.11736
1.72325,-0.0983839,2.574,3.09915
1.7316,-0.0983839,2.574,3.10381
1.71427,-0.0969315,2.536,3.06258
1.7096,-0.0962052,2.517,3.04422
-2.02986,-0.102344,2.926,3.56262
-2.0031,-0.101469,2.901,3.52683
-1.99369,-0.101469,2.901,3.52149
-1.96786,-0.10063,2.877,3.48708
-1.94218,-0.0997904,2.853,3.45277
-1.93292,-0.0997904,2.853,3.44757
-1.90748,-0.0989509,2.829,3.41343
-1.89829,-0.0989509,2.829,3.40831
-1.88911,-0.0989509,2.829,3.4032
-1.86465,-0.0981465,2.806,3.37049
-1.85554,-0.0981465,2.806,3.36546
-1.8313,-0.097342,2.783,3.3329
-1.82226,-0.097342,2.783,3.32794
-1.81323,-0.097342,2.783,3.32301
-1.81911,-0.0981465,2.806,3.34551
nan,nan,nan,NaN
nan,nan,nan,NaN
nan,nan,nan,NaN
nan,nan,nan,NaN
nan,nan,nan,NaN
nan,nan,nan,NaN
-1.81478,-0.101469,2.901,3.42338
-1.80537,-0.101469,2.901,3.4184
-1.79595,-0.101469,2.901,3.41344
-1.80193,-0.102344,2.926,3.43786
-1.80775,-0.103218,2.951,3.46223
-1.79817,-0.103218,2.951,3.45724
-1.80435,-0.104128,2.977,3.48268
-1.79469,-0.104128,2.977,3.47768
-1.78503,-0.104128,2.977,3.47271
-1.79087,-0.105037,3.003,3.49804
-1.78112,-0.105037,3.003,3.49306
-1.7873,-0.105981,3.03,3.51946
-1.77747,-0.105981,3.03,3.51447
-1.76763,-0.105981,3.03,3.50951
-1.77346,-0.106926,3.057,3.5358
-1.76354,-0.106926,3.057,3.53083
nan,nan,nan,NaN
nan,nan,nan,NaN
nan,nan,nan,NaN
nan,nan,nan,NaN
nan,nan,nan,NaN
nan,nan,nan,NaN
nan,nan,nan,NaN
nan,nan,nan,NaN
nan,nan,nan,NaN
nan,nan,nan,NaN
nan,nan,nan,NaN
nan,nan,nan,NaN
nan,nan,nan,NaN
nan,nan,nan,NaN
nan,nan,nan,NaN
nan,nan,nan,NaN
nan,nan,nan,NaN
nan,nan,nan,NaN
nan,nan,nan,NaN
nan,nan,nan,NaN
nan,nan,nan,NaN
nan,nan,nan,NaN
nan,nan,nan,NaN
nan,nan,nan,NaN
nan,nan,nan,NaN
-1.24897,-0.0887026,2.536,2.82827
-1.22264,-0.0874084,2.499,2.78343
-1.21453,-0.0874084,2.499,2.77988
-1.18904,-0.0861492,2.463,2.73635
-1.18104,-0.0861492,2.463,2.73288
-1.17305,-0.0861492,2.463,2.72944
-1.15654,-0.0855196,2.445,2.70609
-1.14062,-0.084925,2.428,2.68392
-1.13274,-0.084925,2.428,2.68058
-1.11698,-0.0843304,2.411,2.65851
-1.10133,-0.0837358,2.394,2.63651
-1.0858,-0.0831412,2.377,2.61457
-1.07808,-0.0831412,2.377,2.61138
-1.07037,-0.0831412,2.377,2.6082
-1.06265,-0.0831412,2.377,2.60505
-1.06248,-0.0837358,2.394,2.62052
-1.05471,-0.0837358,2.394,2.61738
-1.03951,-0.0831412,2.377,2.59569
-1.03179,-0.0831412,2.377,2.59261
-1.02408,-0.0831412,2.377,2.58955
-1.02363,-0.0837358,2.394,2.60501
-1.01586,-0.0837358,2.394,2.60196
-1.00809,-0.0837358,2.394,2.59894
-1.00032,-0.0837358,2.394,2.59594
-0.992548,-0.0837358,2.394,2.59295
-0.99177,-0.0843304,2.411,2.60838
-0.983945,-0.0843304,2.411,2.60541
-0.976119,-0.0843304,2.411,2.60247
-0.968294,-0.0843304,2.411,2.59954
-0.960468,-0.0843304,2.411,2.59664
-0.952643,-0.0843304,2.411,2.59375
-0.944817,-0.0843304,2.411,2.59089
-0.936992,-0.0843304,2.411,2.58805
-0.929166,-0.0843304,2.411,2.58522
-0.921341,-0.0843304,2.411,2.58242
-0.913515,-0.0843304,2.411,2.57964
-0.90569,-0.0843304,2.411,2.57688
-0.897864,-0.0843304,2.411,2.57414
-0.890039,-0.0843304,2.411,2.57142
-0.882213,-0.0843304,2.411,2.56872
-0.874388,-0.0843304,2.411,2.56605
-0.872672,-0.084925,2.428,2.58146
-0.864792,-0.084925,2.428,2.57881
-0.856911,-0.084925,2.428,2.57618
-0.84903,-0.084925,2.428,2.57357
-0.84115,-0.084925,2.428,2.57098
-0.833269,-0.084925,2.428,2.56841
-0.825388,-0.084925,2.428,2.56587
-0.817508,-0.084925,2.428,2.56334
-0.809627,-0.084925,2.428,2.56084
-0.801746,-0.084925,2.428,2.55836
-0.793866,-0.084925,2.428,2.5559
-0.785985,-0.084925,2.428,2.55346
-0.778104,-0.084925,2.428,2.55105
-0.764831,-0.0843304,2.411,2.53081
-0.757005,-0.0843304,2.411,2.52846
-0.74918,-0.0843304,2.411,2.52612
-0.741354,-0.0843304,2.411,2.52381
-0.733529,-0.0843304,2.411,2.52153
-0.725703,-0.0843304,2.411,2.51926
-0.722939,-0.084925,2.428,2.53477
-0.715059,-0.084925,2.428,2.53253
-0.707178,-0.084925,2.428,2.53032
-0.699297,-0.084925,2.428,2.52812
-0.691417,-0.084925,2.428,2.52596
-0.683536,-0.084925,2.428,2.52381
-0.675655,-0.084925,2.428,2.52169
-0.67245,-0.0855196,2.445,2.53723
-0.664514,-0.0855196,2.445,2.53514
-0.656578,-0.0855196,2.445,2.53307
-0.653418,-0.0861492,2.463,2.54966
-0.645424,-0.0861492,2.463,2.54762
-0.637429,-0.0861492,2.463,2.54561
-0.629435,-0.0861492,2.463,2.54362
-0.621441,-0.0861492,2.463,2.54165
-0.613446,-0.0861492,2.463,2.53971
-0.605452,-0.0861492,2.463,2.53779
-0.597458,-0.0861492,2.463,2.53589
-0.589464,-0.0861492,2.463,2.53402
-0.57722,-0.0855196,2.445,2.51367
-0.569284,-0.0855196,2.445,2.51186
-0.561348,-0.0855196,2.445,2.51007
-0.553412,-0.0855196,2.445,2.50831
-0.549492,-0.0861492,2.463,2.52502
-0.541498,-0.0861492,2.463,2.52329
-0.533504,-0.0861492,2.463,2.52159
-0.525509,-0.0861492,2.463,2.51991
-0.517515,-0.0861492,2.463,2.51826
-0.509521,-0.0861492,2.463,2.51663
-0.501526,-0.0861492,2.463,2.51502
-0.497139,-0.0867788,2.481,2.53181
-0.489086,-0.0867788,2.481,2.53024
-0.481034,-0.0867788,2.481,2.52869
-0.472981,-0.0867788,2.481,2.52717
-0.464928,-0.0867788,2.481,2.52568
-0.456875,-0.0867788,2.481,2.52421
-0.452079,-0.0874084,2.499,2.54107
-0.443968,-0.0874084,2.499,2.53964
-0.435857,-0.0874084,2.499,2.53823
-0.427746,-0.0874084,2.499,2.53685
-0.419634,-0.0874084,2.499,2.5355
-0.411523,-0.0874084,2.499,2.53417
-0.403412,-0.0874084,2.499,2.53286
-0.398148,-0.088038,2.517,2.54982
-0.389979,-0.088038,2.517,2.54855
-0.381809,-0.088038,2.517,2.54732
-0.37364,-0.088038,2.517,2.5461
-0.368229,-0.0887026,2.536,2.56413
-0.359998,-0.0887026,2.536,2.56296
-0.351766,-0.0887026,2.536,2.56182
-0.343535,-0.0887026,2.536,2.5607
-0.337816,-0.0893671,2.555,2.57878
-0.329523,-0.0893671,2.555,2.57771
-0.318842,-0.0887026,2.536,2.5575
-0.31061,-0.0887026,2.536,2.55649
-0.302379,-0.0887026,2.536,2.5555
-0.294148,-0.0887026,2.536,2.55454
-0.285917,-0.0887026,2.536,2.55361
-0.277685,-0.0887026,2.536,2.5527
-0.267435,-0.088038,2.517,2.5327
-0.259266,-0.088038,2.517,2.53185
-0.251096,-0.088038,2.517,2.53103
-0.242927,-0.088038,2.517,2.53023
-0.233078,-0.0874084,2.499,2.51137
-0.224967,-0.0874084,2.499,2.51063
-0.216856,-0.0874084,2.499,2.50991
-0.208745,-0.0874084,2.499,2.50923
-0.200634,-0.0874084,2.499,2.50856
-0.192523,-0.0874084,2.499,2.50793
-0.184412,-0.0874084,2.499,2.50732
-0.1763,-0.0874084,2.499,2.50674
-0.168189,-0.0874084,2.499,2.50618
-0.160078,-0.0874084,2.499,2.50565
-0.151967,-0.0874084,2.499,2.50514
-0.143856,-0.0874084,2.499,2.50466
-0.135745,-0.0874084,2.499,2.50421
-0.127634,-0.0874084,2.499,2.50378
-0.119523,-0.0874084,2.499,2.50338
-0.110609,-0.0867788,2.481,2.48498
-0.102556,-0.0867788,2.481,2.48463
-0.0945035,-0.0867788,2.481,2.48432
-0.0864508,-0.0867788,2.481,2.48402
-0.0789668,-0.0874084,2.499,2.50177
-0.0708557,-0.0874084,2.499,2.50153
-0.0627446,-0.0874084,2.499,2.50132
-0.0542399,-0.0867788,2.481,2.48311
-0.0461872,-0.0867788,2.481,2.48295
-0.0381345,-0.0867788,2.481,2.48281
-0.0300818,-0.0867788,2.481,2.4827
-0.0220291,-0.0867788,2.481,2.48261
-0.0139764,-0.0867788,2.481,2.48256
-0.00592366,-0.0867788,2.481,2.48252
0.0021136,-0.0861492,2.463,2.46451
0.0101079,-0.0861492,2.463,2.46453
0.0181022,-0.0861492,2.463,2.46457
0.0260965,-0.0861492,2.463,2.46464
0.0340907,-0.0861492,2.463,2.46474
0.042085,-0.0861492,2.463,2.46487
0.0500793,-0.0861492,2.463,2.46501
0.0576492,-0.0855196,2.445,2.44717
0.0655851,-0.0855196,2.445,2.44737
0.0735209,-0.0855196,2.445,2.4476
0.0814568,-0.0855196,2.445,2.44785
0.0893926,-0.0855196,2.445,2.44813
0.0973285,-0.0855196,2.445,2.44843
0.104532,-0.084925,2.428,2.43173
0.112413,-0.084925,2.428,2.43208
0.120294,-0.084925,2.428,2.43246
0.128175,-0.084925,2.428,2.43286
0.136055,-0.084925,2.428,2.43329
0.143936,-0.084925,2.428,2.43374
0.151817,-0.084925,2.428,2.43422
0.159697,-0.084925,2.428,2.43473
0.167578,-0.084925,2.428,2.43526
0.175459,-0.084925,2.428,2.43581
0.184623,-0.0855196,2.445,2.45345
0.192559,-0.0855196,2.445,2.45406
0.200495,-0.0855196,2.445,2.4547
0.208431,-0.0855196,2.445,2.45536
0.217959,-0.0861492,2.463,2.47413
