nan,nan,nan,NaN
nan,nan,nan,NaN
nan,nan,nan,NaN
nan,nan,nan,NaN
nan,nan,nan,NaN
nan,nan,nan,NaN
nan,nan,nan,NaN
nan,nan,nan,NaN
nan,nan,nan,NaN
nan,nan,nan,NaN
nan,nan,nan,NaN
nan,nan,nan,NaN
nan,nan,nan,NaN
nan,nan,nan,NaN
nan,nan,nan,NaN
nan,nan,nan,NaN
nan,nan,nan,NaN
nan,nan,nan,NaN
nan,nan,nan,NaN
nan,nan,nan,NaN
-1.16278,-0.350719,2.361,2.65507
-1.15512,-0.350719,2.361,2.65172
-1.14746,-0.350719,2.361,2.64839
-1.13979,-0.350719,2.361,2.64508
-1.13213,-0.350719,2.361,2.64179
-1.12447,-0.350719,2.361,2.63851
-1.1168,-0.350719,2.361,2.63526
-1.10914,-0.350719,2.361,2.63202
-1.10148,-0.350719,2.361,2.6288
-1.09381,-0.350719,2.361,2.6256
-1.08615,-0.350719,2.361,2.62241
-1.07849,-0.350719,2.361,2.61925
-1.07082,-0.350719,2.361,2.6161
-1.05596,-0.348342,2.345,2.59527
-1.04835,-0.348342,2.345,2.59218
-1.04073,-0.348342,2.345,2.58911
-1.03312,-0.348342,2.345,2.58606
-1.03251,-0.350719,2.361,2.60065
-1.02485,-0.350719,2.361,2.59762
-1.01718,-0.350719,2.361,2.59461
-1.00952,-0.350719,2.361,2.59161
-1.00186,-0.350719,2.361,2.58864
-0.994193,-0.350719,2.361,2.58568
-0.986529,-0.350719,2.361,2.58274
-0.978866,-0.350719,2.361,2.57983
-0.971203,-0.350719,2.361,2.57693
-0.96354,-0.350719,2.361,2.57405
-0.955876,-0.350719,2.361,2.57119
-0.948213,-0.350719,2.361,2.56835
-0.94055,-0.350719,2.361,2.56553
-0.932887,-0.350719,2.361,2.56273
-0.925224,-0.350719,2.361,2.55995
-0.91756,-0.350719,2.361,2.55719
-0.909897,-0.350719,2.361,2.55445
-0.902234,-0.350719,2.361,2.55173
-0.894571,-0.350719,2.361,2.54904
-0.886907,-0.350719,2.361,2.54636
-0.879244,-0.350719,2.361,2.5437
-0.871581,-0.350719,2.361,2.54106
-0.869772,-0.353095,2.377,2.55564
-0.862057,-0.353095,2.377,2.55303
-0.854342,-0.353095,2.377,2.55043
-0.846627,-0.353095,2.377,2.54786
-0.838912,-0.353095,2.377,2.54531
-0.831197,-0.353095,2.377,2.54277
-0.823481,-0.353095,2.377,2.54026
-0.810275,-0.350719,2.361,2.52069
-0.802612,-0.350719,2.361,2.51824
-0.794949,-0.350719,2.361,2.5158
-0.792621,-0.353095,2.377,2.53043
-0.784906,-0.353095,2.377,2.52802
-0.777191,-0.353095,2.377,2.52563
-0.769475,-0.353095,2.377,2.52327
-0.756633,-0.350719,2.361,2.50396
-0.748969,-0.350719,2.361,2.50166
-0.741306,-0.350719,2.361,2.49937
-0.738615,-0.353095,2.377,2.51403
-0.7309,-0.353095,2.377,2.51178
-0.723184,-0.353095,2.377,2.50954
-0.715469,-0.353095,2.377,2.50733
-0.712816,-0.355621,2.394,2.52306
-0.705046,-0.355621,2.394,2.52087
-0.697275,-0.355621,2.394,2.51871
-0.689505,-0.355621,2.394,2.51657
-0.686576,-0.358146,2.411,2.53231
-0.67875,-0.358146,2.411,2.5302
-0.670925,-0.358146,2.411,2.52811
-0.663099,-0.358146,2.411,2.52604
-0.655274,-0.358146,2.411,2.524
-0.652013,-0.360671,2.428,2.53976
-0.644133,-0.360671,2.428,2.53775
-0.636252,-0.360671,2.428,2.53576
-0.632771,-0.363196,2.445,2.55154
-0.624835,-0.363196,2.445,2.54958
-0.621441,-0.36587,2.463,2.5664
-0.613446,-0.36587,2.463,2.56448
-0.605452,-0.36587,2.463,2.56258
-0.597458,-0.36587,2.463,2.5607
-0.589464,-0.36587,2.463,2.55885
-0.585719,-0.368544,2.481,2.5757
-0.577666,-0.368544,2.481,2.57389
-0.569613,-0.368544,2.481,2.57209
-0.561561,-0.368544,2.481,2.57032
-0.553508,-0.368544,2.481,2.56857
-0.549413,-0.371218,2.499,2.58547
-0.541301,-0.371218,2.499,2.58376
-0.53319,-0.371218,2.499,2.58207
-0.525079,-0.371218,2.499,2.58041
-0.516968,-0.371218,2.499,2.57877
-0.508857,-0.371218,2.499,2.57716
-0.500746,-0.371218,2.499,2.57557
-0.492635,-0.371218,2.499,2.574
-0.484524,-0.371218,2.499,2.57246
-0.476412,-0.371218,2.499,2.57095
-0.468301,-0.371218,2.499,2.56946
-0.46019,-0.371218,2.499,2.56799
-0.452079,-0.371218,2.499,2.56655
-0.443968,-0.371218,2.499,2.56513
-0.432717,-0.368544,2.481,2.54528
-0.424665,-0.368544,2.481,2.54392
-0.416612,-0.368544,2.481,2.54259
-0.408559,-0.368544,2.481,2.54128
-0.400506,-0.368544,2.481,2.54
-0.392454,-0.368544,2.481,2.53874
-0.381612,-0.36587,2.463,2.5191
-0.373618,-0.36587,2.463,2.5179
-0.365624,-0.36587,2.463,2.51673
-0.357629,-0.36587,2.463,2.51558
-0.349635,-0.36587,2.463,2.51445
-0.341641,-0.36587,2.463,2.51335
-0.333646,-0.36587,2.463,2.51228
-0.325652,-0.36587,2.463,2.51123
-0.317658,-0.36587,2.463,2.51021
-0.309664,-0.36587,2.463,2.50921
-0.299465,-0.363196,2.445,2.4899
-0.291529,-0.363196,2.445,2.48896
-0.281621,-0.360671,2.428,2.47074
-0.27374,-0.360671,2.428,2.46986
-0.26586,-0.360671,2.428,2.469
-0.257979,-0.360671,2.428,2.46816
-0.250098,-0.360671,2.428,2.46735
-0.240522,-0.358146,2.411,2.44929
-0.232696,-0.358146,2.411,2.44854
-0.224871,-0.358146,2.411,2.44781
-0.215515,-0.355621,2.394,2.42985
-0.207745,-0.355621,2.394,2.42917
-0.199974,-0.355621,2.394,2.42852
-0.192204,-0.355621,2.394,2.42789
-0.184434,-0.355621,2.394,2.42729
-0.176663,-0.355621,2.394,2.42671
-0.168893,-0.355621,2.394,2.42615
-0.161123,-0.355621,2.394,2.42563
-0.153352,-0.355621,2.394,2.42512
-0.145582,-0.355621,2.394,2.42464
-0.137812,-0.355621,2.394,2.42419
-0.130965,-0.358146,2.411,2.44097
-0.123139,-0.358146,2.411,2.44056
-0.115314,-0.358146,2.411,2.44018
-0.108246,-0.360671,2.428,2.45703
-0.100365,-0.360671,2.428,2.45669
-0.0924847,-0.360671,2.428,2.45638
-0.084604,-0.360671,2.428,2.4561
-0.0772605,-0.363196,2.445,2.47304
-0.069835,-0.36587,2.463,2.49101
-0.0618407,-0.36587,2.463,2.49079
-0.0542399,-0.368544,2.481,2.50881
-0.0461872,-0.368544,2.481,2.50865
-0.0381345,-0.368544,2.481,2.50851
-0.0303,-0.371218,2.499,2.5266
-0.0223487,-0.373892,2.517,2.54472
-0.0141792,-0.373892,2.517,2.54466
-0.00600962,-0.373892,2.517,2.54463
0.00217625,-0.376714,2.536,2.56383
0.0104075,-0.376714,2.536,2.56385
0.0186387,-0.376714,2.536,2.56389
0.0268699,-0.376714,2.536,2.56397
0.0351011,-0.376714,2.536,2.56407
0.0430077,-0.373892,2.517,2.54498
0.0511773,-0.373892,2.517,2.54513
0.0593468,-0.373892,2.517,2.54531
0.0675164,-0.373892,2.517,2.54551
0.075686,-0.373892,2.517,2.54574
0.0838555,-0.373892,2.517,2.546
0.0920251,-0.373892,2.517,2.54628
0.100195,-0.373892,2.517,2.54659
0.107589,-0.371218,2.499,2.52871
0.1157,-0.371218,2.499,2.52907
0.123811,-0.371218,2.499,2.52945
0.130972,-0.368544,2.481,2.51164
0.139025,-0.368544,2.481,2.51207
0.147078,-0.368544,2.481,2.51253
0.154005,-0.36587,2.463,2.49478
0.161999,-0.36587,2.463,2.49529
0.169994,-0.36587,2.463,2.49582
0.177988,-0.36587,2.463,2.49638
0.185982,-0.36587,2.463,2.49696
0.193976,-0.36587,2.463,2.49757
0.200495,-0.363196,2.445,2.47995
0.206981,-0.360671,2.428,2.46335
0.214862,-0.360671,2.428,2.46403
0.222743,-0.360671,2.428,2.46473
0.230623,-0.360671,2.428,2.46545
0.240174,-0.363196,2.445,2.48347
0.24811,-0.363196,2.445,2.48425
0.256046,-0.363196,2.445,2.48505
0.263982,-0.363196,2.445,2.48588
0.271917,-0.363196,2.445,2.48674
0.277908,-0.360671,2.428,2.47032
0.285788,-0.360671,2.428,2.47122
0.293669,-0.360671,2.428,2.47215
0.30155,-0.360671,2.428,2.4731
0.313891,-0.36587,2.463,2.50973
0.321885,-0.36587,2.463,2.51075
0.329879,-0.36587,2.463,2.51178
0.337874,-0.36587,2.463,2.51284
0.345868,-0.36587,2.463,2.51393
0.353862,-0.36587,2.463,2.51504
0.361856,-0.36587,2.463,2.51618
0.372554,-0.368544,2.481,2.53574
0.383368,-0.371218,2.499,2.55534
0.391479,-0.371218,2.499,2.55657
0.39959,-0.371218,2.499,2.55783
0.407701,-0.371218,2.499,2.55911
0.415812,-0.371218,2.499,2.56041
0.423923,-0.371218,2.499,2.56174
0.435146,-0.373892,2.517,2.58156
0.443316,-0.373892,2.517,2.58295
0.451486,-0.373892,2.517,2.58436
0.459655,-0.373892,2.517,2.5858
0.467825,-0.373892,2.517,2.58727
0.475994,-0.373892,2.517,2.58876
0.480701,-0.371218,2.499,2.57175
0.488812,-0.371218,2.499,2.57327
0.496924,-0.371218,2.499,2.57483
0.505035,-0.371218,2.499,2.57641
0.513146,-0.371218,2.499,2.57801
0.521257,-0.371218,2.499,2.57963
0.529368,-0.371218,2.499,2.58129
0.537479,-0.371218,2.499,2.58296
0.54559,-0.371218,2.499,2.58466
0.553702,-0.371218,2.499,2.58639
0.561813,-0.371218,2.499,2.58813
0.569924,-0.371218,2.499,2.58991
0.578035,-0.371218,2.499,2.5917
0.586146,-0.371218,2.499,2.59352
0.594257,-0.371218,2.499,2.59537
0.602368,-0.371218,2.499,2.59724
0.614877,-0.373892,2.517,2.61785
0.623046,-0.373892,2.517,2.61978
0.631216,-0.373892,2.517,2.62174
0.639385,-0.373892,2.517,2.62372
0.647555,-0.373892,2.517,2.62572
0.655725,-0.373892,2.517,2.62775
0.668906,-0.376714,2.536,2.64965
0.677137,-0.376714,2.536,2.65174
0.685368,-0.376714,2.536,2.65385
0.693599,-0.376714,2.536,2.65599
0.70183,-0.376714,2.536,2.65815
0.710062,-0.376714,2.536,2.66034
0.718293,-0.376714,2.536,2.66255
0.721081,-0.373892,2.517,2.64481
0.729251,-0.373892,2.517,2.64705
0.73742,-0.373892,2.517,2.64932
0.74559,-0.373892,2.517,2.6516
0.753759,-0.373892,2.517,2.65391
0.761929,-0.373892,2.517,2.65624
0.770098,-0.373892,2.517,2.6586
0.778268,-0.373892,2.517,2.66097
0.786437,-0.373892,2.517,2.66338
0.794607,-0.373892,2.517,2.6658
0.802777,-0.373892,2.517,2.66825
0.810946,-0.373892,2.517,2.67072
0.813258,-0.371218,2.499,2.65409
0.821369,-0.371218,2.499,2.65659
0.82948,-0.371218,2.499,2.65911
0.837591,-0.371218,2.499,2.66165
0.845702,-0.371218,2.499,2.66421
0.853814,-0.371218,2.499,2.6668
0.861925,-0.371218,2.499,2.6694
0.870036,-0.371218,2.499,2.67203
0.878147,-0.371218,2.499,2.67469
0.886258,-0.371218,2.499,2.67736
0.894369,-0.371218,2.499,2.68006
0.90248,-0.371218,2.499,2.68277
0.910591,-0.371218,2.499,2.68551
0.912085,-0.368544,2.481,2.66891
0.920138,-0.368544,2.481,2.67167
0.928191,-0.368544,2.481,2.67446
0.936243,-0.368544,2.481,2.67726
0.944296,-0.368544,2.481,2.68009
0.952349,-0.368544,2.481,2.68294
0.960401,-0.368544,2.481,2.68581
0.961428,-0.36587,2.463,2.66919
0.969422,-0.36587,2.463,2.67208
0.977417,-0.36587,2.463,2.67499
0.985411,-0.36587,2.463,2.67792
0.993405,-0.36587,2.463,2.68087
1.0014,-0.36587,2.463,2.68385
1.00939,-0.36587,2.463,2.68684
1.01739,-0.36587,2.463,2.68985
1.02538,-0.36587,2.463,2.69289
1.03338,-0.36587,2.463,2.69594
nan,nan,nan,NaN
nan,nan,nan,NaN
nan,nan,nan,NaN
nan,nan,nan,NaN
nan,nan,nan,NaN
1.37901,-0.466585,3.141,3.46197
1.3892,-0.466585,3.141,3.46604
1.3994,-0.466585,3.141,3.47014
1.40959,-0.466585,3.141,3.47427
1.41979,-0.466585,3.141,3.47842
1.42998,-0.466585,3.141,3.48259
1.45347,-0.470893,3.17,3.51898
1.46376,-0.470893,3.17,3.52324
1.47405,-0.470893,3.17,3.52753
1.48434,-0.470893,3.17,3.53184
1.49463,-0.470893,3.17,3.53618
1.50492,-0.470893,3.17,3.54054
1.51521,-0.470893,3.17,3.54493
1.5255,-0.470893,3.17,3.54934
1.53579,-0.470893,3.17,3.55377
1.54608,-0.470893,3.17,3.55823
1.54213,-0.466585,3.141,3.53012
1.55232,-0.466585,3.141,3.53458
1.56252,-0.466585,3.141,3.53907
1.57271,-0.466585,3.141,3.54359
1.59752,-0.470893,3.17,3.58088
1.60781,-0.470893,3.17,3.58548
1.6329,-0.475201,3.199,3.62295
1.67462,-0.484262,3.26,3.69682
1.6852,-0.484262,3.26,3.70162
1.69578,-0.484262,3.26,3.70645
1.72311,-0.489016,3.292,3.74774
1.7675,-0.498522,3.356,3.82562
1.7784,-0.498522,3.356,3.83066
1.80688,-0.503425,3.389,3.87345
1.83612,-0.508475,3.423,3.9175
1.84723,-0.508475,3.423,3.92272
1.87734,-0.513674,3.458,3.96813
1.90768,-0.518873,3.493,4.01367
1.9388,-0.524221,3.529,4.06049
1.95025,-0.524221,3.529,4.06597
1.96171,-0.524221,3.529,4.07148
1.99385,-0.529717,3.566,4.11976
2.00542,-0.529717,3.566,4.12537
2.017,-0.529717,3.566,4.13101
2.02857,-0.529717,3.566,4.13667
2.04015,-0.529717,3.566,4.14236
2.05172,-0.529717,3.566,4.14807
2.06329,-0.529717,3.566,4.15381
2.07487,-0.529717,3.566,4.15957
2.08644,-0.529717,3.566,4.16536
2.07625,-0.524221,3.529,4.12789
2.0877,-0.524221,3.529,4.13366
2.05692,-0.513674,3.458,4.05618
2.04722,-0.508475,3.423,4.02077
2.05833,-0.508475,3.423,4.02644
2.04888,-0.503425,3.389,3.99208
2.02037,-0.493769,3.324,3.92106
2.03116,-0.493769,3.324,3.92663
2.02229,-0.489016,3.292,3.89436
1.97555,-0.475201,3.199,3.78975
1.98593,-0.475201,3.199,3.79517
1.96012,-0.466585,3.141,3.73171
1.91762,-0.454107,3.057,3.63713
1.92754,-0.454107,3.057,3.64237
1.90324,-0.446086,3.003,3.5832
1.87986,-0.438361,2.951,3.52625
1.88944,-0.438361,2.951,3.53137
1.86684,-0.430934,2.901,3.47658
1.86074,-0.427369,2.877,3.45284
1.87007,-0.427369,2.877,3.45788
1.86373,-0.423804,2.853,3.43405
1.84214,-0.416822,2.806,3.38243
1.82156,-0.410137,2.761,3.33308
1.83052,-0.410137,2.761,3.33798
1.82482,-0.406869,2.739,3.31627
1.80493,-0.400482,2.696,3.26903
1.81368,-0.400482,2.696,3.27387
1.80823,-0.397362,2.675,3.25319
1.80265,-0.394243,2.654,3.23244
-2.28377,-0.478334,3.292,4.03505
-2.27308,-0.478334,3.292,4.02902
-2.2624,-0.478334,3.292,4.023
-2.29549,-0.487633,3.356,4.09509
-2.30706,-0.492428,3.389,4.12921
-2.3191,-0.497368,3.423,4.16443
-2.30799,-0.497368,3.423,4.15826
-2.29688,-0.497368,3.423,4.1521
-2.28577,-0.497368,3.423,4.14597
-2.27466,-0.497368,3.423,4.13985
-2.26355,-0.497368,3.423,4.13376
-2.25243,-0.497368,3.423,4.12768
-2.24132,-0.497368,3.423,4.12163
-2.20806,-0.492428,3.389,4.07472
-2.19706,-0.492428,3.389,4.06877
-2.18606,-0.492428,3.389,4.06284
-2.17506,-0.492428,3.389,4.05693
-2.16406,-0.492428,3.389,4.05105
-2.15306,-0.492428,3.389,4.04518
-2.14206,-0.492428,3.389,4.03934
-2.11031,-0.487633,3.356,3.99424
-2.09942,-0.487633,3.356,3.98849
-2.08853,-0.487633,3.356,3.98277
-2.07763,-0.487633,3.356,3.97707
-2.06674,-0.487633,3.356,3.97139
-2.05585,-0.487633,3.356,3.96573
-2.04496,-0.487633,3.356,3.9601
-2.01467,-0.482983,3.324,3.91678
-2.00388,-0.482983,3.324,3.91124
-1.99309,-0.482983,3.324,3.90572
-2.00138,-0.487633,3.356,3.93777
nan,nan,nan,NaN
nan,nan,nan,NaN
nan,nan,nan,NaN
nan,nan,nan,NaN
nan,nan,nan,NaN
nan,nan,nan,NaN
nan,nan,nan,NaN
nan,nan,nan,NaN
nan,nan,nan,NaN
nan,nan,nan,NaN
nan,nan,nan,NaN
nan,nan,nan,NaN
nan,nan,nan,NaN
nan,nan,nan,NaN
nan,nan,nan,NaN
nan,nan,nan,NaN
nan,nan,nan,NaN
nan,nan,nan,NaN
nan,nan,nan,NaN
nan,nan,nan,NaN
nan,nan,nan,NaN
nan,nan,nan,NaN
nan,nan,nan,NaN
nan,nan,nan,NaN
nan,nan,nan,NaN
nan,nan,nan,NaN
nan,nan,nan,NaN
nan,nan,nan,NaN
nan,nan,nan,NaN
nan,nan,nan,NaN
nan,nan,nan,NaN
-1.16278,-0.343058,2.361,2.65407
-1.15512,-0.343058,2.361,2.65072
-1.14746,-0.343058,2.361,2.64739
-1.13979,-0.343058,2.361,2.64408
-1.13213,-0.343058,2.361,2.64078
-1.12447,-0.343058,2.361,2.63751
-1.1168,-0.343058,2.361,2.63425
-1.10914,-0.343058,2.361,2.63101
-1.10148,-0.343058,2.361,2.62779
-1.09381,-0.343058,2.361,2.62458
-1.08615,-0.343058,2.361,2.6214
-1.07849,-0.343058,2.361,2.61823
-1.07082,-0.343058,2.361,2.61509
-1.05596,-0.340733,2.345,2.59426
-1.04835,-0.340733,2.345,2.59117
-1.04073,-0.340733,2.345,2.5881
-1.03312,-0.340733,2.345,2.58505
-1.02551,-0.340733,2.345,2.58201
-1.0179,-0.340733,2.345,2.579
-1.01029,-0.340733,2.345,2.57601
-1.00268,-0.340733,2.345,2.57303
-0.995066,-0.340733,2.345,2.57007
-0.987455,-0.340733,2.345,2.56714
-0.986529,-0.343058,2.361,2.58171
-0.978866,-0.343058,2.361,2.5788
-0.971203,-0.343058,2.361,2.5759
-0.96354,-0.343058,2.361,2.57302
-0.955876,-0.343058,2.361,2.57016
-0.948213,-0.343058,2.361,2.56732
-0.94055,-0.343058,2.361,2.5645
-0.932887,-0.343058,2.361,2.5617
-0.925224,-0.343058,2.361,2.55892
-0.91756,-0.343058,2.361,2.55615
-0.909897,-0.343058,2.361,2.55341
-0.902234,-0.343058,2.361,2.55069
-0.894571,-0.343058,2.361,2.54799
-0.886907,-0.343058,2.361,2.54531
-0.879244,-0.343058,2.361,2.54265
-0.871581,-0.343058,2.361,2.54001
-0.863918,-0.343058,2.361,2.53739
-0.856255,-0.343058,2.361,2.53479
-0.854342,-0.345382,2.377,2.54938
-0.846627,-0.345382,2.377,2.5468
-0.833265,-0.343058,2.361,2.52712
-0.825602,-0.343058,2.361,2.5246
-0.817938,-0.343058,2.361,2.52211
-0.810275,-0.343058,2.361,2.51963
-0.802612,-0.343058,2.361,2.51718
-0.794949,-0.343058,2.361,2.51475
-0.787286,-0.343058,2.361,2.51234
-0.779622,-0.343058,2.361,2.50994
-0.771959,-0.343058,2.361,2.50757
-0.764296,-0.343058,2.361,2.50523
-0.756633,-0.343058,2.361,2.5029
-0.748969,-0.343058,2.361,2.50059
-0.741306,-0.343058,2.361,2.49831
-0.738615,-0.345382,2.377,2.51296
-0.7309,-0.345382,2.377,2.5107
-0.723184,-0.345382,2.377,2.50847
-0.715469,-0.345382,2.377,2.50626
-0.712816,-0.347852,2.394,2.52197
-0.705046,-0.347852,2.394,2.51979
-0.697275,-0.347852,2.394,2.51762
-0.689505,-0.347852,2.394,2.51548
-0.686576,-0.350323,2.411,2.53121
-0.67875,-0.350323,2.411,2.5291
-0.670925,-0.350323,2.411,2.52701
-0.663099,-0.350323,2.411,2.52495
-0.655274,-0.350323,2.411,2.5229
-0.652013,-0.352793,2.428,2.53866
-0.644133,-0.352793,2.428,2.53664
-0.640707,-0.355263,2.445,2.5524
-0.632771,-0.355263,2.445,2.55042
-0.624835,-0.355263,2.445,2.54846
-0.616899,-0.355263,2.445,2.54653
-0.608963,-0.355263,2.445,2.54462
-0.605452,-0.357878,2.463,2.56145
-0.597458,-0.357878,2.463,2.55957
-0.589464,-0.357878,2.463,2.55772
-0.585719,-0.360494,2.481,2.57456
-0.577666,-0.360494,2.481,2.57274
-0.569613,-0.360494,2.481,2.57095
-0.565635,-0.363109,2.499,2.58782
-0.557524,-0.363109,2.499,2.58606
-0.549413,-0.363109,2.499,2.58432
-0.541301,-0.363109,2.499,2.58261
-0.53319,-0.363109,2.499,2.58092
-0.525079,-0.363109,2.499,2.57926
-0.516968,-0.363109,2.499,2.57762
-0.508857,-0.363109,2.499,2.576
-0.500746,-0.363109,2.499,2.57441
-0.492635,-0.363109,2.499,2.57285
-0.484524,-0.363109,2.499,2.57131
-0.476412,-0.363109,2.499,2.56979
-0.468301,-0.363109,2.499,2.5683
-0.46019,-0.363109,2.499,2.56683
-0.452079,-0.363109,2.499,2.56539
-0.443968,-0.363109,2.499,2.56397
-0.432717,-0.360494,2.481,2.54412
-0.424665,-0.360494,2.481,2.54277
-0.416612,-0.360494,2.481,2.54143
-0.408559,-0.360494,2.481,2.54013
-0.400506,-0.360494,2.481,2.53884
-0.392454,-0.360494,2.481,2.53759
-0.381612,-0.357878,2.463,2.51795
-0.373618,-0.357878,2.463,2.51675
-0.365624,-0.357878,2.463,2.51558
-0.357629,-0.357878,2.463,2.51443
-0.349635,-0.357878,2.463,2.5133
-0.341641,-0.357878,2.463,2.5122
-0.333646,-0.357878,2.463,2.51113
-0.325652,-0.357878,2.463,2.51008
-0.317658,-0.357878,2.463,2.50905
-0.309664,-0.357878,2.463,2.50805
-0.299465,-0.355263,2.445,2.48876
-0.291529,-0.355263,2.445,2.48782
-0.281621,-0.352793,2.428,2.46961
-0.27374,-0.352793,2.428,2.46872
-0.26586,-0.352793,2.428,2.46786
-0.257979,-0.352793,2.428,2.46702
-0.250098,-0.352793,2.428,2.46621
-0.240522,-0.350323,2.411,2.44816
-0.232696,-0.350323,2.411,2.44741
-0.224871,-0.350323,2.411,2.44667
-0.215515,-0.347852,2.394,2.42872
-0.207745,-0.347852,2.394,2.42804
-0.199974,-0.347852,2.394,2.42739
-0.192204,-0.347852,2.394,2.42676
-0.184434,-0.347852,2.394,2.42616
-0.176663,-0.347852,2.394,2.42558
-0.168893,-0.347852,2.394,2.42503
-0.161123,-0.347852,2.394,2.4245
-0.153352,-0.347852,2.394,2.424
-0.145582,-0.347852,2.394,2.42352
-0.137812,-0.347852,2.394,2.42306
-0.130965,-0.350323,2.411,2.43984
-0.123139,-0.350323,2.411,2.43943
-0.115314,-0.350323,2.411,2.43905
-0.108246,-0.352793,2.428,2.45588
-0.100365,-0.352793,2.428,2.45555
-0.0924847,-0.352793,2.428,2.45524
-0.084604,-0.352793,2.428,2.45496
-0.0772605,-0.355263,2.445,2.47188
-0.069835,-0.357878,2.463,2.48984
-0.0618407,-0.357878,2.463,2.48963
-0.0542399,-0.360494,2.481,2.50764
-0.0461872,-0.360494,2.481,2.50748
-0.0381345,-0.360494,2.481,2.50734
-0.0303,-0.363109,2.499,2.52542
-0.0223487,-0.365725,2.517,2.54353
-0.0141792,-0.365725,2.517,2.54347
-0.00600962,-0.365725,2.517,2.54344
0.00217625,-0.368485,2.536,2.56263
0.0104075,-0.368485,2.536,2.56265
0.0186387,-0.368485,2.536,2.5627
0.0268699,-0.368485,2.536,2.56277
0.0351011,-0.368485,2.536,2.56287
0.0430077,-0.365725,2.517,2.5438
0.0511773,-0.365725,2.517,2.54395
0.0593468,-0.365725,2.517,2.54412
0.0675164,-0.365725,2.517,2.54433
0.075686,-0.365725,2.517,2.54456
0.0838555,-0.365725,2.517,2.54481
0.0920251,-0.365725,2.517,2.5451
0.100195,-0.365725,2.517,2.5454
0.107589,-0.363109,2.499,2.52753
0.1157,-0.363109,2.499,2.52789
0.123811,-0.363109,2.499,2.52828
0.130972,-0.360494,2.481,2.51047
0.139025,-0.360494,2.481,2.51091
0.147078,-0.360494,2.481,2.51136
0.154005,-0.357878,2.463,2.49362
0.161999,-0.357878,2.463,2.49413
0.169994,-0.357878,2.463,2.49466
0.176687,-0.355263,2.445,2.47699
0.184623,-0.355263,2.445,2.47756
0.192559,-0.355263,2.445,2.47817
0.200495,-0.355263,2.445,2.4788
0.206981,-0.352793,2.428,2.46221
0.214862,-0.352793,2.428,2.46289
0.222743,-0.352793,2.428,2.46359
0.230623,-0.352793,2.428,2.46431
0.238504,-0.352793,2.428,2.46506
0.246385,-0.352793,2.428,2.46584
0.254265,-0.352793,2.428,2.46664
0.262146,-0.352793,2.428,2.46746
0.271917,-0.355263,2.445,2.48559
0.277908,-0.352793,2.428,2.46919
0.285788,-0.352793,2.428,2.47009
0.293669,-0.352793,2.428,2.47101
0.30155,-0.352793,2.428,2.47196
0.311597,-0.355263,2.445,2.49025
0.319533,-0.355263,2.445,2.49125
0.327469,-0.355263,2.445,2.49228
0.337874,-0.357878,2.463,2.51169
0.345868,-0.357878,2.463,2.51278
0.353862,-0.357878,2.463,2.51389
0.361856,-0.357878,2.463,2.51503
0.372554,-0.360494,2.481,2.53458
0.380606,-0.360494,2.481,2.53578
0.388659,-0.360494,2.481,2.537
0.39959,-0.363109,2.499,2.55666
0.407701,-0.363109,2.499,2.55794
0.415812,-0.363109,2.499,2.55925
0.423923,-0.363109,2.499,2.56058
0.432035,-0.363109,2.499,2.56193
0.440146,-0.363109,2.499,2.56331
0.448257,-0.363109,2.499,2.56472
0.456368,-0.363109,2.499,2.56615
0.464479,-0.363109,2.499,2.5676
0.47259,-0.363109,2.499,2.56908
0.480701,-0.363109,2.499,2.57059
0.488812,-0.363109,2.499,2.57212
0.496924,-0.363109,2.499,2.57367
0.505035,-0.363109,2.499,2.57525
0.513146,-0.363109,2.499,2.57685
0.517502,-0.360494,2.481,2.55991
0.525555,-0.360494,2.481,2.56155
0.533608,-0.360494,2.481,2.56321
0.541661,-0.360494,2.481,2.5649
0.549713,-0.360494,2.481,2.56661
0.557766,-0.360494,2.481,2.56835
0.565819,-0.360494,2.481,2.57011
0.573871,-0.360494,2.481,2.5719
0.581924,-0.360494,2.481,2.5737
0.594257,-0.363109,2.499,2.59422
0.602368,-0.363109,2.499,2.59609
0.610479,-0.363109,2.499,2.59799
0.623046,-0.365725,2.517,2.61863
0.631216,-0.365725,2.517,2.62059
0.639385,-0.365725,2.517,2.62257
0.647555,-0.365725,2.517,2.62457
0.655725,-0.365725,2.517,2.6266
0.668906,-0.368485,2.536,2.64849
0.677137,-0.368485,2.536,2.65058
0.685368,-0.368485,2.536,2.6527
0.693599,-0.368485,2.536,2.65484
0.70183,-0.368485,2.536,2.657
0.710062,-0.368485,2.536,2.65918
0.718293,-0.368485,2.536,2.66139
0.726524,-0.368485,2.536,2.66363
0.734755,-0.368485,2.536,2.66588
0.742987,-0.368485,2.536,2.66817
0.74559,-0.365725,2.517,2.65046
0.753759,-0.365725,2.517,2.65277
0.761929,-0.365725,2.517,2.6551
0.770098,-0.365725,2.517,2.65746
0.778268,-0.365725,2.517,2.65984
0.786437,-0.365725,2.517,2.66224
0.794607,-0.365725,2.517,2.66467
0.802777,-0.365725,2.517,2.66711
0.810946,-0.365725,2.517,2.66958
0.813258,-0.363109,2.499,2.65297
0.821369,-0.363109,2.499,2.65547
0.82948,-0.363109,2.499,2.65799
0.837591,-0.363109,2.499,2.66053
0.845702,-0.363109,2.499,2.66309
0.853814,-0.363109,2.499,2.66568
0.861925,-0.363109,2.499,2.66829
0.870036,-0.363109,2.499,2.67092
0.878147,-0.363109,2.499,2.67357
0.886258,-0.363109,2.499,2.67625
0.894369,-0.363109,2.499,2.67894
0.90248,-0.363109,2.499,2.68166
0.910591,-0.363109,2.499,2.6844
0.912085,-0.360494,2.481,2.66781
0.920138,-0.360494,2.481,2.67058
0.928191,-0.360494,2.481,2.67336
0.936243,-0.360494,2.481,2.67617
0.944296,-0.360494,2.481,2.67899
0.952349,-0.360494,2.481,2.68184
0.960401,-0.360494,2.481,2.68471
0.961428,-0.357878,2.463,2.66811
0.969422,-0.357878,2.463,2.671
0.977417,-0.357878,2.463,2.67391
0.985411,-0.357878,2.463,2.67684
0.993405,-0.357878,2.463,2.67979
1.0014,-0.357878,2.463,2.68277
1.00939,-0.357878,2.463,2.68576
1.01739,-0.357878,2.463,2.68878
1.02538,-0.357878,2.463,2.69181
1.03338,-0.357878,2.463,2.69487
nan,nan,nan,NaN
nan,nan,nan,NaN
nan,nan,nan,NaN
nan,nan,nan,NaN
nan,nan,nan,NaN
1.39174,-0.460607,3.17,3.49256
1.40203,-0.460607,3.17,3.49668
1.41232,-0.460607,3.17,3.50081
1.42261,-0.460607,3.17,3.50498
1.4329,-0.460607,3.17,3.50917
1.44318,-0.460607,3.17,3.51338
1.46677,-0.46482,3.199,3.5498
1.47715,-0.46482,3.199,3.5541
1.48754,-0.46482,3.199,3.55843
1.49792,-0.46482,3.199,3.56278
1.52292,-0.469325,3.23,3.60173
1.5334,-0.469325,3.23,3.60617
1.54389,-0.469325,3.23,3.61064
1.55437,-0.469325,3.23,3.61514
1.56485,-0.469325,3.23,3.61966
1.57534,-0.469325,3.23,3.6242
1.58582,-0.469325,3.23,3.62877
nan,nan,nan,NaN
1.59137,-0.46482,3.199,3.60307
1.60175,-0.46482,3.199,3.60767
1.61213,-0.46482,3.199,3.61229
1.62252,-0.46482,3.199,3.61694
1.64872,-0.469325,3.23,3.6567
1.69106,-0.478334,3.292,3.73172
1.70174,-0.478334,3.292,3.73658
1.71243,-0.478334,3.292,3.74145
1.73986,-0.482983,3.324,3.78277
1.7675,-0.487633,3.356,3.82421
1.7784,-0.487633,3.356,3.82926
1.80688,-0.492428,3.389,3.87203
1.8549,-0.502454,3.458,3.95612
1.86612,-0.502454,3.458,3.96139
1.89635,-0.507539,3.493,4.00684
1.90768,-0.507539,3.493,4.01222
1.9388,-0.51277,3.529,4.05903
1.95025,-0.51277,3.529,4.06451
1.96171,-0.51277,3.529,4.07002
1.99385,-0.518146,3.566,4.11828
2.00542,-0.518146,3.566,4.1239
2.017,-0.518146,3.566,4.12954
2.02857,-0.518146,3.566,4.13521
2.04015,-0.518146,3.566,4.1409
2.05172,-0.518146,3.566,4.14661
2.06329,-0.518146,3.566,4.15235
2.07487,-0.518146,3.566,4.15811
2.08644,-0.518146,3.566,4.1639
2.07625,-0.51277,3.529,4.12645
2.0877,-0.51277,3.529,4.13222
2.05692,-0.502454,3.458,4.05477
2.04722,-0.497368,3.423,4.01938
2.05833,-0.497368,3.423,4.02505
2.04888,-0.492428,3.389,3.9907
2.02037,-0.482983,3.324,3.91971
2.03116,-0.482983,3.324,3.92529
2.02229,-0.478334,3.292,3.89304
1.97555,-0.46482,3.199,3.78846
1.98593,-0.46482,3.199,3.79389
1.96012,-0.456393,3.141,3.73045
1.93456,-0.448111,3.084,3.66802
1.94457,-0.448111,3.084,3.67331
1.92035,-0.440264,3.03,3.61421
1.89642,-0.432563,2.977,3.55613
1.90609,-0.432563,2.977,3.56129
1.88293,-0.425153,2.926,3.50538
1.87626,-0.421521,2.901,3.48049
1.88567,-0.421521,2.901,3.48558
1.86373,-0.414546,2.853,3.43292
1.84214,-0.407717,2.806,3.38132
1.82156,-0.401178,2.761,3.33199
1.83052,-0.401178,2.761,3.33689
1.82482,-0.397982,2.739,3.31519
1.80493,-0.391734,2.696,3.26797
1.81368,-0.391734,2.696,3.27281
1.80823,-0.388682,2.675,3.25214
1.80265,-0.385631,2.654,3.2314
-2.28377,-0.467652,3.292,4.0338
-2.27308,-0.467652,3.292,4.02776
-2.2624,-0.467652,3.292,4.02174
-2.2736,-0.472197,3.324,4.05478
-2.2846,-0.476743,3.356,4.08771
-2.29606,-0.481431,3.389,4.12177
-2.28506,-0.481431,3.389,4.11565
-2.29688,-0.486261,3.423,4.15078
-2.28577,-0.486261,3.423,4.14465
-2.27466,-0.486261,3.423,4.13853
-2.26355,-0.486261,3.423,4.13243
-2.25243,-0.486261,3.423,4.12636
-2.24132,-0.486261,3.423,4.12031
-2.23021,-0.486261,3.423,4.11427
-2.2191,-0.486261,3.423,4.10826
-2.20799,-0.486261,3.423,4.10227
-2.17506,-0.481431,3.389,4.05561
-2.16406,-0.481431,3.389,4.04972
-2.17466,-0.486261,3.423,4.08443
-2.14206,-0.481431,3.389,4.03801
-2.13106,-0.481431,3.389,4.03219
-2.14133,-0.486261,3.423,4.06678
-2.10906,-0.481431,3.389,4.0206
-2.09806,-0.481431,3.389,4.01484
-2.08706,-0.481431,3.389,4.00911
-2.07606,-0.481431,3.389,4.00339
-2.06506,-0.481431,3.389,3.9977
-2.05406,-0.481431,3.389,3.99203
-2.04306,-0.481431,3.389,3.98638
-2.03206,-0.481431,3.389,3.98075
-2.02106,-0.481431,3.389,3.97515
nan,nan,nan,NaN
nan,nan,nan,NaN
nan,nan,nan,NaN
nan,nan,nan,NaN
nan,nan,nan,NaN
nan,nan,nan,NaN
nan,nan,nan,NaN
nan,nan,nan,NaN
nan,nan,nan,NaN
nan,nan,nan,NaN
nan,nan,nan,NaN
nan,nan,nan,NaN
nan,nan,nan,NaN
nan,nan,nan,NaN
nan,nan,nan,NaN
nan,nan,nan,NaN
nan,nan,nan,NaN
nan,nan,nan,NaN
nan,nan,nan,NaN
nan,nan,nan,NaN
nan,nan,nan,NaN
nan,nan,nan,NaN
nan,nan,nan,NaN
nan,nan,nan,NaN
nan,nan,nan,NaN
nan,nan,nan,NaN
nan,nan,nan,NaN
nan,nan,nan,NaN
nan,nan,nan,NaN
nan,nan,nan,NaN
nan,nan,nan,NaN
-1.16278,-0.335396,2.361,2.65309
-1.15512,-0.335396,2.361,2.64974
-1.14746,-0.335396,2.361,2.64641
-1.13979,-0.335396,2.361,2.64309
-1.13213,-0.335396,2.361,2.6398
-1.12447,-0.335396,2.361,2.63652
-1.1168,-0.335396,2.361,2.63326
-1.10914,-0.335396,2.361,2.63002
-1.10148,-0.335396,2.361,2.6268
-1.09381,-0.335396,2.361,2.62359
-1.08615,-0.335396,2.361,2.62041
-1.07849,-0.335396,2.361,2.61724
-1.07082,-0.335396,2.361,2.61409
-1.05596,-0.333124,2.345,2.59327
-1.04835,-0.333124,2.345,2.59018
-1.04073,-0.333124,2.345,2.58711
-1.03312,-0.333124,2.345,2.58405
-1.02551,-0.333124,2.345,2.58102
-1.0179,-0.333124,2.345,2.57801
-1.01029,-0.333124,2.345,2.57501
-1.00268,-0.333124,2.345,2.57203
-0.995066,-0.333124,2.345,2.56908
-0.987455,-0.333124,2.345,2.56614
-0.979844,-0.333124,2.345,2.56322
-0.972232,-0.333124,2.345,2.56032
-0.964621,-0.333124,2.345,2.55744
-0.95701,-0.333124,2.345,2.55458
-0.955876,-0.335396,2.361,2.56915
-0.948213,-0.335396,2.361,2.5663
-0.94055,-0.335396,2.361,2.56348
-0.932887,-0.335396,2.361,2.56068
-0.925224,-0.335396,2.361,2.5579
-0.91756,-0.335396,2.361,2.55514
-0.909897,-0.335396,2.361,2.5524
-0.902234,-0.335396,2.361,2.54967
-0.894571,-0.335396,2.361,2.54697
-0.886907,-0.335396,2.361,2.54429
-0.879244,-0.335396,2.361,2.54163
-0.871581,-0.335396,2.361,2.53899
-0.863918,-0.335396,2.361,2.53637
-0.856255,-0.335396,2.361,2.53377
-0.854342,-0.337669,2.377,2.54834
-0.846627,-0.337669,2.377,2.54577
-0.833265,-0.335396,2.361,2.52609
-0.825602,-0.335396,2.361,2.52357
-0.817938,-0.335396,2.361,2.52108
-0.810275,-0.335396,2.361,2.5186
-0.802612,-0.335396,2.361,2.51615
-0.794949,-0.335396,2.361,2.51371
-0.787286,-0.335396,2.361,2.5113
-0.779622,-0.335396,2.361,2.50891
-0.771959,-0.335396,2.361,2.50654
-0.764296,-0.335396,2.361,2.50419
-0.756633,-0.335396,2.361,2.50186
-0.748969,-0.335396,2.361,2.49955
-0.741306,-0.335396,2.361,2.49727
-0.738615,-0.337669,2.377,2.51191
-0.7309,-0.337669,2.377,2.50965
-0.723184,-0.337669,2.377,2.50742
-0.715469,-0.337669,2.377,2.5052
-0.712816,-0.340084,2.394,2.52091
-0.705046,-0.340084,2.394,2.51873
-0.697275,-0.340084,2.394,2.51656
-0.689505,-0.340084,2.394,2.51442
-0.686576,-0.342499,2.411,2.53014
-0.67875,-0.342499,2.411,2.52803
-0.670925,-0.342499,2.411,2.52594
-0.663099,-0.342499,2.411,2.52387
-0.655274,-0.342499,2.411,2.52183
-0.652013,-0.344914,2.428,2.53757
-0.644133,-0.344914,2.428,2.53556
-0.640707,-0.347329,2.445,2.55131
-0.632771,-0.347329,2.445,2.54933
-0.624835,-0.347329,2.445,2.54737
-0.616899,-0.347329,2.445,2.54543
-0.608963,-0.347329,2.445,2.54352
-0.605452,-0.349886,2.463,2.56034
-0.597458,-0.349886,2.463,2.55847
-0.589464,-0.349886,2.463,2.55661
-0.585719,-0.352443,2.481,2.57345
-0.577666,-0.352443,2.481,2.57163
-0.573746,-0.355,2.499,2.58848
-0.565635,-0.355,2.499,2.58669
-0.557524,-0.355,2.499,2.58493
-0.549413,-0.355,2.499,2.58319
-0.541301,-0.355,2.499,2.58148
-0.53319,-0.355,2.499,2.57979
-0.525079,-0.355,2.499,2.57813
-0.516968,-0.355,2.499,2.57649
-0.508857,-0.355,2.499,2.57487
-0.500746,-0.355,2.499,2.57328
-0.492635,-0.355,2.499,2.57171
-0.484524,-0.355,2.499,2.57017
-0.476412,-0.355,2.499,2.56866
-0.468301,-0.355,2.499,2.56716
-0.46019,-0.355,2.499,2.5657
-0.448823,-0.352443,2.481,2.54578
-0.44077,-0.352443,2.481,2.54438
-0.432717,-0.352443,2.481,2.54299
-0.424665,-0.352443,2.481,2.54164
-0.416612,-0.352443,2.481,2.5403
-0.408559,-0.352443,2.481,2.539
-0.400506,-0.352443,2.481,2.53771
-0.392454,-0.352443,2.481,2.53645
-0.381612,-0.349886,2.463,2.51683
-0.373618,-0.349886,2.463,2.51563
-0.365624,-0.349886,2.463,2.51445
-0.357629,-0.349886,2.463,2.5133
-0.349635,-0.349886,2.463,2.51218
-0.341641,-0.349886,2.463,2.51108
-0.333646,-0.349886,2.463,2.51
-0.325652,-0.349886,2.463,2.50895
-0.315336,-0.347329,2.445,2.4896
-0.3074,-0.347329,2.445,2.48861
-0.299465,-0.347329,2.445,2.48764
-0.291529,-0.347329,2.445,2.4867
-0.281621,-0.344914,2.428,2.46849
-0.27374,-0.344914,2.428,2.46761
-0.26586,-0.344914,2.428,2.46675
-0.256173,-0.342499,2.411,2.44864
-0.248347,-0.342499,2.411,2.44784
-0.240522,-0.342499,2.411,2.44705
-0.231055,-0.340084,2.394,2.42905
-0.223285,-0.340084,2.394,2.42832
-0.215515,-0.340084,2.394,2.42762
-0.207745,-0.340084,2.394,2.42694
-0.199974,-0.340084,2.394,2.42629
-0.192204,-0.340084,2.394,2.42566
-0.184434,-0.340084,2.394,2.42506
-0.176663,-0.340084,2.394,2.42448
-0.168893,-0.340084,2.394,2.42393
-0.161123,-0.340084,2.394,2.4234
-0.153352,-0.340084,2.394,2.42289
-0.145582,-0.340084,2.394,2.42241
-0.137812,-0.340084,2.394,2.42196
-0.130041,-0.340084,2.394,2.42153
-0.123139,-0.342499,2.411,2.43832
-0.115314,-0.342499,2.411,2.43793
-0.107488,-0.342499,2.411,2.43758
-0.100365,-0.344914,2.428,2.45443
-0.0924847,-0.344914,2.428,2.45412
-0.084604,-0.344914,2.428,2.45384
-0.0772605,-0.347329,2.445,2.47076
-0.069835,-0.349886,2.463,2.48871
-0.0618407,-0.349886,2.463,2.4885
-0.0538464,-0.349886,2.463,2.48831
-0.0461872,-0.352443,2.481,2.50633
-0.0381345,-0.352443,2.481,2.5062
-0.0303,-0.355,2.499,2.52427
-0.0223487,-0.357557,2.517,2.54237
-0.0141792,-0.357557,2.517,2.54231
-0.00600962,-0.357557,2.517,2.54228
0.00215994,-0.357557,2.517,2.54227
0.0104075,-0.360256,2.536,2.56148
0.0186387,-0.360256,2.536,2.56153
0.0268699,-0.360256,2.536,2.5616
0.0351011,-0.360256,2.536,2.5617
0.0433324,-0.360256,2.536,2.56183
0.0515636,-0.360256,2.536,2.56198
0.0597948,-0.360256,2.536,2.56216
0.0680261,-0.360256,2.536,2.56236
0.075686,-0.357557,2.517,2.5434
0.0838555,-0.357557,2.517,2.54365
0.0920251,-0.357557,2.517,2.54394
0.100195,-0.357557,2.517,2.54424
0.108364,-0.357557,2.517,2.54458
0.116534,-0.357557,2.517,2.54494
0.123811,-0.355,2.499,2.52712
0.130972,-0.352443,2.481,2.50933
0.139025,-0.352443,2.481,2.50976
0.147078,-0.352443,2.481,2.51022
0.154005,-0.349886,2.463,2.49249
0.161999,-0.349886,2.463,2.493
0.169994,-0.349886,2.463,2.49353
0.176687,-0.347329,2.445,2.47586
0.184623,-0.347329,2.445,2.47644
0.192559,-0.347329,2.445,2.47704
0.200495,-0.347329,2.445,2.47767
0.206981,-0.344914,2.428,2.4611
0.214862,-0.344914,2.428,2.46177
0.222743,-0.344914,2.428,2.46247
0.230623,-0.344914,2.428,2.4632
0.238504,-0.344914,2.428,2.46395
0.246385,-0.344914,2.428,2.46472
0.254265,-0.344914,2.428,2.46552
0.262146,-0.344914,2.428,2.46635
0.271917,-0.347329,2.445,2.48447
0.277908,-0.344914,2.428,2.46807
0.285788,-0.344914,2.428,2.46897
0.293669,-0.344914,2.428,2.4699
0.30155,-0.344914,2.428,2.47085
0.311597,-0.347329,2.445,2.48913
0.319533,-0.347329,2.445,2.49013
0.327469,-0.347329,2.445,2.49116
0.337874,-0.349886,2.463,2.51057
0.345868,-0.349886,2.463,2.51166
0.353862,-0.349886,2.463,2.51277
0.361856,-0.349886,2.463,2.51391
0.372554,-0.352443,2.481,2.53345
0.380606,-0.352443,2.481,2.53465
0.388659,-0.352443,2.481,2.53587
0.396712,-0.352443,2.481,2.53712
0.404765,-0.352443,2.481,2.53839
0.412817,-0.352443,2.481,2.53968
0.423923,-0.355,2.499,2.55944
0.432035,-0.355,2.499,2.5608
0.440146,-0.355,2.499,2.56218
0.448257,-0.355,2.499,2.56358
0.456368,-0.355,2.499,2.56501
0.464479,-0.355,2.499,2.56647
0.47259,-0.355,2.499,2.56795
0.480701,-0.355,2.499,2.56946
0.488812,-0.355,2.499,2.57099
0.493344,-0.352443,2.481,2.55401
0.501397,-0.352443,2.481,2.55558
0.50945,-0.352443,2.481,2.55717
0.517502,-0.352443,2.481,2.55879
0.525555,-0.352443,2.481,2.56043
0.533608,-0.352443,2.481,2.56209
0.541661,-0.352443,2.481,2.56378
0.549713,-0.352443,2.481,2.56549
0.557766,-0.352443,2.481,2.56723
0.565819,-0.352443,2.481,2.56899
0.573871,-0.352443,2.481,2.57078
0.581924,-0.352443,2.481,2.57259
0.594257,-0.355,2.499,2.5931
0.602368,-0.355,2.499,2.59497
0.610479,-0.355,2.499,2.59687
0.623046,-0.357557,2.517,2.6175
0.631216,-0.357557,2.517,2.61946
0.639385,-0.357557,2.517,2.62144
0.647555,-0.357557,2.517,2.62345
0.655725,-0.357557,2.517,2.62547
0.668906,-0.360256,2.536,2.64736
0.677137,-0.360256,2.536,2.64945
0.685368,-0.360256,2.536,2.65157
0.693599,-0.360256,2.536,2.65371
0.70183,-0.360256,2.536,2.65587
0.710062,-0.360256,2.536,2.65806
0.718293,-0.360256,2.536,2.66027
0.726524,-0.360256,2.536,2.6625
0.734755,-0.360256,2.536,2.66476
0.742987,-0.360256,2.536,2.66704
0.751218,-0.360256,2.536,2.66935
0.759449,-0.360256,2.536,2.67167
0.761929,-0.357557,2.517,2.65399
0.770098,-0.357557,2.517,2.65635
0.778268,-0.357557,2.517,2.65873
0.786437,-0.357557,2.517,2.66113
0.794607,-0.357557,2.517,2.66356
0.802777,-0.357557,2.517,2.66601
0.810946,-0.357557,2.517,2.66848
0.819116,-0.357557,2.517,2.67097
0.821369,-0.355,2.499,2.65437
0.82948,-0.355,2.499,2.65689
0.837591,-0.355,2.499,2.65943
0.845702,-0.355,2.499,2.662
0.853814,-0.355,2.499,2.66459
0.861925,-0.355,2.499,2.6672
0.870036,-0.355,2.499,2.66983
0.878147,-0.355,2.499,2.67248
0.886258,-0.355,2.499,2.67516
0.894369,-0.355,2.499,2.67786
0.90248,-0.355,2.499,2.68058
0.910591,-0.355,2.499,2.68332
0.912085,-0.352443,2.481,2.66674
0.920138,-0.352443,2.481,2.6695
0.928191,-0.352443,2.481,2.67229
0.936243,-0.352443,2.481,2.67509
0.944296,-0.352443,2.481,2.67792
0.952349,-0.352443,2.481,2.68077
0.960401,-0.352443,2.481,2.68364
0.961428,-0.349886,2.463,2.66705
0.969422,-0.349886,2.463,2.66994
0.977417,-0.349886,2.463,2.67285
0.985411,-0.349886,2.463,2.67578
0.993405,-0.349886,2.463,2.67874
1.0014,-0.349886,2.463,2.68171
1.00939,-0.349886,2.463,2.68471
1.01739,-0.349886,2.463,2.68773
1.02538,-0.349886,2.463,2.69076
1.03338,-0.349886,2.463,2.69382
nan,nan,nan,NaN
nan,nan,nan,NaN
nan,nan,nan,NaN
nan,nan,nan,NaN
nan,nan,nan,NaN
nan,nan,nan,NaN
nan,nan,nan,NaN
1.42524,-0.45444,3.199,3.53149
1.43562,-0.45444,3.199,3.53569
1.446,-0.45444,3.199,3.53992
1.45639,-0.45444,3.199,3.54418
1.46677,-0.45444,3.199,3.54845
1.47715,-0.45444,3.199,3.55276
1.48754,-0.45444,3.199,3.55709
1.49792,-0.45444,3.199,3.56144
1.52292,-0.458844,3.23,3.60038
1.5334,-0.458844,3.23,3.60483
1.54389,-0.458844,3.23,3.6093
1.55437,-0.458844,3.23,3.61379
1.56485,-0.458844,3.23,3.61832
1.57534,-0.458844,3.23,3.62286
1.58582,-0.458844,3.23,3.62743
nan,nan,nan,NaN
1.59137,-0.45444,3.199,3.60175
1.60175,-0.45444,3.199,3.60635
1.61213,-0.45444,3.199,3.61097
1.62252,-0.45444,3.199,3.61562
1.64872,-0.458844,3.23,3.65537
1.69106,-0.467652,3.292,3.73037
1.70174,-0.467652,3.292,3.73522
1.71243,-0.467652,3.292,3.7401
1.73986,-0.472197,3.324,3.78141
1.7675,-0.476743,3.356,3.82284
1.7784,-0.476743,3.356,3.82789
1.80688,-0.481431,3.389,3.87065
1.8549,-0.491233,3.458,3.95471
1.86612,-0.491233,3.458,3.95998
1.89635,-0.496205,3.493,4.00542
1.90768,-0.496205,3.493,4.0108
1.9388,-0.501319,3.529,4.0576
1.95025,-0.501319,3.529,4.06308
1.96171,-0.501319,3.529,4.06859
1.99385,-0.506575,3.566,4.11684
2.00542,-0.506575,3.566,4.12246
2.017,-0.506575,3.566,4.12811
2.02857,-0.506575,3.566,4.13377
2.04015,-0.506575,3.566,4.13946
2.05172,-0.506575,3.566,4.14518
2.06329,-0.506575,3.566,4.15092
2.07487,-0.506575,3.566,4.15669
2.08644,-0.506575,3.566,4.16248
2.07625,-0.501319,3.529,4.12504
2.0877,-0.501319,3.529,4.13082
2.05692,-0.491233,3.458,4.0534
2.04722,-0.486261,3.423,4.01802
2.05833,-0.486261,3.423,4.02369
2.02893,-0.476743,3.356,3.95052
2.02037,-0.472197,3.324,3.9184
2.03116,-0.472197,3.324,3.92397
2.00264,-0.463106,3.26,3.85391
1.97555,-0.45444,3.199,3.7872
1.98593,-0.45444,3.199,3.79263
1.96012,-0.446201,3.141,3.72921
1.93456,-0.438104,3.084,3.66681
1.94457,-0.438104,3.084,3.6721
1.90324,-0.426597,3.003,3.58083
1.87986,-0.41921,2.951,3.52392
1.88944,-0.41921,2.951,3.52904
1.88293,-0.415659,2.926,3.50424
1.86074,-0.408698,2.877,3.45058
1.87007,-0.408698,2.877,3.45562
1.86373,-0.405288,2.853,3.43182
1.84214,-0.398612,2.806,3.38024
1.82156,-0.392219,2.761,3.33092
1.83052,-0.392219,2.761,3.33583
1.82482,-0.389094,2.739,3.31414
1.80493,-0.382986,2.696,3.26693
1.81368,-0.382986,2.696,3.27178
1.80823,-0.380002,2.675,3.25111
1.80265,-0.377019,2.654,3.23039
-2.28377,-0.45697,3.292,4.03258
-2.27308,-0.45697,3.292,4.02654
-2.2624,-0.45697,3.292,4.02051
-2.2736,-0.461412,3.324,4.05353
-2.2846,-0.465853,3.356,4.08646
-2.29606,-0.470434,3.389,4.1205
-2.28506,-0.470434,3.389,4.11438
-2.29688,-0.475154,3.423,4.1495
-2.28577,-0.475154,3.423,4.14336
-2.27466,-0.475154,3.423,4.13724
-2.26355,-0.475154,3.423,4.13114
-2.25243,-0.475154,3.423,4.12507
-2.24132,-0.475154,3.423,4.11901
-2.23021,-0.475154,3.423,4.11297
-2.2191,-0.475154,3.423,4.10696
-2.20799,-0.475154,3.423,4.10097
-2.19688,-0.475154,3.423,4.095
-2.18577,-0.475154,3.423,4.08905
-2.17466,-0.475154,3.423,4.08312
-2.16355,-0.475154,3.423,4.07721
-2.17445,-0.480012,3.458,4.11296
-2.16323,-0.480012,3.458,4.10703
-2.152,-0.480012,3.458,4.10113
-2.11911,-0.475154,3.423,4.05381
-2.108,-0.475154,3.423,4.04801
-2.09689,-0.475154,3.423,4.04223
-2.08578,-0.475154,3.423,4.03648
-2.07467,-0.475154,3.423,4.03075
-2.06356,-0.475154,3.423,4.02504
-2.05245,-0.475154,3.423,4.01936
-2.04134,-0.475154,3.423,4.0137
nan,nan,nan,NaN
nan,nan,nan,NaN
nan,nan,nan,NaN
nan,nan,nan,NaN
nan,nan,nan,NaN
nan,nan,nan,NaN
nan,nan,nan,NaN
nan,nan,nan,NaN
nan,nan,nan,NaN
nan,nan,nan,NaN
nan,nan,nan,NaN
nan,nan,nan,NaN
nan,nan,nan,NaN
nan,nan,nan,NaN
nan,nan,nan,NaN
nan,nan,nan,NaN
nan,nan,nan,NaN
nan,nan,nan,NaN
nan,nan,nan,NaN
nan,nan,nan,NaN
nan,nan,nan,NaN
nan,nan,nan,NaN
nan,nan,nan,NaN
nan,nan,nan,NaN
nan,nan,nan,NaN
nan,nan,nan,NaN
nan,nan,nan,NaN
nan,nan,nan,NaN
nan,nan,nan,NaN
nan,nan,nan,NaN
nan,nan,nan,NaN
-1.16278,-0.327735,2.361,2.65213
-1.15512,-0.327735,2.361,2.64878
-1.14746,-0.327735,2.361,2.64545
-1.13979,-0.327735,2.361,2.64213
-1.13213,-0.327735,2.361,2.63884
-1.12447,-0.327735,2.361,2.63556
-1.1168,-0.327735,2.361,2.6323
-1.10914,-0.327735,2.361,2.62905
-1.10148,-0.327735,2.361,2.62583
-1.09381,-0.327735,2.361,2.62262
-1.08615,-0.327735,2.361,2.61944
-1.07849,-0.327735,2.361,2.61627
-1.07082,-0.327735,2.361,2.61312
-1.05596,-0.325514,2.345,2.5923
-1.04835,-0.325514,2.345,2.58921
-1.04073,-0.325514,2.345,2.58614
-1.03312,-0.325514,2.345,2.58308
-1.02551,-0.325514,2.345,2.58005
-1.0179,-0.325514,2.345,2.57703
-1.01029,-0.325514,2.345,2.57404
-1.00268,-0.325514,2.345,2.57106
-0.995066,-0.325514,2.345,2.5681
-0.987455,-0.325514,2.345,2.56516
-0.979844,-0.325514,2.345,2.56224
-0.972232,-0.325514,2.345,2.55934
-0.964621,-0.325514,2.345,2.55646
-0.95701,-0.325514,2.345,2.5536
-0.955876,-0.327735,2.361,2.56816
-0.948213,-0.327735,2.361,2.56531
-0.94055,-0.327735,2.361,2.56249
-0.932887,-0.327735,2.361,2.55969
-0.925224,-0.327735,2.361,2.55691
-0.91756,-0.327735,2.361,2.55414
-0.909897,-0.327735,2.361,2.5514
-0.902234,-0.327735,2.361,2.54868
-0.894571,-0.327735,2.361,2.54597
-0.886907,-0.327735,2.361,2.54329
-0.879244,-0.327735,2.361,2.54063
-0.871581,-0.327735,2.361,2.53799
-0.863918,-0.327735,2.361,2.53537
-0.856255,-0.327735,2.361,2.53277
-0.848591,-0.327735,2.361,2.53019
-0.840928,-0.327735,2.361,2.52763
-0.833265,-0.327735,2.361,2.52509
-0.825602,-0.327735,2.361,2.52257
-0.817938,-0.327735,2.361,2.52007
-0.810275,-0.327735,2.361,2.51759
-0.802612,-0.327735,2.361,2.51514
-0.794949,-0.327735,2.361,2.5127
-0.787286,-0.327735,2.361,2.51029
-0.779622,-0.327735,2.361,2.5079
-0.771959,-0.327735,2.361,2.50552
-0.764296,-0.327735,2.361,2.50317
-0.756633,-0.327735,2.361,2.50084
-0.748969,-0.327735,2.361,2.49854
-0.741306,-0.327735,2.361,2.49625
-0.733643,-0.327735,2.361,2.49399
-0.7309,-0.329956,2.377,2.50863
-0.723184,-0.329956,2.377,2.50639
-0.715469,-0.329956,2.377,2.50418
-0.712816,-0.332316,2.394,2.51988
-0.705046,-0.332316,2.394,2.51769
-0.697275,-0.332316,2.394,2.51552
-0.689505,-0.332316,2.394,2.51338
-0.686576,-0.334676,2.411,2.52909
-0.67875,-0.334676,2.411,2.52698
-0.670925,-0.334676,2.411,2.52489
-0.663099,-0.334676,2.411,2.52282
-0.655274,-0.334676,2.411,2.52078
-0.652013,-0.337036,2.428,2.53651
-0.644133,-0.337036,2.428,2.5345
-0.636252,-0.337036,2.428,2.53251
-0.628371,-0.337036,2.428,2.53054
-0.624835,-0.339396,2.445,2.5463
-0.616899,-0.339396,2.445,2.54436
-0.608963,-0.339396,2.445,2.54245
-0.605452,-0.341894,2.463,2.55926
-0.597458,-0.341894,2.463,2.55738
-0.589464,-0.341894,2.463,2.55553
-0.585719,-0.344393,2.481,2.57236
-0.577666,-0.344393,2.481,2.57054
-0.573746,-0.346891,2.499,2.58738
-0.565635,-0.346891,2.499,2.58559
-0.557524,-0.346891,2.499,2.58383
-0.549413,-0.346891,2.499,2.58209
-0.541301,-0.346891,2.499,2.58038
-0.53319,-0.346891,2.499,2.57869
-0.525079,-0.346891,2.499,2.57702
-0.516968,-0.346891,2.499,2.57538
-0.505192,-0.344393,2.481,2.55523
-0.497139,-0.344393,2.481,2.55365
-0.489086,-0.344393,2.481,2.55209
-0.484524,-0.346891,2.499,2.56907
-0.476412,-0.346891,2.499,2.56755
-0.468301,-0.346891,2.499,2.56606
-0.46019,-0.346891,2.499,2.56459
-0.448823,-0.344393,2.481,2.54468
-0.44077,-0.344393,2.481,2.54327
-0.432717,-0.344393,2.481,2.54189
-0.424665,-0.344393,2.481,2.54053
-0.416612,-0.344393,2.481,2.5392
-0.408559,-0.344393,2.481,2.53789
-0.400506,-0.344393,2.481,2.53661
-0.392454,-0.344393,2.481,2.53535
-0.384401,-0.344393,2.481,2.53411
-0.373618,-0.341894,2.463,2.51453
-0.365624,-0.341894,2.463,2.51335
-0.357629,-0.341894,2.463,2.5122
-0.349635,-0.341894,2.463,2.51108
-0.339144,-0.339396,2.445,2.49163
-0.331208,-0.339396,2.445,2.49057
-0.323272,-0.339396,2.445,2.48952
-0.315336,-0.339396,2.445,2.4885
-0.3074,-0.339396,2.445,2.48751
-0.299465,-0.339396,2.445,2.48654
-0.289502,-0.337036,2.428,2.46832
-0.281621,-0.337036,2.428,2.46741
-0.27374,-0.337036,2.428,2.46652
-0.263998,-0.334676,2.411,2.44839
-0.256173,-0.334676,2.411,2.44756
-0.248347,-0.334676,2.411,2.44675
-0.240522,-0.334676,2.411,2.44597
-0.231055,-0.332316,2.394,2.42797
-0.223285,-0.332316,2.394,2.42725
-0.215515,-0.332316,2.394,2.42654
-0.207745,-0.332316,2.394,2.42587
-0.199974,-0.332316,2.394,2.42521
-0.192204,-0.332316,2.394,2.42459
-0.184434,-0.332316,2.394,2.42398
-0.176663,-0.332316,2.394,2.4234
-0.168893,-0.332316,2.394,2.42285
-0.161123,-0.332316,2.394,2.42232
-0.153352,-0.332316,2.394,2.42181
-0.145582,-0.332316,2.394,2.42134
-0.137812,-0.332316,2.394,2.42088
-0.130041,-0.332316,2.394,2.42045
-0.122271,-0.332316,2.394,2.42005
-0.114501,-0.332316,2.394,2.41967
-0.107488,-0.334676,2.411,2.43649
-0.0996626,-0.334676,2.411,2.43616
-0.0924847,-0.337036,2.428,2.45303
-0.084604,-0.337036,2.428,2.45274
-0.0767233,-0.337036,2.428,2.45248
-0.0693246,-0.339396,2.445,2.46942
-0.0613887,-0.339396,2.445,2.46921
-0.0538464,-0.341894,2.463,2.4872
-0.0461872,-0.344393,2.481,2.50521
-0.0381345,-0.344393,2.481,2.50508
-0.0303,-0.346891,2.499,2.52314
-0.0221889,-0.346891,2.499,2.52306
-0.0141792,-0.34939,2.517,2.54117
-0.00600962,-0.34939,2.517,2.54114
0.00215994,-0.34939,2.517,2.54114
0.0103295,-0.34939,2.517,2.54116
0.0184991,-0.34939,2.517,2.5412
0.0266686,-0.34939,2.517,2.54127
0.0348382,-0.34939,2.517,2.54137
0.0430077,-0.34939,2.517,2.5415
0.0511773,-0.34939,2.517,2.54165
0.0597948,-0.352028,2.536,2.56101
0.0680261,-0.352028,2.536,2.56122
0.075686,-0.34939,2.517,2.54226
0.0838555,-0.34939,2.517,2.54252
0.0920251,-0.34939,2.517,2.5428
0.100195,-0.34939,2.517,2.54311
0.108364,-0.34939,2.517,2.54344
0.116534,-0.34939,2.517,2.5438
0.123811,-0.346891,2.499,2.526
0.131923,-0.346891,2.499,2.52641
0.140034,-0.346891,2.499,2.52684
0.147078,-0.344393,2.481,2.5091
0.154005,-0.341894,2.463,2.49138
0.161999,-0.341894,2.463,2.49189
0.169994,-0.341894,2.463,2.49242
0.176687,-0.339396,2.445,2.47476
0.184623,-0.339396,2.445,2.47534
0.192559,-0.339396,2.445,2.47594
0.200495,-0.339396,2.445,2.47657
0.208431,-0.339396,2.445,2.47723
0.216366,-0.339396,2.445,2.47791
0.222743,-0.337036,2.428,2.46138
0.230623,-0.337036,2.428,2.46211
0.238504,-0.337036,2.428,2.46286
0.246385,-0.337036,2.428,2.46363
0.256046,-0.339396,2.445,2.48169
0.263982,-0.339396,2.445,2.48252
0.271917,-0.339396,2.445,2.48338
0.277908,-0.337036,2.428,2.46698
0.285788,-0.337036,2.428,2.46788
0.293669,-0.337036,2.428,2.46881
0.30155,-0.337036,2.428,2.46976
0.311597,-0.339396,2.445,2.48803
0.319533,-0.339396,2.445,2.48904
0.327469,-0.339396,2.445,2.49007
0.337874,-0.341894,2.463,2.50947
0.345868,-0.341894,2.463,2.51055
0.353862,-0.341894,2.463,2.51167
0.361856,-0.341894,2.463,2.51281
0.372554,-0.344393,2.481,2.53234
0.380606,-0.344393,2.481,2.53354
0.388659,-0.344393,2.481,2.53476
0.396712,-0.344393,2.481,2.53601
0.404765,-0.344393,2.481,2.53728
0.412817,-0.344393,2.481,2.53858
0.423923,-0.346891,2.499,2.55833
0.432035,-0.346891,2.499,2.55969
0.440146,-0.346891,2.499,2.56107
0.448257,-0.346891,2.499,2.56247
0.456368,-0.346891,2.499,2.5639
0.464479,-0.346891,2.499,2.56536
0.47259,-0.346891,2.499,2.56684
0.480701,-0.346891,2.499,2.56835
0.488812,-0.346891,2.499,2.56988
0.493344,-0.344393,2.481,2.55291
0.501397,-0.344393,2.481,2.55448
0.50945,-0.344393,2.481,2.55607
0.517502,-0.344393,2.481,2.55769
0.525555,-0.344393,2.481,2.55933
0.533608,-0.344393,2.481,2.561
0.541661,-0.344393,2.481,2.56269
0.549713,-0.344393,2.481,2.5644
0.557766,-0.344393,2.481,2.56614
0.565819,-0.344393,2.481,2.5679
0.573871,-0.344393,2.481,2.56969
0.581924,-0.344393,2.481,2.5715
0.594257,-0.346891,2.499,2.592
0.602368,-0.346891,2.499,2.59387
0.610479,-0.346891,2.499,2.59577
0.623046,-0.34939,2.517,2.6164
0.631216,-0.34939,2.517,2.61836
0.639385,-0.34939,2.517,2.62034
0.647555,-0.34939,2.517,2.62234
0.655725,-0.34939,2.517,2.62437
0.663894,-0.34939,2.517,2.62643
0.677137,-0.352028,2.536,2.64835
0.685368,-0.352028,2.536,2.65046
