0.467749,0.614137,1.967,2.11306
0.474133,0.614137,1.967,2.11449
0.475143,0.607268,1.945,2.09226
0.481456,0.607268,1.945,2.0937
0.490528,0.610703,1.956,2.10701
0.494082,0.607268,1.945,2.09664
0.497565,0.603834,1.934,2.08627
0.503842,0.603834,1.934,2.08778
0.507218,0.600399,1.923,2.07742
0.51346,0.600399,1.923,2.07895
0.516729,0.596965,1.912,2.0686
0.522934,0.596965,1.912,2.07016
0.52914,0.596965,1.912,2.07174
0.532546,0.593843,1.902,2.06249
0.53872,0.593843,1.902,2.06409
0.544893,0.593843,1.902,2.06571
0.551067,0.593843,1.902,2.06735
0.55724,0.593843,1.902,2.069
0.563413,0.593843,1.902,2.07067
0.572581,0.596965,1.912,2.08326
0.578787,0.596965,1.912,2.08497
0.584993,0.596965,1.912,2.0867
0.5946,0.600399,1.923,2.10047
0.61459,0.614137,1.967,2.15034
0.624762,0.617884,1.979,2.16531
0.631186,0.617884,1.979,2.16717
0.637609,0.617884,1.979,2.16905
0.647612,0.621318,1.99,2.18301
0.654071,0.621318,1.99,2.18494
0.66053,0.621318,1.99,2.18688
0.671012,0.625065,2.002,2.20204
0.677509,0.625065,2.002,2.20403
0.684007,0.625065,2.002,2.20603
0.690506,0.625065,2.002,2.20806
0.701181,0.628811,2.014,2.22334
0.703501,0.625065,2.002,2.21215
0.709999,0.625065,2.002,2.21423
0.716497,0.625065,2.002,2.21632
0.722995,0.625065,2.002,2.21843
0.729493,0.625065,2.002,2.22056
0.735991,0.625065,2.002,2.2227
0.742489,0.625065,2.002,2.22486
0.748987,0.625065,2.002,2.22704
0.755485,0.625065,2.002,2.22923
0.757416,0.621318,1.99,2.21807
0.763875,0.621318,1.99,2.22028
0.770334,0.621318,1.99,2.22251
0.772499,0.617884,1.979,2.21246
0.778923,0.617884,1.979,2.21471
0.780584,0.614137,1.967,2.20353
0.786968,0.614137,1.967,2.2058
0.793353,0.614137,1.967,2.20809
0.795265,0.610703,1.956,2.19803
0.801614,0.610703,1.956,2.20034
0.807962,0.610703,1.956,2.20266
0.809731,0.607268,1.945,2.19259
0.816044,0.607268,1.945,2.19493
0.822357,0.607268,1.945,2.19729
0.82867,0.607268,1.945,2.19966
0.834983,0.607268,1.945,2.20204
0.841296,0.607268,1.945,2.20445
0.847609,0.607268,1.945,2.20686
0.853922,0.607268,1.945,2.20929
0.860235,0.607268,1.945,2.21174
0.866548,0.607268,1.945,2.21421
0.872861,0.607268,1.945,2.21668
0.884147,0.610703,1.956,2.23173
0.890495,0.610703,1.956,2.23425
0.896844,0.610703,1.956,2.23679
0.908272,0.614137,1.967,2.25194
0.914656,0.614137,1.967,2.25452
0.921041,0.614137,1.967,2.25712
0.927425,0.614137,1.967,2.25973
0.933809,0.614137,1.967,2.26236
0.94593,0.617884,1.979,2.27882
0.952353,0.617884,1.979,2.28149
0.958776,0.617884,1.979,2.28418
0.9652,0.617884,1.979,2.28688
0.971623,0.617884,1.979,2.2896
0.978046,0.617884,1.979,2.29233
0.98447,0.617884,1.979,2.29508
0.990893,0.617884,1.979,2.29784
0.997316,0.617884,1.979,2.30062
1.00374,0.617884,1.979,2.30341
1.01578,0.621318,1.99,2.31904
1.02224,0.621318,1.99,2.32188
1.0287,0.621318,1.99,2.32473
1.0414,0.625065,2.002,2.34163
1.0479,0.625065,2.002,2.34452
1.05439,0.625065,2.002,2.34744
1.06089,0.625065,2.002,2.35036
1.07379,0.628811,2.014,2.36741
1.08032,0.628811,2.014,2.37038
1.08686,0.628811,2.014,2.37337
1.0934,0.628811,2.014,2.37637
1.09993,0.628811,2.014,2.37938
1.10647,0.628811,2.014,2.38241
1.11964,0.632558,2.026,2.39967
1.13289,0.636305,2.038,2.41697
1.1395,0.636305,2.038,2.42008
1.14612,0.636305,2.038,2.4232
1.15952,0.640051,2.05,2.44062
1.16617,0.640051,2.05,2.44379
1.16596,0.636305,2.038,2.43265
1.17258,0.636305,2.038,2.43583
1.17919,0.636305,2.038,2.43902
1.18581,0.636305,2.038,2.44222
1.19242,0.636305,2.038,2.44544
1.19904,0.636305,2.038,2.44868
1.19855,0.632558,2.026,2.43748
1.20513,0.632558,2.026,2.44072
1.2117,0.632558,2.026,2.44398
1.21828,0.632558,2.026,2.44725
1.22485,0.632558,2.026,2.45053
1.23143,0.632558,2.026,2.45382
1.23801,0.632558,2.026,2.45713
1.24458,0.632558,2.026,2.46045
1.25116,0.632558,2.026,2.46378
1.25773,0.632558,2.026,2.46712
1.26431,0.632558,2.026,2.47048
1.27089,0.632558,2.026,2.47385
1.28503,0.636305,2.038,2.49191
1.29164,0.636305,2.038,2.49533
1.29826,0.636305,2.038,2.49876
1.30487,0.636305,2.038,2.5022
1.30377,0.632558,2.026,2.49091
1.31034,0.632558,2.026,2.49435
1.31692,0.632558,2.026,2.49781
1.32349,0.632558,2.026,2.50129
1.33007,0.632558,2.026,2.50477
1.33664,0.632558,2.026,2.50827
1.34322,0.632558,2.026,2.51178
1.3498,0.632558,2.026,2.5153
1.35637,0.632558,2.026,2.51884
1.36295,0.632558,2.026,2.52239
1.36141,0.628811,2.014,2.51098
1.36795,0.628811,2.014,2.51453
-1.70866,0.77699,2.463,3.09671
-1.70067,0.77699,2.463,3.09231
-1.69268,0.77699,2.463,3.08792
-1.69699,0.782669,2.481,3.10608
-1.70119,0.788347,2.499,3.12419
-1.69308,0.788347,2.499,3.11978
-1.68497,0.788347,2.499,3.11538
-1.67686,0.788347,2.499,3.11101
-1.66875,0.788347,2.499,3.10664
-1.66064,0.788347,2.499,3.10229
-1.66443,0.794025,2.517,3.12027
-1.65626,0.794025,2.517,3.11592
-1.66053,0.800019,2.536,3.13507
-1.63992,0.794025,2.517,3.10727
-1.63175,0.794025,2.517,3.10296
-1.61197,0.788347,2.499,3.07651
-1.60386,0.788347,2.499,3.07227
-1.59575,0.788347,2.499,3.06805
-1.5762,0.782669,2.481,3.04177
-1.56815,0.782669,2.481,3.0376
-1.5601,0.782669,2.481,3.03345
-1.54078,0.77699,2.463,3.00734
-1.50043,0.760586,2.411,2.93985
-1.4926,0.760586,2.411,2.93586
-1.48478,0.760586,2.411,2.93189
-1.46654,0.755223,2.394,2.90729
-1.44841,0.74986,2.377,2.88276
-1.44069,0.74986,2.377,2.87889
-1.42333,0.744813,2.361,2.85569
-1.40608,0.739765,2.345,2.83255
-1.39846,0.739765,2.345,2.82878
-1.37187,0.729671,2.313,2.78647
-1.35552,0.724939,2.298,2.76474
-1.34806,0.724939,2.298,2.76109
-1.32252,0.715159,2.267,2.72026
-1.30646,0.710427,2.252,2.69871
-1.29915,0.710427,2.252,2.69518
-1.28323,0.705695,2.237,2.67374
-1.27597,0.705695,2.237,2.67026
-1.26871,0.705695,2.237,2.6668
-1.25356,0.701279,2.223,2.64668
-1.23849,0.696862,2.209,2.62662
-1.23132,0.696862,2.209,2.62325
-1.22415,0.696862,2.209,2.61989
-1.21698,0.696862,2.209,2.61655
-1.21748,0.701279,2.223,2.62979
-1.21026,0.701279,2.223,2.62645
-1.20305,0.701279,2.223,2.62314
-1.20336,0.705695,2.237,2.63633
-1.1961,0.705695,2.237,2.63303
-1.18884,0.705695,2.237,2.62974
-1.19743,0.715159,2.267,2.66169
-1.20634,0.724939,2.298,2.69474
-1.20671,0.729671,2.313,2.70897
-1.1992,0.729671,2.313,2.70564
-1.19994,0.734718,2.329,2.72101
-1.20057,0.739765,2.345,2.73636
-1.19296,0.739765,2.345,2.73303
-1.18535,0.739765,2.345,2.72971
-1.17774,0.739765,2.345,2.72642
-1.17013,0.739765,2.345,2.72314
-1.16251,0.739765,2.345,2.71987
-1.1549,0.739765,2.345,2.71663
-1.14729,0.739765,2.345,2.7134
-1.1319,0.734718,2.329,2.6917
-1.11662,0.729671,2.313,2.67006
-1.10911,0.729671,2.313,2.66693
-1.09446,0.724939,2.298,2.64654
-1.07944,0.719891,2.282,2.62506
-1.07203,0.719891,2.282,2.62202
-1.05063,0.710427,2.252,2.58457
-1.03637,0.705695,2.237,2.56442
-1.02911,0.705695,2.237,2.56149
-1.01545,0.701279,2.223,2.54257
-1.00189,0.696862,2.209,2.5237
-0.987961,0.69213,2.194,2.50375
-0.98084,0.69213,2.194,2.50095
-0.967505,0.687714,2.18,2.48222
-0.96043,0.687714,2.18,2.47947
-0.953354,0.687714,2.18,2.47674
-0.940635,0.683613,2.167,2.45927
-0.933602,0.683613,2.167,2.45659
-0.926568,0.683613,2.167,2.45392
-0.919535,0.683613,2.167,2.45128
-0.912501,0.683613,2.167,2.44865
-0.905468,0.683613,2.167,2.44604
-0.89263,0.679196,2.153,2.42765
-0.885642,0.679196,2.153,2.42509
-0.878653,0.679196,2.153,2.42255
-0.871665,0.679196,2.153,2.42002
-0.864677,0.679196,2.153,2.41752
-0.857689,0.679196,2.153,2.41503
-0.850701,0.679196,2.153,2.41255
-0.843713,0.679196,2.153,2.4101
-0.836725,0.679196,2.153,2.40766
-0.845538,0.69213,2.194,2.45104
-0.838416,0.69213,2.194,2.4486
-0.831295,0.69213,2.194,2.44617
-0.824174,0.69213,2.194,2.44376
-0.817053,0.69213,2.194,2.44136
-0.809932,0.69213,2.194,2.43899
-0.80281,0.69213,2.194,2.43663
-0.795689,0.69213,2.194,2.4343
-0.788568,0.69213,2.194,2.43198
-0.781447,0.69213,2.194,2.42968
-0.774326,0.69213,2.194,2.4274
-0.767205,0.69213,2.194,2.42514
-0.760083,0.69213,2.194,2.42289
-0.752962,0.69213,2.194,2.42067
-0.745841,0.69213,2.194,2.41846
-0.734006,0.687714,2.18,2.40086
-0.72693,0.687714,2.18,2.3987
-0.719855,0.687714,2.18,2.39657
-0.712779,0.687714,2.18,2.39445
-0.705703,0.687714,2.18,2.39236
-0.698627,0.687714,2.18,2.39028
-0.687428,0.683613,2.167,2.37398
-0.680394,0.683613,2.167,2.37195
-0.673361,0.683613,2.167,2.36994
-0.662022,0.679196,2.153,2.35266
-0.651079,0.675095,2.14,2.33651
-0.644133,0.675095,2.14,2.33458
-0.637187,0.675095,2.14,2.33267
-0.626118,0.670679,2.126,2.31554
-0.615431,0.666578,2.113,2.29953
-0.608573,0.666578,2.113,2.29771
-0.601715,0.666578,2.113,2.2959
-0.591197,0.662476,2.1,2.28
-0.584381,0.662476,2.1,2.27824
-0.577565,0.662476,2.1,2.2765
-0.570749,0.662476,2.1,2.27478
-0.563932,0.662476,2.1,2.27308
-0.557116,0.662476,2.1,2.2714
-0.546894,0.658375,2.087,2.25569
-0.54012,0.658375,2.087,2.25405
-0.536668,0.662476,2.1,2.26647
-0.529852,0.662476,2.1,2.26487
-0.523036,0.662476,2.1,2.26328
-0.519415,0.666578,2.113,2.27572
-0.509404,0.662476,2.1,2.26017
-0.502588,0.662476,2.1,2.25864
-0.498841,0.666578,2.113,2.27111
-0.491982,0.666578,2.113,2.26961
-0.485124,0.666578,2.113,2.26814
-0.478266,0.666578,2.113,2.26668
-0.474308,0.670679,2.126,2.27918
-0.467407,0.670679,2.126,2.27775
-0.457691,0.666578,2.113,2.26243
-0.450833,0.666578,2.113,2.26105
-0.443974,0.666578,2.113,2.25969
-0.437116,0.666578,2.113,2.25835
-0.430258,0.666578,2.113,2.25704
-0.4234,0.666578,2.113,2.25574
-0.416541,0.666578,2.113,2.25446
-0.409683,0.666578,2.113,2.25321
-0.402825,0.666578,2.113,2.25197
-0.395967,0.666578,2.113,2.25075
-0.389108,0.666578,2.113,2.24956
-0.38225,0.666578,2.113,2.24838
-0.375392,0.666578,2.113,2.24722
-0.368533,0.666578,2.113,2.24609
-0.361675,0.666578,2.113,2.24497
-0.352634,0.662476,2.1,2.23007
-0.345818,0.662476,2.1,2.22901
-0.339002,0.662476,2.1,2.22796
-0.330129,0.658375,2.087,2.21315
-0.321496,0.65459,2.075,2.19943
-0.314761,0.65459,2.075,2.19845
-0.308026,0.65459,2.075,2.1975
-0.299404,0.650489,2.062,2.1828
-0.291008,0.646703,2.05,2.1692
-0.284354,0.646703,2.05,2.16831
-0.276074,0.642918,2.038,2.15476
-0.267873,0.639132,2.026,2.14124
-0.261297,0.639132,2.026,2.14043
-0.253213,0.635346,2.014,2.12696
-0.246676,0.635346,2.014,2.1262
-0.240139,0.635346,2.014,2.12545
-0.23221,0.631561,2.002,2.11206
-0.224359,0.627775,1.99,2.0987
-0.2179,0.627775,1.99,2.09802
-0.211441,0.627775,1.99,2.09736
-0.203849,0.624305,1.979,2.08513
-0.197425,0.624305,1.979,2.08451
-0.191002,0.624305,1.979,2.08391
-0.184579,0.624305,1.979,2.08333
-0.178155,0.624305,1.979,2.08277
-0.171732,0.624305,1.979,2.08223
-0.164306,0.62052,1.967,2.06909
-0.157922,0.62052,1.967,2.06859
-0.151537,0.62052,1.967,2.06811
-0.145153,0.62052,1.967,2.06766
-0.138769,0.62052,1.967,2.06722
-0.132384,0.62052,1.967,2.0668
-0.126,0.62052,1.967,2.0664
-0.119616,0.62052,1.967,2.06602
-0.113231,0.62052,1.967,2.06566
-0.106847,0.62052,1.967,2.06532
-0.100462,0.62052,1.967,2.065
-0.0946519,0.624305,1.979,2.0773
-0.0882285,0.624305,1.979,2.07701
-0.0818052,0.624305,1.979,2.07675
-0.0753818,0.624305,1.979,2.07651
-0.0689585,0.624305,1.979,2.07628
-0.0625352,0.624305,1.979,2.07608
-0.0561118,0.624305,1.979,2.0759
-0.0499647,0.627775,1.99,2.08727
-0.0435056,0.627775,1.99,2.08713
-0.0370466,0.627775,1.99,2.087
-0.0305875,0.627775,1.99,2.0869
-0.0241285,0.627775,1.99,2.08681
-0.0176694,0.627775,1.99,2.08675
-0.011278,0.631561,2.002,2.09929
-0.00480865,0.635346,2.014,2.11184
0.0017283,0.635346,2.014,2.11184
0.00826524,0.635346,2.014,2.11185
0.0148022,0.635346,2.014,2.11189
0.0213391,0.635346,2.014,2.11195
0.0278761,0.635346,2.014,2.11202
0.034413,0.635346,2.014,2.11212
0.04095,0.635346,2.014,2.11224
0.0474869,0.635346,2.014,2.11237
0.0540239,0.635346,2.014,2.11253
0.0605608,0.635346,2.014,2.11271
0.0666979,0.631561,2.002,2.10031
0.0731959,0.631561,2.002,2.10053
0.0796939,0.631561,2.002,2.10077
0.0861919,0.631561,2.002,2.10102
0.0921343,0.627775,1.99,2.08871
0.0985934,0.627775,1.99,2.089
0.105052,0.627775,1.99,2.08932
0.111511,0.627775,1.99,2.08965
0.117971,0.627775,1.99,2.09
0.12443,0.627775,1.99,2.09038
0.130165,0.624305,1.979,2.07922
0.136588,0.624305,1.979,2.07963
0.143012,0.624305,1.979,2.08006
0.149435,0.624305,1.979,2.08051
0.155858,0.624305,1.979,2.08098
0.162282,0.624305,1.979,2.08147
0.168705,0.624305,1.979,2.08198
0.175129,0.624305,1.979,2.08252
0.181552,0.624305,1.979,2.08307
0.186835,0.62052,1.967,2.071
0.19322,0.62052,1.967,2.07159
0.200822,0.624305,1.979,2.08483
0.207245,0.624305,1.979,2.08546
0.213669,0.624305,1.979,2.08611
0.220092,0.624305,1.979,2.08678
0.226515,0.624305,1.979,2.08746
0.232939,0.624305,1.979,2.08817
0.239362,0.624305,1.979,2.0889
0.245785,0.624305,1.979,2.08964
0.252209,0.624305,1.979,2.09041
0.26007,0.627775,1.99,2.10282
0.266529,0.627775,1.99,2.10363
0.272988,0.627775,1.99,2.10445
0.279447,0.627775,1.99,2.1053
0.28763,0.631561,2.002,2.11887
0.297654,0.639132,2.026,2.14517
0.30423,0.639132,2.026,2.14609
0.312646,0.642918,2.038,2.15975
0.319261,0.642918,2.038,2.16072
0.325876,0.642918,2.038,2.16171
0.332491,0.642918,2.038,2.16272
0.339106,0.642918,2.038,2.16374
0.345721,0.642918,2.038,2.16479
0.352336,0.642918,2.038,2.16585
0.35895,0.642918,2.038,2.16694
0.365565,0.642918,2.038,2.16805
0.37218,0.642918,2.038,2.16917
0.378795,0.642918,2.038,2.17032
0.38541,0.642918,2.038,2.17148
0.392025,0.642918,2.038,2.17266
0.396292,0.639132,2.026,2.16107
0.402868,0.639132,2.026,2.16228
0.409444,0.639132,2.026,2.16352
0.41602,0.639132,2.026,2.16477
0.422596,0.639132,2.026,2.16605
0.42663,0.635346,2.014,2.1545
0.433167,0.635346,2.014,2.15581
0.437084,0.631561,2.002,2.14428
0.443582,0.631561,2.002,2.14561
0.45008,0.631561,2.002,2.14696
0.453841,0.627775,1.99,2.13546
0.4603,0.627775,1.99,2.13684
0.464179,0.624305,1.979,2.12642
0.467749,0.62052,1.967,2.11493
0.474133,0.62052,1.967,2.11635
0.475143,0.613579,1.945,2.0941
0.481456,0.613579,1.945,2.09554
0.490528,0.61705,1.956,2.10886
0.494082,0.613579,1.945,2.09848
0.497565,0.610109,1.934,2.0881
0.503842,0.610109,1.934,2.0896
0.507218,0.606639,1.923,2.07923
0.51346,0.606639,1.923,2.08076
0.516729,0.603169,1.912,2.0704
0.522934,0.603169,1.912,2.07196
0.52914,0.603169,1.912,2.07353
0.532546,0.600014,1.902,2.06427
0.53872,0.600014,1.902,2.06588
0.544893,0.600014,1.902,2.06749
0.551067,0.600014,1.902,2.06913
0.55724,0.600014,1.902,2.07078
0.563413,0.600014,1.902,2.07245
0.572581,0.603169,1.912,2.08504
0.578787,0.603169,1.912,2.08676
0.584993,0.603169,1.912,2.08849
0.5946,0.606639,1.923,2.10226
0.600842,0.606639,1.923,2.10403
0.610556,0.610109,1.934,2.11787
0.616833,0.610109,1.934,2.11969
0.626655,0.613579,1.945,2.13359
0.636548,0.61705,1.956,2.14753
0.642896,0.61705,1.956,2.14942
0.649245,0.61705,1.956,2.15133
0.65928,0.62052,1.967,2.16536
0.665665,0.62052,1.967,2.16731
0.672049,0.62052,1.967,2.16928
0.678434,0.62052,1.967,2.17127
0.684818,0.62052,1.967,2.17327
0.695419,0.624305,1.979,2.18856
0.701843,0.624305,1.979,2.19061
0.708266,0.624305,1.979,2.19268
0.714689,0.624305,1.979,2.19476
0.721113,0.624305,1.979,2.19686
0.727536,0.624305,1.979,2.19898
0.733959,0.624305,1.979,2.20111
0.735893,0.62052,1.967,2.1899
0.742278,0.62052,1.967,2.19206
0.748662,0.62052,1.967,2.19423
0.755046,0.62052,1.967,2.19641
0.761431,0.62052,1.967,2.19862
0.763521,0.61705,1.956,2.18853
0.76987,0.61705,1.956,2.19075
0.771854,0.613579,1.945,2.18066
0.778166,0.613579,1.945,2.1829
0.784479,0.613579,1.945,2.18516
0.78632,0.610109,1.934,2.17506
0.792597,0.610109,1.934,2.17734
0.798875,0.610109,1.934,2.17963
0.805152,0.610109,1.934,2.18194
0.811429,0.610109,1.934,2.18426
0.813056,0.606639,1.923,2.17417
0.819297,0.606639,1.923,2.17651
0.830261,0.610109,1.934,2.19133
0.83178,0.606639,1.923,2.18124
0.838022,0.606639,1.923,2.18363
0.844264,0.606639,1.923,2.18603
0.850505,0.606639,1.923,2.18845
0.856747,0.606639,1.923,2.19088
0.862988,0.606639,1.923,2.19333
0.86923,0.606639,1.923,2.19579
0.875471,0.606639,1.923,2.19827
0.886757,0.610109,1.934,2.21335
0.893034,0.610109,1.934,2.21587
0.899311,0.610109,1.934,2.21841
0.910739,0.613579,1.945,2.2336
0.917052,0.613579,1.945,2.23618
0.923365,0.613579,1.945,2.23877
0.929678,0.613579,1.945,2.24138
0.935991,0.613579,1.945,2.24401
0.942304,0.613579,1.945,2.24665
0.948617,0.613579,1.945,2.24931
0.95493,0.613579,1.945,2.25198
0.961243,0.613579,1.945,2.25466
0.967556,0.613579,1.945,2.25736
0.973869,0.613579,1.945,2.26007
0.980182,0.613579,1.945,2.2628
0.986495,0.613579,1.945,2.26554
0.992808,0.613579,1.945,2.2683
0.999121,0.613579,1.945,2.27107
1.00543,0.613579,1.945,2.27385
1.01747,0.61705,1.956,2.28953
1.02382,0.61705,1.956,2.29235
1.03596,0.62052,1.967,2.3081
1.04234,0.62052,1.967,2.31098
1.04873,0.62052,1.967,2.31386
1.06155,0.624305,1.979,2.3309
1.06797,0.624305,1.979,2.33383
1.0744,0.624305,1.979,2.33678
1.08683,0.627775,1.99,2.35274
1.09329,0.627775,1.99,2.35573
1.09975,0.627775,1.99,2.35874
1.11288,0.631561,2.002,2.376
1.11937,0.631561,2.002,2.37905
1.13262,0.635346,2.014,2.39639
1.13916,0.635346,2.014,2.39949
1.14569,0.635346,2.014,2.4026
1.15223,0.635346,2.014,2.40572
1.15877,0.635346,2.014,2.40886
1.1653,0.635346,2.014,2.41201
1.16486,0.631561,2.002,2.40079
1.17136,0.631561,2.002,2.40394
1.17786,0.631561,2.002,2.40712
1.17725,0.627775,1.99,2.39586
1.18371,0.627775,1.99,2.39904
1.19735,0.631561,2.002,2.41672
1.20385,0.631561,2.002,2.41994
1.21035,0.631561,2.002,2.42318
1.21684,0.631561,2.002,2.42643
1.22334,0.631561,2.002,2.4297
1.22984,0.631561,2.002,2.43298
1.23634,0.631561,2.002,2.43627
1.24284,0.631561,2.002,2.43957
1.24933,0.631561,2.002,2.44289
1.25583,0.631561,2.002,2.44622
1.2699,0.635346,2.014,2.46424
1.27643,0.635346,2.014,2.46762
1.28297,0.635346,2.014,2.47101
1.28951,0.635346,2.014,2.47441
1.29604,0.635346,2.014,2.47782
1.30258,0.635346,2.014,2.48125
1.30912,0.635346,2.014,2.48468
1.31565,0.635346,2.014,2.48813
1.32219,0.635346,2.014,2.4916
1.32081,0.631561,2.002,2.4802
1.32731,0.631561,2.002,2.48367
1.33381,0.631561,2.002,2.48715
1.3403,0.631561,2.002,2.49064
1.3468,0.631561,2.002,2.49414
1.3533,0.631561,2.002,2.49766
1.3598,0.631561,2.002,2.50118
-1.68438,0.773827,2.428,3.05469
-1.6765,0.773827,2.428,3.05035
-1.66862,0.773827,2.428,3.04603
-1.67237,0.779245,2.445,3.06302
-1.66443,0.779245,2.445,3.05869
-1.6565,0.779245,2.445,3.05438
-1.6607,0.784982,2.463,3.07254
-1.6527,0.784982,2.463,3.06822
-1.64471,0.784982,2.463,3.06392
-1.63672,0.784982,2.463,3.05964
-1.64062,0.790719,2.481,3.0777
-1.63257,0.790719,2.481,3.07342
-1.62452,0.790719,2.481,3.06915
-1.61647,0.790719,2.481,3.06489
-1.60841,0.790719,2.481,3.06065
-1.60036,0.790719,2.481,3.05643
-1.59231,0.790719,2.481,3.05222
-1.58425,0.790719,2.481,3.04803
-1.56477,0.784982,2.463,3.02176
-1.5454,0.779245,2.445,2.99558
-1.53746,0.779245,2.445,2.99149
-1.51889,0.773827,2.428,2.96665
-1.48985,0.762991,2.394,2.92114
-1.48208,0.762991,2.394,2.91718
-1.47431,0.762991,2.394,2.91324
-1.44632,0.752474,2.361,2.86921
-1.42891,0.747375,2.345,2.84594
-1.4213,0.747375,2.345,2.84213
-1.40404,0.742275,2.329,2.81896
-1.38689,0.737176,2.313,2.79586
-1.37938,0.737176,2.313,2.79215
-1.36298,0.732395,2.298,2.77036
-1.33723,0.722515,2.267,2.72938
-1.32987,0.722515,2.267,2.72578
-1.30501,0.712954,2.237,2.68617
-1.28963,0.708492,2.223,2.66587
-1.28242,0.708492,2.223,2.66238
-1.26717,0.70403,2.209,2.64217
-1.25144,0.699249,2.194,2.62082
-1.24432,0.699249,2.194,2.61743
-1.2372,0.699249,2.194,2.61405
-1.22223,0.694787,2.18,2.59403
-1.21516,0.694787,2.18,2.5907
-1.20808,0.694787,2.18,2.58739
-1.201,0.694787,2.18,2.58409
-1.21748,0.708492,2.223,2.63172
-1.21026,0.708492,2.223,2.62839
-1.20305,0.708492,2.223,2.62507
-1.20336,0.712954,2.237,2.63829
-1.1961,0.712954,2.237,2.63498
-1.18884,0.712954,2.237,2.6317
-1.19743,0.722515,2.267,2.66367
-1.20634,0.732395,2.298,2.69675
-1.20671,0.737176,2.313,2.711
-1.1992,0.737176,2.313,2.70767
-1.19994,0.742275,2.329,2.72306
-1.20057,0.747375,2.345,2.73842
-1.19296,0.747375,2.345,2.7351
-1.18535,0.747375,2.345,2.73178
-1.17774,0.747375,2.345,2.72849
-1.17013,0.747375,2.345,2.72521
-1.16251,0.747375,2.345,2.72195
-1.1549,0.747375,2.345,2.71871
-1.14729,0.747375,2.345,2.71549
-1.1319,0.742275,2.329,2.69377
-1.11662,0.737176,2.313,2.67212
-1.10911,0.737176,2.313,2.66899
-1.09446,0.732395,2.298,2.64859
-1.07944,0.727296,2.282,2.6271
-1.07203,0.727296,2.282,2.62407
-1.05063,0.717735,2.252,2.58659
-1.03637,0.712954,2.237,2.56642
-1.02911,0.712954,2.237,2.5635
-1.01545,0.708492,2.223,2.54457
-1.00189,0.70403,2.209,2.52569
-0.987961,0.699249,2.194,2.50572
-0.98084,0.699249,2.194,2.50292
-0.967505,0.694787,2.18,2.48419
-0.96043,0.694787,2.18,2.48144
-0.953354,0.694787,2.18,2.47871
-0.940635,0.690644,2.167,2.46123
-0.933602,0.690644,2.167,2.45855
-0.926568,0.690644,2.167,2.45589
-0.919535,0.690644,2.167,2.45325
-0.912501,0.690644,2.167,2.45062
-0.905468,0.690644,2.167,2.44801
-0.89263,0.686182,2.153,2.42962
-0.885642,0.686182,2.153,2.42706
-0.878653,0.686182,2.153,2.42452
-0.871665,0.686182,2.153,2.42199
-0.864677,0.686182,2.153,2.41949
-0.857689,0.686182,2.153,2.417
-0.850701,0.686182,2.153,2.41453
-0.843713,0.686182,2.153,2.41208
-0.836725,0.686182,2.153,2.40964
-0.829737,0.686182,2.153,2.40722
-0.822749,0.686182,2.153,2.40482
-0.81576,0.686182,2.153,2.40244
-0.808772,0.686182,2.153,2.40008
-0.801784,0.686182,2.153,2.39773
-0.794796,0.686182,2.153,2.3954
-0.787808,0.686182,2.153,2.39309
-0.78082,0.686182,2.153,2.3908
-0.773832,0.686182,2.153,2.38853
-0.766844,0.686182,2.153,2.38627
-0.759856,0.686182,2.153,2.38404
-0.752868,0.686182,2.153,2.38182
-0.745879,0.686182,2.153,2.37962
-0.738891,0.686182,2.153,2.37744
-0.731903,0.686182,2.153,2.37528
-0.724915,0.686182,2.153,2.37313
-0.717927,0.686182,2.153,2.37101
-0.710939,0.686182,2.153,2.3689
-0.6997,0.682039,2.14,2.35252
-0.692754,0.682039,2.14,2.35047
-0.685809,0.682039,2.14,2.34843
-0.674421,0.677577,2.126,2.33106
-0.667521,0.677577,2.126,2.32907
-0.660621,0.677577,2.126,2.3271
-0.649723,0.673434,2.113,2.31094
-0.638909,0.669291,2.1,2.29481
-0.632093,0.669291,2.1,2.29292
-0.625277,0.669291,2.1,2.29105
-0.614632,0.665147,2.087,2.27503
-0.604364,0.661323,2.075,2.26014
-0.597629,0.661323,2.075,2.25835
-0.590894,0.661323,2.075,2.25657
-0.580499,0.65718,2.062,2.24069
-0.573806,0.65718,2.062,2.23897
-0.563813,0.653355,2.05,2.22424
-0.557159,0.653355,2.05,2.22257
-0.550505,0.653355,2.05,2.22091
-0.543852,0.653355,2.05,2.21927
-0.537198,0.653355,2.05,2.21765
-0.530544,0.653355,2.05,2.21604
-0.526957,0.65718,2.062,2.22742
-0.520264,0.65718,2.062,2.22585
-0.513572,0.65718,2.062,2.22429
-0.506879,0.65718,2.062,2.22276
-0.500186,0.65718,2.062,2.22124
-0.493493,0.65718,2.062,2.21974
-0.486801,0.65718,2.062,2.21827
-0.480108,0.65718,2.062,2.21681
-0.4764,0.661323,2.075,2.22933
-0.469665,0.661323,2.075,2.2279
-0.46293,0.661323,2.075,2.22649
-0.456195,0.661323,2.075,2.2251
-0.44946,0.661323,2.075,2.22373
-0.442725,0.661323,2.075,2.22238
-0.43599,0.661323,2.075,2.22105
-0.429255,0.661323,2.075,2.21974
-0.42252,0.661323,2.075,2.21844
-0.415785,0.661323,2.075,2.21717
-0.40905,0.661323,2.075,2.21592
-0.402315,0.661323,2.075,2.21469
-0.395581,0.661323,2.075,2.21347
-0.388846,0.661323,2.075,2.21228
-0.382111,0.661323,2.075,2.2111
-0.375376,0.661323,2.075,2.20995
-0.368641,0.661323,2.075,2.20882
-0.361906,0.661323,2.075,2.2077
-0.355171,0.661323,2.075,2.20661
-0.346253,0.65718,2.062,2.19172
-0.33956,0.65718,2.062,2.19067
-0.332868,0.65718,2.062,2.18964
-0.324277,0.653355,2.05,2.1759
-0.317623,0.653355,2.05,2.17492
-0.310969,0.653355,2.05,2.17395
-0.302534,0.649531,2.038,2.16029
-0.294177,0.645706,2.026,2.14666
-0.285897,0.641882,2.014,2.13306
-0.27936,0.641882,2.014,2.13219
-0.272823,0.641882,2.014,2.13135
-0.2647,0.638057,2.002,2.11783
-0.258202,0.638057,2.002,2.11702
-0.250195,0.634233,1.99,2.10356
-0.242389,0.630727,1.979,2.09117
-0.235965,0.630727,1.979,2.09044
-0.22815,0.626902,1.967,2.07705
-0.221766,0.626902,1.967,2.07636
-0.215381,0.626902,1.967,2.07569
-0.207828,0.623396,1.956,2.06343
-0.20148,0.623396,1.956,2.0628
-0.195131,0.623396,1.956,2.06219
-0.188782,0.623396,1.956,2.0616
-0.181408,0.619891,1.945,2.04944
-0.175095,0.619891,1.945,2.04889
-0.168782,0.619891,1.945,2.04836
-0.162469,0.619891,1.945,2.04785
-0.156156,0.619891,1.945,2.04736
-0.149843,0.619891,1.945,2.04689
-0.14353,0.619891,1.945,2.04643
-0.137217,0.619891,1.945,2.046
-0.130904,0.619891,1.945,2.04559
-0.124591,0.619891,1.945,2.04519
-0.118278,0.619891,1.945,2.04482
-0.111965,0.619891,1.945,2.04446
-0.105652,0.619891,1.945,2.04413
-0.0993387,0.619891,1.945,2.04381
-0.0930257,0.619891,1.945,2.04351
-0.0867127,0.619891,1.945,2.04323
-0.0803998,0.619891,1.945,2.04298
-0.0740868,0.619891,1.945,2.04274
-0.0681571,0.623396,1.956,2.05407
-0.0618084,0.623396,1.956,2.05387
-0.0554597,0.623396,1.956,2.05369
-0.049111,0.623396,1.956,2.05353
-0.0427623,0.623396,1.956,2.05338
-0.0364136,0.623396,1.956,2.05326
-0.0305875,0.634233,1.99,2.08885
-0.0241285,0.634233,1.99,2.08876
-0.0176694,0.634233,1.99,2.0887
-0.011278,0.638057,2.002,2.10125
-0.00480865,0.641882,2.014,2.11382
0.0017283,0.641882,2.014,2.11381
0.00826524,0.641882,2.014,2.11383
0.0148022,0.641882,2.014,2.11387
0.0213391,0.641882,2.014,2.11392
0.0278761,0.641882,2.014,2.114
0.034413,0.641882,2.014,2.11409
0.04095,0.641882,2.014,2.11421
0.0474869,0.641882,2.014,2.11435
0.0540239,0.641882,2.014,2.1145
0.0605608,0.641882,2.014,2.11468
0.0666979,0.638057,2.002,2.10228
0.0731959,0.638057,2.002,2.10249
0.0796939,0.638057,2.002,2.10273
0.0861919,0.638057,2.002,2.10299
0.0921343,0.634233,1.99,2.09066
0.0985934,0.634233,1.99,2.09095
0.105052,0.634233,1.99,2.09126
0.111511,0.634233,1.99,2.0916
0.117971,0.634233,1.99,2.09195
0.12443,0.634233,1.99,2.09233
0.130165,0.630727,1.979,2.08115
0.136588,0.630727,1.979,2.08157
0.143012,0.630727,1.979,2.082
0.149435,0.630727,1.979,2.08245
0.155858,0.630727,1.979,2.08292
0.162282,0.630727,1.979,2.08341
0.168705,0.630727,1.979,2.08392
0.175129,0.630727,1.979,2.08445
0.181552,0.630727,1.979,2.085
0.186835,0.626902,1.967,2.07292
0.19322,0.626902,1.967,2.07351
0.200822,0.630727,1.979,2.08676
0.207245,0.630727,1.979,2.08739
0.213669,0.630727,1.979,2.08804
0.220092,0.630727,1.979,2.08871
0.226515,0.630727,1.979,2.08939
0.232939,0.630727,1.979,2.0901
0.239362,0.630727,1.979,2.09083
0.245785,0.630727,1.979,2.09157
0.252209,0.630727,1.979,2.09234
0.26007,0.634233,1.99,2.10475
0.266529,0.634233,1.99,2.10556
0.272988,0.634233,1.99,2.10639
0.279447,0.634233,1.99,2.10724
0.28763,0.638057,2.002,2.12081
0.294128,0.638057,2.002,2.12171
0.300626,0.638057,2.002,2.12262
0.307124,0.638057,2.002,2.12355
0.313622,0.638057,2.002,2.1245
0.32012,0.638057,2.002,2.12546
0.328575,0.641882,2.014,2.1392
0.335112,0.641882,2.014,2.14021
0.339614,0.638057,2.002,2.12849
0.346112,0.638057,2.002,2.12953
0.35261,0.638057,2.002,2.1306
0.359108,0.638057,2.002,2.13168
0.365606,0.638057,2.002,2.13279
0.372104,0.638057,2.002,2.13391
0.378602,0.638057,2.002,2.13506
0.382791,0.634233,1.99,2.12341
0.38925,0.634233,1.99,2.12459
0.398096,0.638057,2.002,2.1386
0.404594,0.638057,2.002,2.13982
0.408628,0.634233,1.99,2.12822
0.415087,0.634233,1.99,2.12947
0.421546,0.634233,1.99,2.13074
0.425639,0.630727,1.979,2.12024
0.432062,0.630727,1.979,2.12154
0.438486,0.630727,1.979,2.12286
0.442211,0.626902,1.967,2.11131
0.446087,0.623396,1.956,2.10085
0.452436,0.623396,1.956,2.1022
0.456204,0.619891,1.945,2.09175
0.459901,0.616385,1.934,2.0813
0.466179,0.616385,1.934,2.08269
0.469769,0.612879,1.923,2.07225
0.473287,0.609373,1.912,2.06182
0.479493,0.609373,1.912,2.06325
0.483159,0.606186,1.902,2.0539
0.489332,0.606186,1.902,2.05536
0.495506,0.606186,1.902,2.05684
0.498778,0.60268,1.891,2.04643
0.504915,0.60268,1.891,2.04794
0.511053,0.60268,1.891,2.04946
0.514456,0.599493,1.881,2.04015
0.520561,0.599493,1.881,2.0417
0.526666,0.599493,1.881,2.04326
0.532772,0.599493,1.881,2.04485
0.536012,0.596306,1.871,2.03557
0.542085,0.596306,1.871,2.03717
0.548158,0.596306,1.871,2.0388
0.554231,0.596306,1.871,2.04044
0.563298,0.599493,1.881,2.05301
0.569403,0.599493,1.881,2.0547
0.575508,0.599493,1.881,2.0564
0.584706,0.60268,1.891,2.06905
0.590843,0.60268,1.891,2.0708
0.600454,0.606186,1.902,2.08461
0.606627,0.606186,1.902,2.0864
0.616023,0.609373,1.912,2.09918
0.625808,0.612879,1.923,2.1131
0.63205,0.612879,1.923,2.11496
0.638291,0.612879,1.923,2.11683
0.64822,0.616385,1.934,2.13084
0.654497,0.616385,1.934,2.13276
0.664533,0.619891,1.945,2.14683
0.670846,0.619891,1.945,2.1488
0.677159,0.619891,1.945,2.15078
0.683472,0.619891,1.945,2.15277
0.689785,0.619891,1.945,2.15478
0.700034,0.623396,1.956,2.16901
0.706383,0.623396,1.956,2.17107
0.708724,0.619891,1.945,2.16092
0.715037,0.619891,1.945,2.163
0.72135,0.619891,1.945,2.16509
0.727663,0.619891,1.945,2.16721
0.733976,0.619891,1.945,2.16933
0.740289,0.619891,1.945,2.17148
0.746602,0.619891,1.945,2.17364
0.752915,0.619891,1.945,2.17581
0.754934,0.616385,1.934,2.16569
0.761211,0.616385,1.934,2.16789
0.767488,0.616385,1.934,2.1701
0.773766,0.616385,1.934,2.17233
0.775606,0.612879,1.923,2.1622
0.781848,0.612879,1.923,2.16445
0.788089,0.612879,1.923,2.16671
0.794331,0.612879,1.923,2.16899
0.800573,0.612879,1.923,2.17128
0.806814,0.612879,1.923,2.17359
0.808405,0.609373,1.912,2.16347
0.814611,0.609373,1.912,2.1658
0.820817,0.609373,1.912,2.16814
0.827022,0.609373,1.912,2.17049
0.82887,0.606186,1.902,2.1615
0.835044,0.606186,1.902,2.16388
0.841217,0.606186,1.902,2.16627
0.847391,0.606186,1.902,2.16867
0.853564,0.606186,1.902,2.17109
0.859738,0.606186,1.902,2.17353
0.865911,0.606186,1.902,2.17598
0.872084,0.606186,1.902,2.17844
0.878258,0.606186,1.902,2.18092
0.884431,0.606186,1.902,2.18341
0.890605,0.606186,1.902,2.18592
0.896778,0.606186,1.902,2.18844
0.902951,0.606186,1.902,2.19098
0.909125,0.606186,1.902,2.19353
0.915298,0.606186,1.902,2.1961
0.921472,0.606186,1.902,2.19868
0.927645,0.606186,1.902,2.20127
0.933819,0.606186,1.902,2.20388
0.939992,0.606186,1.902,2.2065
0.946165,0.606186,1.902,2.20914
0.957346,0.609373,1.912,2.22342
0.963552,0.609373,1.912,2.2261
0.969758,0.609373,1.912,2.22879
0.975963,0.609373,1.912,2.2315
0.982169,0.609373,1.912,2.23422
0.988375,0.609373,1.912,2.23695
1.01747,0.623396,1.956,2.29124
1.02382,0.623396,1.956,2.29407
1.03596,0.626902,1.967,2.30983
1.04234,0.626902,1.967,2.3127
1.04873,0.626902,1.967,2.31558
1.06155,0.630727,1.979,2.33263
1.06797,0.630727,1.979,2.33556
1.0744,0.630727,1.979,2.3385
1.08683,0.634233,1.99,2.35447
1.09329,0.634233,1.99,2.35746
1.09975,0.634233,1.99,2.36046
1.11288,0.638057,2.002,2.37773
1.11937,0.638057,2.002,2.38078
1.13262,0.641882,2.014,2.39813
1.13916,0.641882,2.014,2.40123
1.14569,0.641882,2.014,2.40433
1.15223,0.641882,2.014,2.40746
1.15877,0.641882,2.014,2.41059
1.1653,0.641882,2.014,2.41374
1.16486,0.638057,2.002,2.4025
1.17136,0.638057,2.002,2.40566
1.17786,0.638057,2.002,2.40883
1.17725,0.634233,1.99,2.39756
1.18371,0.634233,1.99,2.40073
1.19735,0.638057,2.002,2.41842
1.20385,0.638057,2.002,2.42165
1.21035,0.638057,2.002,2.42488
1.21684,0.638057,2.002,2.42813
1.22334,0.638057,2.002,2.4314
1.22984,0.638057,2.002,2.43467
1.23634,0.638057,2.002,2.43796
1.24284,0.638057,2.002,2.44126
1.24933,0.638057,2.002,2.44458
1.25583,0.638057,2.002,2.4479
1.2699,0.641882,2.014,2.46594
1.27643,0.641882,2.014,2.46931
1.28297,0.641882,2.014,2.47269
1.28951,0.641882,2.014,2.47609
1.29604,0.641882,2.014,2.4795
1.30258,0.641882,2.014,2.48293
1.30912,0.641882,2.014,2.48636
1.31565,0.641882,2.014,2.48981
1.32219,0.641882,2.014,2.49327
1.32081,0.638057,2.002,2.48187
1.32731,0.638057,2.002,2.48533
1.33381,0.638057,2.002,2.48881
1.3403,0.638057,2.002,2.4923
1.3468,0.638057,2.002,2.4958
1.3533,0.638057,2.002,2.49931
1.35165,0.634233,1.99,2.48783
-1.68438,0.781706,2.428,3.0567
-1.6765,0.781706,2.428,3.05236
-1.66862,0.781706,2.428,3.04804
-1.67237,0.787179,2.445,3.06504
-1.66443,0.787179,2.445,3.06072
-1.6565,0.787179,2.445,3.05641
-1.6607,0.792974,2.463,3.07459
-1.6527,0.792974,2.463,3.07028
-1.64471,0.792974,2.463,3.06598
-1.63672,0.792974,2.463,3.0617
-1.64062,0.79877,2.481,3.07978
-1.63257,0.79877,2.481,3.0755
-1.62452,0.79877,2.481,3.07123
-1.61647,0.79877,2.481,3.06698
-1.60841,0.79877,2.481,3.06274
-1.60036,0.79877,2.481,3.05852
-1.59231,0.79877,2.481,3.05431
-1.58425,0.79877,2.481,3.05012
-1.56477,0.792974,2.463,3.02385
-1.5454,0.787179,2.445,2.99765
-1.53746,0.787179,2.445,2.99357
-1.51889,0.781706,2.428,2.96872
-1.48985,0.770759,2.394,2.92318
-1.48208,0.770759,2.394,2.91922
-1.47431,0.770759,2.394,2.91529
-1.44632,0.760135,2.361,2.87123
-1.42891,0.754984,2.345,2.84795
-1.4213,0.754984,2.345,2.84414
-1.40404,0.749832,2.329,2.82096
-1.38689,0.744681,2.313,2.79785
-1.37938,0.744681,2.313,2.79414
-1.36298,0.739852,2.298,2.77234
-1.33723,0.729871,2.267,2.73134
-1.32987,0.729871,2.267,2.72774
-1.30501,0.720213,2.237,2.68811
-1.28963,0.715705,2.223,2.66779
-1.28242,0.715705,2.223,2.66431
-1.26717,0.711198,2.209,2.64409
-1.25144,0.706369,2.194,2.62273
-1.24432,0.706369,2.194,2.61934
-1.2372,0.706369,2.194,2.61596
-1.22223,0.701861,2.18,2.59593
-1.21516,0.701861,2.18,2.59261
-1.20808,0.701861,2.18,2.5893
-1.201,0.701861,2.18,2.586
-1.2016,0.706369,2.194,2.59931
-1.19448,0.706369,2.194,2.59603
-1.18735,0.706369,2.194,2.59276
-1.1883,0.711198,2.209,2.60721
-1.18862,0.715705,2.223,2.62045
-1.1814,0.715705,2.223,2.61719
-1.17419,0.715705,2.223,2.61394
-1.1822,0.725042,2.252,2.64476
-1.18271,0.729871,2.267,2.6591
-1.17535,0.729871,2.267,2.65583
-1.17572,0.734701,2.282,2.67014
-1.16832,0.734701,2.282,2.66688
-1.16091,0.734701,2.282,2.66365
-1.1535,0.734701,2.282,2.66043
-1.1461,0.734701,2.282,2.65723
-1.13869,0.734701,2.282,2.65404
-1.12385,0.729871,2.267,2.63345
-1.11649,0.729871,2.267,2.63031
-1.10913,0.729871,2.267,2.6272
-1.09448,0.725042,2.252,2.60674
-1.07993,0.720213,2.237,2.58633
-1.07267,0.720213,2.237,2.58331
-1.05207,0.711198,2.209,2.54801
-1.0449,0.711198,2.209,2.54506
-1.03773,0.711198,2.209,2.54212
-1.01704,0.701861,2.18,2.50587
-1.00394,0.697676,2.167,2.48808
-0.996904,0.697676,2.167,2.48525
-0.983475,0.693168,2.153,2.4664
-0.970591,0.688983,2.14,2.44874
-0.963645,0.688983,2.14,2.446
-0.956699,0.688983,2.14,2.44327
-0.949753,0.688983,2.14,2.44056
-0.936639,0.684476,2.126,2.42192
-0.929739,0.684476,2.126,2.41926
-0.922838,0.684476,2.126,2.41661
-0.915938,0.684476,2.126,2.41399
-0.909037,0.684476,2.126,2.41138
-0.896621,0.68029,2.113,2.39405
-0.889762,0.68029,2.113,2.39149
-0.882904,0.68029,2.113,2.38895
-0.876046,0.68029,2.113,2.38642
-0.869187,0.68029,2.113,2.38392
-0.862329,0.68029,2.113,2.38142
-0.855471,0.68029,2.113,2.37895
-0.848613,0.68029,2.113,2.37649
-0.841754,0.68029,2.113,2.37405
-0.834896,0.68029,2.113,2.37163
-0.828038,0.68029,2.113,2.36922
-0.816127,0.676105,2.1,2.35227
-0.809311,0.676105,2.1,2.34992
-0.802495,0.676105,2.1,2.34758
-0.795679,0.676105,2.1,2.34526
-0.793746,0.68029,2.113,2.35746
-0.786888,0.68029,2.113,2.35516
-0.78003,0.68029,2.113,2.35287
-0.773172,0.68029,2.113,2.35061
-0.766313,0.68029,2.113,2.34836
-0.759455,0.68029,2.113,2.34613
-0.752597,0.68029,2.113,2.34392
-0.745739,0.68029,2.113,2.34173
-0.73888,0.68029,2.113,2.33955
-0.732022,0.68029,2.113,2.3374
-0.725164,0.68029,2.113,2.33526
-0.718305,0.68029,2.113,2.33314
-0.711447,0.68029,2.113,2.33103
-0.704589,0.68029,2.113,2.32895
-0.697731,0.68029,2.113,2.32688
-0.686622,0.676105,2.1,2.31053
-0.679806,0.676105,2.1,2.30852
-0.67299,0.676105,2.1,2.30652
-0.66205,0.671919,2.087,2.29027
-0.651508,0.668056,2.075,2.27517
-0.644773,0.668056,2.075,2.27325
-0.638038,0.668056,2.075,2.27135
-0.627348,0.663871,2.062,2.25525
-0.620655,0.663871,2.062,2.25339
-0.61039,0.660007,2.05,2.23846
-0.603736,0.660007,2.05,2.23665
-0.593587,0.656144,2.038,2.22178
-0.586972,0.656144,2.038,2.22002
-0.57694,0.65228,2.026,2.20522
-0.570364,0.65228,2.026,2.20351
-0.563788,0.65228,2.026,2.20182
-0.557212,0.65228,2.026,2.20014
-0.547375,0.648417,2.014,2.18547
-0.540838,0.648417,2.014,2.18384
-0.531118,0.644553,2.002,2.16923
-0.52462,0.644553,2.002,2.16764
-0.521227,0.648417,2.014,2.17906
-0.51469,0.648417,2.014,2.17751
-0.508153,0.648417,2.014,2.17597
-0.501616,0.648417,2.014,2.17446
-0.495079,0.648417,2.014,2.17296
-0.488542,0.648417,2.014,2.17148
-0.484877,0.65228,2.026,2.18295
-0.478302,0.65228,2.026,2.18149
-0.471726,0.65228,2.026,2.18006
-0.46515,0.65228,2.026,2.17865
-0.46129,0.656144,2.038,2.19015
-0.454675,0.656144,2.038,2.18877
-0.44806,0.656144,2.038,2.1874
-0.441445,0.656144,2.038,2.18606
-0.434831,0.656144,2.038,2.18473
-0.428216,0.656144,2.038,2.18342
-0.421601,0.656144,2.038,2.18214
-0.414986,0.656144,2.038,2.18087
-0.408371,0.656144,2.038,2.17962
-0.401756,0.656144,2.038,2.17839
-0.395142,0.656144,2.038,2.17718
-0.388527,0.656144,2.038,2.17599
-0.381912,0.656144,2.038,2.17482
-0.375297,0.656144,2.038,2.17366
-0.375376,0.668056,2.075,2.21197
-0.368641,0.668056,2.075,2.21084
-0.361906,0.668056,2.075,2.20973
-0.355171,0.668056,2.075,2.20864
-0.346253,0.663871,2.062,2.19373
-0.33956,0.663871,2.062,2.19269
-0.332868,0.663871,2.062,2.19166
-0.324277,0.660007,2.05,2.1779
-0.317623,0.660007,2.05,2.17692
-0.310969,0.660007,2.05,2.17596
-0.302534,0.656144,2.038,2.16229
-0.294177,0.65228,2.026,2.14865
-0.285897,0.648417,2.014,2.13504
-0.27936,0.648417,2.014,2.13417
-0.272823,0.648417,2.014,2.13332
-0.2647,0.644553,2.002,2.11979
-0.258202,0.644553,2.002,2.11899
-0.250195,0.64069,1.99,2.10551
-0.242389,0.637148,1.979,2.09312
-0.235965,0.637148,1.979,2.09239
-0.22815,0.633285,1.967,2.07899
-0.221766,0.633285,1.967,2.0783
-0.215381,0.633285,1.967,2.07763
-0.207828,0.629743,1.956,2.06536
-0.20148,0.629743,1.956,2.06473
-0.195131,0.629743,1.956,2.06412
-0.188782,0.629743,1.956,2.06353
-0.181408,0.626202,1.945,2.05136
-0.175095,0.626202,1.945,2.05081
-0.168782,0.626202,1.945,2.05028
-0.162469,0.626202,1.945,2.04977
-0.156156,0.626202,1.945,2.04928
-0.149843,0.626202,1.945,2.04881
-0.14353,0.626202,1.945,2.04835
-0.137217,0.626202,1.945,2.04792
-0.130904,0.626202,1.945,2.04751
-0.124591,0.626202,1.945,2.04711
-0.118278,0.626202,1.945,2.04674
-0.111965,0.626202,1.945,2.04638
-0.105652,0.626202,1.945,2.04605
-0.0993387,0.626202,1.945,2.04573
-0.0930257,0.626202,1.945,2.04544
-0.0867127,0.626202,1.945,2.04516
-0.0803998,0.626202,1.945,2.0449
-0.0740868,0.626202,1.945,2.04466
-0.0681571,0.629743,1.956,2.05601
-0.0618084,0.629743,1.956,2.0558
-0.0554597,0.629743,1.956,2.05562
-0.049111,0.629743,1.956,2.05546
-0.0427623,0.629743,1.956,2.05532
-0.0364136,0.629743,1.956,2.0552
-0.0300649,0.629743,1.956,2.0551
-0.0237162,0.629743,1.956,2.05501
-0.0173675,0.629743,1.956,2.05495
-0.0110808,0.633285,1.967,2.06646
-0.00469643,0.633285,1.967,2.06644
0.00168796,0.633285,1.967,2.06643
0.00807236,0.633285,1.967,2.06645
0.0145449,0.637148,1.979,2.07909
0.0209683,0.637148,1.979,2.07914
0.0273916,0.637148,1.979,2.07922
0.033815,0.637148,1.979,2.07931
0.0402383,0.637148,1.979,2.07943
0.0466617,0.637148,1.979,2.07956
0.053085,0.637148,1.979,2.07972
0.0595083,0.637148,1.979,2.07989
0.0659317,0.637148,1.979,2.08008
0.0719163,0.633285,1.967,2.06768
0.0783007,0.633285,1.967,2.06791
0.0846851,0.633285,1.967,2.06817
0.0910695,0.633285,1.967,2.06844
0.0974539,0.633285,1.967,2.06873
0.103838,0.633285,1.967,2.06904
0.110223,0.633285,1.967,2.06937
0.116607,0.633285,1.967,2.06972
0.122991,0.633285,1.967,2.07009
0.129376,0.633285,1.967,2.07048
0.135001,0.629743,1.956,2.05931
0.14135,0.629743,1.956,2.05973
0.147698,0.629743,1.956,2.06018
0.154047,0.629743,1.956,2.06064
0.160396,0.629743,1.956,2.06113
0.166744,0.629743,1.956,2.06163
0.173093,0.629743,1.956,2.06215
0.179442,0.629743,1.956,2.0627
0.185791,0.629743,1.956,2.06326
0.192139,0.629743,1.956,2.06384
0.197372,0.626202,1.945,2.05283
0.203685,0.626202,1.945,2.05345
0.209998,0.626202,1.945,2.05408
0.216311,0.626202,1.945,2.05474
0.222624,0.626202,1.945,2.05541
0.228937,0.626202,1.945,2.0561
0.23525,0.626202,1.945,2.05682
0.242929,0.629743,1.956,2.06919
0.249277,0.629743,1.956,2.06994
0.255626,0.629743,1.956,2.07071
0.263448,0.633285,1.967,2.08316
0.269832,0.633285,1.967,2.08397
0.276217,0.633285,1.967,2.08481
0.282601,0.633285,1.967,2.08567
0.288986,0.633285,1.967,2.08654
0.29537,0.633285,1.967,2.08743
0.301754,0.633285,1.967,2.08835
0.310019,0.637148,1.979,2.10203
0.316442,0.637148,1.979,2.10298
0.322865,0.637148,1.979,2.10396
0.329289,0.637148,1.979,2.10495
0.335712,0.637148,1.979,2.10597
0.340061,0.633285,1.967,2.09423
0.346445,0.633285,1.967,2.09527
0.35283,0.633285,1.967,2.09634
0.359214,0.633285,1.967,2.09742
0.365598,0.633285,1.967,2.09852
0.371983,0.633285,1.967,2.09965
0.378367,0.633285,1.967,2.10079
0.384752,0.633285,1.967,2.10194
0.391136,0.633285,1.967,2.10312
0.39752,0.633285,1.967,2.10432
0.403905,0.633285,1.967,2.10554
0.410289,0.633285,1.967,2.10677
0.416674,0.633285,1.967,2.10802
0.423058,0.633285,1.967,2.10929
0.429442,0.633285,1.967,2.11058
0.433389,0.629743,1.956,2.10008
0.437265,0.626202,1.945,2.08958
0.44107,0.62266,1.934,2.07909
0.447347,0.62266,1.934,2.08043
0.451044,0.619119,1.923,2.06995
0.45467,0.615577,1.912,2.05947
0.460876,0.615577,1.912,2.06085
0.464639,0.612358,1.902,2.05146
0.468089,0.608816,1.891,2.04099
0.474227,0.608816,1.891,2.04241
0.477824,0.605597,1.881,2.03303
0.481357,0.602377,1.871,2.02366
0.48743,0.602377,1.871,2.02511
0.490865,0.599158,1.861,2.01575
0.496905,0.599158,1.861,2.01723
0.502946,0.599158,1.861,2.01873
0.505977,0.595616,1.85,2.0083
0.511982,0.595616,1.85,2.00982
0.517987,0.595616,1.85,2.01136
0.523991,0.595616,1.85,2.01291
0.529996,0.595616,1.85,2.01449
0.536001,0.595616,1.85,2.01607
0.542005,0.595616,1.85,2.01768
0.54801,0.595616,1.85,2.0193
0.554015,0.595616,1.85,2.02094
0.560019,0.595616,1.85,2.02259
0.566024,0.595616,1.85,2.02426
0.572028,0.595616,1.85,2.02595
0.58147,0.599158,1.861,2.03971
0.58751,0.599158,1.861,2.04144
0.59674,0.602377,1.871,2.05417
0.606035,0.605597,1.881,2.06693
0.615394,0.608816,1.891,2.07972
0.621532,0.608816,1.891,2.08155
0.631321,0.612358,1.902,2.09551
0.637494,0.612358,1.902,2.09738
0.643668,0.612358,1.902,2.09926
0.649841,0.612358,1.902,2.10116
0.659464,0.615577,1.912,2.11414
0.66567,0.615577,1.912,2.11608
0.671876,0.615577,1.912,2.11804
0.689785,0.626202,1.945,2.15661
0.700034,0.629743,1.956,2.17084
0.706383,0.629743,1.956,2.1729
0.708724,0.626202,1.945,2.16274
0.715037,0.626202,1.945,2.16482
0.72135,0.626202,1.945,2.16691
0.727663,0.626202,1.945,2.16902
0.733976,0.626202,1.945,2.17115
0.740289,0.626202,1.945,2.17329
0.746602,0.626202,1.945,2.17545
0.752915,0.626202,1.945,2.17762
0.754934,0.62266,1.934,2.16748
0.761211,0.62266,1.934,2.16968
0.767488,0.62266,1.934,2.17189
0.773766,0.62266,1.934,2.17411
0.775606,0.619119,1.923,2.16398
0.781848,0.619119,1.923,2.16622
0.788089,0.619119,1.923,2.16848
0.794331,0.619119,1.923,2.17076
0.800573,0.619119,1.923,2.17305
0.806814,0.619119,1.923,2.17536
0.808405,0.615577,1.912,2.16522
0.814611,0.615577,1.912,2.16755
0.820817,0.615577,1.912,2.16989
0.827022,0.615577,1.912,2.17224
0.82887,0.612358,1.902,2.16324
0.835044,0.612358,1.902,2.16561
0.841217,0.612358,1.902,2.168
0.847391,0.612358,1.902,2.1704
0.853564,0.612358,1.902,2.17282
0.859738,0.612358,1.902,2.17526
0.865911,0.612358,1.902,2.1777
0.872084,0.612358,1.902,2.18016
0.878258,0.612358,1.902,2.18264
0.884431,0.612358,1.902,2.18513
0.890605,0.612358,1.902,2.18764
0.896778,0.612358,1.902,2.19016
0.902951,0.612358,1.902,2.19269
0.909125,0.612358,1.902,2.19524
0.915298,0.612358,1.902,2.19781
0.921472,0.612358,1.902,2.20039
0.927645,0.612358,1.902,2.20298
0.933819,0.612358,1.902,2.20558
0.939992,0.612358,1.902,2.20821
0.946165,0.612358,1.902,2.21084
0.957346,0.615577,1.912,2.22513
0.963552,0.615577,1.912,2.2278
0.969758,0.615577,1.912,2.2305
0.975963,0.615577,1.912,2.2332
0.982169,0.615577,1.912,2.23592
0.988375,0.615577,1.912,2.23865
0.994581,0.615577,1.912,2.2414
1.00654,0.619119,1.923,2.25707
1.01279,0.619119,1.923,2.25986
1.01903,0.619119,1.923,2.26267
1.03113,0.62266,1.934,2.27844
1.03741,0.62266,1.934,2.28129
1.04369,0.62266,1.934,2.28415
1.05594,0.626202,1.945,2.30003
1.06826,0.629743,1.956,2.31596
1.07461,0.629743,1.956,2.3189
1.08096,0.629743,1.956,2.32185
1.09342,0.633285,1.967,2.33788
1.0998,0.633285,1.967,2.34088
1.10619,0.633285,1.967,2.34388
1.12558,0.64069,1.99,2.37435
1.13204,0.64069,1.99,2.37741
1.13221,0.637148,1.979,2.36734
1.13863,0.637148,1.979,2.37042
1.14505,0.637148,1.979,2.37351
1.15148,0.637148,1.979,2.37661
1.1579,0.637148,1.979,2.37973
1.16432,0.637148,1.979,2.38287
1.16365,0.633285,1.967,2.37154
1.17003,0.633285,1.967,2.37468
1.17642,0.633285,1.967,2.37783
1.1828,0.633285,1.967,2.381
1.18919,0.633285,1.967,2.38418
1.19557,0.633285,1.967,2.38737
1.20195,0.633285,1.967,2.39057
1.20834,0.633285,1.967,2.39379
1.22893,0.64069,1.99,2.42505
1.23539,0.64069,1.99,2.42832
1.24184,0.64069,1.99,2.43162
1.2483,0.64069,1.99,2.43492
1.25476,0.64069,1.99,2.43824
1.26122,0.64069,1.99,2.44157
1.26768,0.64069,1.99,2.44491
1.27414,0.64069,1.99,2.44827
1.2806,0.64069,1.99,2.45164
1.28706,0.64069,1.99,2.45502
1.29352,0.64069,1.99,2.45841
1.29998,0.64069,1.99,2.46181
1.30643,0.64069,1.99,2.46523
1.31289,0.64069,1.99,2.46866
1.31935,0.64069,1.99,2.4721
1.32581,0.64069,1.99,2.47555
1.33227,0.64069,1.99,2.47902
1.33873,0.64069,1.99,2.4825
1.33775,0.637148,1.979,2.47224
1.34418,0.637148,1.979,2.47572
-1.6608,0.778528,2.394,3.01589
-1.65303,0.778528,2.394,3.01162
-1.64526,0.778528,2.394,3.00736
-1.64911,0.784056,2.411,3.02444
-1.64129,0.784056,2.411,3.02018
-1.63346,0.784056,2.411,3.01593
-1.62564,0.784056,2.411,3.0117
-1.62922,0.789584,2.428,3.02869
-1.62134,0.789584,2.428,3.02446
-1.61346,0.789584,2.428,3.02024
-1.61682,0.795113,2.445,3.03716
-1.60888,0.795113,2.445,3.03294
-1.60095,0.795113,2.445,3.02874
-1.59301,0.795113,2.445,3.02455
-1.58507,0.795113,2.445,3.02038
-1.57714,0.795113,2.445,3.01622
-1.5692,0.795113,2.445,3.01208
-1.56127,0.795113,2.445,3.00795
-1.54253,0.789584,2.428,2.98296
-1.5239,0.784056,2.411,2.95803
-1.51608,0.784056,2.411,2.95401
-1.50825,0.784056,2.411,2.95
-1.46931,0.767796,2.361,2.88491
-1.46165,0.767796,2.361,2.88102
-1.45399,0.767796,2.361,2.87714
-1.42672,0.75739,2.329,2.83433
-1.41916,0.75739,2.329,2.83053
-1.4116,0.75739,2.329,2.82675
-1.38535,0.747308,2.298,2.7854
-1.35931,0.737227,2.267,2.74418
-1.35195,0.737227,2.267,2.74054
-1.33569,0.732349,2.252,2.71881
-1.31954,0.727471,2.237,2.69714
-1.31228,0.727471,2.237,2.69359
-1.29685,0.722919,2.223,2.67323
-1.28151,0.718366,2.209,2.65292
-1.27434,0.718366,2.209,2.64947
-1.25054,0.708935,2.18,2.61129
-1.24346,0.708935,2.18,2.60791
-1.23638,0.708935,2.18,2.60454
-1.22198,0.704707,2.167,2.58568
-1.20709,0.700155,2.153,2.56568
-1.20011,0.700155,2.153,2.5624
-1.19312,0.700155,2.153,2.55913
-1.18613,0.700155,2.153,2.55588
-1.17914,0.700155,2.153,2.55265
-1.17215,0.700155,2.153,2.54943
-1.16517,0.700155,2.153,2.54622
-1.1727,0.708935,2.18,2.57492
-1.16563,0.708935,2.18,2.57171
-1.15855,0.708935,2.18,2.56851
-1.15887,0.713488,2.194,2.5818
-1.15962,0.718366,2.209,2.59624
-1.15976,0.722919,2.223,2.60948
-1.15254,0.722919,2.223,2.60628
-1.14533,0.722919,2.223,2.6031
-1.13811,0.722919,2.223,2.59993
-1.1309,0.722919,2.223,2.59678
-1.12368,0.722919,2.223,2.59365
-1.11646,0.722919,2.223,2.59053
-1.10226,0.718366,2.209,2.57113
-1.09509,0.718366,2.209,2.56807
-1.08054,0.713488,2.194,2.5476
-1.07342,0.713488,2.194,2.54459
-1.06629,0.713488,2.194,2.54159
-1.05241,0.708935,2.18,2.52241
-1.04534,0.708935,2.18,2.51947
-1.0254,0.700155,2.153,2.48537
-1.01227,0.695927,2.14,2.46751
-1.00532,0.695927,2.14,2.46467
-0.991843,0.691374,2.126,2.44574
-0.97892,0.687147,2.113,2.42801
-0.972062,0.687147,2.113,2.42525
-0.965203,0.687147,2.113,2.42251
-0.946553,0.678691,2.087,2.39001
-0.939779,0.678691,2.087,2.38734
-0.938817,0.682919,2.1,2.39953
-0.926231,0.678691,2.087,2.38204
-0.914171,0.674789,2.075,2.36573
-0.907436,0.674789,2.075,2.36313
-0.900701,0.674789,2.075,2.36056
-0.893966,0.674789,2.075,2.35799
-0.887231,0.674789,2.075,2.35545
-0.880496,0.674789,2.075,2.35292
-0.873761,0.674789,2.075,2.35041
-0.867026,0.674789,2.075,2.34791
-0.860291,0.674789,2.075,2.34544
-0.853556,0.674789,2.075,2.34297
-0.846821,0.674789,2.075,2.34053
-0.840086,0.674789,2.075,2.3381
-0.833351,0.674789,2.075,2.33569
-0.826616,0.674789,2.075,2.33329
-0.819881,0.674789,2.075,2.33092
-0.813146,0.674789,2.075,2.32856
-0.806412,0.674789,2.075,2.32621
-0.799677,0.674789,2.075,2.32389
-0.787974,0.670561,2.062,2.30703
-0.781281,0.670561,2.062,2.30476
-0.779472,0.674789,2.075,2.31701
-0.772737,0.674789,2.075,2.31475
-0.766002,0.674789,2.075,2.31251
-0.759267,0.674789,2.075,2.31029
-0.752532,0.674789,2.075,2.30809
