nan,nan,nan,NaN
nan,nan,nan,NaN
nan,nan,nan,NaN
nan,nan,nan,NaN
nan,nan,nan,NaN
nan,nan,nan,NaN
nan,nan,nan,NaN
nan,nan,nan,NaN
nan,nan,nan,NaN
nan,nan,nan,NaN
1.75652,-0.379921,3.804,4.20715
1.76886,-0.379921,3.804,4.21232
1.78121,-0.379921,3.804,4.21752
1.79356,-0.379921,3.804,4.22275
1.82584,-0.384116,3.846,4.27469
1.83833,-0.384116,3.846,4.28004
1.85081,-0.384116,3.846,4.28541
1.88461,-0.38851,3.89,4.33991
1.89723,-0.38851,3.89,4.3454
1.90986,-0.38851,3.89,4.35093
1.92249,-0.38851,3.89,4.35649
1.9575,-0.393005,3.935,4.41254
1.97027,-0.393005,3.935,4.41822
1.98304,-0.393005,3.935,4.42393
nan,nan,nan,NaN
nan,nan,nan,NaN
nan,nan,nan,NaN
nan,nan,nan,NaN
nan,nan,nan,NaN
nan,nan,nan,NaN
nan,nan,nan,NaN
nan,nan,nan,NaN
1.98389,-0.371631,3.721,4.23318
1.97451,-0.367637,3.681,4.19328
1.98646,-0.367637,3.681,4.19892
1.99841,-0.367637,3.681,4.20459
1.98906,-0.363741,3.642,4.16567
2.00088,-0.363741,3.642,4.17133
2.0127,-0.363741,3.642,4.17701
2.0034,-0.359946,3.604,4.13908
2.0151,-0.359946,3.604,4.14475
2.00542,-0.356151,3.566,4.10669
1.99607,-0.352456,3.529,4.06969
2.00752,-0.352456,3.529,4.07532
1.99838,-0.34886,3.493,4.03934
1.98958,-0.345365,3.458,4.00443
2.00081,-0.345365,3.458,4.01002
2.01203,-0.345365,3.458,4.01563
2.00277,-0.341869,3.423,3.98057
2.01389,-0.341869,3.423,3.98617
2.025,-0.341869,3.423,3.99179
2.01588,-0.338473,3.389,3.95773
2.00714,-0.335177,3.356,3.92476
2.01804,-0.335177,3.356,3.93034
1.99024,-0.328786,3.292,3.86088
1.98147,-0.32559,3.26,3.82882
1.99205,-0.32559,3.26,3.8343
1.98421,-0.322593,3.23,3.80448
1.99469,-0.322593,3.23,3.80995
nan,nan,nan,NaN
nan,nan,nan,NaN
1.93456,-0.308012,3.084,3.65355
1.94457,-0.308012,3.084,3.65886
1.92035,-0.302618,3.03,3.60003
1.89642,-0.297325,2.977,3.54223
1.90609,-0.297325,2.977,3.54741
1.88293,-0.292232,2.926,3.49175
1.87626,-0.289735,2.901,3.467
1.85447,-0.284941,2.853,3.41466
1.86373,-0.284941,2.853,3.41969
1.85724,-0.282544,2.829,3.39594
1.82156,-0.275752,2.761,3.31922
1.83052,-0.275752,2.761,3.32415
1.82482,-0.273555,2.739,3.30257
1.80493,-0.269261,2.696,3.25556
1.81368,-0.269261,2.696,3.26042
1.80823,-0.267163,2.675,3.23986
1.78839,-0.262968,2.633,3.19377
-2.12074,-0.295396,3.057,3.7323
-2.11082,-0.295396,3.057,3.72667
-2.1009,-0.295396,3.057,3.72106
-2.09097,-0.295396,3.057,3.71547
-2.08105,-0.295396,3.057,3.70989
-2.07113,-0.295396,3.057,3.70433
-2.043,-0.292787,3.03,3.66613
-2.03317,-0.292787,3.03,3.66066
-2.04136,-0.295396,3.057,3.68777
-2.03144,-0.295396,3.057,3.68229
-2.03937,-0.298005,3.084,3.7093
-2.02936,-0.298005,3.084,3.70381
-2.05668,-0.303512,3.141,3.76669
-2.04648,-0.303512,3.141,3.76113
-2.05509,-0.306315,3.17,3.79026
-2.0635,-0.309117,3.199,3.81932
-2.05312,-0.309117,3.199,3.81372
-2.04274,-0.309117,3.199,3.80814
-2.05205,-0.312112,3.23,3.83943
-2.04156,-0.312112,3.23,3.83384
-2.03108,-0.312112,3.23,3.82826
-2.0206,-0.312112,3.23,3.82271
-2.02878,-0.315011,3.26,3.85263
-1.99963,-0.312112,3.23,3.81167
-1.98915,-0.312112,3.23,3.80618
-1.97866,-0.312112,3.23,3.80071
-1.96818,-0.312112,3.23,3.79527
-1.95769,-0.312112,3.23,3.78984
-1.94721,-0.312112,3.23,3.78443
-1.93673,-0.312112,3.23,3.77905
-1.94413,-0.315011,3.26,3.80874
nan,nan,nan,NaN
nan,nan,nan,NaN
nan,nan,nan,NaN
nan,nan,nan,NaN
nan,nan,nan,NaN
nan,nan,nan,NaN
nan,nan,nan,NaN
nan,nan,nan,NaN
nan,nan,nan,NaN
nan,nan,nan,NaN
nan,nan,nan,NaN
nan,nan,nan,NaN
nan,nan,nan,NaN
nan,nan,nan,NaN
nan,nan,nan,NaN
nan,nan,nan,NaN
nan,nan,nan,NaN
nan,nan,nan,NaN
nan,nan,nan,NaN
nan,nan,nan,NaN
nan,nan,nan,NaN
nan,nan,nan,NaN
nan,nan,nan,NaN
nan,nan,nan,NaN
nan,nan,nan,NaN
nan,nan,nan,NaN
nan,nan,nan,NaN
nan,nan,nan,NaN
nan,nan,nan,NaN
nan,nan,nan,NaN
nan,nan,nan,NaN
nan,nan,nan,NaN
-1.19622,-0.236259,2.445,2.73217
-1.18828,-0.236259,2.445,2.72871
-1.18035,-0.236259,2.445,2.72526
-1.17241,-0.236259,2.445,2.72184
-1.16447,-0.236259,2.445,2.71843
-1.15654,-0.236259,2.445,2.71504
-1.1486,-0.236259,2.445,2.71167
-1.14067,-0.236259,2.445,2.70831
-1.12485,-0.234616,2.428,2.68617
-1.11697,-0.234616,2.428,2.68288
-1.10909,-0.234616,2.428,2.67961
-1.10121,-0.234616,2.428,2.67636
-1.08568,-0.232973,2.411,2.65441
-1.07785,-0.232973,2.411,2.65122
-1.07003,-0.232973,2.411,2.64805
-1.0622,-0.232973,2.411,2.64489
-1.05437,-0.232973,2.411,2.64176
-1.04655,-0.232973,2.411,2.63865
-1.03872,-0.232973,2.411,2.63555
-1.02363,-0.23133,2.394,2.61392
-1.01586,-0.23133,2.394,2.61088
-1.00809,-0.23133,2.394,2.60787
-1.00032,-0.23133,2.394,2.60488
-0.992548,-0.23133,2.394,2.6019
-0.984778,-0.23133,2.394,2.59895
-0.970069,-0.229688,2.377,2.57758
-0.962354,-0.229688,2.377,2.57469
-0.961466,-0.23133,2.394,2.59021
-0.946924,-0.229688,2.377,2.56896
-0.939209,-0.229688,2.377,2.56613
-0.931494,-0.229688,2.377,2.56331
-0.923778,-0.229688,2.377,2.56052
-0.916063,-0.229688,2.377,2.55774
-0.908348,-0.229688,2.377,2.55499
-0.900633,-0.229688,2.377,2.55226
-0.892918,-0.229688,2.377,2.54955
-0.879244,-0.228142,2.361,2.52971
-0.871581,-0.228142,2.361,2.52706
-0.863918,-0.228142,2.361,2.52443
-0.856255,-0.228142,2.361,2.52181
-0.848591,-0.228142,2.361,2.51922
-0.840928,-0.228142,2.361,2.51665
-0.838912,-0.229688,2.377,2.53114
-0.831197,-0.229688,2.377,2.52859
-0.823481,-0.229688,2.377,2.52607
-0.815766,-0.229688,2.377,2.52356
-0.808051,-0.229688,2.377,2.52108
-0.800336,-0.229688,2.377,2.51862
-0.792621,-0.229688,2.377,2.51617
-0.790519,-0.23133,2.394,2.53173
-0.782749,-0.23133,2.394,2.52932
-0.774979,-0.23133,2.394,2.52692
-0.772656,-0.232973,2.411,2.54248
-0.764831,-0.232973,2.411,2.54011
-0.757005,-0.232973,2.411,2.53777
-0.754462,-0.234616,2.428,2.55332
-0.751809,-0.236259,2.445,2.56886
-0.743873,-0.236259,2.445,2.56655
-0.735937,-0.236259,2.445,2.56426
-0.728001,-0.236259,2.445,2.562
-0.720065,-0.236259,2.445,2.55975
-0.712129,-0.236259,2.445,2.55753
-0.704194,-0.236259,2.445,2.55533
-0.701384,-0.237998,2.463,2.57195
-0.693389,-0.237998,2.463,2.56979
-0.685395,-0.237998,2.463,2.56764
-0.677401,-0.237998,2.463,2.56552
-0.669406,-0.237998,2.463,2.56342
-0.661412,-0.237998,2.463,2.56134
-0.653418,-0.237998,2.463,2.55929
-0.645424,-0.237998,2.463,2.55726
-0.637429,-0.237998,2.463,2.55525
-0.629435,-0.237998,2.463,2.55327
-0.621441,-0.237998,2.463,2.55131
-0.613446,-0.237998,2.463,2.54938
-0.605452,-0.237998,2.463,2.54747
-0.597458,-0.237998,2.463,2.54558
-0.589464,-0.237998,2.463,2.54371
-0.581469,-0.237998,2.463,2.54187
-0.569284,-0.236259,2.445,2.52149
-0.561348,-0.236259,2.445,2.51971
-0.553412,-0.236259,2.445,2.51796
-0.545476,-0.236259,2.445,2.51623
-0.53754,-0.236259,2.445,2.51452
-0.529605,-0.236259,2.445,2.51283
-0.521669,-0.236259,2.445,2.51117
-0.517515,-0.237998,2.463,2.52801
-0.509521,-0.237998,2.463,2.52639
-0.501526,-0.237998,2.463,2.52479
-0.493532,-0.237998,2.463,2.52321
-0.489086,-0.239737,2.481,2.54009
-0.481034,-0.239737,2.481,2.53855
-0.472981,-0.239737,2.481,2.53703
-0.468301,-0.241477,2.499,2.55394
-0.46019,-0.241477,2.499,2.55247
-0.452079,-0.241477,2.499,2.55102
-0.447166,-0.243216,2.517,2.56796
-0.438996,-0.243216,2.517,2.56655
-0.430827,-0.243216,2.517,2.56516
-0.422657,-0.243216,2.517,2.5638
-0.414487,-0.243216,2.517,2.56247
-0.406318,-0.243216,2.517,2.56116
-0.398148,-0.243216,2.517,2.55988
-0.392923,-0.245052,2.536,2.57793
-0.384691,-0.245052,2.536,2.57669
-0.37646,-0.245052,2.536,2.57547
-0.368229,-0.245052,2.536,2.57428
-0.359998,-0.245052,2.536,2.57312
-0.349131,-0.243216,2.517,2.55271
-0.340961,-0.243216,2.517,2.55161
-0.332792,-0.243216,2.517,2.55053
-0.324622,-0.243216,2.517,2.54948
-0.31419,-0.241477,2.499,2.53022
-0.306079,-0.241477,2.499,2.52923
-0.297967,-0.241477,2.499,2.52826
-0.289856,-0.241477,2.499,2.52732
-0.281745,-0.241477,2.499,2.5264
-0.271663,-0.239737,2.481,2.50732
-0.26361,-0.239737,2.481,2.50646
-0.255558,-0.239737,2.481,2.50562
-0.247505,-0.239737,2.481,2.50481
-0.239452,-0.239737,2.481,2.50403
-0.2314,-0.239737,2.481,2.50327
-0.223347,-0.239737,2.481,2.50254
-0.215294,-0.239737,2.481,2.50184
-0.207241,-0.239737,2.481,2.50116
-0.199189,-0.239737,2.481,2.5005
-0.191136,-0.239737,2.481,2.49987
-0.183083,-0.239737,2.481,2.49927
-0.175031,-0.239737,2.481,2.49869
-0.166978,-0.239737,2.481,2.49814
-0.158925,-0.239737,2.481,2.49762
-0.150872,-0.239737,2.481,2.49712
-0.14282,-0.239737,2.481,2.49664
-0.134767,-0.239737,2.481,2.4962
-0.126714,-0.239737,2.481,2.49577
-0.118662,-0.239737,2.481,2.49538
-0.110609,-0.239737,2.481,2.49501
-0.1033,-0.241477,2.499,2.51276
-0.0951891,-0.241477,2.499,2.51244
-0.087078,-0.241477,2.499,2.51215
-0.0789668,-0.241477,2.499,2.51188
-0.0708557,-0.241477,2.499,2.51164
-0.0627446,-0.241477,2.499,2.51142
-0.055027,-0.243216,2.517,2.52932
-0.0468574,-0.243216,2.517,2.52916
-0.0386878,-0.243216,2.517,2.52902
-0.0305183,-0.243216,2.517,2.52891
-0.0223487,-0.243216,2.517,2.52882
-0.0141792,-0.243216,2.517,2.52876
-0.00596664,-0.241477,2.499,2.51065
0.00214449,-0.241477,2.499,2.51064
0.0102556,-0.241477,2.499,2.51066
0.0183668,-0.241477,2.499,2.51071
0.0262872,-0.239737,2.481,2.49269
0.0343399,-0.239737,2.481,2.49279
0.042085,-0.237998,2.463,2.47483
0.0500793,-0.237998,2.463,2.47498
0.0576492,-0.236259,2.445,2.45706
0.0655851,-0.236259,2.445,2.45726
0.0730097,-0.234616,2.428,2.4404
0.0808904,-0.234616,2.428,2.44065
0.0893926,-0.236259,2.445,2.45801
0.0973285,-0.236259,2.445,2.45832
0.104532,-0.234616,2.428,2.44155
0.112413,-0.234616,2.428,2.4419
0.120294,-0.234616,2.428,2.44227
0.128175,-0.234616,2.428,2.44267
0.136055,-0.234616,2.428,2.4431
0.143936,-0.234616,2.428,2.44355
0.151817,-0.234616,2.428,2.44403
0.159697,-0.234616,2.428,2.44453
0.168751,-0.236259,2.445,2.46218
0.176687,-0.236259,2.445,2.46273
0.184623,-0.236259,2.445,2.46332
0.192559,-0.236259,2.445,2.46392
0.200495,-0.236259,2.445,2.46456
0.208431,-0.236259,2.445,2.46522
0.217959,-0.237998,2.463,2.48405
0.225954,-0.237998,2.463,2.48477
0.233948,-0.237998,2.463,2.48551
0.24371,-0.239737,2.481,2.50444
0.251763,-0.239737,2.481,2.50524
0.259816,-0.239737,2.481,2.50606
0.267868,-0.239737,2.481,2.50691
0.277923,-0.241477,2.499,2.52598
0.286034,-0.241477,2.499,2.52688
0.294145,-0.241477,2.499,2.52781
0.302256,-0.241477,2.499,2.52877
0.310368,-0.241477,2.499,2.52975
0.318479,-0.241477,2.499,2.53076
0.32659,-0.241477,2.499,2.53179
0.334701,-0.241477,2.499,2.53285
0.342812,-0.241477,2.499,2.53394
0.350923,-0.241477,2.499,2.53505
0.359034,-0.241477,2.499,2.53618
0.367146,-0.241477,2.499,2.53734
0.375257,-0.241477,2.499,2.53853
0.383368,-0.241477,2.499,2.53974
0.391479,-0.241477,2.499,2.54098
0.39959,-0.241477,2.499,2.54224
0.407701,-0.241477,2.499,2.54353
0.415812,-0.241477,2.499,2.54484
0.423923,-0.241477,2.499,2.54618
0.432035,-0.241477,2.499,2.54754
0.440146,-0.241477,2.499,2.54893
0.448257,-0.241477,2.499,2.55034
0.456368,-0.241477,2.499,2.55178
0.464479,-0.241477,2.499,2.55324
0.47259,-0.241477,2.499,2.55473
0.477239,-0.239737,2.481,2.53783
0.485292,-0.239737,2.481,2.53936
0.493344,-0.239737,2.481,2.54091
0.501397,-0.239737,2.481,2.54249
0.50945,-0.239737,2.481,2.54409
0.517502,-0.239737,2.481,2.54571
0.525555,-0.239737,2.481,2.54736
0.533608,-0.239737,2.481,2.54903
0.541661,-0.239737,2.481,2.55073
0.549713,-0.239737,2.481,2.55245
0.557766,-0.239737,2.481,2.5542
0.565819,-0.239737,2.481,2.55597
0.569708,-0.237998,2.463,2.53921
0.577702,-0.237998,2.463,2.54101
0.585697,-0.237998,2.463,2.54284
0.593691,-0.237998,2.463,2.5447
0.601685,-0.237998,2.463,2.54657
0.609679,-0.237998,2.463,2.54847
0.617674,-0.237998,2.463,2.5504
0.625668,-0.237998,2.463,2.55235
0.633662,-0.237998,2.463,2.55432
0.641657,-0.237998,2.463,2.55631
0.649651,-0.237998,2.463,2.55833
0.657645,-0.237998,2.463,2.56037
0.665639,-0.237998,2.463,2.56244
0.673634,-0.237998,2.463,2.56453
0.681628,-0.237998,2.463,2.56664
0.689622,-0.237998,2.463,2.56877
0.697617,-0.237998,2.463,2.57093
0.710768,-0.239737,2.481,2.59192
0.71882,-0.239737,2.481,2.59414
0.726873,-0.239737,2.481,2.59638
0.734926,-0.239737,2.481,2.59864
0.742978,-0.239737,2.481,2.60093
0.751031,-0.239737,2.481,2.60324
0.759084,-0.239737,2.481,2.60558
0.767137,-0.239737,2.481,2.60794
0.775189,-0.239737,2.481,2.61032
0.783242,-0.239737,2.481,2.61272
0.797036,-0.241477,2.499,2.63412
0.805147,-0.241477,2.499,2.63658
0.813258,-0.241477,2.499,2.63907
0.821369,-0.241477,2.499,2.64158
0.82948,-0.241477,2.499,2.64412
0.837591,-0.241477,2.499,2.64667
0.845702,-0.241477,2.499,2.64925
0.847664,-0.239737,2.481,2.63275
0.855716,-0.239737,2.481,2.63535
0.863769,-0.239737,2.481,2.63798
0.871822,-0.239737,2.481,2.64063
0.879874,-0.239737,2.481,2.6433
0.881485,-0.237998,2.463,2.62679
0.889479,-0.237998,2.463,2.62948
0.897474,-0.237998,2.463,2.6322
0.905468,-0.237998,2.463,2.63494
0.913462,-0.237998,2.463,2.63769
0.921457,-0.237998,2.463,2.64047
0.922658,-0.236259,2.445,2.62396
0.930594,-0.236259,2.445,2.62676
0.93853,-0.236259,2.445,2.62958
0.946466,-0.236259,2.445,2.63242
0.954402,-0.236259,2.445,2.63528
0.962338,-0.236259,2.445,2.63817
0.970273,-0.236259,2.445,2.64107
0.978209,-0.236259,2.445,2.644
0.986145,-0.236259,2.445,2.64695
nan,nan,nan,NaN
nan,nan,nan,NaN
nan,nan,nan,NaN
nan,nan,nan,NaN
nan,nan,nan,NaN
nan,nan,nan,NaN
nan,nan,nan,NaN
nan,nan,nan,NaN
nan,nan,nan,NaN
nan,nan,nan,NaN
nan,nan,nan,NaN
nan,nan,nan,NaN
nan,nan,nan,NaN
nan,nan,nan,NaN
nan,nan,nan,NaN
nan,nan,nan,NaN
nan,nan,nan,NaN
1.71819,-0.359557,3.721,4.11428
1.73027,-0.359557,3.721,4.11934
1.74234,-0.359557,3.721,4.12443
1.77375,-0.363519,3.762,4.17504
1.78596,-0.363519,3.762,4.18025
1.79817,-0.363519,3.762,4.18548
1.8306,-0.367578,3.804,4.23752
1.84294,-0.367578,3.804,4.24287
1.85529,-0.367578,3.804,4.24825
1.86764,-0.367578,3.804,4.25366
1.90074,-0.371636,3.846,4.30612
1.93511,-0.375888,3.89,4.36097
1.94774,-0.375888,3.89,4.36659
1.96036,-0.375888,3.89,4.37223
nan,nan,nan,NaN
nan,nan,nan,NaN
nan,nan,nan,NaN
nan,nan,nan,NaN
nan,nan,nan,NaN
nan,nan,nan,NaN
nan,nan,nan,NaN
nan,nan,nan,NaN
2.00575,-0.363519,3.762,4.27877
2.01796,-0.363519,3.762,4.2845
2.03017,-0.363519,3.762,4.29027
2.02013,-0.359557,3.721,4.24924
2.01036,-0.355692,3.681,4.20925
2.02231,-0.355692,3.681,4.21497
2.03425,-0.355692,3.681,4.22072
2.02452,-0.351924,3.642,4.18171
2.03634,-0.351924,3.642,4.18745
2.02679,-0.348252,3.604,4.14946
2.017,-0.34458,3.566,4.11137
2.02857,-0.34458,3.566,4.11706
2.01898,-0.341005,3.529,4.08
2.00972,-0.337526,3.493,4.044
2.02106,-0.337526,3.493,4.04965
2.03239,-0.337526,3.493,4.05532
2.00277,-0.330762,3.423,3.97963
2.01389,-0.330762,3.423,3.98523
2.025,-0.330762,3.423,3.99086
1.99625,-0.324288,3.356,3.91828
2.00714,-0.324288,3.356,3.92384
2.01804,-0.324288,3.356,3.92942
1.99024,-0.318103,3.292,3.85999
1.98147,-0.315011,3.26,3.82793
1.99205,-0.315011,3.26,3.83342
1.96516,-0.309117,3.199,3.7671
1.97555,-0.309117,3.199,3.77252
nan,nan,nan,NaN
nan,nan,nan,NaN
1.93456,-0.298005,3.084,3.65272
1.94457,-0.298005,3.084,3.65803
1.92035,-0.292787,3.03,3.59922
1.89642,-0.287665,2.977,3.54143
1.90609,-0.287665,2.977,3.54661
1.88293,-0.282737,2.926,3.49097
1.87626,-0.280321,2.901,3.46623
1.85447,-0.275683,2.853,3.4139
1.86373,-0.275683,2.853,3.41894
1.84214,-0.271142,2.806,3.36759
1.82156,-0.266793,2.761,3.31849
1.83052,-0.266793,2.761,3.32342
1.81017,-0.262542,2.717,3.27532
1.80493,-0.260512,2.696,3.25485
1.81368,-0.260512,2.696,3.25971
1.79404,-0.256454,2.654,3.21373
1.78839,-0.254425,2.633,3.19308
-2.12074,-0.285476,3.057,3.73153
-2.11082,-0.285476,3.057,3.7259
-2.1009,-0.285476,3.057,3.72028
-2.09097,-0.285476,3.057,3.71469
-2.08105,-0.285476,3.057,3.70911
-2.07113,-0.285476,3.057,3.70356
-2.043,-0.282955,3.03,3.66535
-2.03317,-0.282955,3.03,3.65988
-2.04136,-0.285476,3.057,3.68699
-2.03144,-0.285476,3.057,3.68151
-2.03937,-0.287998,3.084,3.70851
-2.02936,-0.287998,3.084,3.70301
-2.05668,-0.29332,3.141,3.76588
-2.04648,-0.29332,3.141,3.76032
-2.05509,-0.296029,3.17,3.78945
-2.0635,-0.298737,3.199,3.81849
-2.05312,-0.298737,3.199,3.81289
-2.04274,-0.298737,3.199,3.80731
-2.05205,-0.301632,3.23,3.83859
-2.04156,-0.301632,3.23,3.833
-2.03108,-0.301632,3.23,3.82742
-2.0206,-0.301632,3.23,3.82187
-2.02878,-0.304433,3.26,3.85178
-1.99963,-0.301632,3.23,3.81083
-1.98915,-0.301632,3.23,3.80534
-1.97866,-0.301632,3.23,3.79987
-1.96818,-0.301632,3.23,3.79442
-1.95769,-0.301632,3.23,3.78899
-1.94721,-0.301632,3.23,3.78358
-1.93673,-0.301632,3.23,3.7782
-1.94413,-0.304433,3.26,3.80788
nan,nan,nan,NaN
nan,nan,nan,NaN
nan,nan,nan,NaN
nan,nan,nan,NaN
nan,nan,nan,NaN
nan,nan,nan,NaN
nan,nan,nan,NaN
nan,nan,nan,NaN
nan,nan,nan,NaN
nan,nan,nan,NaN
nan,nan,nan,NaN
nan,nan,nan,NaN
nan,nan,nan,NaN
nan,nan,nan,NaN
nan,nan,nan,NaN
nan,nan,nan,NaN
nan,nan,nan,NaN
nan,nan,nan,NaN
nan,nan,nan,NaN
nan,nan,nan,NaN
nan,nan,nan,NaN
nan,nan,nan,NaN
nan,nan,nan,NaN
nan,nan,nan,NaN
nan,nan,nan,NaN
nan,nan,nan,NaN
nan,nan,nan,NaN
nan,nan,nan,NaN
nan,nan,nan,NaN
nan,nan,nan,NaN
nan,nan,nan,NaN
nan,nan,nan,NaN
-1.19622,-0.228325,2.445,2.7315
-1.18828,-0.228325,2.445,2.72803
-1.18035,-0.228325,2.445,2.72459
-1.17241,-0.228325,2.445,2.72116
-1.16447,-0.228325,2.445,2.71775
-1.15654,-0.228325,2.445,2.71436
-1.1486,-0.228325,2.445,2.71099
-1.14067,-0.228325,2.445,2.70763
-1.12485,-0.226737,2.428,2.6855
-1.11697,-0.226737,2.428,2.68221
-1.10909,-0.226737,2.428,2.67893
-1.10121,-0.226737,2.428,2.67568
-1.08568,-0.22515,2.411,2.65373
-1.07785,-0.22515,2.411,2.65054
-1.07003,-0.22515,2.411,2.64737
-1.0622,-0.22515,2.411,2.64422
-1.05437,-0.22515,2.411,2.64108
-1.04655,-0.22515,2.411,2.63797
-1.03872,-0.22515,2.411,2.63487
-1.02363,-0.223562,2.394,2.61324
-1.01586,-0.223562,2.394,2.61021
-1.00809,-0.223562,2.394,2.60719
-1.00032,-0.223562,2.394,2.6042
-0.992548,-0.223562,2.394,2.60122
-0.984778,-0.223562,2.394,2.59827
-0.970069,-0.221975,2.377,2.5769
-0.962354,-0.221975,2.377,2.57401
-0.961466,-0.223562,2.394,2.58952
-0.946924,-0.221975,2.377,2.56828
-0.939209,-0.221975,2.377,2.56545
-0.931494,-0.221975,2.377,2.56263
-0.923778,-0.221975,2.377,2.55984
-0.916063,-0.221975,2.377,2.55706
-0.908348,-0.221975,2.377,2.55431
-0.900633,-0.221975,2.377,2.55158
-0.892918,-0.221975,2.377,2.54886
-0.885203,-0.221975,2.377,2.54617
-0.877488,-0.221975,2.377,2.5435
-0.869772,-0.221975,2.377,2.54085
-0.862057,-0.221975,2.377,2.53822
-0.854342,-0.221975,2.377,2.53561
-0.846627,-0.221975,2.377,2.53302
-0.838912,-0.221975,2.377,2.53045
-0.831197,-0.221975,2.377,2.5279
-0.823481,-0.221975,2.377,2.52538
-0.821601,-0.223562,2.394,2.54091
-0.81383,-0.223562,2.394,2.53841
-0.80606,-0.223562,2.394,2.53593
-0.79829,-0.223562,2.394,2.53347
-0.790519,-0.223562,2.394,2.53103
-0.788307,-0.22515,2.411,2.54657
-0.780482,-0.22515,2.411,2.54416
-0.772656,-0.22515,2.411,2.54177
-0.770224,-0.226737,2.428,2.55731
-0.762343,-0.226737,2.428,2.55495
-0.759745,-0.228325,2.445,2.57048
-0.751809,-0.228325,2.445,2.56815
-0.743873,-0.228325,2.445,2.56583
-0.735937,-0.228325,2.445,2.56354
-0.728001,-0.228325,2.445,2.56128
-0.720065,-0.228325,2.445,2.55903
-0.712129,-0.228325,2.445,2.55681
-0.709378,-0.230006,2.463,2.57342
-0.701384,-0.230006,2.463,2.57123
-0.693389,-0.230006,2.463,2.56906
-0.685395,-0.230006,2.463,2.56691
-0.677401,-0.230006,2.463,2.56479
-0.669406,-0.230006,2.463,2.56269
-0.661412,-0.230006,2.463,2.56061
-0.653418,-0.230006,2.463,2.55856
-0.645424,-0.230006,2.463,2.55653
-0.637429,-0.230006,2.463,2.55452
-0.629435,-0.230006,2.463,2.55254
-0.621441,-0.230006,2.463,2.55058
-0.613446,-0.230006,2.463,2.54864
-0.605452,-0.230006,2.463,2.54673
-0.597458,-0.230006,2.463,2.54484
-0.589464,-0.230006,2.463,2.54298
-0.581469,-0.230006,2.463,2.54114
-0.569284,-0.228325,2.445,2.52076
-0.561348,-0.228325,2.445,2.51898
-0.553412,-0.228325,2.445,2.51723
-0.545476,-0.228325,2.445,2.51549
-0.53754,-0.228325,2.445,2.51378
-0.529605,-0.228325,2.445,2.5121
-0.521669,-0.228325,2.445,2.51044
-0.517515,-0.230006,2.463,2.52727
-0.509521,-0.230006,2.463,2.52565
-0.501526,-0.230006,2.463,2.52404
-0.493532,-0.230006,2.463,2.52247
-0.489086,-0.231687,2.481,2.53934
-0.481034,-0.231687,2.481,2.5378
-0.472981,-0.231687,2.481,2.53629
-0.464928,-0.231687,2.481,2.5348
-0.456875,-0.231687,2.481,2.53333
-0.452079,-0.233368,2.499,2.55026
-0.443968,-0.233368,2.499,2.54884
-0.435857,-0.233368,2.499,2.54744
-0.427746,-0.233368,2.499,2.54606
-0.422657,-0.235049,2.517,2.56304
-0.414487,-0.235049,2.517,2.56171
-0.406318,-0.235049,2.517,2.5604
-0.398148,-0.235049,2.517,2.55911
-0.389979,-0.235049,2.517,2.55785
-0.381809,-0.235049,2.517,2.55662
-0.37364,-0.235049,2.517,2.55541
-0.36547,-0.235049,2.517,2.55423
-0.357301,-0.235049,2.517,2.55308
-0.349131,-0.235049,2.517,2.55195
-0.340961,-0.235049,2.517,2.55084
-0.332792,-0.235049,2.517,2.54976
-0.324622,-0.235049,2.517,2.54871
-0.316453,-0.235049,2.517,2.54768
-0.308283,-0.235049,2.517,2.54668
-0.297967,-0.233368,2.499,2.5275
-0.289856,-0.233368,2.499,2.52655
-0.281745,-0.233368,2.499,2.52564
-0.273634,-0.233368,2.499,2.52474
-0.26361,-0.231687,2.481,2.5057
-0.255558,-0.231687,2.481,2.50487
-0.247505,-0.231687,2.481,2.50406
-0.239452,-0.231687,2.481,2.50327
-0.2314,-0.231687,2.481,2.50252
-0.224967,-0.233368,2.499,2.51993
-0.215294,-0.231687,2.481,2.50108
-0.207241,-0.231687,2.481,2.5004
-0.199189,-0.231687,2.481,2.49974
-0.191136,-0.231687,2.481,2.49911
-0.183083,-0.231687,2.481,2.49851
-0.175031,-0.231687,2.481,2.49793
-0.166978,-0.231687,2.481,2.49738
-0.158925,-0.231687,2.481,2.49686
-0.150872,-0.231687,2.481,2.49636
-0.14282,-0.231687,2.481,2.49588
-0.134767,-0.231687,2.481,2.49544
-0.127634,-0.233368,2.499,2.51312
-0.119523,-0.233368,2.499,2.51272
-0.111411,-0.233368,2.499,2.51234
-0.1033,-0.233368,2.499,2.512
-0.0958747,-0.235049,2.517,2.52977
-0.0877052,-0.235049,2.517,2.52947
-0.0795356,-0.235049,2.517,2.5292
-0.0713661,-0.235049,2.517,2.52896
-0.0631965,-0.235049,2.517,2.52874
-0.0554423,-0.236823,2.536,2.54764
-0.0472111,-0.236823,2.536,2.54747
-0.0389799,-0.236823,2.536,2.54733
-0.0305183,-0.235049,2.517,2.52814
-0.0223487,-0.235049,2.517,2.52805
-0.0141792,-0.235049,2.517,2.52799
-0.00600962,-0.235049,2.517,2.52796
0.00214449,-0.233368,2.499,2.50987
0.0102556,-0.233368,2.499,2.50989
0.0183668,-0.233368,2.499,2.50994
0.0264779,-0.233368,2.499,2.51001
0.034589,-0.233368,2.499,2.51011
0.042085,-0.230006,2.463,2.47407
0.0500793,-0.230006,2.463,2.47422
0.0576492,-0.228325,2.445,2.45631
0.0655851,-0.228325,2.445,2.45651
0.0735209,-0.228325,2.445,2.45674
0.0814568,-0.228325,2.445,2.45699
0.0893926,-0.228325,2.445,2.45726
0.0973285,-0.228325,2.445,2.45757
0.104532,-0.226737,2.428,2.4408
0.112413,-0.226737,2.428,2.44115
0.120294,-0.226737,2.428,2.44153
0.128175,-0.226737,2.428,2.44193
0.136055,-0.226737,2.428,2.44236
0.143936,-0.226737,2.428,2.44281
0.151817,-0.226737,2.428,2.44329
0.160815,-0.228325,2.445,2.4609
0.168751,-0.228325,2.445,2.46143
0.176687,-0.228325,2.445,2.46199
0.184623,-0.228325,2.445,2.46257
0.192559,-0.228325,2.445,2.46318
0.200495,-0.228325,2.445,2.46381
0.208431,-0.228325,2.445,2.46447
0.217959,-0.230006,2.463,2.4833
0.225954,-0.230006,2.463,2.48401
0.233948,-0.230006,2.463,2.48475
0.24371,-0.231687,2.481,2.50368
0.251763,-0.231687,2.481,2.50448
0.259816,-0.231687,2.481,2.5053
0.267868,-0.231687,2.481,2.50615
0.277923,-0.233368,2.499,2.52521
0.286034,-0.233368,2.499,2.52612
0.294145,-0.233368,2.499,2.52705
0.302256,-0.233368,2.499,2.52801
0.310368,-0.233368,2.499,2.52899
0.318479,-0.233368,2.499,2.53
0.32659,-0.233368,2.499,2.53103
0.334701,-0.233368,2.499,2.53209
0.342812,-0.233368,2.499,2.53318
0.350923,-0.233368,2.499,2.53429
0.359034,-0.233368,2.499,2.53542
0.367146,-0.233368,2.499,2.53658
0.375257,-0.233368,2.499,2.53777
0.383368,-0.233368,2.499,2.53898
0.391479,-0.233368,2.499,2.54022
0.39959,-0.233368,2.499,2.54148
0.407701,-0.233368,2.499,2.54277
0.415812,-0.233368,2.499,2.54408
0.423923,-0.233368,2.499,2.54542
0.432035,-0.233368,2.499,2.54679
0.440146,-0.233368,2.499,2.54817
0.448257,-0.233368,2.499,2.54959
0.456368,-0.233368,2.499,2.55103
0.464479,-0.233368,2.499,2.55249
0.47259,-0.233368,2.499,2.55398
0.477239,-0.231687,2.481,2.53708
0.485292,-0.231687,2.481,2.53861
0.493344,-0.231687,2.481,2.54016
0.501397,-0.231687,2.481,2.54174
0.50945,-0.231687,2.481,2.54334
0.517502,-0.231687,2.481,2.54497
0.525555,-0.231687,2.481,2.54662
0.533608,-0.231687,2.481,2.54829
0.541661,-0.231687,2.481,2.54999
0.549713,-0.231687,2.481,2.55171
0.557766,-0.231687,2.481,2.55346
0.565819,-0.231687,2.481,2.55523
0.569708,-0.230006,2.463,2.53847
0.577702,-0.230006,2.463,2.54028
0.585697,-0.230006,2.463,2.54211
0.593691,-0.230006,2.463,2.54396
0.601685,-0.230006,2.463,2.54584
0.609679,-0.230006,2.463,2.54774
0.617674,-0.230006,2.463,2.54967
0.625668,-0.230006,2.463,2.55161
0.633662,-0.230006,2.463,2.55359
0.641657,-0.230006,2.463,2.55558
0.649651,-0.230006,2.463,2.5576
0.657645,-0.230006,2.463,2.55964
0.665639,-0.230006,2.463,2.56171
0.673634,-0.230006,2.463,2.5638
0.681628,-0.230006,2.463,2.56591
0.689622,-0.230006,2.463,2.56804
0.697617,-0.230006,2.463,2.5702
0.710768,-0.231687,2.481,2.59118
0.71882,-0.231687,2.481,2.5934
0.726873,-0.231687,2.481,2.59565
0.734926,-0.231687,2.481,2.59791
0.742978,-0.231687,2.481,2.6002
0.751031,-0.231687,2.481,2.60252
0.759084,-0.231687,2.481,2.60485
0.767137,-0.231687,2.481,2.60721
0.775189,-0.231687,2.481,2.60959
0.783242,-0.231687,2.481,2.61199
0.797036,-0.233368,2.499,2.63339
0.805147,-0.233368,2.499,2.63585
0.813258,-0.233368,2.499,2.63834
0.821369,-0.233368,2.499,2.64085
0.82948,-0.233368,2.499,2.64339
0.837591,-0.233368,2.499,2.64594
0.845702,-0.233368,2.499,2.64852
0.853814,-0.233368,2.499,2.65112
0.861925,-0.233368,2.499,2.65375
0.863769,-0.231687,2.481,2.63726
0.871822,-0.231687,2.481,2.63991
0.879874,-0.231687,2.481,2.64258
0.887927,-0.231687,2.481,2.64527
0.889479,-0.230006,2.463,2.62877
0.897474,-0.230006,2.463,2.63149
0.905468,-0.230006,2.463,2.63423
0.913462,-0.230006,2.463,2.63698
0.921457,-0.230006,2.463,2.63976
0.922658,-0.228325,2.445,2.62325
0.930594,-0.228325,2.445,2.62605
0.93853,-0.228325,2.445,2.62888
0.946466,-0.228325,2.445,2.63172
0.954402,-0.228325,2.445,2.63459
0.962338,-0.228325,2.445,2.63747
0.970273,-0.228325,2.445,2.64038
0.978209,-0.228325,2.445,2.6433
0.986145,-0.228325,2.445,2.64625
nan,nan,nan,NaN
nan,nan,nan,NaN
nan,nan,nan,NaN
nan,nan,nan,NaN
nan,nan,nan,NaN
nan,nan,nan,NaN
nan,nan,nan,NaN
nan,nan,nan,NaN
nan,nan,nan,NaN
nan,nan,nan,NaN
nan,nan,nan,NaN
nan,nan,nan,NaN
nan,nan,nan,NaN
nan,nan,nan,NaN
nan,nan,nan,NaN
nan,nan,nan,NaN
nan,nan,nan,NaN
1.69972,-0.343748,3.681,4.06903
1.71167,-0.343748,3.681,4.07403
1.72361,-0.343748,3.681,4.07907
1.75442,-0.347483,3.721,4.12851
1.7665,-0.347483,3.721,4.13366
1.77858,-0.347483,3.721,4.13883
1.79065,-0.347483,3.721,4.14404
1.8226,-0.351312,3.762,4.19499
1.83481,-0.351312,3.762,4.20031
1.84702,-0.351312,3.762,4.20566
1.85923,-0.351312,3.762,4.21103
1.89233,-0.355234,3.804,4.26351
1.90468,-0.355234,3.804,4.26901
1.93819,-0.359156,3.846,4.32172
nan,nan,nan,NaN
nan,nan,nan,NaN
nan,nan,nan,NaN
nan,nan,nan,NaN
nan,nan,nan,NaN
nan,nan,nan,NaN
nan,nan,nan,NaN
nan,nan,nan,NaN
2.05054,-0.359156,3.846,4.37326
2.04049,-0.355234,3.804,4.33131
2.05284,-0.355234,3.804,4.33714
2.04238,-0.351312,3.762,4.29504
2.0322,-0.347483,3.721,4.25399
2.04428,-0.347483,3.721,4.25977
2.03425,-0.343748,3.681,4.21973
2.0462,-0.343748,3.681,4.2255
2.05815,-0.343748,3.681,4.2313
2.02679,-0.336557,3.604,4.14849
2.017,-0.333009,3.566,4.11042
2.02857,-0.333009,3.566,4.11611
2.01898,-0.329554,3.529,4.07906
2.00972,-0.326192,3.493,4.04307
2.02106,-0.326192,3.493,4.04872
2.03239,-0.326192,3.493,4.05439
2.02325,-0.322923,3.458,4.0194
2.01389,-0.319655,3.423,3.98432
2.025,-0.319655,3.423,3.98995
1.99625,-0.313398,3.356,3.91739
2.00714,-0.313398,3.356,3.92296
2.01804,-0.313398,3.356,3.92854
1.99024,-0.307422,3.292,3.85912
1.98147,-0.304433,3.26,3.82708
1.99205,-0.304433,3.26,3.83257
1.96516,-0.298737,3.199,3.76626
1.97555,-0.298737,3.199,3.77169
nan,nan,nan,NaN
nan,nan,nan,NaN
1.93456,-0.287998,3.084,3.65192
1.94457,-0.287998,3.084,3.65723
1.92035,-0.282955,3.03,3.59843
1.89642,-0.278005,2.977,3.54066
1.90609,-0.278005,2.977,3.54584
1.88293,-0.273243,2.926,3.49021
1.87626,-0.270908,2.901,3.46548
1.85447,-0.266426,2.853,3.41316
1.86373,-0.266426,2.853,3.4182
1.84214,-0.262037,2.806,3.36686
1.82156,-0.257834,2.761,3.31778
1.83052,-0.257834,2.761,3.32271
1.81017,-0.253725,2.717,3.27463
1.80493,-0.251764,2.696,3.25416
1.81368,-0.251764,2.696,3.25902
1.79404,-0.247842,2.654,3.21305
1.78839,-0.245881,2.633,3.19241
-2.08328,-0.270689,3.003,3.66488
-2.07353,-0.270689,3.003,3.65935
-2.06379,-0.270689,3.003,3.65383
-2.03625,-0.268346,2.977,3.61675
-2.00889,-0.266002,2.951,3.57978
-1.99931,-0.266002,2.951,3.57441
-1.98974,-0.266002,2.951,3.56906
-1.98016,-0.266002,2.951,3.56373
-1.97058,-0.266002,2.951,3.55842
-1.961,-0.266002,2.951,3.55312
-1.96862,-0.268346,2.977,3.5791
-1.99383,-0.273123,3.03,3.63742
-1.98399,-0.273123,3.03,3.63204
-1.97416,-0.273123,3.03,3.62668
-1.99933,-0.27799,3.084,3.68587
-2.00738,-0.280514,3.112,3.71387
-1.99728,-0.280514,3.112,3.70842
-2.0057,-0.283128,3.141,3.7375
-2.01393,-0.285742,3.17,3.76649
-2.00364,-0.285742,3.17,3.761
-1.99335,-0.285742,3.17,3.75553
-1.98306,-0.285742,3.17,3.75008
-1.99082,-0.288357,3.199,3.7789
-1.98044,-0.288357,3.199,3.77345
-1.97006,-0.288357,3.199,3.76801
-1.95967,-0.288357,3.199,3.76259
-1.94929,-0.288357,3.199,3.75719
-1.92133,-0.285742,3.17,3.7178
-1.91104,-0.285742,3.17,3.7125
-1.90075,-0.285742,3.17,3.70721
-1.89046,-0.285742,3.17,3.70194
nan,nan,nan,NaN
nan,nan,nan,NaN
nan,nan,nan,NaN
nan,nan,nan,NaN
nan,nan,nan,NaN
nan,nan,nan,NaN
nan,nan,nan,NaN
nan,nan,nan,NaN
nan,nan,nan,NaN
nan,nan,nan,NaN
nan,nan,nan,NaN
nan,nan,nan,NaN
nan,nan,nan,NaN
nan,nan,nan,NaN
nan,nan,nan,NaN
nan,nan,nan,NaN
nan,nan,nan,NaN
nan,nan,nan,NaN
nan,nan,nan,NaN
nan,nan,nan,NaN
nan,nan,nan,NaN
nan,nan,nan,NaN
nan,nan,nan,NaN
nan,nan,nan,NaN
nan,nan,nan,NaN
nan,nan,nan,NaN
nan,nan,nan,NaN
nan,nan,nan,NaN
nan,nan,nan,NaN
nan,nan,nan,NaN
nan,nan,nan,NaN
nan,nan,nan,NaN
-1.19622,-0.220391,2.445,2.73085
-1.18828,-0.220391,2.445,2.72738
-1.18035,-0.220391,2.445,2.72393
-1.17241,-0.220391,2.445,2.7205
-1.17305,-0.222014,2.463,2.7371
-1.15654,-0.220391,2.445,2.7137
-1.1486,-0.220391,2.445,2.71033
-1.14067,-0.220391,2.445,2.70698
-1.13273,-0.220391,2.445,2.70364
-1.11697,-0.218859,2.428,2.68155
-1.10909,-0.218859,2.428,2.67828
-1.10121,-0.218859,2.428,2.67502
-1.09333,-0.218859,2.428,2.67179
-1.08545,-0.218859,2.428,2.66857
-1.07757,-0.218859,2.428,2.66538
-1.06969,-0.218859,2.428,2.6622
-1.05437,-0.217327,2.411,2.64043
-1.04655,-0.217327,2.411,2.63731
-1.03872,-0.217327,2.411,2.63422
-1.0309,-0.217327,2.411,2.63114
-1.02307,-0.217327,2.411,2.62808
-1.01525,-0.217327,2.411,2.62505
-1.00032,-0.215794,2.394,2.60354
-0.992548,-0.215794,2.394,2.60057
-0.984778,-0.215794,2.394,2.59761
-0.977007,-0.215794,2.394,2.59468
-0.969237,-0.215794,2.394,2.59176
-0.961466,-0.215794,2.394,2.58886
-0.953696,-0.215794,2.394,2.58599
-0.945926,-0.215794,2.394,2.58313
-0.938156,-0.215794,2.394,2.5803
-0.930385,-0.215794,2.394,2.57748
-0.922615,-0.215794,2.394,2.57469
-0.914845,-0.215794,2.394,2.57191
-0.907074,-0.215794,2.394,2.56916
-0.899304,-0.215794,2.394,2.56643
-0.891534,-0.215794,2.394,2.56372
-0.883763,-0.215794,2.394,2.56102
-0.875993,-0.215794,2.394,2.55835
-0.868223,-0.215794,2.394,2.5557
-0.860452,-0.215794,2.394,2.55307
-0.852682,-0.215794,2.394,2.55046
-0.844912,-0.215794,2.394,2.54788
-0.837141,-0.215794,2.394,2.54531
-0.829371,-0.215794,2.394,2.54277
-0.821601,-0.215794,2.394,2.54024
-0.81383,-0.215794,2.394,2.53774
-0.811784,-0.217327,2.411,2.55326
-0.803958,-0.217327,2.411,2.55078
-0.796133,-0.217327,2.411,2.54833
-0.788307,-0.217327,2.411,2.54589
-0.780482,-0.217327,2.411,2.54348
-0.778104,-0.218859,2.428,2.55901
-0.770224,-0.218859,2.428,2.55662
-0.762343,-0.218859,2.428,2.55426
-0.759745,-0.220391,2.445,2.56979
-0.751809,-0.220391,2.445,2.56745
-0.743873,-0.220391,2.445,2.56514
-0.735937,-0.220391,2.445,2.56285
-0.728001,-0.220391,2.445,2.56058
-0.720065,-0.220391,2.445,2.55834
-0.712129,-0.220391,2.445,2.55612
-0.709378,-0.222014,2.463,2.57272
-0.701384,-0.222014,2.463,2.57052
-0.693389,-0.222014,2.463,2.56836
-0.685395,-0.222014,2.463,2.56621
-0.677401,-0.222014,2.463,2.56408
-0.669406,-0.222014,2.463,2.56198
-0.661412,-0.222014,2.463,2.55991
-0.653418,-0.222014,2.463,2.55785
-0.645424,-0.222014,2.463,2.55582
-0.637429,-0.222014,2.463,2.55382
-0.629435,-0.222014,2.463,2.55183
-0.621441,-0.222014,2.463,2.54987
-0.613446,-0.222014,2.463,2.54794
-0.605452,-0.222014,2.463,2.54602
-0.597458,-0.222014,2.463,2.54413
-0.589464,-0.222014,2.463,2.54227
-0.581469,-0.222014,2.463,2.54043
-0.569284,-0.220391,2.445,2.52006
-0.561348,-0.220391,2.445,2.51828
-0.553412,-0.220391,2.445,2.51652
-0.545476,-0.220391,2.445,2.51478
-0.53754,-0.220391,2.445,2.51308
-0.529605,-0.220391,2.445,2.51139
-0.521669,-0.220391,2.445,2.50973
-0.517515,-0.222014,2.463,2.52656
-0.509521,-0.222014,2.463,2.52493
-0.501526,-0.222014,2.463,2.52333
-0.493532,-0.222014,2.463,2.52175
-0.489086,-0.223636,2.481,2.53862
-0.481034,-0.223636,2.481,2.53708
-0.472981,-0.223636,2.481,2.53556
-0.464928,-0.223636,2.481,2.53407
-0.456875,-0.223636,2.481,2.53261
-0.452079,-0.225259,2.499,2.54953
-0.443968,-0.225259,2.499,2.54811
-0.435857,-0.225259,2.499,2.54671
-0.427746,-0.225259,2.499,2.54533
-0.422657,-0.226881,2.517,2.5623
-0.414487,-0.226881,2.517,2.56097
-0.406318,-0.226881,2.517,2.55966
-0.398148,-0.226881,2.517,2.55838
-0.389979,-0.226881,2.517,2.55712
-0.381809,-0.226881,2.517,2.55588
-0.37364,-0.226881,2.517,2.55468
-0.36547,-0.226881,2.517,2.55349
-0.357301,-0.226881,2.517,2.55234
-0.349131,-0.226881,2.517,2.55121
-0.340961,-0.226881,2.517,2.5501
-0.332792,-0.226881,2.517,2.54902
-0.324622,-0.226881,2.517,2.54797
-0.316453,-0.226881,2.517,2.54694
-0.308283,-0.226881,2.517,2.54594
-0.297967,-0.225259,2.499,2.52676
-0.289856,-0.225259,2.499,2.52582
-0.281745,-0.225259,2.499,2.5249
-0.273634,-0.225259,2.499,2.52401
-0.26361,-0.223636,2.481,2.50497
-0.255558,-0.223636,2.481,2.50413
-0.247505,-0.223636,2.481,2.50332
-0.239452,-0.223636,2.481,2.50254
-0.2314,-0.223636,2.481,2.50178
-0.224967,-0.225259,2.499,2.5192
-0.215294,-0.223636,2.481,2.50035
-0.207241,-0.223636,2.481,2.49966
-0.199189,-0.223636,2.481,2.49901
-0.191136,-0.223636,2.481,2.49838
-0.183083,-0.223636,2.481,2.49778
-0.175031,-0.223636,2.481,2.4972
-0.166978,-0.223636,2.481,2.49665
-0.158925,-0.223636,2.481,2.49612
-0.150872,-0.223636,2.481,2.49562
-0.14282,-0.223636,2.481,2.49515
-0.134767,-0.223636,2.481,2.4947
-0.127634,-0.225259,2.499,2.51238
-0.119523,-0.225259,2.499,2.51198
-0.111411,-0.225259,2.499,2.5116
-0.1033,-0.225259,2.499,2.51126
-0.0958747,-0.226881,2.517,2.52902
-0.0877052,-0.226881,2.517,2.52873
-0.0795356,-0.226881,2.517,2.52846
-0.0713661,-0.226881,2.517,2.52821
-0.0631965,-0.226881,2.517,2.528
-0.0554423,-0.228594,2.536,2.54689
-0.0472111,-0.228594,2.536,2.54672
-0.0389799,-0.228594,2.536,2.54658
-0.0305183,-0.226881,2.517,2.52739
-0.0223487,-0.226881,2.517,2.5273
-0.0141792,-0.226881,2.517,2.52724
-0.00600962,-0.226881,2.517,2.52721
0.00214449,-0.225259,2.499,2.50913
0.0102556,-0.225259,2.499,2.50915
0.0183668,-0.225259,2.499,2.5092
0.0264779,-0.225259,2.499,2.50927
0.034589,-0.225259,2.499,2.50937
0.042085,-0.222014,2.463,2.47334
0.0500793,-0.222014,2.463,2.47349
0.0576492,-0.220391,2.445,2.45559
0.0655851,-0.220391,2.445,2.45579
0.0735209,-0.220391,2.445,2.45601
0.0814568,-0.220391,2.445,2.45626
0.0893926,-0.220391,2.445,2.45654
0.0973285,-0.220391,2.445,2.45684
0.104532,-0.218859,2.428,2.44008
0.112413,-0.218859,2.428,2.44043
0.120294,-0.218859,2.428,2.44081
0.128175,-0.218859,2.428,2.44121
0.136055,-0.218859,2.428,2.44164
0.143936,-0.218859,2.428,2.44209
0.151817,-0.218859,2.428,2.44257
0.160815,-0.220391,2.445,2.46017
0.168751,-0.220391,2.445,2.46071
0.176687,-0.220391,2.445,2.46126
0.184623,-0.220391,2.445,2.46185
0.192559,-0.220391,2.445,2.46245
0.200495,-0.220391,2.445,2.46309
0.209965,-0.222014,2.463,2.48188
0.217959,-0.222014,2.463,2.48257
0.225954,-0.222014,2.463,2.48329
0.233948,-0.222014,2.463,2.48403
0.24371,-0.223636,2.481,2.50295
0.251763,-0.223636,2.481,2.50375
0.259816,-0.223636,2.481,2.50457
0.267868,-0.223636,2.481,2.50542
0.277923,-0.225259,2.499,2.52448
0.286034,-0.225259,2.499,2.52538
0.294145,-0.225259,2.499,2.52631
0.302256,-0.225259,2.499,2.52727
0.310368,-0.225259,2.499,2.52825
0.318479,-0.225259,2.499,2.52926
0.32659,-0.225259,2.499,2.5303
0.334701,-0.225259,2.499,2.53136
0.342812,-0.225259,2.499,2.53244
0.350923,-0.225259,2.499,2.53355
0.359034,-0.225259,2.499,2.53469
0.367146,-0.225259,2.499,2.53585
0.375257,-0.225259,2.499,2.53704
0.383368,-0.225259,2.499,2.53825
0.391479,-0.225259,2.499,2.53949
0.39959,-0.225259,2.499,2.54075
0.407701,-0.225259,2.499,2.54204
0.415812,-0.225259,2.499,2.54335
0.423923,-0.225259,2.499,2.54469
0.432035,-0.225259,2.499,2.54606
0.440146,-0.225259,2.499,2.54744
0.448257,-0.225259,2.499,2.54886
0.456368,-0.225259,2.499,2.5503
0.464479,-0.225259,2.499,2.55176
0.47259,-0.225259,2.499,2.55325
0.480701,-0.225259,2.499,2.55476
0.488812,-0.225259,2.499,2.5563
0.493344,-0.223636,2.481,2.53944
0.501397,-0.223636,2.481,2.54102
0.50945,-0.223636,2.481,2.54262
0.517502,-0.223636,2.481,2.54425
0.525555,-0.223636,2.481,2.5459
0.533608,-0.223636,2.481,2.54757
0.541661,-0.223636,2.481,2.54927
0.549713,-0.223636,2.481,2.55099
0.553719,-0.222014,2.463,2.53422
0.561714,-0.222014,2.463,2.53598
0.569708,-0.222014,2.463,2.53776
0.577702,-0.222014,2.463,2.53957
0.585697,-0.222014,2.463,2.5414
0.593691,-0.222014,2.463,2.54325
0.601685,-0.222014,2.463,2.54513
0.609679,-0.222014,2.463,2.54703
0.617674,-0.222014,2.463,2.54896
0.625668,-0.222014,2.463,2.55091
0.633662,-0.222014,2.463,2.55288
0.641657,-0.222014,2.463,2.55487
0.649651,-0.222014,2.463,2.55689
0.657645,-0.222014,2.463,2.55894
0.665639,-0.222014,2.463,2.561
0.673634,-0.222014,2.463,2.56309
0.681628,-0.222014,2.463,2.5652
0.689622,-0.222014,2.463,2.56734
0.697617,-0.222014,2.463,2.5695
0.705611,-0.222014,2.463,2.57168
0.71882,-0.223636,2.481,2.5927
0.726873,-0.223636,2.481,2.59494
0.734926,-0.223636,2.481,2.59721
0.742978,-0.223636,2.481,2.5995
0.751031,-0.223636,2.481,2.60181
0.759084,-0.223636,2.481,2.60415
0.767137,-0.223636,2.481,2.60651
0.775189,-0.223636,2.481,2.60889
0.783242,-0.223636,2.481,2.61129
0.797036,-0.225259,2.499,2.63268
0.805147,-0.225259,2.499,2.63515
0.813258,-0.225259,2.499,2.63764
0.821369,-0.225259,2.499,2.64015
0.82948,-0.225259,2.499,2.64268
0.837591,-0.225259,2.499,2.64524
0.845702,-0.225259,2.499,2.64782
0.853814,-0.225259,2.499,2.65042
0.861925,-0.225259,2.499,2.65305
0.870036,-0.225259,2.499,2.65569
0.871822,-0.223636,2.481,2.63921
0.879874,-0.223636,2.481,2.64188
0.887927,-0.223636,2.481,2.64458
0.889479,-0.222014,2.463,2.62809
0.897474,-0.222014,2.463,2.6308
0.905468,-0.222014,2.463,2.63354
0.913462,-0.222014,2.463,2.6363
0.921457,-0.222014,2.463,2.63908
0.929451,-0.222014,2.463,2.64188
0.937445,-0.222014,2.463,2.6447
0.93853,-0.220391,2.445,2.6282
0.946466,-0.220391,2.445,2.63104
0.954402,-0.220391,2.445,2.63391
0.962338,-0.220391,2.445,2.6368
0.970273,-0.220391,2.445,2.6397
0.978209,-0.220391,2.445,2.64263
nan,nan,nan,NaN
nan,nan,nan,NaN
nan,nan,nan,NaN
nan,nan,nan,NaN
nan,nan,nan,NaN
nan,nan,nan,NaN
nan,nan,nan,NaN
nan,nan,nan,NaN
nan,nan,nan,NaN
nan,nan,nan,NaN
nan,nan,nan,NaN
nan,nan,nan,NaN
nan,nan,nan,NaN
nan,nan,nan,NaN
nan,nan,nan,NaN
nan,nan,nan,NaN
nan,nan,nan,NaN
nan,nan,nan,NaN
1.69972,-0.331804,3.681,4.06803
1.71167,-0.331804,3.681,4.07304
1.72361,-0.331804,3.681,4.07808
1.75442,-0.335409,3.721,4.12751
1.7665,-0.335409,3.721,4.13266
1.77858,-0.335409,3.721,4.13784
1.79065,-0.335409,3.721,4.14304
1.8226,-0.339105,3.762,4.19398
1.83481,-0.339105,3.762,4.1993
1.84702,-0.339105,3.762,4.20465
1.85923,-0.339105,3.762,4.21003
1.89233,-0.342891,3.804,4.2625
1.90468,-0.342891,3.804,4.268
1.93819,-0.346677,3.846,4.3207
nan,nan,nan,NaN
nan,nan,nan,NaN
nan,nan,nan,NaN
nan,nan,nan,NaN
nan,nan,nan,NaN
nan,nan,nan,NaN
nan,nan,nan,NaN
nan,nan,nan,NaN
2.05054,-0.346677,3.846,4.37225
2.04049,-0.342891,3.804,4.33031
2.05284,-0.342891,3.804,4.33614
2.04238,-0.339105,3.762,4.29406
2.0322,-0.335409,3.721,4.25302
2.04428,-0.335409,3.721,4.25881
2.03425,-0.331804,3.681,4.21877
2.0462,-0.331804,3.681,4.22455
2.05815,-0.331804,3.681,4.23035
2.02679,-0.324863,3.604,4.14756
2.017,-0.321438,3.566,4.1095
2.02857,-0.321438,3.566,4.11519
2.01898,-0.318103,3.529,4.07815
2.00972,-0.314858,3.493,4.04217
2.02106,-0.314858,3.493,4.04782
2.03239,-0.314858,3.493,4.05349
2.02325,-0.311703,3.458,4.01852
2.01389,-0.308548,3.423,3.98345
2.025,-0.308548,3.423,3.98908
1.99625,-0.302508,3.356,3.91654
2.00714,-0.302508,3.356,3.9221
2.01804,-0.302508,3.356,3.92769
1.99024,-0.296739,3.292,3.85829
1.98147,-0.293855,3.26,3.82625
1.99205,-0.293855,3.26,3.83174
1.96516,-0.288357,3.199,3.76545
1.97555,-0.288357,3.199,3.77088
nan,nan,nan,NaN
1.94202,-0.280514,3.112,3.67895
1.93456,-0.27799,3.084,3.65114
1.94457,-0.27799,3.084,3.65646
1.92035,-0.273123,3.03,3.59767
1.89642,-0.268346,2.977,3.53991
1.90609,-0.268346,2.977,3.5451
1.88293,-0.263748,2.926,3.48948
1.87626,-0.261495,2.901,3.46476
1.85447,-0.257168,2.853,3.41245
1.86373,-0.257168,2.853,3.41749
1.84214,-0.252932,2.806,3.36617
1.82156,-0.248875,2.761,3.3171
1.83052,-0.248875,2.761,3.32203
1.81017,-0.244909,2.717,3.27395
1.79087,-0.241123,2.675,3.22815
1.79955,-0.241123,2.675,3.23298
1.79404,-0.23923,2.654,3.2124
1.78839,-0.237338,2.633,3.19176
-2.06524,-0.258686,2.977,3.63245
-2.05558,-0.258686,2.977,3.62696
-2.02805,-0.256426,2.951,3.58987
-2.00137,-0.254254,2.926,3.5541
-1.97485,-0.252082,2.901,3.51844
-1.96544,-0.252082,2.901,3.51316
-1.93984,-0.249996,2.877,3.47888
-1.9305,-0.249996,2.877,3.47368
-1.92116,-0.249996,2.877,3.4685
-1.91183,-0.249996,2.877,3.46334
-1.91836,-0.252082,2.901,3.48704
-1.94185,-0.256426,2.951,3.54188
-1.93227,-0.256426,2.951,3.53664
-1.93963,-0.258686,2.977,3.56253
-1.94682,-0.260945,3.003,3.58834
-1.97191,-0.265637,3.057,3.6475
-1.96198,-0.265637,3.057,3.64214
-1.9693,-0.267983,3.084,3.66893
-1.97708,-0.270416,3.112,3.69683
-1.96698,-0.270416,3.112,3.69143
-1.97512,-0.272936,3.141,3.72041
-1.96492,-0.272936,3.141,3.71501
-1.95473,-0.272936,3.141,3.70963
-1.94453,-0.272936,3.141,3.70426
-1.93434,-0.272936,3.141,3.69892
-1.92414,-0.272936,3.141,3.6936
-1.91395,-0.272936,3.141,3.6883
-1.90375,-0.272936,3.141,3.68302
-1.89356,-0.272936,3.141,3.67776
-1.88336,-0.272936,3.141,3.67252
-1.87317,-0.272936,3.141,3.66731
nan,nan,nan,NaN
nan,nan,nan,NaN
nan,nan,nan,NaN
nan,nan,nan,NaN
nan,nan,nan,NaN
nan,nan,nan,NaN
nan,nan,nan,NaN
nan,nan,nan,NaN
nan,nan,nan,NaN
nan,nan,nan,NaN
nan,nan,nan,NaN
nan,nan,nan,NaN
nan,nan,nan,NaN
nan,nan,nan,NaN
nan,nan,nan,NaN
nan,nan,nan,NaN
nan,nan,nan,NaN
nan,nan,nan,NaN
nan,nan,nan,NaN
nan,nan,nan,NaN
nan,nan,nan,NaN
nan,nan,nan,NaN
nan,nan,nan,NaN
nan,nan,nan,NaN
nan,nan,nan,NaN
nan,nan,nan,NaN
nan,nan,nan,NaN
nan,nan,nan,NaN
nan,nan,nan,NaN
nan,nan,nan,NaN
nan,nan,nan,NaN
nan,nan,nan,NaN
-1.19622,-0.212458,2.445,2.73022
-1.18828,-0.212458,2.445,2.72675
-1.18035,-0.212458,2.445,2.7233
-1.17241,-0.212458,2.445,2.71987
-1.17305,-0.214022,2.463,2.73646
-1.16505,-0.214022,2.463,2.73304
-1.1486,-0.212458,2.445,2.7097
-1.14067,-0.212458,2.445,2.70634
-1.13273,-0.212458,2.445,2.70301
-1.12479,-0.212458,2.445,2.69969
-1.11686,-0.212458,2.445,2.69639
-1.10121,-0.21098,2.428,2.67439
-1.09333,-0.21098,2.428,2.67116
-1.08545,-0.21098,2.428,2.66794
-1.07757,-0.21098,2.428,2.66474
-1.06969,-0.21098,2.428,2.66157
-1.06181,-0.21098,2.428,2.65841
-1.05393,-0.21098,2.428,2.65527
-1.03872,-0.209503,2.411,2.63358
-1.0309,-0.209503,2.411,2.63051
-1.02307,-0.209503,2.411,2.62745
-1.01525,-0.209503,2.411,2.62441
-1.00742,-0.209503,2.411,2.62139
-0.999596,-0.209503,2.411,2.6184
-0.99177,-0.209503,2.411,2.61542
-0.977007,-0.208026,2.394,2.59404
-0.969237,-0.208026,2.394,2.59113
-0.961466,-0.208026,2.394,2.58823
-0.953696,-0.208026,2.394,2.58535
-0.945926,-0.208026,2.394,2.5825
-0.938156,-0.208026,2.394,2.57966
-0.930385,-0.208026,2.394,2.57684
-0.922615,-0.208026,2.394,2.57405
-0.914845,-0.208026,2.394,2.57127
-0.907074,-0.208026,2.394,2.56852
-0.899304,-0.208026,2.394,2.56579
-0.891534,-0.208026,2.394,2.56307
-0.883763,-0.208026,2.394,2.56038
-0.875993,-0.208026,2.394,2.55771
-0.868223,-0.208026,2.394,2.55506
-0.860452,-0.208026,2.394,2.55243
-0.852682,-0.208026,2.394,2.54982
-0.844912,-0.208026,2.394,2.54723
-0.843086,-0.209503,2.411,2.56273
-0.83526,-0.209503,2.411,2.56017
-0.827435,-0.209503,2.411,2.55763
-0.819609,-0.209503,2.411,2.55511
-0.811784,-0.209503,2.411,2.55261
-0.803958,-0.209503,2.411,2.55013
-0.796133,-0.209503,2.411,2.54767
-0.793866,-0.21098,2.428,2.56319
-0.785985,-0.21098,2.428,2.56076
-0.778104,-0.21098,2.428,2.55835
-0.775616,-0.212458,2.445,2.57386
-0.767681,-0.212458,2.445,2.57148
-0.759745,-0.212458,2.445,2.56912
-0.751809,-0.212458,2.445,2.56678
-0.743873,-0.212458,2.445,2.56447
-0.735937,-0.212458,2.445,2.56218
-0.728001,-0.212458,2.445,2.55991
-0.720065,-0.212458,2.445,2.55767
-0.712129,-0.212458,2.445,2.55544
-0.709378,-0.214022,2.463,2.57204
-0.701384,-0.214022,2.463,2.56985
-0.693389,-0.214022,2.463,2.56768
-0.685395,-0.214022,2.463,2.56553
-0.677401,-0.214022,2.463,2.56341
-0.669406,-0.214022,2.463,2.5613
-0.656578,-0.212458,2.445,2.54052
-0.648643,-0.212458,2.445,2.53848
-0.645424,-0.214022,2.463,2.55514
-0.637429,-0.214022,2.463,2.55313
-0.624835,-0.212458,2.445,2.53251
-0.616899,-0.212458,2.445,2.53056
-0.608963,-0.212458,2.445,2.52864
-0.601027,-0.212458,2.445,2.52674
-0.593092,-0.212458,2.445,2.52486
-0.585156,-0.212458,2.445,2.52301
-0.57722,-0.212458,2.445,2.52118
-0.569284,-0.212458,2.445,2.51937
-0.561348,-0.212458,2.445,2.51759
-0.553412,-0.212458,2.445,2.51584
-0.545476,-0.212458,2.445,2.5141
-0.53754,-0.212458,2.445,2.51239
-0.529605,-0.212458,2.445,2.51071
-0.521669,-0.212458,2.445,2.50904
-0.517515,-0.214022,2.463,2.52587
-0.509521,-0.214022,2.463,2.52424
-0.501526,-0.214022,2.463,2.52264
-0.493532,-0.214022,2.463,2.52106
-0.489086,-0.215586,2.481,2.53792
-0.481034,-0.215586,2.481,2.53638
-0.472981,-0.215586,2.481,2.53487
-0.464928,-0.215586,2.481,2.53338
-0.456875,-0.215586,2.481,2.53191
-0.452079,-0.21715,2.499,2.54883
-0.443968,-0.21715,2.499,2.5474
-0.435857,-0.21715,2.499,2.546
-0.427746,-0.21715,2.499,2.54463
-0.422657,-0.218714,2.517,2.56159
-0.414487,-0.218714,2.517,2.56026
-0.406318,-0.218714,2.517,2.55895
-0.398148,-0.218714,2.517,2.55766
-0.389979,-0.218714,2.517,2.55641
-0.381809,-0.218714,2.517,2.55517
-0.37364,-0.218714,2.517,2.55396
-0.36547,-0.218714,2.517,2.55278
-0.357301,-0.218714,2.517,2.55162
-0.349131,-0.218714,2.517,2.55049
-0.340961,-0.218714,2.517,2.54939
-0.332792,-0.218714,2.517,2.54831
-0.324622,-0.218714,2.517,2.54725
-0.316453,-0.218714,2.517,2.54623
-0.308283,-0.218714,2.517,2.54522
-0.297967,-0.21715,2.499,2.52605
-0.289856,-0.21715,2.499,2.52511
-0.281745,-0.21715,2.499,2.52419
-0.273634,-0.21715,2.499,2.5233
-0.265523,-0.21715,2.499,2.52243
-0.257412,-0.21715,2.499,2.52159
-0.249301,-0.21715,2.499,2.52077
-0.239452,-0.215586,2.481,2.50183
-0.2314,-0.215586,2.481,2.50108
-0.223347,-0.215586,2.481,2.50034
-0.215294,-0.215586,2.481,2.49964
-0.207241,-0.215586,2.481,2.49896
-0.199189,-0.215586,2.481,2.4983
-0.191136,-0.215586,2.481,2.49767
-0.184412,-0.21715,2.499,2.51519
-0.1763,-0.21715,2.499,2.5146
-0.168189,-0.21715,2.499,2.51405
-0.160078,-0.21715,2.499,2.51352
-0.151967,-0.21715,2.499,2.51302
-0.143856,-0.21715,2.499,2.51254
-0.135745,-0.21715,2.499,2.51209
-0.128553,-0.218714,2.517,2.52975
-0.120383,-0.218714,2.517,2.52935
-0.112214,-0.218714,2.517,2.52898
-0.104044,-0.218714,2.517,2.52863
-0.0965985,-0.220365,2.536,2.54739
-0.0883672,-0.220365,2.536,2.54709
-0.080136,-0.220365,2.536,2.54682
-0.0719048,-0.220365,2.536,2.54657
-0.0636736,-0.220365,2.536,2.54635
-0.0554423,-0.220365,2.536,2.54616
-0.0472111,-0.220365,2.536,2.54599
-0.0389799,-0.220365,2.536,2.54585
-0.0307487,-0.220365,2.536,2.54574
-0.0223487,-0.218714,2.517,2.52658
-0.0141792,-0.218714,2.517,2.52652
-0.00600962,-0.218714,2.517,2.52649
0.00215994,-0.218714,2.517,2.52649
0.0103295,-0.218714,2.517,2.52651
0.0183668,-0.21715,2.499,2.50848
0.0264779,-0.21715,2.499,2.50856
0.034589,-0.21715,2.499,2.50866
0.0423926,-0.215586,2.481,2.49071
0.0500793,-0.214022,2.463,2.47279
0.0580736,-0.214022,2.463,2.47296
