nan,nan,nan,NaN
-1.19578,-0.329157,2.428,2.72643
-1.1879,-0.329157,2.428,2.72298
-1.18002,-0.329157,2.428,2.71955
-1.17214,-0.329157,2.428,2.71614
-1.16426,-0.329157,2.428,2.71275
-1.15638,-0.329157,2.428,2.70938
-1.1485,-0.329157,2.428,2.70603
-1.14062,-0.329157,2.428,2.70269
-1.13274,-0.329157,2.428,2.69937
-1.11698,-0.326853,2.411,2.6772
-1.10915,-0.326853,2.411,2.67394
-1.10133,-0.326853,2.411,2.67071
-1.0935,-0.326853,2.411,2.66749
-1.08568,-0.326853,2.411,2.66429
-1.08545,-0.329157,2.428,2.67988
-1.07003,-0.326853,2.411,2.65795
-1.0622,-0.326853,2.411,2.65481
-1.05437,-0.326853,2.411,2.65169
-1.04655,-0.326853,2.411,2.64859
-1.03872,-0.326853,2.411,2.64551
-1.0309,-0.326853,2.411,2.64244
-1.02307,-0.326853,2.411,2.6394
-1.01525,-0.326853,2.411,2.63638
-1.00742,-0.326853,2.411,2.63337
-0.999596,-0.326853,2.411,2.63039
-0.99177,-0.326853,2.411,2.62742
-0.983945,-0.326853,2.411,2.62448
-0.976119,-0.326853,2.411,2.62156
-0.968294,-0.326853,2.411,2.61865
-0.960468,-0.326853,2.411,2.61577
-0.952643,-0.326853,2.411,2.61291
-0.944817,-0.326853,2.411,2.61006
-0.936992,-0.326853,2.411,2.60724
-0.929166,-0.326853,2.411,2.60444
-0.921341,-0.326853,2.411,2.60166
-0.913515,-0.326853,2.411,2.5989
-0.90569,-0.326853,2.411,2.59616
-0.897864,-0.326853,2.411,2.59344
-0.890039,-0.326853,2.411,2.59074
-0.882213,-0.326853,2.411,2.58806
-0.880553,-0.329157,2.428,2.60363
-0.872672,-0.329157,2.428,2.60098
-0.864792,-0.329157,2.428,2.59834
-0.856911,-0.329157,2.428,2.59573
-0.84903,-0.329157,2.428,2.59314
-0.84115,-0.329157,2.428,2.59057
-0.839103,-0.331462,2.445,2.60614
-0.831167,-0.331462,2.445,2.6036
-0.829292,-0.333902,2.463,2.62023
-0.815296,-0.331462,2.445,2.59858
-0.80736,-0.331462,2.445,2.5961
-0.805309,-0.333902,2.463,2.61273
-0.797315,-0.333902,2.463,2.61028
-0.789321,-0.333902,2.463,2.60785
-0.781326,-0.333902,2.463,2.60544
-0.773332,-0.333902,2.463,2.60306
-0.765338,-0.333902,2.463,2.60069
-0.757344,-0.333902,2.463,2.59835
-0.749349,-0.333902,2.463,2.59603
-0.741355,-0.333902,2.463,2.59374
-0.728001,-0.331462,2.445,2.57252
-0.720065,-0.331462,2.445,2.57029
-0.712129,-0.331462,2.445,2.56808
-0.704194,-0.331462,2.445,2.56589
-0.696258,-0.331462,2.445,2.56372
-0.688322,-0.331462,2.445,2.56158
-0.680386,-0.331462,2.445,2.55946
-0.67245,-0.331462,2.445,2.55736
-0.664514,-0.331462,2.445,2.55528
-0.656578,-0.331462,2.445,2.55323
-0.648643,-0.331462,2.445,2.5512
-0.640707,-0.331462,2.445,2.5492
-0.632771,-0.331462,2.445,2.54721
-0.624835,-0.331462,2.445,2.54525
-0.616899,-0.331462,2.445,2.54332
-0.608963,-0.331462,2.445,2.5414
-0.605452,-0.333902,2.463,2.55821
-0.597458,-0.333902,2.463,2.55633
-0.589464,-0.333902,2.463,2.55447
-0.581469,-0.333902,2.463,2.55264
-0.573475,-0.333902,2.463,2.55083
-0.569613,-0.336342,2.481,2.56767
-0.561561,-0.336342,2.481,2.5659
-0.553508,-0.336342,2.481,2.56415
-0.545455,-0.336342,2.481,2.56242
-0.537403,-0.336342,2.481,2.56072
-0.52935,-0.336342,2.481,2.55904
-0.525079,-0.338783,2.499,2.57594
-0.516968,-0.338783,2.499,2.5743
-0.508857,-0.338783,2.499,2.57269
-0.500746,-0.338783,2.499,2.57109
-0.492635,-0.338783,2.499,2.56953
-0.484524,-0.338783,2.499,2.56798
-0.476412,-0.338783,2.499,2.56647
-0.468301,-0.338783,2.499,2.56497
-0.46019,-0.338783,2.499,2.5635
-0.452079,-0.338783,2.499,2.56206
-0.443968,-0.338783,2.499,2.56064
-0.435857,-0.338783,2.499,2.55925
-0.427746,-0.338783,2.499,2.55788
-0.419634,-0.338783,2.499,2.55653
-0.411523,-0.338783,2.499,2.55522
-0.403412,-0.338783,2.499,2.55392
-0.395301,-0.338783,2.499,2.55265
-0.38719,-0.338783,2.499,2.55141
-0.379079,-0.338783,2.499,2.55019
-0.368296,-0.336342,2.481,2.53064
-0.360243,-0.336342,2.481,2.52948
-0.35219,-0.336342,2.481,2.52834
-0.346634,-0.338783,2.499,2.54557
-0.338523,-0.338783,2.499,2.54448
-0.328032,-0.336342,2.481,2.52509
-0.319979,-0.336342,2.481,2.52406
-0.311927,-0.336342,2.481,2.52305
-0.303874,-0.336342,2.481,2.52207
-0.295821,-0.336342,2.481,2.52111
-0.287769,-0.336342,2.481,2.52018
-0.279716,-0.336342,2.481,2.51927
-0.271663,-0.336342,2.481,2.51839
-0.26361,-0.336342,2.481,2.51753
-0.255558,-0.336342,2.481,2.5167
-0.245709,-0.333902,2.463,2.49765
-0.237715,-0.333902,2.463,2.49687
-0.229721,-0.333902,2.463,2.49612
-0.221726,-0.333902,2.463,2.4954
-0.213732,-0.333902,2.463,2.4947
-0.204234,-0.331462,2.445,2.4758
-0.196298,-0.331462,2.445,2.47516
-0.188363,-0.331462,2.445,2.47455
-0.180427,-0.331462,2.445,2.47395
-0.173761,-0.333902,2.463,2.4916
-0.165766,-0.333902,2.463,2.49105
-0.157772,-0.333902,2.463,2.49053
-0.149778,-0.333902,2.463,2.49004
-0.141784,-0.333902,2.463,2.48957
-0.133789,-0.333902,2.463,2.48913
-0.125795,-0.333902,2.463,2.48871
-0.117801,-0.333902,2.463,2.48832
-0.109806,-0.333902,2.463,2.48795
-0.101812,-0.333902,2.463,2.48761
-0.0945035,-0.336342,2.481,2.50548
-0.0864508,-0.336342,2.481,2.50519
-0.078398,-0.336342,2.481,2.50492
-0.0703453,-0.336342,2.481,2.50468
-0.0622926,-0.336342,2.481,2.50447
-0.0542399,-0.336342,2.481,2.50428
-0.0461872,-0.336342,2.481,2.50412
-0.0381345,-0.336342,2.481,2.50399
-0.0303,-0.338783,2.499,2.52204
-0.0221889,-0.338783,2.499,2.52196
-0.0140778,-0.338783,2.499,2.5219
-0.00596664,-0.338783,2.499,2.52187
0.00214449,-0.338783,2.499,2.52186
0.0102556,-0.338783,2.499,2.52188
0.0183668,-0.338783,2.499,2.52193
0.0266686,-0.341223,2.517,2.54016
0.0348382,-0.341223,2.517,2.54026
0.0430077,-0.341223,2.517,2.54039
0.0511773,-0.341223,2.517,2.54054
0.0593468,-0.341223,2.517,2.54072
0.0675164,-0.341223,2.517,2.54092
0.0762573,-0.343799,2.536,2.56033
0.0844885,-0.343799,2.536,2.56059
0.0927197,-0.343799,2.536,2.56088
0.100951,-0.343799,2.536,2.56119
0.109182,-0.343799,2.536,2.56153
0.118293,-0.346374,2.555,2.58108
0.125645,-0.343799,2.536,2.56228
0.133876,-0.343799,2.536,2.5627
0.143172,-0.346374,2.555,2.58234
0.151465,-0.346374,2.555,2.58282
0.159758,-0.346374,2.555,2.58332
0.16805,-0.346374,2.555,2.58384
0.177655,-0.34895,2.574,2.60361
0.186009,-0.34895,2.574,2.6042
0.194364,-0.34895,2.574,2.60481
0.202718,-0.34895,2.574,2.60544
0.211073,-0.34895,2.574,2.60611
0.219428,-0.34895,2.574,2.6068
0.227782,-0.34895,2.574,2.60751
0.236137,-0.34895,2.574,2.60826
0.244491,-0.34895,2.574,2.60903
0.252846,-0.34895,2.574,2.60982
0.2612,-0.34895,2.574,2.61065
0.269555,-0.34895,2.574,2.61149
0.27791,-0.34895,2.574,2.61237
0.286264,-0.34895,2.574,2.61327
0.294619,-0.34895,2.574,2.6142
0.302973,-0.34895,2.574,2.61515
0.311328,-0.34895,2.574,2.61614
0.319682,-0.34895,2.574,2.61714
0.325615,-0.346374,2.555,2.59885
0.333908,-0.346374,2.555,2.5999
0.342201,-0.346374,2.555,2.60098
0.350494,-0.346374,2.555,2.60209
0.358787,-0.346374,2.555,2.60321
0.36708,-0.346374,2.555,2.60437
0.375373,-0.346374,2.555,2.60555
0.380813,-0.343799,2.536,2.58738
0.389044,-0.343799,2.536,2.5886
0.397275,-0.343799,2.536,2.58985
0.405506,-0.343799,2.536,2.59113
0.413738,-0.343799,2.536,2.59243
0.421969,-0.343799,2.536,2.59375
0.4302,-0.343799,2.536,2.5951
0.441716,-0.346374,2.555,2.61593
0.450009,-0.346374,2.555,2.61735
0.454894,-0.343799,2.536,2.59931
0.463125,-0.343799,2.536,2.60076
0.471356,-0.343799,2.536,2.60224
0.479587,-0.343799,2.536,2.60375
0.487819,-0.343799,2.536,2.60528
0.49605,-0.343799,2.536,2.60683
0.504281,-0.343799,2.536,2.60841
0.512512,-0.343799,2.536,2.61001
0.520743,-0.343799,2.536,2.61164
0.528975,-0.343799,2.536,2.61329
0.533181,-0.341223,2.517,2.59538
0.541351,-0.341223,2.517,2.59707
0.54952,-0.341223,2.517,2.59879
0.5619,-0.343799,2.536,2.62016
0.565859,-0.341223,2.517,2.60229
0.574029,-0.341223,2.517,2.60408
0.582199,-0.341223,2.517,2.60589
0.590368,-0.341223,2.517,2.60773
0.598538,-0.341223,2.517,2.60959
0.606707,-0.341223,2.517,2.61148
0.614877,-0.341223,2.517,2.61339
0.623046,-0.341223,2.517,2.61532
0.631216,-0.341223,2.517,2.61728
0.639385,-0.341223,2.517,2.61926
0.647555,-0.341223,2.517,2.62127
0.655725,-0.341223,2.517,2.6233
0.663894,-0.341223,2.517,2.62535
0.672064,-0.341223,2.517,2.62743
0.680233,-0.341223,2.517,2.62953
0.688403,-0.341223,2.517,2.63166
0.696572,-0.341223,2.517,2.63381
0.704742,-0.341223,2.517,2.63598
0.707813,-0.338783,2.499,2.61931
0.715924,-0.338783,2.499,2.62151
0.724035,-0.338783,2.499,2.62374
0.732147,-0.338783,2.499,2.62599
0.740258,-0.338783,2.499,2.62826
0.748369,-0.338783,2.499,2.63056
0.75648,-0.338783,2.499,2.63288
0.764591,-0.338783,2.499,2.63522
0.772702,-0.338783,2.499,2.63758
0.780813,-0.338783,2.499,2.63997
0.788924,-0.338783,2.499,2.64238
0.797036,-0.338783,2.499,2.64481
0.810946,-0.341223,2.517,2.66634
0.819116,-0.341223,2.517,2.66883
0.827285,-0.341223,2.517,2.67135
0.835455,-0.341223,2.517,2.67389
0.843624,-0.341223,2.517,2.67646
0.851794,-0.341223,2.517,2.67904
0.859963,-0.341223,2.517,2.68165
0.868133,-0.341223,2.517,2.68428
0.870036,-0.338783,2.499,2.66772
0.878147,-0.338783,2.499,2.67038
0.886258,-0.338783,2.499,2.67306
0.894369,-0.338783,2.499,2.67576
0.89598,-0.336342,2.481,2.65919
0.904033,-0.336342,2.481,2.66191
0.905468,-0.333902,2.463,2.64532
0.913462,-0.333902,2.463,2.64807
0.921457,-0.333902,2.463,2.65084
0.929451,-0.333902,2.463,2.65363
0.930594,-0.331462,2.445,2.63702
0.93853,-0.331462,2.445,2.63984
0.946466,-0.331462,2.445,2.64267
0.947766,-0.329157,2.428,2.62713
0.955646,-0.329157,2.428,2.62998
0.963527,-0.329157,2.428,2.63285
0.971408,-0.329157,2.428,2.63575
0.972432,-0.326853,2.411,2.62019
0.980257,-0.326853,2.411,2.6231
0.988083,-0.326853,2.411,2.62604
0.995908,-0.326853,2.411,2.62899
nan,nan,nan,NaN
nan,nan,nan,NaN
nan,nan,nan,NaN
nan,nan,nan,NaN
nan,nan,nan,NaN
nan,nan,nan,NaN
nan,nan,nan,NaN
nan,nan,nan,NaN
nan,nan,nan,NaN
nan,nan,nan,NaN
1.50608,-0.454964,3.356,3.70648
1.51697,-0.454964,3.356,3.71092
1.48416,-0.441949,3.26,3.60911
1.49474,-0.441949,3.26,3.61347
1.5201,-0.446288,3.292,3.65337
1.53078,-0.446288,3.292,3.65783
1.54147,-0.446288,3.292,3.66232
1.55215,-0.446288,3.292,3.66683
1.57803,-0.450626,3.324,3.70705
1.58882,-0.450626,3.324,3.71165
1.59961,-0.450626,3.324,3.71629
1.6104,-0.450626,3.324,3.72094
1.62118,-0.450626,3.324,3.72562
1.66389,-0.459438,3.389,3.80328
1.67489,-0.459438,3.389,3.8081
1.66947,-0.454964,3.356,3.77583
1.68036,-0.454964,3.356,3.78065
1.69125,-0.454964,3.356,3.78551
1.70215,-0.454964,3.356,3.79039
1.71304,-0.454964,3.356,3.79529
1.74088,-0.459438,3.389,3.83759
1.75188,-0.459438,3.389,3.84259
1.76288,-0.459438,3.389,3.84762
1.77388,-0.459438,3.389,3.85267
1.78488,-0.459438,3.389,3.85775
1.79588,-0.459438,3.389,3.86285
1.80688,-0.459438,3.389,3.86798
1.83612,-0.464047,3.423,3.91198
1.84723,-0.464047,3.423,3.91721
1.85834,-0.464047,3.423,3.92246
1.86945,-0.464047,3.423,3.92774
1.88056,-0.464047,3.423,3.93304
1.89167,-0.464047,3.423,3.93836
1.90278,-0.464047,3.423,3.94371
1.91389,-0.464047,3.423,3.94908
1.925,-0.464047,3.423,3.95448
1.95591,-0.468792,3.458,4.00039
1.96713,-0.468792,3.458,4.00589
1.97836,-0.468792,3.458,4.01141
1.96944,-0.464047,3.423,3.9763
1.98055,-0.464047,3.423,3.98182
1.99166,-0.464047,3.423,3.98735
2.00277,-0.464047,3.423,3.99292
2.01389,-0.464047,3.423,3.9985
2.025,-0.464047,3.423,4.00411
2.03611,-0.464047,3.423,4.00974
2.02688,-0.459438,3.389,3.97551
2.03788,-0.459438,3.389,3.98113
2.00958,-0.450626,3.324,3.9103
2.00092,-0.446288,3.292,3.87816
2.01161,-0.446288,3.292,3.88368
2.00264,-0.441949,3.26,3.85142
1.97555,-0.43368,3.199,3.78477
1.98593,-0.43368,3.199,3.7902
1.97821,-0.429748,3.17,3.76124
1.95212,-0.421885,3.112,3.69774
1.96222,-0.421885,3.112,3.70309
1.93746,-0.414429,3.057,3.64291
1.91299,-0.407109,3.003,3.58375
1.92273,-0.407109,3.003,3.58896
1.91575,-0.403584,2.977,3.56308
1.9086,-0.400059,2.951,3.53712
1.90192,-0.39667,2.926,3.51228
1.91142,-0.39667,2.926,3.51744
1.90451,-0.393281,2.901,3.49251
1.89809,-0.390027,2.877,3.46872
1.90743,-0.390027,2.877,3.47383
1.90077,-0.386773,2.853,3.44995
1.89397,-0.38352,2.829,3.426
1.90315,-0.38352,2.829,3.43108
1.89678,-0.380402,2.806,3.40824
1.89027,-0.377284,2.783,3.38534
-2.24076,-0.427402,3.23,3.95431
-2.25099,-0.431371,3.26,3.98505
-2.24041,-0.431371,3.26,3.97908
-2.2736,-0.43984,3.324,4.05114
-2.2846,-0.444074,3.356,4.08403
-2.2737,-0.444074,3.356,4.07795
-2.26281,-0.444074,3.356,4.07189
-2.27406,-0.448441,3.389,4.10582
-2.26306,-0.448441,3.389,4.09974
-2.25206,-0.448441,3.389,4.09368
-2.26355,-0.45294,3.423,4.12865
-2.27547,-0.457571,3.458,4.16472
-2.26424,-0.457571,3.458,4.1586
-2.25302,-0.457571,3.458,4.1525
-2.24179,-0.457571,3.458,4.14642
-2.23057,-0.457571,3.458,4.14036
-2.19688,-0.45294,3.423,4.09248
-2.18577,-0.45294,3.423,4.08653
-2.1969,-0.457571,3.458,4.12232
-2.18568,-0.457571,3.458,4.11635
-2.15244,-0.45294,3.423,4.0688
-2.14133,-0.45294,3.423,4.06293
-2.10906,-0.448441,3.389,4.01679
-2.07763,-0.444074,3.356,3.97196
-2.06674,-0.444074,3.356,3.96628
-2.05585,-0.444074,3.356,3.96061
-2.04496,-0.444074,3.356,3.95497
-2.01467,-0.43984,3.324,3.91169
-2.00388,-0.43984,3.324,3.90614
-1.99309,-0.43984,3.324,3.90062
-1.9823,-0.43984,3.324,3.89512
nan,nan,nan,NaN
nan,nan,nan,NaN
nan,nan,nan,NaN
nan,nan,nan,NaN
nan,nan,nan,NaN
nan,nan,nan,NaN
nan,nan,nan,NaN
nan,nan,nan,NaN
nan,nan,nan,NaN
nan,nan,nan,NaN
nan,nan,nan,NaN
nan,nan,nan,NaN
nan,nan,nan,NaN
nan,nan,nan,NaN
nan,nan,nan,NaN
nan,nan,nan,NaN
nan,nan,nan,NaN
nan,nan,nan,NaN
nan,nan,nan,NaN
nan,nan,nan,NaN
nan,nan,nan,NaN
nan,nan,nan,NaN
nan,nan,nan,NaN
nan,nan,nan,NaN
nan,nan,nan,NaN
nan,nan,nan,NaN
nan,nan,nan,NaN
nan,nan,nan,NaN
nan,nan,nan,NaN
nan,nan,nan,NaN
nan,nan,nan,NaN
-1.20415,-0.323528,2.445,2.74457
-1.19622,-0.323528,2.445,2.7411
-1.18828,-0.323528,2.445,2.73765
-1.18035,-0.323528,2.445,2.73421
-1.17241,-0.323528,2.445,2.73079
-1.16447,-0.323528,2.445,2.7274
-1.15654,-0.323528,2.445,2.72402
-1.14062,-0.321279,2.428,2.70174
-1.13274,-0.321279,2.428,2.69842
-1.12485,-0.321279,2.428,2.69513
-1.10915,-0.319029,2.411,2.673
-1.10133,-0.319029,2.411,2.66976
-1.0935,-0.319029,2.411,2.66654
-1.08568,-0.319029,2.411,2.66334
-1.07785,-0.319029,2.411,2.66016
-1.07003,-0.319029,2.411,2.657
-1.0622,-0.319029,2.411,2.65386
-1.05437,-0.319029,2.411,2.65074
-1.04655,-0.319029,2.411,2.64763
-1.03872,-0.319029,2.411,2.64455
-1.0309,-0.319029,2.411,2.64149
-1.02307,-0.319029,2.411,2.63844
-1.01525,-0.319029,2.411,2.63542
-1.00742,-0.319029,2.411,2.63241
-0.999596,-0.319029,2.411,2.62943
-0.99177,-0.319029,2.411,2.62646
-0.983945,-0.319029,2.411,2.62352
-0.976119,-0.319029,2.411,2.62059
-0.968294,-0.319029,2.411,2.61769
-0.960468,-0.319029,2.411,2.6148
-0.952643,-0.319029,2.411,2.61194
-0.944817,-0.319029,2.411,2.6091
-0.936992,-0.319029,2.411,2.60627
-0.929166,-0.319029,2.411,2.60347
-0.921341,-0.319029,2.411,2.60069
-0.913515,-0.319029,2.411,2.59792
-0.90569,-0.319029,2.411,2.59518
-0.897864,-0.319029,2.411,2.59246
-0.890039,-0.319029,2.411,2.58976
-0.882213,-0.319029,2.411,2.58708
-0.880553,-0.321279,2.428,2.60265
-0.872672,-0.321279,2.428,2.59999
-0.864792,-0.321279,2.428,2.59736
-0.856911,-0.321279,2.428,2.59474
-0.84903,-0.321279,2.428,2.59215
-0.84115,-0.321279,2.428,2.58958
-0.839103,-0.323528,2.445,2.60515
-0.831167,-0.323528,2.445,2.6026
-0.829292,-0.32591,2.463,2.61922
-0.815296,-0.323528,2.445,2.59758
-0.80736,-0.323528,2.445,2.5951
-0.805309,-0.32591,2.463,2.61173
-0.797315,-0.32591,2.463,2.60927
-0.789321,-0.32591,2.463,2.60684
-0.781326,-0.32591,2.463,2.60443
-0.773332,-0.32591,2.463,2.60204
-0.765338,-0.32591,2.463,2.59968
-0.757344,-0.32591,2.463,2.59734
-0.749349,-0.32591,2.463,2.59502
-0.741355,-0.32591,2.463,2.59272
-0.733361,-0.32591,2.463,2.59044
-0.725366,-0.32591,2.463,2.58819
-0.712129,-0.323528,2.445,2.56707
-0.704194,-0.323528,2.445,2.56488
-0.696258,-0.323528,2.445,2.56271
-0.688322,-0.323528,2.445,2.56056
-0.680386,-0.323528,2.445,2.55844
-0.67245,-0.323528,2.445,2.55634
-0.664514,-0.323528,2.445,2.55427
-0.656578,-0.323528,2.445,2.55221
-0.648643,-0.323528,2.445,2.55018
-0.640707,-0.323528,2.445,2.54818
-0.632771,-0.323528,2.445,2.54619
-0.624835,-0.323528,2.445,2.54423
-0.616899,-0.323528,2.445,2.54229
-0.608963,-0.323528,2.445,2.54038
-0.605452,-0.32591,2.463,2.55718
-0.597458,-0.32591,2.463,2.5553
-0.589464,-0.32591,2.463,2.55344
-0.581469,-0.32591,2.463,2.55161
-0.573475,-0.32591,2.463,2.5498
-0.569613,-0.328292,2.481,2.56663
-0.561561,-0.328292,2.481,2.56486
-0.553508,-0.328292,2.481,2.56311
-0.545455,-0.328292,2.481,2.56138
-0.537403,-0.328292,2.481,2.55968
-0.52935,-0.328292,2.481,2.558
-0.525079,-0.330674,2.499,2.57489
-0.516968,-0.330674,2.499,2.57325
-0.508857,-0.330674,2.499,2.57163
-0.500746,-0.330674,2.499,2.57004
-0.492635,-0.330674,2.499,2.56847
-0.484524,-0.330674,2.499,2.56693
-0.476412,-0.330674,2.499,2.56541
-0.468301,-0.330674,2.499,2.56391
-0.46019,-0.330674,2.499,2.56244
-0.452079,-0.330674,2.499,2.561
-0.443968,-0.330674,2.499,2.55958
-0.435857,-0.330674,2.499,2.55819
-0.427746,-0.330674,2.499,2.55682
-0.419634,-0.330674,2.499,2.55547
-0.411523,-0.330674,2.499,2.55415
-0.403412,-0.330674,2.499,2.55286
-0.395301,-0.330674,2.499,2.55159
-0.38719,-0.330674,2.499,2.55035
-0.379079,-0.330674,2.499,2.54913
-0.368296,-0.328292,2.481,2.52958
-0.360243,-0.328292,2.481,2.52842
-0.35219,-0.328292,2.481,2.52729
-0.344137,-0.328292,2.481,2.52618
-0.336085,-0.328292,2.481,2.52509
-0.328032,-0.328292,2.481,2.52403
-0.319979,-0.328292,2.481,2.523
-0.311927,-0.328292,2.481,2.52199
-0.303874,-0.328292,2.481,2.52101
-0.295821,-0.328292,2.481,2.52005
-0.287769,-0.328292,2.481,2.51912
-0.279716,-0.328292,2.481,2.51821
-0.271663,-0.328292,2.481,2.51733
-0.26361,-0.328292,2.481,2.51647
-0.255558,-0.328292,2.481,2.51564
-0.245709,-0.32591,2.463,2.49659
-0.237715,-0.32591,2.463,2.49582
-0.229721,-0.32591,2.463,2.49507
-0.221726,-0.32591,2.463,2.49434
-0.213732,-0.32591,2.463,2.49365
-0.204234,-0.323528,2.445,2.47475
-0.196298,-0.323528,2.445,2.47411
-0.188363,-0.323528,2.445,2.47349
-0.180427,-0.323528,2.445,2.4729
-0.173761,-0.32591,2.463,2.49054
-0.165766,-0.32591,2.463,2.48999
-0.157772,-0.32591,2.463,2.48947
-0.149778,-0.32591,2.463,2.48898
-0.141784,-0.32591,2.463,2.48851
-0.133789,-0.32591,2.463,2.48807
-0.125795,-0.32591,2.463,2.48765
-0.117801,-0.32591,2.463,2.48726
-0.109806,-0.32591,2.463,2.48689
-0.101812,-0.32591,2.463,2.48655
-0.0945035,-0.328292,2.481,2.50441
-0.0864508,-0.328292,2.481,2.50412
-0.078398,-0.328292,2.481,2.50385
-0.0703453,-0.328292,2.481,2.50361
-0.0622926,-0.328292,2.481,2.5034
-0.0542399,-0.328292,2.481,2.50321
-0.0461872,-0.328292,2.481,2.50305
-0.0381345,-0.328292,2.481,2.50292
-0.0303,-0.330674,2.499,2.52097
-0.0221889,-0.330674,2.499,2.52088
-0.0140778,-0.330674,2.499,2.52082
-0.00596664,-0.330674,2.499,2.52079
0.00214449,-0.330674,2.499,2.52078
0.0102556,-0.330674,2.499,2.5208
0.0183668,-0.330674,2.499,2.52085
0.0266686,-0.333056,2.517,2.53908
0.0348382,-0.333056,2.517,2.53918
0.0430077,-0.333056,2.517,2.5393
0.0511773,-0.333056,2.517,2.53946
0.0593468,-0.333056,2.517,2.53963
0.0675164,-0.333056,2.517,2.53984
0.0762573,-0.33557,2.536,2.55924
0.0844885,-0.33557,2.536,2.5595
0.0927197,-0.33557,2.536,2.55979
0.100951,-0.33557,2.536,2.5601
0.109182,-0.33557,2.536,2.56043
0.118293,-0.338084,2.555,2.57998
0.126586,-0.338084,2.555,2.58038
0.134879,-0.338084,2.555,2.5808
0.143172,-0.338084,2.555,2.58124
0.151465,-0.338084,2.555,2.58172
0.159758,-0.338084,2.555,2.58222
0.16805,-0.338084,2.555,2.58274
0.177655,-0.340598,2.574,2.60251
0.186009,-0.340598,2.574,2.60309
0.194364,-0.340598,2.574,2.6037
0.202718,-0.340598,2.574,2.60434
0.211073,-0.340598,2.574,2.605
0.219428,-0.340598,2.574,2.60569
0.227782,-0.340598,2.574,2.60641
0.236137,-0.340598,2.574,2.60715
0.244491,-0.340598,2.574,2.60792
0.252846,-0.340598,2.574,2.60872
0.2612,-0.340598,2.574,2.60954
0.269555,-0.340598,2.574,2.61039
0.27791,-0.340598,2.574,2.61127
0.286264,-0.340598,2.574,2.61217
0.294619,-0.340598,2.574,2.6131
0.302973,-0.340598,2.574,2.61405
0.313626,-0.343112,2.593,2.63434
0.319682,-0.340598,2.574,2.61604
0.328037,-0.340598,2.574,2.61708
0.336391,-0.340598,2.574,2.61814
0.342201,-0.338084,2.555,2.59989
0.350494,-0.338084,2.555,2.60099
0.358787,-0.338084,2.555,2.60212
0.36708,-0.338084,2.555,2.60328
0.375373,-0.338084,2.555,2.60446
0.380813,-0.33557,2.536,2.58629
0.389044,-0.33557,2.536,2.58752
0.397275,-0.33557,2.536,2.58877
0.405506,-0.33557,2.536,2.59005
0.413738,-0.33557,2.536,2.59135
0.421969,-0.33557,2.536,2.59267
0.4302,-0.33557,2.536,2.59403
0.438431,-0.33557,2.536,2.5954
0.446662,-0.33557,2.536,2.59681
0.454894,-0.33557,2.536,2.59824
0.463125,-0.33557,2.536,2.59969
0.471356,-0.33557,2.536,2.60117
0.479587,-0.33557,2.536,2.60267
0.487819,-0.33557,2.536,2.6042
0.49605,-0.33557,2.536,2.60576
0.504281,-0.33557,2.536,2.60734
0.512512,-0.33557,2.536,2.60894
0.520743,-0.33557,2.536,2.61057
0.525012,-0.333056,2.517,2.59265
0.533181,-0.333056,2.517,2.59432
0.541351,-0.333056,2.517,2.59601
0.54952,-0.333056,2.517,2.59773
0.55769,-0.333056,2.517,2.59947
0.565859,-0.333056,2.517,2.60123
0.574029,-0.333056,2.517,2.60302
0.582199,-0.333056,2.517,2.60484
0.590368,-0.333056,2.517,2.60667
0.598538,-0.333056,2.517,2.60854
0.606707,-0.333056,2.517,2.61042
0.614877,-0.333056,2.517,2.61233
0.623046,-0.333056,2.517,2.61427
0.631216,-0.333056,2.517,2.61623
0.639385,-0.333056,2.517,2.61821
0.647555,-0.333056,2.517,2.62022
0.655725,-0.333056,2.517,2.62225
0.663894,-0.333056,2.517,2.6243
0.672064,-0.333056,2.517,2.62638
0.680233,-0.333056,2.517,2.62848
0.68348,-0.330674,2.499,2.6118
0.691591,-0.330674,2.499,2.61393
0.699702,-0.330674,2.499,2.61609
0.707813,-0.330674,2.499,2.61827
0.715924,-0.330674,2.499,2.62048
0.724035,-0.330674,2.499,2.6227
0.732147,-0.330674,2.499,2.62495
0.740258,-0.330674,2.499,2.62723
0.748369,-0.330674,2.499,2.62952
0.75648,-0.330674,2.499,2.63184
0.764591,-0.330674,2.499,2.63419
0.772702,-0.330674,2.499,2.63655
0.780813,-0.330674,2.499,2.63894
0.788924,-0.330674,2.499,2.64135
0.797036,-0.330674,2.499,2.64379
0.810946,-0.333056,2.517,2.6653
0.819116,-0.333056,2.517,2.6678
0.827285,-0.333056,2.517,2.67032
0.835455,-0.333056,2.517,2.67286
0.843624,-0.333056,2.517,2.67543
0.851794,-0.333056,2.517,2.67802
0.859963,-0.333056,2.517,2.68063
0.868133,-0.333056,2.517,2.68326
0.876303,-0.333056,2.517,2.68591
0.878147,-0.330674,2.499,2.66936
0.886258,-0.330674,2.499,2.67204
0.894369,-0.330674,2.499,2.67474
0.89598,-0.328292,2.481,2.65818
0.904033,-0.328292,2.481,2.6609
0.912085,-0.328292,2.481,2.66365
0.913462,-0.32591,2.463,2.64707
0.921457,-0.32591,2.463,2.64984
0.929451,-0.32591,2.463,2.65263
0.937445,-0.32591,2.463,2.65545
0.93853,-0.323528,2.445,2.63885
0.946466,-0.323528,2.445,2.64168
0.947766,-0.321279,2.428,2.62615
0.955646,-0.321279,2.428,2.629
0.963527,-0.321279,2.428,2.63188
0.971408,-0.321279,2.428,2.63477
nan,nan,nan,NaN
nan,nan,nan,NaN
nan,nan,nan,NaN
nan,nan,nan,NaN
nan,nan,nan,NaN
nan,nan,nan,NaN
nan,nan,nan,NaN
nan,nan,nan,NaN
nan,nan,nan,NaN
nan,nan,nan,NaN
nan,nan,nan,NaN
nan,nan,nan,NaN
nan,nan,nan,NaN
nan,nan,nan,NaN
1.50608,-0.444074,3.356,3.70516
1.51697,-0.444074,3.356,3.7096
1.52786,-0.444074,3.356,3.71407
1.55389,-0.448441,3.389,3.75513
1.56489,-0.448441,3.389,3.75969
1.57589,-0.448441,3.389,3.76429
1.58689,-0.448441,3.389,3.7689
1.61392,-0.45294,3.423,3.81141
1.64164,-0.457571,3.458,3.85514
1.63614,-0.45294,3.423,3.82087
1.64725,-0.45294,3.423,3.82564
1.67532,-0.457571,3.458,3.8696
1.68654,-0.457571,3.458,3.87447
nan,nan,nan,NaN
nan,nan,nan,NaN
nan,nan,nan,NaN
nan,nan,nan,NaN
1.74266,-0.457571,3.458,3.89923
1.70215,-0.444074,3.356,3.7891
1.71304,-0.444074,3.356,3.794
1.74088,-0.448441,3.389,3.83629
1.75188,-0.448441,3.389,3.84129
1.76288,-0.448441,3.389,3.84632
1.77388,-0.448441,3.389,3.85137
1.78488,-0.448441,3.389,3.85645
1.79588,-0.448441,3.389,3.86156
1.80688,-0.448441,3.389,3.86668
1.81788,-0.448441,3.389,3.87184
1.82888,-0.448441,3.389,3.87701
1.85834,-0.45294,3.423,3.92116
1.86945,-0.45294,3.423,3.92644
1.88056,-0.45294,3.423,3.93174
1.89167,-0.45294,3.423,3.93707
1.90278,-0.45294,3.423,3.94242
1.91389,-0.45294,3.423,3.94779
1.925,-0.45294,3.423,3.95319
1.95591,-0.457571,3.458,3.99909
1.96713,-0.457571,3.458,4.00459
1.97836,-0.457571,3.458,4.01012
1.96944,-0.45294,3.423,3.97502
1.98055,-0.45294,3.423,3.98054
1.99166,-0.45294,3.423,3.98608
2.00277,-0.45294,3.423,3.99164
2.01389,-0.45294,3.423,3.99723
2.025,-0.45294,3.423,4.00284
2.03611,-0.45294,3.423,4.00847
2.02688,-0.448441,3.389,3.97425
2.03788,-0.448441,3.389,3.97987
2.00958,-0.43984,3.324,3.90907
2.00092,-0.435606,3.292,3.87695
2.01161,-0.435606,3.292,3.88247
2.00264,-0.431371,3.26,3.85022
1.97555,-0.4233,3.199,3.78359
1.98593,-0.4233,3.199,3.78902
1.97821,-0.419462,3.17,3.76008
1.95212,-0.411787,3.112,3.69661
1.96222,-0.411787,3.112,3.70195
1.93746,-0.40451,3.057,3.64179
1.91299,-0.397364,3.003,3.58266
1.92273,-0.397364,3.003,3.58787
1.91575,-0.393924,2.977,3.56199
1.9086,-0.390484,2.951,3.53605
1.90192,-0.387176,2.926,3.51122
1.91142,-0.387176,2.926,3.51638
1.90451,-0.383867,2.901,3.49146
1.89809,-0.380692,2.877,3.46768
1.90743,-0.380692,2.877,3.4728
1.90077,-0.377516,2.853,3.44892
1.89397,-0.37434,2.829,3.42498
1.90315,-0.37434,2.829,3.43007
1.89678,-0.371297,2.806,3.40724
1.87533,-0.365342,2.761,3.3576
-2.21925,-0.412919,3.199,3.91525
-2.23027,-0.416921,3.23,3.94726
-2.21979,-0.416921,3.23,3.94134
-2.22983,-0.420793,3.26,3.972
-2.24103,-0.424924,3.292,4.005
-2.25202,-0.429054,3.324,4.0379
-2.24123,-0.429054,3.324,4.0319
-2.25192,-0.433184,3.356,4.06467
-2.24102,-0.433184,3.356,4.05864
-2.23013,-0.433184,3.356,4.05264
-2.26355,-0.441833,3.423,4.12744
-2.25243,-0.441833,3.423,4.12136
-2.24132,-0.441833,3.423,4.1153
-2.23021,-0.441833,3.423,4.10926
-2.2191,-0.441833,3.423,4.10324
-2.20799,-0.441833,3.423,4.09724
-2.19688,-0.441833,3.423,4.09126
-2.18577,-0.441833,3.423,4.08531
-2.17466,-0.441833,3.423,4.07938
-2.16355,-0.441833,3.423,4.07346
-2.15244,-0.441833,3.423,4.06757
-2.14133,-0.441833,3.423,4.06171
-2.10906,-0.437444,3.389,4.01557
-2.07763,-0.433184,3.356,3.97076
-2.06674,-0.433184,3.356,3.96507
-2.05585,-0.433184,3.356,3.95941
-2.02546,-0.429054,3.324,3.91606
-2.01467,-0.429054,3.324,3.91049
-2.00388,-0.429054,3.324,3.90495
-1.9739,-0.424924,3.292,3.86188
-1.96322,-0.424924,3.292,3.85643
nan,nan,nan,NaN
nan,nan,nan,NaN
nan,nan,nan,NaN
nan,nan,nan,NaN
nan,nan,nan,NaN
nan,nan,nan,NaN
nan,nan,nan,NaN
nan,nan,nan,NaN
nan,nan,nan,NaN
nan,nan,nan,NaN
nan,nan,nan,NaN
nan,nan,nan,NaN
nan,nan,nan,NaN
nan,nan,nan,NaN
nan,nan,nan,NaN
nan,nan,nan,NaN
nan,nan,nan,NaN
nan,nan,nan,NaN
nan,nan,nan,NaN
nan,nan,nan,NaN
nan,nan,nan,NaN
nan,nan,nan,NaN
nan,nan,nan,NaN
nan,nan,nan,NaN
nan,nan,nan,NaN
nan,nan,nan,NaN
nan,nan,nan,NaN
nan,nan,nan,NaN
nan,nan,nan,NaN
nan,nan,nan,NaN
nan,nan,nan,NaN
-1.21302,-0.317918,2.463,2.76385
-1.20502,-0.317918,2.463,2.76035
-1.19703,-0.317918,2.463,2.75687
-1.18035,-0.315595,2.445,2.73328
-1.17241,-0.315595,2.445,2.72987
-1.16447,-0.315595,2.445,2.72647
-1.15654,-0.315595,2.445,2.72309
-1.14062,-0.3134,2.428,2.70082
-1.13274,-0.3134,2.428,2.6975
-1.12485,-0.3134,2.428,2.6942
-1.10915,-0.311206,2.411,2.67208
-1.10133,-0.311206,2.411,2.66884
-1.0935,-0.311206,2.411,2.66562
-1.08568,-0.311206,2.411,2.66242
-1.07785,-0.311206,2.411,2.65924
-1.07003,-0.311206,2.411,2.65607
-1.0622,-0.311206,2.411,2.65293
-1.05437,-0.311206,2.411,2.64981
-1.04655,-0.311206,2.411,2.6467
-1.03872,-0.311206,2.411,2.64362
-1.0309,-0.311206,2.411,2.64055
-1.02307,-0.311206,2.411,2.63751
-1.01525,-0.311206,2.411,2.63448
-1.00742,-0.311206,2.411,2.63148
-0.999596,-0.311206,2.411,2.62849
-0.99177,-0.311206,2.411,2.62552
-0.983945,-0.311206,2.411,2.62258
-0.976119,-0.311206,2.411,2.61965
-0.968294,-0.311206,2.411,2.61675
-0.960468,-0.311206,2.411,2.61386
-0.952643,-0.311206,2.411,2.611
-0.944817,-0.311206,2.411,2.60815
-0.936992,-0.311206,2.411,2.60533
-0.929166,-0.311206,2.411,2.60252
-0.921341,-0.311206,2.411,2.59974
-0.913515,-0.311206,2.411,2.59698
-0.90569,-0.311206,2.411,2.59423
-0.897864,-0.311206,2.411,2.59151
-0.890039,-0.311206,2.411,2.58881
-0.882213,-0.311206,2.411,2.58613
-0.880553,-0.3134,2.428,2.60169
-0.872672,-0.3134,2.428,2.59903
-0.864792,-0.3134,2.428,2.5964
-0.856911,-0.3134,2.428,2.59378
-0.84903,-0.3134,2.428,2.59119
-0.84115,-0.3134,2.428,2.58862
-0.839103,-0.315595,2.445,2.60417
-0.831167,-0.315595,2.445,2.60163
-0.823232,-0.315595,2.445,2.5991
-0.815296,-0.315595,2.445,2.5966
-0.80736,-0.315595,2.445,2.59412
-0.805309,-0.317918,2.463,2.61074
-0.797315,-0.317918,2.463,2.60829
-0.789321,-0.317918,2.463,2.60585
-0.781326,-0.317918,2.463,2.60344
-0.773332,-0.317918,2.463,2.60105
-0.765338,-0.317918,2.463,2.59869
-0.757344,-0.317918,2.463,2.59635
-0.749349,-0.317918,2.463,2.59402
-0.741355,-0.317918,2.463,2.59173
-0.733361,-0.317918,2.463,2.58945
-0.725366,-0.317918,2.463,2.5872
-0.712129,-0.315595,2.445,2.56608
-0.704194,-0.315595,2.445,2.56389
-0.696258,-0.315595,2.445,2.56172
-0.688322,-0.315595,2.445,2.55957
-0.680386,-0.315595,2.445,2.55745
-0.67245,-0.315595,2.445,2.55535
-0.664514,-0.315595,2.445,2.55327
-0.656578,-0.315595,2.445,2.55122
-0.648643,-0.315595,2.445,2.54919
-0.640707,-0.315595,2.445,2.54718
-0.632771,-0.315595,2.445,2.5452
-0.624835,-0.315595,2.445,2.54324
-0.616899,-0.315595,2.445,2.5413
-0.608963,-0.315595,2.445,2.53938
-0.601027,-0.315595,2.445,2.53749
-0.597458,-0.317918,2.463,2.55429
-0.589464,-0.317918,2.463,2.55243
-0.581469,-0.317918,2.463,2.5506
-0.573475,-0.317918,2.463,2.54879
-0.565481,-0.317918,2.463,2.547
-0.557486,-0.317918,2.463,2.54524
-0.549492,-0.317918,2.463,2.5435
-0.545455,-0.320242,2.481,2.56036
-0.537403,-0.320242,2.481,2.55866
-0.52935,-0.320242,2.481,2.55698
-0.521297,-0.320242,2.481,2.55532
-0.513244,-0.320242,2.481,2.55369
-0.505192,-0.320242,2.481,2.55208
-0.500746,-0.322565,2.499,2.56901
-0.492635,-0.322565,2.499,2.56744
-0.484524,-0.322565,2.499,2.56589
-0.476412,-0.322565,2.499,2.56437
-0.468301,-0.322565,2.499,2.56288
-0.46019,-0.322565,2.499,2.56141
-0.452079,-0.322565,2.499,2.55997
-0.443968,-0.322565,2.499,2.55855
-0.435857,-0.322565,2.499,2.55715
-0.427746,-0.322565,2.499,2.55578
-0.419634,-0.322565,2.499,2.55444
-0.411523,-0.322565,2.499,2.55312
-0.403412,-0.322565,2.499,2.55182
-0.395301,-0.322565,2.499,2.55055
-0.38719,-0.322565,2.499,2.54931
-0.379079,-0.322565,2.499,2.54809
-0.368296,-0.320242,2.481,2.52855
-0.360243,-0.320242,2.481,2.52739
-0.35219,-0.320242,2.481,2.52625
-0.344137,-0.320242,2.481,2.52514
-0.336085,-0.320242,2.481,2.52406
-0.328032,-0.320242,2.481,2.523
-0.319979,-0.320242,2.481,2.52196
-0.311927,-0.320242,2.481,2.52096
-0.303874,-0.320242,2.481,2.51997
-0.295821,-0.320242,2.481,2.51901
-0.285681,-0.317918,2.463,2.49981
-0.277686,-0.317918,2.463,2.49891
-0.269692,-0.317918,2.463,2.49803
-0.261698,-0.317918,2.463,2.49718
-0.253704,-0.317918,2.463,2.49636
-0.245709,-0.317918,2.463,2.49556
-0.237715,-0.317918,2.463,2.49478
-0.229721,-0.317918,2.463,2.49404
-0.221726,-0.317918,2.463,2.49331
-0.213732,-0.317918,2.463,2.49261
-0.205738,-0.317918,2.463,2.49194
-0.197744,-0.317918,2.463,2.49129
-0.188363,-0.315595,2.445,2.47247
-0.180427,-0.315595,2.445,2.47188
-0.173761,-0.317918,2.463,2.4895
-0.165766,-0.317918,2.463,2.48896
-0.157772,-0.317918,2.463,2.48844
-0.149778,-0.317918,2.463,2.48795
-0.141784,-0.317918,2.463,2.48748
-0.133789,-0.317918,2.463,2.48703
-0.125795,-0.317918,2.463,2.48662
-0.117801,-0.317918,2.463,2.48623
-0.109806,-0.317918,2.463,2.48586
-0.101812,-0.317918,2.463,2.48552
-0.0945035,-0.320242,2.481,2.50337
-0.0864508,-0.320242,2.481,2.50308
-0.078398,-0.320242,2.481,2.50281
-0.0703453,-0.320242,2.481,2.50257
-0.0622926,-0.320242,2.481,2.50236
-0.0542399,-0.320242,2.481,2.50217
-0.0465223,-0.322565,2.499,2.52016
-0.0384112,-0.322565,2.499,2.52002
-0.0303,-0.322565,2.499,2.51991
-0.0221889,-0.322565,2.499,2.51983
-0.0140778,-0.322565,2.499,2.51977
-0.00596664,-0.322565,2.499,2.51974
0.00215994,-0.324888,2.517,2.53788
0.0103295,-0.324888,2.517,2.5379
0.0184991,-0.324888,2.517,2.53795
0.0266686,-0.324888,2.517,2.53802
0.0348382,-0.324888,2.517,2.53812
0.0430077,-0.324888,2.517,2.53825
0.0515636,-0.327341,2.536,2.55756
0.0597948,-0.327341,2.536,2.55774
0.0680261,-0.327341,2.536,2.55794
0.0762573,-0.327341,2.536,2.55818
0.0844885,-0.327341,2.536,2.55843
0.0934144,-0.329793,2.555,2.57789
0.101707,-0.329793,2.555,2.5782
0.11,-0.329793,2.555,2.57854
0.118293,-0.329793,2.555,2.57891
0.125645,-0.327341,2.536,2.56012
0.133876,-0.327341,2.536,2.56054
0.142107,-0.327341,2.536,2.56098
0.150338,-0.327341,2.536,2.56145
0.159758,-0.329793,2.555,2.58115
0.16805,-0.329793,2.555,2.58167
0.176343,-0.329793,2.555,2.58223
0.184636,-0.329793,2.555,2.5828
0.192929,-0.329793,2.555,2.58341
0.201222,-0.329793,2.555,2.58404
0.209515,-0.329793,2.555,2.5847
0.217808,-0.329793,2.555,2.58539
0.227782,-0.332246,2.574,2.60533
0.236137,-0.332246,2.574,2.60607
0.242687,-0.329793,2.555,2.5876
0.250979,-0.329793,2.555,2.58839
0.259272,-0.329793,2.555,2.58921
0.267565,-0.329793,2.555,2.59005
0.27791,-0.332246,2.574,2.61019
0.286264,-0.332246,2.574,2.61109
0.294619,-0.332246,2.574,2.61202
0.302973,-0.332246,2.574,2.61298
0.313626,-0.334698,2.593,2.63326
0.319682,-0.332246,2.574,2.61497
0.328037,-0.332246,2.574,2.616
0.336391,-0.332246,2.574,2.61706
0.342201,-0.329793,2.555,2.59882
0.350494,-0.329793,2.555,2.59993
0.358787,-0.329793,2.555,2.60106
0.36708,-0.329793,2.555,2.60222
0.375373,-0.329793,2.555,2.6034
0.380813,-0.327341,2.536,2.58524
0.389044,-0.327341,2.536,2.58647
0.397275,-0.327341,2.536,2.58772
0.405506,-0.327341,2.536,2.58899
0.413738,-0.327341,2.536,2.59029
0.421969,-0.327341,2.536,2.59162
0.4302,-0.327341,2.536,2.59298
0.438431,-0.327341,2.536,2.59435
0.446662,-0.327341,2.536,2.59576
0.454894,-0.327341,2.536,2.59719
0.463125,-0.327341,2.536,2.59864
0.471356,-0.327341,2.536,2.60012
0.479587,-0.327341,2.536,2.60162
0.487819,-0.327341,2.536,2.60315
0.49605,-0.327341,2.536,2.60471
0.504281,-0.327341,2.536,2.60629
0.512512,-0.327341,2.536,2.6079
0.520743,-0.327341,2.536,2.60953
0.525012,-0.324888,2.517,2.59162
0.533181,-0.324888,2.517,2.59328
0.541351,-0.324888,2.517,2.59498
0.54952,-0.324888,2.517,2.59669
0.55769,-0.324888,2.517,2.59843
0.565859,-0.324888,2.517,2.6002
0.574029,-0.324888,2.517,2.60199
0.582199,-0.324888,2.517,2.6038
0.590368,-0.324888,2.517,2.60564
0.598538,-0.324888,2.517,2.60751
0.606707,-0.324888,2.517,2.60939
0.614877,-0.324888,2.517,2.61131
0.623046,-0.324888,2.517,2.61324
0.631216,-0.324888,2.517,2.6152
0.639385,-0.324888,2.517,2.61718
0.647555,-0.324888,2.517,2.61919
0.655725,-0.324888,2.517,2.62122
0.663894,-0.324888,2.517,2.62328
0.672064,-0.324888,2.517,2.62536
0.680233,-0.324888,2.517,2.62746
0.68348,-0.322565,2.499,2.61078
0.691591,-0.322565,2.499,2.61292
0.699702,-0.322565,2.499,2.61508
0.707813,-0.322565,2.499,2.61726
0.715924,-0.322565,2.499,2.61947
0.724035,-0.322565,2.499,2.62169
0.732147,-0.322565,2.499,2.62394
0.740258,-0.322565,2.499,2.62622
0.748369,-0.322565,2.499,2.62852
0.75648,-0.322565,2.499,2.63084
0.764591,-0.322565,2.499,2.63318
0.772702,-0.322565,2.499,2.63555
0.780813,-0.322565,2.499,2.63794
0.788924,-0.322565,2.499,2.64035
0.797036,-0.322565,2.499,2.64279
0.810946,-0.324888,2.517,2.6643
0.819116,-0.324888,2.517,2.66679
0.827285,-0.324888,2.517,2.66932
0.835455,-0.324888,2.517,2.67186
0.843624,-0.324888,2.517,2.67442
0.851794,-0.324888,2.517,2.67701
0.859963,-0.324888,2.517,2.67962
0.868133,-0.324888,2.517,2.68226
0.876303,-0.324888,2.517,2.68491
0.878147,-0.322565,2.499,2.66837
0.886258,-0.322565,2.499,2.67105
0.894369,-0.322565,2.499,2.67375
0.89598,-0.320242,2.481,2.6572
0.904033,-0.320242,2.481,2.65992
0.912085,-0.320242,2.481,2.66267
0.913462,-0.317918,2.463,2.6461
0.921457,-0.317918,2.463,2.64887
0.929451,-0.317918,2.463,2.65166
0.930594,-0.315595,2.445,2.63508
0.93853,-0.315595,2.445,2.63789
0.946466,-0.315595,2.445,2.64072
0.947766,-0.3134,2.428,2.6252
0.955646,-0.3134,2.428,2.62805
0.963527,-0.3134,2.428,2.63093
0.964606,-0.311206,2.411,2.61538
0.972432,-0.311206,2.411,2.61828
0.980257,-0.311206,2.411,2.6212
0.988083,-0.311206,2.411,2.62413
nan,nan,nan,NaN
nan,nan,nan,NaN
nan,nan,nan,NaN
nan,nan,nan,NaN
nan,nan,nan,NaN
nan,nan,nan,NaN
nan,nan,nan,NaN
nan,nan,nan,NaN
nan,nan,nan,NaN
nan,nan,nan,NaN
nan,nan,nan,NaN
1.50608,-0.433184,3.356,3.70387
1.51697,-0.433184,3.356,3.70831
1.52786,-0.433184,3.356,3.71278
1.55389,-0.437444,3.389,3.75383
1.56489,-0.437444,3.389,3.7584
1.57589,-0.437444,3.389,3.76299
1.58689,-0.437444,3.389,3.76761
1.61392,-0.441833,3.423,3.8101
1.64164,-0.44635,3.458,3.85383
1.63614,-0.441833,3.423,3.81957
1.64725,-0.441833,3.423,3.82434
1.67532,-0.44635,3.458,3.86829
1.68654,-0.44635,3.458,3.87317
1.76944,-0.465196,3.604,4.0418
nan,nan,nan,NaN
nan,nan,nan,NaN
nan,nan,nan,NaN
1.74266,-0.44635,3.458,3.89793
1.75388,-0.44635,3.458,3.90296
1.74724,-0.441833,3.423,3.86846
1.75835,-0.441833,3.423,3.87349
nan,nan,nan,NaN
1.78057,-0.441833,3.423,3.88363
1.77388,-0.437444,3.389,3.85011
1.78488,-0.437444,3.389,3.85519
1.79588,-0.437444,3.389,3.8603
1.80688,-0.437444,3.389,3.86542
1.81788,-0.437444,3.389,3.87058
1.82888,-0.437444,3.389,3.87576
1.85834,-0.441833,3.423,3.9199
1.86945,-0.441833,3.423,3.92517
1.88056,-0.441833,3.423,3.93048
1.89167,-0.441833,3.423,3.93581
1.90278,-0.441833,3.423,3.94116
1.91389,-0.441833,3.423,3.94653
1.925,-0.441833,3.423,3.95193
1.95591,-0.44635,3.458,3.99782
1.96713,-0.44635,3.458,4.00332
1.97836,-0.44635,3.458,4.00885
1.98958,-0.44635,3.458,4.0144
2.00081,-0.44635,3.458,4.01998
2.01203,-0.44635,3.458,4.02558
2.02325,-0.44635,3.458,4.0312
2.03448,-0.44635,3.458,4.03684
2.0457,-0.44635,3.458,4.04251
2.03611,-0.441833,3.423,4.00723
2.02688,-0.437444,3.389,3.97302
2.03788,-0.437444,3.389,3.97865
2.00958,-0.429054,3.324,3.90788
2.00092,-0.424924,3.292,3.87576
2.01161,-0.424924,3.292,3.88129
2.00264,-0.420793,3.26,3.84905
1.97555,-0.412919,3.199,3.78244
1.98593,-0.412919,3.199,3.78788
1.97821,-0.409176,3.17,3.75894
1.95212,-0.40169,3.112,3.69549
1.96222,-0.40169,3.112,3.70084
1.93746,-0.39459,3.057,3.6407
1.93019,-0.391105,3.03,3.61379
1.94002,-0.391105,3.03,3.61905
1.93248,-0.38762,3.003,3.59204
1.9086,-0.380908,2.951,3.535
1.91817,-0.380908,2.951,3.54018
1.92775,-0.380908,2.951,3.54538
1.92092,-0.377681,2.926,3.52052
1.89809,-0.371356,2.877,3.46667
1.90743,-0.371356,2.877,3.47179
1.90077,-0.368258,2.853,3.44792
1.89397,-0.365161,2.829,3.42399
1.90315,-0.365161,2.829,3.42908
1.88124,-0.359223,2.783,3.37834
1.87533,-0.356383,2.761,3.35663
-2.21925,-0.402539,3.199,3.91417
-2.23027,-0.40644,3.23,3.94616
-2.21979,-0.40644,3.23,3.94025
-2.22983,-0.410215,3.26,3.97089
-2.24103,-0.414242,3.292,4.00388
-2.25202,-0.418268,3.324,4.03677
-2.24123,-0.418268,3.324,4.03076
-2.25192,-0.422295,3.356,4.06352
-2.24102,-0.422295,3.356,4.05749
-2.23013,-0.422295,3.356,4.05149
-2.26355,-0.430726,3.423,4.12627
-2.25243,-0.430726,3.423,4.12018
-2.24132,-0.430726,3.423,4.11412
-2.23021,-0.430726,3.423,4.10808
-2.2191,-0.430726,3.423,4.10206
-2.20799,-0.430726,3.423,4.09606
-2.19688,-0.430726,3.423,4.09008
-2.18577,-0.430726,3.423,4.08412
-2.17466,-0.430726,3.423,4.07819
-2.16355,-0.430726,3.423,4.07227
-2.15244,-0.430726,3.423,4.06638
-2.14133,-0.430726,3.423,4.06051
-2.10906,-0.426447,3.389,4.01439
-2.07763,-0.422295,3.356,3.96959
-2.06674,-0.422295,3.356,3.9639
-2.05585,-0.422295,3.356,3.95823
-2.02546,-0.418268,3.324,3.91489
-2.01467,-0.418268,3.324,3.90932
-2.00388,-0.418268,3.324,3.90377
-1.9739,-0.414242,3.292,3.86072
-1.96322,-0.414242,3.292,3.85527
nan,nan,nan,NaN
nan,nan,nan,NaN
nan,nan,nan,NaN
nan,nan,nan,NaN
nan,nan,nan,NaN
nan,nan,nan,NaN
nan,nan,nan,NaN
nan,nan,nan,NaN
nan,nan,nan,NaN
nan,nan,nan,NaN
nan,nan,nan,NaN
nan,nan,nan,NaN
nan,nan,nan,NaN
nan,nan,nan,NaN
nan,nan,nan,NaN
nan,nan,nan,NaN
nan,nan,nan,NaN
nan,nan,nan,NaN
nan,nan,nan,NaN
nan,nan,nan,NaN
nan,nan,nan,NaN
nan,nan,nan,NaN
nan,nan,nan,NaN
nan,nan,nan,NaN
nan,nan,nan,NaN
nan,nan,nan,NaN
nan,nan,nan,NaN
nan,nan,nan,NaN
nan,nan,nan,NaN
nan,nan,nan,NaN
nan,nan,nan,NaN
-1.21302,-0.309926,2.463,2.76294
-1.20502,-0.309926,2.463,2.75944
-1.19703,-0.309926,2.463,2.75596
-1.18035,-0.307661,2.445,2.73238
-1.17241,-0.307661,2.445,2.72896
-1.16447,-0.307661,2.445,2.72556
-1.15654,-0.307661,2.445,2.72218
-1.14062,-0.305522,2.428,2.69991
-1.13274,-0.305522,2.428,2.69659
-1.12485,-0.305522,2.428,2.69329
-1.10915,-0.303383,2.411,2.67118
-1.10133,-0.303383,2.411,2.66794
-1.0935,-0.303383,2.411,2.66472
-1.08568,-0.303383,2.411,2.66151
-1.07785,-0.303383,2.411,2.65833
-1.07003,-0.303383,2.411,2.65517
-1.0622,-0.303383,2.411,2.65202
-1.05437,-0.303383,2.411,2.6489
-1.04655,-0.303383,2.411,2.64579
-1.03872,-0.303383,2.411,2.64271
-1.0309,-0.303383,2.411,2.63964
-1.02307,-0.303383,2.411,2.6366
-1.01525,-0.303383,2.411,2.63357
-1.00742,-0.303383,2.411,2.63056
-0.999596,-0.303383,2.411,2.62758
-0.99177,-0.303383,2.411,2.62461
-0.983945,-0.303383,2.411,2.62166
-0.976119,-0.303383,2.411,2.61873
-0.968294,-0.303383,2.411,2.61583
-0.960468,-0.303383,2.411,2.61294
-0.952643,-0.303383,2.411,2.61007
-0.944817,-0.303383,2.411,2.60723
-0.936992,-0.303383,2.411,2.6044
-0.922615,-0.301244,2.394,2.58325
-0.914845,-0.301244,2.394,2.58049
-0.907074,-0.301244,2.394,2.57774
-0.90569,-0.303383,2.411,2.59331
-0.897864,-0.303383,2.411,2.59058
-0.890039,-0.303383,2.411,2.58788
-0.882213,-0.303383,2.411,2.5852
-0.880553,-0.305522,2.428,2.60075
-0.872672,-0.305522,2.428,2.59809
-0.864792,-0.305522,2.428,2.59546
-0.856911,-0.305522,2.428,2.59284
-0.84903,-0.305522,2.428,2.59025
-0.84115,-0.305522,2.428,2.58767
-0.839103,-0.307661,2.445,2.60322
-0.831167,-0.307661,2.445,2.60068
-0.823232,-0.307661,2.445,2.59815
-0.815296,-0.307661,2.445,2.59565
-0.813304,-0.309926,2.463,2.61226
-0.805309,-0.309926,2.463,2.60978
-0.797315,-0.309926,2.463,2.60732
-0.789321,-0.309926,2.463,2.60489
-0.781326,-0.309926,2.463,2.60248
-0.773332,-0.309926,2.463,2.60009
-0.765338,-0.309926,2.463,2.59772
-0.757344,-0.309926,2.463,2.59538
-0.749349,-0.309926,2.463,2.59306
-0.741355,-0.309926,2.463,2.59076
-0.733361,-0.309926,2.463,2.58848
-0.725366,-0.309926,2.463,2.58623
-0.717372,-0.309926,2.463,2.584
-0.709378,-0.309926,2.463,2.58179
-0.701384,-0.309926,2.463,2.57961
-0.693389,-0.309926,2.463,2.57744
-0.680386,-0.307661,2.445,2.55648
-0.67245,-0.307661,2.445,2.55438
-0.664514,-0.307661,2.445,2.5523
-0.656578,-0.307661,2.445,2.55025
-0.648643,-0.307661,2.445,2.54822
-0.645424,-0.309926,2.463,2.56496
-0.637429,-0.309926,2.463,2.56296
-0.624835,-0.307661,2.445,2.54226
-0.616899,-0.307661,2.445,2.54032
-0.608963,-0.307661,2.445,2.53841
-0.601027,-0.307661,2.445,2.53652
-0.593092,-0.307661,2.445,2.53465
-0.585156,-0.307661,2.445,2.5328
-0.581469,-0.309926,2.463,2.54961
-0.573475,-0.309926,2.463,2.5478
-0.565481,-0.309926,2.463,2.54601
-0.557486,-0.309926,2.463,2.54425
-0.549492,-0.309926,2.463,2.54251
-0.541498,-0.309926,2.463,2.5408
-0.533504,-0.309926,2.463,2.5391
-0.52935,-0.312191,2.481,2.55598
-0.521297,-0.312191,2.481,2.55433
-0.513244,-0.312191,2.481,2.55269
-0.505192,-0.312191,2.481,2.55109
-0.497139,-0.312191,2.481,2.5495
-0.492635,-0.314456,2.499,2.56643
-0.484524,-0.314456,2.499,2.56489
-0.476412,-0.314456,2.499,2.56337
-0.468301,-0.314456,2.499,2.56187
-0.46019,-0.314456,2.499,2.5604
-0.452079,-0.314456,2.499,2.55896
-0.443968,-0.314456,2.499,2.55754
-0.435857,-0.314456,2.499,2.55614
-0.427746,-0.314456,2.499,2.55477
-0.419634,-0.314456,2.499,2.55342
-0.411523,-0.314456,2.499,2.5521
-0.403412,-0.314456,2.499,2.55081
-0.395301,-0.314456,2.499,2.54954
-0.38719,-0.314456,2.499,2.54829
-0.379079,-0.314456,2.499,2.54707
-0.368296,-0.312191,2.481,2.52754
-0.360243,-0.312191,2.481,2.52638
-0.35219,-0.312191,2.481,2.52525
-0.344137,-0.312191,2.481,2.52413
-0.336085,-0.312191,2.481,2.52305
-0.328032,-0.312191,2.481,2.52199
-0.319979,-0.312191,2.481,2.52095
-0.311927,-0.312191,2.481,2.51995
-0.303874,-0.312191,2.481,2.51896
-0.295821,-0.312191,2.481,2.518
-0.285681,-0.309926,2.463,2.49881
-0.277686,-0.309926,2.463,2.49791
-0.269692,-0.309926,2.463,2.49703
-0.261698,-0.309926,2.463,2.49618
-0.253704,-0.309926,2.463,2.49535
-0.245709,-0.309926,2.463,2.49455
-0.237715,-0.309926,2.463,2.49378
-0.229721,-0.309926,2.463,2.49303
-0.221726,-0.309926,2.463,2.49231
-0.213732,-0.309926,2.463,2.49161
-0.205738,-0.309926,2.463,2.49093
-0.197744,-0.309926,2.463,2.49029
-0.189749,-0.309926,2.463,2.48966
-0.181755,-0.309926,2.463,2.48907
-0.173761,-0.309926,2.463,2.4885
-0.165766,-0.309926,2.463,2.48795
-0.157772,-0.309926,2.463,2.48743
-0.149778,-0.309926,2.463,2.48694
-0.141784,-0.309926,2.463,2.48647
-0.133789,-0.309926,2.463,2.48603
-0.125795,-0.309926,2.463,2.48561
-0.117801,-0.309926,2.463,2.48522
-0.109806,-0.309926,2.463,2.48485
-0.101812,-0.309926,2.463,2.48451
-0.0945035,-0.312191,2.481,2.50235
-0.0864508,-0.312191,2.481,2.50206
-0.078398,-0.312191,2.481,2.50179
-0.0703453,-0.312191,2.481,2.50155
-0.0622926,-0.312191,2.481,2.50134
-0.0542399,-0.312191,2.481,2.50115
-0.0465223,-0.314456,2.499,2.51914
-0.0384112,-0.314456,2.499,2.519
-0.0303,-0.314456,2.499,2.51889
-0.0223487,-0.316721,2.517,2.53695
-0.0141792,-0.316721,2.517,2.53689
-0.00600962,-0.316721,2.517,2.53686
0.00215994,-0.316721,2.517,2.53685
0.0104075,-0.319112,2.536,2.55602
0.0186387,-0.319112,2.536,2.55607
0.0268699,-0.319112,2.536,2.55614
0.0351011,-0.319112,2.536,2.55624
0.0433324,-0.319112,2.536,2.55637
0.0515636,-0.319112,2.536,2.55652
0.0597948,-0.319112,2.536,2.5567
0.0680261,-0.319112,2.536,2.5569
0.0762573,-0.319112,2.536,2.55714
0.0844885,-0.319112,2.536,2.55739
0.0934144,-0.321503,2.555,2.57684
0.101707,-0.321503,2.555,2.57716
0.11,-0.321503,2.555,2.5775
0.118293,-0.321503,2.555,2.57786
0.125645,-0.319112,2.536,2.55908
0.133876,-0.319112,2.536,2.5595
0.142107,-0.319112,2.536,2.55995
0.150338,-0.319112,2.536,2.56042
0.159758,-0.321503,2.555,2.5801
0.16805,-0.321503,2.555,2.58063
0.176343,-0.321503,2.555,2.58118
0.184636,-0.321503,2.555,2.58176
0.192929,-0.321503,2.555,2.58237
0.201222,-0.321503,2.555,2.583
0.209515,-0.321503,2.555,2.58366
0.217808,-0.321503,2.555,2.58434
0.227782,-0.323894,2.574,2.60428
0.236137,-0.323894,2.574,2.60502
0.242687,-0.321503,2.555,2.58656
0.250979,-0.321503,2.555,2.58735
0.259272,-0.321503,2.555,2.58817
0.267565,-0.321503,2.555,2.58901
0.27791,-0.323894,2.574,2.60914
0.286264,-0.323894,2.574,2.61004
0.294619,-0.323894,2.574,2.61097
0.302973,-0.323894,2.574,2.61193
0.311328,-0.323894,2.574,2.61291
0.319682,-0.323894,2.574,2.61392
0.325615,-0.321503,2.555,2.59565
0.333908,-0.321503,2.555,2.59671
0.342201,-0.321503,2.555,2.59779
0.347888,-0.319112,2.536,2.57956
0.356119,-0.319112,2.536,2.58069
0.36708,-0.321503,2.555,2.60118
0.372581,-0.319112,2.536,2.58301
0.380813,-0.319112,2.536,2.58421
0.389044,-0.319112,2.536,2.58544
0.397275,-0.319112,2.536,2.58669
0.405506,-0.319112,2.536,2.58797
0.413738,-0.319112,2.536,2.58927
0.421969,-0.319112,2.536,2.5906
0.4302,-0.319112,2.536,2.59195
0.438431,-0.319112,2.536,2.59333
0.446662,-0.319112,2.536,2.59473
0.454894,-0.319112,2.536,2.59616
0.463125,-0.319112,2.536,2.59762
0.471356,-0.319112,2.536,2.5991
0.479587,-0.319112,2.536,2.6006
0.487819,-0.319112,2.536,2.60213
0.49605,-0.319112,2.536,2.60369
0.500503,-0.316721,2.517,2.58575
0.508672,-0.316721,2.517,2.58734
0.516842,-0.316721,2.517,2.58896
0.525012,-0.316721,2.517,2.59061
0.533181,-0.316721,2.517,2.59227
0.541351,-0.316721,2.517,2.59397
0.54952,-0.316721,2.517,2.59568
0.55769,-0.316721,2.517,2.59743
0.565859,-0.316721,2.517,2.59919
0.574029,-0.316721,2.517,2.60098
0.582199,-0.316721,2.517,2.6028
0.590368,-0.316721,2.517,2.60464
0.598538,-0.316721,2.517,2.6065
0.606707,-0.316721,2.517,2.60839
0.614877,-0.316721,2.517,2.6103
0.623046,-0.316721,2.517,2.61224
0.631216,-0.316721,2.517,2.6142
0.634813,-0.314456,2.499,2.59747
0.642924,-0.314456,2.499,2.59947
0.651035,-0.314456,2.499,2.60149
0.659146,-0.314456,2.499,2.60353
0.667257,-0.314456,2.499,2.60559
0.675369,-0.314456,2.499,2.60768
0.68348,-0.314456,2.499,2.60979
0.691591,-0.314456,2.499,2.61193
0.699702,-0.314456,2.499,2.61409
0.707813,-0.314456,2.499,2.61627
0.715924,-0.314456,2.499,2.61848
0.724035,-0.314456,2.499,2.62071
0.726873,-0.312191,2.481,2.60407
0.734926,-0.312191,2.481,2.60633
0.742978,-0.312191,2.481,2.60861
0.75648,-0.314456,2.499,2.62986
0.764591,-0.314456,2.499,2.6322
0.772702,-0.314456,2.499,2.63457
0.780813,-0.314456,2.499,2.63696
0.788924,-0.314456,2.499,2.63937
0.797036,-0.314456,2.499,2.64181
0.810946,-0.316721,2.517,2.66331
0.819116,-0.316721,2.517,2.66581
0.827285,-0.316721,2.517,2.66833
0.835455,-0.316721,2.517,2.67088
