1.10533,0.241524,2.463,2.71043
1.11332,0.241524,2.463,2.7137
1.12131,0.241524,2.463,2.71699
1.12931,0.241524,2.463,2.7203
1.1373,0.241524,2.463,2.72363
1.1453,0.241524,2.463,2.72698
1.15329,0.241524,2.463,2.73034
1.16977,0.243289,2.481,2.75371
1.17782,0.243289,2.481,2.75714
1.18588,0.243289,2.481,2.76059
1.18527,0.241524,2.463,2.744
1.19326,0.241524,2.463,2.74747
1.20126,0.241524,2.463,2.75095
1.20925,0.241524,2.463,2.75445
1.21725,0.241524,2.463,2.75797
1.22524,0.241524,2.463,2.76151
1.23323,0.241524,2.463,2.76506
1.24123,0.241524,2.463,2.76864
1.24922,0.241524,2.463,2.77223
1.25722,0.241524,2.463,2.77584
1.26521,0.241524,2.463,2.77947
1.27321,0.241524,2.463,2.78312
1.2812,0.241524,2.463,2.78679
1.29862,0.243289,2.481,2.81086
1.30667,0.243289,2.481,2.81459
1.31472,0.243289,2.481,2.81834
1.34197,0.246819,2.517,2.86306
1.37052,0.250546,2.555,2.91018
1.37881,0.250546,2.555,2.91409
1.41859,0.256233,2.613,2.98426
1.438,0.258194,2.633,3.01118
1.46962,0.262313,2.675,3.06337
1.4783,0.262313,2.675,3.06754
1.51033,0.266432,2.717,3.11996
1.54375,0.270746,2.761,3.17484
1.55271,0.270746,2.761,3.1792
1.57412,0.272904,2.783,3.20896
1.60932,0.277414,2.829,3.26651
1.6185,0.277414,2.829,3.27105
1.61445,0.275159,2.806,3.24897
1.62356,0.275159,2.806,3.2535
1.63266,0.275159,2.806,3.25806
1.62831,0.272904,2.783,3.23589
1.63735,0.272904,2.783,3.24044
1.64638,0.272904,2.783,3.24502
1.65541,0.272904,2.783,3.24961
1.65129,0.270746,2.761,3.2285
1.66025,0.270746,2.761,3.23309
1.65591,0.268589,2.739,3.2119
1.65143,0.266432,2.717,3.19066
1.66025,0.266432,2.717,3.19523
1.64327,0.262313,2.675,3.15036
1.63898,0.260254,2.654,3.13013
1.64759,0.260254,2.654,3.13465
1.63062,0.256233,2.613,3.09069
1.61464,0.252409,2.574,3.04898
1.62299,0.252409,2.574,3.05341
1.61931,0.250546,2.555,3.03528
1.60339,0.246819,2.517,2.99451
1.60004,0.245054,2.499,2.97744
1.60815,0.245054,2.499,2.98181
1.60462,0.243289,2.481,2.96468
1.60097,0.241524,2.463,2.94751
1.60897,0.241524,2.463,2.95186
1.60514,0.239759,2.445,2.93462
1.60186,0.238092,2.428,2.91853
1.60974,0.238092,2.428,2.92287
1.6063,0.236425,2.411,2.90672
1.61412,0.236425,2.411,2.91105
1.62195,0.236425,2.411,2.9154
1.61828,0.234758,2.394,2.89917
1.62605,0.234758,2.394,2.90351
-1.78567,0.260761,2.574,3.14358
-1.77731,0.260761,2.574,3.13884
-1.78202,0.262686,2.593,3.15725
-1.7736,0.262686,2.593,3.15251
-1.7788,0.264712,2.613,3.17206
-1.78387,0.266738,2.633,3.19156
-1.78948,0.268866,2.654,3.2122
-1.78087,0.268866,2.654,3.20741
-1.8003,0.27312,2.696,3.25332
-1.8055,0.275248,2.717,3.27379
-1.79668,0.275248,2.717,3.26893
-1.78787,0.275248,2.717,3.2641
-1.79345,0.277477,2.739,3.28566
-1.78456,0.277477,2.739,3.28082
-1.78993,0.279705,2.761,3.30231
-1.78097,0.279705,2.761,3.29746
-1.78613,0.281934,2.783,3.31886
-1.7771,0.281934,2.783,3.31401
-1.76807,0.281934,2.783,3.30917
-1.75903,0.281934,2.783,3.30436
-1.75,0.281934,2.783,3.29956
-1.74097,0.281934,2.783,3.29478
-1.73193,0.281934,2.783,3.29001
-1.7229,0.281934,2.783,3.28526
-1.70032,0.279705,2.761,3.2546
-1.67788,0.277477,2.739,3.22403
-1.66899,0.277477,2.739,3.21942
-1.64677,0.275248,2.717,3.189
-1.61263,0.270993,2.675,3.13522
-1.60395,0.270993,2.675,3.13077
-1.58274,0.268866,2.654,3.10179
-1.54981,0.264712,2.613,3.04955
-1.54133,0.264712,2.613,3.04525
-1.50997,0.260761,2.574,2.99558
-1.47944,0.256911,2.536,2.94721
-1.47121,0.256911,2.536,2.94309
-1.43125,0.25134,2.481,2.87524
-1.41288,0.249516,2.463,2.85041
-1.40488,0.249516,2.463,2.84646
-1.37704,0.24597,2.428,2.80213
-1.35957,0.244248,2.411,2.77867
-1.34221,0.242526,2.394,2.75528
-1.33444,0.242526,2.394,2.75151
-1.32667,0.242526,2.394,2.74775
-1.3189,0.242526,2.394,2.744
-1.31113,0.242526,2.394,2.74028
-1.30336,0.242526,2.394,2.73657
-1.31399,0.24597,2.428,2.77169
-1.30611,0.24597,2.428,2.76796
-1.29823,0.24597,2.428,2.76425
-1.30895,0.249516,2.463,2.80035
-1.31046,0.25134,2.481,2.81706
-1.31186,0.253163,2.499,2.83374
-1.30375,0.253163,2.499,2.82999
-1.31482,0.256911,2.536,2.86811
-1.33596,0.262686,2.593,2.92873
-1.32754,0.262686,2.593,2.9249
-1.3293,0.264712,2.613,2.94362
-1.34154,0.268866,2.654,2.98592
-1.33293,0.268866,2.654,2.98206
-1.31383,0.266738,2.633,2.95466
-1.30529,0.266738,2.633,2.95087
-1.29674,0.266738,2.633,2.9471
-1.2882,0.266738,2.633,2.94335
-1.26993,0.264712,2.613,2.91729
-1.26145,0.264712,2.613,2.91361
-1.24338,0.262686,2.593,2.88767
-1.22591,0.260761,2.574,2.86292
-1.21756,0.260761,2.574,2.85936
-1.20028,0.258836,2.555,2.83473
-1.18312,0.256911,2.536,2.81017
-1.15775,0.253163,2.499,2.76577
-1.14964,0.253163,2.499,2.76238
-1.1333,0.25134,2.481,2.73914
-1.11709,0.249516,2.463,2.71597
-1.10909,0.249516,2.463,2.71269
-1.09305,0.247693,2.445,2.68964
-1.07757,0.24597,2.428,2.66774
-1.06969,0.24597,2.428,2.66457
-1.06181,0.24597,2.428,2.66141
-1.05393,0.24597,2.428,2.65828
-1.04605,0.24597,2.428,2.65517
-1.03817,0.24597,2.428,2.65207
-1.03029,0.24597,2.428,2.649
-1.02241,0.24597,2.428,2.64594
-1.01452,0.24597,2.428,2.6429
-1.00664,0.24597,2.428,2.63989
-1.00576,0.247693,2.445,2.65536
-0.997821,0.247693,2.445,2.65236
-0.989885,0.247693,2.445,2.64939
-0.981949,0.247693,2.445,2.64643
-0.974013,0.247693,2.445,2.6435
-0.966077,0.247693,2.445,2.64058
-0.951479,0.24597,2.428,2.61935
-0.943599,0.24597,2.428,2.6165
-0.935718,0.24597,2.428,2.61367
-0.927837,0.24597,2.428,2.61086
-0.919957,0.24597,2.428,2.60807
-0.912076,0.24597,2.428,2.6053
-0.897864,0.244248,2.411,2.58433
-0.890039,0.244248,2.411,2.58162
-0.882213,0.244248,2.411,2.57893
-0.874388,0.244248,2.411,2.57626
-0.866562,0.244248,2.411,2.57362
-0.858737,0.244248,2.411,2.57099
-0.850911,0.244248,2.411,2.56839
-0.843086,0.244248,2.411,2.56581
-0.83526,0.244248,2.411,2.56325
-0.827435,0.244248,2.411,2.56071
-0.819609,0.244248,2.411,2.55819
-0.817508,0.24597,2.428,2.57371
-0.809627,0.24597,2.428,2.57122
-0.801746,0.24597,2.428,2.56875
-0.793866,0.24597,2.428,2.5663
-0.785985,0.24597,2.428,2.56388
-0.778104,0.24597,2.428,2.56147
-0.770224,0.24597,2.428,2.55909
-0.762343,0.24597,2.428,2.55673
-0.759745,0.247693,2.445,2.57227
-0.751809,0.247693,2.445,2.56994
-0.743873,0.247693,2.445,2.56763
-0.735937,0.247693,2.445,2.56534
-0.728001,0.247693,2.445,2.56308
-0.720065,0.247693,2.445,2.56083
-0.717372,0.249516,2.463,2.57745
-0.709378,0.249516,2.463,2.57524
-0.706509,0.25134,2.481,2.59185
-0.698457,0.25134,2.481,2.58967
-0.690404,0.25134,2.481,2.58751
-0.682351,0.25134,2.481,2.58537
-0.674299,0.25134,2.481,2.58326
-0.67108,0.253163,2.499,2.59989
-0.658193,0.25134,2.481,2.5791
-0.65014,0.25134,2.481,2.57706
-0.646746,0.253163,2.499,2.59372
-0.638635,0.253163,2.499,2.59171
-0.630524,0.253163,2.499,2.58972
-0.622413,0.253163,2.499,2.58776
-0.614302,0.253163,2.499,2.58582
-0.601824,0.25134,2.481,2.56529
-0.593771,0.25134,2.481,2.56342
-0.585719,0.25134,2.481,2.56156
-0.577666,0.25134,2.481,2.55973
-0.569613,0.25134,2.481,2.55793
-0.561561,0.25134,2.481,2.55615
-0.553508,0.25134,2.481,2.55439
-0.549413,0.253163,2.499,2.57118
-0.541301,0.253163,2.499,2.56946
-0.53319,0.253163,2.499,2.56776
-0.521297,0.25134,2.481,2.5476
-0.513244,0.25134,2.481,2.54597
-0.508857,0.253163,2.499,2.56282
-0.500746,0.253163,2.499,2.56122
-0.492635,0.253163,2.499,2.55964
-0.484524,0.253163,2.499,2.5581
-0.476412,0.253163,2.499,2.55657
-0.468301,0.253163,2.499,2.55507
-0.46019,0.253163,2.499,2.5536
-0.452079,0.253163,2.499,2.55215
-0.443968,0.253163,2.499,2.55073
-0.435857,0.253163,2.499,2.54933
-0.427746,0.253163,2.499,2.54795
-0.419634,0.253163,2.499,2.5466
-0.411523,0.253163,2.499,2.54528
-0.403412,0.253163,2.499,2.54398
-0.395301,0.253163,2.499,2.54271
-0.38719,0.253163,2.499,2.54146
-0.379079,0.253163,2.499,2.54024
-0.370968,0.253163,2.499,2.53904
-0.36547,0.254987,2.517,2.55614
-0.357301,0.254987,2.517,2.55499
-0.349131,0.254987,2.517,2.55386
-0.340961,0.254987,2.517,2.55276
-0.332792,0.254987,2.517,2.55168
-0.324622,0.254987,2.517,2.55062
-0.316453,0.254987,2.517,2.5496
-0.306079,0.253163,2.499,2.53037
-0.297967,0.253163,2.499,2.5294
-0.289856,0.253163,2.499,2.52846
-0.281745,0.253163,2.499,2.52754
-0.273634,0.253163,2.499,2.52665
-0.26361,0.25134,2.481,2.50759
-0.255558,0.25134,2.481,2.50676
-0.247505,0.25134,2.481,2.50595
-0.239452,0.25134,2.481,2.50517
-0.2314,0.25134,2.481,2.50441
-0.223347,0.25134,2.481,2.50368
-0.216856,0.253163,2.499,2.52113
-0.208745,0.253163,2.499,2.52045
-0.200634,0.253163,2.499,2.51979
-0.192523,0.253163,2.499,2.51916
-0.184412,0.253163,2.499,2.51855
-0.1763,0.253163,2.499,2.51797
-0.168189,0.253163,2.499,2.51742
-0.160078,0.253163,2.499,2.51689
-0.153062,0.254987,2.517,2.53451
-0.144892,0.254987,2.517,2.53403
-0.136723,0.254987,2.517,2.53357
-0.128553,0.254987,2.517,2.53315
-0.120383,0.254987,2.517,2.53275
-0.112214,0.254987,2.517,2.53237
-0.104044,0.254987,2.517,2.53202
-0.0958747,0.254987,2.517,2.5317
-0.0877052,0.254987,2.517,2.5314
-0.0795356,0.254987,2.517,2.53113
-0.0713661,0.254987,2.517,2.53089
-0.0631965,0.254987,2.517,2.53067
-0.055027,0.254987,2.517,2.53048
-0.0468574,0.254987,2.517,2.53032
-0.0386878,0.254987,2.517,2.53018
-0.0305183,0.254987,2.517,2.53007
-0.0221889,0.253163,2.499,2.51189
-0.0140778,0.253163,2.499,2.51183
-0.00596664,0.253163,2.499,2.5118
0.00214449,0.253163,2.499,2.51179
0.0102556,0.253163,2.499,2.51181
0.0183668,0.253163,2.499,2.51186
0.0264779,0.253163,2.499,2.51193
0.0343399,0.25134,2.481,2.49394
0.0423926,0.25134,2.481,2.49406
0.0504453,0.25134,2.481,2.49421
0.058498,0.25134,2.481,2.49438
0.0665507,0.25134,2.481,2.49459
0.0746034,0.25134,2.481,2.49481
0.0826561,0.25134,2.481,2.49507
0.0907089,0.25134,2.481,2.49535
0.0987616,0.25134,2.481,2.49565
0.106814,0.25134,2.481,2.49599
0.1157,0.253163,2.499,2.51445
0.123811,0.253163,2.499,2.51484
0.131923,0.253163,2.499,2.51525
0.140034,0.253163,2.499,2.51569
0.149212,0.254987,2.517,2.53428
0.157382,0.254987,2.517,2.53477
0.165551,0.254987,2.517,2.53529
0.173721,0.254987,2.517,2.53584
0.18189,0.254987,2.517,2.53641
0.19006,0.254987,2.517,2.53701
0.198229,0.254987,2.517,2.53764
0.206399,0.254987,2.517,2.53829
0.214568,0.254987,2.517,2.53897
0.222738,0.254987,2.517,2.53967
0.230908,0.254987,2.517,2.5404
0.239077,0.254987,2.517,2.54115
0.247247,0.254987,2.517,2.54194
0.255416,0.254987,2.517,2.54274
0.263586,0.254987,2.517,2.54358
0.269812,0.253163,2.499,2.52624
0.277923,0.253163,2.499,2.52712
0.286034,0.253163,2.499,2.52802
0.294145,0.253163,2.499,2.52896
0.300079,0.25134,2.481,2.51169
0.308132,0.25134,2.481,2.51266
0.316185,0.25134,2.481,2.51366
0.324237,0.25134,2.481,2.51469
0.33229,0.25134,2.481,2.51574
0.340343,0.25134,2.481,2.51682
0.348396,0.25134,2.481,2.51792
0.356448,0.25134,2.481,2.51905
0.364501,0.25134,2.481,2.5202
0.369851,0.249516,2.463,2.50308
0.377845,0.249516,2.463,2.50428
0.385839,0.249516,2.463,2.50549
0.393834,0.249516,2.463,2.50674
0.401828,0.249516,2.463,2.50801
0.409822,0.249516,2.463,2.5093
0.417816,0.249516,2.463,2.51062
0.425811,0.249516,2.463,2.51196
0.433805,0.249516,2.463,2.51333
0.441799,0.249516,2.463,2.51472
0.449794,0.249516,2.463,2.51614
0.457788,0.249516,2.463,2.51758
0.465782,0.249516,2.463,2.51904
0.473776,0.249516,2.463,2.52053
0.47825,0.247693,2.445,2.50362
0.486186,0.247693,2.445,2.50515
0.494122,0.247693,2.445,2.5067
0.502058,0.247693,2.445,2.50827
0.509993,0.247693,2.445,2.50987
0.517929,0.247693,2.445,2.5115
0.525865,0.247693,2.445,2.51315
0.533801,0.247693,2.445,2.51482
0.541737,0.247693,2.445,2.51652
0.549673,0.247693,2.445,2.51824
0.557609,0.247693,2.445,2.51998
0.565544,0.247693,2.445,2.52175
0.569493,0.24597,2.428,2.50599
0.577374,0.24597,2.428,2.5078
0.585254,0.24597,2.428,2.50962
0.593135,0.24597,2.428,2.51147
0.596808,0.244248,2.411,2.49575
0.604633,0.244248,2.411,2.49763
0.60814,0.242526,2.394,2.48191
0.611537,0.240804,2.377,2.46619
0.619252,0.240804,2.377,2.46811
0.626967,0.240804,2.377,2.47006
0.634682,0.240804,2.377,2.47203
0.638073,0.239183,2.361,2.45737
0.645737,0.239183,2.361,2.45937
0.648972,0.237562,2.345,2.44471
0.656583,0.237562,2.345,2.44675
0.664194,0.237562,2.345,2.4488
0.667222,0.235941,2.329,2.43415
0.674781,0.235941,2.329,2.43623
0.682341,0.235941,2.329,2.43834
0.68516,0.23432,2.313,2.4237
0.692668,0.23432,2.313,2.42583
0.700175,0.23432,2.313,2.42799
0.707683,0.23432,2.313,2.43016
0.710552,0.232801,2.298,2.41659
0.718011,0.232801,2.298,2.41879
0.720418,0.23118,2.282,2.40416
0.727825,0.23118,2.282,2.40639
0.735232,0.23118,2.282,2.40864
0.742639,0.23118,2.282,2.41091
0.745115,0.22966,2.267,2.39734
0.752474,0.22966,2.267,2.39964
0.759832,0.22966,2.267,2.40195
0.76719,0.22966,2.267,2.40429
0.774548,0.22966,2.267,2.40665
0.78708,0.23118,2.282,2.42497
0.794486,0.23118,2.282,2.42738
0.807516,0.232801,2.298,2.44685
0.814974,0.232801,2.298,2.44932
0.827801,0.23432,2.313,2.46782
0.835309,0.23432,2.313,2.47035
0.848646,0.235941,2.329,2.49
0.862088,0.237562,2.345,2.50971
0.869699,0.237562,2.345,2.51234
0.87731,0.237562,2.345,2.51498
0.884922,0.237562,2.345,2.51765
0.892533,0.237562,2.345,2.52033
0.900144,0.237562,2.345,2.52304
0.907756,0.237562,2.345,2.52576
0.915367,0.237562,2.345,2.52851
0.929276,0.239183,2.361,2.54855
0.943288,0.240804,2.377,2.56864
0.951003,0.240804,2.377,2.57148
0.958719,0.240804,2.377,2.57435
0.966434,0.240804,2.377,2.57723
0.981116,0.242526,2.394,2.59858
0.988886,0.242526,2.394,2.60153
1.00373,0.244248,2.411,2.62299
1.01869,0.24597,2.428,2.64451
1.02657,0.24597,2.428,2.64755
1.03445,0.24597,2.428,2.65062
1.04963,0.247693,2.445,2.67228
1.06535,0.249516,2.463,2.69511
1.07335,0.249516,2.463,2.69828
1.08134,0.249516,2.463,2.70147
1.08934,0.249516,2.463,2.70468
1.09733,0.249516,2.463,2.70791
1.10533,0.249516,2.463,2.71116
1.11332,0.249516,2.463,2.71443
1.12131,0.249516,2.463,2.71771
1.12931,0.249516,2.463,2.72102
1.1373,0.249516,2.463,2.72435
1.1453,0.249516,2.463,2.7277
1.15329,0.249516,2.463,2.73106
1.16129,0.249516,2.463,2.73445
1.16928,0.249516,2.463,2.73785
1.17727,0.249516,2.463,2.74128
1.18527,0.249516,2.463,2.74472
1.19326,0.249516,2.463,2.74818
1.20126,0.249516,2.463,2.75166
1.20925,0.249516,2.463,2.75516
1.21725,0.249516,2.463,2.75868
1.22524,0.249516,2.463,2.76222
1.23323,0.249516,2.463,2.76577
1.24123,0.249516,2.463,2.76935
1.24922,0.249516,2.463,2.77294
1.25722,0.249516,2.463,2.77655
1.26521,0.249516,2.463,2.78018
1.27321,0.249516,2.463,2.78382
1.2812,0.249516,2.463,2.78749
1.29862,0.25134,2.481,2.81157
1.30667,0.25134,2.481,2.8153
1.31472,0.25134,2.481,2.81905
1.34197,0.254987,2.517,2.86377
1.37052,0.258836,2.555,2.9109
1.37881,0.258836,2.555,2.91482
1.40774,0.262686,2.593,2.96216
1.42708,0.264712,2.613,2.98904
1.45808,0.268866,2.654,3.04007
1.4667,0.268866,2.654,3.04421
1.51033,0.275248,2.717,3.12073
1.54375,0.279705,2.761,3.17561
1.55271,0.279705,2.761,3.17998
1.57412,0.281934,2.783,3.20974
1.59623,0.284264,2.806,3.24074
1.60534,0.284264,2.806,3.24524
1.61445,0.284264,2.806,3.24975
1.62356,0.284264,2.806,3.25429
1.63266,0.284264,2.806,3.25884
1.62831,0.281934,2.783,3.23666
1.63735,0.281934,2.783,3.24122
1.64638,0.281934,2.783,3.24579
1.65541,0.281934,2.783,3.25038
1.65129,0.279705,2.761,3.22926
1.66025,0.279705,2.761,3.23385
1.65591,0.277477,2.739,3.21266
1.65143,0.275248,2.717,3.19141
1.66025,0.275248,2.717,3.19598
1.64327,0.270993,2.675,3.15109
1.63898,0.268866,2.654,3.13086
1.64759,0.268866,2.654,3.13537
1.63062,0.264712,2.613,3.0914
1.61464,0.260761,2.574,3.04968
1.62299,0.260761,2.574,3.05411
1.61931,0.258836,2.555,3.03598
1.60339,0.254987,2.517,2.99519
1.60004,0.253163,2.499,2.97812
1.60815,0.253163,2.499,2.98249
1.59298,0.249516,2.463,2.94384
1.58927,0.247693,2.445,2.92663
1.59721,0.247693,2.445,2.93095
1.59398,0.24597,2.428,2.91487
1.59065,0.244248,2.411,2.89875
1.59847,0.244248,2.411,2.90305
1.6063,0.244248,2.411,2.90737
1.60274,0.242526,2.394,2.89117
1.61051,0.242526,2.394,2.89548
1.61828,0.242526,2.394,2.89981
1.61451,0.240804,2.377,2.88353
-1.78567,0.269113,2.574,3.14428
-1.77731,0.269113,2.574,3.13954
-1.78202,0.2711,2.593,3.15796
-1.7736,0.2711,2.593,3.15322
-1.7788,0.273191,2.613,3.17278
-1.78387,0.275282,2.633,3.19228
-1.80364,0.279673,2.675,3.23836
-1.79496,0.279673,2.675,3.23353
-1.81432,0.284064,2.717,3.27941
-1.82012,0.286364,2.739,3.30106
-1.81123,0.286364,2.739,3.29616
-1.81682,0.288664,2.761,3.31772
-1.80786,0.288664,2.761,3.31282
-1.7989,0.288664,2.761,3.30794
-1.8042,0.290964,2.783,3.3294
-1.81,0.293369,2.806,3.35198
-1.80089,0.293369,2.806,3.34708
-1.79179,0.293369,2.806,3.34218
-1.78268,0.293369,2.806,3.33731
-1.77357,0.293369,2.806,3.33245
-1.76446,0.293369,2.806,3.32762
-1.75535,0.293369,2.806,3.3228
-1.74625,0.293369,2.806,3.31799
-1.7229,0.290964,2.783,3.28605
-1.71387,0.290964,2.783,3.28133
-1.69136,0.288664,2.761,3.25071
-1.6824,0.288664,2.761,3.24606
-1.6601,0.286364,2.739,3.2156
-1.63795,0.284064,2.717,3.18522
-1.62913,0.284064,2.717,3.1807
-1.59526,0.279673,2.675,3.12709
-1.54981,0.273191,2.613,3.0503
-1.54133,0.273191,2.613,3.046
-1.50997,0.269113,2.574,2.99631
-1.47944,0.26514,2.536,2.94794
-1.47121,0.26514,2.536,2.94382
-1.44164,0.261272,2.499,2.89682
-1.41288,0.257508,2.463,2.85112
-1.40488,0.257508,2.463,2.84717
-1.37704,0.253849,2.428,2.80283
-1.35957,0.252072,2.411,2.77937
-1.34221,0.250294,2.394,2.75598
-1.33444,0.250294,2.394,2.7522
-1.32667,0.250294,2.394,2.74844
-1.3189,0.250294,2.394,2.7447
-1.32044,0.252072,2.411,2.76044
-1.31262,0.252072,2.411,2.75671
-1.32319,0.255626,2.445,2.79181
-1.31526,0.255626,2.445,2.78806
-1.30732,0.255626,2.445,2.78432
-1.31852,0.25939,2.481,2.82155
-1.31997,0.261272,2.499,2.83824
-1.33128,0.26514,2.536,2.87644
-1.32305,0.26514,2.536,2.87264
-1.33452,0.269113,2.574,2.91185
-1.33596,0.2711,2.593,2.92949
-1.32754,0.2711,2.593,2.92566
-1.33947,0.275282,2.633,2.96693
-1.34154,0.277477,2.654,2.98671
-1.34347,0.279673,2.675,3.00645
-1.32431,0.277477,2.654,2.97901
-1.3157,0.277477,2.654,2.97519
-1.30708,0.277477,2.654,2.97139
-1.29847,0.277477,2.654,2.96761
-1.27965,0.275282,2.633,2.9404
-1.2711,0.275282,2.633,2.93669
-1.24338,0.2711,2.593,2.88845
-1.22591,0.269113,2.574,2.8637
-1.21756,0.269113,2.574,2.86013
-1.20028,0.267127,2.555,2.8355
-1.18312,0.26514,2.536,2.81094
-1.15775,0.261272,2.499,2.76652
-1.14964,0.261272,2.499,2.76314
-1.1333,0.25939,2.481,2.73989
-1.11709,0.257508,2.463,2.71672
-1.10909,0.257508,2.463,2.71344
-1.09305,0.255626,2.445,2.69038
-1.07757,0.253849,2.428,2.66848
-1.06969,0.253849,2.428,2.66531
-1.06181,0.253849,2.428,2.66215
-1.05393,0.253849,2.428,2.65902
-1.04605,0.253849,2.428,2.65591
-1.03817,0.253849,2.428,2.65281
-1.03029,0.253849,2.428,2.64974
-1.02241,0.253849,2.428,2.64668
-1.01452,0.253849,2.428,2.64365
-1.00664,0.253849,2.428,2.64064
-1.00576,0.255626,2.445,2.65611
-0.997821,0.255626,2.445,2.65311
-0.989885,0.255626,2.445,2.65014
-0.981949,0.255626,2.445,2.64719
-0.974013,0.255626,2.445,2.64425
-0.966077,0.255626,2.445,2.64134
-0.951479,0.253849,2.428,2.6201
-0.943599,0.253849,2.428,2.61725
-0.935718,0.253849,2.428,2.61442
-0.927837,0.253849,2.428,2.61161
-0.919957,0.253849,2.428,2.60882
-0.912076,0.253849,2.428,2.60605
-0.897864,0.252072,2.411,2.58508
-0.890039,0.252072,2.411,2.58237
-0.882213,0.252072,2.411,2.57968
-0.874388,0.252072,2.411,2.57702
-0.866562,0.252072,2.411,2.57437
-0.858737,0.252072,2.411,2.57175
-0.850911,0.252072,2.411,2.56915
-0.843086,0.252072,2.411,2.56656
-0.84115,0.253849,2.428,2.58208
-0.833269,0.253849,2.428,2.57953
-0.825388,0.253849,2.428,2.57699
-0.817508,0.253849,2.428,2.57448
-0.809627,0.253849,2.428,2.57199
-0.801746,0.253849,2.428,2.56952
-0.793866,0.253849,2.428,2.56707
-0.785985,0.253849,2.428,2.56464
-0.778104,0.253849,2.428,2.56224
-0.770224,0.253849,2.428,2.55986
-0.762343,0.253849,2.428,2.5575
-0.759745,0.255626,2.445,2.57305
-0.751809,0.255626,2.445,2.57072
-0.743873,0.255626,2.445,2.56841
-0.735937,0.255626,2.445,2.56612
-0.728001,0.255626,2.445,2.56386
-0.720065,0.255626,2.445,2.56161
-0.717372,0.257508,2.463,2.57824
-0.709378,0.257508,2.463,2.57602
-0.701384,0.257508,2.463,2.57383
-0.693389,0.257508,2.463,2.57167
-0.690404,0.25939,2.481,2.5883
-0.682351,0.25939,2.481,2.58616
-0.674299,0.25939,2.481,2.58405
-0.666246,0.25939,2.481,2.58196
-0.658193,0.25939,2.481,2.5799
-0.65014,0.25939,2.481,2.57785
-0.646746,0.261272,2.499,2.59452
-0.638635,0.261272,2.499,2.59251
-0.630524,0.261272,2.499,2.59053
-0.622413,0.261272,2.499,2.58856
-0.614302,0.261272,2.499,2.58663
-0.601824,0.25939,2.481,2.56609
-0.593771,0.25939,2.481,2.56422
-0.585719,0.25939,2.481,2.56236
-0.577666,0.25939,2.481,2.56054
-0.569613,0.25939,2.481,2.55873
-0.561561,0.25939,2.481,2.55695
-0.553508,0.25939,2.481,2.55519
-0.549413,0.261272,2.499,2.57199
-0.541301,0.261272,2.499,2.57027
-0.53319,0.261272,2.499,2.56857
-0.521297,0.25939,2.481,2.54841
-0.513244,0.25939,2.481,2.54678
-0.508857,0.261272,2.499,2.56363
-0.500746,0.261272,2.499,2.56203
-0.492635,0.261272,2.499,2.56046
-0.484524,0.261272,2.499,2.55891
-0.476412,0.261272,2.499,2.55739
-0.468301,0.261272,2.499,2.55589
-0.46019,0.261272,2.499,2.55442
-0.452079,0.261272,2.499,2.55297
-0.443968,0.261272,2.499,2.55154
-0.435857,0.261272,2.499,2.55014
-0.427746,0.261272,2.499,2.54877
-0.419634,0.261272,2.499,2.54742
-0.411523,0.261272,2.499,2.5461
-0.403412,0.261272,2.499,2.5448
-0.395301,0.261272,2.499,2.54353
-0.38719,0.261272,2.499,2.54228
-0.379079,0.261272,2.499,2.54106
-0.370968,0.261272,2.499,2.53986
-0.36547,0.263154,2.517,2.55697
-0.357301,0.263154,2.517,2.55582
-0.349131,0.263154,2.517,2.55469
-0.340961,0.263154,2.517,2.55358
-0.332792,0.263154,2.517,2.55251
-0.324622,0.263154,2.517,2.55145
-0.316453,0.263154,2.517,2.55043
-0.306079,0.261272,2.499,2.5312
-0.297967,0.261272,2.499,2.53023
-0.289856,0.261272,2.499,2.52928
-0.281745,0.261272,2.499,2.52837
-0.273634,0.261272,2.499,2.52748
-0.265523,0.261272,2.499,2.52661
-0.255558,0.25939,2.481,2.50758
-0.247505,0.25939,2.481,2.50677
-0.239452,0.25939,2.481,2.50599
-0.2314,0.25939,2.481,2.50523
-0.223347,0.25939,2.481,2.5045
-0.215294,0.25939,2.481,2.5038
-0.207241,0.25939,2.481,2.50312
-0.199189,0.25939,2.481,2.50246
-0.192523,0.261272,2.499,2.51999
-0.184412,0.261272,2.499,2.51938
-0.1763,0.261272,2.499,2.5188
-0.168189,0.261272,2.499,2.51824
-0.160078,0.261272,2.499,2.51772
-0.151967,0.261272,2.499,2.51721
-0.143856,0.261272,2.499,2.51674
-0.136723,0.263154,2.517,2.53441
-0.128553,0.263154,2.517,2.53398
-0.120383,0.263154,2.517,2.53358
-0.112214,0.263154,2.517,2.53321
-0.104044,0.263154,2.517,2.53286
-0.0958747,0.263154,2.517,2.53253
-0.0877052,0.263154,2.517,2.53224
-0.0795356,0.263154,2.517,2.53197
-0.0713661,0.263154,2.517,2.53173
-0.0631965,0.263154,2.517,2.53151
-0.055027,0.263154,2.517,2.53132
-0.0468574,0.263154,2.517,2.53115
-0.0386878,0.263154,2.517,2.53101
-0.0305183,0.263154,2.517,2.5309
-0.0221889,0.261272,2.499,2.51272
-0.0140778,0.261272,2.499,2.51266
-0.00596664,0.261272,2.499,2.51263
0.00214449,0.261272,2.499,2.51262
0.0101818,0.25939,2.481,2.49454
0.0182345,0.25939,2.481,2.49459
0.0262872,0.25939,2.481,2.49466
0.0343399,0.25939,2.481,2.49476
0.0423926,0.25939,2.481,2.49488
0.0504453,0.25939,2.481,2.49503
0.058498,0.25939,2.481,2.49521
0.0665507,0.25939,2.481,2.49541
0.0746034,0.25939,2.481,2.49564
0.0826561,0.25939,2.481,2.49589
0.0907089,0.25939,2.481,2.49617
0.0987616,0.25939,2.481,2.49648
0.106814,0.25939,2.481,2.49681
0.1157,0.261272,2.499,2.51528
0.123811,0.261272,2.499,2.51567
0.131923,0.261272,2.499,2.51608
0.140034,0.261272,2.499,2.51652
0.148145,0.261272,2.499,2.51698
0.157382,0.263154,2.517,2.53561
0.165551,0.263154,2.517,2.53613
0.173721,0.263154,2.517,2.53667
0.18189,0.263154,2.517,2.53725
0.19006,0.263154,2.517,2.53785
0.198229,0.263154,2.517,2.53847
0.206399,0.263154,2.517,2.53912
0.214568,0.263154,2.517,2.5398
0.222738,0.263154,2.517,2.5405
0.230908,0.263154,2.517,2.54123
0.239077,0.263154,2.517,2.54199
0.245479,0.261272,2.499,2.52458
0.25359,0.261272,2.499,2.52539
0.261701,0.261272,2.499,2.52621
0.269812,0.261272,2.499,2.52707
0.277923,0.261272,2.499,2.52795
0.286034,0.261272,2.499,2.52885
0.294145,0.261272,2.499,2.52978
0.300079,0.25939,2.481,2.51251
0.308132,0.25939,2.481,2.51348
0.316185,0.25939,2.481,2.51448
0.324237,0.25939,2.481,2.51551
0.33229,0.25939,2.481,2.51656
0.340343,0.25939,2.481,2.51763
0.348396,0.25939,2.481,2.51873
0.356448,0.25939,2.481,2.51986
0.364501,0.25939,2.481,2.52101
0.372554,0.25939,2.481,2.52219
0.380606,0.25939,2.481,2.52339
0.388659,0.25939,2.481,2.52462
0.396712,0.25939,2.481,2.52587
0.401828,0.257508,2.463,2.50881
0.409822,0.257508,2.463,2.51011
0.417816,0.257508,2.463,2.51142
0.425811,0.257508,2.463,2.51277
0.433805,0.257508,2.463,2.51413
0.441799,0.257508,2.463,2.51553
0.449794,0.257508,2.463,2.51694
0.457788,0.257508,2.463,2.51838
0.465782,0.257508,2.463,2.51985
0.473776,0.257508,2.463,2.52134
0.481771,0.257508,2.463,2.52285
0.489765,0.257508,2.463,2.52439
0.497759,0.257508,2.463,2.52595
0.505754,0.257508,2.463,2.52754
0.513748,0.257508,2.463,2.52915
0.521742,0.257508,2.463,2.53079
0.529737,0.257508,2.463,2.53245
0.537731,0.257508,2.463,2.53413
0.541737,0.255626,2.445,2.51731
0.549673,0.255626,2.445,2.51903
0.557609,0.255626,2.445,2.52077
0.565544,0.255626,2.445,2.52254
0.57348,0.255626,2.445,2.52433
0.577374,0.253849,2.428,2.50858
0.585254,0.253849,2.428,2.51041
0.593135,0.253849,2.428,2.51226
0.596808,0.252072,2.411,2.49653
0.604633,0.252072,2.411,2.49841
0.612459,0.252072,2.411,2.50031
0.611537,0.248517,2.377,2.46696
0.619252,0.248517,2.377,2.46888
0.626967,0.248517,2.377,2.47083
0.634682,0.248517,2.377,2.47279
0.638073,0.246844,2.361,2.45813
0.645737,0.246844,2.361,2.46013
0.648972,0.245171,2.345,2.44547
0.656583,0.245171,2.345,2.4475
0.664194,0.245171,2.345,2.44955
0.667222,0.243498,2.329,2.4349
0.670146,0.241826,2.313,2.42024
0.677653,0.241826,2.313,2.42233
0.68516,0.241826,2.313,2.42444
0.692668,0.241826,2.313,2.42657
0.700175,0.241826,2.313,2.42872
0.703093,0.240257,2.298,2.41513
0.705605,0.238585,2.282,2.40048
0.713012,0.238585,2.282,2.40267
0.720418,0.238585,2.282,2.40488
0.727825,0.238585,2.282,2.40711
0.730399,0.237016,2.267,2.39352
0.737757,0.237016,2.267,2.39578
0.745115,0.237016,2.267,2.39805
0.752474,0.237016,2.267,2.40035
0.759832,0.237016,2.267,2.40267
0.76719,0.237016,2.267,2.405
0.774548,0.237016,2.267,2.40736
0.781906,0.237016,2.267,2.40974
0.789264,0.237016,2.267,2.41214
0.796622,0.237016,2.267,2.41455
0.8093,0.238585,2.282,2.43298
0.816707,0.238585,2.282,2.43546
0.824114,0.238585,2.282,2.43795
0.837351,0.240257,2.298,2.45758
0.850324,0.241826,2.313,2.47619
0.857831,0.241826,2.313,2.47877
0.871324,0.243498,2.329,2.49855
0.878884,0.243498,2.329,2.50119
0.880353,0.241826,2.313,2.48666
0.887861,0.241826,2.313,2.48933
0.901562,0.243498,2.329,2.50925
0.909121,0.243498,2.329,2.51198
0.916681,0.243498,2.329,2.51472
0.930589,0.245171,2.345,2.53478
0.944602,0.246844,2.361,2.5549
0.952265,0.246844,2.361,2.55775
0.966434,0.248517,2.377,2.57796
0.981116,0.250294,2.394,2.59932
0.988886,0.250294,2.394,2.60226
0.996657,0.250294,2.394,2.60523
1.01156,0.252072,2.411,2.62673
1.01938,0.252072,2.411,2.62975
1.03445,0.253849,2.428,2.65136
1.04963,0.255626,2.445,2.67303
1.05757,0.255626,2.445,2.67616
1.0655,0.255626,2.445,2.6793
1.07344,0.255626,2.445,2.68247
1.08138,0.255626,2.445,2.68566
1.08931,0.255626,2.445,2.68886
1.10533,0.257508,2.463,2.7119
1.11332,0.257508,2.463,2.71517
1.12131,0.257508,2.463,2.71846
1.12931,0.257508,2.463,2.72177
1.1373,0.257508,2.463,2.72509
1.1453,0.257508,2.463,2.72844
1.15329,0.257508,2.463,2.73181
1.16129,0.257508,2.463,2.73519
1.16928,0.257508,2.463,2.73859
1.17727,0.257508,2.463,2.74202
1.18527,0.257508,2.463,2.74546
1.19326,0.257508,2.463,2.74892
1.20126,0.257508,2.463,2.7524
1.20925,0.257508,2.463,2.7559
1.21725,0.257508,2.463,2.75941
1.22524,0.257508,2.463,2.76295
1.23323,0.257508,2.463,2.7665
1.24123,0.257508,2.463,2.77008
1.24922,0.257508,2.463,2.77367
1.25722,0.257508,2.463,2.77728
1.26521,0.257508,2.463,2.78091
1.27321,0.257508,2.463,2.78455
1.2812,0.257508,2.463,2.78822
1.28919,0.257508,2.463,2.7919
1.30667,0.25939,2.481,2.81603
1.31472,0.25939,2.481,2.81978
1.34197,0.263154,2.517,2.86451
1.37052,0.267127,2.555,2.91165
1.37881,0.267127,2.555,2.91556
1.40774,0.2711,2.593,2.96292
1.42708,0.273191,2.613,2.98981
1.45808,0.277477,2.654,3.04084
1.4667,0.277477,2.654,3.04498
1.49866,0.281868,2.696,3.09739
1.53145,0.286364,2.739,3.15111
1.54034,0.286364,2.739,3.15544
1.57412,0.290964,2.783,3.21054
1.59623,0.293369,2.806,3.24155
1.60534,0.293369,2.806,3.24605
1.61445,0.293369,2.806,3.25056
1.62356,0.293369,2.806,3.25509
1.63266,0.293369,2.806,3.25965
1.64177,0.293369,2.806,3.26422
1.65088,0.293369,2.806,3.26881
1.65999,0.293369,2.806,3.27342
1.65541,0.290964,2.783,3.25118
1.65129,0.288664,2.761,3.23005
1.66025,0.288664,2.761,3.23464
1.65591,0.286364,2.739,3.21344
1.65143,0.284064,2.717,3.19218
1.66025,0.284064,2.717,3.19675
1.65617,0.281868,2.696,3.17659
1.63898,0.277477,2.654,3.13161
1.64759,0.277477,2.654,3.13612
1.63062,0.273191,2.613,3.09214
1.61464,0.269113,2.574,3.0504
1.62299,0.269113,2.574,3.05483
1.61931,0.267127,2.555,3.0367
1.59193,0.261272,2.499,2.97447
1.58851,0.25939,2.481,2.95737
1.59657,0.25939,2.481,2.9617
1.59298,0.257508,2.463,2.94453
1.58927,0.255626,2.445,2.92731
1.59721,0.255626,2.445,2.93163
1.58282,0.252072,2.411,2.89513
1.59065,0.252072,2.411,2.89942
1.59847,0.252072,2.411,2.90372
1.59497,0.250294,2.394,2.88753
1.60274,0.250294,2.394,2.89183
1.61051,0.250294,2.394,2.89614
1.60679,0.248517,2.377,2.87987
1.60364,0.246844,2.361,2.86477
-1.78567,0.277465,2.574,3.14501
-1.79043,0.279514,2.593,3.16345
-1.79576,0.28167,2.613,3.18306
-1.78728,0.28167,2.613,3.17828
-1.79241,0.283825,2.633,3.19781
-1.7981,0.286089,2.654,3.2185
-1.8178,0.290617,2.696,3.26455
-1.80905,0.290617,2.696,3.25968
-1.82901,0.295252,2.739,3.30675
-1.83474,0.297623,2.761,3.32836
-1.82578,0.297623,2.761,3.32343
-1.8313,0.299995,2.783,3.34496
-1.82226,0.299995,2.783,3.34002
-1.82822,0.302474,2.806,3.36266
-1.81911,0.302474,2.806,3.35772
-1.82484,0.304953,2.829,3.38028
-1.81565,0.304953,2.829,3.37533
-1.80647,0.304953,2.829,3.3704
-1.79729,0.304953,2.829,3.36548
-1.78811,0.304953,2.829,3.36059
-1.77893,0.304953,2.829,3.35571
-1.76974,0.304953,2.829,3.35086
-1.76056,0.304953,2.829,3.34601
-1.75138,0.304953,2.829,3.34119
-1.72803,0.302474,2.806,3.30926
-1.70483,0.299995,2.783,3.27743
-1.6958,0.299995,2.783,3.27274
-1.67344,0.297623,2.761,3.24223
-1.63795,0.29288,2.717,3.18602
-1.62913,0.29288,2.717,3.1815
-1.59526,0.288353,2.675,3.12788
-1.56167,0.283825,2.633,3.07442
-1.55312,0.283825,2.633,3.07009
-1.52111,0.279514,2.593,3.0192
-1.49053,0.275417,2.555,2.97078
-1.48224,0.275417,2.555,2.96663
-1.44164,0.269381,2.499,2.89757
-1.4232,0.267441,2.481,2.8727
-1.41515,0.267441,2.481,2.86872
-1.38668,0.26356,2.445,2.82318
-1.36916,0.261727,2.428,2.79969
-1.36127,0.261727,2.428,2.79585
-1.35339,0.261727,2.428,2.79202
-1.33609,0.259895,2.411,2.76868
-1.32827,0.259895,2.411,2.76492
-1.32975,0.261727,2.428,2.78063
-1.32187,0.261727,2.428,2.77687
-1.33293,0.2655,2.463,2.81311
-1.33462,0.267441,2.481,2.82986
-1.32657,0.267441,2.481,2.82607
-1.32808,0.269381,2.499,2.84277
-1.33951,0.273369,2.536,2.88103
-1.35123,0.277465,2.574,2.92032
-1.34288,0.277465,2.574,2.91647
-1.35474,0.28167,2.613,2.95676
-1.35656,0.283825,2.633,2.97549
-1.34802,0.283825,2.633,2.9716
-1.35016,0.286089,2.654,2.9914
-1.36277,0.290617,2.696,3.0348
-1.35402,0.290617,2.696,3.03088
-1.33479,0.288353,2.675,3.00341
-1.32611,0.288353,2.675,2.99956
-1.31743,0.288353,2.675,2.99573
-1.29847,0.286089,2.654,2.96843
-1.27965,0.283825,2.633,2.94122
-1.2711,0.283825,2.633,2.93751
-1.25297,0.28167,2.613,2.91154
-1.22591,0.277465,2.574,2.86449
-1.21756,0.277465,2.574,2.86093
-1.20028,0.275417,2.555,2.83629
-1.18312,0.273369,2.536,2.81173
-1.15775,0.269381,2.499,2.7673
-1.14964,0.269381,2.499,2.76392
-1.1333,0.267441,2.481,2.74067
-1.11709,0.2655,2.463,2.71749
-1.10909,0.2655,2.463,2.71421
-1.09305,0.26356,2.445,2.69114
-1.07757,0.261727,2.428,2.66924
-1.06969,0.261727,2.428,2.66607
-1.06181,0.261727,2.428,2.66292
-1.05393,0.261727,2.428,2.65978
-1.04605,0.261727,2.428,2.65667
-1.03817,0.261727,2.428,2.65358
-1.03029,0.261727,2.428,2.6505
-1.02241,0.261727,2.428,2.64745
-1.01452,0.261727,2.428,2.64442
-1.00664,0.261727,2.428,2.6414
-0.998763,0.261727,2.428,2.63841
-0.990883,0.261727,2.428,2.63544
-0.983002,0.261727,2.428,2.63249
-0.975121,0.261727,2.428,2.62955
-0.967241,0.261727,2.428,2.62664
-0.95936,0.261727,2.428,2.62375
-0.951479,0.261727,2.428,2.62088
-0.943599,0.261727,2.428,2.61803
-0.935718,0.261727,2.428,2.6152
-0.927837,0.261727,2.428,2.61239
-0.919957,0.261727,2.428,2.6096
-0.912076,0.261727,2.428,2.60683
-0.897864,0.259895,2.411,2.58585
-0.890039,0.259895,2.411,2.58314
-0.882213,0.259895,2.411,2.58046
-0.874388,0.259895,2.411,2.57779
-0.866562,0.259895,2.411,2.57515
-0.858737,0.259895,2.411,2.57253
-0.850911,0.259895,2.411,2.56993
-0.843086,0.259895,2.411,2.56734
-0.84115,0.261727,2.428,2.58287
-0.833269,0.261727,2.428,2.58031
-0.825388,0.261727,2.428,2.57778
-0.817508,0.261727,2.428,2.57527
-0.809627,0.261727,2.428,2.57278
-0.801746,0.261727,2.428,2.57031
-0.793866,0.261727,2.428,2.56786
-0.785985,0.261727,2.428,2.56544
-0.778104,0.261727,2.428,2.56303
-0.770224,0.261727,2.428,2.56065
-0.762343,0.261727,2.428,2.55829
-0.759745,0.26356,2.445,2.57385
-0.751809,0.26356,2.445,2.57152
-0.743873,0.26356,2.445,2.56921
-0.735937,0.26356,2.445,2.56692
-0.728001,0.26356,2.445,2.56466
-0.720065,0.26356,2.445,2.56242
-0.717372,0.2655,2.463,2.57905
-0.709378,0.2655,2.463,2.57683
-0.701384,0.2655,2.463,2.57465
-0.693389,0.2655,2.463,2.57248
-0.690404,0.267441,2.481,2.58912
-0.682351,0.267441,2.481,2.58698
-0.674299,0.267441,2.481,2.58487
-0.666246,0.267441,2.481,2.58278
-0.658193,0.267441,2.481,2.58072
-0.65014,0.267441,2.481,2.57868
-0.646746,0.269381,2.499,2.59535
-0.638635,0.269381,2.499,2.59334
-0.630524,0.269381,2.499,2.59136
-0.622413,0.269381,2.499,2.58939
-0.614302,0.269381,2.499,2.58746
-0.606191,0.269381,2.499,2.58554
-0.598079,0.269381,2.499,2.58365
-0.589968,0.269381,2.499,2.58179
-0.581857,0.269381,2.499,2.57995
-0.573746,0.269381,2.499,2.57813
-0.565635,0.269381,2.499,2.57634
-0.557524,0.269381,2.499,2.57457
-0.549413,0.269381,2.499,2.57282
-0.541301,0.269381,2.499,2.5711
-0.53319,0.269381,2.499,2.56941
-0.521297,0.267441,2.481,2.54924
-0.513244,0.267441,2.481,2.54761
-0.508857,0.269381,2.499,2.56447
-0.500746,0.269381,2.499,2.56287
-0.492635,0.269381,2.499,2.5613
-0.484524,0.269381,2.499,2.55975
-0.476412,0.269381,2.499,2.55823
-0.468301,0.269381,2.499,2.55673
-0.46019,0.269381,2.499,2.55526
-0.448823,0.267441,2.481,2.53541
-0.44077,0.267441,2.481,2.534
-0.432717,0.267441,2.481,2.53261
-0.424665,0.267441,2.481,2.53125
-0.416612,0.267441,2.481,2.52991
-0.411523,0.269381,2.499,2.54694
-0.403412,0.269381,2.499,2.54564
-0.395301,0.269381,2.499,2.54437
-0.38719,0.269381,2.499,2.54312
-0.379079,0.269381,2.499,2.5419
-0.370968,0.269381,2.499,2.54071
-0.36547,0.271321,2.517,2.55783
-0.357301,0.271321,2.517,2.55667
-0.349131,0.271321,2.517,2.55554
-0.340961,0.271321,2.517,2.55444
-0.332792,0.271321,2.517,2.55336
-0.324622,0.271321,2.517,2.55231
-0.316453,0.271321,2.517,2.55128
-0.308283,0.271321,2.517,2.55028
-0.300114,0.271321,2.517,2.54931
-0.291944,0.271321,2.517,2.54836
-0.281745,0.269381,2.499,2.52922
-0.273634,0.269381,2.499,2.52833
-0.265523,0.269381,2.499,2.52746
-0.257412,0.269381,2.499,2.52662
-0.249301,0.269381,2.499,2.52581
-0.239452,0.267441,2.481,2.50684
-0.2314,0.267441,2.481,2.50608
-0.223347,0.267441,2.481,2.50535
-0.215294,0.267441,2.481,2.50464
-0.207241,0.267441,2.481,2.50396
-0.199189,0.267441,2.481,2.50331
-0.192523,0.269381,2.499,2.52084
-0.184412,0.269381,2.499,2.52023
-0.1763,0.269381,2.499,2.51965
-0.168189,0.269381,2.499,2.5191
-0.160078,0.269381,2.499,2.51857
-0.151967,0.269381,2.499,2.51807
-0.143856,0.269381,2.499,2.51759
-0.136723,0.271321,2.517,2.53527
-0.128553,0.271321,2.517,2.53484
-0.120383,0.271321,2.517,2.53444
-0.112214,0.271321,2.517,2.53407
-0.104044,0.271321,2.517,2.53372
-0.0958747,0.271321,2.517,2.5334
-0.0877052,0.271321,2.517,2.5331
-0.0795356,0.271321,2.517,2.53283
-0.0713661,0.271321,2.517,2.53259
-0.0631965,0.271321,2.517,2.53237
-0.055027,0.271321,2.517,2.53218
-0.0468574,0.271321,2.517,2.53202
-0.0386878,0.271321,2.517,2.53188
-0.0305183,0.271321,2.517,2.53177
-0.0221889,0.269381,2.499,2.51358
-0.0140778,0.269381,2.499,2.51352
-0.00596664,0.269381,2.499,2.51348
0.00214449,0.269381,2.499,2.51348
0.0101818,0.267441,2.481,2.49539
0.0182345,0.267441,2.481,2.49544
0.0262872,0.267441,2.481,2.49551
0.0343399,0.267441,2.481,2.49561
0.0423926,0.267441,2.481,2.49573
0.0504453,0.267441,2.481,2.49588
0.058498,0.267441,2.481,2.49606
0.0665507,0.267441,2.481,2.49626
0.0746034,0.267441,2.481,2.49649
0.0826561,0.267441,2.481,2.49674
0.0907089,0.267441,2.481,2.49702
0.0987616,0.267441,2.481,2.49733
0.106814,0.267441,2.481,2.49766
0.1157,0.269381,2.499,2.51614
0.123811,0.269381,2.499,2.51652
0.131923,0.269381,2.499,2.51694
0.140034,0.269381,2.499,2.51737
0.148145,0.269381,2.499,2.51784
0.157382,0.271321,2.517,2.53647
0.165551,0.271321,2.517,2.53699
0.173721,0.271321,2.517,2.53753
0.18189,0.271321,2.517,2.53811
0.19006,0.271321,2.517,2.53871
0.198229,0.271321,2.517,2.53933
0.206399,0.271321,2.517,2.53998
0.214568,0.271321,2.517,2.54066
0.222738,0.271321,2.517,2.54136
0.230908,0.271321,2.517,2.54209
0.239077,0.271321,2.517,2.54285
0.245479,0.269381,2.499,2.52544
0.25359,0.269381,2.499,2.52624
0.261701,0.269381,2.499,2.52706
0.269812,0.269381,2.499,2.52792
0.277923,0.269381,2.499,2.5288
0.286034,0.269381,2.499,2.5297
0.294145,0.269381,2.499,2.53063
0.300079,0.267441,2.481,2.51335
0.308132,0.267441,2.481,2.51433
0.316185,0.267441,2.481,2.51532
0.324237,0.267441,2.481,2.51635
0.33229,0.267441,2.481,2.5174
0.340343,0.267441,2.481,2.51848
0.348396,0.267441,2.481,2.51958
0.356448,0.267441,2.481,2.5207
0.364501,0.267441,2.481,2.52185
0.372554,0.267441,2.481,2.52303
0.380606,0.267441,2.481,2.52423
0.388659,0.267441,2.481,2.52546
0.396712,0.267441,2.481,2.52671
0.401828,0.2655,2.463,2.50965
0.409822,0.2655,2.463,2.51094
0.417816,0.2655,2.463,2.51226
0.425811,0.2655,2.463,2.5136
0.433805,0.2655,2.463,2.51496
0.441799,0.2655,2.463,2.51636
0.449794,0.2655,2.463,2.51777
0.457788,0.2655,2.463,2.51921
0.465782,0.2655,2.463,2.52068
0.473776,0.2655,2.463,2.52217
0.481771,0.2655,2.463,2.52368
0.489765,0.2655,2.463,2.52522
0.497759,0.2655,2.463,2.52678
0.505754,0.2655,2.463,2.52837
0.513748,0.2655,2.463,2.52998
0.521742,0.2655,2.463,2.53162
0.529737,0.2655,2.463,2.53327
0.537731,0.2655,2.463,2.53496
0.541737,0.26356,2.445,2.51813
0.549673,0.26356,2.445,2.51985
0.557609,0.26356,2.445,2.52159
0.565544,0.26356,2.445,2.52336
0.57348,0.26356,2.445,2.52515
0.577374,0.261727,2.428,2.50939
0.585254,0.261727,2.428,2.51122
0.593135,0.261727,2.428,2.51306
0.596808,0.259895,2.411,2.49733
0.604633,0.259895,2.411,2.49921
0.612459,0.259895,2.411,2.50111
0.611537,0.25623,2.377,2.46774
0.619252,0.25623,2.377,2.46967
0.626967,0.25623,2.377,2.47161
0.634682,0.25623,2.377,2.47358
0.638073,0.254505,2.361,2.45891
0.645737,0.254505,2.361,2.46091
0.648972,0.25278,2.345,2.44624
0.656583,0.25278,2.345,2.44827
0.664194,0.25278,2.345,2.45032
0.667222,0.251056,2.329,2.43566
0.670146,0.249331,2.313,2.421
0.677653,0.249331,2.313,2.42309
0.680717,0.247714,2.298,2.40947
0.688176,0.247714,2.298,2.41159
0.695635,0.247714,2.298,2.41373
0.698198,0.245989,2.282,2.39907
0.705605,0.245989,2.282,2.40123
0.713012,0.245989,2.282,2.40342
0.715683,0.244372,2.267,2.38981
0.723041,0.244372,2.267,2.39203
0.730399,0.244372,2.267,2.39426
0.737757,0.244372,2.267,2.39652
0.745115,0.244372,2.267,2.39879
0.747495,0.242755,2.252,2.3852
0.754804,0.242755,2.252,2.3875
0.762114,0.242755,2.252,2.38982
0.769423,0.242755,2.252,2.39216
0.776732,0.242755,2.252,2.39452
0.784042,0.242755,2.252,2.39691
0.796622,0.244372,2.267,2.41529
0.80398,0.244372,2.267,2.41772
0.811339,0.244372,2.267,2.42018
0.818697,0.244372,2.267,2.42266
0.83152,0.245989,2.282,2.4412
0.844809,0.247714,2.298,2.46087
0.852268,0.247714,2.298,2.46344
0.859727,0.247714,2.298,2.46603
0.867186,0.247714,2.298,2.46864
0.874644,0.247714,2.298,2.47127
0.887861,0.249331,2.313,2.49007
0.895368,0.249331,2.313,2.49275
0.902876,0.249331,2.313,2.49546
0.910383,0.249331,2.313,2.49819
0.92424,0.251056,2.329,2.51823
0.938201,0.25278,2.345,2.53833
0.945812,0.25278,2.345,2.54116
0.959929,0.254505,2.361,2.56136
0.974149,0.25623,2.377,2.58162
0.981864,0.25623,2.377,2.58454
0.996657,0.258062,2.394,2.60598
1.00443,0.258062,2.394,2.60897
1.0122,0.258062,2.394,2.61197
1.02721,0.259895,2.411,2.63356
1.04233,0.261727,2.428,2.65521
1.05757,0.26356,2.445,2.67693
1.0655,0.26356,2.445,2.68007
1.07344,0.26356,2.445,2.68324
1.08138,0.26356,2.445,2.68642
1.08931,0.26356,2.445,2.68963
1.09725,0.26356,2.445,2.69285
1.10518,0.26356,2.445,2.69609
1.11312,0.26356,2.445,2.69936
1.12931,0.2655,2.463,2.72253
1.1373,0.2655,2.463,2.72586
1.1453,0.2655,2.463,2.72921
1.15329,0.2655,2.463,2.73257
1.16129,0.2655,2.463,2.73595
1.16928,0.2655,2.463,2.73936
1.17727,0.2655,2.463,2.74278
1.18527,0.2655,2.463,2.74622
1.19326,0.2655,2.463,2.74968
1.20126,0.2655,2.463,2.75316
1.20925,0.2655,2.463,2.75665
1.21725,0.2655,2.463,2.76017
1.22524,0.2655,2.463,2.76371
1.23323,0.2655,2.463,2.76726
1.24123,0.2655,2.463,2.77083
1.24922,0.2655,2.463,2.77442
1.25722,0.2655,2.463,2.77803
1.26521,0.2655,2.463,2.78166
1.27321,0.2655,2.463,2.7853
1.2812,0.2655,2.463,2.78897
1.28919,0.2655,2.463,2.79265
1.30667,0.267441,2.481,2.81678
1.31472,0.267441,2.481,2.82053
1.34197,0.271321,2.517,2.86527
1.37052,0.275417,2.555,2.91242
1.37881,0.275417,2.555,2.91633
1.40774,0.279514,2.593,2.9637
1.42708,0.28167,2.613,2.99059
1.45808,0.286089,2.654,3.04164
1.4667,0.286089,2.654,3.04578
1.49866,0.290617,2.696,3.0982
1.53145,0.295252,2.739,3.15193
1.54034,0.295252,2.739,3.15625
1.57412,0.299995,2.783,3.21138
1.59623,0.302474,2.806,3.24239
1.60534,0.302474,2.806,3.24688
1.61445,0.302474,2.806,3.2514
1.62356,0.302474,2.806,3.25593
1.63266,0.302474,2.806,3.26048
1.64177,0.302474,2.806,3.26505
1.65088,0.302474,2.806,3.26964
1.65999,0.302474,2.806,3.27425
1.65541,0.299995,2.783,3.252
1.65129,0.297623,2.761,3.23086
1.66025,0.297623,2.761,3.23545
1.66921,0.297623,2.761,3.24006
1.65143,0.29288,2.717,3.19298
1.66025,0.29288,2.717,3.19755
1.65617,0.290617,2.696,3.17738
1.63898,0.286089,2.654,3.13238
1.64759,0.286089,2.654,3.1369
1.63062,0.28167,2.613,3.0929
1.61464,0.277465,2.574,3.05115
1.62299,0.277465,2.574,3.05558
1.61931,0.275417,2.555,3.03744
1.59193,0.269381,2.499,2.9752
1.58851,0.267441,2.481,2.95808
1.59657,0.267441,2.481,2.96242
1.59298,0.2655,2.463,2.94524
1.58927,0.26356,2.445,2.92801
1.59721,0.26356,2.445,2.93233
1.58282,0.259895,2.411,2.89582
1.59065,0.259895,2.411,2.90011
1.59847,0.259895,2.411,2.90441
1.59497,0.258062,2.394,2.88821
1.60274,0.258062,2.394,2.89251
1.61051,0.258062,2.394,2.89682
1.60679,0.25623,2.377,2.88055
1.60364,0.254505,2.361,2.86544
-1.78567,0.285818,2.574,3.14576
-1.79043,0.287927,2.593,3.16421
-1.79576,0.290148,2.613,3.18382
-1.78728,0.290148,2.613,3.17904
-1.80671,0.294701,2.654,3.22409
-1.81232,0.297033,2.675,3.24474
-1.83196,0.301696,2.717,3.29077
-1.82314,0.301696,2.717,3.28587
-1.82901,0.304139,2.739,3.30755
-1.84936,0.309025,2.783,3.3557
-1.84033,0.309025,2.783,3.35073
-1.84643,0.311579,2.806,3.37343
-1.83732,0.311579,2.806,3.36845
-1.82822,0.311579,2.806,3.36349
-1.81911,0.311579,2.806,3.35855
-1.82484,0.314133,2.829,3.38112
-1.81565,0.314133,2.829,3.37617
-1.80647,0.314133,2.829,3.37124
-1.79729,0.314133,2.829,3.36633
-1.78811,0.314133,2.829,3.36144
-1.77893,0.314133,2.829,3.35656
-1.76974,0.314133,2.829,3.3517
-1.76056,0.314133,2.829,3.34686
-1.75138,0.314133,2.829,3.34204
-1.72803,0.311579,2.806,3.31011
-1.70483,0.309025,2.783,3.27827
-1.6958,0.309025,2.783,3.27358
-1.67344,0.306582,2.761,3.24307
-1.63795,0.301696,2.717,3.18685
-1.62913,0.301696,2.717,3.18232
-1.59526,0.297033,2.675,3.12869
-1.56167,0.292369,2.633,3.07522
-1.55312,0.292369,2.633,3.07089
-1.52111,0.287927,2.593,3.01999
-1.49053,0.283708,2.555,2.97156
-1.48224,0.283708,2.555,2.96741
-1.44164,0.27749,2.499,2.89833
-1.4232,0.275491,2.481,2.87346
-1.41515,0.275491,2.481,2.86948
-1.38668,0.271494,2.445,2.82394
-1.36916,0.269606,2.428,2.80044
-1.36127,0.269606,2.428,2.79659
-1.35339,0.269606,2.428,2.79277
-1.33609,0.267718,2.411,2.76943
-1.32827,0.267718,2.411,2.76566
-1.32975,0.269606,2.428,2.78139
-1.32187,0.269606,2.428,2.77763
-1.33293,0.273492,2.463,2.81387
-1.33462,0.275491,2.481,2.83063
-1.32657,0.275491,2.481,2.82684
-1.32808,0.27749,2.499,2.84355
-1.33951,0.281598,2.536,2.88182
-1.35123,0.285818,2.574,2.92113
-1.34288,0.285818,2.574,2.91727
-1.35474,0.290148,2.613,2.95758
-1.35656,0.292369,2.633,2.97631
-1.34802,0.292369,2.633,2.97243
-1.35016,0.294701,2.654,2.99224
-1.36277,0.299365,2.696,3.03565
-1.35402,0.299365,2.696,3.03173
-1.33479,0.297033,2.675,3.00425
-1.32611,0.297033,2.675,3.0004
-1.31743,0.297033,2.675,2.99658
-1.29847,0.294701,2.654,2.96927
-1.27965,0.292369,2.633,2.94205
-1.2711,0.292369,2.633,2.93835
-1.25297,0.290148,2.613,2.91237
-1.23496,0.287927,2.593,2.88647
-1.22654,0.287927,2.593,2.88287
-1.20028,0.283708,2.555,2.83711
-1.18312,0.281598,2.536,2.81254
-1.15775,0.27749,2.499,2.7681
-1.14964,0.27749,2.499,2.76472
-1.1333,0.275491,2.481,2.74147
-1.11709,0.273492,2.463,2.71828
-1.10909,0.273492,2.463,2.71501
-1.09305,0.271494,2.445,2.69193
-1.07757,0.269606,2.428,2.67002
-1.06969,0.269606,2.428,2.66685
-1.06181,0.269606,2.428,2.6637
-1.05393,0.269606,2.428,2.66057
-1.04605,0.269606,2.428,2.65746
-1.03817,0.269606,2.428,2.65437
-1.03029,0.269606,2.428,2.65129
-1.02241,0.269606,2.428,2.64824
-1.01452,0.269606,2.428,2.64521
-1.00664,0.269606,2.428,2.6422
-0.998763,0.269606,2.428,2.6392
-0.990883,0.269606,2.428,2.63623
-0.983002,0.269606,2.428,2.63328
-0.975121,0.269606,2.428,2.63035
-0.967241,0.269606,2.428,2.62744
-0.95936,0.269606,2.428,2.62455
-0.958141,0.271494,2.445,2.64003
-0.943599,0.269606,2.428,2.61883
-0.935718,0.269606,2.428,2.616
-0.927837,0.269606,2.428,2.61319
-0.919957,0.269606,2.428,2.6104
-0.912076,0.269606,2.428,2.60763
-0.904195,0.269606,2.428,2.60489
-0.890039,0.267718,2.411,2.58394
-0.882213,0.267718,2.411,2.58126
-0.874388,0.267718,2.411,2.57859
-0.866562,0.267718,2.411,2.57595
-0.864792,0.269606,2.428,2.59147
-0.856911,0.269606,2.428,2.58885
-0.84903,0.269606,2.428,2.58626
-0.84115,0.269606,2.428,2.58368
-0.833269,0.269606,2.428,2.58113
-0.825388,0.269606,2.428,2.57859
-0.817508,0.269606,2.428,2.57608
-0.809627,0.269606,2.428,2.57359
-0.801746,0.269606,2.428,2.57112
-0.793866,0.269606,2.428,2.56868
-0.791488,0.271494,2.445,2.58422
-0.783552,0.271494,2.445,2.5818
-0.775616,0.271494,2.445,2.5794
-0.767681,0.271494,2.445,2.57703
-0.759745,0.271494,2.445,2.57467
-0.751809,0.271494,2.445,2.57234
-0.743873,0.271494,2.445,2.57004
-0.741355,0.273492,2.463,2.58665
-0.733361,0.273492,2.463,2.58437
-0.725366,0.273492,2.463,2.58212
-0.717372,0.273492,2.463,2.57988
-0.709378,0.273492,2.463,2.57767
-0.701384,0.273492,2.463,2.57548
-0.698457,0.275491,2.481,2.59212
-0.690404,0.275491,2.481,2.58996
-0.682351,0.275491,2.481,2.58783
-0.674299,0.275491,2.481,2.58572
-0.67108,0.27749,2.499,2.60237
-0.662968,0.27749,2.499,2.60029
-0.654857,0.27749,2.499,2.59824
-0.646746,0.27749,2.499,2.59621
-0.638635,0.27749,2.499,2.5942
-0.630524,0.27749,2.499,2.59221
-0.626896,0.279488,2.517,2.60891
-0.618726,0.279488,2.517,2.60696
-0.606191,0.27749,2.499,2.5864
-0.598079,0.27749,2.499,2.58451
-0.589968,0.27749,2.499,2.58265
-0.581857,0.27749,2.499,2.58081
-0.573746,0.27749,2.499,2.57899
-0.565635,0.27749,2.499,2.5772
-0.557524,0.27749,2.499,2.57543
-0.549413,0.27749,2.499,2.57369
-0.541301,0.27749,2.499,2.57197
-0.53319,0.27749,2.499,2.57027
-0.525079,0.27749,2.499,2.5686
-0.516968,0.27749,2.499,2.56695
-0.508857,0.27749,2.499,2.56533
-0.500746,0.27749,2.499,2.56374
-0.492635,0.27749,2.499,2.56217
-0.484524,0.27749,2.499,2.56062
-0.476412,0.27749,2.499,2.5591
-0.468301,0.27749,2.499,2.5576
-0.46019,0.27749,2.499,2.55613
-0.448823,0.275491,2.481,2.53628
-0.44077,0.275491,2.481,2.53486
-0.432717,0.275491,2.481,2.53348
-0.424665,0.275491,2.481,2.53211
-0.416612,0.275491,2.481,2.53078
-0.411523,0.27749,2.499,2.54781
-0.403412,0.27749,2.499,2.54652
-0.395301,0.27749,2.499,2.54524
-0.38719,0.27749,2.499,2.544
-0.379079,0.27749,2.499,2.54277
