0.939944,0.613444,2.05,2.33716
0.952139,0.617035,2.062,2.35354
0.958831,0.617035,2.062,2.35625
0.965524,0.617035,2.062,2.35899
0.972217,0.617035,2.062,2.36173
0.978909,0.617035,2.062,2.3645
0.985602,0.617035,2.062,2.36727
0.992295,0.617035,2.062,2.37007
0.998988,0.617035,2.062,2.37288
1.00568,0.617035,2.062,2.3757
1.01876,0.620925,2.075,2.39354
1.02549,0.620925,2.075,2.39641
1.03223,0.620925,2.075,2.3993
1.03896,0.620925,2.075,2.40221
1.0457,0.620925,2.075,2.40513
1.05243,0.620925,2.075,2.40807
1.05917,0.620925,2.075,2.41102
1.07206,0.624516,2.087,2.42794
1.07884,0.624516,2.087,2.43094
1.08561,0.624516,2.087,2.43396
1.09239,0.624516,2.087,2.43699
1.09916,0.624516,2.087,2.44003
1.10593,0.624516,2.087,2.44309
1.11964,0.628406,2.1,2.4614
1.12646,0.628406,2.1,2.46451
1.13327,0.628406,2.1,2.46763
1.14009,0.628406,2.1,2.47077
1.1469,0.628406,2.1,2.47392
1.15372,0.628406,2.1,2.47709
1.16054,0.628406,2.1,2.48027
1.16735,0.628406,2.1,2.48347
1.18144,0.632296,2.113,2.50207
1.18829,0.632296,2.113,2.50532
1.20251,0.636186,2.126,2.52401
1.20941,0.636186,2.126,2.52731
1.20887,0.632296,2.113,2.51514
1.21573,0.632296,2.113,2.51844
1.22259,0.632296,2.113,2.52176
1.22188,0.628406,2.1,2.50956
1.2287,0.628406,2.1,2.51288
1.23551,0.628406,2.1,2.51622
1.22754,0.620925,2.075,2.48958
1.22654,0.617035,2.062,2.47729
1.23323,0.617035,2.062,2.48061
1.23993,0.617035,2.062,2.48395
1.23211,0.609853,2.038,2.45834
1.23143,0.606262,2.026,2.44717
1.23801,0.606262,2.026,2.45049
1.24458,0.606262,2.026,2.45382
1.25116,0.606262,2.026,2.45716
1.25773,0.606262,2.026,2.46051
1.26431,0.606262,2.026,2.46388
1.26336,0.602671,2.014,2.45265
1.2699,0.602671,2.014,2.45602
1.27643,0.602671,2.014,2.45941
1.28297,0.602671,2.014,2.46281
1.28951,0.602671,2.014,2.46622
1.29604,0.602671,2.014,2.46964
1.29482,0.59908,2.002,2.45834
1.30132,0.59908,2.002,2.46177
1.30781,0.59908,2.002,2.46521
1.31431,0.59908,2.002,2.46867
1.32081,0.59908,2.002,2.47213
1.32731,0.59908,2.002,2.47561
1.33381,0.59908,2.002,2.4791
1.3403,0.59908,2.002,2.4826
1.3468,0.59908,2.002,2.48612
1.3533,0.59908,2.002,2.48964
1.3598,0.59908,2.002,2.49318
-1.70866,0.745022,2.463,3.08884
-1.70067,0.745022,2.463,3.08443
-1.69268,0.745022,2.463,3.08003
-1.69699,0.750467,2.481,3.09812
-1.68894,0.750467,2.481,3.09372
-1.68089,0.750467,2.481,3.08933
-1.68497,0.755912,2.499,3.10734
-1.68894,0.761356,2.517,3.12529
-1.68077,0.761356,2.517,3.12089
-1.68523,0.767104,2.536,3.14002
-1.68956,0.772851,2.555,3.1591
-1.68127,0.772851,2.555,3.15468
-1.67297,0.772851,2.555,3.15026
-1.67706,0.778598,2.574,3.16926
-1.6687,0.778598,2.574,3.16485
-1.66035,0.778598,2.574,3.16045
-1.6398,0.772851,2.555,3.13277
-1.63151,0.772851,2.555,3.12844
-1.62322,0.772851,2.555,3.12412
-1.61492,0.772851,2.555,3.11982
-1.60663,0.772851,2.555,3.11554
-1.58645,0.767104,2.536,3.08813
-1.5664,0.761356,2.517,3.06081
-1.55823,0.761356,2.517,3.05664
-1.53897,0.755912,2.499,3.03065
-1.51983,0.750467,2.481,3.00474
-1.50081,0.745022,2.463,2.9789
-1.49282,0.745022,2.463,2.97488
-1.48482,0.745022,2.463,2.97088
-1.46604,0.739577,2.445,2.94521
-1.4581,0.739577,2.445,2.94127
-1.45016,0.739577,2.445,2.93734
-1.4322,0.734435,2.428,2.91304
-1.42432,0.734435,2.428,2.90917
-1.41644,0.734435,2.428,2.90532
-1.3987,0.729293,2.411,2.88117
-1.39087,0.729293,2.411,2.87738
-1.38305,0.729293,2.411,2.8736
-1.37522,0.729293,2.411,2.86985
-1.36739,0.729293,2.411,2.86611
-1.35957,0.729293,2.411,2.86238
-1.35174,0.729293,2.411,2.85867
-1.34392,0.729293,2.411,2.85498
-1.34551,0.734435,2.428,2.87141
-1.32827,0.729293,2.411,2.84765
-1.32044,0.729293,2.411,2.844
-1.31262,0.729293,2.411,2.84038
-1.30479,0.729293,2.411,2.83677
-1.29697,0.729293,2.411,2.83318
-1.29823,0.734435,2.428,2.84956
-1.29035,0.734435,2.428,2.84598
-1.28247,0.734435,2.428,2.84241
-1.27459,0.734435,2.428,2.83886
-1.26671,0.734435,2.428,2.83534
-1.25883,0.734435,2.428,2.83182
-1.25095,0.734435,2.428,2.82833
-1.24306,0.734435,2.428,2.82485
-1.22654,0.729293,2.411,2.80164
-1.21012,0.724151,2.394,2.77849
-1.20235,0.724151,2.394,2.77512
-1.19458,0.724151,2.394,2.77176
-1.17838,0.719008,2.377,2.74876
-1.17066,0.719008,2.377,2.74546
-1.16295,0.719008,2.377,2.74218
-1.14746,0.714169,2.361,2.72048
-1.13207,0.709329,2.345,2.69884
-1.12446,0.709329,2.345,2.69566
-1.10923,0.704489,2.329,2.67412
-1.10167,0.704489,2.329,2.671
-1.09411,0.704489,2.329,2.66789
-1.07209,0.695112,2.298,2.62933
-1.06463,0.695112,2.298,2.62629
-1.06407,0.699649,2.313,2.6404
-1.04971,0.695112,2.298,2.62028
-1.03499,0.690272,2.282,2.59908
-1.02083,0.685735,2.267,2.57907
-1.01348,0.685735,2.267,2.57617
-1.00612,0.685735,2.267,2.57328
-0.99215,0.681198,2.252,2.55341
-0.984841,0.681198,2.252,2.55058
-0.977531,0.681198,2.252,2.54776
-0.96376,0.67666,2.237,2.52802
-0.956499,0.67666,2.237,2.52526
-0.949238,0.67666,2.237,2.52252
-0.941977,0.67666,2.237,2.51979
-0.934717,0.67666,2.237,2.51709
-0.927456,0.67666,2.237,2.5144
-0.920195,0.67666,2.237,2.51173
-0.912934,0.67666,2.237,2.50908
-0.905674,0.67666,2.237,2.50645
-0.898413,0.67666,2.237,2.50383
-0.897128,0.681198,2.252,2.51801
-0.889818,0.681198,2.252,2.51541
-0.882509,0.681198,2.252,2.51284
-0.875199,0.681198,2.252,2.51028
-0.86789,0.681198,2.252,2.50774
-0.860581,0.681198,2.252,2.50522
-0.853271,0.681198,2.252,2.50272
-0.851596,0.685735,2.267,2.51689
-0.849824,0.690272,2.282,2.53105
-0.842418,0.690272,2.282,2.52857
-0.835011,0.690272,2.282,2.52611
-0.833407,0.695112,2.298,2.54137
-0.825948,0.695112,2.298,2.53893
-0.829531,0.704489,2.329,2.57073
-0.827618,0.709329,2.345,2.58595
-0.831197,0.719008,2.377,2.61878
-0.823481,0.719008,2.377,2.61634
-0.821601,0.724151,2.394,2.63261
-0.81383,0.724151,2.394,2.6302
-0.80606,0.724151,2.394,2.62781
-0.79829,0.724151,2.394,2.62543
-0.790519,0.724151,2.394,2.62308
-0.777191,0.719008,2.377,2.60214
-0.764296,0.714169,2.361,2.58235
-0.756633,0.714169,2.361,2.58009
-0.748969,0.714169,2.361,2.57785
-0.736283,0.709329,2.345,2.55818
-0.7237,0.704489,2.329,2.53856
-0.71614,0.704489,2.329,2.53642
-0.708581,0.704489,2.329,2.53429
-0.696206,0.699649,2.313,2.51479
-0.688698,0.699649,2.313,2.51272
-0.672061,0.690272,2.282,2.47703
-0.664654,0.690272,2.282,2.47503
-0.657247,0.690272,2.282,2.47305
-0.649841,0.690272,2.282,2.47109
-0.638211,0.685735,2.267,2.45292
-0.630853,0.685735,2.267,2.45102
-0.619369,0.681198,2.252,2.43293
-0.61206,0.681198,2.252,2.43108
-0.60475,0.681198,2.252,2.42925
-0.609644,0.695112,2.298,2.47702
-0.597993,0.690272,2.282,2.45797
-0.590586,0.690272,2.282,2.45617
-0.587268,0.695112,2.298,2.47161
-0.575773,0.690272,2.282,2.45265
-0.568366,0.690272,2.282,2.45093
-0.560959,0.690272,2.282,2.44922
-0.553552,0.690272,2.282,2.44753
-0.546145,0.690272,2.282,2.44587
-0.538739,0.690272,2.282,2.44423
-0.535057,0.695112,2.298,2.45973
-0.527598,0.695112,2.298,2.45812
-0.52014,0.695112,2.298,2.45653
-0.516027,0.699649,2.313,2.47098
-0.50852,0.699649,2.313,2.46943
-0.501013,0.699649,2.313,2.46789
-0.496919,0.704489,2.329,2.48344
-0.485998,0.699649,2.313,2.46489
-0.47849,0.699649,2.313,2.46342
-0.470983,0.699649,2.313,2.46197
-0.463475,0.699649,2.313,2.46055
-0.455968,0.699649,2.313,2.45914
-0.448461,0.699649,2.313,2.45776
-0.444003,0.704489,2.329,2.4734
-0.433446,0.699649,2.313,2.45507
-0.425938,0.699649,2.313,2.45375
-0.418431,0.699649,2.313,2.45246
-0.410923,0.699649,2.313,2.45119
-0.403416,0.699649,2.313,2.44994
-0.395909,0.699649,2.313,2.44872
-0.388401,0.699649,2.313,2.44752
-0.378424,0.695112,2.298,2.43047
-0.370965,0.695112,2.298,2.42932
-0.365879,0.699649,2.313,2.44404
-0.356047,0.695112,2.298,2.42709
-0.348589,0.695112,2.298,2.426
-0.34113,0.695112,2.298,2.42494
-0.331348,0.690272,2.282,2.40703
-0.317553,0.67666,2.237,2.35858
-0.310292,0.67666,2.237,2.35761
-0.303032,0.67666,2.237,2.35666
-0.29392,0.672426,2.223,2.341
-0.286705,0.672426,2.223,2.3401
-0.277729,0.668191,2.209,2.3245
-0.268722,0.663653,2.194,2.30787
-0.261601,0.663653,2.194,2.30706
-0.252856,0.659419,2.18,2.29154
-0.244314,0.655486,2.167,2.27711
-0.237281,0.655486,2.167,2.27637
-0.230247,0.655486,2.167,2.27565
-0.221772,0.651252,2.153,2.26025
-0.213487,0.647319,2.14,2.24593
-0.206541,0.647319,2.14,2.24528
-0.198289,0.643084,2.126,2.22997
-0.191389,0.643084,2.126,2.22936
-0.184488,0.643084,2.126,2.22878
-0.176502,0.639152,2.113,2.2146
-0.1686,0.63522,2.1,2.20044
-0.161784,0.63522,2.1,2.19993
-0.154968,0.63522,2.1,2.19944
-0.148152,0.63522,2.1,2.19897
-0.141336,0.63522,2.1,2.19852
-0.134519,0.63522,2.1,2.19809
-0.126913,0.631288,2.087,2.18408
-0.120139,0.631288,2.087,2.1837
-0.113365,0.631288,2.087,2.18333
-0.106591,0.631288,2.087,2.18299
-0.0998173,0.631288,2.087,2.18267
-0.0930434,0.631288,2.087,2.18237
-0.0862696,0.631288,2.087,2.18209
-0.0790386,0.627658,2.075,2.16929
-0.0723036,0.627658,2.075,2.16906
-0.0655687,0.627658,2.075,2.16884
-0.059174,0.631288,2.087,2.18119
-0.0524001,0.631288,2.087,2.18102
-0.0456262,0.631288,2.087,2.18087
-0.0388524,0.631288,2.087,2.18073
-0.0316942,0.623725,2.062,2.1545
-0.0250015,0.623725,2.062,2.15441
-0.0183087,0.623725,2.062,2.15435
-0.011616,0.623725,2.062,2.1543
-0.00492325,0.623725,2.062,2.15428
0.00176949,0.623725,2.062,2.15427
0.00846223,0.623725,2.062,2.15429
0.015155,0.623725,2.062,2.15432
0.0218477,0.623725,2.062,2.15438
0.0285404,0.623725,2.062,2.15446
0.0352332,0.623725,2.062,2.15456
0.0419259,0.623725,2.062,2.15468
0.0483357,0.620096,2.05,2.14228
0.0549895,0.620096,2.05,2.14244
0.0620041,0.623725,2.062,2.15516
0.0686969,0.623725,2.062,2.15536
0.0753896,0.623725,2.062,2.15559
0.0820824,0.623725,2.062,2.15583
0.0887751,0.623725,2.062,2.1561
0.0949123,0.620096,2.05,2.14383
0.101566,0.620096,2.05,2.14414
0.10822,0.620096,2.05,2.14447
0.114874,0.620096,2.05,2.14481
0.121527,0.620096,2.05,2.14518
0.128181,0.620096,2.05,2.14557
0.134046,0.616466,2.038,2.13341
0.140661,0.616466,2.038,2.13384
0.148143,0.620096,2.05,2.14685
0.154796,0.620096,2.05,2.14732
0.16145,0.620096,2.05,2.14781
0.168104,0.620096,2.05,2.14832
0.174758,0.620096,2.05,2.14885
0.181412,0.620096,2.05,2.1494
0.188065,0.620096,2.05,2.14997
0.194719,0.620096,2.05,2.15057
0.201373,0.620096,2.05,2.15118
0.208027,0.620096,2.05,2.15181
0.214681,0.620096,2.05,2.15247
0.221334,0.620096,2.05,2.15314
0.227988,0.620096,2.05,2.15383
0.234642,0.620096,2.05,2.15455
0.241296,0.620096,2.05,2.15528
0.247949,0.620096,2.05,2.15604
0.254603,0.620096,2.05,2.15681
0.261257,0.620096,2.05,2.15761
0.267911,0.620096,2.05,2.15842
0.274565,0.620096,2.05,2.15926
0.281218,0.620096,2.05,2.16012
0.287872,0.620096,2.05,2.16099
0.294526,0.620096,2.05,2.16189
0.302943,0.623725,2.062,2.17547
0.309636,0.623725,2.062,2.17641
0.316328,0.623725,2.062,2.17737
0.323021,0.623725,2.062,2.17835
0.329714,0.623725,2.062,2.17936
0.338527,0.627658,2.075,2.19412
0.345262,0.627658,2.075,2.19517
0.351997,0.627658,2.075,2.19624
0.360807,0.631288,2.087,2.21004
0.367581,0.631288,2.087,2.21116
0.374355,0.631288,2.087,2.21229
0.381128,0.631288,2.087,2.21345
0.387902,0.631288,2.087,2.21462
0.394676,0.631288,2.087,2.21582
0.40145,0.631288,2.087,2.21704
0.408224,0.631288,2.087,2.21827
0.414998,0.631288,2.087,2.21953
0.419347,0.627658,2.075,2.20804
0.426082,0.627658,2.075,2.20933
0.432816,0.627658,2.075,2.21064
0.436798,0.623725,2.062,2.19811
0.440909,0.620096,2.05,2.18665
0.447563,0.620096,2.05,2.188
0.454217,0.620096,2.05,2.18937
0.458173,0.616466,2.038,2.17793
0.464788,0.616466,2.038,2.17934
0.471403,0.616466,2.038,2.18076
0.472388,0.609206,2.014,2.1565
0.476072,0.605576,2.002,2.14508
0.48257,0.605576,2.002,2.14653
0.489068,0.605576,2.002,2.148
0.495566,0.605576,2.002,2.14949
0.502064,0.605576,2.002,2.151
0.508562,0.605576,2.002,2.15252
0.511972,0.601946,1.99,2.14116
0.518431,0.601946,1.99,2.14271
0.52489,0.601946,1.99,2.14428
0.531349,0.601946,1.99,2.14587
0.547538,0.612836,2.026,2.18633
0.557396,0.616466,2.038,2.20095
0.564011,0.616466,2.038,2.20263
0.570625,0.616466,2.038,2.20433
0.580639,0.620096,2.05,2.21905
0.587293,0.620096,2.05,2.2208
0.593947,0.620096,2.05,2.22256
0.6006,0.620096,2.05,2.22435
0.607254,0.620096,2.05,2.22616
0.610314,0.616466,2.038,2.21494
0.616929,0.616466,2.038,2.21677
0.623544,0.616466,2.038,2.21862
0.630159,0.616466,2.038,2.22049
0.636774,0.616466,2.038,2.22238
0.643389,0.616466,2.038,2.22428
0.646176,0.612836,2.026,2.21309
0.648886,0.609206,2.014,2.2019
0.655423,0.609206,2.014,2.20384
0.66196,0.609206,2.014,2.20579
0.668497,0.609206,2.014,2.20776
0.675034,0.609206,2.014,2.20975
0.68157,0.609206,2.014,2.21176
0.688107,0.609206,2.014,2.21378
0.694644,0.609206,2.014,2.21582
0.701181,0.609206,2.014,2.21788
0.707718,0.609206,2.014,2.21995
0.714255,0.609206,2.014,2.22205
0.720792,0.609206,2.014,2.22416
0.727329,0.609206,2.014,2.22628
0.733866,0.609206,2.014,2.22843
0.744815,0.612836,2.026,2.24388
0.75139,0.612836,2.026,2.24607
0.753477,0.609206,2.014,2.23496
0.760014,0.609206,2.014,2.23717
0.766551,0.609206,2.014,2.2394
0.768481,0.605576,2.002,2.22829
0.774979,0.605576,2.002,2.23054
0.781477,0.605576,2.002,2.23281
0.787975,0.605576,2.002,2.23509
0.794473,0.605576,2.002,2.23739
0.800971,0.605576,2.002,2.23971
0.802629,0.601946,1.99,2.2286
0.809088,0.601946,1.99,2.23093
0.820465,0.605576,2.002,2.24675
0.826963,0.605576,2.002,2.24913
0.833461,0.605576,2.002,2.25153
0.839959,0.605576,2.002,2.25394
0.846457,0.605576,2.002,2.25637
0.847843,0.601946,1.99,2.24528
0.854302,0.601946,1.99,2.24773
0.860761,0.601946,1.99,2.25019
0.872449,0.605576,2.002,2.26625
0.878947,0.605576,2.002,2.26876
0.885445,0.605576,2.002,2.27129
0.891943,0.605576,2.002,2.27383
0.903827,0.609206,2.014,2.29003
0.915788,0.612836,2.026,2.30628
0.922364,0.612836,2.026,2.3089
0.934442,0.616466,2.038,2.32522
0.941056,0.616466,2.038,2.32789
0.947671,0.616466,2.038,2.33057
0.954286,0.616466,2.038,2.33327
0.960901,0.616466,2.038,2.33598
0.973213,0.620096,2.05,2.35248
0.974131,0.616466,2.038,2.34145
0.980745,0.616466,2.038,2.34421
0.98736,0.616466,2.038,2.34699
0.993975,0.616466,2.038,2.34978
1.00059,0.616466,2.038,2.35258
1.0072,0.616466,2.038,2.35541
1.01382,0.616466,2.038,2.35824
1.02043,0.616466,2.038,2.36109
1.02705,0.616466,2.038,2.36396
1.03366,0.616466,2.038,2.36684
1.04028,0.616466,2.038,2.36974
1.04689,0.616466,2.038,2.37265
1.05971,0.620096,2.05,2.38956
1.06637,0.620096,2.05,2.39252
1.07302,0.620096,2.05,2.39549
1.07967,0.620096,2.05,2.39848
1.08633,0.620096,2.05,2.40148
1.09938,0.623725,2.062,2.41858
1.11304,0.627658,2.075,2.43689
1.11978,0.627658,2.075,2.43998
1.12651,0.627658,2.075,2.44307
1.13325,0.627658,2.075,2.44619
1.13998,0.627658,2.075,2.44932
1.14672,0.627658,2.075,2.45246
1.16013,0.631288,2.087,2.46981
1.1669,0.631288,2.087,2.473
1.17367,0.631288,2.087,2.47621
1.1878,0.63522,2.1,2.49487
1.19462,0.63522,2.1,2.49812
1.20143,0.63522,2.1,2.50139
1.20077,0.631288,2.087,2.48916
1.20754,0.631288,2.087,2.49244
1.21432,0.631288,2.087,2.49573
1.21407,0.627658,2.075,2.48466
1.2208,0.627658,2.075,2.48796
1.21985,0.623725,2.062,2.47566
1.2194,0.620096,2.05,2.46454
1.22606,0.620096,2.05,2.46784
1.22549,0.616466,2.038,2.45669
1.22485,0.612836,2.026,2.44551
1.22414,0.609206,2.014,2.4343
1.23067,0.609206,2.014,2.4376
1.23721,0.609206,2.014,2.44091
1.23634,0.605576,2.002,2.42966
1.24284,0.605576,2.002,2.43297
1.24184,0.601946,1.99,2.4217
1.2483,0.601946,1.99,2.42502
1.25476,0.601946,1.99,2.42835
1.26122,0.601946,1.99,2.43169
1.26067,0.598619,1.979,2.42159
1.2671,0.598619,1.979,2.42494
1.27352,0.598619,1.979,2.4283
1.27994,0.598619,1.979,2.43167
1.28637,0.598619,1.979,2.43506
1.29279,0.598619,1.979,2.43846
1.29921,0.598619,1.979,2.44187
1.30564,0.598619,1.979,2.4453
1.31206,0.598619,1.979,2.44873
1.31848,0.598619,1.979,2.45218
1.32491,0.598619,1.979,2.45564
1.33873,0.601946,1.99,2.47278
1.33775,0.598619,1.979,2.46259
1.34418,0.598619,1.979,2.46609
-1.69618,0.747511,2.445,3.06819
-1.68824,0.747511,2.445,3.06381
-1.69268,0.753014,2.463,3.08197
-1.68468,0.753014,2.463,3.07759
-1.67669,0.753014,2.463,3.07322
-1.66869,0.753014,2.463,3.06887
-1.67283,0.758517,2.481,3.08692
-1.67686,0.764021,2.499,3.10493
-1.66875,0.764021,2.499,3.10056
-1.6726,0.769524,2.517,3.1185
-1.66443,0.769524,2.517,3.11413
-1.65626,0.769524,2.517,3.10977
-1.64809,0.769524,2.517,3.10542
-1.6523,0.775333,2.536,3.12451
-1.64407,0.775333,2.536,3.12016
-1.63584,0.775333,2.536,3.11583
-1.61541,0.769524,2.517,3.08821
-1.60724,0.769524,2.517,3.08394
-1.59907,0.769524,2.517,3.07969
-1.5909,0.769524,2.517,3.07546
-1.58273,0.769524,2.517,3.07124
-1.5633,0.764021,2.499,3.0451
-1.54399,0.758517,2.481,3.01904
-1.53594,0.758517,2.481,3.01493
-1.52789,0.758517,2.481,3.01084
-1.50881,0.753014,2.463,2.98495
-1.48984,0.747511,2.445,2.95913
-1.48191,0.747511,2.445,2.95514
-1.46372,0.742314,2.428,2.93065
-1.44565,0.737116,2.411,2.90623
-1.43782,0.737116,2.411,2.90234
-1.43,0.737116,2.411,2.89848
-1.42217,0.737116,2.411,2.89462
-1.41435,0.737116,2.411,2.89079
-1.40652,0.737116,2.411,2.88696
-1.38883,0.731919,2.394,2.86283
-1.38106,0.731919,2.394,2.85907
-1.37329,0.731919,2.394,2.85532
-1.36552,0.731919,2.394,2.8516
-1.36739,0.737116,2.411,2.86811
-1.35957,0.737116,2.411,2.86438
-1.35174,0.737116,2.411,2.86068
-1.33444,0.731919,2.394,2.83684
-1.32667,0.731919,2.394,2.8332
-1.3189,0.731919,2.394,2.82957
-1.31113,0.731919,2.394,2.82595
-1.31262,0.737116,2.411,2.8424
-1.30479,0.737116,2.411,2.83879
-1.29697,0.737116,2.411,2.8352
-1.28914,0.737116,2.411,2.83163
-1.28131,0.737116,2.411,2.82808
-1.27349,0.737116,2.411,2.82454
-1.25674,0.731919,2.394,2.80113
-1.24897,0.731919,2.394,2.79765
-1.2412,0.731919,2.394,2.79419
-1.23343,0.731919,2.394,2.79075
-1.22566,0.731919,2.394,2.78732
-1.21789,0.731919,2.394,2.78392
-1.20152,0.726721,2.377,2.76078
-1.19381,0.726721,2.377,2.75743
-1.18609,0.726721,2.377,2.7541
-1.17045,0.72183,2.361,2.73227
-1.1549,0.716938,2.345,2.7105
-1.14729,0.716938,2.345,2.70727
-1.13968,0.716938,2.345,2.70405
-1.12435,0.712046,2.329,2.68243
-1.11679,0.712046,2.329,2.67927
-1.10161,0.707155,2.313,2.65774
-1.087,0.702569,2.298,2.63742
-1.07954,0.702569,2.298,2.63435
-1.06462,0.697677,2.282,2.61299
-1.05721,0.697677,2.282,2.60998
-1.04981,0.697677,2.282,2.60699
-1.03555,0.693091,2.267,2.5869
-1.02139,0.688505,2.252,2.56686
-1.00732,0.683919,2.237,2.54688
-1.00006,0.683919,2.237,2.54402
-0.986589,0.679639,2.223,2.52527
-0.979374,0.679639,2.223,2.52246
-0.972159,0.679639,2.223,2.51967
-0.964943,0.679639,2.223,2.51689
-0.957728,0.679639,2.223,2.51414
-0.956499,0.683919,2.237,2.52721
-0.949238,0.683919,2.237,2.52447
-0.941977,0.683919,2.237,2.52175
-0.934717,0.683919,2.237,2.51905
-0.927456,0.683919,2.237,2.51636
-0.920195,0.683919,2.237,2.5137
-0.912934,0.683919,2.237,2.51105
-0.905674,0.683919,2.237,2.50842
-0.898413,0.683919,2.237,2.50581
-0.897128,0.688505,2.252,2.52
-0.889818,0.688505,2.252,2.5174
-0.882509,0.688505,2.252,2.51483
-0.875199,0.688505,2.252,2.51227
-0.86789,0.688505,2.252,2.50974
-0.860581,0.688505,2.252,2.50722
-0.853271,0.688505,2.252,2.50472
-0.851596,0.693091,2.267,2.5189
-0.849824,0.697677,2.282,2.53308
-0.842418,0.697677,2.282,2.5306
-0.835011,0.697677,2.282,2.52815
-0.833407,0.702569,2.298,2.54342
-0.825948,0.702569,2.298,2.54098
-0.829531,0.712046,2.329,2.57281
-0.827618,0.716938,2.345,2.58805
-0.831197,0.726721,2.377,2.6209
-0.823481,0.726721,2.377,2.61847
-0.821601,0.731919,2.394,2.63476
-0.81383,0.731919,2.394,2.63235
-0.80606,0.731919,2.394,2.62996
-0.79829,0.731919,2.394,2.62759
-0.790519,0.731919,2.394,2.62524
-0.777191,0.726721,2.377,2.60428
-0.764296,0.72183,2.361,2.58447
-0.756633,0.72183,2.361,2.58222
-0.748969,0.72183,2.361,2.57998
-0.736283,0.716938,2.345,2.5603
-0.7237,0.712046,2.329,2.54067
-0.71614,0.712046,2.329,2.53852
-0.708581,0.712046,2.329,2.5364
-0.696206,0.707155,2.313,2.51689
-0.688698,0.707155,2.313,2.51482
-0.672061,0.697677,2.282,2.4791
-0.664654,0.697677,2.282,2.4771
-0.657247,0.697677,2.282,2.47513
-0.649841,0.697677,2.282,2.47317
-0.638211,0.693091,2.267,2.45499
-0.630853,0.693091,2.267,2.45309
-0.619369,0.688505,2.252,2.43499
-0.61206,0.688505,2.252,2.43314
-0.600722,0.683919,2.237,2.41512
-0.593462,0.683919,2.237,2.41332
-0.586201,0.683919,2.237,2.41154
-0.57894,0.683919,2.237,2.40979
-0.575513,0.688505,2.252,2.4242
-0.564419,0.683919,2.237,2.40634
-0.557158,0.683919,2.237,2.40465
-0.549897,0.683919,2.237,2.40298
-0.542636,0.683919,2.237,2.40133
-0.538965,0.688505,2.252,2.41579
-0.531656,0.688505,2.252,2.41417
-0.524347,0.688505,2.252,2.41257
-0.513593,0.683919,2.237,2.39493
-0.506333,0.683919,2.237,2.39338
-0.502418,0.688505,2.252,2.4079
-0.495109,0.688505,2.252,2.40638
-0.487799,0.688505,2.252,2.40489
-0.48049,0.688505,2.252,2.40342
-0.473181,0.688505,2.252,2.40197
-0.465871,0.688505,2.252,2.40054
-0.458562,0.688505,2.252,2.39913
-0.451252,0.688505,2.252,2.39774
-0.440986,0.683919,2.237,2.38042
-0.433725,0.683919,2.237,2.37908
-0.426464,0.683919,2.237,2.37777
-0.419204,0.683919,2.237,2.37648
-0.411943,0.683919,2.237,2.37521
-0.404682,0.683919,2.237,2.37396
-0.397421,0.683919,2.237,2.37273
-0.390161,0.683919,2.237,2.37153
-0.3829,0.683919,2.237,2.37034
-0.375639,0.683919,2.237,2.36918
-0.368378,0.683919,2.237,2.36804
-0.361118,0.683919,2.237,2.36692
-0.353857,0.683919,2.237,2.36583
-0.344427,0.679639,2.223,2.34995
-0.335088,0.675359,2.209,2.33411
-0.327918,0.675359,2.209,2.33309
-0.320748,0.675359,2.209,2.3321
-0.311449,0.670773,2.194,2.31529
-0.304328,0.670773,2.194,2.31434
-0.29531,0.666492,2.18,2.29866
-0.286516,0.662518,2.167,2.28406
-0.279482,0.662518,2.167,2.28318
-0.272449,0.662518,2.167,2.28233
-0.2637,0.658238,2.153,2.26677
-0.256712,0.658238,2.153,2.26596
-0.248216,0.654263,2.14,2.2515
-0.239692,0.649983,2.126,2.23602
-0.232791,0.649983,2.126,2.2353
-0.22451,0.646009,2.113,2.22092
-0.216312,0.642034,2.1,2.20658
-0.208199,0.63806,2.087,2.19227
-0.201426,0.63806,2.087,2.19163
-0.194652,0.63806,2.087,2.19102
-0.186798,0.634391,2.075,2.17784
-0.180063,0.634391,2.075,2.17727
-0.173328,0.634391,2.075,2.17672
-0.165549,0.630416,2.062,2.16256
-0.158856,0.630416,2.062,2.16206
-0.152164,0.630416,2.062,2.16158
-0.145471,0.630416,2.062,2.16112
-0.138778,0.630416,2.062,2.16068
-0.132085,0.630416,2.062,2.16026
-0.124663,0.626747,2.05,2.14729
-0.118009,0.626747,2.05,2.14691
-0.111355,0.626747,2.05,2.14656
-0.104701,0.626747,2.05,2.14622
-0.0980477,0.626747,2.05,2.14591
-0.0913939,0.626747,2.05,2.14562
-0.0847401,0.626747,2.05,2.14534
-0.0776292,0.623079,2.038,2.13253
-0.0710144,0.623079,2.038,2.1323
-0.0643995,0.623079,2.038,2.13209
-0.0581249,0.626747,2.05,2.14446
-0.0514711,0.626747,2.05,2.14429
-0.044555,0.623079,2.038,2.13159
-0.0379402,0.623079,2.038,2.13146
-0.0313253,0.623079,2.038,2.13135
-0.0247105,0.623079,2.038,2.13126
-0.0180956,0.623079,2.038,2.1312
-0.0114808,0.623079,2.038,2.13115
-0.00486595,0.623079,2.038,2.13113
0.00174889,0.623079,2.038,2.13112
0.00831449,0.61941,2.026,2.11859
0.0148904,0.61941,2.026,2.11862
0.0214663,0.61941,2.026,2.11868
0.0280422,0.61941,2.026,2.11876
0.0346181,0.61941,2.026,2.11885
0.041194,0.61941,2.026,2.11897
0.0477698,0.61941,2.026,2.11911
0.0543457,0.61941,2.026,2.11927
0.0609216,0.61941,2.026,2.11945
0.0674975,0.61941,2.026,2.11965
0.0736347,0.615741,2.014,2.10731
0.0801716,0.615741,2.014,2.10755
0.0867086,0.615741,2.014,2.10781
0.0932455,0.615741,2.014,2.10809
0.0997825,0.615741,2.014,2.10839
0.106319,0.615741,2.014,2.10871
0.112856,0.615741,2.014,2.10905
0.119393,0.615741,2.014,2.1094
0.12593,0.615741,2.014,2.10978
0.132467,0.615741,2.014,2.11019
0.139004,0.615741,2.014,2.11061
0.145541,0.615741,2.014,2.11105
0.151172,0.612072,2.002,2.09893
0.15767,0.612072,2.002,2.0994
0.164168,0.612072,2.002,2.0999
0.170666,0.612072,2.002,2.10042
0.177164,0.612072,2.002,2.10096
0.184763,0.615741,2.014,2.11411
0.1913,0.615741,2.014,2.11469
0.197837,0.615741,2.014,2.11529
0.204374,0.615741,2.014,2.11592
0.214681,0.626747,2.05,2.15439
0.221334,0.626747,2.05,2.15506
0.227988,0.626747,2.05,2.15576
0.234642,0.626747,2.05,2.15647
0.241296,0.626747,2.05,2.15721
0.247949,0.626747,2.05,2.15796
0.254603,0.626747,2.05,2.15873
0.261257,0.626747,2.05,2.15953
0.267911,0.626747,2.05,2.16034
0.274565,0.626747,2.05,2.16118
0.281218,0.626747,2.05,2.16204
0.287872,0.626747,2.05,2.16291
0.294526,0.626747,2.05,2.16381
0.302943,0.630416,2.062,2.17739
0.309636,0.630416,2.062,2.17833
0.316328,0.630416,2.062,2.1793
0.323021,0.630416,2.062,2.18028
0.329714,0.630416,2.062,2.18128
0.338527,0.634391,2.075,2.19606
0.345262,0.634391,2.075,2.19711
0.351997,0.634391,2.075,2.19818
0.360807,0.63806,2.087,2.21198
0.367581,0.63806,2.087,2.2131
0.374355,0.63806,2.087,2.21423
0.381128,0.63806,2.087,2.21539
0.387902,0.63806,2.087,2.21656
0.394676,0.63806,2.087,2.21776
0.40145,0.63806,2.087,2.21898
0.408224,0.63806,2.087,2.22021
0.414998,0.63806,2.087,2.22147
0.419347,0.634391,2.075,2.20996
0.426082,0.634391,2.075,2.21125
0.432816,0.634391,2.075,2.21256
0.436798,0.630416,2.062,2.20001
0.440909,0.626747,2.05,2.18854
0.447563,0.626747,2.05,2.18989
0.454217,0.626747,2.05,2.19126
0.458173,0.623079,2.038,2.17982
0.464788,0.623079,2.038,2.18122
0.471403,0.623079,2.038,2.18263
0.472388,0.615741,2.014,2.15835
0.476072,0.612072,2.002,2.14692
0.48257,0.612072,2.002,2.14837
0.489068,0.612072,2.002,2.14984
0.495566,0.612072,2.002,2.15133
0.502064,0.612072,2.002,2.15284
0.508562,0.612072,2.002,2.15436
0.511972,0.608404,1.99,2.14298
0.518431,0.608404,1.99,2.14453
0.52489,0.608404,1.99,2.1461
0.531349,0.608404,1.99,2.14769
0.537809,0.608404,1.99,2.1493
0.544268,0.608404,1.99,2.15093
0.550727,0.608404,1.99,2.15257
0.560546,0.612072,2.002,2.16722
0.567044,0.612072,2.002,2.16891
0.573542,0.612072,2.002,2.17062
0.58004,0.612072,2.002,2.17234
0.586538,0.612072,2.002,2.17409
0.593036,0.612072,2.002,2.17585
0.599534,0.612072,2.002,2.17763
0.606032,0.612072,2.002,2.17943
0.61253,0.612072,2.002,2.18124
0.619028,0.612072,2.002,2.18308
0.625526,0.612072,2.002,2.18493
0.632024,0.612072,2.002,2.1868
0.634694,0.608404,1.99,2.17557
0.641153,0.608404,1.99,2.17746
0.647612,0.608404,1.99,2.17937
0.654071,0.608404,1.99,2.1813
0.66053,0.608404,1.99,2.18324
0.666989,0.608404,1.99,2.18521
0.673449,0.608404,1.99,2.18719
0.679908,0.608404,1.99,2.18918
0.686367,0.608404,1.99,2.1912
0.692826,0.608404,1.99,2.19323
0.699285,0.608404,1.99,2.19528
0.705744,0.608404,1.99,2.19735
0.712203,0.608404,1.99,2.19943
0.718662,0.608404,1.99,2.20153
0.725121,0.608404,1.99,2.20365
0.73158,0.608404,1.99,2.20578
0.738039,0.608404,1.99,2.20793
0.744498,0.608404,1.99,2.2101
0.750957,0.608404,1.99,2.21228
0.757416,0.608404,1.99,2.21448
0.759653,0.605041,1.979,2.20445
0.766076,0.605041,1.979,2.20667
0.772499,0.605041,1.979,2.20891
0.778923,0.605041,1.979,2.21116
0.780584,0.601372,1.967,2.20001
0.786968,0.601372,1.967,2.20228
0.793353,0.601372,1.967,2.20457
0.799737,0.601372,1.967,2.20688
0.806122,0.601372,1.967,2.2092
0.812506,0.601372,1.967,2.21154
0.81889,0.601372,1.967,2.21389
0.825275,0.601372,1.967,2.21626
0.831659,0.601372,1.967,2.21865
0.838044,0.601372,1.967,2.22105
0.849579,0.605041,1.979,2.23703
0.856003,0.605041,1.979,2.23948
0.862426,0.605041,1.979,2.24194
0.86885,0.605041,1.979,2.24442
0.880138,0.608404,1.99,2.2594
0.886597,0.608404,1.99,2.26193
0.893056,0.608404,1.99,2.26447
0.910363,0.615741,2.014,2.29436
0.9169,0.615741,2.014,2.29696
0.923437,0.615741,2.014,2.29958
0.929974,0.615741,2.014,2.30221
0.936511,0.615741,2.014,2.30486
0.943048,0.615741,2.014,2.30753
0.949585,0.615741,2.014,2.3102
0.956122,0.615741,2.014,2.3129
0.956923,0.612072,2.002,2.30181
0.963421,0.612072,2.002,2.30452
0.969919,0.612072,2.002,2.30725
0.976417,0.612072,2.002,2.30998
0.982915,0.612072,2.002,2.31274
0.989413,0.612072,2.002,2.31551
0.995911,0.612072,2.002,2.31829
1.00241,0.612072,2.002,2.32109
1.00891,0.612072,2.002,2.3239
1.01541,0.612072,2.002,2.32673
1.02803,0.615741,2.014,2.34354
1.03457,0.615741,2.014,2.34641
1.0411,0.615741,2.014,2.3493
1.04764,0.615741,2.014,2.35221
1.06046,0.61941,2.026,2.36916
1.06703,0.61941,2.026,2.37211
1.07361,0.61941,2.026,2.37508
1.08658,0.623079,2.038,2.39214
1.0932,0.623079,2.038,2.39515
1.09981,0.623079,2.038,2.39818
1.10643,0.623079,2.038,2.40122
1.1196,0.626747,2.05,2.41843
1.12625,0.626747,2.05,2.42152
1.1329,0.626747,2.05,2.42462
1.13956,0.626747,2.05,2.42774
1.15292,0.630416,2.062,2.4451
1.15961,0.630416,2.062,2.44826
1.17366,0.634391,2.075,2.46689
1.18039,0.634391,2.075,2.4701
1.18713,0.634391,2.075,2.47333
1.19386,0.634391,2.075,2.47657
1.2006,0.634391,2.075,2.47982
1.19977,0.630416,2.062,2.46753
1.19944,0.626747,2.05,2.45641
1.2061,0.626747,2.05,2.45967
1.20565,0.623079,2.038,2.44852
1.20513,0.61941,2.026,2.43735
1.2117,0.61941,2.026,2.44061
1.21106,0.615741,2.014,2.4294
1.21035,0.612072,2.002,2.41818
1.20955,0.608404,1.99,2.40692
1.21601,0.608404,1.99,2.41017
1.21571,0.605041,1.979,2.4001
1.21472,0.601372,1.967,2.38878
1.22111,0.601372,1.967,2.39204
1.22749,0.601372,1.967,2.3953
1.23388,0.601372,1.967,2.39858
1.24026,0.601372,1.967,2.40187
1.23967,0.598009,1.956,2.39172
1.24602,0.598009,1.956,2.39502
1.25237,0.598009,1.956,2.39833
1.25872,0.598009,1.956,2.40165
1.27994,0.605041,1.979,2.43326
1.28637,0.605041,1.979,2.43665
1.29279,0.605041,1.979,2.44005
1.29921,0.605041,1.979,2.44345
1.30564,0.605041,1.979,2.44688
1.31206,0.605041,1.979,2.45031
1.31848,0.605041,1.979,2.45376
1.32491,0.605041,1.979,2.45721
1.33873,0.608404,1.99,2.47436
1.33775,0.605041,1.979,2.46416
1.34418,0.605041,1.979,2.46766
-1.69618,0.755445,2.445,3.07014
-1.68824,0.755445,2.445,3.06576
-1.6803,0.755445,2.445,3.0614
-1.68468,0.761006,2.463,3.07955
-1.67669,0.761006,2.463,3.07519
-1.66869,0.761006,2.463,3.07084
-1.6607,0.761006,2.463,3.0665
-1.66478,0.766568,2.481,3.08456
-1.65673,0.766568,2.481,3.08022
-1.66064,0.772129,2.499,3.09821
-1.66443,0.777691,2.517,3.11615
-1.65626,0.777691,2.517,3.1118
-1.64809,0.777691,2.517,3.10746
-1.63992,0.777691,2.517,3.10313
-1.63175,0.777691,2.517,3.09882
-1.62358,0.777691,2.517,3.09453
-1.61541,0.777691,2.517,3.09025
-1.60724,0.777691,2.517,3.08599
-1.58764,0.772129,2.499,3.0597
-1.57953,0.772129,2.499,3.0555
-1.57142,0.772129,2.499,3.05132
-1.55204,0.766568,2.481,3.0252
-1.53279,0.761006,2.463,2.99916
-1.5248,0.761006,2.463,2.99508
-1.50572,0.755445,2.445,2.96916
-1.48737,0.750192,2.428,2.94453
-1.47949,0.750192,2.428,2.94055
-1.4716,0.750192,2.428,2.9366
-1.45348,0.74494,2.411,2.91212
-1.44565,0.74494,2.411,2.90822
-1.43782,0.74494,2.411,2.90434
-1.43,0.74494,2.411,2.90047
-1.42217,0.74494,2.411,2.89662
-1.41435,0.74494,2.411,2.89279
-1.40652,0.74494,2.411,2.88897
-1.38883,0.739687,2.394,2.86483
-1.38106,0.739687,2.394,2.86107
-1.37329,0.739687,2.394,2.85733
-1.36552,0.739687,2.394,2.8536
-1.36739,0.74494,2.411,2.87013
-1.35957,0.74494,2.411,2.86641
-1.35174,0.74494,2.411,2.8627
-1.33444,0.739687,2.394,2.83886
-1.32667,0.739687,2.394,2.83521
-1.3189,0.739687,2.394,2.83159
-1.31113,0.739687,2.394,2.82797
-1.31262,0.74494,2.411,2.84444
-1.30479,0.74494,2.411,2.84083
-1.29697,0.74494,2.411,2.83725
-1.28914,0.74494,2.411,2.83368
-1.28131,0.74494,2.411,2.83013
-1.27349,0.74494,2.411,2.82659
-1.25674,0.739687,2.394,2.80317
-1.24897,0.739687,2.394,2.7997
-1.2412,0.739687,2.394,2.79624
-1.23343,0.739687,2.394,2.7928
-1.22566,0.739687,2.394,2.78937
-1.21789,0.739687,2.394,2.78597
-1.20152,0.734434,2.377,2.76282
-1.19381,0.734434,2.377,2.75947
-1.18609,0.734434,2.377,2.75615
-1.17045,0.729491,2.361,2.7343
-1.1549,0.724547,2.345,2.71253
-1.14729,0.724547,2.345,2.70929
-1.13968,0.724547,2.345,2.70608
-1.12435,0.719603,2.329,2.68444
-1.11679,0.719603,2.329,2.68128
-1.10161,0.71466,2.313,2.65975
-1.087,0.710025,2.298,2.63942
-1.07954,0.710025,2.298,2.63635
-1.06462,0.705082,2.282,2.61497
-1.05721,0.705082,2.282,2.61197
-1.04981,0.705082,2.282,2.60898
-1.03555,0.700447,2.267,2.58888
-1.02139,0.695812,2.252,2.56883
-1.00732,0.691178,2.237,2.54884
-1.00006,0.691178,2.237,2.54598
-0.986589,0.686852,2.223,2.52722
-0.979374,0.686852,2.223,2.52441
-0.972159,0.686852,2.223,2.52162
-0.964943,0.686852,2.223,2.51885
-0.951697,0.682526,2.209,2.50025
-0.944527,0.682526,2.209,2.49753
-0.937357,0.682526,2.209,2.49483
-0.930187,0.682526,2.209,2.49214
-0.923017,0.682526,2.209,2.48947
-0.915847,0.682526,2.209,2.48683
-0.908677,0.682526,2.209,2.48419
-0.901507,0.682526,2.209,2.48158
-0.894338,0.682526,2.209,2.47898
-0.887168,0.682526,2.209,2.47641
-0.879998,0.682526,2.209,2.47385
-0.872828,0.682526,2.209,2.47131
-0.865658,0.682526,2.209,2.46878
-0.858488,0.682526,2.209,2.46628
-0.851318,0.682526,2.209,2.46379
-0.844149,0.682526,2.209,2.46132
-0.842283,0.686852,2.223,2.47446
-0.835068,0.686852,2.223,2.47201
-0.833066,0.691178,2.237,2.48513
-0.825805,0.691178,2.237,2.48271
-0.824033,0.695812,2.252,2.49694
-0.822164,0.700447,2.267,2.51115
-0.814806,0.700447,2.267,2.50875
-0.818489,0.710025,2.298,2.54064
-0.816324,0.71466,2.313,2.55482
-0.808817,0.71466,2.313,2.55243
-0.806852,0.719603,2.329,2.5677
-0.804784,0.724547,2.345,2.58296
-0.797173,0.724547,2.345,2.5806
-0.784174,0.719603,2.329,2.56066
-0.776615,0.719603,2.329,2.55836
-0.769056,0.719603,2.329,2.55607
-0.756265,0.71466,2.313,2.53627
-0.743902,0.710025,2.298,2.5176
-0.736443,0.710025,2.298,2.51541
-0.71915,0.700447,2.267,2.47933
-0.711792,0.700447,2.267,2.47721
-0.704434,0.700447,2.267,2.4751
-0.692464,0.695812,2.252,2.45666
-0.680591,0.691178,2.237,2.43826
-0.67333,0.691178,2.237,2.43624
-0.666069,0.691178,2.237,2.43424
-0.650562,0.682526,2.209,2.40182
-0.643392,0.682526,2.209,2.39989
-0.636222,0.682526,2.209,2.39798
-0.629053,0.682526,2.209,2.39609
-0.621883,0.682526,2.209,2.39421
-0.614713,0.682526,2.209,2.39236
-0.603418,0.677892,2.194,2.3743
-0.596296,0.677892,2.194,2.3725
-0.589175,0.677892,2.194,2.37072
-0.582054,0.677892,2.194,2.36896
-0.571264,0.673566,2.18,2.35211
-0.564188,0.673566,2.18,2.3504
-0.557113,0.673566,2.18,2.34872
-0.550037,0.673566,2.18,2.34705
-0.542961,0.673566,2.18,2.3454
-0.535885,0.673566,2.18,2.34377
-0.52881,0.673566,2.18,2.34216
-0.521734,0.673566,2.18,2.34058
-0.517963,0.677892,2.194,2.35403
-0.510842,0.677892,2.194,2.35247
-0.503721,0.677892,2.194,2.35094
-0.4966,0.677892,2.194,2.34942
-0.489479,0.677892,2.194,2.34793
-0.482357,0.677892,2.194,2.34645
-0.475236,0.677892,2.194,2.345
-0.468115,0.677892,2.194,2.34357
-0.458052,0.673566,2.18,2.32721
-0.450977,0.673566,2.18,2.32583
-0.443901,0.673566,2.18,2.32447
-0.436825,0.673566,2.18,2.32312
-0.427187,0.66955,2.167,2.30796
-0.420153,0.66955,2.167,2.30667
-0.413119,0.66955,2.167,2.3054
-0.406086,0.66955,2.167,2.30415
-0.399052,0.66955,2.167,2.30292
-0.392019,0.66955,2.167,2.30171
-0.384985,0.66955,2.167,2.30052
-0.37551,0.665224,2.153,2.2845
-0.368522,0.665224,2.153,2.28336
-0.361534,0.665224,2.153,2.28224
-0.354546,0.665224,2.153,2.28115
-0.347558,0.665224,2.153,2.28007
-0.340569,0.665224,2.153,2.27902
-0.333581,0.665224,2.153,2.27798
-0.326593,0.665224,2.153,2.27697
-0.319605,0.665224,2.153,2.27598
-0.312617,0.665224,2.153,2.27501
-0.305629,0.665224,2.153,2.27406
-0.298641,0.665224,2.153,2.27313
-0.287995,0.656882,2.126,2.24373
-0.281095,0.656882,2.126,2.24285
-0.274194,0.656882,2.126,2.242
-0.265659,0.652865,2.113,2.22746
-0.258801,0.652865,2.113,2.22665
-0.251943,0.652865,2.113,2.22587
-0.243577,0.648848,2.1,2.21141
-0.235295,0.644832,2.087,2.19698
-0.228521,0.644832,2.087,2.19627
-0.220472,0.641124,2.075,2.18295
-0.212398,0.637107,2.062,2.16861
-0.205705,0.637107,2.062,2.16796
-0.199013,0.637107,2.062,2.16734
-0.191201,0.633399,2.05,2.15412
-0.184547,0.633399,2.05,2.15354
-0.177893,0.633399,2.05,2.15298
-0.170237,0.629692,2.038,2.13984
-0.162659,0.625984,2.026,2.12673
-0.156083,0.625984,2.026,2.12624
-0.148621,0.622276,2.014,2.11318
-0.142084,0.622276,2.014,2.11273
-0.136355,0.625984,2.026,2.12488
-0.129779,0.625984,2.026,2.12447
-0.123203,0.625984,2.026,2.12408
-0.118009,0.633399,2.05,2.14887
-0.111355,0.633399,2.05,2.14851
-0.104701,0.633399,2.05,2.14818
-0.0980477,0.633399,2.05,2.14786
-0.0913939,0.633399,2.05,2.14757
-0.0847401,0.633399,2.05,2.1473
-0.0776292,0.629692,2.038,2.13447
-0.0710144,0.629692,2.038,2.13424
-0.0643995,0.629692,2.038,2.13403
-0.0581249,0.633399,2.05,2.14641
-0.0514711,0.633399,2.05,2.14624
-0.044555,0.629692,2.038,2.13353
-0.0379402,0.629692,2.038,2.1334
-0.0313253,0.629692,2.038,2.13329
-0.0247105,0.629692,2.038,2.13321
-0.0180956,0.629692,2.038,2.13314
-0.0114808,0.629692,2.038,2.13309
-0.00486595,0.629692,2.038,2.13307
0.00174889,0.629692,2.038,2.13306
0.00831449,0.625984,2.026,2.12052
0.0148904,0.625984,2.026,2.12056
0.0214663,0.625984,2.026,2.12061
0.0280422,0.625984,2.026,2.12069
0.0346181,0.625984,2.026,2.12079
0.041194,0.625984,2.026,2.1209
0.0477698,0.625984,2.026,2.12104
0.0543457,0.625984,2.026,2.1212
0.0609216,0.625984,2.026,2.12138
0.0674975,0.625984,2.026,2.12158
0.0736347,0.622276,2.014,2.10923
0.0801716,0.622276,2.014,2.10947
0.0867086,0.622276,2.014,2.10973
0.0932455,0.622276,2.014,2.11
0.0997825,0.622276,2.014,2.1103
0.106319,0.622276,2.014,2.11062
0.112856,0.622276,2.014,2.11096
0.119393,0.622276,2.014,2.11132
0.12593,0.622276,2.014,2.1117
0.132467,0.622276,2.014,2.1121
0.139004,0.622276,2.014,2.11252
0.145541,0.622276,2.014,2.11296
0.151172,0.618569,2.002,2.10083
0.15767,0.618569,2.002,2.10131
0.164168,0.618569,2.002,2.1018
0.170666,0.618569,2.002,2.10232
0.177164,0.618569,2.002,2.10286
0.184763,0.622276,2.014,2.11602
0.1913,0.622276,2.014,2.11661
0.197837,0.622276,2.014,2.11721
0.204374,0.622276,2.014,2.11783
0.21091,0.622276,2.014,2.11847
0.217447,0.622276,2.014,2.11913
0.223984,0.622276,2.014,2.11981
0.230521,0.622276,2.014,2.12051
0.237058,0.622276,2.014,2.12123
0.243595,0.622276,2.014,2.12197
0.250132,0.622276,2.014,2.12273
0.256669,0.622276,2.014,2.12351
0.263206,0.622276,2.014,2.12431
0.27135,0.625984,2.026,2.13779
0.277926,0.625984,2.026,2.13864
0.284502,0.625984,2.026,2.1395
0.291078,0.625984,2.026,2.14039
0.299417,0.629692,2.038,2.15397
0.306032,0.629692,2.038,2.1549
0.312646,0.629692,2.038,2.15585
0.319261,0.629692,2.038,2.15682
0.325876,0.629692,2.038,2.15781
0.332491,0.629692,2.038,2.15882
0.341103,0.633399,2.05,2.17257
0.347756,0.633399,2.05,2.17362
0.35441,0.633399,2.05,2.1747
0.361064,0.633399,2.05,2.17579
0.36987,0.637107,2.062,2.18965
0.376563,0.637107,2.062,2.19079
0.383256,0.637107,2.062,2.19195
0.389948,0.637107,2.062,2.19313
0.396641,0.637107,2.062,2.19433
0.400987,0.633399,2.05,2.18277
0.40764,0.633399,2.05,2.184
0.414294,0.633399,2.05,2.18525
0.418484,0.629692,2.038,2.17373
0.425099,0.629692,2.038,2.17501
0.431714,0.629692,2.038,2.17631
0.435748,0.625984,2.026,2.16481
0.439704,0.622276,2.014,2.15331
0.446241,0.622276,2.014,2.15466
0.45008,0.618569,2.002,2.14318
0.453841,0.614861,1.99,2.1317
0.4603,0.614861,1.99,2.13308
0.466759,0.614861,1.99,2.13448
0.470602,0.611462,1.979,2.1241
0.477026,0.611462,1.979,2.12553
0.483449,0.611462,1.979,2.12698
0.486902,0.607754,1.967,2.11554
0.493286,0.607754,1.967,2.11702
0.499671,0.607754,1.967,2.11852
0.506055,0.607754,1.967,2.12003
0.512439,0.607754,1.967,2.12157
0.518824,0.607754,1.967,2.12312
0.525208,0.607754,1.967,2.12469
0.52862,0.604356,1.956,2.11438
0.534968,0.604356,1.956,2.11598
0.541317,0.604356,1.956,2.11759
0.550746,0.607754,1.967,2.13114
0.55713,0.607754,1.967,2.1328
0.563515,0.607754,1.967,2.13448
0.569899,0.607754,1.967,2.13617
0.576283,0.607754,1.967,2.13789
0.582668,0.607754,1.967,2.13962
0.589052,0.607754,1.967,2.14136
0.595437,0.607754,1.967,2.14313
0.601821,0.607754,1.967,2.14491
0.608205,0.607754,1.967,2.14671
0.61459,0.607754,1.967,2.14853
0.624762,0.611462,1.979,2.16348
0.631186,0.611462,1.979,2.16535
0.633743,0.607754,1.967,2.15409
0.640127,0.607754,1.967,2.15597
0.646512,0.607754,1.967,2.15788
0.652896,0.607754,1.967,2.1598
0.65928,0.607754,1.967,2.16174
0.665665,0.607754,1.967,2.16369
0.672049,0.607754,1.967,2.16567
0.678434,0.607754,1.967,2.16765
0.684818,0.607754,1.967,2.16966
0.691202,0.607754,1.967,2.17168
0.697587,0.607754,1.967,2.17373
0.703971,0.607754,1.967,2.17578
0.710356,0.607754,1.967,2.17786
0.71674,0.607754,1.967,2.17995
0.723124,0.607754,1.967,2.18205
0.729509,0.607754,1.967,2.18418
0.731778,0.604356,1.956,2.17409
0.738127,0.604356,1.956,2.17624
0.744475,0.604356,1.956,2.1784
0.746602,0.600957,1.945,2.16831
0.752915,0.600957,1.945,2.1705
0.759228,0.600957,1.945,2.17269
0.765541,0.600957,1.945,2.17491
0.767488,0.597558,1.934,2.16483
0.773766,0.597558,1.934,2.16706
0.780043,0.597558,1.934,2.16931
0.78632,0.597558,1.934,2.17157
0.792597,0.597558,1.934,2.17385
0.794331,0.59416,1.923,2.16377
0.800573,0.59416,1.923,2.16607
0.806814,0.59416,1.923,2.16839
0.813056,0.59416,1.923,2.17072
0.823984,0.597558,1.934,2.18549
0.834983,0.600957,1.945,2.20031
0.841296,0.600957,1.945,2.20272
0.847609,0.600957,1.945,2.20513
0.853922,0.600957,1.945,2.20757
0.8651,0.604356,1.956,2.22252
0.871449,0.604356,1.956,2.225
0.877798,0.604356,1.956,2.22749
0.889119,0.607754,1.967,2.24254
0.895503,0.607754,1.967,2.24508
0.90739,0.611462,1.979,2.26135
0.913813,0.611462,1.979,2.26393
0.920236,0.611462,1.979,2.26653
0.921041,0.607754,1.967,2.25539
0.927425,0.607754,1.967,2.258
0.933809,0.607754,1.967,2.26063
0.956923,0.618569,2.002,2.30355
0.963421,0.618569,2.002,2.30625
0.969919,0.618569,2.002,2.30898
0.976417,0.618569,2.002,2.31171
0.982915,0.618569,2.002,2.31447
0.989413,0.618569,2.002,2.31723
0.995911,0.618569,2.002,2.32002
1.00241,0.618569,2.002,2.32281
1.00891,0.618569,2.002,2.32562
1.01541,0.618569,2.002,2.32845
1.02803,0.622276,2.014,2.34526
1.03457,0.622276,2.014,2.34814
1.0411,0.622276,2.014,2.35102
1.04764,0.622276,2.014,2.35393
1.06046,0.625984,2.026,2.37089
1.06703,0.625984,2.026,2.37383
1.07361,0.625984,2.026,2.3768
1.08658,0.629692,2.038,2.39387
1.0932,0.629692,2.038,2.39688
1.09981,0.629692,2.038,2.3999
1.10643,0.629692,2.038,2.40294
1.1196,0.633399,2.05,2.42016
1.12625,0.633399,2.05,2.42325
1.1329,0.633399,2.05,2.42635
1.13956,0.633399,2.05,2.42946
1.15292,0.637107,2.062,2.44683
1.15961,0.637107,2.062,2.44999
1.17366,0.641124,2.075,2.46863
1.18039,0.641124,2.075,2.47184
1.18713,0.641124,2.075,2.47506
1.19386,0.641124,2.075,2.4783
1.2006,0.641124,2.075,2.48155
1.19977,0.637107,2.062,2.46925
1.19944,0.633399,2.05,2.45812
1.2061,0.633399,2.05,2.46137
1.20565,0.629692,2.038,2.45021
1.20513,0.625984,2.026,2.43903
1.2117,0.625984,2.026,2.44229
1.21106,0.622276,2.014,2.43107
1.21035,0.618569,2.002,2.41983
1.20955,0.614861,1.99,2.40856
1.21601,0.614861,1.99,2.41181
1.21571,0.611462,1.979,2.40172
1.21472,0.607754,1.967,2.3904
1.22111,0.607754,1.967,2.39365
1.22749,0.607754,1.967,2.39691
1.23388,0.607754,1.967,2.40019
1.24026,0.607754,1.967,2.40348
1.23967,0.604356,1.956,2.39332
1.24602,0.604356,1.956,2.39661
1.25237,0.604356,1.956,2.39992
1.25872,0.604356,1.956,2.40324
1.25795,0.600957,1.945,2.39304
1.26427,0.600957,1.945,2.39636
1.27058,0.600957,1.945,2.3997
1.27689,0.600957,1.945,2.40305
1.29046,0.604356,1.956,2.42002
1.29681,0.604356,1.956,2.42341
1.30316,0.604356,1.956,2.42681
1.30951,0.604356,1.956,2.43023
1.32326,0.607754,1.967,2.44734
1.32964,0.607754,1.967,2.4508
1.33603,0.607754,1.967,2.45427
-1.69618,0.763378,2.445,3.0721
-1.68824,0.763378,2.445,3.06772
-1.6803,0.763378,2.445,3.06336
-1.68468,0.768998,2.463,3.08154
-1.67669,0.768998,2.463,3.07717
-1.66869,0.768998,2.463,3.07283
-1.6607,0.768998,2.463,3.06849
-1.66478,0.774618,2.481,3.08657
-1.65673,0.774618,2.481,3.08223
-1.66064,0.780238,2.499,3.10024
-1.66443,0.785858,2.517,3.1182
-1.65626,0.785858,2.517,3.11385
-1.64809,0.785858,2.517,3.10951
-1.63992,0.785858,2.517,3.10519
-1.63175,0.785858,2.517,3.10088
-1.62358,0.785858,2.517,3.09659
-1.61541,0.785858,2.517,3.09232
-1.60724,0.785858,2.517,3.08806
-1.58764,0.780238,2.499,3.06176
-1.57953,0.780238,2.499,3.05756
-1.57142,0.780238,2.499,3.05338
-1.55204,0.774618,2.481,3.02725
-1.53279,0.768998,2.463,3.00119
-1.5248,0.768998,2.463,2.99712
-1.50572,0.763378,2.445,2.97119
-1.48737,0.758071,2.428,2.94654
-1.47949,0.758071,2.428,2.94257
-1.4716,0.758071,2.428,2.93862
-1.45348,0.752763,2.411,2.91413
-1.44565,0.752763,2.411,2.91024
-1.43782,0.752763,2.411,2.90636
-1.41992,0.747455,2.394,2.88203
-1.41215,0.747455,2.394,2.87821
-1.40438,0.747455,2.394,2.8744
-1.38669,0.742147,2.377,2.85023
-1.37897,0.742147,2.377,2.84649
-1.37126,0.742147,2.377,2.84276
-1.36354,0.742147,2.377,2.83904
-1.35583,0.742147,2.377,2.83534
-1.34811,0.742147,2.377,2.83166
-1.3404,0.742147,2.377,2.828
-1.33268,0.742147,2.377,2.82435
-1.31605,0.737152,2.361,2.80173
-1.30838,0.737152,2.361,2.79814
-1.30072,0.737152,2.361,2.79456
-1.30182,0.742147,2.377,2.80992
-1.30336,0.747455,2.394,2.82642
-1.29559,0.747455,2.394,2.82285
-1.28782,0.747455,2.394,2.81929
-1.28005,0.747455,2.394,2.81575
-1.27228,0.747455,2.394,2.81223
-1.26451,0.747455,2.394,2.80872
-1.24781,0.742147,2.377,2.78531
-1.2401,0.742147,2.377,2.78186
-1.23238,0.742147,2.377,2.77843
-1.22467,0.742147,2.377,2.77502
-1.21695,0.742147,2.377,2.77162
-1.20924,0.742147,2.377,2.76824
-1.19344,0.737152,2.361,2.74627
-1.18577,0.737152,2.361,2.74295
-1.17013,0.732156,2.345,2.72108
-1.16251,0.732156,2.345,2.71781
-1.14702,0.727161,2.329,2.69605
-1.13946,0.727161,2.329,2.69284
-1.1319,0.727161,2.329,2.68965
-1.10938,0.717482,2.298,2.65072
-1.10192,0.717482,2.298,2.64761
-1.08684,0.712486,2.282,2.6261
-1.07234,0.707803,2.267,2.6058
-1.06498,0.707803,2.267,2.60278
-1.05762,0.707803,2.267,2.59978
-1.04332,0.70312,2.252,2.57961
-1.03601,0.70312,2.252,2.57666
-1.02185,0.698436,2.237,2.55659
-1.00824,0.694065,2.223,2.53771
-0.994716,0.689694,2.209,2.51889
-0.987546,0.689694,2.209,2.51607
-0.973719,0.685011,2.194,2.4962
-0.966598,0.685011,2.194,2.49343
-0.959476,0.685011,2.194,2.49068
-0.946278,0.68064,2.18,2.47207
-0.939202,0.68064,2.18,2.46937
-0.932127,0.68064,2.18,2.46668
-0.925051,0.68064,2.18,2.46402
-0.917975,0.68064,2.18,2.46137
-0.9109,0.68064,2.18,2.45874
-0.903824,0.68064,2.18,2.45613
-0.896748,0.68064,2.18,2.45353
-0.889672,0.68064,2.18,2.45096
-0.882597,0.68064,2.18,2.4484
-0.875521,0.68064,2.18,2.44586
-0.868445,0.68064,2.18,2.44333
-0.861369,0.68064,2.18,2.44083
-0.854294,0.68064,2.18,2.43834
-0.847218,0.68064,2.18,2.43587
-0.840142,0.68064,2.18,2.43342
-0.833066,0.68064,2.18,2.43098
-0.825991,0.68064,2.18,2.42857
-0.824174,0.685011,2.194,2.44175
-0.817053,0.685011,2.194,2.43935
-0.809932,0.685011,2.194,2.43698
-0.808299,0.689694,2.209,2.45127
-0.806207,0.694065,2.223,2.46443
-0.798991,0.694065,2.223,2.46208
-0.796762,0.698436,2.237,2.47524
-0.794796,0.70312,2.252,2.48949
-0.787486,0.70312,2.252,2.48717
-0.780177,0.70312,2.252,2.48487
-0.778015,0.707803,2.267,2.49912
-0.770657,0.707803,2.267,2.49684
-0.763299,0.707803,2.267,2.49457
-0.750939,0.70312,2.252,2.47584
-0.74363,0.70312,2.252,2.47363
-0.726838,0.694065,2.223,2.43962
-0.719623,0.694065,2.223,2.43748
-0.712408,0.694065,2.223,2.43536
-0.695993,0.685011,2.194,2.40152
-0.684476,0.68064,2.18,2.38415
-0.6774,0.68064,2.18,2.38213
-0.670324,0.68064,2.18,2.38013
-0.659294,0.676581,2.167,2.36396
-0.648046,0.67221,2.153,2.34675
-0.641058,0.67221,2.153,2.34483
-0.63407,0.67221,2.153,2.34293
-0.627082,0.67221,2.153,2.34105
-0.620094,0.67221,2.153,2.33919
-0.613106,0.67221,2.153,2.33734
-0.602458,0.668151,2.14,2.32142
-0.595512,0.668151,2.14,2.31963
-0.588566,0.668151,2.14,2.31785
-0.58162,0.668151,2.14,2.3161
-0.574674,0.668151,2.14,2.31436
-0.567728,0.668151,2.14,2.31265
-0.560782,0.668151,2.14,2.31095
-0.553836,0.668151,2.14,2.30928
-0.54689,0.668151,2.14,2.30762
-0.539944,0.668151,2.14,2.30598
-0.532999,0.668151,2.14,2.30437
-0.526053,0.668151,2.14,2.30277
-0.519107,0.668151,2.14,2.30119
-0.512161,0.668151,2.14,2.29964
-0.505215,0.668151,2.14,2.2981
-0.495009,0.66378,2.126,2.28156
-0.488109,0.66378,2.126,2.28007
-0.481208,0.66378,2.126,2.27861
-0.489479,0.685011,2.194,2.34999
-0.482357,0.685011,2.194,2.34852
-0.475236,0.685011,2.194,2.34707
-0.468115,0.685011,2.194,2.34564
-0.458052,0.68064,2.18,2.32927
-0.450977,0.68064,2.18,2.32789
-0.443901,0.68064,2.18,2.32653
-0.436825,0.68064,2.18,2.32519
-0.427187,0.676581,2.167,2.31001
-0.420153,0.676581,2.167,2.30872
-0.413119,0.676581,2.167,2.30745
-0.406086,0.676581,2.167,2.3062
-0.399052,0.676581,2.167,2.30497
-0.392019,0.676581,2.167,2.30376
-0.384985,0.676581,2.167,2.30258
-0.37551,0.67221,2.153,2.28654
-0.368522,0.67221,2.153,2.28541
-0.361534,0.67221,2.153,2.28429
-0.354546,0.67221,2.153,2.28319
-0.347558,0.67221,2.153,2.28212
-0.340569,0.67221,2.153,2.28107
-0.333581,0.67221,2.153,2.28003
-0.326593,0.67221,2.153,2.27902
-0.319605,0.67221,2.153,2.27803
-0.312617,0.67221,2.153,2.27706
