nan,nan,nan,NaN
nan,nan,nan,NaN
nan,nan,nan,NaN
nan,nan,nan,NaN
nan,nan,nan,NaN
nan,nan,nan,NaN
nan,nan,nan,NaN
nan,nan,nan,NaN
nan,nan,nan,NaN
nan,nan,nan,NaN
-1.20971,-0.932082,2.593,3.00929
-1.2013,-0.932082,2.593,3.00592
-1.19288,-0.932082,2.593,3.00256
-1.18446,-0.932082,2.593,2.99923
-1.19419,-0.946461,2.633,3.04213
-1.20456,-0.961558,2.675,3.08726
-1.19587,-0.961558,2.675,3.08388
-1.20583,-0.976656,2.717,3.12889
-1.20671,-0.984564,2.739,3.15081
-1.19781,-0.984564,2.739,3.14742
-1.18892,-0.984564,2.739,3.14405
-1.18951,-0.992472,2.761,3.16592
-1.18996,-1.00038,2.783,3.18777
-1.18093,-1.00038,2.783,3.1844
-1.15336,-0.984564,2.739,3.13077
-1.14447,-0.984564,2.739,3.12751
-1.12646,-0.976656,2.717,3.09917
-1.10037,-0.961558,2.675,3.04812
-1.06638,-0.939272,2.613,2.97442
-1.0579,-0.939272,2.613,2.97139
-1.03376,-0.925253,2.574,2.92408
-1.01026,-0.911593,2.536,2.87801
-1.00203,-0.911593,2.536,2.87513
-0.986356,-0.904763,2.517,2.85075
-0.957201,-0.885352,2.463,2.78684
-0.949206,-0.885352,2.463,2.7841
-0.934334,-0.878882,2.445,2.76106
-0.913515,-0.86666,2.411,2.72002
-0.90569,-0.86666,2.411,2.71741
-0.897864,-0.86666,2.411,2.71481
-0.890039,-0.86666,2.411,2.71223
-0.882213,-0.86666,2.411,2.70967
-0.874388,-0.86666,2.411,2.70713
-0.866562,-0.86666,2.411,2.70462
-0.858737,-0.86666,2.411,2.70212
-0.850911,-0.86666,2.411,2.69964
-0.843086,-0.86666,2.411,2.69719
-0.83526,-0.86666,2.411,2.69475
-0.827435,-0.86666,2.411,2.69234
-0.819609,-0.86666,2.411,2.68994
-0.811784,-0.86666,2.411,2.68757
-0.809627,-0.872771,2.428,2.70415
-0.801746,-0.872771,2.428,2.7018
-0.793866,-0.872771,2.428,2.69947
-0.791488,-0.878882,2.445,2.71605
-0.783552,-0.878882,2.445,2.71375
-0.775616,-0.878882,2.445,2.71146
-0.773332,-0.885352,2.463,2.72915
-0.770931,-0.891823,2.481,2.74682
-0.762878,-0.891823,2.481,2.74458
-0.754826,-0.891823,2.481,2.74235
-0.752191,-0.898293,2.499,2.76002
-0.74408,-0.898293,2.499,2.75782
-0.74127,-0.904763,2.517,2.77549
-0.738634,-0.911593,2.536,2.79426
-0.730403,-0.911593,2.536,2.79209
-0.722172,-0.911593,2.536,2.78995
-0.719289,-0.918423,2.555,2.80872
-0.716284,-0.925253,2.574,2.82748
-0.707929,-0.925253,2.574,2.82537
-0.699575,-0.925253,2.574,2.82329
-0.696322,-0.932082,2.593,2.84206
-0.687906,-0.932082,2.593,2.84001
-0.67949,-0.932082,2.593,2.83798
-0.671074,-0.932082,2.593,2.83598
-0.667768,-0.939272,2.613,2.85586
-0.659287,-0.939272,2.613,2.85389
-0.650806,-0.939272,2.613,2.85194
-0.642325,-0.939272,2.613,2.85001
-0.633844,-0.939272,2.613,2.84811
-0.625363,-0.939272,2.613,2.84624
-0.616882,-0.939272,2.613,2.84439
-0.6084,-0.939272,2.613,2.84256
-0.599919,-0.939272,2.613,2.84076
-0.591438,-0.939272,2.613,2.83898
-0.582957,-0.939272,2.613,2.83722
-0.574476,-0.939272,2.613,2.83549
-0.565995,-0.939272,2.613,2.83379
-0.557514,-0.939272,2.613,2.83211
-0.54483,-0.932082,2.593,2.80878
-0.536414,-0.932082,2.593,2.80716
-0.527998,-0.932082,2.593,2.80557
-0.519581,-0.932082,2.593,2.804
-0.50742,-0.925253,2.574,2.78191
-0.495381,-0.918423,2.555,2.75988
-0.487088,-0.918423,2.555,2.7584
-0.478795,-0.918423,2.555,2.75695
-0.470502,-0.918423,2.555,2.75552
-0.46221,-0.918423,2.555,2.75412
-0.450541,-0.911593,2.536,2.73227
-0.44231,-0.911593,2.536,2.73092
-0.434079,-0.911593,2.536,2.7296
-0.425848,-0.911593,2.536,2.7283
-0.417616,-0.911593,2.536,2.72703
-0.409385,-0.911593,2.536,2.72578
-0.398148,-0.904763,2.517,2.70415
-0.389979,-0.904763,2.517,2.70296
-0.381809,-0.904763,2.517,2.70179
-0.37364,-0.904763,2.517,2.70065
-0.36547,-0.904763,2.517,2.69953
-0.357301,-0.904763,2.517,2.69843
-0.349131,-0.904763,2.517,2.69737
-0.340961,-0.904763,2.517,2.69632
-0.332792,-0.904763,2.517,2.6953
-0.327073,-0.911593,2.536,2.71464
-0.318842,-0.911593,2.536,2.71366
-0.31061,-0.911593,2.536,2.71271
-0.302379,-0.911593,2.536,2.71178
-0.294148,-0.911593,2.536,2.71087
-0.283775,-0.904763,2.517,2.68969
-0.275605,-0.904763,2.517,2.68884
-0.267435,-0.904763,2.517,2.68801
-0.259266,-0.904763,2.517,2.68721
-0.251096,-0.904763,2.517,2.68644
-0.242927,-0.904763,2.517,2.68568
-0.234757,-0.904763,2.517,2.68496
-0.226588,-0.904763,2.517,2.68426
-0.218418,-0.904763,2.517,2.68358
-0.210249,-0.904763,2.517,2.68293
-0.202079,-0.904763,2.517,2.6823
-0.193909,-0.904763,2.517,2.68169
-0.187142,-0.911593,2.536,2.70136
-0.178911,-0.911593,2.536,2.7008
-0.170679,-0.911593,2.536,2.70026
-0.163665,-0.918423,2.555,2.71998
-0.155372,-0.918423,2.555,2.7195
-0.148173,-0.925253,2.574,2.73926
-0.140851,-0.932082,2.593,2.75903
-0.132435,-0.932082,2.593,2.75862
-0.124975,-0.939272,2.613,2.7795
-0.117385,-0.946461,2.633,2.8004
-0.109707,-0.95401,2.654,2.82239
-0.101093,-0.95401,2.654,2.82207
-0.0932107,-0.961558,2.675,2.8441
-0.0845283,-0.961558,2.675,2.84383
-0.0758459,-0.961558,2.675,2.84358
-0.0676908,-0.969107,2.696,2.86569
-0.0589403,-0.969107,2.696,2.86549
-0.0501897,-0.969107,2.696,2.86533
-0.041762,-0.976656,2.717,2.88751
-0.0329433,-0.976656,2.717,2.88739
-0.0241246,-0.976656,2.717,2.8873
-0.0153058,-0.976656,2.717,2.88724
-0.00638686,-0.961558,2.675,2.84258
0.00229553,-0.961558,2.675,2.84257
0.0109779,-0.961558,2.675,2.84259
0.0196603,-0.961558,2.675,2.84264
0.0283427,-0.961558,2.675,2.84271
0.0367344,-0.95401,2.654,2.8205
0.0453486,-0.95401,2.654,2.82062
0.0539629,-0.95401,2.654,2.82077
0.0620819,-0.946461,2.633,2.79863
0.070628,-0.946461,2.633,2.79883
0.0791741,-0.946461,2.633,2.79906
0.0877201,-0.946461,2.633,2.79932
0.0948037,-0.932082,2.593,2.75707
0.10322,-0.932082,2.593,2.75737
0.111636,-0.932082,2.593,2.7577
0.120052,-0.932082,2.593,2.75805
0.128469,-0.932082,2.593,2.75843
0.136885,-0.932082,2.593,2.75883
0.144236,-0.925253,2.574,2.73905
0.152591,-0.925253,2.574,2.7395
0.160946,-0.925253,2.574,2.73998
0.1693,-0.925253,2.574,2.74048
0.177655,-0.925253,2.574,2.74101
0.183263,-0.911593,2.536,2.70109
0.191494,-0.911593,2.536,2.70166
0.199726,-0.911593,2.536,2.70226
0.206399,-0.904763,2.517,2.68263
0.214568,-0.904763,2.517,2.68327
0.222738,-0.904763,2.517,2.68393
0.230908,-0.904763,2.517,2.68462
0.239077,-0.904763,2.517,2.68534
0.247247,-0.904763,2.517,2.68608
0.255416,-0.904763,2.517,2.68684
0.263586,-0.904763,2.517,2.68763
0.271755,-0.904763,2.517,2.68845
0.279925,-0.904763,2.517,2.68928
0.288094,-0.904763,2.517,2.69015
0.296264,-0.904763,2.517,2.69103
0.304434,-0.904763,2.517,2.69194
0.312603,-0.904763,2.517,2.69288
0.323194,-0.911593,2.536,2.71418
0.331425,-0.911593,2.536,2.71517
0.339657,-0.911593,2.536,2.71619
0.350494,-0.918423,2.555,2.73759
0.358787,-0.918423,2.555,2.73866
0.36981,-0.925253,2.574,2.76013
0.378164,-0.925253,2.574,2.76126
0.386519,-0.925253,2.574,2.76242
0.394873,-0.925253,2.574,2.7636
0.403228,-0.925253,2.574,2.76481
0.411583,-0.925253,2.574,2.76604
0.419937,-0.925253,2.574,2.76729
0.428292,-0.925253,2.574,2.76857
0.436646,-0.925253,2.574,2.76988
0.445001,-0.925253,2.574,2.77121
0.453355,-0.925253,2.574,2.77256
0.46171,-0.925253,2.574,2.77394
0.470064,-0.925253,2.574,2.77534
0.478419,-0.925253,2.574,2.77677
0.486774,-0.925253,2.574,2.77822
0.495128,-0.925253,2.574,2.7797
0.503483,-0.925253,2.574,2.7812
0.511837,-0.925253,2.574,2.78272
0.520192,-0.925253,2.574,2.78427
0.524645,-0.918423,2.555,2.76528
0.532938,-0.918423,2.555,2.76687
0.541231,-0.918423,2.555,2.76848
0.549524,-0.918423,2.555,2.77011
0.557817,-0.918423,2.555,2.77177
0.566109,-0.918423,2.555,2.77345
0.574402,-0.918423,2.555,2.77515
0.582695,-0.918423,2.555,2.77688
0.590988,-0.918423,2.555,2.77863
0.599281,-0.918423,2.555,2.78041
0.607574,-0.918423,2.555,2.78221
0.615867,-0.918423,2.555,2.78403
0.62416,-0.918423,2.555,2.78588
0.632453,-0.918423,2.555,2.78774
0.640746,-0.918423,2.555,2.78964
0.649038,-0.918423,2.555,2.79155
0.657331,-0.918423,2.555,2.79349
0.665624,-0.918423,2.555,2.79546
0.673917,-0.918423,2.555,2.79744
0.68221,-0.918423,2.555,2.79945
0.690503,-0.918423,2.555,2.80149
0.698796,-0.918423,2.555,2.80354
0.707089,-0.918423,2.555,2.80562
0.715382,-0.918423,2.555,2.80772
0.729056,-0.925253,2.574,2.83074
0.737411,-0.925253,2.574,2.8329
0.745765,-0.925253,2.574,2.83509
0.75412,-0.925253,2.574,2.8373
0.762474,-0.925253,2.574,2.83953
0.770829,-0.925253,2.574,2.84179
0.779183,-0.925253,2.574,2.84406
0.787538,-0.925253,2.574,2.84636
0.795892,-0.925253,2.574,2.84869
0.804247,-0.925253,2.574,2.85103
0.812602,-0.925253,2.574,2.8534
0.820956,-0.925253,2.574,2.85579
0.829311,-0.925253,2.574,2.8582
0.837665,-0.925253,2.574,2.86064
0.84602,-0.925253,2.574,2.8631
0.848068,-0.918423,2.555,2.84442
0.856361,-0.918423,2.555,2.84691
0.864654,-0.918423,2.555,2.84941
0.872947,-0.918423,2.555,2.85194
0.881239,-0.918423,2.555,2.85449
0.896147,-0.925253,2.574,2.87831
0.904502,-0.925253,2.574,2.88092
0.912856,-0.925253,2.574,2.88355
0.921211,-0.925253,2.574,2.88621
0.929566,-0.925253,2.574,2.88889
0.93792,-0.925253,2.574,2.89158
0.960612,-0.939272,2.613,2.93816
0.969093,-0.939272,2.613,2.94094
0.985057,-0.946461,2.633,2.96628
0.993603,-0.946461,2.633,2.96913
1.01014,-0.95401,2.654,2.9957
1.03488,-0.969107,2.696,3.04607
1.04363,-0.969107,2.696,3.04906
nan,nan,nan,NaN
nan,nan,nan,NaN
nan,nan,nan,NaN
nan,nan,nan,NaN
nan,nan,nan,NaN
nan,nan,nan,NaN
nan,nan,nan,NaN
nan,nan,nan,NaN
nan,nan,nan,NaN
nan,nan,nan,NaN
nan,nan,nan,NaN
nan,nan,nan,NaN
nan,nan,nan,NaN
nan,nan,nan,NaN
nan,nan,nan,NaN
nan,nan,nan,NaN
nan,nan,nan,NaN
nan,nan,nan,NaN
nan,nan,nan,NaN
nan,nan,nan,NaN
nan,nan,nan,NaN
nan,nan,nan,NaN
nan,nan,nan,NaN
nan,nan,nan,NaN
nan,nan,nan,NaN
nan,nan,nan,NaN
nan,nan,nan,NaN
nan,nan,nan,NaN
nan,nan,nan,NaN
nan,nan,nan,NaN
nan,nan,nan,NaN
nan,nan,nan,NaN
nan,nan,nan,NaN
nan,nan,nan,NaN
nan,nan,nan,NaN
nan,nan,nan,NaN
nan,nan,nan,NaN
nan,nan,nan,NaN
nan,nan,nan,NaN
nan,nan,nan,NaN
nan,nan,nan,NaN
nan,nan,nan,NaN
nan,nan,nan,NaN
nan,nan,nan,NaN
nan,nan,nan,NaN
1.83612,-1.23044,3.423,4.07458
1.84723,-1.23044,3.423,4.0796
nan,nan,nan,NaN
nan,nan,nan,NaN
1.98,-1.2955,3.604,4.31133
1.9917,-1.2955,3.604,4.31671
2.02452,-1.30916,3.642,4.36769
2.03634,-1.30916,3.642,4.37318
2.04816,-1.30916,3.642,4.3787
2.05998,-1.30916,3.642,4.38424
2.07181,-1.30916,3.642,4.38981
2.08363,-1.30916,3.642,4.3954
2.09545,-1.30916,3.642,4.40102
2.10727,-1.30916,3.642,4.40666
2.11909,-1.30916,3.642,4.41232
2.10868,-1.2955,3.604,4.37192
2.12037,-1.2955,3.604,4.37757
2.10959,-1.28184,3.566,4.33703
2.09916,-1.26854,3.529,4.29762
2.11061,-1.26854,3.529,4.30322
2.10042,-1.2556,3.493,4.2649
2.0906,-1.24302,3.458,4.2277
2.10182,-1.24302,3.458,4.23326
2.09166,-1.23044,3.423,4.19594
2.08188,-1.21821,3.389,4.15976
2.09288,-1.21821,3.389,4.16527
2.06353,-1.19485,3.324,4.09082
2.01566,-1.16106,3.23,3.98043
2.02614,-1.16106,3.23,3.98575
1.99879,-1.13949,3.17,3.91695
2.00908,-1.13949,3.17,3.92221
1.93019,-1.08917,3.03,3.75404
1.94002,-1.08917,3.03,3.7591
1.93248,-1.07946,3.003,3.73065
1.89243,-1.05178,2.926,3.63992
1.90192,-1.05178,2.926,3.64487
1.89509,-1.0428,2.901,3.61865
1.87299,-1.02554,2.853,3.56363
1.88225,-1.02554,2.853,3.56851
1.8756,-1.01692,2.829,3.54334
1.86946,-1.00865,2.806,3.51936
1.87857,-1.00865,2.806,3.52421
1.8722,-1.00038,2.783,3.50014
1.86637,-0.992472,2.761,3.47728
1.87533,-0.992472,2.761,3.48209
-2.26157,-1.16126,3.26,4.13411
-2.25099,-1.16126,3.26,4.12833
-2.24041,-1.16126,3.26,4.12257
-2.22983,-1.16126,3.26,4.11683
-2.19882,-1.15058,3.23,4.07327
-2.18834,-1.15058,3.23,4.06762
-2.17785,-1.15058,3.23,4.06199
-2.16737,-1.15058,3.23,4.05638
-2.15689,-1.15058,3.23,4.05079
-2.1464,-1.15058,3.23,4.04522
-2.13592,-1.15058,3.23,4.03966
-2.12544,-1.15058,3.23,4.03413
-2.13459,-1.16126,3.26,4.06603
-2.12401,-1.16126,3.26,4.06049
-2.11343,-1.16126,3.26,4.05496
-2.10285,-1.16126,3.26,4.04946
-2.09227,-1.16126,3.26,4.04397
-2.08169,-1.16126,3.26,4.03851
-2.05205,-1.15058,3.23,3.99595
-2.04156,-1.15058,3.23,3.99058
-2.03108,-1.15058,3.23,3.98523
-2.0206,-1.15058,3.23,3.97989
-2.01011,-1.15058,3.23,3.97458
-1.99963,-1.15058,3.23,3.96929
-1.98915,-1.15058,3.23,3.96402
-1.97866,-1.15058,3.23,3.95877
-1.96818,-1.15058,3.23,3.95354
-1.95769,-1.15058,3.23,3.94833
-1.94721,-1.15058,3.23,3.94314
nan,nan,nan,NaN
nan,nan,nan,NaN
nan,nan,nan,NaN
nan,nan,nan,NaN
nan,nan,nan,NaN
nan,nan,nan,NaN
nan,nan,nan,NaN
nan,nan,nan,NaN
nan,nan,nan,NaN
nan,nan,nan,NaN
nan,nan,nan,NaN
nan,nan,nan,NaN
nan,nan,nan,NaN
nan,nan,nan,NaN
nan,nan,nan,NaN
nan,nan,nan,NaN
nan,nan,nan,NaN
nan,nan,nan,NaN
nan,nan,nan,NaN
nan,nan,nan,NaN
nan,nan,nan,NaN
nan,nan,nan,NaN
nan,nan,nan,NaN
nan,nan,nan,NaN
nan,nan,nan,NaN
nan,nan,nan,NaN
nan,nan,nan,NaN
nan,nan,nan,NaN
nan,nan,nan,NaN
nan,nan,nan,NaN
nan,nan,nan,NaN
nan,nan,nan,NaN
nan,nan,nan,NaN
nan,nan,nan,NaN
nan,nan,nan,NaN
nan,nan,nan,NaN
nan,nan,nan,NaN
nan,nan,nan,NaN
nan,nan,nan,NaN
nan,nan,nan,NaN
nan,nan,nan,NaN
-1.20085,-0.9169,2.574,2.98466
-1.19249,-0.9169,2.574,2.98131
-1.18414,-0.9169,2.574,2.97798
-1.17578,-0.9169,2.574,2.97467
-1.18512,-0.930793,2.613,3.0164
-1.18564,-0.937917,2.633,3.03614
-1.1771,-0.937917,2.633,3.03281
-1.18719,-0.952878,2.675,3.07783
-1.19701,-0.967839,2.717,3.12276
-1.18819,-0.967839,2.717,3.11939
-1.17938,-0.967839,2.717,3.11604
-1.18003,-0.975676,2.739,3.13792
-1.18055,-0.983513,2.761,3.15977
-1.17159,-0.983513,2.761,3.15643
-1.15336,-0.975676,2.739,3.12799
-1.14447,-0.975676,2.739,3.12472
-1.11776,-0.960359,2.696,3.07247
-1.10037,-0.952878,2.675,3.04539
-1.06638,-0.930793,2.613,2.97175
-1.0579,-0.930793,2.613,2.96872
-1.03376,-0.9169,2.574,2.92144
-1.01026,-0.903364,2.536,2.87541
-1.00203,-0.903364,2.536,2.87253
-0.986356,-0.896596,2.517,2.84817
-0.964196,-0.883772,2.481,2.80466
-0.956143,-0.883772,2.481,2.8019
-0.934334,-0.870948,2.445,2.75854
-0.919957,-0.864893,2.428,2.7367
-0.912076,-0.864893,2.428,2.73406
-0.904195,-0.864893,2.428,2.73145
-0.890039,-0.858837,2.411,2.70974
-0.882213,-0.858837,2.411,2.70718
-0.874388,-0.858837,2.411,2.70464
-0.866562,-0.858837,2.411,2.70212
-0.864792,-0.864893,2.428,2.71866
-0.856911,-0.864893,2.428,2.71616
-0.843086,-0.858837,2.411,2.69468
-0.83526,-0.858837,2.411,2.69224
-0.827435,-0.858837,2.411,2.68983
-0.819609,-0.858837,2.411,2.68743
-0.811784,-0.858837,2.411,2.68505
-0.809627,-0.864893,2.428,2.70161
-0.801746,-0.864893,2.428,2.69926
-0.793866,-0.864893,2.428,2.69693
-0.791488,-0.870948,2.445,2.71349
-0.789321,-0.87736,2.463,2.73115
-0.781326,-0.87736,2.463,2.72885
-0.778984,-0.883772,2.481,2.74649
-0.776524,-0.890184,2.499,2.76413
-0.768413,-0.890184,2.499,2.76186
-0.765778,-0.896596,2.517,2.77949
-0.763328,-0.903364,2.536,2.79822
-0.760754,-0.910132,2.555,2.81693
-0.752461,-0.910132,2.555,2.8147
-0.744168,-0.910132,2.555,2.8125
-0.741347,-0.9169,2.574,2.83122
-0.732993,-0.9169,2.574,2.82904
-0.729987,-0.923669,2.593,2.84775
-0.721571,-0.923669,2.593,2.84561
-0.713155,-0.923669,2.593,2.84348
-0.710174,-0.930793,2.613,2.8633
-0.701693,-0.930793,2.613,2.86121
-0.693212,-0.930793,2.613,2.85914
-0.684731,-0.930793,2.613,2.8571
-0.67625,-0.930793,2.613,2.85508
-0.67288,-0.937917,2.633,2.87492
-0.664334,-0.937917,2.633,2.87293
-0.655787,-0.937917,2.633,2.87096
-0.647241,-0.937917,2.633,2.86902
-0.638695,-0.937917,2.633,2.86711
-0.625363,-0.930793,2.613,2.84345
-0.616882,-0.930793,2.613,2.8416
-0.6084,-0.930793,2.613,2.83977
-0.599919,-0.930793,2.613,2.83797
-0.591438,-0.930793,2.613,2.83618
-0.587419,-0.937917,2.633,2.85612
-0.574476,-0.930793,2.613,2.8327
-0.565995,-0.930793,2.613,2.83099
-0.557514,-0.930793,2.613,2.8293
-0.54483,-0.923669,2.593,2.806
-0.536414,-0.923669,2.593,2.80438
-0.527998,-0.923669,2.593,2.80278
-0.519581,-0.923669,2.593,2.80121
-0.50742,-0.9169,2.574,2.77915
-0.499065,-0.9169,2.574,2.77763
-0.49071,-0.9169,2.574,2.77614
-0.482356,-0.9169,2.574,2.77468
-0.470502,-0.910132,2.555,2.75277
-0.46221,-0.910132,2.555,2.75136
-0.450541,-0.903364,2.536,2.72953
-0.44231,-0.903364,2.536,2.72819
-0.434079,-0.903364,2.536,2.72686
-0.425848,-0.903364,2.536,2.72557
-0.417616,-0.903364,2.536,2.72429
-0.409385,-0.903364,2.536,2.72304
-0.398148,-0.896596,2.517,2.70142
-0.389979,-0.896596,2.517,2.70023
-0.381809,-0.896596,2.517,2.69907
-0.37364,-0.896596,2.517,2.69792
-0.36547,-0.896596,2.517,2.6968
-0.357301,-0.896596,2.517,2.69571
-0.349131,-0.896596,2.517,2.69464
-0.340961,-0.896596,2.517,2.69359
-0.332792,-0.896596,2.517,2.69257
-0.324622,-0.896596,2.517,2.69157
-0.316453,-0.896596,2.517,2.6906
-0.308283,-0.896596,2.517,2.68965
-0.300114,-0.896596,2.517,2.68873
-0.291944,-0.896596,2.517,2.68783
-0.283775,-0.896596,2.517,2.68695
-0.275605,-0.896596,2.517,2.6861
-0.267435,-0.896596,2.517,2.68527
-0.259266,-0.896596,2.517,2.68447
-0.249301,-0.890184,2.499,2.6645
-0.24119,-0.890184,2.499,2.66376
-0.233078,-0.890184,2.499,2.66303
-0.224967,-0.890184,2.499,2.66234
-0.216856,-0.890184,2.499,2.66166
-0.208745,-0.890184,2.499,2.66102
-0.200634,-0.890184,2.499,2.66039
-0.193909,-0.896596,2.517,2.67895
-0.18574,-0.896596,2.517,2.67837
-0.17757,-0.896596,2.517,2.67782
-0.170679,-0.903364,2.536,2.6975
-0.162448,-0.903364,2.536,2.69699
-0.154217,-0.903364,2.536,2.69651
-0.14708,-0.910132,2.555,2.71625
-0.139819,-0.9169,2.574,2.73601
-0.131464,-0.9169,2.574,2.73559
-0.124018,-0.923669,2.593,2.75539
-0.116494,-0.930793,2.613,2.77628
-0.109707,-0.945398,2.654,2.81949
-0.101093,-0.945398,2.654,2.81917
-0.0932107,-0.952878,2.675,2.84118
-0.0845283,-0.952878,2.675,2.84091
-0.0758459,-0.952878,2.675,2.84066
-0.0676908,-0.960359,2.696,2.86274
-0.0589403,-0.960359,2.696,2.86255
-0.0501897,-0.960359,2.696,2.86238
-0.0414392,-0.960359,2.696,2.86224
-0.0326886,-0.960359,2.696,2.86213
-0.0239381,-0.960359,2.696,2.86204
-0.0151875,-0.960359,2.696,2.86198
-0.00638686,-0.952878,2.675,2.83966
0.00229553,-0.952878,2.675,2.83965
0.0109779,-0.952878,2.675,2.83967
0.019506,-0.945398,2.654,2.81742
0.0281202,-0.945398,2.654,2.8175
0.0367344,-0.945398,2.654,2.8176
0.0449898,-0.937917,2.633,2.79543
0.0535359,-0.937917,2.633,2.79558
0.0620819,-0.937917,2.633,2.79575
0.0700915,-0.930793,2.613,2.77472
0.0779713,-0.923669,2.593,2.75371
0.0863875,-0.923669,2.593,2.75396
0.0948037,-0.923669,2.593,2.75423
0.10322,-0.923669,2.593,2.75454
0.111636,-0.923669,2.593,2.75486
0.120052,-0.923669,2.593,2.75522
0.127527,-0.9169,2.574,2.73541
0.135882,-0.9169,2.574,2.73581
0.144236,-0.9169,2.574,2.73624
0.151465,-0.910132,2.555,2.71649
0.159758,-0.910132,2.555,2.71696
0.16805,-0.910132,2.555,2.71746
0.176343,-0.910132,2.555,2.71799
0.183263,-0.903364,2.536,2.69832
0.191494,-0.903364,2.536,2.69889
0.199726,-0.903364,2.536,2.69949
0.206399,-0.896596,2.517,2.67988
0.214568,-0.896596,2.517,2.68053
0.222738,-0.896596,2.517,2.68119
0.230908,-0.896596,2.517,2.68188
0.239077,-0.896596,2.517,2.6826
0.245479,-0.890184,2.499,2.66415
0.25359,-0.890184,2.499,2.66491
0.263586,-0.896596,2.517,2.68489
0.271755,-0.896596,2.517,2.68571
0.279925,-0.896596,2.517,2.68655
0.288094,-0.896596,2.517,2.68741
0.296264,-0.896596,2.517,2.6883
0.304434,-0.896596,2.517,2.68921
0.312603,-0.896596,2.517,2.69015
0.323194,-0.903364,2.536,2.71142
0.331425,-0.903364,2.536,2.71242
0.339657,-0.903364,2.536,2.71343
0.347888,-0.903364,2.536,2.71448
0.356119,-0.903364,2.536,2.71554
0.36708,-0.910132,2.555,2.73699
0.375373,-0.910132,2.555,2.73811
0.383666,-0.910132,2.555,2.73926
0.391959,-0.910132,2.555,2.74044
0.403228,-0.9169,2.574,2.76202
0.411583,-0.9169,2.574,2.76326
0.419937,-0.9169,2.574,2.76451
0.428292,-0.9169,2.574,2.76579
0.436646,-0.9169,2.574,2.7671
0.445001,-0.9169,2.574,2.76843
0.453355,-0.9169,2.574,2.76979
0.46171,-0.9169,2.574,2.77117
0.470064,-0.9169,2.574,2.77257
0.478419,-0.9169,2.574,2.774
0.486774,-0.9169,2.574,2.77545
0.495128,-0.9169,2.574,2.77693
0.503483,-0.9169,2.574,2.77843
0.508059,-0.910132,2.555,2.75944
0.516352,-0.910132,2.555,2.76098
0.524645,-0.910132,2.555,2.76254
0.532938,-0.910132,2.555,2.76413
0.541231,-0.910132,2.555,2.76574
0.549524,-0.910132,2.555,2.76737
0.557817,-0.910132,2.555,2.76903
0.566109,-0.910132,2.555,2.77071
0.574402,-0.910132,2.555,2.77242
0.582695,-0.910132,2.555,2.77415
0.590988,-0.910132,2.555,2.7759
0.599281,-0.910132,2.555,2.77768
0.607574,-0.910132,2.555,2.77948
0.615867,-0.910132,2.555,2.78131
0.62416,-0.910132,2.555,2.78315
0.627749,-0.903364,2.536,2.76431
0.635981,-0.903364,2.536,2.7662
0.644212,-0.903364,2.536,2.7681
0.652443,-0.903364,2.536,2.77003
0.660674,-0.903364,2.536,2.77198
0.673917,-0.910132,2.555,2.79473
0.68221,-0.910132,2.555,2.79674
0.685368,-0.903364,2.536,2.77797
0.693599,-0.903364,2.536,2.78001
0.70183,-0.903364,2.536,2.78207
0.710062,-0.903364,2.536,2.78416
0.723674,-0.910132,2.555,2.80715
0.731967,-0.910132,2.555,2.8093
0.74026,-0.910132,2.555,2.81147
0.748553,-0.910132,2.555,2.81366
0.756846,-0.910132,2.555,2.81588
0.765139,-0.910132,2.555,2.81812
0.76768,-0.903364,2.536,2.79941
0.775912,-0.903364,2.536,2.80168
0.784143,-0.903364,2.536,2.80397
0.792374,-0.903364,2.536,2.80628
0.800605,-0.903364,2.536,2.80862
0.808836,-0.903364,2.536,2.81097
0.817068,-0.903364,2.536,2.81335
0.825299,-0.903364,2.536,2.81576
0.83353,-0.903364,2.536,2.81818
0.841761,-0.903364,2.536,2.82062
0.849993,-0.903364,2.536,2.82309
0.858224,-0.903364,2.536,2.82558
0.872947,-0.910132,2.555,2.84928
0.881239,-0.910132,2.555,2.85183
0.896147,-0.9169,2.574,2.87563
0.904502,-0.9169,2.574,2.87825
0.912856,-0.9169,2.574,2.88088
0.921211,-0.9169,2.574,2.88354
0.929566,-0.9169,2.574,2.88622
0.93792,-0.9169,2.574,2.88892
0.960612,-0.930793,2.613,2.93546
0.969093,-0.930793,2.613,2.93825
0.985057,-0.937917,2.633,2.96356
0.993603,-0.937917,2.633,2.96642
1.01014,-0.945398,2.654,2.99297
1.03488,-0.960359,2.696,3.0433
1.04363,-0.960359,2.696,3.04629
nan,nan,nan,NaN
nan,nan,nan,NaN
nan,nan,nan,NaN
nan,nan,nan,NaN
nan,nan,nan,NaN
nan,nan,nan,NaN
nan,nan,nan,NaN
nan,nan,nan,NaN
nan,nan,nan,NaN
nan,nan,nan,NaN
nan,nan,nan,NaN
nan,nan,nan,NaN
nan,nan,nan,NaN
nan,nan,nan,NaN
nan,nan,nan,NaN
nan,nan,nan,NaN
nan,nan,nan,NaN
nan,nan,nan,NaN
nan,nan,nan,NaN
nan,nan,nan,NaN
nan,nan,nan,NaN
nan,nan,nan,NaN
nan,nan,nan,NaN
nan,nan,nan,NaN
nan,nan,nan,NaN
nan,nan,nan,NaN
nan,nan,nan,NaN
nan,nan,nan,NaN
nan,nan,nan,NaN
nan,nan,nan,NaN
nan,nan,nan,NaN
nan,nan,nan,NaN
nan,nan,nan,NaN
nan,nan,nan,NaN
nan,nan,nan,NaN
nan,nan,nan,NaN
nan,nan,nan,NaN
nan,nan,nan,NaN
nan,nan,nan,NaN
nan,nan,nan,NaN
nan,nan,nan,NaN
nan,nan,nan,NaN
nan,nan,nan,NaN
nan,nan,nan,NaN
nan,nan,nan,NaN
1.83612,-1.21933,3.423,4.07124
1.84723,-1.21933,3.423,4.07627
nan,nan,nan,NaN
nan,nan,nan,NaN
1.98,-1.2838,3.604,4.30783
1.9917,-1.2838,3.604,4.31322
2.02452,-1.29734,3.642,4.36417
2.03634,-1.29734,3.642,4.36966
2.04816,-1.29734,3.642,4.37518
2.05998,-1.29734,3.642,4.38073
2.07181,-1.29734,3.642,4.3863
2.08363,-1.29734,3.642,4.3919
2.09545,-1.29734,3.642,4.39752
2.10727,-1.29734,3.642,4.40316
2.11909,-1.29734,3.642,4.40883
2.10868,-1.2838,3.604,4.36846
2.12037,-1.2838,3.604,4.37412
2.10959,-1.27027,3.566,4.33363
2.09916,-1.25709,3.529,4.29425
2.11061,-1.25709,3.529,4.29986
2.10042,-1.24426,3.493,4.26157
2.0906,-1.2318,3.458,4.22441
2.10182,-1.2318,3.458,4.22998
2.09166,-1.21933,3.423,4.1927
2.06161,-1.19546,3.356,4.11608
2.0725,-1.19546,3.356,4.12154
2.04366,-1.17266,3.292,4.04833
2.01566,-1.15058,3.23,3.97739
2.02614,-1.15058,3.23,3.98271
1.99879,-1.12921,3.17,3.91397
2.00908,-1.12921,3.17,3.91924
1.93019,-1.07934,3.03,3.7512
1.94002,-1.07934,3.03,3.75627
1.93248,-1.06972,3.003,3.72784
1.89243,-1.04229,2.926,3.63719
1.90192,-1.04229,2.926,3.64214
1.89509,-1.03338,2.901,3.61594
1.87299,-1.01628,2.853,3.56098
1.88225,-1.01628,2.853,3.56586
1.8756,-1.00774,2.829,3.54071
1.86946,-0.999543,2.806,3.51676
1.87857,-0.999543,2.806,3.52161
1.8722,-0.99135,2.783,3.49757
1.86637,-0.983513,2.761,3.47473
1.87533,-0.983513,2.761,3.47955
-2.26157,-1.15069,3.26,4.13115
-2.25099,-1.15069,3.26,4.12536
-2.24041,-1.15069,3.26,4.1196
-2.22983,-1.15069,3.26,4.11385
-2.21924,-1.15069,3.26,4.10813
-2.20866,-1.15069,3.26,4.10242
-2.19808,-1.15069,3.26,4.09674
-2.1875,-1.15069,3.26,4.09107
-2.17692,-1.15069,3.26,4.08542
-2.16634,-1.15069,3.26,4.07979
-2.15576,-1.15069,3.26,4.07418
-2.14518,-1.15069,3.26,4.06859
-2.13459,-1.15069,3.26,4.06303
-2.12401,-1.15069,3.26,4.05748
-2.11343,-1.15069,3.26,4.05195
-2.10285,-1.15069,3.26,4.04644
-2.09227,-1.15069,3.26,4.04095
-2.08169,-1.15069,3.26,4.03548
-2.05205,-1.1401,3.23,3.99295
-2.04156,-1.1401,3.23,3.98757
-2.03108,-1.1401,3.23,3.98221
-2.0206,-1.1401,3.23,3.97688
-2.01011,-1.1401,3.23,3.97156
-1.99963,-1.1401,3.23,3.96626
-1.98915,-1.1401,3.23,3.96099
-1.97866,-1.1401,3.23,3.95573
-1.96818,-1.1401,3.23,3.9505
-1.95769,-1.1401,3.23,3.94529
-1.94721,-1.1401,3.23,3.9401
nan,nan,nan,NaN
nan,nan,nan,NaN
nan,nan,nan,NaN
nan,nan,nan,NaN
nan,nan,nan,NaN
nan,nan,nan,NaN
nan,nan,nan,NaN
nan,nan,nan,NaN
nan,nan,nan,NaN
nan,nan,nan,NaN
nan,nan,nan,NaN
nan,nan,nan,NaN
nan,nan,nan,NaN
nan,nan,nan,NaN
nan,nan,nan,NaN
nan,nan,nan,NaN
nan,nan,nan,NaN
nan,nan,nan,NaN
nan,nan,nan,NaN
nan,nan,nan,NaN
nan,nan,nan,NaN
nan,nan,nan,NaN
nan,nan,nan,NaN
nan,nan,nan,NaN
nan,nan,nan,NaN
nan,nan,nan,NaN
nan,nan,nan,NaN
nan,nan,nan,NaN
nan,nan,nan,NaN
nan,nan,nan,NaN
nan,nan,nan,NaN
nan,nan,nan,NaN
nan,nan,nan,NaN
nan,nan,nan,NaN
nan,nan,nan,NaN
nan,nan,nan,NaN
nan,nan,nan,NaN
nan,nan,nan,NaN
nan,nan,nan,NaN
nan,nan,nan,NaN
nan,nan,nan,NaN
-1.20085,-0.908548,2.574,2.98211
-1.19249,-0.908548,2.574,2.97875
-1.18414,-0.908548,2.574,2.97542
-1.17578,-0.908548,2.574,2.9721
-1.18512,-0.922314,2.613,3.01379
-1.18564,-0.929374,2.633,3.03351
-1.1771,-0.929374,2.633,3.03018
-1.18719,-0.944198,2.675,3.07515
-1.19701,-0.959023,2.717,3.12004
-1.18819,-0.959023,2.717,3.11667
-1.17938,-0.959023,2.717,3.11332
-1.18003,-0.966788,2.739,3.13517
-1.18055,-0.974554,2.761,3.15699
-1.17159,-0.974554,2.761,3.15365
-1.15336,-0.966788,2.739,3.12523
-1.14447,-0.966788,2.739,3.12196
-1.11776,-0.951611,2.696,3.06975
-1.10037,-0.944198,2.675,3.04269
-1.06638,-0.922314,2.613,2.96911
-1.0579,-0.922314,2.613,2.96607
-1.03376,-0.908548,2.574,2.91883
-1.01026,-0.895135,2.536,2.87284
-1.00203,-0.895135,2.536,2.86995
-0.986356,-0.888429,2.517,2.84561
-0.964196,-0.875722,2.481,2.80213
-0.956143,-0.875722,2.481,2.79937
-0.934334,-0.863015,2.445,2.75605
-0.919957,-0.857014,2.428,2.73422
-0.912076,-0.857014,2.428,2.73158
-0.904195,-0.857014,2.428,2.72896
-0.890039,-0.851014,2.411,2.70727
-0.882213,-0.851014,2.411,2.70471
-0.874388,-0.851014,2.411,2.70217
-0.866562,-0.851014,2.411,2.69964
-0.858737,-0.851014,2.411,2.69714
-0.850911,-0.851014,2.411,2.69466
-0.843086,-0.851014,2.411,2.6922
-0.83526,-0.851014,2.411,2.68976
-0.827435,-0.851014,2.411,2.68734
-0.819609,-0.851014,2.411,2.68494
-0.811784,-0.851014,2.411,2.68256
-0.809627,-0.857014,2.428,2.6991
-0.801746,-0.857014,2.428,2.69675
-0.793866,-0.857014,2.428,2.69442
-0.785985,-0.857014,2.428,2.69211
-0.789321,-0.869368,2.463,2.72859
-0.781326,-0.869368,2.463,2.72629
-0.778984,-0.875722,2.481,2.74391
-0.776524,-0.882075,2.499,2.76153
-0.768413,-0.882075,2.499,2.75926
-0.765778,-0.888429,2.517,2.77687
-0.763328,-0.895135,2.536,2.79557
-0.760754,-0.901842,2.555,2.81427
-0.752461,-0.901842,2.555,2.81204
-0.744168,-0.901842,2.555,2.80983
-0.741347,-0.908548,2.574,2.82852
-0.732993,-0.908548,2.574,2.82634
-0.729987,-0.915255,2.593,2.84503
-0.721571,-0.915255,2.593,2.84289
-0.713155,-0.915255,2.593,2.84076
-0.710174,-0.922314,2.613,2.86056
-0.701693,-0.922314,2.613,2.85846
-0.693212,-0.922314,2.613,2.85639
-0.684731,-0.922314,2.613,2.85435
-0.67625,-0.922314,2.613,2.85232
-0.67288,-0.929374,2.633,2.87214
-0.664334,-0.929374,2.633,2.87015
-0.655787,-0.929374,2.633,2.86818
-0.647241,-0.929374,2.633,2.86624
-0.638695,-0.929374,2.633,2.86432
-0.625363,-0.922314,2.613,2.84069
-0.616882,-0.922314,2.613,2.83883
-0.6084,-0.922314,2.613,2.837
-0.599919,-0.922314,2.613,2.8352
-0.591438,-0.922314,2.613,2.83341
-0.587419,-0.929374,2.633,2.85333
-0.574476,-0.922314,2.613,2.82992
-0.565995,-0.922314,2.613,2.82821
-0.557514,-0.922314,2.613,2.82653
-0.54483,-0.915255,2.593,2.80324
-0.536414,-0.915255,2.593,2.80162
-0.527998,-0.915255,2.593,2.80002
-0.519581,-0.915255,2.593,2.79845
-0.50742,-0.908548,2.574,2.7764
-0.499065,-0.908548,2.574,2.77489
-0.49071,-0.908548,2.574,2.7734
-0.482356,-0.908548,2.574,2.77193
-0.470502,-0.901842,2.555,2.75004
-0.46221,-0.901842,2.555,2.74863
-0.453917,-0.901842,2.555,2.74725
-0.44231,-0.895135,2.536,2.72547
-0.434079,-0.895135,2.536,2.72415
-0.425848,-0.895135,2.536,2.72285
-0.417616,-0.895135,2.536,2.72157
-0.409385,-0.895135,2.536,2.72032
-0.398148,-0.888429,2.517,2.69873
-0.389979,-0.888429,2.517,2.69753
-0.381809,-0.888429,2.517,2.69636
-0.37364,-0.888429,2.517,2.69522
-0.36547,-0.888429,2.517,2.6941
-0.357301,-0.888429,2.517,2.693
-0.349131,-0.888429,2.517,2.69193
-0.340961,-0.888429,2.517,2.69088
-0.332792,-0.888429,2.517,2.68986
-0.324622,-0.888429,2.517,2.68886
-0.316453,-0.888429,2.517,2.68789
-0.308283,-0.888429,2.517,2.68694
-0.300114,-0.888429,2.517,2.68601
-0.291944,-0.888429,2.517,2.68511
-0.281745,-0.882075,2.499,2.66504
-0.273634,-0.882075,2.499,2.66419
-0.265523,-0.882075,2.499,2.66337
-0.257412,-0.882075,2.499,2.66258
-0.247505,-0.875722,2.481,2.64263
-0.239452,-0.875722,2.481,2.64189
-0.2314,-0.875722,2.481,2.64117
-0.223347,-0.875722,2.481,2.64048
-0.215294,-0.875722,2.481,2.63981
-0.207241,-0.875722,2.481,2.63917
-0.199189,-0.875722,2.481,2.63855
-0.192523,-0.882075,2.499,2.65709
-0.18574,-0.888429,2.517,2.67565
-0.17757,-0.888429,2.517,2.67509
-0.169401,-0.888429,2.517,2.67456
-0.162448,-0.895135,2.536,2.69424
-0.154217,-0.895135,2.536,2.69376
-0.145986,-0.895135,2.536,2.6933
-0.138787,-0.901842,2.555,2.71304
-0.130494,-0.901842,2.555,2.71263
-0.124018,-0.915255,2.593,2.75258
-0.116494,-0.922314,2.613,2.77345
-0.108839,-0.929374,2.633,2.79433
-0.100293,-0.929374,2.633,2.79401
-0.092479,-0.936786,2.654,2.816
-0.0845283,-0.944198,2.675,2.83801
-0.0758459,-0.944198,2.675,2.83776
-0.0676908,-0.951611,2.696,2.85982
-0.0589403,-0.951611,2.696,2.85962
-0.0501897,-0.951611,2.696,2.85946
-0.0414392,-0.951611,2.696,2.85932
-0.0326886,-0.951611,2.696,2.8592
-0.0239381,-0.951611,2.696,2.85912
-0.0151875,-0.951611,2.696,2.85906
-0.00638686,-0.944198,2.675,2.83675
0.00229553,-0.944198,2.675,2.83675
0.0109779,-0.944198,2.675,2.83677
0.019506,-0.936786,2.654,2.81455
0.0281202,-0.936786,2.654,2.81462
0.0364437,-0.929374,2.633,2.79245
0.0446481,-0.922314,2.613,2.77136
0.0531292,-0.922314,2.613,2.77151
0.0616104,-0.922314,2.613,2.77168
0.069555,-0.915255,2.593,2.75067
0.0779713,-0.915255,2.593,2.75089
0.0863875,-0.915255,2.593,2.75115
0.0941091,-0.908548,2.574,2.73126
0.102464,-0.908548,2.574,2.73156
0.110818,-0.908548,2.574,2.73189
0.118293,-0.901842,2.555,2.71207
0.126586,-0.901842,2.555,2.71245
0.134879,-0.901842,2.555,2.71285
0.143172,-0.901842,2.555,2.71327
0.151465,-0.901842,2.555,2.71372
0.159758,-0.901842,2.555,2.7142
0.16805,-0.901842,2.555,2.7147
0.175032,-0.895135,2.536,2.69503
0.183263,-0.895135,2.536,2.69558
0.191494,-0.895135,2.536,2.69615
0.199726,-0.895135,2.536,2.69675
0.206399,-0.888429,2.517,2.67716
0.214568,-0.888429,2.517,2.6778
0.222738,-0.888429,2.517,2.67847
0.230908,-0.888429,2.517,2.67916
0.239077,-0.888429,2.517,2.67988
0.245479,-0.882075,2.499,2.66145
0.25359,-0.882075,2.499,2.66221
0.263586,-0.888429,2.517,2.68218
0.271755,-0.888429,2.517,2.68299
0.277923,-0.882075,2.499,2.66464
0.286034,-0.882075,2.499,2.6655
0.296264,-0.888429,2.517,2.68559
0.304434,-0.888429,2.517,2.6865
0.312603,-0.888429,2.517,2.68744
0.323194,-0.895135,2.536,2.70869
0.331425,-0.895135,2.536,2.70969
0.339657,-0.895135,2.536,2.71071
0.347888,-0.895135,2.536,2.71175
0.356119,-0.895135,2.536,2.71282
0.36708,-0.901842,2.555,2.73424
0.375373,-0.901842,2.555,2.73537
0.383666,-0.901842,2.555,2.73652
0.391959,-0.901842,2.555,2.7377
0.403228,-0.908548,2.574,2.75926
0.411583,-0.908548,2.574,2.7605
0.419937,-0.908548,2.574,2.76175
0.428292,-0.908548,2.574,2.76304
0.436646,-0.908548,2.574,2.76434
0.445001,-0.908548,2.574,2.76568
0.453355,-0.908548,2.574,2.76703
0.46171,-0.908548,2.574,2.76841
0.470064,-0.908548,2.574,2.76982
0.478419,-0.908548,2.574,2.77125
0.486774,-0.908548,2.574,2.7727
0.495128,-0.908548,2.574,2.77418
0.503483,-0.908548,2.574,2.77569
0.508059,-0.901842,2.555,2.75671
0.516352,-0.901842,2.555,2.75825
0.524645,-0.901842,2.555,2.75982
0.532938,-0.901842,2.555,2.76141
0.541231,-0.901842,2.555,2.76302
0.549524,-0.901842,2.555,2.76466
0.557817,-0.901842,2.555,2.76632
0.566109,-0.901842,2.555,2.768
0.574402,-0.901842,2.555,2.76971
0.582695,-0.901842,2.555,2.77144
0.590988,-0.901842,2.555,2.7732
0.599281,-0.901842,2.555,2.77497
0.607574,-0.901842,2.555,2.77678
0.615867,-0.901842,2.555,2.7786
0.62416,-0.901842,2.555,2.78045
0.627749,-0.895135,2.536,2.76164
0.635981,-0.895135,2.536,2.76352
0.644212,-0.895135,2.536,2.76542
0.652443,-0.895135,2.536,2.76735
0.660674,-0.895135,2.536,2.76931
0.673917,-0.901842,2.555,2.79204
0.68221,-0.901842,2.555,2.79406
0.685368,-0.895135,2.536,2.7753
0.693599,-0.895135,2.536,2.77734
0.70183,-0.895135,2.536,2.77941
0.710062,-0.895135,2.536,2.7815
0.723674,-0.901842,2.555,2.80447
0.731967,-0.901842,2.555,2.80662
0.74026,-0.901842,2.555,2.80879
0.748553,-0.901842,2.555,2.81099
0.756846,-0.901842,2.555,2.81321
0.765139,-0.901842,2.555,2.81545
0.76768,-0.895135,2.536,2.79677
0.775912,-0.895135,2.536,2.79904
0.784143,-0.895135,2.536,2.80133
0.792374,-0.895135,2.536,2.80364
0.800605,-0.895135,2.536,2.80598
0.808836,-0.895135,2.536,2.80834
0.817068,-0.895135,2.536,2.81072
0.825299,-0.895135,2.536,2.81313
0.83353,-0.895135,2.536,2.81555
0.841761,-0.895135,2.536,2.818
0.849993,-0.895135,2.536,2.82047
0.858224,-0.895135,2.536,2.82296
0.872947,-0.901842,2.555,2.84664
0.881239,-0.901842,2.555,2.8492
0.889532,-0.901842,2.555,2.85177
0.897825,-0.901842,2.555,2.85437
0.906118,-0.901842,2.555,2.85699
0.914411,-0.901842,2.555,2.85963
0.922704,-0.901842,2.555,2.86229
0.930997,-0.901842,2.555,2.86498
0.946275,-0.908548,2.574,2.88901
0.954629,-0.908548,2.574,2.89176
0.977574,-0.922314,2.613,2.93838
0.986056,-0.922314,2.613,2.94121
1.00215,-0.929374,2.633,2.9666
1.01876,-0.936786,2.654,2.99318
1.02737,-0.936786,2.654,2.99613
nan,nan,nan,NaN
nan,nan,nan,NaN
nan,nan,nan,NaN
nan,nan,nan,NaN
nan,nan,nan,NaN
nan,nan,nan,NaN
nan,nan,nan,NaN
nan,nan,nan,NaN
nan,nan,nan,NaN
nan,nan,nan,NaN
nan,nan,nan,NaN
nan,nan,nan,NaN
nan,nan,nan,NaN
nan,nan,nan,NaN
nan,nan,nan,NaN
nan,nan,nan,NaN
nan,nan,nan,NaN
nan,nan,nan,NaN
nan,nan,nan,NaN
nan,nan,nan,NaN
nan,nan,nan,NaN
nan,nan,nan,NaN
nan,nan,nan,NaN
nan,nan,nan,NaN
nan,nan,nan,NaN
nan,nan,nan,NaN
nan,nan,nan,NaN
nan,nan,nan,NaN
nan,nan,nan,NaN
nan,nan,nan,NaN
nan,nan,nan,NaN
nan,nan,nan,NaN
nan,nan,nan,NaN
nan,nan,nan,NaN
nan,nan,nan,NaN
nan,nan,nan,NaN
nan,nan,nan,NaN
nan,nan,nan,NaN
nan,nan,nan,NaN
nan,nan,nan,NaN
nan,nan,nan,NaN
nan,nan,nan,NaN
nan,nan,nan,NaN
1.79588,-1.19622,3.389,4.01764
1.80688,-1.19622,3.389,4.02257
1.81788,-1.19622,3.389,4.02753
1.84723,-1.20822,3.423,4.07296
nan,nan,nan,NaN
nan,nan,nan,NaN
1.98,-1.27211,3.604,4.30436
1.9917,-1.27211,3.604,4.30975
2.02452,-1.28552,3.642,4.36067
2.03634,-1.28552,3.642,4.36617
2.04816,-1.28552,3.642,4.37169
2.05998,-1.28552,3.642,4.37724
2.07181,-1.28552,3.642,4.38282
2.08363,-1.28552,3.642,4.38842
2.09545,-1.28552,3.642,4.39404
2.10727,-1.28552,3.642,4.39969
2.11909,-1.28552,3.642,4.40537
2.10868,-1.27211,3.604,4.36504
2.12037,-1.27211,3.604,4.37071
2.10959,-1.2587,3.566,4.33025
2.09916,-1.24564,3.529,4.29091
2.11061,-1.24564,3.529,4.29653
2.10042,-1.23293,3.493,4.25828
2.0906,-1.22057,3.458,4.22116
2.10182,-1.22057,3.458,4.22673
2.09166,-1.20822,3.423,4.18948
2.06161,-1.18457,3.356,4.11293
2.0725,-1.18457,3.356,4.1184
2.04366,-1.16198,3.292,4.04525
2.01566,-1.1401,3.23,3.97437
2.02614,-1.1401,3.23,3.97969
nan,nan,nan,NaN
nan,nan,nan,NaN
1.94739,-1.07903,3.057,3.78178
1.95731,-1.07903,3.057,3.7869
1.93248,-1.05997,3.003,3.72506
1.9086,-1.04162,2.951,3.66553
1.91817,-1.04162,2.951,3.67053
1.89509,-1.02397,2.901,3.61326
1.88875,-1.0155,2.877,3.58828
1.89809,-1.0155,2.877,3.5932
1.89151,-1.00703,2.853,3.56813
1.88479,-0.998556,2.829,3.54299
1.89397,-0.998556,2.829,3.54788
1.88768,-0.990438,2.806,3.52391
1.88124,-0.982319,2.783,3.49987
1.89027,-0.982319,2.783,3.50473
-2.28377,-1.1513,3.292,4.16874
-2.25099,-1.14011,3.26,4.12243
-2.24041,-1.14011,3.26,4.11666
-2.22983,-1.14011,3.26,4.11091
-2.21924,-1.14011,3.26,4.10518
-2.20866,-1.14011,3.26,4.09947
-2.19808,-1.14011,3.26,4.09378
-2.1875,-1.14011,3.26,4.08811
-2.17692,-1.14011,3.26,4.08245
-2.16634,-1.14011,3.26,4.07682
-2.15576,-1.14011,3.26,4.07121
-2.14518,-1.14011,3.26,4.06562
-2.13459,-1.14011,3.26,4.06004
-2.12401,-1.14011,3.26,4.05449
-2.11343,-1.14011,3.26,4.04896
-2.10285,-1.14011,3.26,4.04344
-2.09227,-1.14011,3.26,4.03795
-2.08169,-1.14011,3.26,4.03248
-2.05205,-1.12962,3.23,3.98997
-2.04156,-1.12962,3.23,3.98459
-2.03108,-1.12962,3.23,3.97922
-2.0206,-1.12962,3.23,3.97388
-2.01011,-1.12962,3.23,3.96856
-1.99963,-1.12962,3.23,3.96326
-1.98915,-1.12962,3.23,3.95798
-1.97866,-1.12962,3.23,3.95273
-1.96818,-1.12962,3.23,3.94749
-1.95769,-1.12962,3.23,3.94227
-1.94721,-1.12962,3.23,3.93708
nan,nan,nan,NaN
nan,nan,nan,NaN
nan,nan,nan,NaN
nan,nan,nan,NaN
nan,nan,nan,NaN
nan,nan,nan,NaN
nan,nan,nan,NaN
nan,nan,nan,NaN
nan,nan,nan,NaN
nan,nan,nan,NaN
nan,nan,nan,NaN
nan,nan,nan,NaN
nan,nan,nan,NaN
nan,nan,nan,NaN
nan,nan,nan,NaN
nan,nan,nan,NaN
nan,nan,nan,NaN
nan,nan,nan,NaN
nan,nan,nan,NaN
nan,nan,nan,NaN
nan,nan,nan,NaN
nan,nan,nan,NaN
nan,nan,nan,NaN
nan,nan,nan,NaN
nan,nan,nan,NaN
nan,nan,nan,NaN
nan,nan,nan,NaN
nan,nan,nan,NaN
nan,nan,nan,NaN
nan,nan,nan,NaN
nan,nan,nan,NaN
nan,nan,nan,NaN
nan,nan,nan,NaN
nan,nan,nan,NaN
-1.24074,-0.886906,2.536,2.95928
-1.23251,-0.886906,2.536,2.95584
-1.22428,-0.886906,2.536,2.95241
-1.21605,-0.886906,2.536,2.94901
-1.20781,-0.886906,2.536,2.94563
-1.19958,-0.886906,2.536,2.94226
-1.20028,-0.893551,2.555,2.96093
-1.19198,-0.893551,2.555,2.95758
-1.19249,-0.900196,2.574,2.97622
-1.18414,-0.900196,2.574,2.97288
-1.17578,-0.900196,2.574,2.96956
-1.18512,-0.913835,2.613,3.01121
-1.18564,-0.92083,2.633,3.0309
-1.1771,-0.92083,2.633,3.02757
-1.18719,-0.935518,2.675,3.0725
-1.18776,-0.942863,2.696,3.09325
-1.17901,-0.942863,2.696,3.0899
-1.17026,-0.942863,2.696,3.08657
-1.17056,-0.950207,2.717,3.10728
-1.17114,-0.957901,2.739,3.1291
-1.16225,-0.957901,2.739,3.12578
-1.1441,-0.950207,2.717,3.09741
-1.13528,-0.950207,2.717,3.09416
-1.11776,-0.942863,2.696,3.06705
-1.09173,-0.928174,2.654,3.01614
-1.06638,-0.913835,2.613,2.96649
-1.0579,-0.913835,2.613,2.96345
-1.03376,-0.900196,2.574,2.91624
-1.01783,-0.893551,2.555,2.89179
-1.00954,-0.893551,2.555,2.88888
-0.993802,-0.886906,2.536,2.86453
-0.964196,-0.867671,2.481,2.79962
-0.956143,-0.867671,2.481,2.79686
-0.934334,-0.855081,2.445,2.75357
-0.919957,-0.849136,2.428,2.73176
-0.912076,-0.849136,2.428,2.72912
-0.904195,-0.849136,2.428,2.7265
-0.896315,-0.849136,2.428,2.72389
-0.888434,-0.849136,2.428,2.72131
-0.880553,-0.849136,2.428,2.71875
-0.872672,-0.849136,2.428,2.71621
-0.858737,-0.843191,2.411,2.69468
-0.850911,-0.843191,2.411,2.6922
-0.843086,-0.843191,2.411,2.68974
-0.83526,-0.843191,2.411,2.68729
-0.827435,-0.843191,2.411,2.68487
-0.819609,-0.843191,2.411,2.68247
-0.811784,-0.843191,2.411,2.68009
-0.809627,-0.849136,2.428,2.69661
-0.801746,-0.849136,2.428,2.69426
-0.793866,-0.849136,2.428,2.69192
-0.785985,-0.849136,2.428,2.68961
-0.789321,-0.861376,2.463,2.72605
-0.781326,-0.861376,2.463,2.72375
-0.778984,-0.867671,2.481,2.74136
-0.782118,-0.880262,2.517,2.77882
-0.773948,-0.880262,2.517,2.77653
-0.771559,-0.886906,2.536,2.79521
-0.769047,-0.893551,2.555,2.81387
-0.766411,-0.900196,2.574,2.83253
-0.758057,-0.900196,2.574,2.83028
-0.755236,-0.906841,2.593,2.84893
-0.75258,-0.913835,2.613,2.86867
-0.744099,-0.913835,2.613,2.86645
-0.735618,-0.913835,2.613,2.86426
-0.732702,-0.92083,2.633,2.884
-0.724156,-0.92083,2.633,2.88184
-0.71561,-0.92083,2.633,2.87971
-0.707064,-0.92083,2.633,2.8776
-0.698518,-0.92083,2.633,2.87551
-0.689972,-0.92083,2.633,2.87344
-0.681426,-0.92083,2.633,2.8714
-0.678246,-0.928174,2.654,2.89227
-0.669632,-0.928174,2.654,2.89026
-0.661018,-0.928174,2.654,2.88828
-0.652404,-0.928174,2.654,2.88632
-0.638695,-0.92083,2.633,2.86156
-0.630149,-0.92083,2.633,2.85967
-0.621603,-0.92083,2.633,2.8578
-0.613057,-0.92083,2.633,2.85595
-0.604511,-0.92083,2.633,2.85413
-0.595965,-0.92083,2.633,2.85233
-0.587419,-0.92083,2.633,2.85056
-0.574476,-0.913835,2.613,2.82717
-0.565995,-0.913835,2.613,2.82546
-0.557514,-0.913835,2.613,2.82377
-0.549032,-0.913835,2.613,2.82211
-0.536414,-0.906841,2.593,2.79888
-0.527998,-0.906841,2.593,2.79728
-0.519581,-0.906841,2.593,2.79571
-0.511165,-0.906841,2.593,2.79415
-0.499065,-0.900196,2.574,2.77216
-0.49071,-0.900196,2.574,2.77067
-0.482356,-0.900196,2.574,2.76921
-0.470502,-0.893551,2.555,2.74733
-0.46221,-0.893551,2.555,2.74592
-0.453917,-0.893551,2.555,2.74454
-0.445624,-0.893551,2.555,2.74318
-0.437331,-0.893551,2.555,2.74185
-0.425848,-0.886906,2.536,2.72016
-0.417616,-0.886906,2.536,2.71888
-0.409385,-0.886906,2.536,2.71763
-0.401154,-0.886906,2.536,2.7164
-0.389979,-0.880262,2.517,2.69485
-0.381809,-0.880262,2.517,2.69368
-0.37364,-0.880262,2.517,2.69254
-0.36547,-0.880262,2.517,2.69142
-0.354745,-0.873967,2.499,2.67108
-0.346634,-0.873967,2.499,2.67001
-0.338523,-0.873967,2.499,2.66897
-0.330412,-0.873967,2.499,2.66796
-0.322301,-0.873967,2.499,2.66696
-0.31419,-0.873967,2.499,2.666
-0.306079,-0.873967,2.499,2.66505
-0.297967,-0.873967,2.499,2.66413
-0.289856,-0.873967,2.499,2.66324
-0.281745,-0.873967,2.499,2.66237
-0.273634,-0.873967,2.499,2.66152
-0.265523,-0.873967,2.499,2.6607
-0.257412,-0.873967,2.499,2.6599
-0.247505,-0.867671,2.481,2.63998
-0.239452,-0.867671,2.481,2.63923
-0.2314,-0.867671,2.481,2.63851
-0.223347,-0.867671,2.481,2.63782
-0.215294,-0.867671,2.481,2.63715
-0.207241,-0.867671,2.481,2.63651
-0.199189,-0.867671,2.481,2.63589
-0.192523,-0.873967,2.499,2.65441
-0.18574,-0.880262,2.517,2.67295
-0.17757,-0.880262,2.517,2.67239
-0.169401,-0.880262,2.517,2.67186
-0.162448,-0.886906,2.536,2.69152
-0.154217,-0.886906,2.536,2.69104
-0.145986,-0.886906,2.536,2.69058
-0.138787,-0.893551,2.555,2.7103
-0.130494,-0.893551,2.555,2.70989
-0.124018,-0.906841,2.593,2.7498
-0.116494,-0.913835,2.613,2.77064
-0.108839,-0.92083,2.633,2.7915
-0.100293,-0.92083,2.633,2.79118
-0.092479,-0.928174,2.654,2.81314
-0.0845283,-0.935518,2.675,2.83513
-0.0758459,-0.935518,2.675,2.83489
-0.0676908,-0.942863,2.696,2.85692
-0.0589403,-0.942863,2.696,2.85673
-0.0501897,-0.942863,2.696,2.85656
-0.0414392,-0.942863,2.696,2.85642
-0.0326886,-0.942863,2.696,2.8563
-0.0239381,-0.942863,2.696,2.85622
-0.0151875,-0.942863,2.696,2.85616
-0.00638686,-0.935518,2.675,2.83388
0.00229553,-0.935518,2.675,2.83387
0.0109779,-0.935518,2.675,2.83389
0.019506,-0.928174,2.654,2.81169
0.0281202,-0.928174,2.654,2.81176
0.0364437,-0.92083,2.633,2.78961
0.0446481,-0.913835,2.613,2.76855
0.0531292,-0.913835,2.613,2.7687
0.0616104,-0.913835,2.613,2.76887
0.069555,-0.906841,2.593,2.74788
0.0779713,-0.906841,2.593,2.74811
0.0863875,-0.906841,2.593,2.74836
0.0941091,-0.900196,2.574,2.7285
0.102464,-0.900196,2.574,2.7288
0.110818,-0.900196,2.574,2.72912
0.118293,-0.893551,2.555,2.70933
0.126586,-0.893551,2.555,2.7097
0.134879,-0.893551,2.555,2.7101
0.143172,-0.893551,2.555,2.71053
0.151465,-0.893551,2.555,2.71098
0.159758,-0.893551,2.555,2.71145
0.16805,-0.893551,2.555,2.71196
0.175032,-0.886906,2.536,2.69231
0.183263,-0.886906,2.536,2.69286
0.191494,-0.886906,2.536,2.69343
0.199726,-0.886906,2.536,2.69403
0.206399,-0.880262,2.517,2.67446
0.214568,-0.880262,2.517,2.67511
0.222738,-0.880262,2.517,2.67577
0.230908,-0.880262,2.517,2.67647
0.239077,-0.880262,2.517,2.67718
0.247247,-0.880262,2.517,2.67792
0.255416,-0.880262,2.517,2.67869
0.263586,-0.880262,2.517,2.67948
0.271755,-0.880262,2.517,2.6803
0.277923,-0.873967,2.499,2.66197
0.286034,-0.873967,2.499,2.66282
0.296264,-0.880262,2.517,2.68289
0.304434,-0.880262,2.517,2.68381
0.312603,-0.880262,2.517,2.68475
0.323194,-0.886906,2.536,2.70598
0.331425,-0.886906,2.536,2.70698
0.339657,-0.886906,2.536,2.708
0.347888,-0.886906,2.536,2.70904
0.356119,-0.886906,2.536,2.71011
0.36708,-0.893551,2.555,2.73152
0.375373,-0.893551,2.555,2.73265
0.383666,-0.893551,2.555,2.7338
0.391959,-0.893551,2.555,2.73498
0.400252,-0.893551,2.555,2.73618
0.411583,-0.900196,2.574,2.75776
0.419937,-0.900196,2.574,2.75902
0.428292,-0.900196,2.574,2.7603
0.436646,-0.900196,2.574,2.76161
0.445001,-0.900196,2.574,2.76294
0.453355,-0.900196,2.574,2.7643
0.46171,-0.900196,2.574,2.76568
0.470064,-0.900196,2.574,2.76709
0.478419,-0.900196,2.574,2.76852
0.486774,-0.900196,2.574,2.76998
0.495128,-0.900196,2.574,2.77146
0.499766,-0.893551,2.555,2.75249
0.508059,-0.893551,2.555,2.75401
0.516352,-0.893551,2.555,2.75555
0.524645,-0.893551,2.555,2.75712
0.528975,-0.886906,2.536,2.7382
0.537206,-0.886906,2.536,2.7398
0.545437,-0.886906,2.536,2.74142
0.553668,-0.886906,2.536,2.74307
0.5619,-0.886906,2.536,2.74475
0.570131,-0.886906,2.536,2.74644
0.578362,-0.886906,2.536,2.74816
0.586593,-0.886906,2.536,2.74991
0.594824,-0.886906,2.536,2.75167
0.603056,-0.886906,2.536,2.75347
0.611287,-0.886906,2.536,2.75528
0.619518,-0.886906,2.536,2.75712
0.627749,-0.886906,2.536,2.75898
0.635981,-0.886906,2.536,2.76086
0.644212,-0.886906,2.536,2.76277
0.652443,-0.886906,2.536,2.7647
0.660674,-0.886906,2.536,2.76666
0.668906,-0.886906,2.536,2.76863
0.677137,-0.886906,2.536,2.77063
0.680233,-0.880262,2.517,2.75188
0.688403,-0.880262,2.517,2.75392
0.696572,-0.880262,2.517,2.75597
0.704742,-0.880262,2.517,2.75804
0.712911,-0.880262,2.517,2.76014
0.726524,-0.886906,2.536,2.78312
0.734755,-0.886906,2.536,2.78528
0.742987,-0.886906,2.536,2.78746
0.751218,-0.886906,2.536,2.78966
0.759449,-0.886906,2.536,2.79189
0.761929,-0.880262,2.517,2.77321
0.770098,-0.880262,2.517,2.77546
0.778268,-0.880262,2.517,2.77774
0.786437,-0.880262,2.517,2.78004
0.794607,-0.880262,2.517,2.78236
0.802777,-0.880262,2.517,2.78471
0.810946,-0.880262,2.517,2.78707
0.819116,-0.880262,2.517,2.78946
0.827285,-0.880262,2.517,2.79187
0.835455,-0.880262,2.517,2.7943
0.843624,-0.880262,2.517,2.79676
0.851794,-0.880262,2.517,2.79923
0.859963,-0.880262,2.517,2.80173
0.868133,-0.880262,2.517,2.80425
0.882918,-0.886906,2.536,2.82798
0.891149,-0.886906,2.536,2.83056
0.89938,-0.886906,2.536,2.83316
0.907611,-0.886906,2.536,2.83578
0.915842,-0.886906,2.536,2.83843
0.924074,-0.886906,2.536,2.84109
0.93929,-0.893551,2.555,2.86509
0.947583,-0.893551,2.555,2.86782
0.962984,-0.900196,2.574,2.89191
0.971338,-0.900196,2.574,2.89471
0.979693,-0.900196,2.574,2.89752
1.01876,-0.928174,2.654,2.9905
1.02737,-0.928174,2.654,2.99345
nan,nan,nan,NaN
nan,nan,nan,NaN
nan,nan,nan,NaN
nan,nan,nan,NaN
nan,nan,nan,NaN
nan,nan,nan,NaN
nan,nan,nan,NaN
nan,nan,nan,NaN
nan,nan,nan,NaN
nan,nan,nan,NaN
nan,nan,nan,NaN
nan,nan,nan,NaN
nan,nan,nan,NaN
nan,nan,nan,NaN
nan,nan,nan,NaN
nan,nan,nan,NaN
nan,nan,nan,NaN
nan,nan,nan,NaN
nan,nan,nan,NaN
nan,nan,nan,NaN
nan,nan,nan,NaN
nan,nan,nan,NaN
nan,nan,nan,NaN
nan,nan,nan,NaN
nan,nan,nan,NaN
nan,nan,nan,NaN
nan,nan,nan,NaN
nan,nan,nan,NaN
nan,nan,nan,NaN
nan,nan,nan,NaN
nan,nan,nan,NaN
nan,nan,nan,NaN
nan,nan,nan,NaN
nan,nan,nan,NaN
nan,nan,nan,NaN
nan,nan,nan,NaN
nan,nan,nan,NaN
nan,nan,nan,NaN
nan,nan,nan,NaN
nan,nan,nan,NaN
nan,nan,nan,NaN
nan,nan,nan,NaN
nan,nan,nan,NaN
1.79588,-1.18522,3.389,4.01438
1.80688,-1.18522,3.389,4.01932
1.81788,-1.18522,3.389,4.02427
1.86612,-1.20935,3.458,4.11129
nan,nan,nan,NaN
nan,nan,nan,NaN
1.98,-1.26041,3.604,4.30091
1.9917,-1.26041,3.604,4.30631
2.02452,-1.2737,3.642,4.3572
2.03634,-1.2737,3.642,4.3627
2.04816,-1.2737,3.642,4.36823
2.08204,-1.28734,3.681,4.42062
2.09399,-1.28734,3.681,4.42626
2.10594,-1.28734,3.681,4.43193
2.09545,-1.2737,3.642,4.3906
2.10727,-1.2737,3.642,4.39626
2.11909,-1.2737,3.642,4.40193
2.10868,-1.26041,3.604,4.36165
2.12037,-1.26041,3.604,4.36732
2.10959,-1.24712,3.566,4.3269
2.09916,-1.23418,3.529,4.2876
2.11061,-1.23418,3.529,4.29322
2.10042,-1.22159,3.493,4.25501
2.0906,-1.20935,3.458,4.21793
2.10182,-1.20935,3.458,4.2235
2.07088,-1.18522,3.389,4.14471
2.06161,-1.17368,3.356,4.1098
2.0725,-1.17368,3.356,4.11528
2.04366,-1.1513,3.292,4.04219
2.01566,-1.12962,3.23,3.97137
2.02614,-1.12962,3.23,3.9767
nan,nan,nan,NaN
nan,nan,nan,NaN
1.94739,-1.06911,3.057,3.77896
1.95731,-1.06911,3.057,3.78409
1.93248,-1.05023,3.003,3.72229
1.94223,-1.05023,3.003,3.72736
nan,nan,nan,NaN
1.91142,-1.0233,2.926,3.64172
