0.0927197,-0.302654,2.536,2.55568
0.100951,-0.302654,2.536,2.55599
0.109182,-0.302654,2.536,2.55633
0.117413,-0.302654,2.536,2.55669
0.125645,-0.302654,2.536,2.55708
0.133876,-0.302654,2.536,2.5575
0.142107,-0.302654,2.536,2.55795
0.149212,-0.300387,2.517,2.53925
0.157382,-0.300387,2.517,2.53974
0.165551,-0.300387,2.517,2.54026
0.173721,-0.300387,2.517,2.54081
0.18189,-0.300387,2.517,2.54138
0.19006,-0.300387,2.517,2.54198
0.198229,-0.300387,2.517,2.5426
0.204923,-0.298238,2.499,2.52506
0.213034,-0.298238,2.499,2.52573
0.221145,-0.298238,2.499,2.52643
0.229256,-0.298238,2.499,2.52715
0.237367,-0.298238,2.499,2.5279
0.245479,-0.298238,2.499,2.52868
0.25359,-0.298238,2.499,2.52948
0.261701,-0.298238,2.499,2.5303
0.269812,-0.298238,2.499,2.53116
0.277923,-0.298238,2.499,2.53203
0.286034,-0.298238,2.499,2.53294
0.294145,-0.298238,2.499,2.53386
0.302256,-0.298238,2.499,2.53482
0.310368,-0.298238,2.499,2.5358
0.316185,-0.29609,2.481,2.51853
0.324237,-0.29609,2.481,2.51956
0.33229,-0.29609,2.481,2.5206
0.340343,-0.29609,2.481,2.52168
0.350923,-0.298238,2.499,2.54108
0.359034,-0.298238,2.499,2.54221
0.367146,-0.298238,2.499,2.54337
0.372554,-0.29609,2.481,2.52623
0.380606,-0.29609,2.481,2.52743
0.388659,-0.29609,2.481,2.52865
0.39959,-0.298238,2.499,2.54826
0.407701,-0.298238,2.499,2.54954
0.415812,-0.298238,2.499,2.55085
0.423923,-0.298238,2.499,2.55219
0.432035,-0.298238,2.499,2.55355
0.440146,-0.298238,2.499,2.55493
0.448257,-0.298238,2.499,2.55634
0.453081,-0.29609,2.481,2.53935
0.461134,-0.29609,2.481,2.5408
0.469186,-0.29609,2.481,2.54228
0.477239,-0.29609,2.481,2.54377
0.485292,-0.29609,2.481,2.5453
0.493344,-0.29609,2.481,2.54685
0.501397,-0.29609,2.481,2.54842
0.50945,-0.29609,2.481,2.55001
0.517502,-0.29609,2.481,2.55163
0.525555,-0.29609,2.481,2.55328
0.533608,-0.29609,2.481,2.55495
0.541661,-0.29609,2.481,2.55664
0.545725,-0.293942,2.463,2.5398
0.553719,-0.293942,2.463,2.54153
0.561714,-0.293942,2.463,2.54328
0.569708,-0.293942,2.463,2.54506
0.577702,-0.293942,2.463,2.54686
0.585697,-0.293942,2.463,2.54869
0.593691,-0.293942,2.463,2.55054
0.601685,-0.293942,2.463,2.55241
0.609679,-0.293942,2.463,2.55431
0.617674,-0.293942,2.463,2.55623
0.625668,-0.293942,2.463,2.55817
0.633662,-0.293942,2.463,2.56014
0.641657,-0.293942,2.463,2.56213
0.649651,-0.293942,2.463,2.56414
0.662451,-0.29609,2.481,2.58493
0.670504,-0.29609,2.481,2.58701
0.678557,-0.29609,2.481,2.58911
0.686609,-0.29609,2.481,2.59123
0.694662,-0.29609,2.481,2.59337
0.702715,-0.29609,2.481,2.59554
0.710768,-0.29609,2.481,2.59773
0.71882,-0.29609,2.481,2.59995
0.726873,-0.29609,2.481,2.60219
0.734926,-0.29609,2.481,2.60445
0.742978,-0.29609,2.481,2.60673
0.751031,-0.29609,2.481,2.60904
0.753577,-0.293942,2.463,2.59242
0.761571,-0.293942,2.463,2.59476
0.769565,-0.293942,2.463,2.59711
0.777559,-0.293942,2.463,2.59949
0.785554,-0.293942,2.463,2.6019
0.793548,-0.293942,2.463,2.60432
0.801542,-0.293942,2.463,2.60677
0.80362,-0.291794,2.445,2.59017
0.811556,-0.291794,2.445,2.59264
0.819492,-0.291794,2.445,2.59514
0.827428,-0.291794,2.445,2.59765
0.829556,-0.289765,2.428,2.58211
0.837436,-0.289765,2.428,2.58466
0.845317,-0.289765,2.428,2.58722
0.853198,-0.289765,2.428,2.58981
0.861078,-0.289765,2.428,2.59241
0.862875,-0.287736,2.411,2.57687
0.8707,-0.287736,2.411,2.5795
0.878526,-0.287736,2.411,2.58215
0.886351,-0.287736,2.411,2.58483
0.894177,-0.287736,2.411,2.58752
0.902002,-0.287736,2.411,2.59024
0.909828,-0.287736,2.411,2.59297
0.911183,-0.285707,2.394,2.57743
0.918953,-0.285707,2.394,2.58018
0.933304,-0.287736,2.411,2.6013
0.94113,-0.287736,2.411,2.60412
0.948955,-0.287736,2.411,2.60696
0.956781,-0.287736,2.411,2.60982
0.964606,-0.287736,2.411,2.6127
0.972432,-0.287736,2.411,2.6156
0.980257,-0.287736,2.411,2.61851
0.988083,-0.287736,2.411,2.62145
0.995908,-0.287736,2.411,2.62441
nan,nan,nan,NaN
nan,nan,nan,NaN
nan,nan,nan,NaN
nan,nan,nan,NaN
nan,nan,nan,NaN
nan,nan,nan,NaN
nan,nan,nan,NaN
nan,nan,nan,NaN
nan,nan,nan,NaN
nan,nan,nan,NaN
nan,nan,nan,NaN
1.66388,-0.439302,3.681,4.0634
1.67582,-0.439302,3.681,4.06831
1.68777,-0.439302,3.681,4.07325
1.69972,-0.439302,3.681,4.07821
1.73027,-0.444076,3.721,4.12757
1.74234,-0.444076,3.721,4.13265
1.75442,-0.444076,3.721,4.13776
1.7665,-0.444076,3.721,4.14289
1.77858,-0.444076,3.721,4.14806
1.81038,-0.448969,3.762,4.19901
1.84294,-0.453981,3.804,4.25123
1.85529,-0.453981,3.804,4.2566
1.86764,-0.453981,3.804,4.26199
1.90074,-0.458994,3.846,4.31453
nan,nan,nan,NaN
1.82356,-0.434648,3.642,4.09615
1.83538,-0.434648,3.642,4.10143
1.86699,-0.439302,3.681,4.15071
1.85903,-0.434648,3.642,4.11206
1.8128,-0.421162,3.529,3.98967
1.82426,-0.421162,3.529,3.99489
1.81698,-0.416865,3.493,3.95933
1.81,-0.412688,3.458,3.92482
1.82122,-0.412688,3.458,3.93
1.83245,-0.412688,3.458,3.93522
1.84367,-0.412688,3.458,3.94046
1.8549,-0.412688,3.458,3.94572
1.86612,-0.412688,3.458,3.95101
1.91589,-0.421162,3.529,4.03756
1.94755,-0.425577,3.566,4.08539
1.95913,-0.425577,3.566,4.09092
1.9707,-0.425577,3.566,4.09648
2.0034,-0.430113,3.604,4.14577
2.03634,-0.434648,3.642,4.19521
2.04816,-0.434648,3.642,4.20096
2.05998,-0.434648,3.642,4.20674
2.09399,-0.439302,3.681,4.25765
2.10594,-0.439302,3.681,4.26353
2.11789,-0.439302,3.681,4.26945
2.12983,-0.439302,3.681,4.27539
2.14178,-0.439302,3.681,4.28135
2.15373,-0.439302,3.681,4.28734
2.14273,-0.434648,3.642,4.24787
2.15455,-0.434648,3.642,4.25384
2.12117,-0.425577,3.566,4.17095
2.11061,-0.421162,3.529,4.13351
2.12207,-0.421162,3.529,4.13937
2.11176,-0.416865,3.493,4.10297
2.08055,-0.408511,3.423,4.02647
2.09166,-0.408511,3.423,4.03223
2.06161,-0.400515,3.356,3.95896
2.03298,-0.392878,3.292,3.88904
2.04366,-0.392878,3.292,3.89463
2.01566,-0.385478,3.23,3.8268
1.9885,-0.378318,3.17,3.76114
1.99879,-0.378318,3.17,3.76659
1.9907,-0.374857,3.141,3.73755
1.96459,-0.368054,3.084,3.67507
1.9746,-0.368054,3.084,3.68043
1.96723,-0.364832,3.057,3.65354
1.94223,-0.358387,3.003,3.59426
1.93508,-0.355284,2.977,3.56837
1.94474,-0.355284,2.977,3.57362
1.92092,-0.349198,2.926,3.51758
1.91392,-0.346214,2.901,3.49267
1.92334,-0.346214,2.901,3.49784
1.90077,-0.340486,2.853,3.44507
1.89397,-0.337622,2.829,3.42116
1.90315,-0.337622,2.829,3.42625
1.88124,-0.332132,2.783,3.37557
1.87533,-0.329506,2.761,3.35389
-2.30597,-0.385911,3.324,4.06391
-2.29518,-0.385911,3.324,4.0578
-2.28439,-0.385911,3.324,4.05171
-2.25171,-0.382196,3.292,4.00669
-2.24103,-0.382196,3.292,4.00069
-2.23034,-0.382196,3.292,3.99472
-2.21966,-0.382196,3.292,3.98876
-2.23045,-0.385911,3.324,4.02154
-2.21966,-0.385911,3.324,4.01557
-2.20887,-0.385911,3.324,4.00961
-2.19808,-0.385911,3.324,4.00368
-2.18729,-0.385911,3.324,3.99777
-2.1765,-0.385911,3.324,3.99187
-2.16571,-0.385911,3.324,3.986
-2.13418,-0.382196,3.292,3.94183
-2.12349,-0.382196,3.292,3.93606
-2.11281,-0.382196,3.292,3.9303
-2.10212,-0.382196,3.292,3.92457
-2.09144,-0.382196,3.292,3.91886
-2.08075,-0.382196,3.292,3.91317
-2.04995,-0.37848,3.26,3.86951
-2.03936,-0.37848,3.26,3.86392
-2.02878,-0.37848,3.26,3.85834
-2.0182,-0.37848,3.26,3.85279
-2.00762,-0.37848,3.26,3.84726
-1.99704,-0.37848,3.26,3.84175
-1.98646,-0.37848,3.26,3.83626
-1.97588,-0.37848,3.26,3.83079
-1.9653,-0.37848,3.26,3.82534
-1.95472,-0.37848,3.26,3.81992
-1.94413,-0.37848,3.26,3.81451
nan,nan,nan,NaN
nan,nan,nan,NaN
nan,nan,nan,NaN
nan,nan,nan,NaN
nan,nan,nan,NaN
nan,nan,nan,NaN
nan,nan,nan,NaN
nan,nan,nan,NaN
nan,nan,nan,NaN
nan,nan,nan,NaN
nan,nan,nan,NaN
nan,nan,nan,NaN
nan,nan,nan,NaN
nan,nan,nan,NaN
nan,nan,nan,NaN
nan,nan,nan,NaN
nan,nan,nan,NaN
nan,nan,nan,NaN
nan,nan,nan,NaN
nan,nan,nan,NaN
nan,nan,nan,NaN
nan,nan,nan,NaN
nan,nan,nan,NaN
nan,nan,nan,NaN
nan,nan,nan,NaN
nan,nan,nan,NaN
nan,nan,nan,NaN
nan,nan,nan,NaN
nan,nan,nan,NaN
nan,nan,nan,NaN
nan,nan,nan,NaN
-1.20415,-0.28386,2.445,2.74018
-1.19622,-0.28386,2.445,2.7367
-1.18002,-0.281887,2.428,2.71424
-1.16393,-0.279913,2.411,2.69184
-1.15611,-0.279913,2.411,2.68847
-1.14828,-0.279913,2.411,2.68511
-1.13241,-0.277939,2.394,2.66286
-1.12464,-0.277939,2.394,2.65957
-1.11687,-0.277939,2.394,2.65629
-1.10123,-0.275966,2.377,2.6342
-1.09351,-0.275966,2.377,2.63098
-1.0858,-0.275966,2.377,2.62778
-1.07808,-0.275966,2.377,2.6246
-1.07037,-0.275966,2.377,2.62144
-1.06265,-0.275966,2.377,2.6183
-1.05494,-0.275966,2.377,2.61518
-1.04722,-0.275966,2.377,2.61208
-1.03951,-0.275966,2.377,2.609
-1.03179,-0.275966,2.377,2.60593
-1.02408,-0.275966,2.377,2.60289
-1.01636,-0.275966,2.377,2.59986
-1.00865,-0.275966,2.377,2.59685
-1.00093,-0.275966,2.377,2.59387
-0.993215,-0.275966,2.377,2.5909
-0.992548,-0.277939,2.394,2.60646
-0.984778,-0.277939,2.394,2.60351
-0.970069,-0.275966,2.377,2.58212
-0.962354,-0.275966,2.377,2.57923
-0.954639,-0.275966,2.377,2.57636
-0.946924,-0.275966,2.377,2.57351
-0.939209,-0.275966,2.377,2.57068
-0.931494,-0.275966,2.377,2.56787
-0.923778,-0.275966,2.377,2.56508
-0.916063,-0.275966,2.377,2.56231
-0.908348,-0.275966,2.377,2.55957
-0.894571,-0.274108,2.361,2.53963
-0.886907,-0.274108,2.361,2.53694
-0.879244,-0.274108,2.361,2.53427
-0.871581,-0.274108,2.361,2.53162
-0.863918,-0.274108,2.361,2.52899
-0.856255,-0.274108,2.361,2.52639
-0.854342,-0.275966,2.377,2.5409
-0.846627,-0.275966,2.377,2.53832
-0.838912,-0.275966,2.377,2.53576
-0.831197,-0.275966,2.377,2.53321
-0.823481,-0.275966,2.377,2.53069
-0.815766,-0.275966,2.377,2.52819
-0.808051,-0.275966,2.377,2.52571
-0.800336,-0.275966,2.377,2.52326
-0.792621,-0.275966,2.377,2.52082
-0.784906,-0.275966,2.377,2.5184
-0.782749,-0.277939,2.394,2.53401
-0.774979,-0.277939,2.394,2.53162
-0.767208,-0.277939,2.394,2.52925
-0.759438,-0.277939,2.394,2.5269
-0.751668,-0.277939,2.394,2.52458
-0.743897,-0.277939,2.394,2.52227
-0.741354,-0.279913,2.411,2.53789
-0.733529,-0.279913,2.411,2.53561
-0.725703,-0.279913,2.411,2.53336
-0.717878,-0.279913,2.411,2.53113
-0.710052,-0.279913,2.411,2.52892
-0.702227,-0.279913,2.411,2.52674
-0.699297,-0.281887,2.428,2.54237
-0.691417,-0.281887,2.428,2.54022
-0.683536,-0.281887,2.428,2.53808
-0.675655,-0.281887,2.428,2.53597
-0.667775,-0.281887,2.428,2.53388
-0.659894,-0.281887,2.428,2.53182
-0.652013,-0.281887,2.428,2.52978
-0.644133,-0.281887,2.428,2.52776
-0.640707,-0.28386,2.445,2.54344
-0.632771,-0.28386,2.445,2.54146
-0.624835,-0.28386,2.445,2.53949
-0.616899,-0.28386,2.445,2.53755
-0.608963,-0.28386,2.445,2.53563
-0.601027,-0.28386,2.445,2.53374
-0.593092,-0.28386,2.445,2.53187
-0.585156,-0.28386,2.445,2.53002
-0.57722,-0.28386,2.445,2.5282
-0.573475,-0.28595,2.463,2.545
-0.565481,-0.28595,2.463,2.54321
-0.557486,-0.28595,2.463,2.54144
-0.553508,-0.28804,2.481,2.55826
-0.545455,-0.28804,2.481,2.55653
-0.537403,-0.28804,2.481,2.55483
-0.52935,-0.28804,2.481,2.55314
-0.521297,-0.28804,2.481,2.55149
-0.513244,-0.28804,2.481,2.54985
-0.508857,-0.29013,2.499,2.56673
-0.500746,-0.29013,2.499,2.56514
-0.492635,-0.29013,2.499,2.56357
-0.484524,-0.29013,2.499,2.56202
-0.476412,-0.29013,2.499,2.5605
-0.471674,-0.292219,2.517,2.57743
-0.463505,-0.292219,2.517,2.57595
-0.455335,-0.292219,2.517,2.57449
-0.447166,-0.292219,2.517,2.57306
-0.438996,-0.292219,2.517,2.57165
-0.430827,-0.292219,2.517,2.57027
-0.422657,-0.292219,2.517,2.56891
-0.414487,-0.292219,2.517,2.56758
-0.406318,-0.292219,2.517,2.56628
-0.398148,-0.292219,2.517,2.565
-0.389979,-0.292219,2.517,2.56374
-0.381809,-0.292219,2.517,2.56251
-0.37364,-0.292219,2.517,2.56131
-0.36547,-0.292219,2.517,2.56013
-0.357301,-0.292219,2.517,2.55897
-0.346634,-0.29013,2.499,2.53955
-0.338523,-0.29013,2.499,2.53846
-0.328032,-0.28804,2.481,2.51911
-0.319979,-0.28804,2.481,2.51808
-0.311927,-0.28804,2.481,2.51707
-0.303874,-0.28804,2.481,2.51608
-0.295821,-0.28804,2.481,2.51512
-0.285681,-0.28595,2.463,2.49595
-0.277686,-0.28595,2.463,2.49504
-0.267721,-0.28386,2.445,2.47594
-0.259785,-0.28386,2.445,2.47509
-0.251849,-0.28386,2.445,2.47427
-0.243914,-0.28386,2.445,2.47348
-0.237715,-0.28595,2.463,2.49091
-0.229721,-0.28595,2.463,2.49016
-0.221726,-0.28595,2.463,2.48944
-0.213732,-0.28595,2.463,2.48874
-0.205738,-0.28595,2.463,2.48806
-0.197744,-0.28595,2.463,2.48742
-0.189749,-0.28595,2.463,2.48679
-0.181755,-0.28595,2.463,2.4862
-0.175031,-0.28804,2.481,2.50379
-0.166978,-0.28804,2.481,2.50324
-0.158925,-0.28804,2.481,2.50272
-0.151967,-0.29013,2.499,2.52037
-0.143856,-0.29013,2.499,2.5199
-0.135745,-0.29013,2.499,2.51944
-0.127634,-0.29013,2.499,2.51902
-0.120383,-0.292219,2.517,2.53676
-0.112214,-0.292219,2.517,2.53639
-0.104044,-0.292219,2.517,2.53604
-0.0958747,-0.292219,2.517,2.53572
-0.0877052,-0.292219,2.517,2.53542
-0.0795356,-0.292219,2.517,2.53515
-0.0713661,-0.292219,2.517,2.53491
-0.0631965,-0.292219,2.517,2.53469
-0.055027,-0.292219,2.517,2.5345
-0.0468574,-0.292219,2.517,2.53434
-0.0386878,-0.292219,2.517,2.5342
-0.0305183,-0.292219,2.517,2.53409
-0.0225174,-0.294425,2.536,2.55313
-0.0142862,-0.294425,2.536,2.55307
-0.00605498,-0.294425,2.536,2.55304
0.00217625,-0.294425,2.536,2.55303
0.0104075,-0.294425,2.536,2.55306
0.0186387,-0.294425,2.536,2.5531
0.0268699,-0.294425,2.536,2.55318
0.0353641,-0.296631,2.555,2.5724
0.043657,-0.296631,2.555,2.57253
0.0519499,-0.296631,2.555,2.57269
0.0602428,-0.296631,2.555,2.57287
0.0685357,-0.296631,2.555,2.57307
0.0768286,-0.296631,2.555,2.57331
0.0844885,-0.294425,2.536,2.55443
0.0927197,-0.294425,2.536,2.55472
0.100951,-0.294425,2.536,2.55503
0.109182,-0.294425,2.536,2.55537
0.117413,-0.294425,2.536,2.55573
0.125645,-0.294425,2.536,2.55612
0.133876,-0.294425,2.536,2.55654
0.142107,-0.294425,2.536,2.55699
0.149212,-0.292219,2.517,2.5383
0.157382,-0.292219,2.517,2.53879
0.165551,-0.292219,2.517,2.53931
0.173721,-0.292219,2.517,2.53985
0.18189,-0.292219,2.517,2.54043
0.19006,-0.292219,2.517,2.54102
0.198229,-0.292219,2.517,2.54165
0.204923,-0.29013,2.499,2.52412
0.213034,-0.29013,2.499,2.52479
0.221145,-0.29013,2.499,2.52549
0.229256,-0.29013,2.499,2.52621
0.237367,-0.29013,2.499,2.52696
0.245479,-0.29013,2.499,2.52773
0.25359,-0.29013,2.499,2.52853
0.261701,-0.29013,2.499,2.52936
0.269812,-0.29013,2.499,2.53021
0.277923,-0.29013,2.499,2.53109
0.286034,-0.29013,2.499,2.53199
0.294145,-0.29013,2.499,2.53292
0.302256,-0.29013,2.499,2.53388
0.310368,-0.29013,2.499,2.53486
0.316185,-0.28804,2.481,2.5176
0.324237,-0.28804,2.481,2.51862
0.33229,-0.28804,2.481,2.51967
0.340343,-0.28804,2.481,2.52075
0.350923,-0.29013,2.499,2.54014
0.359034,-0.29013,2.499,2.54128
0.367146,-0.29013,2.499,2.54243
0.372554,-0.28804,2.481,2.5253
0.380606,-0.28804,2.481,2.5265
0.388659,-0.28804,2.481,2.52772
0.39959,-0.29013,2.499,2.54732
0.407701,-0.29013,2.499,2.54861
0.415812,-0.29013,2.499,2.54992
0.423923,-0.29013,2.499,2.55125
0.432035,-0.29013,2.499,2.55261
0.436975,-0.28804,2.481,2.5356
0.445028,-0.28804,2.481,2.537
0.453081,-0.28804,2.481,2.53843
0.461134,-0.28804,2.481,2.53988
0.469186,-0.28804,2.481,2.54135
0.477239,-0.28804,2.481,2.54285
0.485292,-0.28804,2.481,2.54437
0.493344,-0.28804,2.481,2.54592
0.501397,-0.28804,2.481,2.54749
0.50945,-0.28804,2.481,2.54909
0.517502,-0.28804,2.481,2.55071
0.525555,-0.28804,2.481,2.55236
0.533608,-0.28804,2.481,2.55403
0.537731,-0.28595,2.463,2.53718
0.545725,-0.28595,2.463,2.53889
0.553719,-0.28595,2.463,2.54062
0.561714,-0.28595,2.463,2.54237
0.569708,-0.28595,2.463,2.54415
0.577702,-0.28595,2.463,2.54595
0.585697,-0.28595,2.463,2.54778
0.593691,-0.28595,2.463,2.54963
0.601685,-0.28595,2.463,2.5515
0.609679,-0.28595,2.463,2.5534
0.617674,-0.28595,2.463,2.55532
0.625668,-0.28595,2.463,2.55726
0.633662,-0.28595,2.463,2.55923
0.641657,-0.28595,2.463,2.56122
0.649651,-0.28595,2.463,2.56324
0.662451,-0.28804,2.481,2.58402
0.670504,-0.28804,2.481,2.5861
0.678557,-0.28804,2.481,2.5882
0.686609,-0.28804,2.481,2.59032
0.694662,-0.28804,2.481,2.59247
0.702715,-0.28804,2.481,2.59464
0.710768,-0.28804,2.481,2.59683
0.71882,-0.28804,2.481,2.59904
0.726873,-0.28804,2.481,2.60128
0.734926,-0.28804,2.481,2.60354
0.742978,-0.28804,2.481,2.60583
0.751031,-0.28804,2.481,2.60814
0.753577,-0.28595,2.463,2.59153
0.761571,-0.28595,2.463,2.59386
0.769565,-0.28595,2.463,2.59622
0.777559,-0.28595,2.463,2.5986
0.785554,-0.28595,2.463,2.60101
0.793548,-0.28595,2.463,2.60343
0.795684,-0.28386,2.445,2.58684
0.80362,-0.28386,2.445,2.58929
0.811556,-0.28386,2.445,2.59176
0.819492,-0.28386,2.445,2.59426
0.821675,-0.281887,2.428,2.57872
0.829556,-0.281887,2.428,2.58124
0.837436,-0.281887,2.428,2.58378
0.845317,-0.281887,2.428,2.58635
0.847224,-0.279913,2.411,2.57081
0.855049,-0.279913,2.411,2.5734
0.862875,-0.279913,2.411,2.57601
0.8707,-0.279913,2.411,2.57864
0.878526,-0.279913,2.411,2.58129
0.886351,-0.279913,2.411,2.58397
0.887872,-0.277939,2.394,2.56842
0.895642,-0.277939,2.394,2.57112
0.903413,-0.277939,2.394,2.57384
0.911183,-0.277939,2.394,2.57658
0.918953,-0.277939,2.394,2.57933
0.926724,-0.277939,2.394,2.58211
0.934494,-0.277939,2.394,2.58491
0.942264,-0.277939,2.394,2.58773
0.950035,-0.277939,2.394,2.59057
0.951003,-0.275966,2.377,2.57501
0.958719,-0.275966,2.377,2.57787
0.966434,-0.275966,2.377,2.58075
0.974149,-0.275966,2.377,2.58365
0.995908,-0.279913,2.411,2.62357
nan,nan,nan,NaN
nan,nan,nan,NaN
nan,nan,nan,NaN
nan,nan,nan,NaN
nan,nan,nan,NaN
nan,nan,nan,NaN
nan,nan,nan,NaN
nan,nan,nan,NaN
nan,nan,nan,NaN
nan,nan,nan,NaN
nan,nan,nan,NaN
1.70049,-0.436762,3.762,4.15151
1.7127,-0.436762,3.762,4.15653
1.72491,-0.436762,3.762,4.16158
1.73712,-0.436762,3.762,4.16665
1.74933,-0.436762,3.762,4.17176
1.76154,-0.436762,3.762,4.17689
1.79356,-0.441638,3.804,4.22875
1.8059,-0.441638,3.804,4.234
1.81825,-0.441638,3.804,4.23928
1.85081,-0.446514,3.846,4.29145
1.86329,-0.446514,3.846,4.29685
1.87577,-0.446514,3.846,4.30228
1.88826,-0.446514,3.846,4.30774
1.90074,-0.446514,3.846,4.31322
1.91322,-0.446514,3.846,4.31874
1.86312,-0.432002,3.721,4.18374
1.85504,-0.427358,3.681,4.1441
1.86699,-0.427358,3.681,4.14946
1.85903,-0.42283,3.642,4.11083
1.83181,-0.414006,3.566,4.03029
1.84338,-0.414006,3.566,4.03557
1.83571,-0.409711,3.529,3.99894
1.84716,-0.409711,3.529,4.00421
1.85862,-0.409711,3.529,4.00951
1.851,-0.405531,3.493,3.97388
1.86233,-0.405531,3.493,3.97917
1.89298,-0.409711,3.529,4.02555
1.90444,-0.409711,3.529,4.03095
1.93598,-0.414006,3.566,4.0787
1.94755,-0.414006,3.566,4.0842
1.98,-0.418418,3.604,4.13332
1.9917,-0.418418,3.604,4.13893
2.0034,-0.418418,3.604,4.14457
2.03634,-0.42283,3.642,4.194
2.04816,-0.42283,3.642,4.19975
2.08204,-0.427358,3.681,4.25056
2.09399,-0.427358,3.681,4.25643
2.10594,-0.427358,3.681,4.26232
2.1409,-0.432002,3.721,4.31462
2.12983,-0.427358,3.681,4.27418
2.14178,-0.427358,3.681,4.28014
2.15373,-0.427358,3.681,4.28613
2.14273,-0.42283,3.642,4.24668
2.15455,-0.42283,3.642,4.25265
2.12117,-0.414006,3.566,4.16978
2.11061,-0.409711,3.529,4.13236
2.12207,-0.409711,3.529,4.13822
2.11176,-0.405531,3.493,4.10183
2.08055,-0.397404,3.423,4.02536
2.09166,-0.397404,3.423,4.03111
2.06161,-0.389626,3.356,3.95788
2.05274,-0.385911,3.324,3.92577
2.06353,-0.385911,3.324,3.93142
2.03438,-0.37848,3.26,3.86129
1.9885,-0.368032,3.17,3.76012
1.99879,-0.368032,3.17,3.76557
1.9907,-0.364665,3.141,3.73654
1.96459,-0.358047,3.084,3.67408
1.9746,-0.358047,3.084,3.67944
1.96723,-0.354912,3.057,3.65256
1.94223,-0.348643,3.003,3.5933
1.93508,-0.345625,2.977,3.56742
1.94474,-0.345625,2.977,3.57267
1.92092,-0.339704,2.926,3.51665
1.91392,-0.336801,2.901,3.49175
1.92334,-0.336801,2.901,3.49692
1.90077,-0.331228,2.853,3.44416
1.89397,-0.328442,2.829,3.42027
1.90315,-0.328442,2.829,3.42536
1.88124,-0.323101,2.783,3.37469
1.87533,-0.320547,2.761,3.35302
-2.30597,-0.375125,3.324,4.0629
-2.29518,-0.375125,3.324,4.05679
-2.28439,-0.375125,3.324,4.0507
-2.25171,-0.371514,3.292,4.00568
-2.24103,-0.371514,3.292,3.99969
-2.23034,-0.371514,3.292,3.99371
-2.21966,-0.371514,3.292,3.98775
-2.1875,-0.367902,3.26,3.94311
-2.17692,-0.367902,3.26,3.93725
-2.16634,-0.367902,3.26,3.93141
-2.15576,-0.367902,3.26,3.92559
-2.14518,-0.367902,3.26,3.91979
-2.13459,-0.367902,3.26,3.91401
-2.12401,-0.367902,3.26,3.90825
-2.11343,-0.367902,3.26,3.90251
-2.10285,-0.367902,3.26,3.89679
-2.09227,-0.367902,3.26,3.89109
-2.08169,-0.367902,3.26,3.88541
-2.07111,-0.367902,3.26,3.87975
-2.06053,-0.367902,3.26,3.87411
-2.03108,-0.364517,3.23,3.83289
-2.0206,-0.364517,3.23,3.82735
-2.01011,-0.364517,3.23,3.82182
-1.99963,-0.364517,3.23,3.81632
-1.97006,-0.361018,3.199,3.77426
-1.95967,-0.361018,3.199,3.76885
-1.94929,-0.361018,3.199,3.76346
-1.93891,-0.361018,3.199,3.7581
-1.94721,-0.364517,3.23,3.78912
-1.93673,-0.364517,3.23,3.78374
-1.92624,-0.364517,3.23,3.77838
nan,nan,nan,NaN
nan,nan,nan,NaN
nan,nan,nan,NaN
nan,nan,nan,NaN
nan,nan,nan,NaN
nan,nan,nan,NaN
nan,nan,nan,NaN
nan,nan,nan,NaN
nan,nan,nan,NaN
nan,nan,nan,NaN
nan,nan,nan,NaN
nan,nan,nan,NaN
nan,nan,nan,NaN
nan,nan,nan,NaN
nan,nan,nan,NaN
nan,nan,nan,NaN
nan,nan,nan,NaN
nan,nan,nan,NaN
nan,nan,nan,NaN
nan,nan,nan,NaN
nan,nan,nan,NaN
nan,nan,nan,NaN
nan,nan,nan,NaN
nan,nan,nan,NaN
nan,nan,nan,NaN
nan,nan,nan,NaN
nan,nan,nan,NaN
nan,nan,nan,NaN
nan,nan,nan,NaN
nan,nan,nan,NaN
nan,nan,nan,NaN
-1.20415,-0.275927,2.445,2.73937
-1.19622,-0.275927,2.445,2.73589
-1.18002,-0.274008,2.428,2.71343
-1.17214,-0.274008,2.428,2.71001
-1.15611,-0.27209,2.411,2.68766
-1.14828,-0.27209,2.411,2.68431
-1.14046,-0.27209,2.411,2.68097
-1.13263,-0.27209,2.411,2.67765
-1.1248,-0.27209,2.411,2.67435
-1.1091,-0.270171,2.394,2.65223
-1.09351,-0.268253,2.377,2.63018
-1.0858,-0.268253,2.377,2.62698
-1.07808,-0.268253,2.377,2.6238
-1.07037,-0.268253,2.377,2.62064
-1.06265,-0.268253,2.377,2.6175
-1.05494,-0.268253,2.377,2.61438
-1.04722,-0.268253,2.377,2.61128
-1.03951,-0.268253,2.377,2.60819
-1.03179,-0.268253,2.377,2.60513
-1.02408,-0.268253,2.377,2.60208
-1.01636,-0.268253,2.377,2.59905
-1.00865,-0.268253,2.377,2.59605
-1.00093,-0.268253,2.377,2.59306
-0.993215,-0.268253,2.377,2.59009
-0.992548,-0.270171,2.394,2.60564
-0.984778,-0.270171,2.394,2.60269
-0.970069,-0.268253,2.377,2.5813
-0.962354,-0.268253,2.377,2.57841
-0.954639,-0.268253,2.377,2.57554
-0.946924,-0.268253,2.377,2.57269
-0.939209,-0.268253,2.377,2.56986
-0.931494,-0.268253,2.377,2.56705
-0.923778,-0.268253,2.377,2.56427
-0.916063,-0.268253,2.377,2.5615
-0.908348,-0.268253,2.377,2.55875
-0.894571,-0.266447,2.361,2.53881
-0.886907,-0.266447,2.361,2.53612
-0.879244,-0.266447,2.361,2.53345
-0.871581,-0.266447,2.361,2.5308
-0.863918,-0.266447,2.361,2.52818
-0.856255,-0.266447,2.361,2.52557
-0.848591,-0.266447,2.361,2.52298
-0.840928,-0.266447,2.361,2.52041
-0.833265,-0.266447,2.361,2.51787
-0.831197,-0.268253,2.377,2.53239
-0.823481,-0.268253,2.377,2.52986
-0.815766,-0.268253,2.377,2.52736
-0.808051,-0.268253,2.377,2.52488
-0.800336,-0.268253,2.377,2.52242
-0.792621,-0.268253,2.377,2.51999
-0.784906,-0.268253,2.377,2.51757
-0.777191,-0.268253,2.377,2.51518
-0.769475,-0.268253,2.377,2.5128
-0.76176,-0.268253,2.377,2.51045
-0.754045,-0.268253,2.377,2.50812
-0.74633,-0.268253,2.377,2.50581
-0.743897,-0.270171,2.394,2.52143
-0.736127,-0.270171,2.394,2.51915
-0.728357,-0.270171,2.394,2.51689
-0.720586,-0.270171,2.394,2.51465
-0.717878,-0.27209,2.411,2.53028
-0.710052,-0.27209,2.411,2.52807
-0.702227,-0.27209,2.411,2.52588
-0.694401,-0.27209,2.411,2.52372
-0.686576,-0.27209,2.411,2.52157
-0.67875,-0.27209,2.411,2.51946
-0.675655,-0.274008,2.428,2.53511
-0.667775,-0.274008,2.428,2.53302
-0.659894,-0.274008,2.428,2.53095
-0.652013,-0.274008,2.428,2.52891
-0.644133,-0.274008,2.428,2.52689
-0.636252,-0.274008,2.428,2.52489
-0.628371,-0.274008,2.428,2.52292
-0.620491,-0.274008,2.428,2.52097
-0.61261,-0.274008,2.428,2.51904
-0.604729,-0.274008,2.428,2.51713
-0.596848,-0.274008,2.428,2.51525
-0.593092,-0.275927,2.445,2.53099
-0.585156,-0.275927,2.445,2.52914
-0.57722,-0.275927,2.445,2.52732
-0.569284,-0.275927,2.445,2.52552
-0.561348,-0.275927,2.445,2.52374
-0.553412,-0.275927,2.445,2.52199
-0.553508,-0.279989,2.481,2.55737
-0.545455,-0.279989,2.481,2.55564
-0.537403,-0.279989,2.481,2.55393
-0.52935,-0.279989,2.481,2.55225
-0.521297,-0.279989,2.481,2.55059
-0.513244,-0.279989,2.481,2.54896
-0.508857,-0.282021,2.499,2.56583
-0.500746,-0.282021,2.499,2.56423
-0.492635,-0.282021,2.499,2.56266
-0.484524,-0.282021,2.499,2.56111
-0.476412,-0.282021,2.499,2.55959
-0.471674,-0.284052,2.517,2.57652
-0.463505,-0.284052,2.517,2.57504
-0.455335,-0.284052,2.517,2.57358
-0.447166,-0.284052,2.517,2.57215
-0.438996,-0.284052,2.517,2.57074
-0.430827,-0.284052,2.517,2.56936
-0.422657,-0.284052,2.517,2.568
-0.414487,-0.284052,2.517,2.56667
-0.406318,-0.284052,2.517,2.56536
-0.398148,-0.284052,2.517,2.56408
-0.389979,-0.284052,2.517,2.56282
-0.381809,-0.284052,2.517,2.56159
-0.37364,-0.284052,2.517,2.56039
-0.36547,-0.284052,2.517,2.55921
-0.357301,-0.284052,2.517,2.55805
-0.346634,-0.282021,2.499,2.53864
-0.338523,-0.282021,2.499,2.53755
-0.328032,-0.279989,2.481,2.51821
-0.319979,-0.279989,2.481,2.51717
-0.311927,-0.279989,2.481,2.51616
-0.303874,-0.279989,2.481,2.51517
-0.295821,-0.279989,2.481,2.51421
-0.285681,-0.277958,2.463,2.49504
-0.277686,-0.277958,2.463,2.49414
-0.269692,-0.277958,2.463,2.49326
-0.261698,-0.277958,2.463,2.49241
-0.253704,-0.277958,2.463,2.49159
-0.245709,-0.277958,2.463,2.49078
-0.237715,-0.277958,2.463,2.49001
-0.229721,-0.277958,2.463,2.48926
-0.221726,-0.277958,2.463,2.48853
-0.213732,-0.277958,2.463,2.48783
-0.205738,-0.277958,2.463,2.48716
-0.197744,-0.277958,2.463,2.48651
-0.189749,-0.277958,2.463,2.48589
-0.181755,-0.277958,2.463,2.48529
-0.175031,-0.279989,2.481,2.50288
-0.166978,-0.279989,2.481,2.50233
-0.158925,-0.279989,2.481,2.5018
-0.151967,-0.282021,2.499,2.51945
-0.143856,-0.282021,2.499,2.51897
-0.135745,-0.282021,2.499,2.51852
-0.128553,-0.284052,2.517,2.53624
-0.120383,-0.284052,2.517,2.53584
-0.112214,-0.284052,2.517,2.53546
-0.104044,-0.284052,2.517,2.53511
-0.0958747,-0.284052,2.517,2.53479
-0.0877052,-0.284052,2.517,2.5345
-0.0795356,-0.284052,2.517,2.53423
-0.0713661,-0.284052,2.517,2.53398
-0.0631965,-0.284052,2.517,2.53377
-0.055027,-0.284052,2.517,2.53358
-0.0468574,-0.284052,2.517,2.53341
-0.0386878,-0.284052,2.517,2.53327
-0.0305183,-0.284052,2.517,2.53316
-0.0223487,-0.284052,2.517,2.53308
-0.0141792,-0.284052,2.517,2.53302
-0.00600962,-0.284052,2.517,2.53298
0.00217625,-0.286196,2.536,2.5521
0.0104075,-0.286196,2.536,2.55212
0.0186387,-0.286196,2.536,2.55217
0.0268699,-0.286196,2.536,2.55224
0.0351011,-0.286196,2.536,2.55234
0.0433324,-0.286196,2.536,2.55247
0.0515636,-0.286196,2.536,2.55262
0.0597948,-0.286196,2.536,2.5528
0.0680261,-0.286196,2.536,2.553
0.0762573,-0.286196,2.536,2.55324
0.0844885,-0.286196,2.536,2.5535
0.0927197,-0.286196,2.536,2.55378
0.100951,-0.286196,2.536,2.55409
0.109182,-0.286196,2.536,2.55443
0.117413,-0.286196,2.536,2.5548
0.124703,-0.284052,2.517,2.53605
0.132873,-0.284052,2.517,2.53646
0.141042,-0.284052,2.517,2.5369
0.149212,-0.284052,2.517,2.53737
0.157382,-0.284052,2.517,2.53786
0.165551,-0.284052,2.517,2.53838
0.173721,-0.284052,2.517,2.53893
0.180589,-0.282021,2.499,2.52134
0.188701,-0.282021,2.499,2.52193
0.196812,-0.282021,2.499,2.52255
0.204923,-0.282021,2.499,2.5232
0.213034,-0.282021,2.499,2.52387
0.221145,-0.282021,2.499,2.52457
0.229256,-0.282021,2.499,2.52529
0.237367,-0.282021,2.499,2.52604
0.245479,-0.282021,2.499,2.52682
0.251763,-0.279989,2.481,2.50941
0.259816,-0.279989,2.481,2.51023
0.269812,-0.282021,2.499,2.5293
0.277923,-0.282021,2.499,2.53017
0.286034,-0.282021,2.499,2.53108
0.294145,-0.282021,2.499,2.53201
0.302256,-0.282021,2.499,2.53296
0.308132,-0.279989,2.481,2.51569
0.316185,-0.279989,2.481,2.51669
0.324237,-0.279989,2.481,2.51771
0.33229,-0.279989,2.481,2.51876
0.340343,-0.279989,2.481,2.51984
0.348396,-0.279989,2.481,2.52094
0.356448,-0.279989,2.481,2.52206
0.364501,-0.279989,2.481,2.52322
0.372554,-0.279989,2.481,2.52439
0.380606,-0.279989,2.481,2.52559
0.388659,-0.279989,2.481,2.52682
0.396712,-0.279989,2.481,2.52807
0.404765,-0.279989,2.481,2.52935
0.412817,-0.279989,2.481,2.53065
0.42087,-0.279989,2.481,2.53197
0.428923,-0.279989,2.481,2.53332
0.436975,-0.279989,2.481,2.5347
0.445028,-0.279989,2.481,2.5361
0.453081,-0.279989,2.481,2.53753
0.461134,-0.279989,2.481,2.53898
0.469186,-0.279989,2.481,2.54045
0.477239,-0.279989,2.481,2.54195
0.485292,-0.279989,2.481,2.54347
0.493344,-0.279989,2.481,2.54502
0.501397,-0.279989,2.481,2.5466
0.50945,-0.279989,2.481,2.54819
0.517502,-0.279989,2.481,2.54982
0.525555,-0.279989,2.481,2.55146
0.533608,-0.279989,2.481,2.55313
0.537731,-0.277958,2.463,2.53629
0.545725,-0.277958,2.463,2.538
0.553719,-0.277958,2.463,2.53973
0.561714,-0.277958,2.463,2.54149
0.569708,-0.277958,2.463,2.54327
0.577702,-0.277958,2.463,2.54507
0.585697,-0.277958,2.463,2.54689
0.593691,-0.277958,2.463,2.54874
0.601685,-0.277958,2.463,2.55062
0.609679,-0.277958,2.463,2.55252
0.617674,-0.277958,2.463,2.55444
0.625668,-0.277958,2.463,2.55638
0.633662,-0.277958,2.463,2.55835
0.641657,-0.277958,2.463,2.56034
0.649651,-0.277958,2.463,2.56236
0.657645,-0.277958,2.463,2.5644
0.670504,-0.279989,2.481,2.58521
0.678557,-0.279989,2.481,2.58731
0.686609,-0.279989,2.481,2.58944
0.694662,-0.279989,2.481,2.59158
0.702715,-0.279989,2.481,2.59375
0.710768,-0.279989,2.481,2.59595
0.71882,-0.279989,2.481,2.59816
0.726873,-0.279989,2.481,2.6004
0.734926,-0.279989,2.481,2.60267
0.742978,-0.279989,2.481,2.60495
0.751031,-0.279989,2.481,2.60726
0.753577,-0.277958,2.463,2.59066
0.761571,-0.277958,2.463,2.59299
0.769565,-0.277958,2.463,2.59535
0.777559,-0.277958,2.463,2.59774
0.785554,-0.277958,2.463,2.60014
0.793548,-0.277958,2.463,2.60257
0.795684,-0.275927,2.445,2.58598
0.80362,-0.275927,2.445,2.58843
0.811556,-0.275927,2.445,2.5909
0.819492,-0.275927,2.445,2.5934
0.821675,-0.274008,2.428,2.57787
0.829556,-0.274008,2.428,2.58039
0.837436,-0.274008,2.428,2.58294
0.845317,-0.274008,2.428,2.5855
0.847224,-0.27209,2.411,2.56997
0.855049,-0.27209,2.411,2.57256
0.862875,-0.27209,2.411,2.57517
0.864561,-0.270171,2.394,2.55963
0.872331,-0.270171,2.394,2.56226
0.880102,-0.270171,2.394,2.56492
0.887872,-0.270171,2.394,2.5676
0.895642,-0.270171,2.394,2.57029
0.903413,-0.270171,2.394,2.57301
0.911183,-0.270171,2.394,2.57575
0.918953,-0.270171,2.394,2.57851
0.926724,-0.270171,2.394,2.58129
0.927858,-0.268253,2.377,2.56574
0.935573,-0.268253,2.377,2.56854
0.950035,-0.270171,2.394,2.58975
0.951003,-0.268253,2.377,2.5742
0.958719,-0.268253,2.377,2.57706
0.966434,-0.268253,2.377,2.57994
0.974149,-0.268253,2.377,2.58284
nan,nan,nan,NaN
nan,nan,nan,NaN
nan,nan,nan,NaN
nan,nan,nan,NaN
nan,nan,nan,NaN
nan,nan,nan,NaN
nan,nan,nan,NaN
nan,nan,nan,NaN
nan,nan,nan,NaN
nan,nan,nan,NaN
nan,nan,nan,NaN
nan,nan,nan,NaN
nan,nan,nan,NaN
nan,nan,nan,NaN
1.74417,-0.429294,3.804,4.20676
1.75652,-0.429294,3.804,4.21189
1.76886,-0.429294,3.804,4.21706
1.78121,-0.429294,3.804,4.22225
1.81336,-0.434034,3.846,4.27415
1.82584,-0.434034,3.846,4.27946
1.83833,-0.434034,3.846,4.2848
1.87198,-0.439,3.89,4.33926
1.88461,-0.439,3.89,4.34472
1.89723,-0.439,3.89,4.35021
1.90986,-0.439,3.89,4.35573
1.90074,-0.434034,3.846,4.31195
1.91322,-0.434034,3.846,4.31747
1.90468,-0.429294,3.804,4.2758
1.89586,-0.424555,3.762,4.23405
1.90807,-0.424555,3.762,4.23953
1.87893,-0.415413,3.681,4.15364
1.85133,-0.406724,3.604,4.07206
1.86303,-0.406724,3.604,4.07739
1.87472,-0.406724,3.604,4.08275
1.88642,-0.406724,3.604,4.08813
nan,nan,nan,NaN
1.87007,-0.39826,3.529,4.01368
1.88153,-0.39826,3.529,4.01903
1.91283,-0.402435,3.566,4.0666
1.94491,-0.406724,3.604,4.11545
1.95661,-0.406724,3.604,4.12099
1.9683,-0.406724,3.604,4.12656
2.00088,-0.411012,3.642,4.17572
2.0127,-0.411012,3.642,4.18139
2.0462,-0.415413,3.681,4.23193
2.05815,-0.415413,3.681,4.23772
2.0701,-0.415413,3.681,4.24354
2.10467,-0.419928,3.721,4.29556
2.11675,-0.419928,3.721,4.30149
2.12882,-0.419928,3.721,4.30744
2.1409,-0.419928,3.721,4.31343
2.12983,-0.415413,3.681,4.273
2.14178,-0.415413,3.681,4.27897
2.15373,-0.415413,3.681,4.28496
2.14273,-0.411012,3.642,4.24551
2.15455,-0.411012,3.642,4.25149
2.14377,-0.406724,3.604,4.21307
2.11061,-0.39826,3.529,4.13124
2.12207,-0.39826,3.529,4.1371
2.11176,-0.394197,3.493,4.10073
2.08055,-0.386297,3.423,4.02428
2.09166,-0.386297,3.423,4.03004
2.06161,-0.378736,3.356,3.95682
2.05274,-0.375125,3.324,3.92472
2.06353,-0.375125,3.324,3.93037
2.03438,-0.367902,3.26,3.86027
1.9885,-0.357745,3.17,3.75913
1.99879,-0.357745,3.17,3.76458
1.9907,-0.354473,3.141,3.73556
1.96459,-0.34804,3.084,3.67312
1.95731,-0.344993,3.057,3.64628
1.96723,-0.344993,3.057,3.65161
1.94223,-0.338899,3.003,3.59237
1.91817,-0.33303,2.951,3.53535
1.92775,-0.33303,2.951,3.54056
1.92092,-0.330209,2.926,3.51574
1.89809,-0.324679,2.877,3.46198
1.90743,-0.324679,2.877,3.46711
1.88479,-0.319262,2.829,3.41432
1.89397,-0.319262,2.829,3.4194
1.90315,-0.319262,2.829,3.42449
1.88124,-0.314071,2.783,3.37384
1.86038,-0.309106,2.739,3.32546
-2.26157,-0.357324,3.26,3.98371
-2.23027,-0.354036,3.23,3.94111
-2.21979,-0.354036,3.23,3.93519
-2.20931,-0.354036,3.23,3.92928
-2.17772,-0.350638,3.199,3.88574
-2.16734,-0.350638,3.199,3.87993
-2.15695,-0.350638,3.199,3.87414
-2.14657,-0.350638,3.199,3.86837
-2.13619,-0.350638,3.199,3.86262
-2.1258,-0.350638,3.199,3.85689
-2.11542,-0.350638,3.199,3.85117
-2.10504,-0.350638,3.199,3.84548
-2.09465,-0.350638,3.199,3.83981
-2.08427,-0.350638,3.199,3.83415
-2.09398,-0.354036,3.23,3.86562
-2.0835,-0.354036,3.23,3.85995
-2.07302,-0.354036,3.23,3.8543
-2.04274,-0.350638,3.199,3.81174
-2.03235,-0.350638,3.199,3.80618
-2.02197,-0.350638,3.199,3.80065
-2.01159,-0.350638,3.199,3.79513
-2.0012,-0.350638,3.199,3.78964
-1.99082,-0.350638,3.199,3.78417
-1.96248,-0.347459,3.17,3.74446
-1.9522,-0.347459,3.17,3.73908
-1.94191,-0.347459,3.17,3.73372
-1.93162,-0.347459,3.17,3.72837
-1.92133,-0.347459,3.17,3.72305
-1.91104,-0.347459,3.17,3.71776
-1.90075,-0.347459,3.17,3.71248
-1.90776,-0.350638,3.199,3.74113
nan,nan,nan,NaN
nan,nan,nan,NaN
nan,nan,nan,NaN
nan,nan,nan,NaN
nan,nan,nan,NaN
nan,nan,nan,NaN
nan,nan,nan,NaN
nan,nan,nan,NaN
nan,nan,nan,NaN
nan,nan,nan,NaN
nan,nan,nan,NaN
nan,nan,nan,NaN
nan,nan,nan,NaN
nan,nan,nan,NaN
nan,nan,nan,NaN
nan,nan,nan,NaN
nan,nan,nan,NaN
nan,nan,nan,NaN
nan,nan,nan,NaN
nan,nan,nan,NaN
nan,nan,nan,NaN
nan,nan,nan,NaN
nan,nan,nan,NaN
nan,nan,nan,NaN
nan,nan,nan,NaN
nan,nan,nan,NaN
nan,nan,nan,NaN
nan,nan,nan,NaN
nan,nan,nan,NaN
nan,nan,nan,NaN
nan,nan,nan,NaN
-1.20415,-0.267993,2.445,2.73858
-1.19622,-0.267993,2.445,2.7351
-1.18002,-0.26613,2.428,2.71265
-1.17214,-0.26613,2.428,2.70923
-1.15611,-0.264266,2.411,2.68688
-1.14828,-0.264266,2.411,2.68353
-1.14046,-0.264266,2.411,2.68019
-1.12464,-0.262403,2.394,2.65799
-1.11687,-0.262403,2.394,2.65471
-1.1091,-0.262403,2.394,2.65145
-1.09351,-0.26054,2.377,2.62941
-1.0858,-0.26054,2.377,2.62621
-1.07808,-0.26054,2.377,2.62303
-1.07037,-0.26054,2.377,2.61987
-1.06265,-0.26054,2.377,2.61672
-1.05494,-0.26054,2.377,2.6136
-1.04722,-0.26054,2.377,2.61049
-1.03951,-0.26054,2.377,2.60741
-1.03179,-0.26054,2.377,2.60434
-1.02408,-0.26054,2.377,2.6013
-1.01636,-0.26054,2.377,2.59827
-1.01586,-0.262403,2.394,2.61382
-1.00809,-0.262403,2.394,2.61081
-1.00032,-0.262403,2.394,2.60782
-0.992548,-0.262403,2.394,2.60485
-0.984778,-0.262403,2.394,2.6019
-0.977007,-0.262403,2.394,2.59897
-0.969237,-0.262403,2.394,2.59606
-0.961466,-0.262403,2.394,2.59317
-0.953696,-0.262403,2.394,2.5903
-0.939209,-0.26054,2.377,2.56907
-0.931494,-0.26054,2.377,2.56626
-0.923778,-0.26054,2.377,2.56347
-0.916063,-0.26054,2.377,2.5607
-0.908348,-0.26054,2.377,2.55795
-0.894571,-0.258786,2.361,2.53802
-0.886907,-0.258786,2.361,2.53533
-0.879244,-0.258786,2.361,2.53266
-0.871581,-0.258786,2.361,2.53001
-0.863918,-0.258786,2.361,2.52738
-0.856255,-0.258786,2.361,2.52477
-0.848591,-0.258786,2.361,2.52218
-0.840928,-0.258786,2.361,2.51961
-0.833265,-0.258786,2.361,2.51707
-0.831197,-0.26054,2.377,2.53158
-0.823481,-0.26054,2.377,2.52906
-0.815766,-0.26054,2.377,2.52656
-0.808051,-0.26054,2.377,2.52408
-0.800336,-0.26054,2.377,2.52162
-0.792621,-0.26054,2.377,2.51918
-0.784906,-0.26054,2.377,2.51676
-0.777191,-0.26054,2.377,2.51437
-0.769475,-0.26054,2.377,2.51199
-0.76176,-0.26054,2.377,2.50964
-0.754045,-0.26054,2.377,2.50731
-0.74633,-0.26054,2.377,2.505
-0.743897,-0.262403,2.394,2.52061
-0.736127,-0.262403,2.394,2.51833
-0.728357,-0.262403,2.394,2.51607
-0.720586,-0.262403,2.394,2.51383
-0.717878,-0.264266,2.411,2.52945
-0.710052,-0.264266,2.411,2.52724
-0.702227,-0.264266,2.411,2.52505
-0.694401,-0.264266,2.411,2.52289
-0.686576,-0.264266,2.411,2.52074
-0.67875,-0.264266,2.411,2.51862
-0.675655,-0.26613,2.428,2.53427
-0.667775,-0.26613,2.428,2.53218
-0.659894,-0.26613,2.428,2.53011
-0.652013,-0.26613,2.428,2.52807
-0.644133,-0.26613,2.428,2.52605
-0.636252,-0.26613,2.428,2.52405
-0.628371,-0.26613,2.428,2.52207
-0.620491,-0.26613,2.428,2.52012
-0.61261,-0.26613,2.428,2.51819
-0.604729,-0.26613,2.428,2.51629
-0.596848,-0.26613,2.428,2.51441
-0.593092,-0.267993,2.445,2.53014
-0.585156,-0.267993,2.445,2.52829
-0.57722,-0.267993,2.445,2.52647
-0.569284,-0.267993,2.445,2.52466
-0.561348,-0.267993,2.445,2.52289
-0.553412,-0.267993,2.445,2.52113
-0.549492,-0.269966,2.463,2.53795
-0.545455,-0.271939,2.481,2.55477
-0.537403,-0.271939,2.481,2.55306
-0.52935,-0.271939,2.481,2.55138
-0.521297,-0.271939,2.481,2.54972
-0.513244,-0.271939,2.481,2.54808
-0.505192,-0.271939,2.481,2.54647
-0.497139,-0.271939,2.481,2.54489
-0.492635,-0.273912,2.499,2.56178
-0.484524,-0.273912,2.499,2.56023
-0.476412,-0.273912,2.499,2.55871
-0.471674,-0.275885,2.517,2.57563
-0.463505,-0.275885,2.517,2.57415
-0.452079,-0.273912,2.499,2.55429
-0.443968,-0.273912,2.499,2.55287
-0.435857,-0.273912,2.499,2.55147
-0.427746,-0.273912,2.499,2.5501
-0.419634,-0.273912,2.499,2.54875
-0.411523,-0.273912,2.499,2.54743
-0.406318,-0.275885,2.517,2.56447
-0.398148,-0.275885,2.517,2.56319
-0.389979,-0.275885,2.517,2.56193
-0.381809,-0.275885,2.517,2.5607
-0.370968,-0.273912,2.499,2.54119
-0.362857,-0.273912,2.499,2.54002
-0.354745,-0.273912,2.499,2.53887
-0.346634,-0.273912,2.499,2.53775
-0.338523,-0.273912,2.499,2.53666
-0.328032,-0.271939,2.481,2.51732
-0.319979,-0.271939,2.481,2.51629
-0.311927,-0.271939,2.481,2.51528
-0.303874,-0.271939,2.481,2.51429
-0.295821,-0.271939,2.481,2.51333
-0.285681,-0.269966,2.463,2.49417
-0.277686,-0.269966,2.463,2.49326
-0.269692,-0.269966,2.463,2.49239
-0.261698,-0.269966,2.463,2.49153
-0.253704,-0.269966,2.463,2.49071
-0.245709,-0.269966,2.463,2.4899
-0.237715,-0.269966,2.463,2.48913
-0.229721,-0.269966,2.463,2.48838
-0.221726,-0.269966,2.463,2.48765
-0.213732,-0.269966,2.463,2.48695
-0.205738,-0.269966,2.463,2.48628
-0.197744,-0.269966,2.463,2.48563
-0.189749,-0.269966,2.463,2.48501
-0.181755,-0.269966,2.463,2.48441
-0.175031,-0.271939,2.481,2.50199
-0.166978,-0.271939,2.481,2.50144
-0.158925,-0.271939,2.481,2.50091
-0.150872,-0.271939,2.481,2.50042
-0.14282,-0.271939,2.481,2.49994
-0.135745,-0.273912,2.499,2.51763
-0.127634,-0.273912,2.499,2.5172
-0.120383,-0.275885,2.517,2.53493
-0.112214,-0.275885,2.517,2.53456
-0.104044,-0.275885,2.517,2.53421
-0.0958747,-0.275885,2.517,2.53389
-0.0877052,-0.275885,2.517,2.53359
-0.0795356,-0.275885,2.517,2.53332
-0.0713661,-0.275885,2.517,2.53308
-0.0631965,-0.275885,2.517,2.53286
-0.055027,-0.275885,2.517,2.53267
-0.0468574,-0.275885,2.517,2.53251
-0.0386878,-0.275885,2.517,2.53237
-0.0305183,-0.275885,2.517,2.53226
-0.0223487,-0.275885,2.517,2.53217
-0.0141792,-0.275885,2.517,2.53211
-0.00600962,-0.275885,2.517,2.53208
0.00215994,-0.275885,2.517,2.53208
0.0103295,-0.275885,2.517,2.5321
0.0184991,-0.275885,2.517,2.53214
0.0268699,-0.277967,2.536,2.55133
0.0351011,-0.277967,2.536,2.55143
0.0433324,-0.277967,2.536,2.55156
0.0515636,-0.277967,2.536,2.55171
0.0597948,-0.277967,2.536,2.55189
0.0680261,-0.277967,2.536,2.5521
0.0762573,-0.277967,2.536,2.55233
0.0844885,-0.277967,2.536,2.55259
0.0927197,-0.277967,2.536,2.55287
0.100951,-0.277967,2.536,2.55318
0.108364,-0.275885,2.517,2.53439
0.116534,-0.275885,2.517,2.53475
0.124703,-0.275885,2.517,2.53514
0.132873,-0.275885,2.517,2.53556
0.141042,-0.275885,2.517,2.536
0.149212,-0.275885,2.517,2.53647
0.156256,-0.273912,2.499,2.51882
0.164367,-0.273912,2.499,2.51933
0.172478,-0.273912,2.499,2.51988
0.180589,-0.273912,2.499,2.52044
0.188701,-0.273912,2.499,2.52104
0.196812,-0.273912,2.499,2.52166
0.204923,-0.273912,2.499,2.52231
0.213034,-0.273912,2.499,2.52298
0.221145,-0.273912,2.499,2.52367
0.229256,-0.273912,2.499,2.5244
0.235658,-0.271939,2.481,2.50696
0.24371,-0.271939,2.481,2.50773
0.251763,-0.271939,2.481,2.50852
0.259816,-0.271939,2.481,2.50935
0.269812,-0.273912,2.499,2.5284
0.277923,-0.273912,2.499,2.52928
0.286034,-0.273912,2.499,2.53019
0.294145,-0.273912,2.499,2.53112
0.302256,-0.273912,2.499,2.53207
0.308132,-0.271939,2.481,2.51481
0.316185,-0.271939,2.481,2.51581
0.324237,-0.271939,2.481,2.51683
0.33229,-0.271939,2.481,2.51788
0.340343,-0.271939,2.481,2.51896
0.348396,-0.271939,2.481,2.52006
0.356448,-0.271939,2.481,2.52118
0.364501,-0.271939,2.481,2.52234
0.372554,-0.271939,2.481,2.52351
0.380606,-0.271939,2.481,2.52471
0.388659,-0.271939,2.481,2.52594
0.396712,-0.271939,2.481,2.52719
0.404765,-0.271939,2.481,2.52847
0.412817,-0.271939,2.481,2.52977
0.42087,-0.271939,2.481,2.5311
0.428923,-0.271939,2.481,2.53245
0.436975,-0.271939,2.481,2.53382
0.445028,-0.271939,2.481,2.53522
0.453081,-0.271939,2.481,2.53665
0.461134,-0.271939,2.481,2.5381
0.469186,-0.271939,2.481,2.53958
0.477239,-0.271939,2.481,2.54108
0.485292,-0.271939,2.481,2.5426
0.493344,-0.271939,2.481,2.54415
0.501397,-0.271939,2.481,2.54572
0.50945,-0.271939,2.481,2.54732
0.517502,-0.271939,2.481,2.54895
0.525555,-0.271939,2.481,2.55059
0.533608,-0.271939,2.481,2.55226
0.541661,-0.271939,2.481,2.55396
0.545725,-0.269966,2.463,2.53714
0.553719,-0.269966,2.463,2.53887
0.561714,-0.269966,2.463,2.54062
0.569708,-0.269966,2.463,2.5424
0.577702,-0.269966,2.463,2.54421
0.585697,-0.269966,2.463,2.54603
0.593691,-0.269966,2.463,2.54789
0.601685,-0.269966,2.463,2.54976
0.609679,-0.269966,2.463,2.55166
0.617674,-0.269966,2.463,2.55358
0.625668,-0.269966,2.463,2.55553
0.633662,-0.269966,2.463,2.55749
0.641657,-0.269966,2.463,2.55949
0.649651,-0.269966,2.463,2.5615
0.657645,-0.269966,2.463,2.56354
0.670504,-0.271939,2.481,2.58435
0.678557,-0.271939,2.481,2.58646
0.686609,-0.271939,2.481,2.58858
0.694662,-0.271939,2.481,2.59073
0.702715,-0.271939,2.481,2.5929
0.710768,-0.271939,2.481,2.59509
0.71882,-0.271939,2.481,2.59731
0.726873,-0.271939,2.481,2.59955
0.734926,-0.271939,2.481,2.60181
0.742978,-0.271939,2.481,2.6041
0.751031,-0.271939,2.481,2.60641
0.759084,-0.271939,2.481,2.60874
0.767137,-0.271939,2.481,2.61109
0.775189,-0.271939,2.481,2.61347
0.783242,-0.271939,2.481,2.61587
0.785554,-0.269966,2.463,2.5993
0.793548,-0.269966,2.463,2.60172
0.801542,-0.269966,2.463,2.60417
0.80362,-0.267993,2.445,2.5876
0.811556,-0.267993,2.445,2.59007
0.819492,-0.267993,2.445,2.59257
0.821675,-0.26613,2.428,2.57704
0.829556,-0.26613,2.428,2.57957
0.837436,-0.26613,2.428,2.58211
0.845317,-0.26613,2.428,2.58468
0.847224,-0.264266,2.411,2.56915
0.855049,-0.264266,2.411,2.57174
0.862875,-0.264266,2.411,2.57436
0.864561,-0.262403,2.394,2.55882
0.872331,-0.262403,2.394,2.56146
0.880102,-0.262403,2.394,2.56411
0.887872,-0.262403,2.394,2.56679
0.895642,-0.262403,2.394,2.56949
0.903413,-0.262403,2.394,2.57221
0.911183,-0.262403,2.394,2.57495
0.918953,-0.262403,2.394,2.57771
0.926724,-0.262403,2.394,2.58049
0.927858,-0.26054,2.377,2.56494
0.935573,-0.26054,2.377,2.56774
0.950035,-0.262403,2.394,2.58895
0.951003,-0.26054,2.377,2.57341
0.958719,-0.26054,2.377,2.57627
0.966434,-0.26054,2.377,2.57915
0.974149,-0.26054,2.377,2.58205
nan,nan,nan,NaN
nan,nan,nan,NaN
nan,nan,nan,NaN
nan,nan,nan,NaN
nan,nan,nan,NaN
nan,nan,nan,NaN
nan,nan,nan,NaN
nan,nan,nan,NaN
nan,nan,nan,NaN
nan,nan,nan,NaN
nan,nan,nan,NaN
nan,nan,nan,NaN
nan,nan,nan,NaN
nan,nan,nan,NaN
1.74417,-0.416951,3.804,4.20552
1.75652,-0.416951,3.804,4.21065
1.76886,-0.416951,3.804,4.21582
1.78121,-0.416951,3.804,4.22102
1.81336,-0.421555,3.846,4.2729
1.82584,-0.421555,3.846,4.27821
1.83833,-0.421555,3.846,4.28356
1.87198,-0.426377,3.89,4.338
1.88461,-0.426377,3.89,4.34346
1.89723,-0.426377,3.89,4.34895
1.90986,-0.426377,3.89,4.35448
1.90074,-0.421555,3.846,4.31071
1.91322,-0.421555,3.846,4.31623
1.90468,-0.416951,3.804,4.27458
1.89586,-0.412348,3.762,4.23284
1.90807,-0.412348,3.762,4.23833
1.87893,-0.403469,3.681,4.15246
1.85133,-0.395029,3.604,4.07091
1.86303,-0.395029,3.604,4.07624
1.87472,-0.395029,3.604,4.0816
1.88642,-0.395029,3.604,4.08699
nan,nan,nan,NaN
1.87007,-0.386809,3.529,4.01256
1.88153,-0.386809,3.529,4.01791
1.91283,-0.390864,3.566,4.06547
1.94491,-0.395029,3.604,4.11431
1.95661,-0.395029,3.604,4.11985
1.9683,-0.395029,3.604,4.12542
2.00088,-0.399194,3.642,4.17457
2.0127,-0.399194,3.642,4.18025
2.0462,-0.403469,3.681,4.23078
2.05815,-0.403469,3.681,4.23657
2.0701,-0.403469,3.681,4.24239
2.10467,-0.407854,3.721,4.29439
2.11675,-0.407854,3.721,4.30033
2.12882,-0.407854,3.721,4.30628
2.1409,-0.407854,3.721,4.31227
2.12983,-0.403469,3.681,4.27185
2.14178,-0.403469,3.681,4.27782
2.15373,-0.403469,3.681,4.28382
2.14273,-0.399194,3.642,4.24439
2.15455,-0.399194,3.642,4.25037
2.14377,-0.395029,3.604,4.21196
2.11061,-0.386809,3.529,4.13015
2.12207,-0.386809,3.529,4.13602
2.11176,-0.382863,3.493,4.09965
2.08055,-0.37519,3.423,4.02323
2.09166,-0.37519,3.423,4.02899
2.06161,-0.367846,3.356,3.95579
2.05274,-0.364339,3.324,3.9237
2.06353,-0.364339,3.324,3.92936
2.01566,-0.354036,3.23,3.82376
1.9885,-0.347459,3.17,3.75816
1.99879,-0.347459,3.17,3.76362
1.9907,-0.344281,3.141,3.73461
1.96459,-0.338033,3.084,3.67218
1.95731,-0.335073,3.057,3.64535
1.96723,-0.335073,3.057,3.65069
1.94223,-0.329155,3.003,3.59146
1.91817,-0.323455,2.951,3.53446
1.92775,-0.323455,2.951,3.53967
1.92092,-0.320715,2.926,3.51486
1.89809,-0.315344,2.877,3.46111
1.90743,-0.315344,2.877,3.46624
1.88479,-0.310083,2.829,3.41347
1.89397,-0.310083,2.829,3.41855
1.90315,-0.310083,2.829,3.42365
1.86637,-0.302629,2.761,3.34635
1.86038,-0.300218,2.739,3.32465
-2.19913,-0.337173,3.17,3.87282
-2.18884,-0.337173,3.17,3.86699
-2.17855,-0.337173,3.17,3.86118
-2.14843,-0.334089,3.141,3.82011
-2.11849,-0.331004,3.112,3.77917
-2.10839,-0.331004,3.112,3.77352
-2.09829,-0.331004,3.112,3.76788
-2.08819,-0.331004,3.112,3.76227
-2.07809,-0.331004,3.112,3.75667
-2.06799,-0.331004,3.112,3.75109
-2.07707,-0.334089,3.141,3.78044
-2.06687,-0.334089,3.141,3.77484
-2.05668,-0.334089,3.141,3.76927
-2.06538,-0.337173,3.17,3.79847
-2.05509,-0.337173,3.17,3.79288
-2.0448,-0.337173,3.17,3.78732
-2.03451,-0.337173,3.17,3.78177
-2.04274,-0.340258,3.199,3.81079
-2.03235,-0.340258,3.199,3.80524
-2.00364,-0.337173,3.17,3.76526
-1.99335,-0.337173,3.17,3.75979
-1.98306,-0.337173,3.17,3.75435
-1.97277,-0.337173,3.17,3.74892
-1.96248,-0.337173,3.17,3.74352
-1.9522,-0.337173,3.17,3.73814
-1.94191,-0.337173,3.17,3.73277
-1.93162,-0.337173,3.17,3.72743
-1.92133,-0.337173,3.17,3.72211
-1.91104,-0.337173,3.17,3.71681
-1.90075,-0.337173,3.17,3.71153
-1.90776,-0.340258,3.199,3.74018
nan,nan,nan,NaN
nan,nan,nan,NaN
nan,nan,nan,NaN
nan,nan,nan,NaN
nan,nan,nan,NaN
nan,nan,nan,NaN
nan,nan,nan,NaN
nan,nan,nan,NaN
nan,nan,nan,NaN
nan,nan,nan,NaN
nan,nan,nan,NaN
nan,nan,nan,NaN
nan,nan,nan,NaN
nan,nan,nan,NaN
nan,nan,nan,NaN
nan,nan,nan,NaN
nan,nan,nan,NaN
nan,nan,nan,NaN
nan,nan,nan,NaN
nan,nan,nan,NaN
nan,nan,nan,NaN
nan,nan,nan,NaN
nan,nan,nan,NaN
nan,nan,nan,NaN
nan,nan,nan,NaN
nan,nan,nan,NaN
nan,nan,nan,NaN
nan,nan,nan,NaN
nan,nan,nan,NaN
nan,nan,nan,NaN
nan,nan,nan,NaN
-1.20415,-0.260059,2.445,2.73782
-1.19622,-0.260059,2.445,2.73434
-1.18002,-0.258251,2.428,2.71189
-1.17214,-0.258251,2.428,2.70847
-1.15611,-0.256443,2.411,2.68612
-1.14828,-0.256443,2.411,2.68277
-1.14046,-0.256443,2.411,2.67943
-1.12464,-0.254635,2.394,2.65724
-1.11687,-0.254635,2.394,2.65396
-1.1091,-0.254635,2.394,2.6507
-1.09351,-0.252827,2.377,2.62865
-1.0858,-0.252827,2.377,2.62545
-1.07808,-0.252827,2.377,2.62227
-1.07037,-0.252827,2.377,2.61911
-1.06265,-0.252827,2.377,2.61597
-1.05494,-0.252827,2.377,2.61284
-1.04722,-0.252827,2.377,2.60974
-1.03951,-0.252827,2.377,2.60665
-1.03179,-0.252827,2.377,2.60358
-1.02408,-0.252827,2.377,2.60053
-1.01636,-0.252827,2.377,2.59751
-1.01586,-0.254635,2.394,2.61305
-1.00809,-0.254635,2.394,2.61004
-1.00032,-0.254635,2.394,2.60705
-0.992548,-0.254635,2.394,2.60408
