1.94172,-0.416951,3.804,4.29122
1.91143,-0.407854,3.721,4.20306
1.92351,-0.407854,3.721,4.20857
1.91478,-0.403469,3.681,4.1688
1.90631,-0.399194,3.642,4.13008
1.91813,-0.399194,3.642,4.13555
1.90982,-0.395029,3.604,4.09784
1.92151,-0.395029,3.604,4.1033
1.93321,-0.395029,3.604,4.10879
1.94491,-0.395029,3.604,4.11431
1.95661,-0.395029,3.604,4.11985
1.9683,-0.395029,3.604,4.12542
1.98,-0.395029,3.604,4.13101
1.9917,-0.395029,3.604,4.13663
2.0034,-0.395029,3.604,4.14228
2.03634,-0.399194,3.642,4.19168
2.02679,-0.395029,3.604,4.15364
2.03849,-0.395029,3.604,4.15936
2.05019,-0.395029,3.604,4.16511
2.06189,-0.395029,3.604,4.17088
2.05172,-0.390864,3.566,4.13264
2.06329,-0.390864,3.566,4.1384
2.07487,-0.390864,3.566,4.14418
2.06479,-0.386809,3.529,4.10693
2.07625,-0.386809,3.529,4.1127
2.0877,-0.386809,3.529,4.11849
2.07774,-0.382863,3.493,4.08224
2.06815,-0.379027,3.458,4.04706
2.07937,-0.379027,3.458,4.0528
2.04888,-0.371464,3.389,3.97759
2.03982,-0.367846,3.356,3.94448
2.05072,-0.367846,3.356,3.95012
2.02229,-0.360831,3.292,3.88035
1.99469,-0.354036,3.23,3.81275
2.00517,-0.354036,3.23,3.81824
1.97821,-0.347459,3.17,3.75273
1.95212,-0.341102,3.112,3.6894
1.96222,-0.341102,3.112,3.69475
1.92035,-0.332114,3.03,3.60263
1.89642,-0.326305,2.977,3.54478
1.90609,-0.326305,2.977,3.54995
1.88293,-0.320715,2.926,3.49425
1.86074,-0.315344,2.877,3.44077
1.83887,-0.310083,2.829,3.38834
1.84806,-0.310083,2.829,3.39333
1.84214,-0.307562,2.806,3.37071
1.82156,-0.302629,2.761,3.32156
1.83052,-0.302629,2.761,3.32649
1.81017,-0.297807,2.717,3.27834
1.80493,-0.295505,2.696,3.25784
1.81368,-0.295505,2.696,3.26269
1.79404,-0.290901,2.654,3.21666
1.80265,-0.290901,2.654,3.22147
-2.21925,-0.340258,3.199,3.90825
-2.18884,-0.337173,3.17,3.86699
-2.17855,-0.337173,3.17,3.86118
-2.16827,-0.337173,3.17,3.85538
-2.15798,-0.337173,3.17,3.8496
-2.14769,-0.337173,3.17,3.84385
-2.1374,-0.337173,3.17,3.83811
-2.12711,-0.337173,3.17,3.83239
-2.13619,-0.340258,3.199,3.86169
-2.1258,-0.340258,3.199,3.85596
-2.11542,-0.340258,3.199,3.85024
-2.10504,-0.340258,3.199,3.84455
-2.11495,-0.343555,3.23,3.87607
-2.10447,-0.343555,3.23,3.87036
-2.09398,-0.343555,3.23,3.86467
-2.0835,-0.343555,3.23,3.859
-2.07302,-0.343555,3.23,3.85335
-2.08169,-0.346746,3.26,3.88346
-2.07111,-0.346746,3.26,3.8778
-2.06053,-0.346746,3.26,3.87216
-2.04995,-0.346746,3.26,3.86654
-2.03936,-0.346746,3.26,3.86094
-2.02878,-0.346746,3.26,3.85536
-2.0182,-0.346746,3.26,3.8498
-2.02733,-0.35015,3.292,3.882
-2.01664,-0.35015,3.292,3.87643
-2.00596,-0.35015,3.292,3.87088
-1.99527,-0.35015,3.292,3.86536
-1.98459,-0.35015,3.292,3.85985
-1.9739,-0.35015,3.292,3.85437
-1.96322,-0.35015,3.292,3.84891
nan,nan,nan,NaN
nan,nan,nan,NaN
nan,nan,nan,NaN
nan,nan,nan,NaN
nan,nan,nan,NaN
nan,nan,nan,NaN
nan,nan,nan,NaN
nan,nan,nan,NaN
nan,nan,nan,NaN
nan,nan,nan,NaN
nan,nan,nan,NaN
nan,nan,nan,NaN
nan,nan,nan,NaN
nan,nan,nan,NaN
nan,nan,nan,NaN
nan,nan,nan,NaN
nan,nan,nan,NaN
nan,nan,nan,NaN
nan,nan,nan,NaN
nan,nan,nan,NaN
nan,nan,nan,NaN
nan,nan,nan,NaN
nan,nan,nan,NaN
nan,nan,nan,NaN
nan,nan,nan,NaN
nan,nan,nan,NaN
nan,nan,nan,NaN
nan,nan,nan,NaN
nan,nan,nan,NaN
nan,nan,nan,NaN
nan,nan,nan,NaN
nan,nan,nan,NaN
nan,nan,nan,NaN
-1.1635,-0.254635,2.394,2.67391
-1.15572,-0.254635,2.394,2.67054
-1.14795,-0.254635,2.394,2.66718
-1.14018,-0.254635,2.394,2.66385
-1.12437,-0.252827,2.377,2.64164
-1.10914,-0.251125,2.361,2.62061
-1.10148,-0.251125,2.361,2.61737
-1.09381,-0.251125,2.361,2.61416
-1.08615,-0.251125,2.361,2.61096
-1.07849,-0.251125,2.361,2.60778
-1.06357,-0.249423,2.345,2.58697
-1.05596,-0.249423,2.345,2.58385
-1.04835,-0.249423,2.345,2.58075
-1.04073,-0.249423,2.345,2.57767
-1.03312,-0.249423,2.345,2.5746
-1.01851,-0.247721,2.329,2.55401
-1.01096,-0.247721,2.329,2.55101
-1.0034,-0.247721,2.329,2.54802
-0.995836,-0.247721,2.329,2.54505
-0.988277,-0.247721,2.329,2.54211
-0.980718,-0.247721,2.329,2.53918
-0.973158,-0.247721,2.329,2.53627
-0.965599,-0.247721,2.329,2.53337
-0.95804,-0.247721,2.329,2.5305
-0.943951,-0.246019,2.313,2.51029
-0.936443,-0.246019,2.313,2.50747
-0.928936,-0.246019,2.313,2.50468
-0.921428,-0.246019,2.313,2.5019
-0.913921,-0.246019,2.313,2.49915
-0.906413,-0.246019,2.313,2.49641
-0.898906,-0.246019,2.313,2.4937
-0.891399,-0.246019,2.313,2.491
-0.883891,-0.246019,2.313,2.48832
-0.876384,-0.246019,2.313,2.48567
-0.868876,-0.246019,2.313,2.48303
-0.861369,-0.246019,2.313,2.48041
-0.853861,-0.246019,2.313,2.47782
-0.846354,-0.246019,2.313,2.47524
-0.838847,-0.246019,2.313,2.47268
-0.831339,-0.246019,2.313,2.47015
-0.823832,-0.246019,2.313,2.46763
-0.821971,-0.247721,2.329,2.48219
-0.814412,-0.247721,2.329,2.47969
-0.806852,-0.247721,2.329,2.47722
-0.799293,-0.247721,2.329,2.47477
-0.791734,-0.247721,2.329,2.47234
-0.784174,-0.247721,2.329,2.46993
-0.78195,-0.249423,2.345,2.48449
-0.774339,-0.249423,2.345,2.4821
-0.766728,-0.249423,2.345,2.47974
-0.759116,-0.249423,2.345,2.4774
-0.751505,-0.249423,2.345,2.47508
-0.748969,-0.251125,2.361,2.48965
-0.741306,-0.251125,2.361,2.48735
-0.733643,-0.251125,2.361,2.48508
-0.72598,-0.251125,2.361,2.48283
-0.718317,-0.251125,2.361,2.4806
-0.710653,-0.251125,2.361,2.47839
-0.707754,-0.252827,2.377,2.49298
-0.700039,-0.252827,2.377,2.4908
-0.692324,-0.252827,2.377,2.48865
-0.684609,-0.252827,2.377,2.48651
-0.681735,-0.254635,2.394,2.50217
-0.673964,-0.254635,2.394,2.50006
-0.666194,-0.254635,2.394,2.49798
-0.663099,-0.256443,2.411,2.51364
-0.655274,-0.256443,2.411,2.51159
-0.647448,-0.256443,2.411,2.50956
-0.644133,-0.258251,2.428,2.52523
-0.636252,-0.258251,2.428,2.52323
-0.628371,-0.258251,2.428,2.52126
-0.620491,-0.258251,2.428,2.5193
-0.61261,-0.258251,2.428,2.51737
-0.604729,-0.258251,2.428,2.51547
-0.601027,-0.260059,2.445,2.53118
-0.593092,-0.260059,2.445,2.52931
-0.585156,-0.260059,2.445,2.52746
-0.57722,-0.260059,2.445,2.52564
-0.569284,-0.260059,2.445,2.52383
-0.561348,-0.260059,2.445,2.52206
-0.553412,-0.260059,2.445,2.5203
-0.545476,-0.260059,2.445,2.51857
-0.53754,-0.260059,2.445,2.51686
-0.529605,-0.260059,2.445,2.51518
-0.521669,-0.260059,2.445,2.51352
-0.517515,-0.261974,2.463,2.53038
-0.509521,-0.261974,2.463,2.52876
-0.501526,-0.261974,2.463,2.52716
-0.493532,-0.261974,2.463,2.52558
-0.485538,-0.261974,2.463,2.52403
-0.477544,-0.261974,2.463,2.52251
-0.469549,-0.261974,2.463,2.52101
-0.461555,-0.261974,2.463,2.51953
-0.453561,-0.261974,2.463,2.51808
-0.445566,-0.261974,2.463,2.51665
-0.437572,-0.261974,2.463,2.51525
-0.429578,-0.261974,2.463,2.51387
-0.421584,-0.261974,2.463,2.51252
-0.413589,-0.261974,2.463,2.51119
-0.405595,-0.261974,2.463,2.50988
-0.397601,-0.261974,2.463,2.5086
-0.386759,-0.260059,2.445,2.48902
-0.378823,-0.260059,2.445,2.4878
-0.370887,-0.260059,2.445,2.48661
-0.362952,-0.260059,2.445,2.48544
-0.355016,-0.260059,2.445,2.48429
-0.34708,-0.260059,2.445,2.48317
-0.339144,-0.260059,2.445,2.48207
-0.331208,-0.260059,2.445,2.481
-0.323272,-0.260059,2.445,2.47995
-0.315336,-0.260059,2.445,2.47893
-0.3074,-0.260059,2.445,2.47793
-0.299465,-0.260059,2.445,2.47696
-0.291529,-0.260059,2.445,2.47601
-0.283593,-0.260059,2.445,2.47509
-0.277686,-0.261974,2.463,2.49241
-0.269692,-0.261974,2.463,2.49153
-0.261698,-0.261974,2.463,2.49068
-0.253704,-0.261974,2.463,2.48985
-0.245709,-0.261974,2.463,2.48905
-0.237715,-0.261974,2.463,2.48827
-0.229721,-0.261974,2.463,2.48752
-0.221726,-0.261974,2.463,2.4868
-0.213732,-0.261974,2.463,2.4861
-0.204234,-0.260059,2.445,2.46726
-0.196298,-0.260059,2.445,2.46661
-0.188363,-0.260059,2.445,2.466
-0.180427,-0.260059,2.445,2.4654
-0.172491,-0.260059,2.445,2.46483
-0.164555,-0.260059,2.445,2.46429
-0.156619,-0.260059,2.445,2.46377
-0.148683,-0.260059,2.445,2.46328
-0.139769,-0.258251,2.428,2.44569
-0.130965,-0.256443,2.411,2.42813
-0.123139,-0.256443,2.411,2.42772
-0.115314,-0.256443,2.411,2.42734
-0.107488,-0.256443,2.411,2.42698
-0.0996626,-0.256443,2.411,2.42665
-0.0918371,-0.256443,2.411,2.42634
-0.0840116,-0.256443,2.411,2.42605
-0.0756489,-0.254635,2.394,2.40869
-0.0678786,-0.254635,2.394,2.40846
-0.0601082,-0.254635,2.394,2.40825
-0.0523379,-0.254635,2.394,2.40807
-0.0445676,-0.254635,2.394,2.40792
-0.0367973,-0.254635,2.394,2.40779
-0.029233,-0.256443,2.411,2.42478
-0.0214075,-0.256443,2.411,2.42469
-0.013582,-0.256443,2.411,2.42464
-0.00575653,-0.256443,2.411,2.42461
0.00208357,-0.258251,2.428,2.4417
0.00996425,-0.258251,2.428,2.44172
0.0178449,-0.258251,2.428,2.44176
0.0259057,-0.260059,2.445,2.45893
0.0340907,-0.261974,2.463,2.47713
0.042085,-0.261974,2.463,2.47725
0.0500793,-0.261974,2.463,2.4774
0.058498,-0.263888,2.481,2.49568
0.0665507,-0.263888,2.481,2.49588
0.0746034,-0.263888,2.481,2.49611
0.0832558,-0.265803,2.499,2.51447
0.091367,-0.265803,2.499,2.51476
0.0994781,-0.265803,2.499,2.51506
0.107589,-0.265803,2.499,2.5154
0.1157,-0.265803,2.499,2.51576
0.123811,-0.265803,2.499,2.51614
0.132873,-0.267718,2.517,2.53468
0.141042,-0.267718,2.517,2.53512
0.149212,-0.267718,2.517,2.53559
0.157382,-0.267718,2.517,2.53609
0.165551,-0.267718,2.517,2.53661
0.175032,-0.269738,2.536,2.5563
0.183263,-0.269738,2.536,2.55688
0.191494,-0.269738,2.536,2.55748
0.199726,-0.269738,2.536,2.55811
0.207957,-0.269738,2.536,2.55877
0.216188,-0.269738,2.536,2.55945
0.226101,-0.271759,2.555,2.57934
0.232651,-0.269738,2.536,2.56089
0.240882,-0.269738,2.536,2.56166
0.249113,-0.269738,2.536,2.56244
0.257344,-0.269738,2.536,2.56326
0.265575,-0.269738,2.536,2.5641
0.273807,-0.269738,2.536,2.56496
0.282038,-0.269738,2.536,2.56585
0.290269,-0.269738,2.536,2.56677
0.2985,-0.269738,2.536,2.56771
0.306732,-0.269738,2.536,2.56868
0.314963,-0.269738,2.536,2.56968
0.323194,-0.269738,2.536,2.5707
0.331425,-0.269738,2.536,2.57175
0.339657,-0.269738,2.536,2.57282
0.347888,-0.269738,2.536,2.57392
0.356119,-0.269738,2.536,2.57505
0.36435,-0.269738,2.536,2.5762
0.372581,-0.269738,2.536,2.57738
0.380813,-0.269738,2.536,2.57858
0.389044,-0.269738,2.536,2.57981
0.397275,-0.269738,2.536,2.58106
0.405506,-0.269738,2.536,2.58234
0.413738,-0.269738,2.536,2.58365
0.421969,-0.269738,2.536,2.58498
0.4302,-0.269738,2.536,2.58633
0.438431,-0.269738,2.536,2.58772
0.446662,-0.269738,2.536,2.58912
0.454894,-0.269738,2.536,2.59056
0.463125,-0.269738,2.536,2.59201
0.471356,-0.269738,2.536,2.5935
0.479587,-0.269738,2.536,2.59501
0.487819,-0.269738,2.536,2.59654
0.49605,-0.269738,2.536,2.5981
0.504281,-0.269738,2.536,2.59968
0.512512,-0.269738,2.536,2.60129
0.520743,-0.269738,2.536,2.60293
0.528975,-0.269738,2.536,2.60459
0.537206,-0.269738,2.536,2.60627
0.545437,-0.269738,2.536,2.60798
0.553668,-0.269738,2.536,2.60971
0.5619,-0.269738,2.536,2.61147
0.570131,-0.269738,2.536,2.61326
0.578362,-0.269738,2.536,2.61506
0.586593,-0.269738,2.536,2.6169
0.594824,-0.269738,2.536,2.61875
0.603056,-0.269738,2.536,2.62064
0.611287,-0.269738,2.536,2.62254
0.619518,-0.269738,2.536,2.62447
0.627749,-0.269738,2.536,2.62643
0.635981,-0.269738,2.536,2.62841
0.644212,-0.269738,2.536,2.63041
0.652443,-0.269738,2.536,2.63244
0.660674,-0.269738,2.536,2.63449
0.668906,-0.269738,2.536,2.63657
0.677137,-0.269738,2.536,2.63867
0.685368,-0.269738,2.536,2.64079
0.693599,-0.269738,2.536,2.64294
0.70183,-0.269738,2.536,2.64511
0.710062,-0.269738,2.536,2.64731
0.718293,-0.269738,2.536,2.64953
0.726524,-0.269738,2.536,2.65177
0.734755,-0.269738,2.536,2.65404
0.742987,-0.269738,2.536,2.65633
0.751218,-0.269738,2.536,2.65864
0.759449,-0.269738,2.536,2.66098
0.76768,-0.269738,2.536,2.66334
0.775912,-0.269738,2.536,2.66573
0.784143,-0.269738,2.536,2.66813
0.792374,-0.269738,2.536,2.67056
0.800605,-0.269738,2.536,2.67302
0.808836,-0.269738,2.536,2.67549
0.817068,-0.269738,2.536,2.67799
0.819116,-0.267718,2.517,2.66043
0.827285,-0.267718,2.517,2.66296
0.835455,-0.267718,2.517,2.66551
0.843624,-0.267718,2.517,2.66808
0.851794,-0.267718,2.517,2.67068
0.853814,-0.265803,2.499,2.65418
0.861925,-0.265803,2.499,2.6568
0.870036,-0.265803,2.499,2.65944
0.878147,-0.265803,2.499,2.6621
0.886258,-0.265803,2.499,2.66479
0.894369,-0.265803,2.499,2.6675
0.90248,-0.265803,2.499,2.67023
0.910591,-0.265803,2.499,2.67298
0.912085,-0.263888,2.481,2.65648
0.920138,-0.263888,2.481,2.65926
0.928191,-0.263888,2.481,2.66206
0.936243,-0.263888,2.481,2.66487
0.944296,-0.263888,2.481,2.66771
0.952349,-0.263888,2.481,2.67057
0.960401,-0.263888,2.481,2.67346
0.968454,-0.263888,2.481,2.67636
0.969422,-0.261974,2.463,2.65985
0.977417,-0.261974,2.463,2.66277
0.985411,-0.261974,2.463,2.66571
1.00067,-0.263888,2.481,2.68818
1.00872,-0.263888,2.481,2.69119
1.01677,-0.263888,2.481,2.69422
1.02482,-0.263888,2.481,2.69727
nan,nan,nan,NaN
nan,nan,nan,NaN
nan,nan,nan,NaN
nan,nan,nan,NaN
nan,nan,nan,NaN
nan,nan,nan,NaN
nan,nan,nan,NaN
nan,nan,nan,NaN
nan,nan,nan,NaN
nan,nan,nan,NaN
nan,nan,nan,NaN
nan,nan,nan,NaN
nan,nan,nan,NaN
1.76343,-0.409075,3.846,4.25073
1.77591,-0.409075,3.846,4.25593
1.78839,-0.409075,3.846,4.26115
1.80088,-0.409075,3.846,4.26641
1.81336,-0.409075,3.846,4.27169
1.84673,-0.413755,3.89,4.32593
1.85936,-0.413755,3.89,4.33134
1.89364,-0.418541,3.935,4.38694
1.90641,-0.418541,3.935,4.39247
1.91918,-0.418541,3.935,4.39803
1.93195,-0.418541,3.935,4.40362
1.94473,-0.418541,3.935,4.40924
1.9575,-0.418541,3.935,4.41488
1.97027,-0.418541,3.935,4.42056
1.98304,-0.418541,3.935,4.42627
1.99581,-0.418541,3.935,4.43201
1.96316,-0.409075,3.846,4.3374
1.95407,-0.404608,3.804,4.29564
1.96641,-0.404608,3.804,4.30127
1.97876,-0.404608,3.804,4.30693
1.92672,-0.391525,3.681,4.17317
1.93867,-0.391525,3.681,4.1787
1.95062,-0.391525,3.681,4.18425
1.96257,-0.391525,3.681,4.18984
1.97451,-0.391525,3.681,4.19545
1.98646,-0.391525,3.681,4.20108
1.97724,-0.387377,3.642,4.16217
1.98906,-0.387377,3.642,4.1678
2.00088,-0.387377,3.642,4.17346
2.0127,-0.387377,3.642,4.17914
2.02452,-0.387377,3.642,4.18484
2.03634,-0.387377,3.642,4.19057
2.04816,-0.387377,3.642,4.19633
2.03849,-0.383335,3.604,4.15827
2.05019,-0.383335,3.604,4.16402
2.04015,-0.379293,3.566,4.12582
2.05172,-0.379293,3.566,4.13156
2.04189,-0.375358,3.529,4.09439
2.05334,-0.375358,3.529,4.10012
2.06479,-0.375358,3.529,4.10586
2.05507,-0.371529,3.493,4.06969
2.06641,-0.371529,3.493,4.07543
2.05692,-0.367806,3.458,4.0403
2.04722,-0.364083,3.423,4.00507
2.05833,-0.364083,3.423,4.01076
2.04888,-0.360467,3.389,3.97658
2.02037,-0.353553,3.324,3.90588
2.03116,-0.353553,3.324,3.91147
2.02229,-0.35015,3.292,3.87937
1.99469,-0.343555,3.23,3.81179
2.00517,-0.343555,3.23,3.81728
1.96012,-0.334089,3.141,3.71747
1.95212,-0.331004,3.112,3.68848
1.96222,-0.331004,3.112,3.69384
1.92035,-0.322282,3.03,3.60174
1.87986,-0.313879,2.951,3.51295
1.88944,-0.313879,2.951,3.51808
1.88293,-0.31122,2.926,3.49339
1.84521,-0.303456,2.853,3.41123
1.83887,-0.300903,2.829,3.38751
1.84806,-0.300903,2.829,3.39251
1.84214,-0.298457,2.806,3.36989
1.82156,-0.29367,2.761,3.32076
1.83052,-0.29367,2.761,3.32568
1.81017,-0.28899,2.717,3.27755
1.80493,-0.286757,2.696,3.25705
1.81368,-0.286757,2.696,3.26191
1.79404,-0.282289,2.654,3.21589
1.80265,-0.282289,2.654,3.22071
-2.21925,-0.329877,3.199,3.90736
-2.18884,-0.326887,3.17,3.86611
-2.17855,-0.326887,3.17,3.86029
-2.16827,-0.326887,3.17,3.85449
-2.15798,-0.326887,3.17,3.84872
-2.14769,-0.326887,3.17,3.84296
-2.1374,-0.326887,3.17,3.83722
-2.12711,-0.326887,3.17,3.83149
-2.13619,-0.329877,3.199,3.86079
-2.1258,-0.329877,3.199,3.85506
-2.11542,-0.329877,3.199,3.84934
-2.10504,-0.329877,3.199,3.84364
-2.11495,-0.333074,3.23,3.87516
-2.10447,-0.333074,3.23,3.86945
-2.09398,-0.333074,3.23,3.86376
-2.0835,-0.333074,3.23,3.85808
-2.07302,-0.333074,3.23,3.85243
-2.08169,-0.336168,3.26,3.88253
-2.07111,-0.336168,3.26,3.87687
-2.06053,-0.336168,3.26,3.87122
-2.04995,-0.336168,3.26,3.8656
-2.03936,-0.336168,3.26,3.86
-2.02878,-0.336168,3.26,3.85442
-2.0182,-0.336168,3.26,3.84886
-2.00762,-0.336168,3.26,3.84333
-2.01664,-0.339467,3.292,3.87548
-2.00596,-0.339467,3.292,3.86993
-1.97588,-0.336168,3.26,3.82684
-1.9653,-0.336168,3.26,3.82139
-1.95472,-0.336168,3.26,3.81596
-1.96322,-0.339467,3.292,3.84795
nan,nan,nan,NaN
nan,nan,nan,NaN
nan,nan,nan,NaN
nan,nan,nan,NaN
nan,nan,nan,NaN
nan,nan,nan,NaN
nan,nan,nan,NaN
nan,nan,nan,NaN
nan,nan,nan,NaN
nan,nan,nan,NaN
nan,nan,nan,NaN
nan,nan,nan,NaN
nan,nan,nan,NaN
nan,nan,nan,NaN
nan,nan,nan,NaN
nan,nan,nan,NaN
nan,nan,nan,NaN
nan,nan,nan,NaN
nan,nan,nan,NaN
nan,nan,nan,NaN
nan,nan,nan,NaN
nan,nan,nan,NaN
nan,nan,nan,NaN
nan,nan,nan,NaN
nan,nan,nan,NaN
nan,nan,nan,NaN
nan,nan,nan,NaN
nan,nan,nan,NaN
nan,nan,nan,NaN
nan,nan,nan,NaN
nan,nan,nan,NaN
nan,nan,nan,NaN
nan,nan,nan,NaN
-1.1635,-0.246867,2.394,2.67318
-1.15572,-0.246867,2.394,2.66981
-1.14795,-0.246867,2.394,2.66645
-1.14018,-0.246867,2.394,2.66312
-1.12437,-0.245114,2.377,2.64091
-1.10914,-0.243464,2.361,2.61988
-1.10148,-0.243464,2.361,2.61665
-1.09381,-0.243464,2.361,2.61343
-1.08615,-0.243464,2.361,2.61023
-1.07849,-0.243464,2.361,2.60705
-1.06357,-0.241814,2.345,2.58625
-1.05596,-0.241814,2.345,2.58313
-1.04835,-0.241814,2.345,2.58002
-1.04073,-0.241814,2.345,2.57694
-1.03312,-0.241814,2.345,2.57388
-1.01851,-0.240164,2.329,2.55329
-1.01096,-0.240164,2.329,2.55028
-1.0034,-0.240164,2.329,2.5473
-0.995836,-0.240164,2.329,2.54433
-0.988277,-0.240164,2.329,2.54138
-0.980718,-0.240164,2.329,2.53845
-0.973158,-0.240164,2.329,2.53554
-0.965599,-0.240164,2.329,2.53265
-0.95804,-0.240164,2.329,2.52977
-0.95048,-0.240164,2.329,2.52692
-0.942921,-0.240164,2.329,2.52409
-0.935362,-0.240164,2.329,2.52127
-0.927802,-0.240164,2.329,2.51848
-0.920243,-0.240164,2.329,2.5157
-0.912683,-0.240164,2.329,2.51295
-0.905124,-0.240164,2.329,2.51021
-0.891399,-0.238514,2.313,2.49027
-0.883891,-0.238514,2.313,2.48759
-0.876384,-0.238514,2.313,2.48494
-0.868876,-0.238514,2.313,2.4823
-0.861369,-0.238514,2.313,2.47968
-0.853861,-0.238514,2.313,2.47708
-0.846354,-0.238514,2.313,2.4745
-0.844649,-0.240164,2.329,2.48905
-0.83709,-0.240164,2.329,2.48649
-0.829531,-0.240164,2.329,2.48396
-0.821971,-0.240164,2.329,2.48144
-0.814412,-0.240164,2.329,2.47895
-0.806852,-0.240164,2.329,2.47648
-0.799293,-0.240164,2.329,2.47402
-0.797173,-0.241814,2.345,2.48857
-0.789562,-0.241814,2.345,2.48614
-0.78195,-0.241814,2.345,2.48374
-0.774339,-0.241814,2.345,2.48135
-0.766728,-0.241814,2.345,2.47899
-0.759116,-0.241814,2.345,2.47664
-0.751505,-0.241814,2.345,2.47432
-0.748969,-0.243464,2.361,2.48889
-0.741306,-0.243464,2.361,2.48659
-0.733643,-0.243464,2.361,2.48432
-0.7309,-0.245114,2.377,2.49888
-0.723184,-0.245114,2.377,2.49664
-0.715469,-0.245114,2.377,2.49442
-0.707754,-0.245114,2.377,2.49221
-0.705046,-0.246867,2.394,2.50784
-0.697275,-0.246867,2.394,2.50567
-0.689505,-0.246867,2.394,2.50352
-0.681735,-0.246867,2.394,2.50139
-0.673964,-0.246867,2.394,2.49928
-0.670925,-0.24862,2.411,2.51493
-0.663099,-0.24862,2.411,2.51285
-0.655274,-0.24862,2.411,2.5108
-0.652013,-0.250373,2.428,2.52646
-0.644133,-0.250373,2.428,2.52444
-0.636252,-0.250373,2.428,2.52244
-0.628371,-0.250373,2.428,2.52046
-0.620491,-0.250373,2.428,2.51851
-0.616899,-0.252126,2.445,2.5342
-0.608963,-0.252126,2.445,2.53228
-0.601027,-0.252126,2.445,2.53038
-0.593092,-0.252126,2.445,2.52851
-0.585156,-0.252126,2.445,2.52666
-0.57722,-0.252126,2.445,2.52483
-0.569284,-0.252126,2.445,2.52303
-0.561348,-0.252126,2.445,2.52125
-0.553412,-0.252126,2.445,2.5195
-0.545476,-0.252126,2.445,2.51776
-0.541498,-0.253982,2.463,2.53458
-0.533504,-0.253982,2.463,2.53288
-0.525509,-0.253982,2.463,2.53121
-0.517515,-0.253982,2.463,2.52956
-0.509521,-0.253982,2.463,2.52794
-0.501526,-0.253982,2.463,2.52634
-0.493532,-0.253982,2.463,2.52477
-0.485538,-0.253982,2.463,2.52322
-0.477544,-0.253982,2.463,2.52169
-0.469549,-0.253982,2.463,2.52019
-0.461555,-0.253982,2.463,2.51871
-0.453561,-0.253982,2.463,2.51726
-0.445566,-0.253982,2.463,2.51583
-0.437572,-0.253982,2.463,2.51443
-0.429578,-0.253982,2.463,2.51305
-0.424665,-0.255838,2.481,2.53005
-0.416612,-0.255838,2.481,2.52871
-0.405595,-0.253982,2.463,2.50906
-0.397601,-0.253982,2.463,2.50778
-0.389606,-0.253982,2.463,2.50653
-0.381612,-0.253982,2.463,2.5053
-0.373618,-0.253982,2.463,2.50409
-0.365624,-0.253982,2.463,2.50291
-0.357629,-0.253982,2.463,2.50175
-0.349635,-0.253982,2.463,2.50062
-0.341641,-0.253982,2.463,2.49952
-0.333646,-0.253982,2.463,2.49844
-0.325652,-0.253982,2.463,2.49738
-0.317658,-0.253982,2.463,2.49635
-0.309664,-0.253982,2.463,2.49535
-0.301669,-0.253982,2.463,2.49437
-0.293675,-0.253982,2.463,2.49342
-0.285681,-0.253982,2.463,2.49249
-0.279716,-0.255838,2.481,2.50979
-0.271663,-0.255838,2.481,2.50891
-0.26361,-0.255838,2.481,2.50805
-0.255558,-0.255838,2.481,2.50721
-0.247505,-0.255838,2.481,2.50641
-0.239452,-0.255838,2.481,2.50562
-0.2314,-0.255838,2.481,2.50487
-0.223347,-0.255838,2.481,2.50414
-0.215294,-0.255838,2.481,2.50343
-0.207241,-0.255838,2.481,2.50275
-0.199189,-0.255838,2.481,2.5021
-0.189749,-0.253982,2.463,2.48332
-0.181755,-0.253982,2.463,2.48272
-0.173761,-0.253982,2.463,2.48215
-0.165766,-0.253982,2.463,2.4816
-0.157772,-0.253982,2.463,2.48108
-0.149778,-0.253982,2.463,2.48059
-0.140747,-0.252126,2.445,2.46199
-0.132812,-0.252126,2.445,2.46155
-0.124876,-0.252126,2.445,2.46114
-0.115314,-0.24862,2.411,2.42653
-0.107488,-0.24862,2.411,2.42617
-0.0996626,-0.24862,2.411,2.42583
-0.0918371,-0.24862,2.411,2.42552
-0.0840116,-0.24862,2.411,2.42524
-0.0761861,-0.24862,2.411,2.42498
-0.0683606,-0.24862,2.411,2.42475
-0.0605351,-0.24862,2.411,2.42454
-0.0527096,-0.24862,2.411,2.42436
-0.0448841,-0.24862,2.411,2.4242
-0.0370586,-0.24862,2.411,2.42407
-0.029233,-0.24862,2.411,2.42396
-0.0214075,-0.24862,2.411,2.42388
-0.013582,-0.24862,2.411,2.42382
-0.00575653,-0.24862,2.411,2.42379
0.00208357,-0.250373,2.428,2.44088
0.00996425,-0.250373,2.428,2.4409
0.0178449,-0.250373,2.428,2.44094
0.0259057,-0.252126,2.445,2.4581
0.0340907,-0.253982,2.463,2.4763
0.042085,-0.253982,2.463,2.47642
0.0500793,-0.253982,2.463,2.47657
0.058498,-0.255838,2.481,2.49484
0.0665507,-0.255838,2.481,2.49504
0.0746034,-0.255838,2.481,2.49527
0.0832558,-0.257694,2.499,2.51363
0.091367,-0.257694,2.499,2.51391
0.0994781,-0.257694,2.499,2.51422
0.107589,-0.257694,2.499,2.51455
0.1157,-0.257694,2.499,2.51491
0.123811,-0.257694,2.499,2.5153
0.132873,-0.25955,2.517,2.53383
0.141042,-0.25955,2.517,2.53427
0.149212,-0.25955,2.517,2.53474
0.157382,-0.25955,2.517,2.53524
0.165551,-0.25955,2.517,2.53576
0.175032,-0.26151,2.536,2.55545
0.183263,-0.26151,2.536,2.55603
0.191494,-0.26151,2.536,2.55663
0.199726,-0.26151,2.536,2.55726
0.207957,-0.26151,2.536,2.55791
0.216188,-0.26151,2.536,2.5586
0.226101,-0.263469,2.555,2.57848
0.232651,-0.26151,2.536,2.56004
0.240882,-0.26151,2.536,2.5608
0.249113,-0.26151,2.536,2.56159
0.257344,-0.26151,2.536,2.5624
0.265575,-0.26151,2.536,2.56324
0.273807,-0.26151,2.536,2.56411
0.282038,-0.26151,2.536,2.565
0.290269,-0.26151,2.536,2.56592
0.2985,-0.26151,2.536,2.56686
0.306732,-0.26151,2.536,2.56783
0.314963,-0.26151,2.536,2.56883
0.323194,-0.26151,2.536,2.56985
0.331425,-0.26151,2.536,2.5709
0.339657,-0.26151,2.536,2.57197
0.347888,-0.26151,2.536,2.57307
0.356119,-0.26151,2.536,2.5742
0.36435,-0.26151,2.536,2.57535
0.372581,-0.26151,2.536,2.57653
0.380813,-0.26151,2.536,2.57773
0.389044,-0.26151,2.536,2.57896
0.397275,-0.26151,2.536,2.58022
0.405506,-0.26151,2.536,2.5815
0.413738,-0.26151,2.536,2.5828
0.421969,-0.26151,2.536,2.58413
0.4302,-0.26151,2.536,2.58549
0.438431,-0.26151,2.536,2.58687
0.446662,-0.26151,2.536,2.58828
0.454894,-0.26151,2.536,2.58971
0.463125,-0.26151,2.536,2.59117
0.471356,-0.26151,2.536,2.59265
0.479587,-0.26151,2.536,2.59416
0.487819,-0.26151,2.536,2.5957
0.49605,-0.26151,2.536,2.59726
0.504281,-0.26151,2.536,2.59884
0.512512,-0.26151,2.536,2.60045
0.520743,-0.26151,2.536,2.60209
0.528975,-0.26151,2.536,2.60375
0.537206,-0.26151,2.536,2.60543
0.541351,-0.25955,2.517,2.58761
0.54952,-0.25955,2.517,2.58933
0.55769,-0.25955,2.517,2.59108
0.565859,-0.25955,2.517,2.59285
0.574029,-0.25955,2.517,2.59464
0.582199,-0.25955,2.517,2.59646
0.590368,-0.25955,2.517,2.59831
0.598538,-0.25955,2.517,2.60017
0.606707,-0.25955,2.517,2.60207
0.614877,-0.25955,2.517,2.60398
0.623046,-0.25955,2.517,2.60592
0.631216,-0.25955,2.517,2.60789
0.639385,-0.25955,2.517,2.60988
0.647555,-0.25955,2.517,2.61189
0.655725,-0.25955,2.517,2.61393
0.663894,-0.25955,2.517,2.61599
0.672064,-0.25955,2.517,2.61808
0.685368,-0.26151,2.536,2.63996
0.693599,-0.26151,2.536,2.64211
0.70183,-0.26151,2.536,2.64429
0.710062,-0.26151,2.536,2.64648
0.718293,-0.26151,2.536,2.6487
0.726524,-0.26151,2.536,2.65095
0.734755,-0.26151,2.536,2.65321
0.742987,-0.26151,2.536,2.65551
0.751218,-0.26151,2.536,2.65782
0.759449,-0.26151,2.536,2.66016
0.76768,-0.26151,2.536,2.66252
0.775912,-0.26151,2.536,2.66491
0.784143,-0.26151,2.536,2.66731
0.792374,-0.26151,2.536,2.66975
0.800605,-0.26151,2.536,2.6722
0.808836,-0.26151,2.536,2.67468
0.817068,-0.26151,2.536,2.67718
0.819116,-0.25955,2.517,2.65963
0.827285,-0.25955,2.517,2.66215
0.835455,-0.25955,2.517,2.6647
0.843624,-0.25955,2.517,2.66728
0.851794,-0.25955,2.517,2.66987
0.859963,-0.25955,2.517,2.67249
0.868133,-0.25955,2.517,2.67513
0.876303,-0.25955,2.517,2.67779
0.878147,-0.257694,2.499,2.66131
0.886258,-0.257694,2.499,2.66399
0.894369,-0.257694,2.499,2.6667
0.90248,-0.257694,2.499,2.66943
0.910591,-0.257694,2.499,2.67219
0.912085,-0.255838,2.481,2.65569
0.920138,-0.255838,2.481,2.65847
0.928191,-0.255838,2.481,2.66127
0.936243,-0.255838,2.481,2.66409
0.944296,-0.255838,2.481,2.66693
0.952349,-0.255838,2.481,2.66979
0.960401,-0.255838,2.481,2.67267
0.968454,-0.255838,2.481,2.67558
0.969422,-0.253982,2.463,2.65907
0.977417,-0.253982,2.463,2.662
0.985411,-0.253982,2.463,2.66494
1.00067,-0.255838,2.481,2.68741
1.00872,-0.255838,2.481,2.69041
1.01677,-0.255838,2.481,2.69344
1.02482,-0.255838,2.481,2.69649
nan,nan,nan,NaN
nan,nan,nan,NaN
nan,nan,nan,NaN
nan,nan,nan,NaN
nan,nan,nan,NaN
nan,nan,nan,NaN
nan,nan,nan,NaN
nan,nan,nan,NaN
nan,nan,nan,NaN
nan,nan,nan,NaN
nan,nan,nan,NaN
nan,nan,nan,NaN
nan,nan,nan,NaN
1.76343,-0.396595,3.846,4.24955
1.77591,-0.396595,3.846,4.25475
1.78839,-0.396595,3.846,4.25997
1.80088,-0.396595,3.846,4.26523
1.81336,-0.396595,3.846,4.27051
1.84673,-0.401133,3.89,4.32475
1.85936,-0.401133,3.89,4.33015
1.89364,-0.405773,3.935,4.38574
1.90641,-0.405773,3.935,4.39127
1.91918,-0.405773,3.935,4.39683
1.93195,-0.405773,3.935,4.40242
1.94473,-0.405773,3.935,4.40804
1.9575,-0.405773,3.935,4.41369
1.97027,-0.405773,3.935,4.41937
nan,nan,nan,NaN
nan,nan,nan,NaN
nan,nan,nan,NaN
nan,nan,nan,NaN
nan,nan,nan,NaN
nan,nan,nan,NaN
nan,nan,nan,NaN
nan,nan,nan,NaN
nan,nan,nan,NaN
1.98389,-0.383705,3.721,4.23425
1.99597,-0.383705,3.721,4.23993
2.00805,-0.383705,3.721,4.24563
2.02013,-0.383705,3.721,4.25135
2.0322,-0.383705,3.721,4.2571
2.04428,-0.383705,3.721,4.26288
2.03425,-0.379581,3.681,4.2228
2.0462,-0.379581,3.681,4.22857
2.05815,-0.379581,3.681,4.23436
2.04816,-0.375559,3.642,4.19526
2.03849,-0.371641,3.604,4.15721
2.05019,-0.371641,3.604,4.16296
2.04015,-0.367722,3.566,4.12478
2.05172,-0.367722,3.566,4.13051
2.04189,-0.363907,3.529,4.09336
2.05334,-0.363907,3.529,4.09908
2.06479,-0.363907,3.529,4.10483
2.05507,-0.360194,3.493,4.06867
2.06641,-0.360194,3.493,4.07441
2.05692,-0.356585,3.458,4.03929
2.04722,-0.352976,3.423,4.00407
2.05833,-0.352976,3.423,4.00977
2.04888,-0.34947,3.389,3.9756
2.02037,-0.342767,3.324,3.90492
2.03116,-0.342767,3.324,3.91051
2.02229,-0.339467,3.292,3.87842
1.99469,-0.333074,3.23,3.81086
2.00517,-0.333074,3.23,3.81635
1.96012,-0.323897,3.141,3.71656
1.97031,-0.323897,3.141,3.72195
nan,nan,nan,NaN
nan,nan,nan,NaN
1.87986,-0.304304,2.951,3.51211
1.88944,-0.304304,2.951,3.51724
1.88293,-0.301726,2.926,3.49256
1.84521,-0.294198,2.853,3.41042
1.83887,-0.291723,2.829,3.38671
1.84806,-0.291723,2.829,3.3917
1.84214,-0.289352,2.806,3.3691
1.82156,-0.284711,2.761,3.31998
1.83052,-0.284711,2.761,3.3249
1.81017,-0.280174,2.717,3.27678
1.79087,-0.275843,2.675,3.23093
1.79955,-0.275843,2.675,3.23575
1.79404,-0.273678,2.654,3.21515
1.78839,-0.271512,2.633,3.19449
-2.17901,-0.313705,3.141,3.83567
-2.16882,-0.313705,3.141,3.82989
-2.15862,-0.313705,3.141,3.82413
-2.14843,-0.313705,3.141,3.81838
-2.13823,-0.313705,3.141,3.81266
-2.12804,-0.313705,3.141,3.80695
-2.11785,-0.313705,3.141,3.80126
-2.10765,-0.313705,3.141,3.79559
-2.09746,-0.313705,3.141,3.78994
-2.08726,-0.313705,3.141,3.7843
-2.07707,-0.313705,3.141,3.77869
-2.06687,-0.313705,3.141,3.77309
-2.07566,-0.316601,3.17,3.8023
-2.06538,-0.316601,3.17,3.7967
-2.07389,-0.319497,3.199,3.82579
-2.0635,-0.319497,3.199,3.82017
-2.05312,-0.319497,3.199,3.81458
-2.06253,-0.322593,3.23,3.84591
-2.05205,-0.322593,3.23,3.8403
-2.04156,-0.322593,3.23,3.8347
-2.03108,-0.322593,3.23,3.82913
-2.0206,-0.322593,3.23,3.82358
-2.01011,-0.322593,3.23,3.81805
-1.99963,-0.322593,3.23,3.81254
-1.98915,-0.322593,3.23,3.80706
-1.99704,-0.32559,3.26,3.8369
-1.98646,-0.32559,3.26,3.8314
-1.97588,-0.32559,3.26,3.82592
-1.9653,-0.32559,3.26,3.82047
-1.95472,-0.32559,3.26,3.81504
-1.94413,-0.32559,3.26,3.80963
nan,nan,nan,NaN
nan,nan,nan,NaN
nan,nan,nan,NaN
nan,nan,nan,NaN
nan,nan,nan,NaN
nan,nan,nan,NaN
nan,nan,nan,NaN
nan,nan,nan,NaN
nan,nan,nan,NaN
nan,nan,nan,NaN
nan,nan,nan,NaN
nan,nan,nan,NaN
nan,nan,nan,NaN
nan,nan,nan,NaN
nan,nan,nan,NaN
nan,nan,nan,NaN
nan,nan,nan,NaN
nan,nan,nan,NaN
nan,nan,nan,NaN
nan,nan,nan,NaN
nan,nan,nan,NaN
nan,nan,nan,NaN
nan,nan,nan,NaN
nan,nan,nan,NaN
nan,nan,nan,NaN
nan,nan,nan,NaN
nan,nan,nan,NaN
nan,nan,nan,NaN
nan,nan,nan,NaN
nan,nan,nan,NaN
nan,nan,nan,NaN
nan,nan,nan,NaN
nan,nan,nan,NaN
-1.1635,-0.239099,2.394,2.67248
-1.15572,-0.239099,2.394,2.6691
-1.14795,-0.239099,2.394,2.66575
-1.14018,-0.239099,2.394,2.66241
-1.13241,-0.239099,2.394,2.65909
-1.11666,-0.237401,2.377,2.63693
-1.10894,-0.237401,2.377,2.63367
-1.09381,-0.235803,2.361,2.61273
-1.08615,-0.235803,2.361,2.60953
-1.07849,-0.235803,2.361,2.60635
-1.07082,-0.235803,2.361,2.60319
-1.06316,-0.235803,2.361,2.60005
-1.0555,-0.235803,2.361,2.59692
-1.04784,-0.235803,2.361,2.59382
-1.03312,-0.234205,2.345,2.57317
-1.02551,-0.234205,2.345,2.57013
-1.0179,-0.234205,2.345,2.5671
-1.01029,-0.234205,2.345,2.56409
-1.00268,-0.234205,2.345,2.5611
-0.995066,-0.234205,2.345,2.55813
-0.987455,-0.234205,2.345,2.55518
-0.979844,-0.234205,2.345,2.55225
-0.972232,-0.234205,2.345,2.54934
-0.964621,-0.234205,2.345,2.54644
-0.95701,-0.234205,2.345,2.54357
-0.949399,-0.234205,2.345,2.54072
-0.941787,-0.234205,2.345,2.53788
-0.934176,-0.234205,2.345,2.53507
-0.926565,-0.234205,2.345,2.53227
-0.918953,-0.234205,2.345,2.5295
-0.905124,-0.232607,2.329,2.5095
-0.897565,-0.232607,2.329,2.50678
-0.890005,-0.232607,2.329,2.50409
-0.882446,-0.232607,2.329,2.50141
-0.874887,-0.232607,2.329,2.49875
-0.867327,-0.232607,2.329,2.49612
-0.859768,-0.232607,2.329,2.4935
-0.852209,-0.232607,2.329,2.4909
-0.844649,-0.232607,2.329,2.48833
-0.83709,-0.232607,2.329,2.48577
-0.829531,-0.232607,2.329,2.48324
-0.821971,-0.232607,2.329,2.48072
-0.814412,-0.232607,2.329,2.47823
-0.806852,-0.232607,2.329,2.47575
-0.804784,-0.234205,2.345,2.49029
-0.797173,-0.234205,2.345,2.48784
-0.789562,-0.234205,2.345,2.48541
-0.78195,-0.234205,2.345,2.48301
-0.774339,-0.234205,2.345,2.48062
-0.766728,-0.234205,2.345,2.47826
-0.759116,-0.234205,2.345,2.47591
-0.756633,-0.235803,2.361,2.49047
-0.748969,-0.235803,2.361,2.48815
-0.741306,-0.235803,2.361,2.48585
-0.733643,-0.235803,2.361,2.48358
-0.7309,-0.237401,2.377,2.49814
-0.723184,-0.237401,2.377,2.49589
-0.715469,-0.237401,2.377,2.49367
-0.707754,-0.237401,2.377,2.49147
-0.705046,-0.239099,2.394,2.50709
-0.697275,-0.239099,2.394,2.50491
-0.689505,-0.239099,2.394,2.50276
-0.681735,-0.239099,2.394,2.50063
-0.673964,-0.239099,2.394,2.49853
-0.670925,-0.240796,2.411,2.51417
-0.663099,-0.240796,2.411,2.51209
-0.655274,-0.240796,2.411,2.51004
-0.652013,-0.242494,2.428,2.52569
-0.644133,-0.242494,2.428,2.52367
-0.640707,-0.244192,2.445,2.53932
-0.632771,-0.244192,2.445,2.53733
-0.624835,-0.244192,2.445,2.53536
-0.616899,-0.244192,2.445,2.53342
-0.608963,-0.244192,2.445,2.5315
-0.601027,-0.244192,2.445,2.5296
-0.593092,-0.244192,2.445,2.52773
-0.585156,-0.244192,2.445,2.52588
-0.57722,-0.244192,2.445,2.52405
-0.569284,-0.244192,2.445,2.52225
-0.565481,-0.24599,2.463,2.53903
-0.557486,-0.24599,2.463,2.53726
-0.549492,-0.24599,2.463,2.53551
-0.541498,-0.24599,2.463,2.53379
-0.533504,-0.24599,2.463,2.5321
-0.525509,-0.24599,2.463,2.53042
-0.517515,-0.24599,2.463,2.52877
-0.509521,-0.24599,2.463,2.52715
-0.501526,-0.24599,2.463,2.52555
-0.493532,-0.24599,2.463,2.52398
-0.485538,-0.24599,2.463,2.52242
-0.477544,-0.24599,2.463,2.5209
-0.472981,-0.247788,2.481,2.53781
-0.464928,-0.247788,2.481,2.53632
-0.456875,-0.247788,2.481,2.53486
-0.448823,-0.247788,2.481,2.53342
-0.44077,-0.247788,2.481,2.532
-0.432717,-0.247788,2.481,2.53061
-0.424665,-0.247788,2.481,2.52925
-0.416612,-0.247788,2.481,2.52791
-0.405595,-0.24599,2.463,2.50826
-0.397601,-0.24599,2.463,2.50698
-0.389606,-0.24599,2.463,2.50573
-0.381612,-0.24599,2.463,2.5045
-0.373618,-0.24599,2.463,2.50329
-0.365624,-0.24599,2.463,2.50211
-0.357629,-0.24599,2.463,2.50096
-0.349635,-0.24599,2.463,2.49983
-0.341641,-0.24599,2.463,2.49872
-0.333646,-0.24599,2.463,2.49764
-0.325652,-0.24599,2.463,2.49658
-0.317658,-0.24599,2.463,2.49555
-0.309664,-0.24599,2.463,2.49455
-0.301669,-0.24599,2.463,2.49357
-0.293675,-0.24599,2.463,2.49261
-0.285681,-0.24599,2.463,2.49168
-0.279716,-0.247788,2.481,2.50898
-0.271663,-0.247788,2.481,2.5081
-0.26361,-0.247788,2.481,2.50724
-0.255558,-0.247788,2.481,2.50641
-0.247505,-0.247788,2.481,2.5056
-0.239452,-0.247788,2.481,2.50482
-0.2314,-0.247788,2.481,2.50406
-0.223347,-0.247788,2.481,2.50333
-0.215294,-0.247788,2.481,2.50262
-0.207241,-0.247788,2.481,2.50194
-0.199189,-0.247788,2.481,2.50129
-0.189749,-0.24599,2.463,2.48252
-0.181755,-0.24599,2.463,2.48192
-0.173761,-0.24599,2.463,2.48134
-0.165766,-0.24599,2.463,2.4808
-0.157772,-0.24599,2.463,2.48028
-0.149778,-0.24599,2.463,2.47978
-0.140747,-0.244192,2.445,2.46119
-0.132812,-0.244192,2.445,2.46075
-0.124876,-0.244192,2.445,2.46034
-0.115314,-0.240796,2.411,2.42574
-0.107488,-0.240796,2.411,2.42538
-0.0996626,-0.240796,2.411,2.42504
-0.0918371,-0.240796,2.411,2.42473
-0.0840116,-0.240796,2.411,2.42445
-0.0761861,-0.240796,2.411,2.42419
-0.0683606,-0.240796,2.411,2.42396
-0.0605351,-0.240796,2.411,2.42375
-0.0527096,-0.240796,2.411,2.42357
-0.0448841,-0.240796,2.411,2.42341
-0.0370586,-0.240796,2.411,2.42328
-0.029233,-0.240796,2.411,2.42317
-0.0214075,-0.240796,2.411,2.42309
-0.013582,-0.240796,2.411,2.42303
-0.00575653,-0.240796,2.411,2.423
0.00208357,-0.242494,2.428,2.44008
0.00996425,-0.242494,2.428,2.4401
0.0178449,-0.242494,2.428,2.44014
0.0259057,-0.244192,2.445,2.4573
0.0340907,-0.24599,2.463,2.47549
0.042085,-0.24599,2.463,2.47561
0.0500793,-0.24599,2.463,2.47576
0.058498,-0.247788,2.481,2.49403
0.0670336,-0.249585,2.499,2.51233
0.0751447,-0.249585,2.499,2.51256
0.0832558,-0.249585,2.499,2.51281
0.0920251,-0.251383,2.517,2.5312
0.100195,-0.251383,2.517,2.53151
0.108364,-0.251383,2.517,2.53184
0.116534,-0.251383,2.517,2.53221
0.124703,-0.251383,2.517,2.53259
0.132873,-0.251383,2.517,2.53301
0.141042,-0.251383,2.517,2.53345
0.149212,-0.251383,2.517,2.53392
0.15857,-0.253281,2.536,2.55354
0.166801,-0.253281,2.536,2.55407
0.175032,-0.253281,2.536,2.55462
0.183263,-0.253281,2.536,2.5552
0.191494,-0.253281,2.536,2.5558
0.199726,-0.253281,2.536,2.55643
0.207957,-0.253281,2.536,2.55709
0.216188,-0.253281,2.536,2.55777
0.224419,-0.253281,2.536,2.55848
0.232651,-0.253281,2.536,2.55921
0.240882,-0.253281,2.536,2.55997
0.249113,-0.253281,2.536,2.56076
0.257344,-0.253281,2.536,2.56158
0.265575,-0.253281,2.536,2.56242
0.275858,-0.255178,2.555,2.58249
0.284151,-0.255178,2.555,2.58339
0.292444,-0.255178,2.555,2.58431
0.300737,-0.255178,2.555,2.58526
0.30903,-0.255178,2.555,2.58624
0.317323,-0.255178,2.555,2.58724
0.325615,-0.255178,2.555,2.58827
0.333908,-0.255178,2.555,2.58933
0.339657,-0.253281,2.536,2.57115
0.347888,-0.253281,2.536,2.57225
0.356119,-0.253281,2.536,2.57338
0.36435,-0.253281,2.536,2.57453
0.372581,-0.253281,2.536,2.57571
0.380813,-0.253281,2.536,2.57691
0.389044,-0.253281,2.536,2.57814
0.397275,-0.253281,2.536,2.57939
0.405506,-0.253281,2.536,2.58067
0.416837,-0.255178,2.555,2.60133
0.421969,-0.253281,2.536,2.58331
0.4302,-0.253281,2.536,2.58467
0.438431,-0.253281,2.536,2.58605
0.446662,-0.253281,2.536,2.58746
0.454894,-0.253281,2.536,2.58889
0.463125,-0.253281,2.536,2.59035
0.474888,-0.255178,2.555,2.61126
0.48318,-0.255178,2.555,2.61278
0.491473,-0.255178,2.555,2.61432
0.499766,-0.255178,2.555,2.6159
0.504281,-0.253281,2.536,2.59803
0.512512,-0.253281,2.536,2.59964
0.520743,-0.253281,2.536,2.60127
0.528975,-0.253281,2.536,2.60293
0.533181,-0.251383,2.517,2.5851
0.541351,-0.251383,2.517,2.5868
0.54952,-0.251383,2.517,2.58852
0.55769,-0.251383,2.517,2.59027
0.565859,-0.251383,2.517,2.59204
0.574029,-0.251383,2.517,2.59384
0.582199,-0.251383,2.517,2.59566
0.590368,-0.251383,2.517,2.5975
0.598538,-0.251383,2.517,2.59937
0.606707,-0.251383,2.517,2.60126
0.614877,-0.251383,2.517,2.60318
0.623046,-0.251383,2.517,2.60512
0.631216,-0.251383,2.517,2.60709
0.639385,-0.251383,2.517,2.60908
0.647555,-0.251383,2.517,2.61109
0.655725,-0.251383,2.517,2.61313
0.663894,-0.251383,2.517,2.61519
0.672064,-0.251383,2.517,2.61728
0.680233,-0.251383,2.517,2.61939
0.688403,-0.251383,2.517,2.62152
0.70183,-0.253281,2.536,2.64349
0.710062,-0.253281,2.536,2.64568
0.718293,-0.253281,2.536,2.6479
0.726524,-0.253281,2.536,2.65015
0.734755,-0.253281,2.536,2.65242
0.742987,-0.253281,2.536,2.65471
0.751218,-0.253281,2.536,2.65702
0.759449,-0.253281,2.536,2.65936
0.76768,-0.253281,2.536,2.66173
0.775912,-0.253281,2.536,2.66411
0.784143,-0.253281,2.536,2.66652
0.792374,-0.253281,2.536,2.66895
0.800605,-0.253281,2.536,2.67141
0.808836,-0.253281,2.536,2.67389
0.817068,-0.253281,2.536,2.67639
0.819116,-0.251383,2.517,2.65884
0.827285,-0.251383,2.517,2.66137
0.835455,-0.251383,2.517,2.66392
0.843624,-0.251383,2.517,2.66649
0.851794,-0.251383,2.517,2.66909
0.859963,-0.251383,2.517,2.67171
0.868133,-0.251383,2.517,2.67435
0.876303,-0.251383,2.517,2.67701
0.878147,-0.249585,2.499,2.66053
0.886258,-0.249585,2.499,2.66322
0.894369,-0.249585,2.499,2.66593
0.90248,-0.249585,2.499,2.66866
0.910591,-0.249585,2.499,2.67142
0.918703,-0.249585,2.499,2.67419
0.920138,-0.247788,2.481,2.65771
0.928191,-0.247788,2.481,2.66051
0.936243,-0.247788,2.481,2.66333
0.944296,-0.247788,2.481,2.66617
0.952349,-0.247788,2.481,2.66903
0.960401,-0.247788,2.481,2.67192
0.968454,-0.247788,2.481,2.67482
0.976507,-0.247788,2.481,2.67775
0.98456,-0.247788,2.481,2.68069
0.992612,-0.247788,2.481,2.68366
1.00067,-0.247788,2.481,2.68665
1.00872,-0.247788,2.481,2.68966
1.01677,-0.247788,2.481,2.69269
1.02482,-0.247788,2.481,2.69574
nan,nan,nan,NaN
nan,nan,nan,NaN
nan,nan,nan,NaN
nan,nan,nan,NaN
nan,nan,nan,NaN
nan,nan,nan,NaN
nan,nan,nan,NaN
nan,nan,nan,NaN
nan,nan,nan,NaN
nan,nan,nan,NaN
nan,nan,nan,NaN
nan,nan,nan,NaN
nan,nan,nan,NaN
nan,nan,nan,NaN
1.77591,-0.384116,3.846,4.2536
1.78839,-0.384116,3.846,4.25883
1.80088,-0.384116,3.846,4.26408
1.81336,-0.384116,3.846,4.26937
1.84673,-0.38851,3.89,4.32359
1.85936,-0.38851,3.89,4.329
1.87198,-0.38851,3.89,4.33444
1.88461,-0.38851,3.89,4.33991
1.91918,-0.393005,3.935,4.39567
1.93195,-0.393005,3.935,4.40126
1.94473,-0.393005,3.935,4.40689
1.9575,-0.393005,3.935,4.41254
1.97027,-0.393005,3.935,4.41822
1.98304,-0.393005,3.935,4.42393
nan,nan,nan,NaN
nan,nan,nan,NaN
nan,nan,nan,NaN
nan,nan,nan,NaN
nan,nan,nan,NaN
nan,nan,nan,NaN
nan,nan,nan,NaN
nan,nan,nan,NaN
1.98389,-0.371631,3.721,4.23318
1.99597,-0.371631,3.721,4.23885
2.00805,-0.371631,3.721,4.24455
2.02013,-0.371631,3.721,4.25028
2.0322,-0.371631,3.721,4.25603
2.04428,-0.371631,3.721,4.26181
2.03425,-0.367637,3.681,4.22174
2.0462,-0.367637,3.681,4.22751
2.05815,-0.367637,3.681,4.23331
2.04816,-0.363741,3.642,4.19422
2.03849,-0.359946,3.604,4.15618
2.05019,-0.359946,3.604,4.16193
2.04015,-0.356151,3.566,4.12376
2.03043,-0.352456,3.529,4.08665
2.04189,-0.352456,3.529,4.09235
2.05334,-0.352456,3.529,4.09808
2.06479,-0.352456,3.529,4.10383
2.03448,-0.345365,3.458,4.02693
2.0457,-0.345365,3.458,4.03261
2.05692,-0.345365,3.458,4.03831
2.04722,-0.341869,3.423,4.00311
2.05833,-0.341869,3.423,4.0088
2.02893,-0.335177,3.356,3.93594
2.00092,-0.328786,3.292,3.8664
2.01161,-0.328786,3.292,3.87194
2.02229,-0.328786,3.292,3.8775
1.99469,-0.322593,3.23,3.80995
2.00517,-0.322593,3.23,3.81545
1.94202,-0.310808,3.112,3.68138
1.95212,-0.310808,3.112,3.68672
nan,nan,nan,NaN
1.90324,-0.299922,3.003,3.56795
1.87986,-0.294728,2.951,3.51129
1.88944,-0.294728,2.951,3.51643
1.86684,-0.289735,2.901,3.46191
1.84521,-0.284941,2.853,3.40964
1.83887,-0.282544,2.829,3.38593
1.84806,-0.282544,2.829,3.39093
1.82704,-0.27795,2.783,3.34072
1.80704,-0.273555,2.739,3.29277
1.81593,-0.273555,2.739,3.29766
1.81017,-0.271358,2.717,3.27604
1.79087,-0.267163,2.675,3.2302
1.79955,-0.267163,2.675,3.23502
1.77984,-0.262968,2.633,3.18899
1.78839,-0.262968,2.633,3.19377
-2.1589,-0.30071,3.112,3.79945
-2.12946,-0.298005,3.084,3.75958
-2.11945,-0.298005,3.084,3.75392
-2.10944,-0.298005,3.084,3.74828
-2.09943,-0.298005,3.084,3.74266
-2.08942,-0.298005,3.084,3.73705
-2.06121,-0.295396,3.057,3.69879
-2.05129,-0.295396,3.057,3.69327
-2.05939,-0.298005,3.084,3.72034
-2.04938,-0.298005,3.084,3.71481
-2.03937,-0.298005,3.084,3.7093
-2.02936,-0.298005,3.084,3.70381
-2.03769,-0.30071,3.112,3.73191
-2.02759,-0.30071,3.112,3.7264
-2.03629,-0.303512,3.141,3.75559
-2.0448,-0.306315,3.17,3.7847
-2.03451,-0.306315,3.17,3.77915
-2.04274,-0.309117,3.199,3.80814
-2.03235,-0.309117,3.199,3.80258
-2.02197,-0.309117,3.199,3.79704
-2.01159,-0.309117,3.199,3.79152
-2.0012,-0.309117,3.199,3.78602
-1.99082,-0.309117,3.199,3.78055
-1.98044,-0.309117,3.199,3.77509
-1.97006,-0.309117,3.199,3.76965
-1.95967,-0.309117,3.199,3.76424
-1.94929,-0.309117,3.199,3.75884
-1.93891,-0.309117,3.199,3.75347
-1.92852,-0.309117,3.199,3.74811
-1.91814,-0.309117,3.199,3.74278
-1.90776,-0.309117,3.199,3.73747
nan,nan,nan,NaN
nan,nan,nan,NaN
nan,nan,nan,NaN
nan,nan,nan,NaN
nan,nan,nan,NaN
nan,nan,nan,NaN
nan,nan,nan,NaN
nan,nan,nan,NaN
nan,nan,nan,NaN
nan,nan,nan,NaN
nan,nan,nan,NaN
nan,nan,nan,NaN
nan,nan,nan,NaN
nan,nan,nan,NaN
nan,nan,nan,NaN
nan,nan,nan,NaN
nan,nan,nan,NaN
nan,nan,nan,NaN
nan,nan,nan,NaN
nan,nan,nan,NaN
nan,nan,nan,NaN
nan,nan,nan,NaN
nan,nan,nan,NaN
nan,nan,nan,NaN
nan,nan,nan,NaN
nan,nan,nan,NaN
nan,nan,nan,NaN
nan,nan,nan,NaN
nan,nan,nan,NaN
nan,nan,nan,NaN
nan,nan,nan,NaN
nan,nan,nan,NaN
nan,nan,nan,NaN
-1.17176,-0.232973,2.411,2.69076
-1.16393,-0.232973,2.411,2.68737
-1.15611,-0.232973,2.411,2.68399
-1.14828,-0.232973,2.411,2.68062
-1.14046,-0.232973,2.411,2.67728
-1.12464,-0.23133,2.394,2.6551
-1.11687,-0.23133,2.394,2.65182
-1.10123,-0.229688,2.377,2.62975
-1.09351,-0.229688,2.377,2.62653
-1.0858,-0.229688,2.377,2.62333
-1.07808,-0.229688,2.377,2.62014
-1.07037,-0.229688,2.377,2.61698
-1.0555,-0.228142,2.361,2.59624
-1.04784,-0.228142,2.361,2.59313
-1.04017,-0.228142,2.361,2.59004
-1.03251,-0.228142,2.361,2.58698
-1.02485,-0.228142,2.361,2.58393
-1.01718,-0.228142,2.361,2.5809
-1.00952,-0.228142,2.361,2.57789
-1.00186,-0.228142,2.361,2.5749
-0.994193,-0.228142,2.361,2.57192
-0.986529,-0.228142,2.361,2.56897
-0.978866,-0.228142,2.361,2.56604
-0.971203,-0.228142,2.361,2.56312
-0.96354,-0.228142,2.361,2.56023
-0.955876,-0.228142,2.361,2.55736
-0.948213,-0.228142,2.361,2.5545
-0.94055,-0.228142,2.361,2.55167
-0.926565,-0.226596,2.345,2.53158
-0.918953,-0.226596,2.345,2.5288
-0.911342,-0.226596,2.345,2.52605
-0.903731,-0.226596,2.345,2.52331
-0.89612,-0.226596,2.345,2.5206
-0.888508,-0.226596,2.345,2.5179
-0.880897,-0.226596,2.345,2.51522
-0.867327,-0.22505,2.329,2.49542
-0.859768,-0.22505,2.329,2.49281
-0.852209,-0.22505,2.329,2.49021
-0.844649,-0.22505,2.329,2.48763
-0.83709,-0.22505,2.329,2.48508
-0.829531,-0.22505,2.329,2.48254
-0.821971,-0.22505,2.329,2.48003
-0.814412,-0.22505,2.329,2.47753
-0.806852,-0.22505,2.329,2.47506
-0.804784,-0.226596,2.345,2.48959
-0.797173,-0.226596,2.345,2.48714
-0.789562,-0.226596,2.345,2.48471
-0.78195,-0.226596,2.345,2.4823
-0.774339,-0.226596,2.345,2.47991
-0.766728,-0.226596,2.345,2.47755
-0.759116,-0.226596,2.345,2.4752
-0.756633,-0.228142,2.361,2.48975
-0.748969,-0.228142,2.361,2.48743
-0.741306,-0.228142,2.361,2.48514
-0.733643,-0.228142,2.361,2.48286
-0.7309,-0.229688,2.377,2.49742
-0.723184,-0.229688,2.377,2.49517
-0.715469,-0.229688,2.377,2.49295
-0.707754,-0.229688,2.377,2.49074
-0.705046,-0.23133,2.394,2.50636
-0.697275,-0.23133,2.394,2.50419
-0.689505,-0.23133,2.394,2.50203
-0.681735,-0.23133,2.394,2.4999
-0.673964,-0.23133,2.394,2.49779
-0.670925,-0.232973,2.411,2.51343
-0.663099,-0.232973,2.411,2.51135
-0.655274,-0.232973,2.411,2.5093
-0.652013,-0.234616,2.428,2.52495
-0.644133,-0.234616,2.428,2.52292
-0.640707,-0.236259,2.445,2.53857
-0.632771,-0.236259,2.445,2.53658
-0.624835,-0.236259,2.445,2.53461
-0.616899,-0.236259,2.445,2.53267
-0.608963,-0.236259,2.445,2.53075
-0.601027,-0.236259,2.445,2.52885
-0.593092,-0.236259,2.445,2.52697
-0.585156,-0.236259,2.445,2.52512
-0.57722,-0.236259,2.445,2.5233
-0.569284,-0.236259,2.445,2.52149
-0.565481,-0.237998,2.463,2.53826
-0.557486,-0.237998,2.463,2.53649
-0.549492,-0.237998,2.463,2.53475
-0.541498,-0.237998,2.463,2.53303
-0.533504,-0.237998,2.463,2.53133
-0.525509,-0.237998,2.463,2.52966
-0.517515,-0.237998,2.463,2.52801
-0.509521,-0.237998,2.463,2.52639
-0.501526,-0.237998,2.463,2.52479
-0.493532,-0.237998,2.463,2.52321
-0.485538,-0.237998,2.463,2.52166
-0.477544,-0.237998,2.463,2.52013
-0.472981,-0.239737,2.481,2.53703
-0.464928,-0.239737,2.481,2.53555
-0.456875,-0.239737,2.481,2.53408
-0.448823,-0.239737,2.481,2.53264
-0.44077,-0.239737,2.481,2.53123
-0.432717,-0.239737,2.481,2.52984
-0.424665,-0.239737,2.481,2.52847
-0.416612,-0.239737,2.481,2.52713
-0.408559,-0.239737,2.481,2.52582
-0.400506,-0.239737,2.481,2.52453
-0.392454,-0.239737,2.481,2.52326
-0.384401,-0.239737,2.481,2.52202
-0.376348,-0.239737,2.481,2.52081
-0.368296,-0.239737,2.481,2.51962
-0.360243,-0.239737,2.481,2.51845
-0.349635,-0.237998,2.463,2.49905
-0.341641,-0.237998,2.463,2.49795
-0.336085,-0.239737,2.481,2.51511
-0.328032,-0.239737,2.481,2.51405
-0.319979,-0.239737,2.481,2.51301
-0.311927,-0.239737,2.481,2.512
-0.303874,-0.239737,2.481,2.51101
-0.295821,-0.239737,2.481,2.51005
-0.287769,-0.239737,2.481,2.50911
-0.281745,-0.241477,2.499,2.5264
-0.273634,-0.241477,2.499,2.52551
-0.265523,-0.241477,2.499,2.52464
-0.257412,-0.241477,2.499,2.5238
-0.249301,-0.241477,2.499,2.52299
-0.242927,-0.243216,2.517,2.54037
-0.233078,-0.241477,2.499,2.52144
-0.224967,-0.241477,2.499,2.5207
-0.216856,-0.241477,2.499,2.51999
-0.208745,-0.241477,2.499,2.5193
-0.200634,-0.241477,2.499,2.51864
-0.192523,-0.241477,2.499,2.51801
-0.183083,-0.239737,2.481,2.49927
-0.175031,-0.239737,2.481,2.49869
-0.166978,-0.239737,2.481,2.49814
-0.158925,-0.239737,2.481,2.49762
-0.150872,-0.239737,2.481,2.49712
-0.141784,-0.237998,2.463,2.47853
-0.133789,-0.237998,2.463,2.47809
-0.124876,-0.236259,2.445,2.45956
-0.11694,-0.236259,2.445,2.45917
-0.108246,-0.234616,2.428,2.44171
-0.100365,-0.234616,2.428,2.44137
-0.0924847,-0.234616,2.428,2.44106
-0.0840116,-0.232973,2.411,2.42369
-0.0761861,-0.232973,2.411,2.42343
-0.0683606,-0.232973,2.411,2.42319
-0.0605351,-0.232973,2.411,2.42299
-0.0527096,-0.232973,2.411,2.4228
-0.0448841,-0.232973,2.411,2.42265
-0.0370586,-0.232973,2.411,2.42251
-0.029233,-0.232973,2.411,2.42241
-0.0214075,-0.232973,2.411,2.42232
-0.0136778,-0.234616,2.428,2.43935
-0.00579712,-0.234616,2.428,2.43932
0.00208357,-0.234616,2.428,2.43931
0.00996425,-0.234616,2.428,2.43933
0.0178449,-0.234616,2.428,2.43937
0.0259057,-0.236259,2.445,2.45652
0.0340907,-0.237998,2.463,2.47471
0.042085,-0.237998,2.463,2.47483
0.0504453,-0.239737,2.481,2.49307
0.058498,-0.239737,2.481,2.49324
0.0670336,-0.241477,2.499,2.51153
0.0751447,-0.241477,2.499,2.51176
0.0832558,-0.241477,2.499,2.51202
0.0920251,-0.243216,2.517,2.5304
0.100195,-0.243216,2.517,2.53071
0.108364,-0.243216,2.517,2.53104
0.116534,-0.243216,2.517,2.53141
0.124703,-0.243216,2.517,2.5318
0.133876,-0.245052,2.536,2.55133
0.142107,-0.245052,2.536,2.55177
0.150338,-0.245052,2.536,2.55224
