0.0740622,-0.126109,2.463,2.46734
0.0820565,-0.126109,2.463,2.46759
0.0900507,-0.126109,2.463,2.46787
0.098045,-0.126109,2.463,2.46817
0.106039,-0.126109,2.463,2.4685
0.114034,-0.126109,2.463,2.46886
0.122028,-0.126109,2.463,2.46924
0.130022,-0.126109,2.463,2.46965
0.138016,-0.126109,2.463,2.47009
0.146011,-0.126109,2.463,2.47054
0.154005,-0.126109,2.463,2.47103
0.163183,-0.127031,2.481,2.4896
0.171236,-0.127031,2.481,2.49014
0.179289,-0.127031,2.481,2.49071
0.187341,-0.127031,2.481,2.4913
0.195394,-0.127031,2.481,2.49192
0.203447,-0.127031,2.481,2.49257
0.213034,-0.127953,2.499,2.51133
0.221145,-0.127953,2.499,2.51203
0.229256,-0.127953,2.499,2.51275
0.237367,-0.127953,2.499,2.51351
0.245479,-0.127953,2.499,2.51429
0.255416,-0.128874,2.517,2.53321
0.261701,-0.127953,2.499,2.51592
0.269812,-0.127953,2.499,2.51678
0.279925,-0.128874,2.517,2.53579
0.288094,-0.128874,2.517,2.53671
0.296264,-0.128874,2.517,2.53765
0.304434,-0.128874,2.517,2.53862
0.312603,-0.128874,2.517,2.53961
0.320773,-0.128874,2.517,2.54063
0.328942,-0.128874,2.517,2.54167
0.337112,-0.128874,2.517,2.54274
0.345281,-0.128874,2.517,2.54384
0.353451,-0.128874,2.517,2.54496
0.36162,-0.128874,2.517,2.54611
0.36979,-0.128874,2.517,2.54728
0.37796,-0.128874,2.517,2.54848
0.386129,-0.128874,2.517,2.5497
0.394299,-0.128874,2.517,2.55095
0.402468,-0.128874,2.517,2.55223
0.410638,-0.128874,2.517,2.55353
0.418807,-0.128874,2.517,2.55486
0.426977,-0.128874,2.517,2.55621
0.435146,-0.128874,2.517,2.55759
0.443316,-0.128874,2.517,2.55899
0.451486,-0.128874,2.517,2.56042
0.459655,-0.128874,2.517,2.56187
0.467825,-0.128874,2.517,2.56335
0.475994,-0.128874,2.517,2.56485
0.480701,-0.127953,2.499,2.54803
0.488812,-0.127953,2.499,2.54957
0.496924,-0.127953,2.499,2.55114
0.505035,-0.127953,2.499,2.55273
0.513146,-0.127953,2.499,2.55435
0.521257,-0.127953,2.499,2.55599
0.525555,-0.127031,2.481,2.53923
0.533608,-0.127031,2.481,2.54091
0.541661,-0.127031,2.481,2.54262
0.549713,-0.127031,2.481,2.54434
0.557766,-0.127031,2.481,2.5461
0.565819,-0.127031,2.481,2.54787
0.573871,-0.127031,2.481,2.54967
0.581924,-0.127031,2.481,2.5515
0.589977,-0.127031,2.481,2.55335
0.59803,-0.127031,2.481,2.55522
0.606082,-0.127031,2.481,2.55711
0.614135,-0.127031,2.481,2.55904
0.622188,-0.127031,2.481,2.56098
0.63024,-0.127031,2.481,2.56295
0.638293,-0.127031,2.481,2.56494
0.646346,-0.127031,2.481,2.56696
0.654399,-0.127031,2.481,2.569
0.662451,-0.127031,2.481,2.57106
0.670504,-0.127031,2.481,2.57314
0.678557,-0.127031,2.481,2.57525
0.686609,-0.127031,2.481,2.57739
0.694662,-0.127031,2.481,2.57955
0.702715,-0.127031,2.481,2.58173
0.715924,-0.127953,2.499,2.60268
0.71882,-0.127031,2.481,2.58616
0.726873,-0.127031,2.481,2.58841
0.734926,-0.127031,2.481,2.59068
0.742978,-0.127031,2.481,2.59297
0.751031,-0.127031,2.481,2.59529
0.759084,-0.127031,2.481,2.59764
0.767137,-0.127031,2.481,2.6
0.780813,-0.127953,2.499,2.62127
0.788924,-0.127953,2.499,2.62369
0.791295,-0.127031,2.481,2.60723
0.799347,-0.127031,2.481,2.60968
0.8074,-0.127031,2.481,2.61216
0.815453,-0.127031,2.481,2.61466
0.823505,-0.127031,2.481,2.61719
0.837591,-0.127953,2.499,2.63874
0.845702,-0.127953,2.499,2.64132
0.847664,-0.127031,2.481,2.62489
0.855716,-0.127031,2.481,2.6275
0.863769,-0.127031,2.481,2.63013
0.871822,-0.127031,2.481,2.63279
0.879874,-0.127031,2.481,2.63547
0.881485,-0.126109,2.463,2.61902
0.889479,-0.126109,2.463,2.62173
0.897474,-0.126109,2.463,2.62445
0.905468,-0.126109,2.463,2.62719
0.906787,-0.125188,2.445,2.61074
0.914722,-0.125188,2.445,2.61351
0.922658,-0.125188,2.445,2.61629
0.930594,-0.125188,2.445,2.6191
0.932004,-0.124317,2.428,2.6037
0.939885,-0.124317,2.428,2.60653
0.947766,-0.124317,2.428,2.60939
0.955646,-0.124317,2.428,2.61226
0.963527,-0.124317,2.428,2.61515
0.964606,-0.123447,2.411,2.59974
0.972432,-0.123447,2.411,2.60265
0.987169,-0.124317,2.428,2.62396
0.99505,-0.124317,2.428,2.62693
1.00293,-0.124317,2.428,2.62993
1.01081,-0.124317,2.428,2.63294
1.01869,-0.124317,2.428,2.63598
1.02657,-0.124317,2.428,2.63903
1.05703,-0.127031,2.481,2.69978
1.0887,-0.129847,2.536,2.76286
1.09693,-0.129847,2.536,2.76612
1.13872,-0.13379,2.613,2.85348
1.1652,-0.135889,2.654,2.9017
1.19239,-0.138039,2.696,2.95115
1.20114,-0.138039,2.696,2.95469
1.23906,-0.141367,2.761,3.02958
1.26836,-0.143672,2.806,3.0827
1.27747,-0.143672,2.806,3.08646
1.30813,-0.146078,2.853,3.142
1.33955,-0.148536,2.901,3.19879
1.33781,-0.147307,2.877,3.17625
1.33591,-0.146078,2.853,3.15366
1.34517,-0.146078,2.853,3.1576
1.35443,-0.146078,2.853,3.16155
1.36369,-0.146078,2.853,3.16553
1.3845,-0.147307,2.877,3.19619
1.40546,-0.148536,2.901,3.22695
1.41488,-0.148536,2.901,3.23106
1.42429,-0.148536,2.901,3.23519
1.44607,-0.149816,2.926,3.26727
1.45556,-0.149816,2.926,3.27148
1.47758,-0.151096,2.951,3.3037
1.50026,-0.152427,2.977,3.33715
1.50992,-0.152427,2.977,3.3415
1.53285,-0.153758,3.003,3.3751
1.57034,-0.156523,3.057,3.44031
1.62369,-0.160824,3.141,3.53951
1.63388,-0.160824,3.141,3.54419
1.65925,-0.162309,3.17,3.58167
1.68482,-0.163794,3.199,3.61926
1.6952,-0.163794,3.199,3.6241
1.72211,-0.165381,3.23,3.66414
1.76585,-0.168555,3.292,3.73951
1.82888,-0.173522,3.389,3.8549
1.83988,-0.173522,3.389,3.86013
1.85088,-0.173522,3.389,3.86539
1.88056,-0.175263,3.423,3.9095
1.87288,-0.173522,3.389,3.87597
1.88388,-0.173522,3.389,3.88129
1.89488,-0.173522,3.389,3.88665
1.90588,-0.173522,3.389,3.89202
1.91688,-0.173522,3.389,3.89742
1.92788,-0.173522,3.389,3.90284
1.93888,-0.173522,3.389,3.90829
1.9309,-0.171832,3.356,3.87564
1.94179,-0.171832,3.356,3.88108
1.95268,-0.171832,3.356,3.88654
1.96357,-0.171832,3.356,3.89203
1.97447,-0.171832,3.356,3.89754
1.98536,-0.171832,3.356,3.90306
1.97722,-0.170194,3.324,3.87135
1.96887,-0.168555,3.292,3.83955
1.97955,-0.168555,3.292,3.84504
1.99024,-0.168555,3.292,3.85055
1.96324,-0.165381,3.23,3.78346
1.97372,-0.165381,3.23,3.78891
1.94735,-0.162309,3.17,3.7239
1.92182,-0.159339,3.112,3.66105
1.93192,-0.159339,3.112,3.66637
1.94202,-0.159339,3.112,3.6717
nan,nan,nan,NaN
nan,nan,nan,NaN
1.90324,-0.153758,3.003,3.55865
1.87986,-0.151096,2.951,3.50216
1.85743,-0.148536,2.901,3.44788
1.86684,-0.148536,2.901,3.45296
1.84521,-0.146078,2.853,3.40085
1.82392,-0.143672,2.806,3.34977
1.83303,-0.143672,2.806,3.35474
1.82704,-0.142494,2.783,3.33219
1.80704,-0.140241,2.739,3.28439
1.81593,-0.140241,2.739,3.28929
1.79618,-0.138039,2.696,3.24249
1.77681,-0.135889,2.654,3.19675
1.78542,-0.135889,2.654,3.20155
1.77984,-0.134814,2.633,3.18099
1.76122,-0.132766,2.593,3.13738
-1.94661,-0.134567,2.806,3.41776
-1.93751,-0.134567,2.806,3.41258
-1.9284,-0.134567,2.806,3.40741
-1.90356,-0.133464,2.783,3.37438
-1.87955,-0.132408,2.761,3.34266
-1.87059,-0.132408,2.761,3.33763
-1.86163,-0.132408,2.761,3.33261
-1.85267,-0.132408,2.761,3.32762
-1.8437,-0.132408,2.761,3.32263
-1.83474,-0.132408,2.761,3.31767
-1.84033,-0.133464,2.783,3.33912
-1.8313,-0.133464,2.783,3.33415
-1.82226,-0.133464,2.783,3.3292
-1.81323,-0.133464,2.783,3.32426
-1.81911,-0.134567,2.806,3.34677
-1.82484,-0.135669,2.829,3.36923
-1.81565,-0.135669,2.829,3.36426
-1.83712,-0.137971,2.877,3.41631
-1.84303,-0.139122,2.901,3.43976
-1.83362,-0.139122,2.901,3.43472
-1.8242,-0.139122,2.901,3.4297
-1.83042,-0.140321,2.926,3.45422
-1.83648,-0.14152,2.951,3.47866
-1.82691,-0.14152,2.951,3.47362
-1.81733,-0.14152,2.951,3.46859
-1.80775,-0.14152,2.951,3.46358
-1.78294,-0.140321,2.926,3.42929
-1.77344,-0.140321,2.926,3.42436
-1.76394,-0.140321,2.926,3.41945
-1.73946,-0.139122,2.901,3.38539
-1.73004,-0.139122,2.901,3.38056
-1.72062,-0.139122,2.901,3.37575
-1.69705,-0.137971,2.877,3.34308
-1.68771,-0.137971,2.877,3.33834
-1.66438,-0.13682,2.853,3.30582
-1.65511,-0.13682,2.853,3.30117
-1.64585,-0.13682,2.853,3.29654
-1.63659,-0.13682,2.853,3.29193
nan,nan,nan,NaN
nan,nan,nan,NaN
nan,nan,nan,NaN
nan,nan,nan,NaN
nan,nan,nan,NaN
nan,nan,nan,NaN
nan,nan,nan,NaN
nan,nan,nan,NaN
nan,nan,nan,NaN
nan,nan,nan,NaN
nan,nan,nan,NaN
nan,nan,nan,NaN
nan,nan,nan,NaN
nan,nan,nan,NaN
nan,nan,nan,NaN
nan,nan,nan,NaN
nan,nan,nan,NaN
nan,nan,nan,NaN
nan,nan,nan,NaN
nan,nan,nan,NaN
nan,nan,nan,NaN
nan,nan,nan,NaN
nan,nan,nan,NaN
nan,nan,nan,NaN
-1.23075,-0.119844,2.499,2.78821
-1.21383,-0.118981,2.481,2.76458
-1.20578,-0.118981,2.481,2.76105
-1.18904,-0.118117,2.463,2.73754
-1.18104,-0.118117,2.463,2.73408
-1.17305,-0.118117,2.463,2.73063
-1.15654,-0.117254,2.445,2.70728
-1.1486,-0.117254,2.445,2.7039
-1.14067,-0.117254,2.445,2.70054
-1.12485,-0.116439,2.428,2.67844
-1.10915,-0.115624,2.411,2.65641
-1.10133,-0.115624,2.411,2.65315
-1.0935,-0.115624,2.411,2.64991
-1.07802,-0.114808,2.394,2.62803
-1.07025,-0.114808,2.394,2.62485
-1.06248,-0.114808,2.394,2.62169
-1.04722,-0.113993,2.377,2.59996
-1.03951,-0.113993,2.377,2.59686
-1.03179,-0.113993,2.377,2.59378
-1.02408,-0.113993,2.377,2.59072
-1.01636,-0.113993,2.377,2.58768
-1.00865,-0.113993,2.377,2.58466
-1.00093,-0.113993,2.377,2.58166
-0.993215,-0.113993,2.377,2.57868
-0.9855,-0.113993,2.377,2.57572
-0.977785,-0.113993,2.377,2.57278
-0.970069,-0.113993,2.377,2.56986
-0.962354,-0.113993,2.377,2.56695
-0.954639,-0.113993,2.377,2.56407
-0.946924,-0.113993,2.377,2.56121
-0.939209,-0.113993,2.377,2.55837
-0.931494,-0.113993,2.377,2.55554
-0.923778,-0.113993,2.377,2.55274
-0.916063,-0.113993,2.377,2.54996
-0.908348,-0.113993,2.377,2.5472
-0.900633,-0.113993,2.377,2.54446
-0.892918,-0.113993,2.377,2.54174
-0.885203,-0.113993,2.377,2.53904
-0.877488,-0.113993,2.377,2.53636
-0.869772,-0.113993,2.377,2.5337
-0.862057,-0.113993,2.377,2.53106
-0.860452,-0.114808,2.394,2.54653
-0.852682,-0.114808,2.394,2.54391
-0.844912,-0.114808,2.394,2.54132
-0.837141,-0.114808,2.394,2.53874
-0.829371,-0.114808,2.394,2.53619
-0.821601,-0.114808,2.394,2.53366
-0.81383,-0.114808,2.394,2.53115
-0.811784,-0.115624,2.411,2.54662
-0.803958,-0.115624,2.411,2.54414
-0.796133,-0.115624,2.411,2.54168
-0.788307,-0.115624,2.411,2.53924
-0.780482,-0.115624,2.411,2.53682
-0.772656,-0.115624,2.411,2.53442
-0.764831,-0.115624,2.411,2.53205
-0.757005,-0.115624,2.411,2.52969
-0.74918,-0.115624,2.411,2.52736
-0.741354,-0.115624,2.411,2.52505
-0.733529,-0.115624,2.411,2.52277
-0.725703,-0.115624,2.411,2.5205
-0.717878,-0.115624,2.411,2.51826
-0.710052,-0.115624,2.411,2.51604
-0.702227,-0.115624,2.411,2.51384
-0.694401,-0.115624,2.411,2.51167
-0.691417,-0.116439,2.428,2.52721
-0.683536,-0.116439,2.428,2.52507
-0.675655,-0.116439,2.428,2.52295
-0.667775,-0.116439,2.428,2.52085
-0.659894,-0.116439,2.428,2.51877
-0.652013,-0.116439,2.428,2.51672
-0.644133,-0.116439,2.428,2.51469
-0.636252,-0.116439,2.428,2.51268
-0.628371,-0.116439,2.428,2.5107
-0.620491,-0.116439,2.428,2.50874
-0.616899,-0.117254,2.445,2.52435
-0.608963,-0.117254,2.445,2.52242
-0.601027,-0.117254,2.445,2.52052
-0.593092,-0.117254,2.445,2.51864
-0.589464,-0.118117,2.463,2.53531
-0.581469,-0.118117,2.463,2.53346
-0.573475,-0.118117,2.463,2.53164
-0.565481,-0.118117,2.463,2.52984
-0.557486,-0.118117,2.463,2.52806
-0.553508,-0.118981,2.481,2.54478
-0.545455,-0.118981,2.481,2.54304
-0.537403,-0.118981,2.481,2.54132
-0.52935,-0.118981,2.481,2.53963
-0.521297,-0.118981,2.481,2.53797
-0.513244,-0.118981,2.481,2.53632
-0.505192,-0.118981,2.481,2.53471
-0.500746,-0.119844,2.499,2.55149
-0.492635,-0.119844,2.499,2.54991
-0.484524,-0.119844,2.499,2.54836
-0.476412,-0.119844,2.499,2.54683
-0.471674,-0.120707,2.517,2.56366
-0.463505,-0.120707,2.517,2.56217
-0.455335,-0.120707,2.517,2.5607
-0.447166,-0.120707,2.517,2.55926
-0.438996,-0.120707,2.517,2.55785
-0.430827,-0.120707,2.517,2.55646
-0.422657,-0.120707,2.517,2.55509
-0.414487,-0.120707,2.517,2.55375
-0.406318,-0.120707,2.517,2.55244
-0.395301,-0.119844,2.499,2.53291
-0.38719,-0.119844,2.499,2.53166
-0.379079,-0.119844,2.499,2.53043
-0.370968,-0.119844,2.499,2.52923
-0.362857,-0.119844,2.499,2.52805
-0.354745,-0.119844,2.499,2.5269
-0.346634,-0.119844,2.499,2.52577
-0.338523,-0.119844,2.499,2.52467
-0.330412,-0.119844,2.499,2.5236
-0.322301,-0.119844,2.499,2.52255
-0.31419,-0.119844,2.499,2.52152
-0.306079,-0.119844,2.499,2.52053
-0.297967,-0.119844,2.499,2.51955
-0.287769,-0.118981,2.481,2.50047
-0.279716,-0.118981,2.481,2.49955
-0.271663,-0.118981,2.481,2.49866
-0.26361,-0.118981,2.481,2.4978
-0.255558,-0.118981,2.481,2.49696
-0.247505,-0.118981,2.481,2.49615
-0.237715,-0.118117,2.463,2.47726
-0.229721,-0.118117,2.463,2.47651
-0.221726,-0.118117,2.463,2.47578
-0.213732,-0.118117,2.463,2.47508
-0.207241,-0.118981,2.481,2.49248
-0.199189,-0.118981,2.481,2.49183
-0.191136,-0.118981,2.481,2.49119
-0.183083,-0.118981,2.481,2.49059
-0.175031,-0.118981,2.481,2.49001
-0.166978,-0.118981,2.481,2.48946
-0.158925,-0.118981,2.481,2.48893
-0.150872,-0.118981,2.481,2.48843
-0.143856,-0.119844,2.499,2.506
-0.135745,-0.119844,2.499,2.50555
-0.127634,-0.119844,2.499,2.50513
-0.119523,-0.119844,2.499,2.50473
-0.111411,-0.119844,2.499,2.50435
-0.1033,-0.119844,2.499,2.504
-0.0951891,-0.119844,2.499,2.50368
-0.087078,-0.119844,2.499,2.50339
-0.0789668,-0.119844,2.499,2.50312
-0.0708557,-0.119844,2.499,2.50288
-0.0627446,-0.119844,2.499,2.50266
-0.0546334,-0.119844,2.499,2.50247
-0.0461872,-0.118981,2.481,2.48428
-0.0381345,-0.118981,2.481,2.48414
-0.0300818,-0.118981,2.481,2.48403
-0.0220291,-0.118981,2.481,2.48395
-0.0139764,-0.118981,2.481,2.48389
-0.00592366,-0.118981,2.481,2.48386
0.00212905,-0.118981,2.481,2.48385
0.0101818,-0.118981,2.481,2.48387
0.0181022,-0.118117,2.463,2.4659
0.0260965,-0.118117,2.463,2.46597
0.0340907,-0.118117,2.463,2.46607
0.042085,-0.118117,2.463,2.46619
0.0500793,-0.118117,2.463,2.46634
0.0580736,-0.118117,2.463,2.46651
0.0660679,-0.118117,2.463,2.46672
0.0740622,-0.118117,2.463,2.46694
0.0814568,-0.117254,2.445,2.44917
0.0893926,-0.117254,2.445,2.44944
0.0973285,-0.117254,2.445,2.44974
0.105264,-0.117254,2.445,2.45007
0.1132,-0.117254,2.445,2.45043
0.121136,-0.117254,2.445,2.45081
0.129072,-0.117254,2.445,2.45121
0.138016,-0.118117,2.463,2.46969
0.146011,-0.118117,2.463,2.47015
0.154005,-0.118117,2.463,2.47064
0.161999,-0.118117,2.463,2.47115
0.169994,-0.118117,2.463,2.47168
0.177988,-0.118117,2.463,2.47225
0.187341,-0.118981,2.481,2.49091
0.195394,-0.118981,2.481,2.49153
0.203447,-0.118981,2.481,2.49217
0.2115,-0.118981,2.481,2.49284
0.221145,-0.119844,2.499,2.51163
0.229256,-0.119844,2.499,2.51235
0.237367,-0.119844,2.499,2.51311
0.245479,-0.119844,2.499,2.51389
0.25359,-0.119844,2.499,2.51469
0.261701,-0.119844,2.499,2.51552
0.269812,-0.119844,2.499,2.51638
0.277923,-0.119844,2.499,2.51726
0.286034,-0.119844,2.499,2.51817
0.296264,-0.120707,2.517,2.53725
0.304434,-0.120707,2.517,2.53822
0.312603,-0.120707,2.517,2.53921
0.320773,-0.120707,2.517,2.54023
0.328942,-0.120707,2.517,2.54127
0.337112,-0.120707,2.517,2.54234
0.345281,-0.120707,2.517,2.54344
0.353451,-0.120707,2.517,2.54456
0.36162,-0.120707,2.517,2.54571
0.36979,-0.120707,2.517,2.54688
0.37796,-0.120707,2.517,2.54808
0.386129,-0.120707,2.517,2.5493
0.394299,-0.120707,2.517,2.55056
0.402468,-0.120707,2.517,2.55183
0.410638,-0.120707,2.517,2.55313
0.418807,-0.120707,2.517,2.55446
0.426977,-0.120707,2.517,2.55581
0.435146,-0.120707,2.517,2.55719
0.443316,-0.120707,2.517,2.55859
0.448257,-0.119844,2.499,2.54171
0.456368,-0.119844,2.499,2.54315
0.464479,-0.119844,2.499,2.54462
0.47259,-0.119844,2.499,2.54612
0.480701,-0.119844,2.499,2.54763
0.488812,-0.119844,2.499,2.54918
0.496924,-0.119844,2.499,2.55074
0.505035,-0.119844,2.499,2.55234
0.50945,-0.118981,2.481,2.53556
0.517502,-0.118981,2.481,2.53719
0.525555,-0.118981,2.481,2.53884
0.533608,-0.118981,2.481,2.54052
0.541661,-0.118981,2.481,2.54223
0.549713,-0.118981,2.481,2.54395
0.557766,-0.118981,2.481,2.54571
0.565819,-0.118981,2.481,2.54748
0.573871,-0.118981,2.481,2.54928
0.581924,-0.118981,2.481,2.55111
0.589977,-0.118981,2.481,2.55296
0.59803,-0.118981,2.481,2.55483
0.606082,-0.118981,2.481,2.55673
0.614135,-0.118981,2.481,2.55865
0.622188,-0.118981,2.481,2.56059
0.63024,-0.118981,2.481,2.56256
0.638293,-0.118981,2.481,2.56455
0.646346,-0.118981,2.481,2.56657
0.654399,-0.118981,2.481,2.56861
0.662451,-0.118981,2.481,2.57067
0.670504,-0.118981,2.481,2.57276
0.678557,-0.118981,2.481,2.57487
0.686609,-0.118981,2.481,2.577
0.694662,-0.118981,2.481,2.57916
0.702715,-0.118981,2.481,2.58134
0.715924,-0.119844,2.499,2.60229
0.71882,-0.118981,2.481,2.58577
0.726873,-0.118981,2.481,2.58802
0.734926,-0.118981,2.481,2.5903
0.742978,-0.118981,2.481,2.59259
0.751031,-0.118981,2.481,2.59491
0.759084,-0.118981,2.481,2.59725
0.767137,-0.118981,2.481,2.59962
0.780813,-0.119844,2.499,2.62088
0.788924,-0.119844,2.499,2.62331
0.791295,-0.118981,2.481,2.60685
0.799347,-0.118981,2.481,2.60931
0.8074,-0.118981,2.481,2.61178
0.815453,-0.118981,2.481,2.61428
0.823505,-0.118981,2.481,2.61681
0.831558,-0.118981,2.481,2.61935
0.839611,-0.118981,2.481,2.62192
0.853814,-0.119844,2.499,2.64355
0.861925,-0.119844,2.499,2.64618
0.863769,-0.118981,2.481,2.62976
0.871822,-0.118981,2.481,2.63241
0.879874,-0.118981,2.481,2.63509
0.887927,-0.118981,2.481,2.63779
0.889479,-0.118117,2.463,2.62135
0.897474,-0.118117,2.463,2.62408
0.905468,-0.118117,2.463,2.62682
0.913462,-0.118117,2.463,2.62959
0.914722,-0.117254,2.445,2.61314
0.922658,-0.117254,2.445,2.61593
0.930594,-0.117254,2.445,2.61874
0.932004,-0.116439,2.428,2.60334
0.939885,-0.116439,2.428,2.60617
0.947766,-0.116439,2.428,2.60902
0.955646,-0.116439,2.428,2.6119
0.963527,-0.116439,2.428,2.61479
0.964606,-0.115624,2.411,2.59938
0.972432,-0.115624,2.411,2.60229
0.987169,-0.116439,2.428,2.62359
0.99505,-0.116439,2.428,2.62657
1.00293,-0.116439,2.428,2.62957
1.01081,-0.116439,2.428,2.63258
1.01869,-0.116439,2.428,2.63562
1.02657,-0.116439,2.428,2.63867
1.05703,-0.118981,2.481,2.69941
1.0887,-0.121618,2.536,2.76249
1.09693,-0.121618,2.536,2.76574
1.13872,-0.125311,2.613,2.85309
1.1652,-0.127277,2.654,2.90131
1.19239,-0.129291,2.696,2.95075
1.20114,-0.129291,2.696,2.9543
1.23906,-0.132408,2.761,3.02918
1.26836,-0.134567,2.806,3.08229
1.27747,-0.134567,2.806,3.08604
1.30813,-0.13682,2.853,3.14158
1.33955,-0.139122,2.901,3.19837
1.33781,-0.137971,2.877,3.17583
1.33591,-0.13682,2.853,3.15325
1.34517,-0.13682,2.853,3.15718
1.35443,-0.13682,2.853,3.16114
1.36369,-0.13682,2.853,3.16512
1.3845,-0.137971,2.877,3.19578
1.40546,-0.139122,2.901,3.22653
1.41488,-0.139122,2.901,3.23064
1.42429,-0.139122,2.901,3.23478
1.44607,-0.140321,2.926,3.26684
1.45556,-0.140321,2.926,3.27106
1.47758,-0.14152,2.951,3.30328
1.50026,-0.142767,2.977,3.33672
1.50992,-0.142767,2.977,3.34107
1.53285,-0.144014,3.003,3.37467
1.57034,-0.146604,3.057,3.43987
1.62369,-0.150632,3.141,3.53906
1.63388,-0.150632,3.141,3.54375
1.65925,-0.152023,3.17,3.58122
1.68482,-0.153413,3.199,3.6188
1.6952,-0.153413,3.199,3.62365
1.72211,-0.1549,3.23,3.66368
1.76585,-0.157873,3.292,3.73904
1.79381,-0.159408,3.324,3.78049
1.8046,-0.159408,3.324,3.78562
1.81538,-0.159408,3.324,3.79078
1.82617,-0.159408,3.324,3.79596
1.83696,-0.159408,3.324,3.80116
1.84775,-0.159408,3.324,3.80639
1.85854,-0.159408,3.324,3.81163
1.85133,-0.157873,3.292,3.78016
1.86202,-0.157873,3.292,3.78541
1.89091,-0.159408,3.324,3.82752
1.9017,-0.159408,3.324,3.83286
1.91248,-0.159408,3.324,3.83823
1.92327,-0.159408,3.324,3.84361
1.93406,-0.159408,3.324,3.84902
1.92613,-0.157873,3.292,3.81735
1.93681,-0.157873,3.292,3.82275
1.9475,-0.157873,3.292,3.82818
1.93915,-0.156339,3.26,3.79636
1.94973,-0.156339,3.26,3.80177
1.96031,-0.156339,3.26,3.80721
1.95275,-0.1549,3.23,3.77758
1.9444,-0.153413,3.199,3.74671
1.95478,-0.153413,3.199,3.75211
1.92953,-0.150632,3.141,3.6894
1.90453,-0.147898,3.084,3.62769
1.91454,-0.147898,3.084,3.63296
1.89085,-0.145309,3.03,3.57454
1.88375,-0.144014,3.003,3.54785
1.89349,-0.144014,3.003,3.55304
1.88676,-0.142767,2.977,3.52743
1.86394,-0.140321,2.926,3.47209
1.84206,-0.137971,2.877,3.41897
1.8514,-0.137971,2.877,3.42401
1.82969,-0.135669,2.829,3.37186
1.80897,-0.133464,2.783,3.32194
1.81801,-0.133464,2.783,3.32687
1.8126,-0.132408,2.761,3.30547
1.79253,-0.130298,2.717,3.25764
1.80135,-0.130298,2.717,3.2625
1.78218,-0.128284,2.675,3.21687
1.77681,-0.127277,2.654,3.1964
1.78542,-0.127277,2.654,3.20119
1.76632,-0.125311,2.613,3.15648
1.74831,-0.123441,2.574,3.11405
-1.94661,-0.125461,2.806,3.41741
-1.92163,-0.124433,2.783,3.38426
-1.91259,-0.124433,2.783,3.37914
-1.88851,-0.123449,2.761,3.34736
-1.86457,-0.122466,2.739,3.31568
-1.85568,-0.122466,2.739,3.31069
-1.84679,-0.122466,2.739,3.30572
-1.8379,-0.122466,2.739,3.30076
-1.82901,-0.122466,2.739,3.29582
-1.82012,-0.122466,2.739,3.29089
-1.82578,-0.123449,2.761,3.31238
-1.81682,-0.123449,2.761,3.30745
-1.80786,-0.123449,2.761,3.30253
-1.7989,-0.123449,2.761,3.29763
-1.81911,-0.125461,2.806,3.34642
-1.82484,-0.12649,2.829,3.36887
-1.81565,-0.12649,2.829,3.3639
-1.85245,-0.129709,2.901,3.44444
-1.84303,-0.129709,2.901,3.43939
-1.83362,-0.129709,2.901,3.43435
-1.8242,-0.129709,2.901,3.42933
-1.81478,-0.129709,2.901,3.42433
-1.82093,-0.130827,2.926,3.44882
-1.81143,-0.130827,2.926,3.44382
-1.80193,-0.130827,2.926,3.43883
-1.79244,-0.130827,2.926,3.43386
-1.78294,-0.130827,2.926,3.42892
-1.77344,-0.130827,2.926,3.42399
-1.76394,-0.130827,2.926,3.41908
-1.73946,-0.129709,2.901,3.38502
-1.73004,-0.129709,2.901,3.38019
-1.72062,-0.129709,2.901,3.37538
-1.69705,-0.128636,2.877,3.3427
-1.68771,-0.128636,2.877,3.33797
-1.66438,-0.127563,2.853,3.30545
-1.65511,-0.127563,2.853,3.3008
-1.64585,-0.127563,2.853,3.29617
-1.63659,-0.127563,2.853,3.29155
nan,nan,nan,NaN
nan,nan,nan,NaN
nan,nan,nan,NaN
nan,nan,nan,NaN
nan,nan,nan,NaN
nan,nan,nan,NaN
nan,nan,nan,NaN
nan,nan,nan,NaN
nan,nan,nan,NaN
nan,nan,nan,NaN
nan,nan,nan,NaN
nan,nan,nan,NaN
nan,nan,nan,NaN
nan,nan,nan,NaN
nan,nan,nan,NaN
nan,nan,nan,NaN
nan,nan,nan,NaN
nan,nan,nan,NaN
nan,nan,nan,NaN
nan,nan,nan,NaN
nan,nan,nan,NaN
nan,nan,nan,NaN
-1.26543,-0.113389,2.536,2.83645
-1.2572,-0.113389,2.536,2.83279
-1.23075,-0.111735,2.499,2.78787
-1.22264,-0.111735,2.499,2.7843
-1.21453,-0.111735,2.499,2.78075
-1.19772,-0.11093,2.481,2.75721
-1.18967,-0.11093,2.481,2.75372
-1.18162,-0.11093,2.481,2.75025
-1.16505,-0.110125,2.463,2.72687
-1.15706,-0.110125,2.463,2.72347
-1.14906,-0.110125,2.463,2.72008
-1.12485,-0.10856,2.428,2.67811
-1.11697,-0.10856,2.428,2.67481
-1.10133,-0.1078,2.411,2.65282
-1.0935,-0.1078,2.411,2.64958
-1.08568,-0.1078,2.411,2.64636
-1.07025,-0.10704,2.394,2.62453
-1.06248,-0.10704,2.394,2.62137
-1.05471,-0.10704,2.394,2.61823
-1.03951,-0.10628,2.377,2.59654
-1.03179,-0.10628,2.377,2.59346
-1.02408,-0.10628,2.377,2.5904
-1.01636,-0.10628,2.377,2.58736
-1.00865,-0.10628,2.377,2.58434
-1.00093,-0.10628,2.377,2.58133
-0.993215,-0.10628,2.377,2.57835
-0.9855,-0.10628,2.377,2.57539
-0.977785,-0.10628,2.377,2.57245
-0.970069,-0.10628,2.377,2.56953
-0.962354,-0.10628,2.377,2.56662
-0.954639,-0.10628,2.377,2.56374
-0.946924,-0.10628,2.377,2.56088
-0.939209,-0.10628,2.377,2.55803
-0.931494,-0.10628,2.377,2.55521
-0.923778,-0.10628,2.377,2.55241
-0.916063,-0.10628,2.377,2.54963
-0.908348,-0.10628,2.377,2.54686
-0.900633,-0.10628,2.377,2.54412
-0.892918,-0.10628,2.377,2.5414
-0.885203,-0.10628,2.377,2.5387
-0.877488,-0.10628,2.377,2.53602
-0.869772,-0.10628,2.377,2.53336
-0.862057,-0.10628,2.377,2.53072
-0.860452,-0.10704,2.394,2.54619
-0.852682,-0.10704,2.394,2.54357
-0.844912,-0.10704,2.394,2.54098
-0.837141,-0.10704,2.394,2.5384
-0.829371,-0.10704,2.394,2.53585
-0.821601,-0.10704,2.394,2.53332
-0.81383,-0.10704,2.394,2.53081
-0.811784,-0.1078,2.411,2.54628
-0.803958,-0.1078,2.411,2.54379
-0.796133,-0.1078,2.411,2.54133
-0.788307,-0.1078,2.411,2.53889
-0.780482,-0.1078,2.411,2.53647
-0.772656,-0.1078,2.411,2.53408
-0.764831,-0.1078,2.411,2.5317
-0.757005,-0.1078,2.411,2.52935
-0.74918,-0.1078,2.411,2.52702
-0.741354,-0.1078,2.411,2.52471
-0.733529,-0.1078,2.411,2.52242
-0.725703,-0.1078,2.411,2.52016
-0.717878,-0.1078,2.411,2.51791
-0.710052,-0.1078,2.411,2.51569
-0.702227,-0.1078,2.411,2.5135
-0.699297,-0.10856,2.428,2.52903
-0.691417,-0.10856,2.428,2.52686
-0.683536,-0.10856,2.428,2.52472
-0.675655,-0.10856,2.428,2.52259
-0.667775,-0.10856,2.428,2.52049
-0.659894,-0.10856,2.428,2.51842
-0.652013,-0.10856,2.428,2.51636
-0.644133,-0.10856,2.428,2.51433
-0.636252,-0.10856,2.428,2.51233
-0.628371,-0.10856,2.428,2.51034
-0.620491,-0.10856,2.428,2.50838
-0.616899,-0.109321,2.445,2.52399
-0.608963,-0.109321,2.445,2.52207
-0.601027,-0.109321,2.445,2.52016
-0.593092,-0.109321,2.445,2.51828
-0.589464,-0.110125,2.463,2.53495
-0.581469,-0.110125,2.463,2.5331
-0.573475,-0.110125,2.463,2.53128
-0.565481,-0.110125,2.463,2.52948
-0.557486,-0.110125,2.463,2.5277
-0.553508,-0.11093,2.481,2.54441
-0.545455,-0.11093,2.481,2.54267
-0.537403,-0.11093,2.481,2.54096
-0.52935,-0.11093,2.481,2.53927
-0.521297,-0.11093,2.481,2.5376
-0.513244,-0.11093,2.481,2.53596
-0.505192,-0.11093,2.481,2.53434
-0.500746,-0.111735,2.499,2.55112
-0.492635,-0.111735,2.499,2.54954
-0.484524,-0.111735,2.499,2.54799
-0.476412,-0.111735,2.499,2.54646
-0.471674,-0.11254,2.517,2.56329
-0.463505,-0.11254,2.517,2.56179
-0.455335,-0.11254,2.517,2.56033
-0.447166,-0.11254,2.517,2.55889
-0.438996,-0.11254,2.517,2.55747
-0.430827,-0.11254,2.517,2.55608
-0.422657,-0.11254,2.517,2.55472
-0.414487,-0.11254,2.517,2.55338
-0.403412,-0.111735,2.499,2.53382
-0.395301,-0.111735,2.499,2.53254
-0.38719,-0.111735,2.499,2.53128
-0.379079,-0.111735,2.499,2.53006
-0.370968,-0.111735,2.499,2.52885
-0.362857,-0.111735,2.499,2.52768
-0.354745,-0.111735,2.499,2.52653
-0.346634,-0.111735,2.499,2.5254
-0.338523,-0.111735,2.499,2.5243
-0.330412,-0.111735,2.499,2.52322
-0.322301,-0.111735,2.499,2.52217
-0.31419,-0.111735,2.499,2.52115
-0.306079,-0.111735,2.499,2.52015
-0.295821,-0.11093,2.481,2.50104
-0.287769,-0.11093,2.481,2.5001
-0.279716,-0.11093,2.481,2.49918
-0.271663,-0.11093,2.481,2.49829
-0.261698,-0.110125,2.463,2.47931
-0.253704,-0.110125,2.463,2.47848
-0.245709,-0.110125,2.463,2.47767
-0.237715,-0.110125,2.463,2.47689
-0.229721,-0.110125,2.463,2.47614
-0.221726,-0.110125,2.463,2.47541
-0.213732,-0.110125,2.463,2.47471
-0.205738,-0.110125,2.463,2.47403
-0.197744,-0.110125,2.463,2.47338
-0.189749,-0.110125,2.463,2.47275
-0.181755,-0.110125,2.463,2.47215
-0.175031,-0.11093,2.481,2.48964
-0.166978,-0.11093,2.481,2.48909
-0.158925,-0.11093,2.481,2.48856
-0.150872,-0.11093,2.481,2.48806
-0.143856,-0.111735,2.499,2.50563
-0.135745,-0.111735,2.499,2.50518
-0.127634,-0.111735,2.499,2.50475
-0.119523,-0.111735,2.499,2.50435
-0.111411,-0.111735,2.499,2.50398
-0.1033,-0.111735,2.499,2.50363
-0.0951891,-0.111735,2.499,2.50331
-0.087078,-0.111735,2.499,2.50301
-0.0789668,-0.111735,2.499,2.50274
-0.0708557,-0.111735,2.499,2.5025
-0.0627446,-0.111735,2.499,2.50228
-0.0546334,-0.111735,2.499,2.50209
-0.0461872,-0.11093,2.481,2.48391
-0.0381345,-0.11093,2.481,2.48377
-0.0300818,-0.11093,2.481,2.48366
-0.0220291,-0.11093,2.481,2.48358
-0.0139764,-0.11093,2.481,2.48352
-0.00592366,-0.11093,2.481,2.48349
0.00212905,-0.11093,2.481,2.48348
0.0101818,-0.11093,2.481,2.4835
0.0181022,-0.110125,2.463,2.46553
0.0260965,-0.110125,2.463,2.4656
0.0340907,-0.110125,2.463,2.4657
0.042085,-0.110125,2.463,2.46582
0.0497133,-0.109321,2.445,2.44795
0.0576492,-0.109321,2.445,2.44812
0.0655851,-0.109321,2.445,2.44832
0.0735209,-0.109321,2.445,2.44855
0.0814568,-0.109321,2.445,2.4488
0.0893926,-0.109321,2.445,2.44907
0.0966518,-0.10856,2.428,2.43235
0.104532,-0.10856,2.428,2.43267
0.1132,-0.109321,2.445,2.45006
0.121136,-0.109321,2.445,2.45044
0.129072,-0.109321,2.445,2.45084
0.137008,-0.109321,2.445,2.45127
0.144944,-0.109321,2.445,2.45173
0.15288,-0.109321,2.445,2.45221
0.161999,-0.110125,2.463,2.47078
0.169994,-0.110125,2.463,2.47131
0.177988,-0.110125,2.463,2.47188
0.185982,-0.110125,2.463,2.47247
0.195394,-0.11093,2.481,2.49115
0.203447,-0.11093,2.481,2.4918
0.2115,-0.11093,2.481,2.49247
0.219552,-0.11093,2.481,2.49316
0.229256,-0.111735,2.499,2.51198
0.237367,-0.111735,2.499,2.51273
0.245479,-0.111735,2.499,2.51351
0.25359,-0.111735,2.499,2.51432
0.261701,-0.111735,2.499,2.51515
0.269812,-0.111735,2.499,2.51601
0.277923,-0.111735,2.499,2.51689
0.286034,-0.111735,2.499,2.5178
0.296264,-0.11254,2.517,2.53687
0.304434,-0.11254,2.517,2.53784
0.312603,-0.11254,2.517,2.53883
0.320773,-0.11254,2.517,2.53985
0.328942,-0.11254,2.517,2.5409
0.337112,-0.11254,2.517,2.54197
0.345281,-0.11254,2.517,2.54306
0.353451,-0.11254,2.517,2.54419
0.36162,-0.11254,2.517,2.54533
0.36979,-0.11254,2.517,2.54651
0.37796,-0.11254,2.517,2.54771
0.386129,-0.11254,2.517,2.54893
0.394299,-0.11254,2.517,2.55018
0.402468,-0.11254,2.517,2.55146
0.410638,-0.11254,2.517,2.55276
0.418807,-0.11254,2.517,2.55409
0.426977,-0.11254,2.517,2.55544
0.435146,-0.11254,2.517,2.55682
0.443316,-0.11254,2.517,2.55822
0.448257,-0.111735,2.499,2.54134
0.456368,-0.111735,2.499,2.54279
0.464479,-0.111735,2.499,2.54425
0.47259,-0.111735,2.499,2.54575
0.480701,-0.111735,2.499,2.54727
0.488812,-0.111735,2.499,2.54881
0.496924,-0.111735,2.499,2.55038
0.505035,-0.111735,2.499,2.55197
0.50945,-0.11093,2.481,2.53519
0.517502,-0.11093,2.481,2.53682
0.525555,-0.11093,2.481,2.53848
0.533608,-0.11093,2.481,2.54016
0.541661,-0.11093,2.481,2.54186
0.549713,-0.11093,2.481,2.54359
0.557766,-0.11093,2.481,2.54534
0.565819,-0.11093,2.481,2.54712
0.573871,-0.11093,2.481,2.54892
0.581924,-0.11093,2.481,2.55075
0.589977,-0.11093,2.481,2.55259
0.59803,-0.11093,2.481,2.55447
0.606082,-0.11093,2.481,2.55637
0.614135,-0.11093,2.481,2.55829
0.622188,-0.11093,2.481,2.56023
0.63024,-0.11093,2.481,2.5622
0.638293,-0.11093,2.481,2.56419
0.646346,-0.11093,2.481,2.56621
0.654399,-0.11093,2.481,2.56825
0.662451,-0.11093,2.481,2.57031
0.670504,-0.11093,2.481,2.5724
0.678557,-0.11093,2.481,2.57451
0.686609,-0.11093,2.481,2.57665
0.694662,-0.11093,2.481,2.5788
0.702715,-0.11093,2.481,2.58098
0.715924,-0.111735,2.499,2.60193
0.71882,-0.11093,2.481,2.58541
0.726873,-0.11093,2.481,2.58767
0.734926,-0.11093,2.481,2.58994
0.742978,-0.11093,2.481,2.59224
0.751031,-0.11093,2.481,2.59455
0.759084,-0.11093,2.481,2.5969
0.767137,-0.11093,2.481,2.59926
0.780813,-0.111735,2.499,2.62053
0.788924,-0.111735,2.499,2.62295
0.797036,-0.111735,2.499,2.62541
0.805147,-0.111735,2.499,2.62788
0.8074,-0.11093,2.481,2.61143
0.815453,-0.11093,2.481,2.61393
0.823505,-0.11093,2.481,2.61645
0.831558,-0.11093,2.481,2.619
0.839611,-0.11093,2.481,2.62157
0.853814,-0.111735,2.499,2.6432
0.861925,-0.111735,2.499,2.64583
0.863769,-0.11093,2.481,2.6294
0.871822,-0.11093,2.481,2.63206
0.879874,-0.11093,2.481,2.63474
0.887927,-0.11093,2.481,2.63744
0.889479,-0.110125,2.463,2.62101
0.897474,-0.110125,2.463,2.62373
0.905468,-0.110125,2.463,2.62647
0.913462,-0.110125,2.463,2.62924
0.914722,-0.109321,2.445,2.61279
0.922658,-0.109321,2.445,2.61558
0.930594,-0.109321,2.445,2.61839
0.932004,-0.10856,2.428,2.603
0.939885,-0.10856,2.428,2.60583
0.947766,-0.10856,2.428,2.60868
0.955646,-0.10856,2.428,2.61156
0.963527,-0.10856,2.428,2.61445
0.964606,-0.1078,2.411,2.59904
0.972432,-0.1078,2.411,2.60195
0.987169,-0.10856,2.428,2.62326
0.99505,-0.10856,2.428,2.62623
1.00293,-0.10856,2.428,2.62923
1.01081,-0.10856,2.428,2.63224
1.01869,-0.10856,2.428,2.63528
1.02657,-0.10856,2.428,2.63834
1.04937,-0.110125,2.463,2.67949
1.0887,-0.113389,2.536,2.76214
1.09693,-0.113389,2.536,2.76539
1.12172,-0.115088,2.574,2.81016
1.15598,-0.117726,2.633,2.87799
1.17381,-0.118665,2.654,2.90442
1.18243,-0.118665,2.654,2.90791
1.20046,-0.119604,2.675,2.93446
1.22813,-0.121482,2.717,2.98415
1.23695,-0.121482,2.717,2.98779
1.25586,-0.122466,2.739,3.01567
1.28506,-0.124433,2.783,3.06789
1.27364,-0.122466,2.739,3.02312
1.27223,-0.121482,2.717,3.00257
1.28104,-0.121482,2.717,3.00631
1.28986,-0.121482,2.717,3.01008
1.29868,-0.121482,2.717,3.01387
1.31809,-0.122466,2.739,3.04212
1.34829,-0.124433,2.783,3.09491
1.35733,-0.124433,2.783,3.09886
1.37765,-0.125461,2.806,3.12847
1.39813,-0.12649,2.829,3.15816
1.40731,-0.12649,2.829,3.16224
1.44053,-0.128636,2.877,3.22006
1.46196,-0.129709,2.901,3.25115
1.47137,-0.129709,2.901,3.25539
1.50631,-0.131945,2.951,3.31584
1.55647,-0.135477,3.03,3.40908
1.59422,-0.137891,3.084,3.47442
1.60423,-0.137891,3.084,3.47903
1.64408,-0.14044,3.141,3.54804
1.66954,-0.141737,3.17,3.58558
1.67983,-0.141737,3.17,3.59038
1.70558,-0.143033,3.199,3.6281
1.7326,-0.144419,3.23,3.66819
1.75927,-0.145761,3.26,3.70727
1.76985,-0.145761,3.26,3.71231
1.79791,-0.147191,3.292,3.75385
1.80859,-0.147191,3.292,3.75898
1.81928,-0.147191,3.292,3.76413
1.81217,-0.145761,3.26,3.73267
1.82276,-0.145761,3.26,3.73782
1.83334,-0.145761,3.26,3.74299
1.84392,-0.145761,3.26,3.74818
1.8727,-0.147191,3.292,3.79024
1.88339,-0.147191,3.292,3.79553
1.87566,-0.145761,3.26,3.7639
1.88624,-0.145761,3.26,3.76919
1.89682,-0.145761,3.26,3.77449
1.9074,-0.145761,3.26,3.77982
1.90034,-0.144419,3.23,3.75034
1.91082,-0.144419,3.23,3.75566
1.9213,-0.144419,3.23,3.76101
1.93179,-0.144419,3.23,3.76637
1.94227,-0.144419,3.23,3.77176
1.93401,-0.143033,3.199,3.74092
1.90914,-0.14044,3.141,3.67837
1.91934,-0.14044,3.141,3.68368
1.89452,-0.137891,3.084,3.62205
1.87118,-0.135477,3.03,3.56379
1.88101,-0.135477,3.03,3.56896
1.874,-0.13427,3.003,3.5423
1.86744,-0.133107,2.977,3.51676
1.8771,-0.133107,2.977,3.5219
1.85444,-0.130827,2.926,3.46663
1.84801,-0.129709,2.901,3.44206
1.82669,-0.127563,2.853,3.39009
1.83595,-0.127563,2.853,3.39509
1.81482,-0.125461,2.806,3.34409
1.79467,-0.123449,2.761,3.29533
1.80364,-0.123449,2.761,3.30022
1.79815,-0.122466,2.739,3.27879
1.79253,-0.121482,2.717,3.2573
1.80135,-0.121482,2.717,3.26216
1.78218,-0.119604,2.675,3.21654
1.76275,-0.117726,2.633,3.17078
1.77129,-0.117726,2.633,3.17554
1.7528,-0.115938,2.593,3.132
1.74831,-0.115088,2.574,3.11373
-1.94661,-0.116356,2.806,3.41709
-1.90643,-0.11449,2.761,3.35719
-1.89747,-0.11449,2.761,3.35211
-1.87346,-0.113578,2.739,3.32037
-1.8496,-0.112666,2.717,3.28874
-1.84078,-0.112666,2.717,3.28379
-1.83196,-0.112666,2.717,3.27885
-1.82314,-0.112666,2.717,3.27393
-1.81432,-0.112666,2.717,3.26903
-1.8055,-0.112666,2.717,3.26414
-1.81123,-0.113578,2.739,3.28566
-1.81682,-0.11449,2.761,3.30712
-1.80786,-0.11449,2.761,3.30221
-1.7989,-0.11449,2.761,3.29731
nan,nan,nan,NaN
nan,nan,nan,NaN
nan,nan,nan,NaN
nan,nan,nan,NaN
nan,nan,nan,NaN
nan,nan,nan,NaN
-1.8242,-0.120296,2.901,3.42899
-1.81478,-0.120296,2.901,3.42399
-1.82093,-0.121333,2.926,3.44847
-1.81143,-0.121333,2.926,3.44347
-1.80193,-0.121333,2.926,3.43848
-1.79244,-0.121333,2.926,3.43351
-1.78294,-0.121333,2.926,3.42857
-1.77344,-0.121333,2.926,3.42364
-1.76394,-0.121333,2.926,3.41873
-1.73946,-0.120296,2.901,3.38467
-1.73004,-0.120296,2.901,3.37984
-1.72062,-0.120296,2.901,3.37503
-1.71121,-0.120296,2.901,3.37024
-1.70179,-0.120296,2.901,3.36547
-1.69238,-0.120296,2.901,3.36072
-1.68296,-0.120296,2.901,3.35598
-1.6597,-0.119301,2.877,3.32355
-1.65036,-0.119301,2.877,3.31889
nan,nan,nan,NaN
nan,nan,nan,NaN
nan,nan,nan,NaN
nan,nan,nan,NaN
nan,nan,nan,NaN
nan,nan,nan,NaN
nan,nan,nan,NaN
nan,nan,nan,NaN
nan,nan,nan,NaN
nan,nan,nan,NaN
nan,nan,nan,NaN
nan,nan,nan,NaN
nan,nan,nan,NaN
nan,nan,nan,NaN
nan,nan,nan,NaN
nan,nan,nan,NaN
nan,nan,nan,NaN
nan,nan,nan,NaN
nan,nan,nan,NaN
nan,nan,nan,NaN
nan,nan,nan,NaN
nan,nan,nan,NaN
-1.26543,-0.10516,2.536,2.83614
-1.2572,-0.10516,2.536,2.83247
-1.23961,-0.104373,2.517,2.80764
-1.22264,-0.103626,2.499,2.78399
-1.21453,-0.103626,2.499,2.78043
-1.20641,-0.103626,2.499,2.7769
-1.18967,-0.10288,2.481,2.75341
-1.18162,-0.10288,2.481,2.74994
-1.16505,-0.102133,2.463,2.72656
-1.15706,-0.102133,2.463,2.72316
-1.14067,-0.101387,2.445,2.69989
-1.12485,-0.100682,2.428,2.6778
-1.11697,-0.100682,2.428,2.6745
-1.10133,-0.099977,2.411,2.65252
-1.0935,-0.099977,2.411,2.64928
-1.08568,-0.099977,2.411,2.64606
-1.07025,-0.0992721,2.394,2.62422
-1.06248,-0.0992721,2.394,2.62106
-1.05471,-0.0992721,2.394,2.61792
-1.03951,-0.0985671,2.377,2.59623
-1.03179,-0.0985671,2.377,2.59315
-1.02408,-0.0985671,2.377,2.59009
-1.01636,-0.0985671,2.377,2.58705
-1.00865,-0.0985671,2.377,2.58403
-1.00093,-0.0985671,2.377,2.58103
-0.993215,-0.0985671,2.377,2.57805
-0.9855,-0.0985671,2.377,2.57508
-0.977785,-0.0985671,2.377,2.57214
-0.970069,-0.0985671,2.377,2.56922
-0.962354,-0.0985671,2.377,2.56631
-0.954639,-0.0985671,2.377,2.56343
-0.946924,-0.0985671,2.377,2.56057
-0.939209,-0.0985671,2.377,2.55773
-0.931494,-0.0985671,2.377,2.5549
-0.923778,-0.0985671,2.377,2.5521
-0.916063,-0.0985671,2.377,2.54932
-0.908348,-0.0985671,2.377,2.54655
-0.900633,-0.0985671,2.377,2.54381
-0.892918,-0.0985671,2.377,2.54109
-0.885203,-0.0985671,2.377,2.53839
-0.877488,-0.0985671,2.377,2.53571
-0.869772,-0.0985671,2.377,2.53305
-0.862057,-0.0985671,2.377,2.53041
-0.854342,-0.0985671,2.377,2.52779
-0.846627,-0.0985671,2.377,2.5252
-0.838912,-0.0985671,2.377,2.52262
-0.831197,-0.0985671,2.377,2.52007
-0.829371,-0.0992721,2.394,2.53554
-0.821601,-0.0992721,2.394,2.53301
-0.81383,-0.0992721,2.394,2.5305
-0.811784,-0.099977,2.411,2.54596
-0.803958,-0.099977,2.411,2.54348
-0.796133,-0.099977,2.411,2.54101
-0.788307,-0.099977,2.411,2.53857
-0.780482,-0.099977,2.411,2.53615
-0.772656,-0.099977,2.411,2.53376
-0.764831,-0.099977,2.411,2.53138
-0.757005,-0.099977,2.411,2.52903
-0.74918,-0.099977,2.411,2.52669
-0.741354,-0.099977,2.411,2.52439
-0.733529,-0.099977,2.411,2.5221
-0.725703,-0.099977,2.411,2.51983
-0.717878,-0.099977,2.411,2.51759
-0.710052,-0.099977,2.411,2.51537
-0.702227,-0.099977,2.411,2.51317
-0.699297,-0.100682,2.428,2.5287
-0.691417,-0.100682,2.428,2.52654
-0.683536,-0.100682,2.428,2.52439
-0.675655,-0.100682,2.428,2.52227
-0.667775,-0.100682,2.428,2.52017
-0.659894,-0.100682,2.428,2.51809
-0.652013,-0.100682,2.428,2.51604
-0.644133,-0.100682,2.428,2.51401
-0.636252,-0.100682,2.428,2.512
-0.628371,-0.100682,2.428,2.51001
-0.620491,-0.100682,2.428,2.50805
-0.616899,-0.101387,2.445,2.52366
-0.608963,-0.101387,2.445,2.52173
-0.601027,-0.101387,2.445,2.51983
-0.593092,-0.101387,2.445,2.51795
-0.589464,-0.102133,2.463,2.53461
-0.581469,-0.102133,2.463,2.53277
-0.573475,-0.102133,2.463,2.53094
-0.569613,-0.10288,2.481,2.54763
-0.561561,-0.10288,2.481,2.54584
-0.553508,-0.10288,2.481,2.54408
-0.545455,-0.10288,2.481,2.54234
-0.537403,-0.10288,2.481,2.54062
-0.52935,-0.10288,2.481,2.53893
-0.521297,-0.10288,2.481,2.53726
-0.513244,-0.10288,2.481,2.53562
-0.505192,-0.10288,2.481,2.534
-0.500746,-0.103626,2.499,2.55078
-0.492635,-0.103626,2.499,2.5492
-0.484524,-0.103626,2.499,2.54765
-0.476412,-0.103626,2.499,2.54612
-0.471674,-0.104373,2.517,2.56294
-0.463505,-0.104373,2.517,2.56145
-0.455335,-0.104373,2.517,2.55998
-0.447166,-0.104373,2.517,2.55854
-0.438996,-0.104373,2.517,2.55713
-0.430827,-0.104373,2.517,2.55574
-0.422657,-0.104373,2.517,2.55437
-0.414487,-0.104373,2.517,2.55303
-0.403412,-0.103626,2.499,2.53347
-0.395301,-0.103626,2.499,2.53219
-0.38719,-0.103626,2.499,2.53094
-0.379079,-0.103626,2.499,2.52971
-0.370968,-0.103626,2.499,2.52851
-0.362857,-0.103626,2.499,2.52733
-0.354745,-0.103626,2.499,2.52618
-0.346634,-0.103626,2.499,2.52505
-0.338523,-0.103626,2.499,2.52395
-0.330412,-0.103626,2.499,2.52288
-0.322301,-0.103626,2.499,2.52183
-0.311927,-0.10288,2.481,2.50265
-0.303874,-0.10288,2.481,2.50166
-0.295821,-0.10288,2.481,2.50069
-0.287769,-0.10288,2.481,2.49975
-0.279716,-0.10288,2.481,2.49884
-0.269692,-0.102133,2.463,2.47983
-0.261698,-0.102133,2.463,2.47897
-0.253704,-0.102133,2.463,2.47814
-0.245709,-0.102133,2.463,2.47733
-0.237715,-0.102133,2.463,2.47655
-0.229721,-0.102133,2.463,2.4758
-0.221726,-0.102133,2.463,2.47507
-0.213732,-0.102133,2.463,2.47436
-0.205738,-0.102133,2.463,2.47369
-0.197744,-0.102133,2.463,2.47304
-0.189749,-0.102133,2.463,2.47241
-0.181755,-0.102133,2.463,2.47181
-0.175031,-0.10288,2.481,2.48929
-0.166978,-0.10288,2.481,2.48874
-0.158925,-0.10288,2.481,2.48821
-0.151967,-0.103626,2.499,2.50576
-0.143856,-0.103626,2.499,2.50528
-0.135745,-0.103626,2.499,2.50483
-0.127634,-0.103626,2.499,2.5044
-0.120383,-0.104373,2.517,2.52204
-0.111411,-0.103626,2.499,2.50363
-0.1033,-0.103626,2.499,2.50328
-0.0951891,-0.103626,2.499,2.50296
-0.087078,-0.103626,2.499,2.50266
-0.0795356,-0.104373,2.517,2.52042
-0.0708557,-0.103626,2.499,2.50215
-0.0627446,-0.103626,2.499,2.50193
-0.0546334,-0.103626,2.499,2.50174
-0.0465223,-0.103626,2.499,2.50158
-0.0384112,-0.103626,2.499,2.50144
-0.0300818,-0.10288,2.481,2.48331
-0.0220291,-0.10288,2.481,2.48323
-0.0139764,-0.10288,2.481,2.48317
-0.00592366,-0.10288,2.481,2.48314
0.00212905,-0.10288,2.481,2.48313
0.0101818,-0.10288,2.481,2.48315
0.0181022,-0.102133,2.463,2.46518
0.0260965,-0.102133,2.463,2.46525
0.0340907,-0.102133,2.463,2.46535
0.042085,-0.102133,2.463,2.46548
0.0497133,-0.101387,2.445,2.44761
0.0576492,-0.101387,2.445,2.44778
0.0655851,-0.101387,2.445,2.44798
0.0735209,-0.101387,2.445,2.44821
0.0814568,-0.101387,2.445,2.44846
0.0893926,-0.101387,2.445,2.44873
0.0966518,-0.100682,2.428,2.43201
0.104532,-0.100682,2.428,2.43233
0.1132,-0.101387,2.445,2.44972
0.121136,-0.101387,2.445,2.4501
0.129072,-0.101387,2.445,2.4505
0.137008,-0.101387,2.445,2.45093
0.144944,-0.101387,2.445,2.45139
0.15288,-0.101387,2.445,2.45187
0.161999,-0.102133,2.463,2.47043
0.169994,-0.102133,2.463,2.47097
0.177988,-0.102133,2.463,2.47153
0.185982,-0.102133,2.463,2.47212
0.195394,-0.10288,2.481,2.49081
0.203447,-0.10288,2.481,2.49145
0.2115,-0.10288,2.481,2.49212
0.219552,-0.10288,2.481,2.49282
0.229256,-0.103626,2.499,2.51163
0.237367,-0.103626,2.499,2.51239
0.245479,-0.103626,2.499,2.51317
0.25359,-0.103626,2.499,2.51397
0.261701,-0.103626,2.499,2.5148
0.269812,-0.103626,2.499,2.51566
0.277923,-0.103626,2.499,2.51654
0.286034,-0.103626,2.499,2.51745
0.296264,-0.104373,2.517,2.53652
0.304434,-0.104373,2.517,2.53749
0.312603,-0.104373,2.517,2.53848
0.320773,-0.104373,2.517,2.5395
0.328942,-0.104373,2.517,2.54055
0.337112,-0.104373,2.517,2.54162
0.345281,-0.104373,2.517,2.54272
0.353451,-0.104373,2.517,2.54384
0.36162,-0.104373,2.517,2.54499
0.36979,-0.104373,2.517,2.54616
0.37796,-0.104373,2.517,2.54736
0.386129,-0.104373,2.517,2.54858
0.394299,-0.104373,2.517,2.54983
0.402468,-0.104373,2.517,2.55111
0.410638,-0.104373,2.517,2.55241
0.418807,-0.104373,2.517,2.55374
0.426977,-0.104373,2.517,2.55509
0.435146,-0.104373,2.517,2.55647
0.443316,-0.104373,2.517,2.55787
0.448257,-0.103626,2.499,2.541
0.456368,-0.103626,2.499,2.54244
0.464479,-0.103626,2.499,2.54391
0.47259,-0.103626,2.499,2.5454
0.480701,-0.103626,2.499,2.54692
0.488812,-0.103626,2.499,2.54847
0.496924,-0.103626,2.499,2.55003
0.505035,-0.103626,2.499,2.55163
0.50945,-0.10288,2.481,2.53485
0.517502,-0.10288,2.481,2.53648
0.525555,-0.10288,2.481,2.53814
0.533608,-0.10288,2.481,2.53982
0.541661,-0.10288,2.481,2.54152
0.549713,-0.10288,2.481,2.54325
0.557766,-0.10288,2.481,2.545
0.565819,-0.10288,2.481,2.54678
0.573871,-0.10288,2.481,2.54858
0.581924,-0.10288,2.481,2.55041
0.589977,-0.10288,2.481,2.55226
0.59803,-0.10288,2.481,2.55413
0.606082,-0.10288,2.481,2.55603
0.614135,-0.10288,2.481,2.55795
0.622188,-0.10288,2.481,2.5599
0.63024,-0.10288,2.481,2.56186
0.638293,-0.10288,2.481,2.56386
0.646346,-0.10288,2.481,2.56587
0.654399,-0.10288,2.481,2.56791
0.662451,-0.10288,2.481,2.56998
0.670504,-0.10288,2.481,2.57207
0.678557,-0.10288,2.481,2.57418
0.686609,-0.10288,2.481,2.57631
0.694662,-0.10288,2.481,2.57847
0.702715,-0.10288,2.481,2.58065
0.715924,-0.103626,2.499,2.60159
0.71882,-0.10288,2.481,2.58508
0.726873,-0.10288,2.481,2.58733
0.734926,-0.10288,2.481,2.58961
0.742978,-0.10288,2.481,2.5919
0.751031,-0.10288,2.481,2.59422
0.759084,-0.10288,2.481,2.59657
0.767137,-0.10288,2.481,2.59893
0.775189,-0.10288,2.481,2.60132
0.783242,-0.10288,2.481,2.60373
0.797036,-0.103626,2.499,2.62507
0.805147,-0.103626,2.499,2.62755
0.8074,-0.10288,2.481,2.6111
0.815453,-0.10288,2.481,2.6136
0.823505,-0.10288,2.481,2.61612
0.831558,-0.10288,2.481,2.61867
0.839611,-0.10288,2.481,2.62124
0.847664,-0.10288,2.481,2.62383
0.855716,-0.10288,2.481,2.62644
0.863769,-0.10288,2.481,2.62908
0.871822,-0.10288,2.481,2.63173
0.879874,-0.10288,2.481,2.63441
0.887927,-0.10288,2.481,2.63711
0.889479,-0.102133,2.463,2.62068
0.897474,-0.102133,2.463,2.62341
0.905468,-0.102133,2.463,2.62615
0.913462,-0.102133,2.463,2.62892
0.914722,-0.101387,2.445,2.61247
0.922658,-0.101387,2.445,2.61526
0.930594,-0.101387,2.445,2.61807
0.932004,-0.100682,2.428,2.60268
0.939885,-0.100682,2.428,2.60551
0.947766,-0.100682,2.428,2.60837
0.955646,-0.100682,2.428,2.61124
0.963527,-0.100682,2.428,2.61414
0.964606,-0.099977,2.411,2.59873
0.972432,-0.099977,2.411,2.60164
0.987169,-0.100682,2.428,2.62294
0.99505,-0.100682,2.428,2.62592
1.00293,-0.100682,2.428,2.62891
1.01081,-0.100682,2.428,2.63193
1.01869,-0.100682,2.428,2.63497
1.02657,-0.100682,2.428,2.63802
1.04937,-0.102133,2.463,2.67917
1.0887,-0.10516,2.536,2.76181
1.09693,-0.10516,2.536,2.76507
1.12172,-0.106736,2.574,2.80983
1.13842,-0.107524,2.593,2.83394
1.14683,-0.107524,2.593,2.83733
1.17307,-0.109183,2.633,2.88456
1.19104,-0.110053,2.654,2.91108
1.20915,-0.110924,2.675,2.93768
1.21783,-0.110924,2.675,2.94126
1.23614,-0.111795,2.696,2.96799
1.26475,-0.113578,2.739,3.01904
1.26341,-0.112666,2.717,2.9985
1.26239,-0.111795,2.696,2.97902
1.27114,-0.111795,2.696,2.98274
1.27989,-0.111795,2.696,2.98648
1.29868,-0.112666,2.717,3.01353
1.31809,-0.113578,2.739,3.04177
1.34829,-0.115403,2.783,3.09456
1.35733,-0.115403,2.783,3.09851
1.37765,-0.116356,2.806,3.12811
1.39813,-0.11731,2.829,3.15781
1.40731,-0.11731,2.829,3.16189
1.42851,-0.118305,2.853,3.19284
1.46196,-0.120296,2.901,3.25078
1.47137,-0.120296,2.901,3.25503
1.50631,-0.122369,2.951,3.31547
1.5426,-0.124525,3.003,3.37833
1.58026,-0.126765,3.057,3.44362
1.59019,-0.126765,3.057,3.44819
1.61424,-0.127884,3.084,3.48327
1.639,-0.129045,3.112,3.51959
1.6491,-0.129045,3.112,3.5243
1.67466,-0.130248,3.141,3.56193
1.71597,-0.132653,3.199,3.63259
1.72635,-0.132653,3.199,3.63751
1.75356,-0.133939,3.23,3.67775
1.76405,-0.133939,3.23,3.68276
1.79101,-0.135182,3.26,3.72204
1.78501,-0.133939,3.23,3.69285
1.7955,-0.133939,3.23,3.69793
1.80598,-0.133939,3.23,3.70303
1.81647,-0.133939,3.23,3.70815
1.82695,-0.133939,3.23,3.7133
1.83743,-0.133939,3.23,3.71847
1.84792,-0.133939,3.23,3.72366
1.8584,-0.133939,3.23,3.72887
1.86888,-0.133939,3.23,3.73411
1.87937,-0.133939,3.23,3.73937
1.87171,-0.132653,3.199,3.70871
1.8821,-0.132653,3.199,3.71396
1.91082,-0.133939,3.23,3.75527
1.9213,-0.133939,3.23,3.76062
1.93179,-0.133939,3.23,3.76598
1.94227,-0.133939,3.23,3.77137
1.93401,-0.132653,3.199,3.74054
1.90914,-0.130248,3.141,3.678
1.91934,-0.130248,3.141,3.6833
1.89452,-0.127884,3.084,3.62169
1.87118,-0.125645,3.03,3.56343
1.88101,-0.125645,3.03,3.5686
1.874,-0.124525,3.003,3.54195
1.86744,-0.123447,2.977,3.5164
1.8771,-0.123447,2.977,3.52154
1.85444,-0.121333,2.926,3.46629
1.84801,-0.120296,2.901,3.44172
1.82669,-0.118305,2.853,3.38975
1.83595,-0.118305,2.853,3.39475
1.81482,-0.116356,2.806,3.34376
1.79467,-0.11449,2.761,3.29501
1.80364,-0.11449,2.761,3.2999
1.79815,-0.113578,2.739,3.27847
1.79253,-0.112666,2.717,3.25698
1.80135,-0.112666,2.717,3.26185
1.78218,-0.110924,2.675,3.21623
1.76275,-0.109183,2.633,3.17047
1.77129,-0.109183,2.633,3.17523
1.7528,-0.107524,2.593,3.1317
1.74831,-0.106736,2.574,3.11343
-1.94661,-0.107251,2.806,3.41679
-1.90643,-0.105531,2.761,3.3569
-1.89747,-0.105531,2.761,3.35181
-1.87346,-0.104691,2.739,3.32008
-1.8496,-0.10385,2.717,3.28845
-1.84078,-0.10385,2.717,3.28349
-1.83196,-0.10385,2.717,3.27856
-1.82314,-0.10385,2.717,3.27364
-1.81432,-0.10385,2.717,3.26874
-1.8055,-0.10385,2.717,3.26385
-1.81123,-0.104691,2.739,3.28537
-1.80234,-0.104691,2.739,3.28048
-1.79345,-0.104691,2.739,3.2756
-1.78456,-0.104691,2.739,3.27074
-1.78993,-0.105531,2.761,3.29213
-1.79516,-0.106372,2.783,3.31346
-1.78613,-0.106372,2.783,3.30858
nan,nan,nan,NaN
nan,nan,nan,NaN
nan,nan,nan,NaN
-1.8242,-0.110883,2.901,3.42867
-1.81478,-0.110883,2.901,3.42367
-1.80537,-0.110883,2.901,3.41869
-1.79595,-0.110883,2.901,3.41373
-1.78654,-0.110883,2.901,3.40878
-1.79244,-0.111838,2.926,3.43319
-1.78294,-0.111838,2.926,3.42824
-1.77344,-0.111838,2.926,3.42331
-1.76394,-0.111838,2.926,3.4184
-1.73946,-0.110883,2.901,3.38435
-1.73004,-0.110883,2.901,3.37952
-1.72062,-0.110883,2.901,3.37471
-1.71121,-0.110883,2.901,3.36992
-1.68771,-0.109965,2.877,3.3373
-1.67838,-0.109965,2.877,3.33259
-1.66904,-0.109965,2.877,3.3279
