-0.906413,0.684639,2.313,2.57688
-0.898906,0.684639,2.313,2.57424
-0.891399,0.684639,2.313,2.57163
-0.890005,0.689375,2.329,2.58681
-0.876384,0.684639,2.313,2.56647
-0.863242,0.680199,2.298,2.54729
-0.855783,0.680199,2.298,2.54477
-0.848324,0.680199,2.298,2.54227
-0.835011,0.675463,2.282,2.52211
-0.827604,0.675463,2.282,2.51966
-0.820197,0.675463,2.282,2.51724
-0.81279,0.675463,2.282,2.51484
-0.81103,0.680199,2.298,2.53007
-0.803572,0.680199,2.298,2.52769
-0.801309,0.684639,2.313,2.54181
-0.793802,0.684639,2.313,2.53945
-0.786295,0.684639,2.313,2.53712
-0.778787,0.684639,2.313,2.5348
-0.77128,0.684639,2.313,2.5325
-0.763772,0.684639,2.313,2.53023
-0.756265,0.684639,2.313,2.52797
-0.753937,0.689375,2.329,2.54321
-0.746378,0.689375,2.329,2.54098
-0.733743,0.684639,2.313,2.52132
-0.726235,0.684639,2.313,2.51915
-0.718728,0.684639,2.313,2.517
-0.71122,0.684639,2.313,2.51486
-0.699149,0.680199,2.298,2.49645
-0.691691,0.680199,2.298,2.49438
-0.684232,0.680199,2.298,2.49232
-0.676773,0.680199,2.298,2.49028
-0.673683,0.684639,2.313,2.50451
-0.666176,0.684639,2.313,2.5025
-0.658668,0.684639,2.313,2.50051
-0.651161,0.684639,2.313,2.49854
-0.643654,0.684639,2.313,2.4966
-0.636146,0.684639,2.313,2.49467
-0.632987,0.689375,2.329,2.51001
-0.625428,0.689375,2.329,2.50811
-0.622113,0.694111,2.345,2.52346
-0.614502,0.694111,2.345,2.52159
-0.606891,0.694111,2.345,2.51975
-0.603368,0.698846,2.361,2.53511
-0.595705,0.698846,2.361,2.53329
-0.588042,0.698846,2.361,2.5315
-0.580379,0.698846,2.361,2.52973
-0.572715,0.698846,2.361,2.52799
-0.565052,0.698846,2.361,2.52626
-0.557389,0.698846,2.361,2.52456
-0.553451,0.703582,2.377,2.53997
-0.542063,0.698846,2.361,2.52122
-0.534399,0.698846,2.361,2.51958
-0.526736,0.698846,2.361,2.51797
-0.515555,0.694111,2.345,2.49932
-0.507944,0.694111,2.345,2.49776
-0.500333,0.694111,2.345,2.49623
-0.492721,0.694111,2.345,2.49471
-0.4818,0.689375,2.329,2.47621
-0.474241,0.689375,2.329,2.47475
-0.466681,0.689375,2.329,2.47331
-0.453011,0.680199,2.298,2.43899
-0.44245,0.675463,2.282,2.42065
-0.435043,0.675463,2.282,2.41931
-0.427636,0.675463,2.282,2.41798
-0.417467,0.671023,2.267,2.4008
-0.410109,0.671023,2.267,2.39953
-0.402751,0.671023,2.267,2.39828
-0.395393,0.671023,2.267,2.39706
-0.388035,0.671023,2.267,2.39586
-0.380677,0.671023,2.267,2.39468
-0.373319,0.671023,2.267,2.39352
-0.365961,0.671023,2.267,2.39238
-0.358602,0.671023,2.267,2.39127
-0.351244,0.671023,2.267,2.39017
-0.343886,0.671023,2.267,2.3891
-0.336528,0.671023,2.267,2.38806
-0.32917,0.671023,2.267,2.38703
-0.321812,0.671023,2.267,2.38603
-0.314454,0.671023,2.267,2.38505
-0.305064,0.666583,2.252,2.36831
-0.297754,0.666583,2.252,2.36738
-0.290445,0.666583,2.252,2.36647
-0.281249,0.662143,2.237,2.34983
-0.272274,0.657999,2.223,2.33427
-0.265059,0.657999,2.223,2.33344
-0.25622,0.653855,2.209,2.31794
-0.247359,0.649415,2.194,2.30143
-0.238704,0.645271,2.18,2.28599
-0.231629,0.645271,2.18,2.28526
-0.224553,0.645271,2.18,2.28456
-0.21618,0.641423,2.167,2.27025
-0.209147,0.641423,2.167,2.26959
-0.202113,0.641423,2.167,2.26896
-0.19508,0.641423,2.167,2.26834
-0.188046,0.641423,2.167,2.26775
-0.179843,0.637279,2.153,2.25253
-0.172855,0.637279,2.153,2.25198
-0.165867,0.637279,2.153,2.25145
-0.157919,0.633431,2.14,2.23736
-0.150974,0.633431,2.14,2.23688
-0.144028,0.633431,2.14,2.23642
-0.137082,0.633431,2.14,2.23598
-0.130136,0.633431,2.14,2.23557
-0.124744,0.641423,2.167,2.26338
-0.117711,0.641423,2.167,2.263
-0.110677,0.641423,2.167,2.26265
-0.103644,0.641423,2.167,2.26231
-0.09661,0.641423,2.167,2.262
-0.0895765,0.641423,2.167,2.26171
-0.0825429,0.641423,2.167,2.26144
-0.0755094,0.641423,2.167,2.2612
-0.0684758,0.641423,2.167,2.26097
-0.0614423,0.641423,2.167,2.26077
-0.0544088,0.641423,2.167,2.26059
-0.0473752,0.641423,2.167,2.26043
-0.0403417,0.641423,2.167,2.2603
-0.0333081,0.641423,2.167,2.26018
-0.0264322,0.645271,2.18,2.27365
-0.019241,0.641423,2.167,2.26002
-0.0122075,0.641423,2.167,2.25997
-0.00520499,0.645271,2.18,2.2735
0.00187075,0.645271,2.18,2.27349
0.00894649,0.645271,2.18,2.27351
0.0160222,0.645271,2.18,2.27355
0.023098,0.645271,2.18,2.27361
0.0301737,0.645271,2.18,2.27369
0.0372494,0.645271,2.18,2.2738
0.0443252,0.645271,2.18,2.27393
0.0514009,0.645271,2.18,2.27408
0.0581279,0.641423,2.167,2.26068
0.0651615,0.641423,2.167,2.26088
0.072195,0.641423,2.167,2.26109
0.0792286,0.641423,2.167,2.26132
0.0862621,0.641423,2.167,2.26158
0.0926929,0.637279,2.153,2.24725
0.0990791,0.633431,2.14,2.23398
0.105331,0.629287,2.126,2.21968
0.112232,0.629287,2.126,2.22002
0.119132,0.629287,2.126,2.22038
0.126863,0.633431,2.14,2.23538
0.13631,0.645271,2.18,2.27758
0.14253,0.641423,2.167,2.26443
0.149564,0.641423,2.167,2.26488
0.156598,0.641423,2.167,2.26536
0.163631,0.641423,2.167,2.26585
0.168538,0.633431,2.14,2.23813
0.175484,0.633431,2.14,2.23867
0.18243,0.633431,2.14,2.23922
0.189376,0.633431,2.14,2.2398
0.196322,0.633431,2.14,2.2404
0.203268,0.633431,2.14,2.24102
0.210214,0.633431,2.14,2.24166
0.215739,0.629287,2.126,2.22765
0.222639,0.629287,2.126,2.22833
0.22954,0.629287,2.126,2.22903
0.23644,0.629287,2.126,2.22975
0.243341,0.629287,2.126,2.23049
0.250241,0.629287,2.126,2.23126
0.257142,0.629287,2.126,2.23204
0.264042,0.629287,2.126,2.23285
0.270943,0.629287,2.126,2.23367
0.277843,0.629287,2.126,2.23452
0.284744,0.629287,2.126,2.23539
0.291644,0.629287,2.126,2.23628
0.296719,0.62544,2.113,2.22351
0.303577,0.62544,2.113,2.22443
0.310436,0.62544,2.113,2.22538
0.317294,0.62544,2.113,2.22635
0.324152,0.62544,2.113,2.22733
0.333047,0.629287,2.126,2.24205
0.339947,0.629287,2.126,2.24309
0.346848,0.629287,2.126,2.24414
0.353748,0.629287,2.126,2.24522
0.360649,0.629287,2.126,2.24632
0.367549,0.629287,2.126,2.24744
0.376915,0.633431,2.14,2.26338
0.383861,0.633431,2.14,2.26455
0.390807,0.633431,2.14,2.26574
0.397753,0.633431,2.14,2.26695
0.407158,0.637279,2.153,2.28195
0.414146,0.637279,2.153,2.28321
0.421134,0.637279,2.153,2.28449
0.430906,0.641423,2.167,2.30065
0.437939,0.641423,2.167,2.30198
0.444973,0.641423,2.167,2.30333
0.452006,0.641423,2.167,2.3047
0.45904,0.641423,2.167,2.30609
0.466074,0.641423,2.167,2.3075
0.473107,0.641423,2.167,2.30893
0.480141,0.641423,2.167,2.31038
0.487174,0.641423,2.167,2.31185
0.491015,0.637279,2.153,2.2984
0.498003,0.637279,2.153,2.2999
0.504991,0.637279,2.153,2.30142
0.505559,0.629287,2.126,2.27409
0.512459,0.629287,2.126,2.27563
0.516184,0.62544,2.113,2.26327
0.519824,0.621592,2.1,2.25091
0.52664,0.621592,2.1,2.25249
0.527106,0.614192,2.075,2.22726
0.530496,0.610344,2.062,2.2149
0.534063,0.606792,2.05,2.20362
0.540716,0.606792,2.05,2.20524
0.544166,0.60324,2.038,2.19396
0.544295,0.596136,2.014,2.16975
0.550832,0.596136,2.014,2.1714
0.557369,0.596136,2.014,2.17307
0.563905,0.596136,2.014,2.17476
0.570442,0.596136,2.014,2.17646
0.576979,0.596136,2.014,2.17818
0.583516,0.596136,2.014,2.17992
0.590053,0.596136,2.014,2.18168
0.59659,0.596136,2.014,2.18346
0.599534,0.592584,2.002,2.17223
0.606032,0.592584,2.002,2.17404
0.608858,0.589032,1.99,2.16281
0.615317,0.589032,1.99,2.16464
0.621776,0.589032,1.99,2.16649
0.632024,0.592584,2.002,2.18142
0.634694,0.589032,1.99,2.17023
0.641153,0.589032,1.99,2.17213
0.647612,0.589032,1.99,2.17404
0.650456,0.585776,1.979,2.16395
0.656879,0.585776,1.979,2.16589
0.663303,0.585776,1.979,2.16784
0.665665,0.582224,1.967,2.15666
0.672049,0.582224,1.967,2.15864
0.678434,0.582224,1.967,2.16064
0.684818,0.582224,1.967,2.16265
0.691202,0.582224,1.967,2.16468
0.693686,0.578968,1.956,2.15461
0.700034,0.578968,1.956,2.15666
0.706383,0.578968,1.956,2.15873
0.71674,0.582224,1.967,2.17297
0.723124,0.582224,1.967,2.17508
0.729509,0.582224,1.967,2.17721
0.735893,0.582224,1.967,2.17936
0.742278,0.582224,1.967,2.18152
0.748662,0.582224,1.967,2.18371
0.755046,0.582224,1.967,2.1859
0.766076,0.585776,1.979,2.20146
0.772499,0.585776,1.979,2.20371
0.778923,0.585776,1.979,2.20597
0.789711,0.589032,1.99,2.22052
0.79617,0.589032,1.99,2.22282
0.802629,0.589032,1.99,2.22515
0.809088,0.589032,1.99,2.22748
0.820465,0.592584,2.002,2.24328
0.826963,0.592584,2.002,2.24567
0.833461,0.592584,2.002,2.24807
0.844994,0.596136,2.014,2.26398
0.851531,0.596136,2.014,2.26642
0.858068,0.596136,2.014,2.26889
0.869756,0.599688,2.026,2.2849
0.876332,0.599688,2.026,2.28741
0.882908,0.599688,2.026,2.28994
0.894753,0.60324,2.038,2.30606
0.901367,0.60324,2.038,2.30864
0.907982,0.60324,2.038,2.31123
0.914597,0.60324,2.038,2.31383
0.921212,0.60324,2.038,2.31646
0.927827,0.60324,2.038,2.3191
0.934442,0.60324,2.038,2.32175
0.946598,0.606792,2.05,2.33811
0.947671,0.60324,2.038,2.32711
0.954286,0.60324,2.038,2.32981
0.966559,0.606792,2.05,2.34626
0.973213,0.606792,2.05,2.34901
0.979867,0.606792,2.05,2.35177
0.98652,0.606792,2.05,2.35455
0.993174,0.606792,2.05,2.35735
0.999828,0.606792,2.05,2.36016
1.00648,0.606792,2.05,2.36299
1.01314,0.606792,2.05,2.36583
1.01979,0.606792,2.05,2.36868
1.02644,0.606792,2.05,2.37156
1.03914,0.610344,2.062,2.38834
1.04584,0.610344,2.062,2.39126
1.05253,0.610344,2.062,2.3942
1.05922,0.610344,2.062,2.39715
1.06592,0.610344,2.062,2.40011
1.07261,0.610344,2.062,2.40309
1.08611,0.614192,2.075,2.42126
1.09284,0.614192,2.075,2.42428
1.09957,0.614192,2.075,2.42733
1.10631,0.614192,2.075,2.43039
1.11304,0.614192,2.075,2.43346
1.11978,0.614192,2.075,2.43655
1.13303,0.617744,2.087,2.45376
1.1398,0.617744,2.087,2.45689
1.14658,0.617744,2.087,2.46004
1.15335,0.617744,2.087,2.46321
1.16735,0.621592,2.1,2.48175
1.17417,0.621592,2.1,2.48496
1.18098,0.621592,2.1,2.48819
1.1878,0.621592,2.1,2.49143
1.19462,0.621592,2.1,2.49469
1.20143,0.621592,2.1,2.49796
1.20825,0.621592,2.1,2.50125
1.21506,0.621592,2.1,2.50455
1.21432,0.617744,2.087,2.49234
1.22109,0.617744,2.087,2.49564
1.22786,0.617744,2.087,2.49897
1.22754,0.614192,2.075,2.48791
1.22654,0.610344,2.062,2.47563
1.23323,0.610344,2.062,2.47896
1.24774,0.614192,2.075,2.49794
1.24662,0.610344,2.062,2.48564
1.25331,0.610344,2.062,2.48901
1.26,0.610344,2.062,2.49238
1.2667,0.610344,2.062,2.49577
1.27339,0.610344,2.062,2.49918
1.28008,0.610344,2.062,2.50259
1.28678,0.610344,2.062,2.50602
1.29347,0.610344,2.062,2.50947
1.30016,0.610344,2.062,2.51292
1.30685,0.610344,2.062,2.51639
1.31355,0.610344,2.062,2.51987
1.32856,0.614192,2.075,2.53928
1.3353,0.614192,2.075,2.54281
1.34203,0.614192,2.075,2.54635
1.35657,0.617744,2.087,2.56465
1.36334,0.617744,2.087,2.56824
1.37012,0.617744,2.087,2.57185
1.38547,0.621592,2.1,2.5915
1.4009,0.62544,2.113,2.61122
1.40776,0.62544,2.113,2.61491
1.41462,0.62544,2.113,2.6186
1.42148,0.62544,2.113,2.62232
1.42833,0.62544,2.113,2.62604
1.43519,0.62544,2.113,2.62978
-1.6608,0.716383,2.394,3.00045
-1.65303,0.716383,2.394,2.99615
-1.65694,0.72147,2.411,3.01312
-1.64911,0.72147,2.411,3.00882
-1.64129,0.72147,2.411,3.00454
-1.63346,0.72147,2.411,3.00027
-1.6371,0.726557,2.428,3.01714
-1.62922,0.726557,2.428,3.01288
-1.62134,0.726557,2.428,3.00862
-1.61346,0.726557,2.428,3.00438
-1.60558,0.726557,2.428,3.00016
-1.5977,0.726557,2.428,2.99595
-1.58981,0.726557,2.428,2.99175
-1.58193,0.726557,2.428,2.98757
-1.56303,0.72147,2.411,2.96252
-1.55521,0.72147,2.411,2.9584
-1.54738,0.72147,2.411,2.95429
-1.53956,0.72147,2.411,2.9502
-1.52093,0.716383,2.394,2.92535
-1.50241,0.711295,2.377,2.90057
-1.4947,0.711295,2.377,2.89658
-1.47698,0.706508,2.361,2.87314
-1.45935,0.70172,2.345,2.84976
-1.45174,0.70172,2.345,2.84587
-1.44413,0.70172,2.345,2.842
-1.43652,0.70172,2.345,2.83814
-1.42891,0.70172,2.345,2.83429
-1.4116,0.696932,2.329,2.81115
-1.3944,0.692144,2.313,2.78808
-1.3683,0.682868,2.282,2.74701
-1.36089,0.682868,2.282,2.74333
-1.35349,0.682868,2.282,2.73966
-1.33723,0.678379,2.267,2.71803
-1.32987,0.678379,2.267,2.71442
-1.32252,0.678379,2.267,2.71082
-1.31516,0.678379,2.267,2.70724
-1.3078,0.678379,2.267,2.70367
-1.29184,0.67389,2.252,2.68225
-1.28453,0.67389,2.252,2.67874
-1.27722,0.67389,2.252,2.67524
-1.26991,0.67389,2.252,2.67176
-1.2626,0.67389,2.252,2.66829
-1.25529,0.67389,2.252,2.66484
-1.25629,0.678379,2.267,2.67913
-1.24893,0.678379,2.267,2.67569
-1.24158,0.678379,2.267,2.67227
-1.24239,0.682868,2.282,2.68651
-1.23498,0.682868,2.282,2.6831
-1.23618,0.687655,2.298,2.69848
-1.22872,0.687655,2.298,2.69507
-1.22126,0.687655,2.298,2.69168
-1.22173,0.692144,2.313,2.70585
-1.22262,0.696932,2.329,2.72117
-1.21506,0.696932,2.329,2.71778
-1.2075,0.696932,2.329,2.71441
-1.20818,0.70172,2.345,2.72968
-1.20057,0.70172,2.345,2.72632
-1.19296,0.70172,2.345,2.72297
-1.18535,0.70172,2.345,2.71965
-1.17774,0.70172,2.345,2.71634
-1.17013,0.70172,2.345,2.71305
-1.16251,0.70172,2.345,2.70977
-1.1549,0.70172,2.345,2.70652
-1.14729,0.70172,2.345,2.70328
-1.1319,0.696932,2.329,2.68163
-1.12435,0.696932,2.329,2.67845
-1.11679,0.696932,2.329,2.67529
-1.10161,0.692144,2.313,2.65378
-1.0941,0.692144,2.313,2.65068
-1.08659,0.692144,2.313,2.64759
-1.07908,0.692144,2.313,2.64451
-1.06463,0.687655,2.298,2.62433
-1.05717,0.687655,2.298,2.62131
-1.04971,0.687655,2.298,2.61831
-1.04225,0.687655,2.298,2.61533
-1.02083,0.678379,2.267,2.57713
-1.01348,0.678379,2.267,2.57422
-1.00612,0.678379,2.267,2.57133
-0.998759,0.678379,2.267,2.56846
-0.991401,0.678379,2.267,2.56561
-0.977531,0.67389,2.252,2.54582
-0.970222,0.67389,2.252,2.54302
-0.962913,0.67389,2.252,2.54024
-0.955603,0.67389,2.252,2.53748
-0.948294,0.67389,2.252,2.53474
-0.940984,0.67389,2.252,2.53201
-0.939894,0.678379,2.267,2.54615
-0.932536,0.678379,2.267,2.54344
-0.925178,0.678379,2.267,2.54076
-0.917819,0.678379,2.267,2.53809
-0.910461,0.678379,2.267,2.53543
-0.909079,0.682868,2.282,2.54956
-0.901672,0.682868,2.282,2.54693
-0.894265,0.682868,2.282,2.54432
-0.886858,0.682868,2.282,2.54172
-0.879452,0.682868,2.282,2.53915
-0.872045,0.682868,2.282,2.53659
-0.864638,0.682868,2.282,2.53405
-0.851596,0.678379,2.267,2.5149
-0.844238,0.678379,2.267,2.51241
-0.831343,0.67389,2.252,2.49334
-0.824033,0.67389,2.252,2.49092
-0.816724,0.67389,2.252,2.48851
-0.809415,0.67389,2.252,2.48612
-0.802105,0.67389,2.252,2.48375
-0.80009,0.678379,2.267,2.49793
-0.792731,0.678379,2.267,2.49558
-0.79057,0.682868,2.282,2.50975
-0.778015,0.678379,2.267,2.49094
-0.770657,0.678379,2.267,2.48865
-0.763299,0.678379,2.267,2.48639
-0.760943,0.682868,2.282,2.50057
-0.753536,0.682868,2.282,2.49833
-0.746129,0.682868,2.282,2.49611
-0.738722,0.682868,2.282,2.4939
-0.731315,0.682868,2.282,2.49172
-0.723909,0.682868,2.282,2.48955
-0.716502,0.682868,2.282,2.48741
-0.709095,0.682868,2.282,2.48529
-0.697076,0.678379,2.267,2.46686
-0.689718,0.678379,2.267,2.46479
-0.68236,0.678379,2.267,2.46274
-0.675002,0.678379,2.267,2.46071
-0.667643,0.678379,2.267,2.45871
-0.664654,0.682868,2.282,2.47297
-0.657247,0.682868,2.282,2.47099
-0.649841,0.682868,2.282,2.46903
-0.642434,0.682868,2.282,2.46709
-0.639479,0.687655,2.298,2.48246
-0.632021,0.687655,2.298,2.48055
-0.628639,0.692144,2.313,2.49484
-0.621131,0.692144,2.313,2.49296
-0.617869,0.696932,2.329,2.50833
-0.610309,0.696932,2.329,2.50648
-0.60275,0.696932,2.329,2.50465
-0.59519,0.696932,2.329,2.50284
-0.587631,0.696932,2.329,2.50105
-0.584057,0.70172,2.345,2.51646
-0.576446,0.70172,2.345,2.5147
-0.568834,0.70172,2.345,2.51297
-0.561223,0.70172,2.345,2.51126
-0.549834,0.696932,2.329,2.49244
-0.542275,0.696932,2.329,2.49079
-0.534716,0.696932,2.329,2.48915
-0.527156,0.696932,2.329,2.48754
-0.519597,0.696932,2.329,2.48595
-0.50852,0.692144,2.313,2.46731
-0.497763,0.687655,2.298,2.44978
-0.490305,0.687655,2.298,2.44828
-0.482846,0.687655,2.298,2.4468
-0.475387,0.687655,2.298,2.44534
-0.467928,0.687655,2.298,2.4439
-0.454258,0.678379,2.267,2.40953
-0.443943,0.67389,2.252,2.39222
-0.436633,0.67389,2.252,2.39087
-0.429324,0.67389,2.252,2.38955
-0.419204,0.669402,2.237,2.37234
-0.411943,0.669402,2.237,2.37107
-0.404682,0.669402,2.237,2.36982
-0.397421,0.669402,2.237,2.36859
-0.390161,0.669402,2.237,2.36738
-0.3829,0.669402,2.237,2.3662
-0.375639,0.669402,2.237,2.36503
-0.368378,0.669402,2.237,2.36389
-0.361118,0.669402,2.237,2.36277
-0.353857,0.669402,2.237,2.36167
-0.346596,0.669402,2.237,2.36059
-0.339335,0.669402,2.237,2.35954
-0.332075,0.669402,2.237,2.3585
-0.324814,0.669402,2.237,2.35749
-0.317553,0.669402,2.237,2.3565
-0.310292,0.669402,2.237,2.35554
-0.301135,0.665212,2.223,2.33985
-0.29392,0.665212,2.223,2.33894
-0.286705,0.665212,2.223,2.33804
-0.277729,0.661023,2.209,2.32245
-0.267007,0.652345,2.18,2.29112
-0.259932,0.652345,2.18,2.29031
-0.251348,0.648455,2.167,2.27586
-0.244314,0.648455,2.167,2.2751
-0.234324,0.640375,2.14,2.24602
-0.227379,0.640375,2.14,2.2453
-0.220433,0.640375,2.14,2.24461
-0.21618,0.648455,2.167,2.27225
-0.209147,0.648455,2.167,2.27159
-0.202113,0.648455,2.167,2.27095
-0.19508,0.648455,2.167,2.27034
-0.188046,0.648455,2.167,2.26975
-0.179843,0.644265,2.153,2.25451
-0.172855,0.644265,2.153,2.25397
-0.165867,0.644265,2.153,2.25344
-0.157919,0.640375,2.14,2.23933
-0.150974,0.640375,2.14,2.23886
-0.144028,0.640375,2.14,2.2384
-0.137082,0.640375,2.14,2.23796
-0.130136,0.640375,2.14,2.23755
-0.124744,0.648455,2.167,2.26538
-0.117711,0.648455,2.167,2.265
-0.110677,0.648455,2.167,2.26465
-0.103644,0.648455,2.167,2.26432
-0.09661,0.648455,2.167,2.264
-0.0895765,0.648455,2.167,2.26372
-0.0825429,0.648455,2.167,2.26345
-0.0755094,0.648455,2.167,2.2632
-0.0684758,0.648455,2.167,2.26298
-0.0614423,0.648455,2.167,2.26278
-0.0544088,0.648455,2.167,2.2626
-0.0473752,0.648455,2.167,2.26244
-0.0403417,0.648455,2.167,2.2623
-0.0333081,0.648455,2.167,2.26219
-0.0264322,0.652345,2.18,2.27567
-0.019241,0.648455,2.167,2.26202
-0.0122075,0.648455,2.167,2.26198
-0.00520499,0.652345,2.18,2.27552
0.00187075,0.652345,2.18,2.27551
0.00894649,0.652345,2.18,2.27553
0.0160222,0.652345,2.18,2.27557
0.023098,0.652345,2.18,2.27563
0.0301737,0.652345,2.18,2.27571
0.0372494,0.652345,2.18,2.27582
0.0443252,0.652345,2.18,2.27594
0.0514009,0.652345,2.18,2.27609
0.0581279,0.648455,2.167,2.26269
0.0651615,0.648455,2.167,2.26288
0.072195,0.648455,2.167,2.26309
0.0792286,0.648455,2.167,2.26333
0.0862621,0.648455,2.167,2.26359
0.0926929,0.644265,2.153,2.24924
0.0990791,0.640375,2.14,2.23596
0.105331,0.636186,2.126,2.22164
0.112232,0.636186,2.126,2.22198
0.119132,0.636186,2.126,2.22234
0.125262,0.632296,2.113,2.20913
0.13212,0.632296,2.113,2.20953
0.138979,0.632296,2.113,2.20995
0.145837,0.632296,2.113,2.21039
0.152695,0.632296,2.113,2.21086
0.159554,0.632296,2.113,2.21134
0.165388,0.628406,2.1,2.19824
0.172204,0.628406,2.1,2.19876
0.17902,0.628406,2.1,2.19931
0.185836,0.628406,2.1,2.19987
0.193845,0.632296,2.113,2.21408
0.200703,0.632296,2.113,2.21469
0.207561,0.632296,2.113,2.21532
0.211781,0.624516,2.087,2.18871
0.218555,0.624516,2.087,2.18937
0.225329,0.624516,2.087,2.19006
0.232103,0.624516,2.087,2.19077
0.238877,0.624516,2.087,2.1915
0.245651,0.624516,2.087,2.19224
0.252425,0.624516,2.087,2.19301
0.259199,0.624516,2.087,2.1938
0.265972,0.624516,2.087,2.19461
0.272746,0.624516,2.087,2.19545
0.27952,0.624516,2.087,2.1963
0.286294,0.624516,2.087,2.19717
0.293068,0.624516,2.087,2.19806
0.299842,0.624516,2.087,2.19898
0.306616,0.624516,2.087,2.19991
0.311588,0.620925,2.075,2.18821
0.318323,0.620925,2.075,2.18918
0.325058,0.620925,2.075,2.19017
0.331792,0.620925,2.075,2.19118
0.338527,0.620925,2.075,2.19221
0.345262,0.620925,2.075,2.19326
0.351997,0.620925,2.075,2.19433
0.360807,0.624516,2.087,2.20811
0.367581,0.624516,2.087,2.20923
0.374355,0.624516,2.087,2.21037
0.381128,0.624516,2.087,2.21153
0.387902,0.624516,2.087,2.2127
0.394676,0.624516,2.087,2.2139
0.40145,0.624516,2.087,2.21512
0.410767,0.628406,2.1,2.23016
0.420168,0.632296,2.113,2.24524
0.427026,0.632296,2.113,2.24654
0.433884,0.632296,2.113,2.24785
0.440743,0.632296,2.113,2.24918
0.447601,0.632296,2.113,2.25054
0.454459,0.632296,2.113,2.25191
0.458479,0.628406,2.1,2.23944
0.465295,0.628406,2.1,2.24085
0.472112,0.628406,2.1,2.24227
0.478928,0.628406,2.1,2.24372
0.485744,0.628406,2.1,2.24518
0.489511,0.624516,2.087,2.23276
0.49034,0.617035,2.062,2.20749
0.497032,0.617035,2.062,2.20899
0.500794,0.613444,2.05,2.19764
0.504477,0.609853,2.038,2.18629
0.511092,0.609853,2.038,2.18783
0.514658,0.606262,2.026,2.17649
0.518147,0.602671,2.014,2.16515
0.524684,0.602671,2.014,2.16673
0.52489,0.595489,1.99,2.14248
0.531349,0.595489,1.99,2.14407
0.534836,0.592198,1.979,2.13382
0.541259,0.592198,1.979,2.13544
0.547682,0.592198,1.979,2.13708
0.550746,0.588607,1.967,2.12576
0.55713,0.588607,1.967,2.12743
0.563515,0.588607,1.967,2.12911
0.569899,0.588607,1.967,2.13081
0.579799,0.592198,1.979,2.14553
0.586222,0.592198,1.979,2.14728
0.589052,0.588607,1.967,2.13601
0.595437,0.588607,1.967,2.13778
0.601821,0.588607,1.967,2.13956
0.608205,0.588607,1.967,2.14137
0.61459,0.588607,1.967,2.14319
0.620974,0.588607,1.967,2.14503
0.627358,0.588607,1.967,2.14689
0.630199,0.585315,1.956,2.13675
0.636548,0.585315,1.956,2.13863
0.642896,0.585315,1.956,2.14052
0.649245,0.585315,1.956,2.14244
0.655594,0.585315,1.956,2.14437
0.661942,0.585315,1.956,2.14632
0.668291,0.585315,1.956,2.14829
0.67464,0.585315,1.956,2.15027
0.680988,0.585315,1.956,2.15227
0.683472,0.582023,1.945,2.14217
0.689785,0.582023,1.945,2.1442
0.696098,0.582023,1.945,2.14624
0.702411,0.582023,1.945,2.14829
0.708724,0.582023,1.945,2.15036
0.715037,0.582023,1.945,2.15245
0.72135,0.582023,1.945,2.15456
0.727663,0.582023,1.945,2.15668
0.738127,0.585315,1.956,2.17103
0.744475,0.585315,1.956,2.17319
0.750824,0.585315,1.956,2.17538
0.761431,0.588607,1.967,2.18982
0.767815,0.588607,1.967,2.19205
0.7742,0.588607,1.967,2.1943
0.780584,0.588607,1.967,2.19656
0.786968,0.588607,1.967,2.19883
0.793353,0.588607,1.967,2.20113
0.799737,0.588607,1.967,2.20344
0.811039,0.592198,1.979,2.21922
0.817463,0.592198,1.979,2.22157
0.823886,0.592198,1.979,2.22394
0.830309,0.592198,1.979,2.22633
0.836733,0.592198,1.979,2.22874
0.843156,0.592198,1.979,2.23115
0.854302,0.595489,1.99,2.24601
0.860761,0.595489,1.99,2.24847
0.86722,0.595489,1.99,2.25095
0.894753,0.609853,2.038,2.3078
0.901367,0.609853,2.038,2.31037
0.907982,0.609853,2.038,2.31296
0.914597,0.609853,2.038,2.31557
0.921212,0.609853,2.038,2.31819
0.927827,0.609853,2.038,2.32082
0.934442,0.609853,2.038,2.32348
0.946598,0.613444,2.05,2.33984
0.947671,0.609853,2.038,2.32883
0.954286,0.609853,2.038,2.33153
0.966559,0.613444,2.05,2.34799
0.973213,0.613444,2.05,2.35074
0.979867,0.613444,2.05,2.3535
0.98652,0.613444,2.05,2.35628
0.993174,0.613444,2.05,2.35907
0.999828,0.613444,2.05,2.36188
1.00648,0.613444,2.05,2.3647
1.01314,0.613444,2.05,2.36754
1.01979,0.613444,2.05,2.3704
1.02644,0.613444,2.05,2.37327
1.03914,0.617035,2.062,2.39006
1.04584,0.617035,2.062,2.39298
1.05253,0.617035,2.062,2.39591
1.05922,0.617035,2.062,2.39886
1.06592,0.617035,2.062,2.40182
1.07261,0.617035,2.062,2.4048
1.08611,0.620925,2.075,2.42297
1.09284,0.620925,2.075,2.426
1.09957,0.620925,2.075,2.42904
1.10631,0.620925,2.075,2.4321
1.11304,0.620925,2.075,2.43517
1.11978,0.620925,2.075,2.43825
1.13303,0.624516,2.087,2.45547
1.1398,0.624516,2.087,2.45861
1.14658,0.624516,2.087,2.46175
1.15335,0.624516,2.087,2.46492
1.16735,0.628406,2.1,2.48347
1.17417,0.628406,2.1,2.48668
1.18098,0.628406,2.1,2.4899
1.1878,0.628406,2.1,2.49314
1.19462,0.628406,2.1,2.4964
1.20143,0.628406,2.1,2.49967
1.20825,0.628406,2.1,2.50295
1.21506,0.628406,2.1,2.50625
1.21432,0.624516,2.087,2.49402
1.22109,0.624516,2.087,2.49733
1.22786,0.624516,2.087,2.50065
1.22754,0.620925,2.075,2.48958
1.22654,0.617035,2.062,2.47729
1.23323,0.617035,2.062,2.48061
1.23271,0.613444,2.05,2.46949
1.23211,0.609853,2.038,2.45834
1.23143,0.606262,2.026,2.44717
1.23801,0.606262,2.026,2.45049
1.24458,0.606262,2.026,2.45382
1.25116,0.606262,2.026,2.45716
1.25773,0.606262,2.026,2.46051
1.26431,0.606262,2.026,2.46388
1.27089,0.606262,2.026,2.46726
1.27746,0.606262,2.026,2.47066
1.28404,0.606262,2.026,2.47406
1.29061,0.606262,2.026,2.47748
1.29719,0.606262,2.026,2.48091
1.30377,0.606262,2.026,2.48436
1.3181,0.609853,2.038,2.50255
1.33252,0.613444,2.05,2.5208
1.33917,0.613444,2.05,2.52432
1.34582,0.613444,2.05,2.52786
1.3604,0.617035,2.062,2.54622
1.36709,0.617035,2.062,2.54981
1.37378,0.617035,2.062,2.5534
1.38918,0.620925,2.075,2.57313
1.39591,0.620925,2.075,2.57677
1.40265,0.620925,2.075,2.58042
1.41753,0.624516,2.087,2.59904
-1.6608,0.724151,2.394,3.00231
-1.65303,0.724151,2.394,2.99802
-1.65694,0.729293,2.411,3.015
-1.64911,0.729293,2.411,3.01071
-1.64129,0.729293,2.411,3.00643
-1.63346,0.729293,2.411,3.00216
-1.6371,0.734435,2.428,3.01905
-1.62922,0.734435,2.428,3.01479
-1.62134,0.734435,2.428,3.01053
-1.61346,0.734435,2.428,3.0063
-1.60558,0.734435,2.428,3.00208
-1.5977,0.734435,2.428,2.99787
-1.58981,0.734435,2.428,2.99368
-1.58193,0.734435,2.428,2.9895
-1.56303,0.729293,2.411,2.96443
-1.55521,0.729293,2.411,2.96031
-1.53647,0.724151,2.394,2.93537
-1.5287,0.724151,2.394,2.93131
-1.52093,0.724151,2.394,2.92726
-1.4923,0.714169,2.361,2.88294
-1.48464,0.714169,2.361,2.87898
-1.46697,0.709329,2.345,2.85555
-1.45935,0.709329,2.345,2.85165
-1.45174,0.709329,2.345,2.84776
-1.43428,0.704489,2.329,2.82448
-1.41692,0.699649,2.313,2.80127
-1.40941,0.699649,2.313,2.79748
-1.39281,0.695112,2.298,2.77559
-1.37571,0.690272,2.282,2.75256
-1.35931,0.685735,2.267,2.73079
-1.35195,0.685735,2.267,2.72714
-1.34459,0.685735,2.267,2.7235
-1.32838,0.681198,2.252,2.70188
-1.32107,0.681198,2.252,2.69829
-1.31377,0.681198,2.252,2.69472
-1.29775,0.67666,2.237,2.67324
-1.29049,0.67666,2.237,2.66972
-1.28323,0.67666,2.237,2.66622
-1.27597,0.67666,2.237,2.66273
-1.26871,0.67666,2.237,2.65926
-1.26145,0.67666,2.237,2.6558
-1.2626,0.681198,2.252,2.67015
-1.25529,0.681198,2.252,2.6667
-1.24798,0.681198,2.252,2.66327
-1.24067,0.681198,2.252,2.65985
-1.24158,0.685735,2.267,2.67414
-1.24239,0.690272,2.282,2.6884
-1.23498,0.690272,2.282,2.68499
-1.22757,0.690272,2.282,2.68159
-1.22872,0.695112,2.298,2.69699
-1.22126,0.695112,2.298,2.6936
-1.22173,0.699649,2.313,2.70778
-1.21422,0.699649,2.313,2.7044
-1.21506,0.704489,2.329,2.71973
-1.2075,0.704489,2.329,2.71636
-1.20818,0.709329,2.345,2.73164
-1.20057,0.709329,2.345,2.72829
-1.19296,0.709329,2.345,2.72495
-1.18535,0.709329,2.345,2.72162
-1.17774,0.709329,2.345,2.71832
-1.16214,0.704489,2.329,2.6965
-1.15458,0.704489,2.329,2.69325
-1.13914,0.699649,2.313,2.67154
-1.13164,0.699649,2.313,2.66835
-1.12413,0.699649,2.313,2.66517
-1.11662,0.699649,2.313,2.66201
-1.10911,0.699649,2.313,2.65887
-1.10161,0.699649,2.313,2.65575
-1.087,0.695112,2.298,2.63544
-1.07954,0.695112,2.298,2.63238
-1.07209,0.695112,2.298,2.62933
-1.05721,0.690272,2.282,2.60801
-1.04981,0.690272,2.282,2.60501
-1.03555,0.685735,2.267,2.58493
-1.02819,0.685735,2.267,2.582
-1.01408,0.681198,2.252,2.56201
-1.00677,0.681198,2.252,2.55912
-0.992803,0.67666,2.237,2.53923
-0.985542,0.67666,2.237,2.5364
-0.978281,0.67666,2.237,2.53359
-0.97102,0.67666,2.237,2.53079
-0.96376,0.67666,2.237,2.52802
-0.956499,0.67666,2.237,2.52526
-0.943297,0.672426,2.223,2.50673
-0.936082,0.672426,2.223,2.50402
-0.928867,0.672426,2.223,2.50134
-0.927456,0.67666,2.237,2.5144
-0.920195,0.67666,2.237,2.51173
-0.912934,0.67666,2.237,2.50908
-0.905674,0.67666,2.237,2.50645
-0.898413,0.67666,2.237,2.50383
-0.897128,0.681198,2.252,2.51801
-0.889818,0.681198,2.252,2.51541
-0.882509,0.681198,2.252,2.51284
-0.875199,0.681198,2.252,2.51028
-0.86789,0.681198,2.252,2.50774
-0.860581,0.681198,2.252,2.50522
-0.853271,0.681198,2.252,2.50272
-0.840327,0.67666,2.237,2.48358
-0.833066,0.67666,2.237,2.48114
-0.820637,0.672426,2.223,2.4632
-0.813422,0.672426,2.223,2.4608
-0.806207,0.672426,2.223,2.45843
-0.798991,0.672426,2.223,2.45607
-0.796762,0.67666,2.237,2.46918
-0.789502,0.67666,2.237,2.46685
-0.782241,0.67666,2.237,2.46454
-0.780177,0.681198,2.252,2.47875
-0.772867,0.681198,2.252,2.47646
-0.765558,0.681198,2.252,2.47419
-0.758248,0.681198,2.252,2.47194
-0.750939,0.681198,2.252,2.46971
-0.74363,0.681198,2.252,2.46749
-0.73632,0.681198,2.252,2.4653
-0.729011,0.681198,2.252,2.46313
-0.721701,0.681198,2.252,2.46097
-0.714392,0.681198,2.252,2.45884
-0.707082,0.681198,2.252,2.45673
-0.699773,0.681198,2.252,2.45463
-0.692464,0.681198,2.252,2.45256
-0.685154,0.681198,2.252,2.4505
-0.677845,0.681198,2.252,2.44847
-0.670535,0.681198,2.252,2.44646
-0.663226,0.681198,2.252,2.44446
-0.655916,0.681198,2.252,2.44249
-0.652927,0.685735,2.267,2.45679
-0.645569,0.685735,2.267,2.45485
-0.633988,0.681198,2.252,2.43669
-0.626679,0.681198,2.252,2.4348
-0.619369,0.681198,2.252,2.43293
-0.616137,0.685735,2.267,2.44727
-0.612807,0.690272,2.282,2.46161
-0.617869,0.704489,2.329,2.51044
-0.610309,0.704489,2.329,2.50859
-0.60275,0.704489,2.329,2.50676
-0.59519,0.704489,2.329,2.50495
-0.587631,0.704489,2.329,2.50317
-0.584057,0.709329,2.345,2.51859
-0.576446,0.709329,2.345,2.51684
-0.568834,0.709329,2.345,2.5151
-0.561223,0.709329,2.345,2.51339
-0.549834,0.704489,2.329,2.49457
-0.542275,0.704489,2.329,2.49291
-0.534716,0.704489,2.329,2.49128
-0.527156,0.704489,2.329,2.48967
-0.519597,0.704489,2.329,2.48808
-0.50852,0.699649,2.313,2.46943
-0.497763,0.695112,2.298,2.45189
-0.490305,0.695112,2.298,2.45038
-0.482846,0.695112,2.298,2.4489
-0.475387,0.695112,2.298,2.44744
-0.467928,0.695112,2.298,2.44601
-0.454258,0.685735,2.267,2.41161
-0.443943,0.681198,2.252,2.39429
-0.436633,0.681198,2.252,2.39294
-0.429324,0.681198,2.252,2.39162
-0.419204,0.67666,2.237,2.3744
-0.411943,0.67666,2.237,2.37313
-0.404682,0.67666,2.237,2.37188
-0.397421,0.67666,2.237,2.37065
-0.390161,0.67666,2.237,2.36944
-0.3829,0.67666,2.237,2.36826
-0.375639,0.67666,2.237,2.3671
-0.368378,0.67666,2.237,2.36595
-0.361118,0.67666,2.237,2.36484
-0.353857,0.67666,2.237,2.36374
-0.346596,0.67666,2.237,2.36266
-0.339335,0.67666,2.237,2.36161
-0.332075,0.67666,2.237,2.36057
-0.324814,0.67666,2.237,2.35956
-0.317553,0.67666,2.237,2.35858
-0.310292,0.67666,2.237,2.35761
-0.301135,0.672426,2.223,2.34192
-0.29392,0.672426,2.223,2.341
-0.286705,0.672426,2.223,2.3401
-0.277729,0.668191,2.209,2.3245
-0.267007,0.659419,2.18,2.29315
-0.259932,0.659419,2.18,2.29233
-0.251348,0.655486,2.167,2.27788
-0.244314,0.655486,2.167,2.27711
-0.234324,0.647319,2.14,2.24801
-0.227379,0.647319,2.14,2.24729
-0.220433,0.647319,2.14,2.2466
-0.213487,0.647319,2.14,2.24593
-0.206541,0.647319,2.14,2.24528
-0.198289,0.643084,2.126,2.22997
-0.191389,0.643084,2.126,2.22936
-0.184488,0.643084,2.126,2.22878
-0.176502,0.639152,2.113,2.2146
-0.169644,0.639152,2.113,2.21406
-0.162785,0.639152,2.113,2.21355
-0.155927,0.639152,2.113,2.21305
-0.149069,0.639152,2.113,2.21258
-0.14221,0.639152,2.113,2.21213
-0.135352,0.639152,2.113,2.2117
-0.128494,0.639152,2.113,2.21129
-0.121636,0.639152,2.113,2.2109
-0.115484,0.643084,2.126,2.22413
-0.108583,0.643084,2.126,2.22379
-0.101683,0.643084,2.126,2.22346
-0.0947821,0.643084,2.126,2.22315
-0.0878817,0.643084,2.126,2.22287
-0.0809812,0.643084,2.126,2.22261
-0.0740807,0.643084,2.126,2.22237
-0.0671803,0.643084,2.126,2.22215
-0.0602798,0.643084,2.126,2.22195
-0.0533793,0.643084,2.126,2.22177
-0.0464789,0.643084,2.126,2.22162
-0.0395784,0.643084,2.126,2.22149
-0.0326779,0.643084,2.126,2.22137
-0.0257775,0.643084,2.126,2.22128
-0.018877,0.643084,2.126,2.22121
-0.0119765,0.643084,2.126,2.22117
-0.00507606,0.643084,2.126,2.22114
0.00182441,0.643084,2.126,2.22113
0.00872488,0.643084,2.126,2.22115
0.0156253,0.643084,2.126,2.22119
0.0225258,0.643084,2.126,2.22125
0.0294263,0.643084,2.126,2.22133
0.0363267,0.643084,2.126,2.22143
0.0432272,0.643084,2.126,2.22155
0.0501277,0.643084,2.126,2.2217
0.0566794,0.639152,2.113,2.20828
0.0635377,0.639152,2.113,2.20847
0.0699629,0.63522,2.1,2.19509
0.076779,0.63522,2.1,2.19531
0.0841125,0.639152,2.113,2.20915
0.0898514,0.631288,2.087,2.18224
0.0966253,0.631288,2.087,2.18253
0.103399,0.631288,2.087,2.18284
0.110173,0.631288,2.087,2.18317
0.116275,0.627658,2.075,2.17097
0.123009,0.627658,2.075,2.17134
0.129744,0.627658,2.075,2.17173
0.136479,0.627658,2.075,2.17214
0.143214,0.627658,2.075,2.17258
0.149949,0.627658,2.075,2.17303
0.156684,0.627658,2.075,2.17351
0.162395,0.623725,2.062,2.16038
0.169088,0.623725,2.062,2.1609
0.175781,0.623725,2.062,2.16143
0.183624,0.627658,2.075,2.17561
0.190359,0.627658,2.075,2.17619
0.197094,0.627658,2.075,2.17679
0.203829,0.627658,2.075,2.17741
0.209244,0.623725,2.062,2.16441
0.215937,0.623725,2.062,2.16507
0.22263,0.623725,2.062,2.16574
0.227988,0.620096,2.05,2.15383
0.234642,0.620096,2.05,2.15455
0.241296,0.620096,2.05,2.15528
0.249401,0.623725,2.062,2.16866
0.256094,0.623725,2.062,2.16944
0.262786,0.623725,2.062,2.17024
0.267911,0.620096,2.05,2.15842
0.274565,0.620096,2.05,2.15926
0.279572,0.616466,2.038,2.14747
0.286187,0.616466,2.038,2.14834
0.292802,0.616466,2.038,2.14923
0.30118,0.620096,2.05,2.16281
0.306032,0.616466,2.038,2.15108
0.312646,0.616466,2.038,2.15203
0.319261,0.616466,2.038,2.153
0.325876,0.616466,2.038,2.15399
0.332491,0.616466,2.038,2.155
0.339106,0.616466,2.038,2.15603
0.345721,0.616466,2.038,2.15708
0.352336,0.616466,2.038,2.15815
0.361064,0.620096,2.05,2.17195
0.367718,0.620096,2.05,2.17307
0.374371,0.620096,2.05,2.17421
0.381025,0.620096,2.05,2.17536
0.387679,0.620096,2.05,2.17654
0.394333,0.620096,2.05,2.17773
0.403334,0.623725,2.062,2.1917
0.410027,0.623725,2.062,2.19294
0.416719,0.623725,2.062,2.1942
0.423412,0.623725,2.062,2.19549
0.430105,0.623725,2.062,2.19679
0.434256,0.620096,2.05,2.18531
0.440909,0.620096,2.05,2.18665
0.447563,0.620096,2.05,2.188
0.454217,0.620096,2.05,2.18937
0.460871,0.620096,2.05,2.19076
0.467525,0.620096,2.05,2.19217
0.474178,0.620096,2.05,2.1936
0.478018,0.616466,2.038,2.18219
0.481779,0.612836,2.026,2.1708
0.488355,0.612836,2.026,2.17226
0.491999,0.609206,2.014,2.16088
0.492595,0.601946,1.99,2.13661
0.499054,0.601946,1.99,2.13811
0.505513,0.601946,1.99,2.13962
0.506055,0.594989,1.967,2.11641
0.512439,0.594989,1.967,2.11795
0.518824,0.594989,1.967,2.1195
0.525208,0.594989,1.967,2.12107
0.534836,0.598619,1.979,2.13561
0.541259,0.598619,1.979,2.13723
0.547682,0.598619,1.979,2.13886
0.550746,0.594989,1.967,2.12754
0.55713,0.594989,1.967,2.1292
0.563515,0.594989,1.967,2.13088
0.569899,0.594989,1.967,2.13258
0.579799,0.598619,1.979,2.14731
0.586222,0.598619,1.979,2.14906
0.589052,0.594989,1.967,2.13778
0.595437,0.594989,1.967,2.13954
0.601821,0.594989,1.967,2.14133
0.608205,0.594989,1.967,2.14313
0.61459,0.594989,1.967,2.14495
0.620974,0.594989,1.967,2.14679
0.627358,0.594989,1.967,2.14865
0.630199,0.591662,1.956,2.13849
0.636548,0.591662,1.956,2.14037
0.642896,0.591662,1.956,2.14227
0.649245,0.591662,1.956,2.14418
0.655594,0.591662,1.956,2.14611
0.661942,0.591662,1.956,2.14806
0.668291,0.591662,1.956,2.15003
0.67464,0.591662,1.956,2.15201
0.680988,0.591662,1.956,2.15401
0.683472,0.588335,1.945,2.1439
0.689785,0.588335,1.945,2.14592
0.696098,0.588335,1.945,2.14796
0.702411,0.588335,1.945,2.15001
0.708724,0.588335,1.945,2.15208
0.715037,0.588335,1.945,2.15417
0.72135,0.588335,1.945,2.15627
0.727663,0.588335,1.945,2.15839
0.738127,0.591662,1.956,2.17275
0.744475,0.591662,1.956,2.17491
0.750824,0.591662,1.956,2.17709
0.761431,0.594989,1.967,2.19155
0.767815,0.594989,1.967,2.19377
0.7742,0.594989,1.967,2.19602
0.780584,0.594989,1.967,2.19828
0.786968,0.594989,1.967,2.20055
0.793353,0.594989,1.967,2.20284
0.799737,0.594989,1.967,2.20515
0.811039,0.598619,1.979,2.22094
0.817463,0.598619,1.979,2.22329
0.823886,0.598619,1.979,2.22566
0.830309,0.598619,1.979,2.22805
0.836733,0.598619,1.979,2.23045
0.843156,0.598619,1.979,2.23287
0.854302,0.601946,1.99,2.24773
0.860761,0.601946,1.99,2.25019
0.86722,0.601946,1.99,2.25267
0.873679,0.601946,1.99,2.25516
0.880138,0.601946,1.99,2.25767
0.886597,0.601946,1.99,2.2602
0.898441,0.605576,2.002,2.27638
0.904939,0.605576,2.002,2.27896
0.911437,0.605576,2.002,2.28154
0.917935,0.605576,2.002,2.28415
0.924433,0.605576,2.002,2.28677
0.930931,0.605576,2.002,2.2894
0.937429,0.605576,2.002,2.29205
0.943927,0.605576,2.002,2.29472
0.950425,0.605576,2.002,2.2974
0.962659,0.609206,2.014,2.31388
0.969196,0.609206,2.014,2.31661
0.975733,0.609206,2.014,2.31935
0.98227,0.609206,2.014,2.32211
0.988807,0.609206,2.014,2.32488
0.995344,0.609206,2.014,2.32767
1.00188,0.609206,2.014,2.33047
1.00842,0.609206,2.014,2.33329
1.021,0.612836,2.026,2.35004
1.02758,0.612836,2.026,2.3529
1.03415,0.612836,2.026,2.35578
1.04073,0.612836,2.026,2.35868
1.04731,0.612836,2.026,2.36159
1.05388,0.612836,2.026,2.36451
1.06674,0.616466,2.038,2.38147
1.07967,0.620096,2.05,2.39848
1.08633,0.620096,2.05,2.40148
1.09298,0.620096,2.05,2.4045
1.09963,0.620096,2.05,2.40753
1.10629,0.620096,2.05,2.41058
1.11294,0.620096,2.05,2.41364
1.12615,0.623725,2.062,2.43086
1.13284,0.623725,2.062,2.43397
1.13954,0.623725,2.062,2.43709
1.15345,0.627658,2.075,2.45561
1.16019,0.627658,2.075,2.45878
1.16692,0.627658,2.075,2.46197
1.18045,0.631288,2.087,2.47942
1.18722,0.631288,2.087,2.48266
1.19399,0.631288,2.087,2.4859
1.19386,0.627658,2.075,2.47485
1.2006,0.627658,2.075,2.47811
1.20733,0.627658,2.075,2.48138
1.20646,0.623725,2.062,2.46909
1.21316,0.623725,2.062,2.47237
1.21275,0.620096,2.05,2.46126
1.21226,0.616466,2.038,2.45011
1.21888,0.616466,2.038,2.45339
1.21106,0.609206,2.014,2.42776
1.2176,0.609206,2.014,2.43102
1.21684,0.605576,2.002,2.4198
1.22334,0.605576,2.002,2.42307
1.22247,0.601946,1.99,2.41182
1.22893,0.601946,1.99,2.4151
1.23539,0.601946,1.99,2.41839
1.24184,0.601946,1.99,2.4217
1.2483,0.601946,1.99,2.42502
1.25476,0.601946,1.99,2.42835
1.26122,0.601946,1.99,2.43169
1.27533,0.605576,2.002,2.44973
1.28182,0.605576,2.002,2.45312
1.28832,0.605576,2.002,2.45652
1.30258,0.609206,2.014,2.47468
1.31692,0.612836,2.026,2.49289
1.32349,0.612836,2.026,2.49637
1.33007,0.612836,2.026,2.49987
1.34456,0.616466,2.038,2.5182
1.35913,0.620096,2.05,2.53658
1.36579,0.620096,2.05,2.54016
1.37244,0.620096,2.05,2.54374
1.37909,0.620096,2.05,2.54734
1.38575,0.620096,2.05,2.55094
1.3924,0.620096,2.05,2.55456
-1.6608,0.731919,2.394,3.00419
-1.65303,0.731919,2.394,2.99991
-1.65694,0.737116,2.411,3.0169
-1.64911,0.737116,2.411,3.01261
-1.64129,0.737116,2.411,3.00834
-1.63346,0.737116,2.411,3.00407
-1.62564,0.737116,2.411,2.99983
-1.61781,0.737116,2.411,2.99559
-1.60999,0.737116,2.411,2.99137
-1.60216,0.737116,2.411,2.98717
-1.59433,0.737116,2.411,2.98298
-1.58651,0.737116,2.411,2.9788
-1.57868,0.737116,2.411,2.97464
-1.57086,0.737116,2.411,2.9705
-1.56303,0.737116,2.411,2.96637
-1.55521,0.737116,2.411,2.96225
-1.53647,0.731919,2.394,2.93729
-1.5287,0.731919,2.394,2.93323
-1.49997,0.72183,2.361,2.88882
-1.4923,0.72183,2.361,2.88484
-1.48464,0.72183,2.361,2.88089
-1.46697,0.716938,2.345,2.85745
-1.43944,0.707155,2.313,2.81461
-1.43193,0.707155,2.313,2.81078
-1.42443,0.707155,2.313,2.80696
-1.39793,0.697677,2.282,2.76559
-1.39052,0.697677,2.282,2.76185
-1.38311,0.697677,2.282,2.75813
-1.36666,0.693091,2.267,2.73632
-1.35931,0.693091,2.267,2.73265
-1.35195,0.693091,2.267,2.729
-1.33569,0.688505,2.252,2.70733
-1.32838,0.688505,2.252,2.70373
-1.32107,0.688505,2.252,2.70015
-1.30501,0.683919,2.237,2.67861
-1.28963,0.679639,2.223,2.65834
-1.28242,0.679639,2.223,2.65485
-1.2752,0.679639,2.223,2.65137
-1.26799,0.679639,2.223,2.64791
-1.26077,0.679639,2.223,2.64446
-1.25356,0.679639,2.223,2.64103
-1.24634,0.679639,2.223,2.63761
-1.23912,0.679639,2.223,2.63421
-1.23967,0.683919,2.237,2.64739
-1.23241,0.683919,2.237,2.644
-1.23336,0.688505,2.252,2.65833
-1.23422,0.693091,2.267,2.67263
-1.22686,0.693091,2.267,2.66924
-1.2195,0.693091,2.267,2.66587
-1.22016,0.697677,2.282,2.68013
-1.21276,0.697677,2.282,2.67676
-1.20535,0.697677,2.282,2.67342
-1.20634,0.702569,2.298,2.6888
-1.20671,0.707155,2.313,2.703
-1.1992,0.707155,2.313,2.69965
-1.1917,0.707155,2.313,2.69633
-1.18419,0.707155,2.313,2.69302
-1.17668,0.707155,2.313,2.68972
-1.16917,0.707155,2.313,2.68645
-1.16167,0.707155,2.313,2.68319
-1.15416,0.707155,2.313,2.67995
-1.14665,0.707155,2.313,2.67672
-1.13914,0.707155,2.313,2.67352
-1.13164,0.707155,2.313,2.67033
-1.12413,0.707155,2.313,2.66715
-1.10938,0.702569,2.298,2.64672
-1.10192,0.702569,2.298,2.6436
-1.09446,0.702569,2.298,2.6405
-1.07944,0.697677,2.282,2.61906
-1.07203,0.697677,2.282,2.61601
-1.06462,0.697677,2.282,2.61299
-1.05027,0.693091,2.267,2.59282
-1.04291,0.693091,2.267,2.58985
-1.0287,0.688505,2.252,2.56978
-1.01458,0.683919,2.237,2.54976
-1.00732,0.683919,2.237,2.54688
-1.00006,0.683919,2.237,2.54402
-0.986589,0.679639,2.223,2.52527
-0.973206,0.675359,2.209,2.50658
-0.966036,0.675359,2.209,2.5038
-0.958866,0.675359,2.209,2.50104
-0.951697,0.675359,2.209,2.4983
-0.956499,0.683919,2.237,2.52721
-0.943297,0.679639,2.223,2.50867
-0.936082,0.679639,2.223,2.50597
-0.928867,0.679639,2.223,2.50328
-0.927456,0.683919,2.237,2.51636
-0.920195,0.683919,2.237,2.5137
-0.912934,0.683919,2.237,2.51105
-0.905674,0.683919,2.237,2.50842
-0.898413,0.683919,2.237,2.50581
-0.897128,0.688505,2.252,2.52
-0.889818,0.688505,2.252,2.5174
-0.882509,0.688505,2.252,2.51483
-0.875199,0.688505,2.252,2.51227
-0.86789,0.688505,2.252,2.50974
-0.860581,0.688505,2.252,2.50722
-0.853271,0.688505,2.252,2.50472
-0.840327,0.683919,2.237,2.48557
-0.833066,0.683919,2.237,2.48313
-0.820637,0.679639,2.223,2.46517
-0.813422,0.679639,2.223,2.46278
-0.806207,0.679639,2.223,2.46041
-0.798991,0.679639,2.223,2.45805
-0.796762,0.683919,2.237,2.47118
-0.789502,0.683919,2.237,2.46885
-0.782241,0.683919,2.237,2.46654
-0.780177,0.688505,2.252,2.48077
-0.772867,0.688505,2.252,2.47848
-0.765558,0.688505,2.252,2.47621
-0.758248,0.688505,2.252,2.47396
-0.750939,0.688505,2.252,2.47173
-0.74363,0.688505,2.252,2.46952
-0.73632,0.688505,2.252,2.46733
-0.729011,0.688505,2.252,2.46516
-0.721701,0.688505,2.252,2.46301
-0.714392,0.688505,2.252,2.46087
-0.707082,0.688505,2.252,2.45876
-0.699773,0.688505,2.252,2.45667
-0.692464,0.688505,2.252,2.4546
-0.685154,0.688505,2.252,2.45255
-0.677845,0.688505,2.252,2.45051
-0.670535,0.688505,2.252,2.4485
-0.663226,0.688505,2.252,2.44651
-0.655916,0.688505,2.252,2.44454
-0.652927,0.693091,2.267,2.45886
-0.645569,0.693091,2.267,2.45691
-0.633988,0.688505,2.252,2.43875
-0.626679,0.688505,2.252,2.43686
-0.619369,0.688505,2.252,2.43499
-0.616137,0.693091,2.267,2.44934
-0.612807,0.697677,2.282,2.4637
-0.6054,0.697677,2.282,2.46187
-0.597993,0.697677,2.282,2.46006
-0.594727,0.702569,2.298,2.4755
-0.587268,0.702569,2.298,2.47372
-0.575773,0.697677,2.282,2.45475
-0.568366,0.697677,2.282,2.45302
-0.560959,0.697677,2.282,2.45132
-0.553552,0.697677,2.282,2.44963
-0.546145,0.697677,2.282,2.44797
-0.538739,0.697677,2.282,2.44633
-0.527839,0.693091,2.267,2.42864
-0.517037,0.688505,2.252,2.41099
-0.509728,0.688505,2.252,2.40943
-0.502418,0.688505,2.252,2.4079
-0.491811,0.683919,2.237,2.39035
-0.481518,0.679639,2.223,2.37392
-0.474303,0.679639,2.223,2.37247
-0.467087,0.679639,2.223,2.37104
-0.459872,0.679639,2.223,2.36962
-0.452657,0.679639,2.223,2.36823
-0.442636,0.675359,2.209,2.35196
-0.432509,0.670773,2.194,2.33466
-0.425388,0.670773,2.194,2.33335
-0.418267,0.670773,2.194,2.33206
-0.413957,0.675359,2.209,2.34673
-0.406787,0.675359,2.209,2.34548
-0.399617,0.675359,2.209,2.34424
-0.389782,0.670773,2.194,2.32712
-0.382661,0.670773,2.194,2.32594
-0.378107,0.675359,2.209,2.34067
-0.370937,0.675359,2.209,2.33953
-0.363768,0.675359,2.209,2.3384
-0.356598,0.675359,2.209,2.3373
-0.349428,0.675359,2.209,2.33621
-0.342258,0.675359,2.209,2.33515
-0.337212,0.679639,2.223,2.3489
-0.329996,0.679639,2.223,2.34788
-0.322781,0.679639,2.223,2.34688
-0.313578,0.675359,2.209,2.33112
-0.306409,0.675359,2.209,2.33017
-0.297207,0.670773,2.194,2.31342
-0.290086,0.670773,2.194,2.31251
-0.282964,0.670773,2.194,2.31163
-0.274083,0.666492,2.18,2.29603
-0.2637,0.658238,2.153,2.26677
-0.256712,0.658238,2.153,2.26596
-0.248216,0.654263,2.14,2.2515
-0.239692,0.649983,2.126,2.23602
-0.232791,0.649983,2.126,2.2353
-0.22451,0.646009,2.113,2.22092
-0.216312,0.642034,2.1,2.20658
-0.209496,0.642034,2.1,2.20592
-0.20268,0.642034,2.1,2.20529
-0.194652,0.63806,2.087,2.19102
-0.187878,0.63806,2.087,2.19043
-0.181104,0.63806,2.087,2.18986
-0.173328,0.634391,2.075,2.17672
-0.166593,0.634391,2.075,2.1762
-0.159858,0.634391,2.075,2.17569
-0.153123,0.634391,2.075,2.17521
-0.146388,0.634391,2.075,2.17474
-0.139653,0.634391,2.075,2.1743
-0.132918,0.634391,2.075,2.17388
-0.126183,0.634391,2.075,2.17348
-0.120139,0.63806,2.087,2.18566
-0.113365,0.63806,2.087,2.1853
-0.105978,0.634391,2.075,2.1724
-0.0992434,0.634391,2.075,2.17208
-0.0930434,0.63806,2.087,2.18434
-0.0857735,0.634391,2.075,2.1715
-0.0790386,0.634391,2.075,2.17125
-0.0727218,0.63806,2.087,2.18357
-0.0659479,0.63806,2.087,2.18335
-0.059174,0.63806,2.087,2.18316
-0.0524001,0.63806,2.087,2.18299
-0.0456262,0.63806,2.087,2.18284
-0.0388524,0.63806,2.087,2.1827
-0.031894,0.634391,2.075,2.17004
-0.0251591,0.634391,2.075,2.16996
-0.0184242,0.634391,2.075,2.16989
-0.0117568,0.63806,2.087,2.18239
-0.00498294,0.63806,2.087,2.18236
0.00178064,0.634391,2.075,2.16981
0.00851558,0.634391,2.075,2.16983
0.0153387,0.63806,2.087,2.18241
0.0221126,0.63806,2.087,2.18247
0.0287204,0.634391,2.075,2.17
0.0352332,0.630416,2.062,2.1565
0.0419259,0.630416,2.062,2.15662
0.0486187,0.630416,2.062,2.15676
0.0553114,0.630416,2.062,2.15693
0.0620041,0.630416,2.062,2.15711
0.0686969,0.630416,2.062,2.15731
0.0749509,0.626747,2.05,2.14498
0.0816047,0.626747,2.05,2.14522
0.0882585,0.626747,2.05,2.14548
0.0949123,0.626747,2.05,2.14577
0.101566,0.626747,2.05,2.14607
0.107586,0.623079,2.038,2.13383
0.114201,0.623079,2.038,2.13418
0.120816,0.623079,2.038,2.13454
0.127431,0.623079,2.038,2.13493
0.134046,0.623079,2.038,2.13533
0.140661,0.623079,2.038,2.13576
0.147275,0.623079,2.038,2.1362
0.15389,0.623079,2.038,2.13667
0.160505,0.623079,2.038,2.13716
0.16712,0.623079,2.038,2.13766
0.173735,0.623079,2.038,2.13819
0.18035,0.623079,2.038,2.13874
0.186964,0.623079,2.038,2.13931
0.193579,0.623079,2.038,2.13989
0.199015,0.61941,2.026,2.1279
0.205591,0.61941,2.026,2.12852
0.215937,0.630416,2.062,2.167
0.22263,0.630416,2.062,2.16768
0.227988,0.626747,2.05,2.15576
0.234642,0.626747,2.05,2.15647
0.241296,0.626747,2.05,2.15721
0.249401,0.630416,2.062,2.17059
0.256094,0.630416,2.062,2.17137
0.262786,0.630416,2.062,2.17217
0.267911,0.626747,2.05,2.16034
0.274565,0.626747,2.05,2.16118
0.279572,0.623079,2.038,2.14938
0.286187,0.623079,2.038,2.15025
0.292802,0.623079,2.038,2.15114
0.30118,0.626747,2.05,2.16472
0.306032,0.623079,2.038,2.15298
0.312646,0.623079,2.038,2.15393
0.319261,0.623079,2.038,2.1549
0.325876,0.623079,2.038,2.15589
0.332491,0.623079,2.038,2.1569
0.339106,0.623079,2.038,2.15793
0.345721,0.623079,2.038,2.15898
0.352336,0.623079,2.038,2.16005
0.361064,0.626747,2.05,2.17386
0.367718,0.626747,2.05,2.17498
0.374371,0.626747,2.05,2.17611
0.381025,0.626747,2.05,2.17727
0.387679,0.626747,2.05,2.17844
0.394333,0.626747,2.05,2.17964
0.403334,0.630416,2.062,2.19361
0.410027,0.630416,2.062,2.19486
0.416719,0.630416,2.062,2.19612
0.423412,0.630416,2.062,2.1974
0.430105,0.630416,2.062,2.19869
0.434256,0.626747,2.05,2.18721
0.440909,0.626747,2.05,2.18854
0.447563,0.626747,2.05,2.18989
0.454217,0.626747,2.05,2.19126
0.460871,0.626747,2.05,2.19265
0.467525,0.626747,2.05,2.19406
0.474178,0.626747,2.05,2.19549
0.478018,0.623079,2.038,2.18407
0.481779,0.61941,2.026,2.17266
0.488355,0.61941,2.026,2.17413
0.491999,0.615741,2.014,2.16273
0.492595,0.608404,1.99,2.13844
0.499054,0.608404,1.99,2.13993
0.505513,0.608404,1.99,2.14145
0.506055,0.601372,1.967,2.11821
0.512439,0.601372,1.967,2.11975
0.518824,0.601372,1.967,2.1213
0.522271,0.598009,1.956,2.111
0.52862,0.598009,1.956,2.11258
0.534968,0.598009,1.956,2.11418
0.538273,0.594646,1.945,2.10389
0.544586,0.594646,1.945,2.10552
0.550899,0.594646,1.945,2.10716
0.554061,0.591283,1.934,2.09689
0.560338,0.591283,1.934,2.09856
0.566615,0.591283,1.934,2.10024
0.572892,0.591283,1.934,2.10195
0.582464,0.594646,1.945,2.11563
0.588777,0.594646,1.945,2.11738
0.59509,0.594646,1.945,2.11914
0.598002,0.591283,1.934,2.10893
0.604279,0.591283,1.934,2.11072
0.614029,0.594646,1.945,2.12454
0.620342,0.594646,1.945,2.12637
0.623111,0.591283,1.934,2.11618
0.629388,0.591283,1.934,2.11804
0.635665,0.591283,1.934,2.11992
0.645594,0.594646,1.945,2.13387
0.651907,0.594646,1.945,2.13579
0.65822,0.594646,1.945,2.13773
0.664533,0.594646,1.945,2.13968
0.670846,0.594646,1.945,2.14165
0.677159,0.594646,1.945,2.14364
0.679606,0.591283,1.934,2.1335
0.681983,0.58792,1.923,2.12337
0.688224,0.58792,1.923,2.12538
0.694466,0.58792,1.923,2.12741
0.704715,0.591283,1.934,2.14163
0.710993,0.591283,1.934,2.14371
