0.729056,-0.507642,2.574,2.72299
0.737411,-0.507642,2.574,2.72524
0.745765,-0.507642,2.574,2.72752
0.75412,-0.507642,2.574,2.72981
0.762474,-0.507642,2.574,2.73213
0.770829,-0.507642,2.574,2.73448
0.779183,-0.507642,2.574,2.73684
0.781725,-0.503895,2.555,2.71901
0.790018,-0.503895,2.555,2.72141
0.798311,-0.503895,2.555,2.72383
0.800605,-0.500148,2.536,2.706
0.808836,-0.500148,2.536,2.70844
0.817068,-0.500148,2.536,2.71091
0.825299,-0.500148,2.536,2.7134
0.83353,-0.500148,2.536,2.71592
0.841761,-0.500148,2.536,2.71846
0.849993,-0.500148,2.536,2.72102
0.858224,-0.500148,2.536,2.7236
0.866455,-0.500148,2.536,2.7262
0.868133,-0.496401,2.517,2.70839
0.876303,-0.496401,2.517,2.71102
0.884472,-0.496401,2.517,2.71367
0.892642,-0.496401,2.517,2.71634
0.900811,-0.496401,2.517,2.71904
0.90248,-0.492851,2.499,2.70229
0.910591,-0.492851,2.499,2.70501
0.918703,-0.492851,2.499,2.70775
0.926814,-0.492851,2.499,2.71051
nan,nan,nan,NaN
nan,nan,nan,NaN
nan,nan,nan,NaN
nan,nan,nan,NaN
nan,nan,nan,NaN
nan,nan,nan,NaN
nan,nan,nan,NaN
nan,nan,nan,NaN
nan,nan,nan,NaN
nan,nan,nan,NaN
nan,nan,nan,NaN
nan,nan,nan,NaN
nan,nan,nan,NaN
nan,nan,nan,NaN
nan,nan,nan,NaN
nan,nan,nan,NaN
nan,nan,nan,NaN
nan,nan,nan,NaN
nan,nan,nan,NaN
nan,nan,nan,NaN
nan,nan,nan,NaN
nan,nan,nan,NaN
nan,nan,nan,NaN
nan,nan,nan,NaN
nan,nan,nan,NaN
1.44318,-0.625185,3.17,3.53872
1.45347,-0.625185,3.17,3.54293
1.46376,-0.625185,3.17,3.54716
1.47405,-0.625185,3.17,3.55142
1.47076,-0.619465,3.141,3.52317
1.48096,-0.619465,3.141,3.52744
1.49115,-0.619465,3.141,3.53173
1.48749,-0.613746,3.112,3.5034
1.49759,-0.613746,3.112,3.5077
1.50769,-0.613746,3.112,3.51203
1.50413,-0.608224,3.084,3.48474
1.51414,-0.608224,3.084,3.48907
1.52415,-0.608224,3.084,3.49343
1.52073,-0.602899,3.057,3.46718
1.53065,-0.602899,3.057,3.47155
1.54057,-0.602899,3.057,3.47593
1.5368,-0.597574,3.03,3.4496
1.54664,-0.597574,3.03,3.45399
nan,nan,nan,NaN
nan,nan,nan,NaN
nan,nan,nan,NaN
nan,nan,nan,NaN
nan,nan,nan,NaN
nan,nan,nan,NaN
nan,nan,nan,NaN
nan,nan,nan,NaN
1.96542,-0.718272,3.642,4.20035
1.97724,-0.718272,3.642,4.20589
1.98906,-0.718272,3.642,4.21146
2.00088,-0.718272,3.642,4.21706
1.9917,-0.710778,3.604,4.17862
2.0034,-0.710778,3.604,4.18421
2.0151,-0.710778,3.604,4.18982
2.00542,-0.703284,3.566,4.15123
2.017,-0.703284,3.566,4.15683
2.02857,-0.703284,3.566,4.16246
2.04015,-0.703284,3.566,4.16811
2.03043,-0.695987,3.529,4.13048
2.04189,-0.695987,3.529,4.13613
2.05334,-0.695987,3.529,4.14179
2.04373,-0.688887,3.493,4.10517
2.05507,-0.688887,3.493,4.11083
2.0457,-0.681984,3.458,4.07526
2.03611,-0.675081,3.423,4.0396
2.02688,-0.668376,3.389,4.00503
2.03788,-0.668376,3.389,4.01061
2.02893,-0.661868,3.356,3.9771
2.02037,-0.655557,3.324,3.9447
2.03116,-0.655557,3.324,3.95023
2.02229,-0.649246,3.292,3.91771
1.99469,-0.637018,3.23,3.84935
2.00517,-0.637018,3.23,3.85479
1.97821,-0.625185,3.17,3.78855
1.95212,-0.613746,3.112,3.72451
1.96222,-0.613746,3.112,3.72982
1.93746,-0.602899,3.057,3.66913
1.91299,-0.592249,3.003,3.60947
1.92273,-0.592249,3.003,3.61465
1.89902,-0.581994,2.951,3.55716
1.89243,-0.577063,2.926,3.5321
1.90192,-0.577063,2.926,3.5372
1.87941,-0.5674,2.877,3.483
1.85724,-0.557933,2.829,3.42985
1.86642,-0.557933,2.829,3.43483
1.84511,-0.548861,2.783,3.3839
1.83948,-0.544522,2.761,3.36204
1.83371,-0.540183,2.739,3.34012
1.8426,-0.540183,2.739,3.34501
1.83662,-0.535845,2.717,3.32301
1.83118,-0.531703,2.696,3.30217
-2.55363,-0.71402,3.681,4.53659
-2.54168,-0.71402,3.681,4.52987
-2.50293,-0.706455,3.642,4.47526
-2.46512,-0.699084,3.604,4.42203
-2.42755,-0.691712,3.566,4.36896
-2.41598,-0.691712,3.566,4.36254
-2.37946,-0.684536,3.529,4.31095
-2.368,-0.684536,3.529,4.30463
-2.35655,-0.684536,3.529,4.29834
-2.32117,-0.677552,3.493,4.24829
-2.30983,-0.677552,3.493,4.24211
-2.2985,-0.677552,3.493,4.23594
-2.28716,-0.677552,3.493,4.2298
-2.27582,-0.677552,3.493,4.22368
-2.26448,-0.677552,3.493,4.21758
-2.25315,-0.677552,3.493,4.21151
-2.24181,-0.677552,3.493,4.20545
-2.25346,-0.684536,3.529,4.2427
-2.24201,-0.684536,3.529,4.23663
-2.23055,-0.684536,3.529,4.23058
-2.2191,-0.684536,3.529,4.22455
-2.20764,-0.684536,3.529,4.21854
-2.19619,-0.684536,3.529,4.21256
-2.18474,-0.684536,3.529,4.2066
-2.17328,-0.684536,3.529,4.20066
-2.16183,-0.684536,3.529,4.19475
-2.12844,-0.677552,3.493,4.14613
-2.1171,-0.677552,3.493,4.14032
-2.10576,-0.677552,3.493,4.13453
-2.09442,-0.677552,3.493,4.12877
nan,nan,nan,NaN
nan,nan,nan,NaN
nan,nan,nan,NaN
nan,nan,nan,NaN
nan,nan,nan,NaN
nan,nan,nan,NaN
nan,nan,nan,NaN
nan,nan,nan,NaN
nan,nan,nan,NaN
nan,nan,nan,NaN
nan,nan,nan,NaN
nan,nan,nan,NaN
nan,nan,nan,NaN
nan,nan,nan,NaN
nan,nan,nan,NaN
nan,nan,nan,NaN
nan,nan,nan,NaN
nan,nan,nan,NaN
nan,nan,nan,NaN
nan,nan,nan,NaN
nan,nan,nan,NaN
nan,nan,nan,NaN
nan,nan,nan,NaN
nan,nan,nan,NaN
nan,nan,nan,NaN
nan,nan,nan,NaN
nan,nan,nan,NaN
nan,nan,nan,NaN
nan,nan,nan,NaN
nan,nan,nan,NaN
nan,nan,nan,NaN
nan,nan,nan,NaN
nan,nan,nan,NaN
nan,nan,nan,NaN
nan,nan,nan,NaN
nan,nan,nan,NaN
nan,nan,nan,NaN
nan,nan,nan,NaN
nan,nan,nan,NaN
nan,nan,nan,NaN
nan,nan,nan,NaN
nan,nan,nan,NaN
nan,nan,nan,NaN
nan,nan,nan,NaN
nan,nan,nan,NaN
-1.04155,-0.448663,2.313,2.57606
-1.03404,-0.448663,2.313,2.57303
-1.01988,-0.445753,2.298,2.55336
-1.01242,-0.445753,2.298,2.55039
-1.00496,-0.445753,2.298,2.54744
-0.997499,-0.445753,2.298,2.5445
-0.996502,-0.448663,2.313,2.55818
-0.995836,-0.451766,2.329,2.57294
-0.995066,-0.45487,2.345,2.58768
-0.987455,-0.45487,2.345,2.58476
-0.986529,-0.457973,2.361,2.59948
-0.9855,-0.461077,2.377,2.61418
-0.977785,-0.461077,2.377,2.61128
-0.977007,-0.464375,2.394,2.62706
-0.976119,-0.467672,2.411,2.64281
-0.968294,-0.467672,2.411,2.63993
-0.960468,-0.467672,2.411,2.63707
-0.952643,-0.467672,2.411,2.63423
-0.944817,-0.467672,2.411,2.63141
-0.936992,-0.467672,2.411,2.62861
-0.922615,-0.464375,2.394,2.60732
-0.914845,-0.464375,2.394,2.60458
-0.907074,-0.464375,2.394,2.60186
-0.899304,-0.464375,2.394,2.59916
-0.891534,-0.464375,2.394,2.59648
-0.883763,-0.464375,2.394,2.59382
-0.875993,-0.464375,2.394,2.59119
-0.874388,-0.467672,2.411,2.60695
-0.866562,-0.467672,2.411,2.60434
-0.858737,-0.467672,2.411,2.60174
-0.850911,-0.467672,2.411,2.59917
-0.843086,-0.467672,2.411,2.59662
-0.83526,-0.467672,2.411,2.59409
-0.827435,-0.467672,2.411,2.59158
-0.825388,-0.47097,2.428,2.60735
-0.817508,-0.47097,2.428,2.60486
-0.809627,-0.47097,2.428,2.6024
-0.801746,-0.47097,2.428,2.59996
-0.793866,-0.47097,2.428,2.59754
-0.785985,-0.47097,2.428,2.59514
-0.778104,-0.47097,2.428,2.59277
-0.770224,-0.47097,2.428,2.59041
-0.762343,-0.47097,2.428,2.58808
-0.759745,-0.474267,2.445,2.60388
-0.751809,-0.474267,2.445,2.60157
-0.743873,-0.474267,2.445,2.59929
-0.741355,-0.477759,2.463,2.61615
-0.733361,-0.477759,2.463,2.61389
-0.725366,-0.477759,2.463,2.61166
-0.717372,-0.477759,2.463,2.60945
-0.709378,-0.477759,2.463,2.60727
-0.706509,-0.48125,2.481,2.62414
-0.698457,-0.48125,2.481,2.62199
-0.690404,-0.48125,2.481,2.61985
-0.682351,-0.48125,2.481,2.61774
-0.674299,-0.48125,2.481,2.61565
-0.666246,-0.48125,2.481,2.61359
-0.658193,-0.48125,2.481,2.61155
-0.65014,-0.48125,2.481,2.60953
-0.642088,-0.48125,2.481,2.60754
-0.634035,-0.48125,2.481,2.60556
-0.625982,-0.48125,2.481,2.60362
-0.61793,-0.48125,2.481,2.60169
-0.609877,-0.48125,2.481,2.59979
-0.601824,-0.48125,2.481,2.59791
-0.593771,-0.48125,2.481,2.59606
-0.585719,-0.48125,2.481,2.59423
-0.577666,-0.48125,2.481,2.59242
-0.569613,-0.48125,2.481,2.59064
-0.561561,-0.48125,2.481,2.58888
-0.553508,-0.48125,2.481,2.58715
-0.545455,-0.48125,2.481,2.58544
-0.537403,-0.48125,2.481,2.58375
-0.52935,-0.48125,2.481,2.58209
-0.525079,-0.484742,2.499,2.59917
-0.513244,-0.48125,2.481,2.57883
-0.505192,-0.48125,2.481,2.57724
-0.500746,-0.484742,2.499,2.59436
-0.492635,-0.484742,2.499,2.59281
-0.484524,-0.484742,2.499,2.59128
-0.476412,-0.484742,2.499,2.58978
-0.468301,-0.484742,2.499,2.5883
-0.456875,-0.48125,2.481,2.56821
-0.448823,-0.48125,2.481,2.56679
-0.44077,-0.48125,2.481,2.56539
-0.432717,-0.48125,2.481,2.56402
-0.424665,-0.48125,2.481,2.56268
-0.419634,-0.484742,2.499,2.57994
-0.411523,-0.484742,2.499,2.57863
-0.403412,-0.484742,2.499,2.57735
-0.395301,-0.484742,2.499,2.57609
-0.38719,-0.484742,2.499,2.57486
-0.379079,-0.484742,2.499,2.57365
-0.370968,-0.484742,2.499,2.57247
-0.362857,-0.484742,2.499,2.57131
-0.354745,-0.484742,2.499,2.57018
-0.346634,-0.484742,2.499,2.56907
-0.338523,-0.484742,2.499,2.56799
-0.330412,-0.484742,2.499,2.56693
-0.322301,-0.484742,2.499,2.5659
-0.31419,-0.484742,2.499,2.5649
-0.306079,-0.484742,2.499,2.56392
-0.297967,-0.484742,2.499,2.56296
-0.289856,-0.484742,2.499,2.56203
-0.281745,-0.484742,2.499,2.56112
-0.273634,-0.484742,2.499,2.56024
-0.265523,-0.484742,2.499,2.55939
-0.257412,-0.484742,2.499,2.55856
-0.249301,-0.484742,2.499,2.55776
-0.24119,-0.484742,2.499,2.55698
-0.233078,-0.484742,2.499,2.55623
-0.224967,-0.484742,2.499,2.5555
-0.216856,-0.484742,2.499,2.5548
-0.208745,-0.484742,2.499,2.55412
-0.200634,-0.484742,2.499,2.55347
-0.191136,-0.48125,2.481,2.53446
-0.183083,-0.48125,2.481,2.53387
-0.175031,-0.48125,2.481,2.5333
-0.166978,-0.48125,2.481,2.53275
-0.160078,-0.484742,2.499,2.55061
-0.151967,-0.484742,2.499,2.55011
-0.143856,-0.484742,2.499,2.54964
-0.135745,-0.484742,2.499,2.5492
-0.127634,-0.484742,2.499,2.54878
-0.119523,-0.484742,2.499,2.54838
-0.110609,-0.48125,2.481,2.52966
-0.102556,-0.48125,2.481,2.52932
-0.0945035,-0.48125,2.481,2.52901
-0.0864508,-0.48125,2.481,2.52872
-0.078398,-0.48125,2.481,2.52846
-0.0703453,-0.48125,2.481,2.52822
-0.0622926,-0.48125,2.481,2.52801
-0.0542399,-0.48125,2.481,2.52783
-0.0461872,-0.48125,2.481,2.52767
-0.0381345,-0.48125,2.481,2.52753
-0.0298635,-0.477759,2.463,2.50909
-0.0218693,-0.477759,2.463,2.509
-0.013875,-0.477759,2.463,2.50895
-0.00588068,-0.477759,2.463,2.50892
0.0021136,-0.477759,2.463,2.50891
0.0101079,-0.477759,2.463,2.50893
0.0181022,-0.477759,2.463,2.50897
0.0260965,-0.477759,2.463,2.50904
0.0340907,-0.477759,2.463,2.50914
0.042085,-0.477759,2.463,2.50926
0.0497133,-0.474267,2.445,2.49107
0.0576492,-0.474267,2.445,2.49124
0.0655851,-0.474267,2.445,2.49144
0.0735209,-0.474267,2.445,2.49166
0.0820565,-0.477759,2.463,2.51025
0.0900507,-0.477759,2.463,2.51052
0.098045,-0.477759,2.463,2.51082
0.106039,-0.477759,2.463,2.51115
0.114034,-0.477759,2.463,2.5115
0.122028,-0.477759,2.463,2.51187
0.130972,-0.48125,2.481,2.53064
0.139025,-0.48125,2.481,2.53107
0.147078,-0.48125,2.481,2.53152
0.155131,-0.48125,2.481,2.532
0.163183,-0.48125,2.481,2.53251
0.171236,-0.48125,2.481,2.53304
0.179289,-0.48125,2.481,2.5336
0.187341,-0.48125,2.481,2.53418
0.195394,-0.48125,2.481,2.53479
0.203447,-0.48125,2.481,2.53542
0.2115,-0.48125,2.481,2.53608
0.219552,-0.48125,2.481,2.53676
0.227605,-0.48125,2.481,2.53747
0.237367,-0.484742,2.499,2.55662
0.245479,-0.484742,2.499,2.55739
0.25359,-0.484742,2.499,2.55818
0.263586,-0.488233,2.517,2.57743
0.271755,-0.488233,2.517,2.57828
0.279925,-0.488233,2.517,2.57915
0.286034,-0.484742,2.499,2.5616
0.294145,-0.484742,2.499,2.56252
0.302256,-0.484742,2.499,2.56346
0.310368,-0.484742,2.499,2.56443
0.318479,-0.484742,2.499,2.56542
0.328942,-0.488233,2.517,2.58493
0.337112,-0.488233,2.517,2.58598
0.345281,-0.488233,2.517,2.58706
0.353451,-0.488233,2.517,2.58816
0.36162,-0.488233,2.517,2.58929
0.372581,-0.491919,2.536,2.61
0.380813,-0.491919,2.536,2.61119
0.386129,-0.488233,2.517,2.59283
0.394299,-0.488233,2.517,2.59406
0.402468,-0.488233,2.517,2.59531
0.410638,-0.488233,2.517,2.59659
0.418807,-0.488233,2.517,2.5979
0.4302,-0.491919,2.536,2.61885
0.438431,-0.491919,2.536,2.62021
0.446662,-0.491919,2.536,2.6216
0.458302,-0.495604,2.555,2.64267
0.466595,-0.495604,2.555,2.64412
0.474888,-0.495604,2.555,2.64559
0.48318,-0.495604,2.555,2.6471
0.491473,-0.495604,2.555,2.64862
0.499766,-0.495604,2.555,2.65017
0.508059,-0.495604,2.555,2.65175
0.516352,-0.495604,2.555,2.65335
0.528546,-0.49929,2.574,2.67472
0.536901,-0.49929,2.574,2.67638
0.545256,-0.49929,2.574,2.67807
0.55361,-0.49929,2.574,2.67979
0.561965,-0.49929,2.574,2.68152
0.570319,-0.49929,2.574,2.68329
0.578674,-0.49929,2.574,2.68508
0.587028,-0.49929,2.574,2.68689
0.599778,-0.502975,2.593,2.70857
0.608194,-0.502975,2.593,2.71045
0.61661,-0.502975,2.593,2.71235
0.625027,-0.502975,2.593,2.71428
0.633443,-0.502975,2.593,2.71623
0.641859,-0.502975,2.593,2.7182
0.650275,-0.502975,2.593,2.7202
0.658691,-0.502975,2.593,2.72222
0.667108,-0.502975,2.593,2.72427
0.675524,-0.502975,2.593,2.72635
0.68394,-0.502975,2.593,2.72844
0.692356,-0.502975,2.593,2.73057
0.700773,-0.502975,2.593,2.73271
0.709189,-0.502975,2.593,2.73488
0.712347,-0.49929,2.574,2.71702
0.720701,-0.49929,2.574,2.71922
0.729056,-0.49929,2.574,2.72145
0.737411,-0.49929,2.574,2.7237
0.745765,-0.49929,2.574,2.72597
0.75412,-0.49929,2.574,2.72827
0.762474,-0.49929,2.574,2.73059
0.770829,-0.49929,2.574,2.73294
0.779183,-0.49929,2.574,2.73531
0.781725,-0.495604,2.555,2.71749
0.790018,-0.495604,2.555,2.71989
0.798311,-0.495604,2.555,2.72231
0.806603,-0.495604,2.555,2.72475
0.808836,-0.491919,2.536,2.70693
0.817068,-0.491919,2.536,2.70941
0.825299,-0.491919,2.536,2.7119
0.83353,-0.491919,2.536,2.71442
0.841761,-0.491919,2.536,2.71695
0.849993,-0.491919,2.536,2.71952
0.858224,-0.491919,2.536,2.7221
0.866455,-0.491919,2.536,2.72471
0.868133,-0.488233,2.517,2.7069
0.876303,-0.488233,2.517,2.70953
0.884472,-0.488233,2.517,2.71219
0.892642,-0.488233,2.517,2.71486
0.900811,-0.488233,2.517,2.71756
0.90248,-0.484742,2.499,2.70082
0.910591,-0.484742,2.499,2.70354
0.918703,-0.484742,2.499,2.70629
0.926814,-0.484742,2.499,2.70905
nan,nan,nan,NaN
nan,nan,nan,NaN
nan,nan,nan,NaN
nan,nan,nan,NaN
nan,nan,nan,NaN
nan,nan,nan,NaN
nan,nan,nan,NaN
nan,nan,nan,NaN
nan,nan,nan,NaN
nan,nan,nan,NaN
nan,nan,nan,NaN
nan,nan,nan,NaN
nan,nan,nan,NaN
nan,nan,nan,NaN
nan,nan,nan,NaN
nan,nan,nan,NaN
nan,nan,nan,NaN
nan,nan,nan,NaN
nan,nan,nan,NaN
nan,nan,nan,NaN
nan,nan,nan,NaN
nan,nan,nan,NaN
nan,nan,nan,NaN
1.40959,-0.609273,3.141,3.49629
1.41979,-0.609273,3.141,3.50041
1.42998,-0.609273,3.141,3.50456
1.44018,-0.609273,3.141,3.50873
1.46376,-0.614899,3.17,3.54536
1.46057,-0.609273,3.141,3.51715
1.45718,-0.603648,3.112,3.48888
1.46728,-0.603648,3.112,3.49312
1.47738,-0.603648,3.112,3.49737
1.4741,-0.598217,3.084,3.47014
1.48411,-0.598217,3.084,3.47441
1.48104,-0.59298,3.057,3.44824
1.49096,-0.59298,3.057,3.45251
1.48763,-0.587742,3.03,3.42628
1.49746,-0.587742,3.03,3.43056
1.49387,-0.582505,3.003,3.40426
1.50361,-0.582505,3.003,3.40854
1.51336,-0.582505,3.003,3.41286
1.50992,-0.577462,2.977,3.3876
1.51958,-0.577462,2.977,3.39192
nan,nan,nan,NaN
nan,nan,nan,NaN
nan,nan,nan,NaN
nan,nan,nan,NaN
nan,nan,nan,NaN
nan,nan,nan,NaN
nan,nan,nan,NaN
nan,nan,nan,NaN
1.94491,-0.699084,3.604,4.15454
1.95661,-0.699084,3.604,4.16003
1.9683,-0.699084,3.604,4.16554
1.98,-0.699084,3.604,4.17108
1.9707,-0.691712,3.566,4.13261
1.98227,-0.691712,3.566,4.13814
1.99385,-0.691712,3.566,4.1437
1.98461,-0.684536,3.529,4.10623
1.99607,-0.684536,3.529,4.11178
2.00752,-0.684536,3.529,4.11735
2.01898,-0.684536,3.529,4.12295
2.03043,-0.684536,3.529,4.12857
2.04189,-0.684536,3.529,4.13421
2.03239,-0.677552,3.493,4.09765
2.04373,-0.677552,3.493,4.10329
2.05507,-0.677552,3.493,4.10895
2.0457,-0.670763,3.458,4.0734
2.03611,-0.663974,3.423,4.03776
2.02688,-0.657379,3.389,4.00321
2.03788,-0.657379,3.389,4.00879
2.02893,-0.650978,3.356,3.97531
2.00092,-0.638564,3.292,3.90496
2.01161,-0.638564,3.292,3.91045
2.02229,-0.638564,3.292,3.91595
1.99469,-0.626537,3.23,3.84763
2.00517,-0.626537,3.23,3.85307
1.97821,-0.614899,3.17,3.78686
1.93456,-0.598217,3.084,3.68937
1.94457,-0.598217,3.084,3.69463
1.95458,-0.598217,3.084,3.6999
1.89642,-0.577462,2.977,3.57665
1.90609,-0.577462,2.977,3.58178
1.88293,-0.567569,2.926,3.52548
1.87626,-0.56272,2.901,3.5004
1.88567,-0.56272,2.901,3.50546
1.86373,-0.553409,2.853,3.45245
1.85724,-0.548753,2.829,3.42837
1.86642,-0.548753,2.829,3.43335
1.84511,-0.539831,2.783,3.38244
1.82482,-0.531296,2.739,3.33382
1.81899,-0.527028,2.717,3.31188
1.8278,-0.527028,2.717,3.31673
1.82243,-0.522955,2.696,3.29593
1.83118,-0.522955,2.696,3.30077
-2.55363,-0.702075,3.681,4.53472
-2.54168,-0.702075,3.681,4.528
-2.50293,-0.694637,3.642,4.47341
-2.46512,-0.687389,3.604,4.4202
-2.45342,-0.687389,3.604,4.41368
-2.44172,-0.687389,3.604,4.40719
-2.4044,-0.680141,3.566,4.35432
-2.368,-0.673084,3.529,4.30283
-2.35655,-0.673084,3.529,4.29653
-2.32117,-0.666218,3.493,4.2465
-2.30983,-0.666218,3.493,4.24031
-2.2985,-0.666218,3.493,4.23415
-2.28716,-0.666218,3.493,4.228
-2.27582,-0.666218,3.493,4.22188
-2.26448,-0.666218,3.493,4.21578
-2.25315,-0.666218,3.493,4.2097
-2.24181,-0.666218,3.493,4.20364
-2.25346,-0.673084,3.529,4.24087
-2.24201,-0.673084,3.529,4.23479
-2.23055,-0.673084,3.529,4.22874
-2.2191,-0.673084,3.529,4.22271
-2.23079,-0.680141,3.566,4.26091
-2.19619,-0.673084,3.529,4.21072
-2.18474,-0.673084,3.529,4.20475
-2.17328,-0.673084,3.529,4.19881
-2.16183,-0.673084,3.529,4.1929
-2.15037,-0.673084,3.529,4.187
-2.16134,-0.680141,3.566,4.22497
-2.14977,-0.680141,3.566,4.21906
-2.13819,-0.680141,3.566,4.21317
nan,nan,nan,NaN
nan,nan,nan,NaN
nan,nan,nan,NaN
nan,nan,nan,NaN
nan,nan,nan,NaN
nan,nan,nan,NaN
nan,nan,nan,NaN
nan,nan,nan,NaN
nan,nan,nan,NaN
nan,nan,nan,NaN
nan,nan,nan,NaN
nan,nan,nan,NaN
nan,nan,nan,NaN
nan,nan,nan,NaN
nan,nan,nan,NaN
nan,nan,nan,NaN
nan,nan,nan,NaN
nan,nan,nan,NaN
nan,nan,nan,NaN
nan,nan,nan,NaN
nan,nan,nan,NaN
nan,nan,nan,NaN
nan,nan,nan,NaN
nan,nan,nan,NaN
nan,nan,nan,NaN
nan,nan,nan,NaN
nan,nan,nan,NaN
nan,nan,nan,NaN
nan,nan,nan,NaN
nan,nan,nan,NaN
nan,nan,nan,NaN
nan,nan,nan,NaN
nan,nan,nan,NaN
nan,nan,nan,NaN
nan,nan,nan,NaN
nan,nan,nan,NaN
nan,nan,nan,NaN
nan,nan,nan,NaN
nan,nan,nan,NaN
nan,nan,nan,NaN
-1.07908,-0.441157,2.313,2.59018
-1.07158,-0.441157,2.313,2.58706
-1.06407,-0.441157,2.313,2.58396
-1.05656,-0.441157,2.313,2.58087
-1.04225,-0.438296,2.298,2.56109
-1.03479,-0.438296,2.298,2.55807
-1.02733,-0.438296,2.298,2.55506
-1.01988,-0.438296,2.298,2.55207
-1.01242,-0.438296,2.298,2.5491
-1.00496,-0.438296,2.298,2.54614
-0.997499,-0.438296,2.298,2.54321
-0.996502,-0.441157,2.313,2.55687
-0.995836,-0.444209,2.329,2.57162
-0.995066,-0.447261,2.345,2.58635
-0.987455,-0.447261,2.345,2.58343
-0.979844,-0.447261,2.345,2.58053
-0.978866,-0.450312,2.361,2.59524
-0.971203,-0.450312,2.361,2.59236
-0.96354,-0.450312,2.361,2.5895
-0.955876,-0.450312,2.361,2.58666
-0.948213,-0.450312,2.361,2.58384
-0.946924,-0.453364,2.377,2.59853
-0.939209,-0.453364,2.377,2.59572
-0.931494,-0.453364,2.377,2.59294
-0.923778,-0.453364,2.377,2.59018
-0.916063,-0.453364,2.377,2.58744
-0.908348,-0.453364,2.377,2.58472
-0.900633,-0.453364,2.377,2.58202
-0.892918,-0.453364,2.377,2.57934
-0.885203,-0.453364,2.377,2.57667
-0.877488,-0.453364,2.377,2.57403
-0.869772,-0.453364,2.377,2.57141
-0.862057,-0.453364,2.377,2.56882
-0.854342,-0.453364,2.377,2.56624
-0.846627,-0.453364,2.377,2.56368
-0.844912,-0.456606,2.394,2.57946
-0.837141,-0.456606,2.394,2.57692
-0.829371,-0.456606,2.394,2.57441
-0.821601,-0.456606,2.394,2.57192
-0.81383,-0.456606,2.394,2.56944
-0.80606,-0.456606,2.394,2.56699
-0.803958,-0.459849,2.411,2.58278
-0.796133,-0.459849,2.411,2.58035
-0.788307,-0.459849,2.411,2.57795
-0.780482,-0.459849,2.411,2.57556
-0.778104,-0.463091,2.428,2.59135
-0.770224,-0.463091,2.428,2.58899
-0.762343,-0.463091,2.428,2.58666
-0.754462,-0.463091,2.428,2.58435
-0.746581,-0.463091,2.428,2.58206
-0.738701,-0.463091,2.428,2.57979
-0.735937,-0.466334,2.445,2.59559
-0.728001,-0.466334,2.445,2.59335
-0.720065,-0.466334,2.445,2.59114
-0.712129,-0.466334,2.445,2.58894
-0.709378,-0.469767,2.463,2.60581
-0.701384,-0.469767,2.463,2.60365
-0.693389,-0.469767,2.463,2.60151
-0.685395,-0.469767,2.463,2.59939
-0.677401,-0.469767,2.463,2.59729
-0.669406,-0.469767,2.463,2.59522
-0.661412,-0.469767,2.463,2.59317
-0.653418,-0.469767,2.463,2.59114
-0.645424,-0.469767,2.463,2.58914
-0.637429,-0.469767,2.463,2.58715
-0.629435,-0.469767,2.463,2.5852
-0.621441,-0.469767,2.463,2.58326
-0.613446,-0.469767,2.463,2.58135
-0.605452,-0.469767,2.463,2.57946
-0.601824,-0.4732,2.481,2.59643
-0.593771,-0.4732,2.481,2.59458
-0.585719,-0.4732,2.481,2.59275
-0.577666,-0.4732,2.481,2.59094
-0.569613,-0.4732,2.481,2.58916
-0.561561,-0.4732,2.481,2.5874
-0.553508,-0.4732,2.481,2.58566
-0.545455,-0.4732,2.481,2.58395
-0.537403,-0.4732,2.481,2.58226
-0.52935,-0.4732,2.481,2.5806
-0.521297,-0.4732,2.481,2.57896
-0.513244,-0.4732,2.481,2.57734
-0.505192,-0.4732,2.481,2.57575
-0.497139,-0.4732,2.481,2.57418
-0.489086,-0.4732,2.481,2.57264
-0.481034,-0.4732,2.481,2.57112
-0.472981,-0.4732,2.481,2.56963
-0.464928,-0.4732,2.481,2.56816
-0.456875,-0.4732,2.481,2.56671
-0.448823,-0.4732,2.481,2.56529
-0.44077,-0.4732,2.481,2.5639
-0.432717,-0.4732,2.481,2.56252
-0.424665,-0.4732,2.481,2.56118
-0.419634,-0.476633,2.499,2.57842
-0.411523,-0.476633,2.499,2.57712
-0.403412,-0.476633,2.499,2.57583
-0.395301,-0.476633,2.499,2.57458
-0.38719,-0.476633,2.499,2.57334
-0.376348,-0.4732,2.481,2.55361
-0.368296,-0.4732,2.481,2.55243
-0.360243,-0.4732,2.481,2.55129
-0.35219,-0.4732,2.481,2.55016
-0.344137,-0.4732,2.481,2.54906
-0.336085,-0.4732,2.481,2.54799
-0.328032,-0.4732,2.481,2.54694
-0.319979,-0.4732,2.481,2.54591
-0.311927,-0.4732,2.481,2.54491
-0.303874,-0.4732,2.481,2.54394
-0.295821,-0.4732,2.481,2.54299
-0.287769,-0.4732,2.481,2.54206
-0.279716,-0.4732,2.481,2.54117
-0.271663,-0.4732,2.481,2.54029
-0.26361,-0.4732,2.481,2.53944
-0.255558,-0.4732,2.481,2.53862
-0.247505,-0.4732,2.481,2.53782
-0.239452,-0.4732,2.481,2.53705
-0.2314,-0.4732,2.481,2.5363
-0.223347,-0.4732,2.481,2.53558
-0.215294,-0.4732,2.481,2.53488
-0.207241,-0.4732,2.481,2.53421
-0.199189,-0.4732,2.481,2.53357
-0.191136,-0.4732,2.481,2.53295
-0.183083,-0.4732,2.481,2.53235
-0.175031,-0.4732,2.481,2.53178
-0.166978,-0.4732,2.481,2.53124
-0.158925,-0.4732,2.481,2.53072
-0.150872,-0.4732,2.481,2.53023
-0.14282,-0.4732,2.481,2.52976
-0.134767,-0.4732,2.481,2.52932
-0.126714,-0.4732,2.481,2.5289
-0.118662,-0.4732,2.481,2.52851
-0.110609,-0.4732,2.481,2.52814
-0.102556,-0.4732,2.481,2.52781
-0.0945035,-0.4732,2.481,2.52749
-0.0858236,-0.469767,2.463,2.50887
-0.0778293,-0.469767,2.463,2.50861
-0.0703453,-0.4732,2.481,2.5267
-0.0622926,-0.4732,2.481,2.52649
-0.0542399,-0.4732,2.481,2.52631
-0.0461872,-0.4732,2.481,2.52615
-0.0381345,-0.4732,2.481,2.52601
-0.0298635,-0.469767,2.463,2.50758
-0.0218693,-0.469767,2.463,2.50749
-0.013875,-0.469767,2.463,2.50744
-0.00588068,-0.469767,2.463,2.50741
0.0021136,-0.469767,2.463,2.5074
0.0101079,-0.469767,2.463,2.50742
0.0181022,-0.469767,2.463,2.50746
0.0260965,-0.469767,2.463,2.50753
0.0340907,-0.469767,2.463,2.50763
0.042085,-0.469767,2.463,2.50775
0.0497133,-0.466334,2.445,2.48957
0.0576492,-0.466334,2.445,2.48974
0.0655851,-0.466334,2.445,2.48994
0.0735209,-0.466334,2.445,2.49016
0.0820565,-0.469767,2.463,2.50874
0.0900507,-0.469767,2.463,2.50902
0.098045,-0.469767,2.463,2.50932
0.106039,-0.469767,2.463,2.50964
0.114034,-0.469767,2.463,2.50999
0.122028,-0.469767,2.463,2.51037
0.130972,-0.4732,2.481,2.52912
0.139025,-0.4732,2.481,2.52955
0.147078,-0.4732,2.481,2.53
0.155131,-0.4732,2.481,2.53048
0.163183,-0.4732,2.481,2.53099
0.171236,-0.4732,2.481,2.53152
0.179289,-0.4732,2.481,2.53208
0.187341,-0.4732,2.481,2.53266
0.195394,-0.4732,2.481,2.53327
0.203447,-0.4732,2.481,2.5339
0.2115,-0.4732,2.481,2.53456
0.219552,-0.4732,2.481,2.53525
0.227605,-0.4732,2.481,2.53596
0.237367,-0.476633,2.499,2.5551
0.245479,-0.476633,2.499,2.55586
0.25359,-0.476633,2.499,2.55666
0.263586,-0.480066,2.517,2.57589
0.271755,-0.480066,2.517,2.57674
0.279925,-0.480066,2.517,2.57762
0.286034,-0.476633,2.499,2.56008
0.294145,-0.476633,2.499,2.561
0.302256,-0.476633,2.499,2.56194
0.310368,-0.476633,2.499,2.56291
0.318479,-0.476633,2.499,2.56391
0.328942,-0.480066,2.517,2.5834
0.337112,-0.480066,2.517,2.58445
0.345281,-0.480066,2.517,2.58553
0.353451,-0.480066,2.517,2.58664
0.36162,-0.480066,2.517,2.58776
0.372581,-0.48369,2.536,2.60846
0.380813,-0.48369,2.536,2.60965
0.386129,-0.480066,2.517,2.5913
0.394299,-0.480066,2.517,2.59253
0.402468,-0.480066,2.517,2.59379
0.410638,-0.480066,2.517,2.59507
0.418807,-0.480066,2.517,2.59637
0.4302,-0.48369,2.536,2.61731
0.438431,-0.48369,2.536,2.61868
0.446662,-0.48369,2.536,2.62007
0.454894,-0.48369,2.536,2.62148
0.463125,-0.48369,2.536,2.62293
0.471356,-0.48369,2.536,2.62439
0.479587,-0.48369,2.536,2.62588
0.487819,-0.48369,2.536,2.6274
0.49605,-0.48369,2.536,2.62894
0.504281,-0.48369,2.536,2.6305
0.512512,-0.48369,2.536,2.63209
0.524645,-0.487314,2.555,2.65344
0.532938,-0.487314,2.555,2.65509
0.541231,-0.487314,2.555,2.65677
0.549524,-0.487314,2.555,2.65847
0.557817,-0.487314,2.555,2.6602
0.566109,-0.487314,2.555,2.66195
0.574402,-0.487314,2.555,2.66373
0.582695,-0.487314,2.555,2.66553
0.590988,-0.487314,2.555,2.66735
0.603738,-0.490938,2.574,2.68905
0.612092,-0.490938,2.574,2.69094
0.620447,-0.490938,2.574,2.69285
0.628801,-0.490938,2.574,2.69479
0.641859,-0.494562,2.593,2.71666
0.650275,-0.494562,2.593,2.71866
0.658691,-0.494562,2.593,2.72068
0.667108,-0.494562,2.593,2.72273
0.675524,-0.494562,2.593,2.72481
0.68394,-0.494562,2.593,2.72691
0.687283,-0.490938,2.574,2.70903
0.695638,-0.490938,2.574,2.71116
0.703992,-0.490938,2.574,2.71332
0.712347,-0.490938,2.574,2.7155
0.720701,-0.490938,2.574,2.7177
0.729056,-0.490938,2.574,2.71993
0.737411,-0.490938,2.574,2.72218
0.745765,-0.490938,2.574,2.72446
0.75412,-0.490938,2.574,2.72676
0.762474,-0.490938,2.574,2.72908
0.770829,-0.490938,2.574,2.73142
0.773432,-0.487314,2.555,2.71361
0.781725,-0.487314,2.555,2.71599
0.790018,-0.487314,2.555,2.71839
0.798311,-0.487314,2.555,2.72081
0.806603,-0.487314,2.555,2.72325
0.808836,-0.48369,2.536,2.70545
0.817068,-0.48369,2.536,2.70792
0.825299,-0.48369,2.536,2.71042
0.83353,-0.48369,2.536,2.71294
0.841761,-0.48369,2.536,2.71548
0.849993,-0.48369,2.536,2.71804
0.851794,-0.480066,2.517,2.70024
0.859963,-0.480066,2.517,2.70283
0.868133,-0.480066,2.517,2.70544
0.876303,-0.480066,2.517,2.70807
0.884472,-0.480066,2.517,2.71073
0.892642,-0.480066,2.517,2.7134
0.900811,-0.480066,2.517,2.7161
0.90248,-0.476633,2.499,2.69938
0.910591,-0.476633,2.499,2.7021
0.918703,-0.476633,2.499,2.70485
0.926814,-0.476633,2.499,2.70761
0.934925,-0.476633,2.499,2.7104
0.943036,-0.476633,2.499,2.71321
0.951147,-0.476633,2.499,2.71604
nan,nan,nan,NaN
nan,nan,nan,NaN
nan,nan,nan,NaN
nan,nan,nan,NaN
nan,nan,nan,NaN
nan,nan,nan,NaN
nan,nan,nan,NaN
nan,nan,nan,NaN
nan,nan,nan,NaN
nan,nan,nan,NaN
nan,nan,nan,NaN
nan,nan,nan,NaN
nan,nan,nan,NaN
nan,nan,nan,NaN
nan,nan,nan,NaN
nan,nan,nan,NaN
nan,nan,nan,NaN
nan,nan,nan,NaN
nan,nan,nan,NaN
nan,nan,nan,NaN
1.39658,-0.59355,3.112,3.46226
1.40668,-0.59355,3.112,3.46635
1.41678,-0.59355,3.112,3.47046
1.42688,-0.59355,3.112,3.4746
1.43698,-0.59355,3.112,3.47876
1.44708,-0.59355,3.112,3.48294
1.44407,-0.58821,3.084,3.45578
1.45408,-0.58821,3.084,3.45997
1.46409,-0.58821,3.084,3.46419
1.4612,-0.58306,3.057,3.43807
1.47112,-0.58306,3.057,3.4423
1.46796,-0.57791,3.03,3.41611
1.46463,-0.572761,3.003,3.38987
1.47437,-0.572761,3.003,3.39409
1.48412,-0.572761,3.003,3.39833
1.49387,-0.572761,3.003,3.4026
1.4906,-0.567802,2.977,3.3774
1.50026,-0.567802,2.977,3.38167
1.50992,-0.567802,2.977,3.38597
1.51958,-0.567802,2.977,3.39029
1.52925,-0.567802,2.977,3.39463
1.53891,-0.567802,2.977,3.399
nan,nan,nan,NaN
nan,nan,nan,NaN
nan,nan,nan,NaN
nan,nan,nan,NaN
nan,nan,nan,NaN
nan,nan,nan,NaN
1.9244,-0.680141,3.566,4.1088
1.93598,-0.680141,3.566,4.11424
1.94755,-0.680141,3.566,4.1197
1.95913,-0.680141,3.566,4.12518
1.9707,-0.680141,3.566,4.13069
1.98227,-0.680141,3.566,4.13623
1.99385,-0.680141,3.566,4.14178
1.98461,-0.673084,3.529,4.10434
1.99607,-0.673084,3.529,4.10989
2.00752,-0.673084,3.529,4.11546
2.01898,-0.673084,3.529,4.12106
2.00972,-0.666218,3.493,4.08459
2.02106,-0.666218,3.493,4.09018
2.03239,-0.666218,3.493,4.09579
2.04373,-0.666218,3.493,4.10143
2.05507,-0.666218,3.493,4.10709
2.0457,-0.659543,3.458,4.07157
2.03611,-0.652867,3.423,4.03595
2.00714,-0.640088,3.356,3.96246
2.01804,-0.640088,3.356,3.96799
2.00958,-0.633985,3.324,3.93565
2.00092,-0.627882,3.292,3.90323
2.01161,-0.627882,3.292,3.90872
2.02229,-0.627882,3.292,3.91423
1.99469,-0.616056,3.23,3.84593
2.00517,-0.616056,3.23,3.85138
1.96012,-0.599081,3.141,3.75058
1.91762,-0.58306,3.057,3.65547
1.92754,-0.58306,3.057,3.66069
1.93746,-0.58306,3.057,3.66592
1.87986,-0.562843,2.951,3.54388
1.88944,-0.562843,2.951,3.54897
1.88293,-0.558075,2.926,3.52397
1.87626,-0.553306,2.901,3.4989
1.88567,-0.553306,2.901,3.50396
1.86373,-0.544151,2.853,3.45097
1.85724,-0.539574,2.829,3.42691
1.86642,-0.539574,2.829,3.4319
1.84511,-0.5308,2.783,3.38101
1.82482,-0.522408,2.739,3.33242
1.81899,-0.518212,2.717,3.31049
1.8278,-0.518212,2.717,3.31534
1.82243,-0.514207,2.696,3.29455
1.83118,-0.514207,2.696,3.2994
-2.55363,-0.690131,3.681,4.53289
-2.54168,-0.690131,3.681,4.52617
-2.50293,-0.682819,3.642,4.47159
-2.46512,-0.675695,3.604,4.41839
-2.45342,-0.675695,3.604,4.41188
-2.44172,-0.675695,3.604,4.40538
-2.4044,-0.66857,3.566,4.35253
-2.368,-0.661633,3.529,4.30105
-2.35655,-0.661633,3.529,4.29476
-2.32117,-0.654884,3.493,4.24473
-2.30983,-0.654884,3.493,4.23854
-2.2985,-0.654884,3.493,4.23238
-2.28716,-0.654884,3.493,4.22623
-2.27582,-0.654884,3.493,4.22011
-2.26448,-0.654884,3.493,4.214
-2.25315,-0.654884,3.493,4.20792
-2.24181,-0.654884,3.493,4.20186
-2.25346,-0.661633,3.529,4.23907
-2.24201,-0.661633,3.529,4.23299
-2.23055,-0.661633,3.529,4.22693
-2.2191,-0.661633,3.529,4.2209
-2.23079,-0.66857,3.566,4.25908
-2.19619,-0.661633,3.529,4.2089
-2.18474,-0.661633,3.529,4.20294
-2.17328,-0.661633,3.529,4.19699
-2.16183,-0.661633,3.529,4.19107
-2.15037,-0.661633,3.529,4.18518
-2.16134,-0.66857,3.566,4.22312
-2.14977,-0.66857,3.566,4.21721
-2.13819,-0.66857,3.566,4.21132
nan,nan,nan,NaN
nan,nan,nan,NaN
nan,nan,nan,NaN
nan,nan,nan,NaN
nan,nan,nan,NaN
nan,nan,nan,NaN
nan,nan,nan,NaN
nan,nan,nan,NaN
nan,nan,nan,NaN
nan,nan,nan,NaN
nan,nan,nan,NaN
nan,nan,nan,NaN
nan,nan,nan,NaN
nan,nan,nan,NaN
nan,nan,nan,NaN
nan,nan,nan,NaN
nan,nan,nan,NaN
nan,nan,nan,NaN
nan,nan,nan,NaN
nan,nan,nan,NaN
nan,nan,nan,NaN
nan,nan,nan,NaN
nan,nan,nan,NaN
nan,nan,nan,NaN
nan,nan,nan,NaN
nan,nan,nan,NaN
nan,nan,nan,NaN
nan,nan,nan,NaN
nan,nan,nan,NaN
nan,nan,nan,NaN
nan,nan,nan,NaN
nan,nan,nan,NaN
nan,nan,nan,NaN
nan,nan,nan,NaN
nan,nan,nan,NaN
nan,nan,nan,NaN
nan,nan,nan,NaN
nan,nan,nan,NaN
-1.087,-0.43084,2.298,2.57837
-1.07954,-0.43084,2.298,2.57524
-1.07209,-0.43084,2.298,2.57212
-1.07158,-0.433652,2.313,2.58579
-1.06407,-0.433652,2.313,2.58269
-1.05656,-0.433652,2.313,2.5796
-1.04225,-0.43084,2.298,2.55983
-1.03479,-0.43084,2.298,2.5568
-1.02733,-0.43084,2.298,2.55379
-1.01988,-0.43084,2.298,2.5508
-1.01242,-0.43084,2.298,2.54783
-1.01152,-0.433652,2.313,2.56148
-1.00401,-0.433652,2.313,2.55853
-0.996502,-0.433652,2.313,2.55559
-0.995836,-0.436652,2.329,2.57033
-0.988277,-0.436652,2.329,2.56741
-0.980718,-0.436652,2.329,2.56451
-0.979844,-0.439652,2.345,2.57923
-0.972232,-0.439652,2.345,2.57635
-0.964621,-0.439652,2.345,2.57348
-0.95701,-0.439652,2.345,2.57064
-0.955876,-0.442651,2.361,2.58534
-0.948213,-0.442651,2.361,2.58251
-0.934176,-0.439652,2.345,2.56223
-0.926565,-0.439652,2.345,2.55946
-0.925224,-0.442651,2.361,2.57416
-0.911342,-0.439652,2.345,2.55399
-0.903731,-0.439652,2.345,2.55128
-0.89612,-0.439652,2.345,2.5486
-0.888508,-0.439652,2.345,2.54593
-0.880897,-0.439652,2.345,2.54328
-0.879244,-0.442651,2.361,2.55799
-0.871581,-0.442651,2.361,2.55537
-0.863918,-0.442651,2.361,2.55277
-0.856255,-0.442651,2.361,2.55018
-0.848591,-0.442651,2.361,2.54762
-0.846627,-0.445651,2.377,2.56233
-0.838912,-0.445651,2.377,2.55979
-0.831197,-0.445651,2.377,2.55727
-0.823481,-0.445651,2.377,2.55477
-0.815766,-0.445651,2.377,2.55229
-0.81383,-0.448838,2.394,2.56808
-0.80606,-0.448838,2.394,2.56562
-0.79829,-0.448838,2.394,2.56319
-0.790519,-0.448838,2.394,2.56078
-0.782749,-0.448838,2.394,2.5584
-0.780482,-0.452026,2.411,2.57418
-0.772656,-0.452026,2.411,2.57182
-0.764831,-0.452026,2.411,2.56948
-0.757005,-0.452026,2.411,2.56716
-0.74918,-0.452026,2.411,2.56486
-0.746581,-0.455213,2.428,2.58066
-0.738701,-0.455213,2.428,2.57839
-0.73082,-0.455213,2.428,2.57614
-0.722939,-0.455213,2.428,2.57392
-0.715059,-0.455213,2.428,2.57171
-0.707178,-0.455213,2.428,2.56953
-0.704194,-0.4584,2.445,2.58535
-0.696258,-0.4584,2.445,2.5832
-0.688322,-0.4584,2.445,2.58107
-0.680386,-0.4584,2.445,2.57897
-0.67245,-0.4584,2.445,2.57689
-0.664514,-0.4584,2.445,2.57483
-0.656578,-0.4584,2.445,2.57279
-0.648643,-0.4584,2.445,2.57078
-0.640707,-0.4584,2.445,2.56879
-0.632771,-0.4584,2.445,2.56682
-0.624835,-0.4584,2.445,2.56487
-0.621441,-0.461775,2.463,2.58182
-0.613446,-0.461775,2.463,2.57991
-0.605452,-0.461775,2.463,2.57802
-0.597458,-0.461775,2.463,2.57615
-0.589464,-0.461775,2.463,2.57431
-0.581469,-0.461775,2.463,2.57249
-0.577666,-0.465149,2.481,2.58948
-0.569613,-0.465149,2.481,2.5877
-0.561561,-0.465149,2.481,2.58594
-0.553508,-0.465149,2.481,2.5842
-0.545455,-0.465149,2.481,2.58249
-0.537403,-0.465149,2.481,2.5808
-0.52935,-0.465149,2.481,2.57913
-0.521297,-0.465149,2.481,2.57749
-0.513244,-0.465149,2.481,2.57588
-0.505192,-0.465149,2.481,2.57429
-0.497139,-0.465149,2.481,2.57272
-0.489086,-0.465149,2.481,2.57117
-0.481034,-0.465149,2.481,2.56965
-0.472981,-0.465149,2.481,2.56816
-0.464928,-0.465149,2.481,2.56669
-0.456875,-0.465149,2.481,2.56524
-0.448823,-0.465149,2.481,2.56382
-0.44077,-0.465149,2.481,2.56242
-0.432717,-0.465149,2.481,2.56105
-0.424665,-0.465149,2.481,2.5597
-0.419634,-0.468524,2.499,2.57694
-0.411523,-0.468524,2.499,2.57563
-0.403412,-0.468524,2.499,2.57435
-0.395301,-0.468524,2.499,2.57309
-0.38719,-0.468524,2.499,2.57185
-0.376348,-0.465149,2.481,2.55213
-0.368296,-0.465149,2.481,2.55095
-0.360243,-0.465149,2.481,2.5498
-0.35219,-0.465149,2.481,2.54868
-0.344137,-0.465149,2.481,2.54758
-0.336085,-0.465149,2.481,2.5465
-0.328032,-0.465149,2.481,2.54545
-0.319979,-0.465149,2.481,2.54443
-0.311927,-0.465149,2.481,2.54343
-0.303874,-0.465149,2.481,2.54245
-0.295821,-0.465149,2.481,2.5415
-0.287769,-0.465149,2.481,2.54058
-0.279716,-0.465149,2.481,2.53968
-0.271663,-0.465149,2.481,2.5388
-0.26361,-0.465149,2.481,2.53796
-0.255558,-0.465149,2.481,2.53713
-0.247505,-0.465149,2.481,2.53633
-0.239452,-0.465149,2.481,2.53556
-0.2314,-0.465149,2.481,2.53481
-0.223347,-0.465149,2.481,2.53409
-0.215294,-0.465149,2.481,2.53339
-0.207241,-0.465149,2.481,2.53272
-0.199189,-0.465149,2.481,2.53207
-0.191136,-0.465149,2.481,2.53145
-0.183083,-0.465149,2.481,2.53086
-0.175031,-0.465149,2.481,2.53029
-0.166978,-0.465149,2.481,2.52974
-0.158925,-0.465149,2.481,2.52923
-0.150872,-0.465149,2.481,2.52873
-0.14282,-0.465149,2.481,2.52826
-0.134767,-0.465149,2.481,2.52782
-0.126714,-0.465149,2.481,2.52741
-0.118662,-0.465149,2.481,2.52702
-0.110609,-0.465149,2.481,2.52665
-0.102556,-0.465149,2.481,2.52631
-0.0945035,-0.465149,2.481,2.526
-0.0858236,-0.461775,2.463,2.50738
-0.0778293,-0.461775,2.463,2.50712
-0.069835,-0.461775,2.463,2.50689
-0.0618407,-0.461775,2.463,2.50668
-0.0538464,-0.461775,2.463,2.50649
-0.0458521,-0.461775,2.463,2.50633
-0.0378578,-0.461775,2.463,2.5062
-0.0298635,-0.461775,2.463,2.50609
-0.0218693,-0.461775,2.463,2.50601
-0.013875,-0.461775,2.463,2.50595
-0.00583771,-0.4584,2.445,2.48761
0.00209816,-0.4584,2.445,2.4876
0.010034,-0.4584,2.445,2.48762
0.0179699,-0.4584,2.445,2.48767
0.0259057,-0.4584,2.445,2.48774
0.0338416,-0.4584,2.445,2.48783
0.0417775,-0.4584,2.445,2.48795
0.0497133,-0.4584,2.445,2.4881
0.0576492,-0.4584,2.445,2.48827
0.0655851,-0.4584,2.445,2.48847
0.0735209,-0.4584,2.445,2.48869
0.0814568,-0.4584,2.445,2.48893
0.0893926,-0.4584,2.445,2.48921
0.0973285,-0.4584,2.445,2.4895
0.105264,-0.4584,2.445,2.48983
0.114034,-0.461775,2.463,2.50851
0.122028,-0.461775,2.463,2.50888
0.130022,-0.461775,2.463,2.50928
0.138016,-0.461775,2.463,2.50971
0.146011,-0.461775,2.463,2.51016
0.154005,-0.461775,2.463,2.51064
0.161999,-0.461775,2.463,2.51114
0.169994,-0.461775,2.463,2.51167
0.179289,-0.465149,2.481,2.53059
0.187341,-0.465149,2.481,2.53117
0.195394,-0.465149,2.481,2.53178
0.203447,-0.465149,2.481,2.53241
0.2115,-0.465149,2.481,2.53307
0.219552,-0.465149,2.481,2.53376
0.227605,-0.465149,2.481,2.53447
0.235658,-0.465149,2.481,2.5352
0.24371,-0.465149,2.481,2.53597
0.251763,-0.465149,2.481,2.53675
0.259816,-0.465149,2.481,2.53756
0.267868,-0.465149,2.481,2.5384
0.275921,-0.465149,2.481,2.53926
0.283974,-0.465149,2.481,2.54015
0.292027,-0.465149,2.481,2.54106
0.302256,-0.468524,2.499,2.56044
0.310368,-0.468524,2.499,2.56141
0.318479,-0.468524,2.499,2.56241
0.32659,-0.468524,2.499,2.56343
0.334701,-0.468524,2.499,2.56448
0.345281,-0.471899,2.517,2.58403
0.353451,-0.471899,2.517,2.58513
0.36162,-0.471899,2.517,2.58626
0.36979,-0.471899,2.517,2.58742
0.37796,-0.471899,2.517,2.5886
0.386129,-0.471899,2.517,2.5898
0.394299,-0.471899,2.517,2.59103
0.402468,-0.471899,2.517,2.59229
0.410638,-0.471899,2.517,2.59357
0.418807,-0.471899,2.517,2.59488
0.426977,-0.471899,2.517,2.59621
0.435146,-0.471899,2.517,2.59756
0.443316,-0.471899,2.517,2.59894
0.454894,-0.475461,2.536,2.61998
0.463125,-0.475461,2.536,2.62142
0.471356,-0.475461,2.536,2.62289
0.479587,-0.475461,2.536,2.62438
0.484164,-0.471899,2.517,2.60622
0.492333,-0.471899,2.517,2.60775
0.500503,-0.471899,2.517,2.60931
0.508672,-0.471899,2.517,2.61089
0.520743,-0.475461,2.536,2.63221
0.528975,-0.475461,2.536,2.63385
0.537206,-0.475461,2.536,2.63552
0.545437,-0.475461,2.536,2.63721
0.553668,-0.475461,2.536,2.63892
0.5619,-0.475461,2.536,2.64066
0.574402,-0.479023,2.555,2.66222
0.582695,-0.479023,2.555,2.66402
0.590988,-0.479023,2.555,2.66585
0.599281,-0.479023,2.555,2.6677
0.607574,-0.479023,2.555,2.66958
0.615867,-0.479023,2.555,2.67148
0.62416,-0.479023,2.555,2.6734
0.632453,-0.479023,2.555,2.67535
0.640746,-0.479023,2.555,2.67732
0.649038,-0.479023,2.555,2.67932
0.657331,-0.479023,2.555,2.68134
0.665624,-0.479023,2.555,2.68338
0.678929,-0.482586,2.574,2.70542
0.687283,-0.482586,2.574,2.70753
0.695638,-0.482586,2.574,2.70966
0.703992,-0.482586,2.574,2.71182
0.712347,-0.482586,2.574,2.714
0.720701,-0.482586,2.574,2.71621
0.729056,-0.482586,2.574,2.71843
0.731967,-0.479023,2.555,2.7006
0.74026,-0.479023,2.555,2.70286
0.748553,-0.479023,2.555,2.70515
0.756846,-0.479023,2.555,2.70745
0.765139,-0.479023,2.555,2.70978
0.773432,-0.479023,2.555,2.71214
0.781725,-0.479023,2.555,2.71451
0.790018,-0.479023,2.555,2.71691
0.798311,-0.479023,2.555,2.71934
0.800605,-0.475461,2.536,2.70154
0.808836,-0.475461,2.536,2.70399
0.817068,-0.475461,2.536,2.70647
0.825299,-0.475461,2.536,2.70896
0.83353,-0.475461,2.536,2.71148
0.841761,-0.475461,2.536,2.71402
0.843624,-0.471899,2.517,2.69623
0.851794,-0.471899,2.517,2.6988
0.859963,-0.471899,2.517,2.70139
0.868133,-0.471899,2.517,2.704
0.876303,-0.471899,2.517,2.70664
0.884472,-0.471899,2.517,2.70929
0.892642,-0.471899,2.517,2.71197
0.900811,-0.471899,2.517,2.71467
0.908981,-0.471899,2.517,2.71739
0.91715,-0.471899,2.517,2.72014
0.92532,-0.471899,2.517,2.7229
0.926814,-0.468524,2.499,2.7062
0.934925,-0.468524,2.499,2.70899
0.943036,-0.468524,2.499,2.7118
0.951147,-0.468524,2.499,2.71463
0.959258,-0.468524,2.499,2.71748
0.967369,-0.468524,2.499,2.72035
0.982507,-0.471899,2.517,2.74286
nan,nan,nan,NaN
nan,nan,nan,NaN
nan,nan,nan,NaN
nan,nan,nan,NaN
nan,nan,nan,NaN
nan,nan,nan,NaN
nan,nan,nan,NaN
nan,nan,nan,NaN
nan,nan,nan,NaN
nan,nan,nan,NaN
nan,nan,nan,NaN
nan,nan,nan,NaN
nan,nan,nan,NaN
nan,nan,nan,NaN
nan,nan,nan,NaN
nan,nan,nan,NaN
nan,nan,nan,NaN
1.39658,-0.583452,3.112,3.46055
1.40668,-0.583452,3.112,3.46464
1.41678,-0.583452,3.112,3.46875
1.42688,-0.583452,3.112,3.47289
1.43698,-0.583452,3.112,3.47705
1.44708,-0.583452,3.112,3.48124
1.44407,-0.578203,3.084,3.45409
1.45408,-0.578203,3.084,3.45828
1.46409,-0.578203,3.084,3.4625
1.4612,-0.573141,3.057,3.4364
1.47112,-0.573141,3.057,3.44063
1.46796,-0.568079,3.03,3.41446
1.46463,-0.563016,3.003,3.38823
1.47437,-0.563016,3.003,3.39246
1.48412,-0.563016,3.003,3.39671
1.49387,-0.563016,3.003,3.40098
1.4906,-0.558142,2.977,3.37579
1.50026,-0.558142,2.977,3.38006
1.50992,-0.558142,2.977,3.38436
1.51958,-0.558142,2.977,3.38868
1.52925,-0.558142,2.977,3.39303
1.53891,-0.558142,2.977,3.39739
nan,nan,nan,NaN
nan,nan,nan,NaN
nan,nan,nan,NaN
nan,nan,nan,NaN
nan,nan,nan,NaN
nan,nan,nan,NaN
1.9244,-0.66857,3.566,4.1069
1.93598,-0.66857,3.566,4.11234
1.94755,-0.66857,3.566,4.1178
1.95913,-0.66857,3.566,4.12329
1.9707,-0.66857,3.566,4.1288
1.98227,-0.66857,3.566,4.13434
1.99385,-0.66857,3.566,4.1399
1.98461,-0.661633,3.529,4.10247
1.99607,-0.661633,3.529,4.10803
2.00752,-0.661633,3.529,4.11361
2.01898,-0.661633,3.529,4.11921
2.00972,-0.654884,3.493,4.08276
2.02106,-0.654884,3.493,4.08835
2.03239,-0.654884,3.493,4.09397
2.04373,-0.654884,3.493,4.09961
2.05507,-0.654884,3.493,4.10527
2.0457,-0.648322,3.458,4.06976
2.03611,-0.64176,3.423,4.03417
2.00714,-0.629199,3.356,3.96071
2.01804,-0.629199,3.356,3.96625
2.00958,-0.623199,3.324,3.93393
2.02037,-0.623199,3.324,3.93945
2.03116,-0.623199,3.324,3.94499
2.02229,-0.6172,3.292,3.91253
1.99469,-0.605576,3.23,3.84427
2.00517,-0.605576,3.23,3.84972
1.96012,-0.588889,3.141,3.74896
1.91762,-0.573141,3.057,3.6539
1.92754,-0.573141,3.057,3.65912
1.93746,-0.573141,3.057,3.66436
1.87986,-0.553267,2.951,3.54237
1.88944,-0.553267,2.951,3.54746
1.88293,-0.54858,2.926,3.52248
1.86074,-0.539393,2.877,3.46849
1.87007,-0.539393,2.877,3.47351
1.84806,-0.530394,2.829,3.42051
1.84214,-0.526082,2.806,3.39763
1.85125,-0.526082,2.806,3.40257
1.83052,-0.517645,2.761,3.35289
1.82482,-0.513521,2.739,3.33104
1.81899,-0.509396,2.717,3.30912
1.8278,-0.509396,2.717,3.31398
1.82243,-0.505459,2.696,3.2932
1.81691,-0.501521,2.675,3.27236
-2.58138,-0.685556,3.721,4.58032
-2.5693,-0.685556,3.721,4.57353
-2.52974,-0.678187,3.681,4.51766
-2.49111,-0.671001,3.642,4.46319
-2.45342,-0.664,3.604,4.4101
-2.44172,-0.664,3.604,4.4036
-2.4044,-0.656999,3.566,4.35077
-2.368,-0.650182,3.529,4.2993
-2.35655,-0.650182,3.529,4.29301
-2.34509,-0.650182,3.529,4.28673
-2.30983,-0.64355,3.493,4.23681
-2.2985,-0.64355,3.493,4.23064
-2.28716,-0.64355,3.493,4.22449
-2.27582,-0.64355,3.493,4.21836
-2.26448,-0.64355,3.493,4.21226
-2.25315,-0.64355,3.493,4.20617
-2.24181,-0.64355,3.493,4.20011
-2.25346,-0.650182,3.529,4.23729
-2.24201,-0.650182,3.529,4.23121
-2.23055,-0.650182,3.529,4.22516
-2.24236,-0.656999,3.566,4.26336
-2.23079,-0.656999,3.566,4.25728
-2.21922,-0.656999,3.566,4.25123
-2.20764,-0.656999,3.566,4.2452
-2.19607,-0.656999,3.566,4.23919
-2.18449,-0.656999,3.566,4.2332
-2.17292,-0.656999,3.566,4.22724
-2.16134,-0.656999,3.566,4.2213
nan,nan,nan,NaN
nan,nan,nan,NaN
nan,nan,nan,NaN
nan,nan,nan,NaN
nan,nan,nan,NaN
nan,nan,nan,NaN
nan,nan,nan,NaN
nan,nan,nan,NaN
nan,nan,nan,NaN
nan,nan,nan,NaN
nan,nan,nan,NaN
nan,nan,nan,NaN
nan,nan,nan,NaN
nan,nan,nan,NaN
nan,nan,nan,NaN
nan,nan,nan,NaN
nan,nan,nan,NaN
nan,nan,nan,NaN
nan,nan,nan,NaN
nan,nan,nan,NaN
nan,nan,nan,NaN
nan,nan,nan,NaN
nan,nan,nan,NaN
nan,nan,nan,NaN
nan,nan,nan,NaN
nan,nan,nan,NaN
nan,nan,nan,NaN
nan,nan,nan,NaN
nan,nan,nan,NaN
nan,nan,nan,NaN
nan,nan,nan,NaN
nan,nan,nan,NaN
nan,nan,nan,NaN
nan,nan,nan,NaN
nan,nan,nan,NaN
nan,nan,nan,NaN
nan,nan,nan,NaN
-1.11662,-0.426147,2.313,2.60354
-1.10911,-0.426147,2.313,2.60033
-1.09446,-0.423383,2.298,2.58029
-1.087,-0.423383,2.298,2.57714
-1.07954,-0.423383,2.298,2.574
-1.07209,-0.423383,2.298,2.57088
-1.07158,-0.426147,2.313,2.58454
-1.06407,-0.426147,2.313,2.58144
-1.05656,-0.426147,2.313,2.57835
-1.04225,-0.423383,2.298,2.55858
-1.03479,-0.423383,2.298,2.55555
-1.03404,-0.426147,2.313,2.5692
-1.02653,-0.426147,2.313,2.56619
-1.01902,-0.426147,2.313,2.5632
-1.01152,-0.426147,2.313,2.56022
-1.00401,-0.426147,2.313,2.55727
-0.996502,-0.426147,2.313,2.55433
-0.995836,-0.429095,2.329,2.56906
-0.988277,-0.429095,2.329,2.56614
-0.980718,-0.429095,2.329,2.56323
-0.979844,-0.432042,2.345,2.57794
-0.972232,-0.432042,2.345,2.57506
-0.964621,-0.432042,2.345,2.57219
-0.95701,-0.432042,2.345,2.56935
-0.955876,-0.43499,2.361,2.58404
-0.948213,-0.43499,2.361,2.58121
-0.934176,-0.432042,2.345,2.56093
-0.926565,-0.432042,2.345,2.55817
-0.925224,-0.43499,2.361,2.57285
-0.911342,-0.432042,2.345,2.55269
-0.903731,-0.432042,2.345,2.54998
-0.89612,-0.432042,2.345,2.5473
-0.888508,-0.432042,2.345,2.54463
-0.880897,-0.432042,2.345,2.54198
-0.879244,-0.43499,2.361,2.55668
-0.871581,-0.43499,2.361,2.55405
-0.863918,-0.43499,2.361,2.55145
-0.856255,-0.43499,2.361,2.54886
-0.848591,-0.43499,2.361,2.5463
-0.846627,-0.437938,2.377,2.561
-0.838912,-0.437938,2.377,2.55845
-0.831197,-0.437938,2.377,2.55594
-0.823481,-0.437938,2.377,2.55344
-0.815766,-0.437938,2.377,2.55096
-0.81383,-0.44107,2.394,2.56673
-0.80606,-0.44107,2.394,2.56428
-0.79829,-0.44107,2.394,2.56184
-0.790519,-0.44107,2.394,2.55943
-0.782749,-0.44107,2.394,2.55704
-0.780482,-0.444202,2.411,2.57282
-0.772656,-0.444202,2.411,2.57045
-0.764831,-0.444202,2.411,2.56811
-0.757005,-0.444202,2.411,2.56579
-0.74918,-0.444202,2.411,2.5635
-0.746581,-0.447334,2.428,2.57928
-0.738701,-0.447334,2.428,2.57701
-0.73082,-0.447334,2.428,2.57476
-0.722939,-0.447334,2.428,2.57253
-0.715059,-0.447334,2.428,2.57033
-0.707178,-0.447334,2.428,2.56815
-0.704194,-0.450466,2.445,2.58396
-0.696258,-0.450466,2.445,2.58181
-0.688322,-0.450466,2.445,2.57968
-0.680386,-0.450466,2.445,2.57757
-0.67245,-0.450466,2.445,2.57549
-0.664514,-0.450466,2.445,2.57343
-0.656578,-0.450466,2.445,2.57139
-0.648643,-0.450466,2.445,2.56937
-0.640707,-0.450466,2.445,2.56738
-0.632771,-0.450466,2.445,2.56541
-0.624835,-0.450466,2.445,2.56347
-0.621441,-0.453783,2.463,2.5804
-0.613446,-0.453783,2.463,2.57849
-0.605452,-0.453783,2.463,2.5766
-0.597458,-0.453783,2.463,2.57473
-0.589464,-0.453783,2.463,2.57289
-0.581469,-0.453783,2.463,2.57107
-0.577666,-0.457099,2.481,2.58805
-0.569613,-0.457099,2.481,2.58626
-0.561561,-0.457099,2.481,2.5845
-0.553508,-0.457099,2.481,2.58276
-0.545455,-0.457099,2.481,2.58105
-0.537403,-0.457099,2.481,2.57936
-0.52935,-0.457099,2.481,2.5777
-0.521297,-0.457099,2.481,2.57605
-0.509521,-0.453783,2.463,2.55576
-0.501526,-0.453783,2.463,2.55418
-0.497139,-0.457099,2.481,2.57127
-0.489086,-0.457099,2.481,2.56973
-0.481034,-0.457099,2.481,2.56821
-0.472981,-0.457099,2.481,2.56671
-0.464928,-0.457099,2.481,2.56524
-0.456875,-0.457099,2.481,2.56379
-0.448823,-0.457099,2.481,2.56237
-0.44077,-0.457099,2.481,2.56097
-0.432717,-0.457099,2.481,2.5596
-0.424665,-0.457099,2.481,2.55825
-0.416612,-0.457099,2.481,2.55693
-0.408559,-0.457099,2.481,2.55563
-0.400506,-0.457099,2.481,2.55435
-0.392454,-0.457099,2.481,2.5531
-0.384401,-0.457099,2.481,2.55187
-0.376348,-0.457099,2.481,2.55067
-0.368296,-0.457099,2.481,2.5495
-0.360243,-0.457099,2.481,2.54835
-0.35219,-0.457099,2.481,2.54722
-0.344137,-0.457099,2.481,2.54612
-0.336085,-0.457099,2.481,2.54505
-0.328032,-0.457099,2.481,2.54399
-0.319979,-0.457099,2.481,2.54297
-0.311927,-0.457099,2.481,2.54197
-0.301669,-0.453783,2.463,2.52256
-0.293675,-0.453783,2.463,2.52161
-0.285681,-0.453783,2.463,2.52069
-0.277686,-0.453783,2.463,2.5198
-0.271663,-0.457099,2.481,2.53734
-0.26361,-0.457099,2.481,2.53649
-0.255558,-0.457099,2.481,2.53567
-0.247505,-0.457099,2.481,2.53487
-0.239452,-0.457099,2.481,2.5341
-0.2314,-0.457099,2.481,2.53335
-0.223347,-0.457099,2.481,2.53262
-0.215294,-0.457099,2.481,2.53193
-0.207241,-0.457099,2.481,2.53125
-0.199189,-0.457099,2.481,2.53061
-0.191136,-0.457099,2.481,2.52999
-0.183083,-0.457099,2.481,2.52939
-0.175031,-0.457099,2.481,2.52882
-0.166978,-0.457099,2.481,2.52828
-0.158925,-0.457099,2.481,2.52776
-0.150872,-0.457099,2.481,2.52726
-0.14282,-0.457099,2.481,2.5268
-0.134767,-0.457099,2.481,2.52635
-0.126714,-0.457099,2.481,2.52594
-0.118662,-0.457099,2.481,2.52555
-0.110609,-0.457099,2.481,2.52518
-0.102556,-0.457099,2.481,2.52484
-0.0945035,-0.457099,2.481,2.52453
-0.0858236,-0.453783,2.463,2.50592
-0.0778293,-0.453783,2.463,2.50566
-0.069835,-0.453783,2.463,2.50543
-0.0618407,-0.453783,2.463,2.50522
-0.0538464,-0.453783,2.463,2.50503
-0.0458521,-0.453783,2.463,2.50487
-0.0375812,-0.450466,2.445,2.48643
-0.0296453,-0.450466,2.445,2.48633
