nan,nan,nan,NaN
nan,nan,nan,NaN
nan,nan,nan,NaN
nan,nan,nan,NaN
nan,nan,nan,NaN
nan,nan,nan,NaN
nan,nan,nan,NaN
nan,nan,nan,NaN
nan,nan,nan,NaN
nan,nan,nan,NaN
nan,nan,nan,NaN
nan,nan,nan,NaN
nan,nan,nan,NaN
nan,nan,nan,NaN
nan,nan,nan,NaN
-1.16393,-0.17821,2.411,2.68317
-1.15611,-0.17821,2.411,2.67979
-1.14828,-0.17821,2.411,2.67642
-1.13241,-0.176953,2.394,2.65422
-1.12464,-0.176953,2.394,2.65092
-1.11687,-0.176953,2.394,2.64763
-1.10123,-0.175697,2.377,2.62559
-1.09351,-0.175697,2.377,2.62236
-1.0858,-0.175697,2.377,2.61915
-1.07082,-0.174514,2.361,2.59835
-1.06316,-0.174514,2.361,2.59521
-1.0555,-0.174514,2.361,2.59208
-1.04784,-0.174514,2.361,2.58896
-1.03312,-0.173332,2.345,2.56835
-1.02551,-0.173332,2.345,2.5653
-1.0179,-0.173332,2.345,2.56226
-1.0034,-0.172149,2.329,2.54179
-0.995836,-0.172149,2.329,2.53881
-0.988277,-0.172149,2.329,2.53586
-0.980718,-0.172149,2.329,2.53292
-0.973158,-0.172149,2.329,2.53
-0.965599,-0.172149,2.329,2.5271
-0.95804,-0.172149,2.329,2.52423
-0.943951,-0.170966,2.313,2.50405
-0.936443,-0.170966,2.313,2.50122
-0.928936,-0.170966,2.313,2.49842
-0.921428,-0.170966,2.313,2.49564
-0.913921,-0.170966,2.313,2.49288
-0.906413,-0.170966,2.313,2.49014
-0.898906,-0.170966,2.313,2.48741
-0.891399,-0.170966,2.313,2.48471
-0.883891,-0.170966,2.313,2.48203
-0.876384,-0.170966,2.313,2.47936
-0.868876,-0.170966,2.313,2.47672
-0.861369,-0.170966,2.313,2.4741
-0.853861,-0.170966,2.313,2.47149
-0.846354,-0.170966,2.313,2.46891
-0.838847,-0.170966,2.313,2.46635
-0.831339,-0.170966,2.313,2.4638
-0.823832,-0.170966,2.313,2.46128
-0.816324,-0.170966,2.313,2.45878
-0.808817,-0.170966,2.313,2.45629
-0.801309,-0.170966,2.313,2.45383
-0.793802,-0.170966,2.313,2.45139
-0.786295,-0.170966,2.313,2.44897
-0.778787,-0.170966,2.313,2.44657
-0.77128,-0.170966,2.313,2.44419
-0.763772,-0.170966,2.313,2.44183
-0.756265,-0.170966,2.313,2.4395
-0.748757,-0.170966,2.313,2.43718
-0.74125,-0.170966,2.313,2.43488
-0.733743,-0.170966,2.313,2.43261
-0.726235,-0.170966,2.313,2.43035
-0.718728,-0.170966,2.313,2.42812
-0.71122,-0.170966,2.313,2.42591
-0.708581,-0.172149,2.329,2.44048
-0.701021,-0.172149,2.329,2.4383
-0.693462,-0.172149,2.329,2.43614
-0.685903,-0.172149,2.329,2.434
-0.678343,-0.172149,2.329,2.43188
-0.675392,-0.173332,2.345,2.44647
-0.667781,-0.173332,2.345,2.44438
-0.66017,-0.173332,2.345,2.44231
-0.657011,-0.174514,2.361,2.45692
-0.653748,-0.175697,2.377,2.47151
-0.646033,-0.175697,2.377,2.46949
-0.638318,-0.175697,2.377,2.46748
-0.630603,-0.175697,2.377,2.46549
-0.627342,-0.176953,2.394,2.48115
-0.619572,-0.176953,2.394,2.4792
-0.611802,-0.176953,2.394,2.47727
-0.604031,-0.176953,2.394,2.47536
-0.596261,-0.176953,2.394,2.47347
-0.59267,-0.17821,2.411,2.48916
-0.584844,-0.17821,2.411,2.48731
-0.577019,-0.17821,2.411,2.48548
-0.56518,-0.176953,2.394,2.46617
-0.557409,-0.176953,2.394,2.4644
-0.553542,-0.17821,2.411,2.48014
-0.545717,-0.17821,2.411,2.4784
-0.537891,-0.17821,2.411,2.47669
-0.530066,-0.17821,2.411,2.475
-0.518558,-0.176953,2.394,2.4559
-0.510787,-0.176953,2.394,2.45427
-0.503017,-0.176953,2.394,2.45267
-0.495247,-0.176953,2.394,2.45109
-0.487476,-0.176953,2.394,2.44953
-0.483112,-0.17821,2.411,2.46538
-0.475287,-0.17821,2.411,2.46385
-0.467461,-0.17821,2.411,2.46236
-0.459636,-0.17821,2.411,2.46088
-0.45181,-0.17821,2.411,2.45943
-0.443985,-0.17821,2.411,2.45801
-0.436159,-0.17821,2.411,2.45661
-0.431354,-0.179467,2.428,2.47254
-0.423473,-0.179467,2.428,2.47118
-0.415593,-0.179467,2.428,2.46984
-0.407712,-0.179467,2.428,2.46853
-0.399831,-0.179467,2.428,2.46724
-0.391951,-0.179467,2.428,2.46597
-0.386759,-0.180723,2.445,2.48199
-0.378823,-0.180723,2.445,2.48076
-0.370887,-0.180723,2.445,2.47957
-0.362952,-0.180723,2.445,2.47839
-0.355016,-0.180723,2.445,2.47724
-0.34708,-0.180723,2.445,2.47612
-0.339144,-0.180723,2.445,2.47502
-0.333646,-0.182054,2.463,2.49215
-0.325652,-0.182054,2.463,2.4911
-0.317658,-0.182054,2.463,2.49006
-0.309664,-0.182054,2.463,2.48906
-0.301669,-0.182054,2.463,2.48808
-0.293675,-0.182054,2.463,2.48712
-0.283593,-0.180723,2.445,2.46802
-0.275657,-0.180723,2.445,2.46712
-0.267721,-0.180723,2.445,2.46624
-0.259785,-0.180723,2.445,2.4654
-0.251849,-0.180723,2.445,2.46457
-0.242218,-0.179467,2.428,2.44664
-0.234337,-0.179467,2.428,2.44588
-0.226456,-0.179467,2.428,2.44513
-0.220106,-0.180723,2.445,2.46153
-0.21217,-0.180723,2.445,2.46083
-0.204234,-0.180723,2.445,2.46016
-0.196298,-0.180723,2.445,2.45952
-0.188363,-0.180723,2.445,2.4589
-0.181755,-0.182054,2.463,2.4764
-0.173761,-0.182054,2.463,2.47582
-0.165766,-0.182054,2.463,2.47528
-0.157772,-0.182054,2.463,2.47475
-0.150872,-0.183384,2.481,2.49234
-0.14282,-0.183384,2.481,2.49186
-0.134767,-0.183384,2.481,2.49142
-0.127634,-0.184715,2.499,2.50907
-0.119523,-0.184715,2.499,2.50867
-0.111411,-0.184715,2.499,2.50829
-0.104044,-0.186045,2.517,2.52601
-0.0958747,-0.186045,2.517,2.52569
-0.0877052,-0.186045,2.517,2.52539
-0.0795356,-0.186045,2.517,2.52512
-0.0719048,-0.187449,2.536,2.54393
-0.0636736,-0.187449,2.536,2.54372
-0.0554423,-0.187449,2.536,2.54352
-0.0472111,-0.187449,2.536,2.54336
-0.0389799,-0.187449,2.536,2.54322
-0.0307487,-0.187449,2.536,2.5431
-0.0225174,-0.187449,2.536,2.54302
-0.0143932,-0.188854,2.555,2.56201
-0.00610034,-0.188854,2.555,2.56198
0.00217625,-0.187449,2.536,2.54292
0.0104075,-0.187449,2.536,2.54294
0.0186387,-0.187449,2.536,2.54299
0.0268699,-0.187449,2.536,2.54306
0.0351011,-0.187449,2.536,2.54316
0.0433324,-0.187449,2.536,2.54329
0.0515636,-0.187449,2.536,2.54344
0.0597948,-0.187449,2.536,2.54362
0.0680261,-0.187449,2.536,2.54383
0.0762573,-0.187449,2.536,2.54406
0.0838555,-0.186045,2.517,2.52526
0.0920251,-0.186045,2.517,2.52554
0.100195,-0.186045,2.517,2.52585
0.108364,-0.186045,2.517,2.52619
0.116534,-0.186045,2.517,2.52656
0.124703,-0.186045,2.517,2.52695
0.132873,-0.186045,2.517,2.52736
0.141042,-0.186045,2.517,2.5278
0.149212,-0.186045,2.517,2.52827
0.157382,-0.186045,2.517,2.52877
0.165551,-0.186045,2.517,2.52929
0.173721,-0.186045,2.517,2.52984
0.18189,-0.186045,2.517,2.53041
0.19006,-0.186045,2.517,2.53101
0.198229,-0.186045,2.517,2.53164
0.206399,-0.186045,2.517,2.53229
0.214568,-0.186045,2.517,2.53297
0.222738,-0.186045,2.517,2.53368
0.230908,-0.186045,2.517,2.53441
0.239077,-0.186045,2.517,2.53516
0.247247,-0.186045,2.517,2.53595
0.255416,-0.186045,2.517,2.53676
0.263586,-0.186045,2.517,2.53759
0.271755,-0.186045,2.517,2.53846
0.279925,-0.186045,2.517,2.53934
0.288094,-0.186045,2.517,2.54026
0.296264,-0.186045,2.517,2.5412
0.304434,-0.186045,2.517,2.54216
0.312603,-0.186045,2.517,2.54315
0.323194,-0.187449,2.536,2.56337
0.331425,-0.187449,2.536,2.56442
0.339657,-0.187449,2.536,2.5655
0.347888,-0.187449,2.536,2.5666
0.356119,-0.187449,2.536,2.56773
0.36435,-0.187449,2.536,2.56889
0.372581,-0.187449,2.536,2.57007
0.380813,-0.187449,2.536,2.57127
0.389044,-0.187449,2.536,2.57251
0.397275,-0.187449,2.536,2.57376
0.405506,-0.187449,2.536,2.57505
0.413738,-0.187449,2.536,2.57636
0.421969,-0.187449,2.536,2.57769
0.4302,-0.187449,2.536,2.57905
0.438431,-0.187449,2.536,2.58044
0.446662,-0.187449,2.536,2.58185
0.454894,-0.187449,2.536,2.58329
0.459655,-0.186045,2.517,2.56538
0.467825,-0.186045,2.517,2.56686
0.475994,-0.186045,2.517,2.56836
0.484164,-0.186045,2.517,2.56989
0.492333,-0.186045,2.517,2.57144
0.496924,-0.184715,2.499,2.55461
0.505035,-0.184715,2.499,2.5562
0.513146,-0.184715,2.499,2.55782
0.521257,-0.184715,2.499,2.55946
0.525555,-0.183384,2.481,2.54268
0.533608,-0.183384,2.481,2.54435
0.541661,-0.183384,2.481,2.54605
0.549713,-0.183384,2.481,2.54778
0.553719,-0.182054,2.463,2.53103
0.561714,-0.182054,2.463,2.53279
0.569708,-0.182054,2.463,2.53458
0.577702,-0.182054,2.463,2.53639
0.585697,-0.182054,2.463,2.53822
0.593691,-0.182054,2.463,2.54008
0.606082,-0.183384,2.481,2.56053
0.614135,-0.183384,2.481,2.56245
0.622188,-0.183384,2.481,2.56439
0.63024,-0.183384,2.481,2.56636
0.633662,-0.182054,2.463,2.54971
0.641657,-0.182054,2.463,2.55171
0.649651,-0.182054,2.463,2.55373
0.657645,-0.182054,2.463,2.55578
0.665639,-0.182054,2.463,2.55785
0.673634,-0.182054,2.463,2.55994
0.686609,-0.183384,2.481,2.58078
0.694662,-0.183384,2.481,2.58293
0.702715,-0.183384,2.481,2.58511
0.710768,-0.183384,2.481,2.58731
0.724035,-0.184715,2.499,2.60832
0.732147,-0.184715,2.499,2.61059
0.740258,-0.184715,2.499,2.61287
0.753759,-0.186045,2.517,2.63402
0.76768,-0.187449,2.536,2.65627
0.775912,-0.187449,2.536,2.65866
0.784143,-0.187449,2.536,2.66107
0.798311,-0.188854,2.555,2.68347
0.806603,-0.188854,2.555,2.68595
0.814896,-0.188854,2.555,2.68845
0.823189,-0.188854,2.555,2.69097
0.831482,-0.188854,2.555,2.69352
0.839775,-0.188854,2.555,2.69609
0.848068,-0.188854,2.555,2.69869
0.856361,-0.188854,2.555,2.7013
0.864654,-0.188854,2.555,2.70394
0.866455,-0.187449,2.536,2.68648
0.874686,-0.187449,2.536,2.68915
0.882918,-0.187449,2.536,2.69184
0.891149,-0.187449,2.536,2.69455
0.89938,-0.187449,2.536,2.69728
0.900811,-0.186045,2.517,2.67981
0.908981,-0.186045,2.517,2.68256
0.91715,-0.186045,2.517,2.68534
0.918703,-0.184715,2.499,2.66892
0.920138,-0.183384,2.481,2.65248
0.921457,-0.182054,2.463,2.63602
0.929451,-0.182054,2.463,2.63882
0.930594,-0.180723,2.445,2.62234
0.93853,-0.180723,2.445,2.62517
0.946466,-0.180723,2.445,2.62802
0.947766,-0.179467,2.428,2.6126
0.955646,-0.179467,2.428,2.61546
0.963527,-0.179467,2.428,2.61835
0.964606,-0.17821,2.411,2.60291
0.972432,-0.17821,2.411,2.60582
0.987169,-0.179467,2.428,2.62715
0.99505,-0.179467,2.428,2.63012
nan,nan,nan,NaN
nan,nan,nan,NaN
nan,nan,nan,NaN
nan,nan,nan,NaN
nan,nan,nan,NaN
nan,nan,nan,NaN
nan,nan,nan,NaN
nan,nan,nan,NaN
nan,nan,nan,NaN
nan,nan,nan,NaN
nan,nan,nan,NaN
nan,nan,nan,NaN
nan,nan,nan,NaN
nan,nan,nan,NaN
nan,nan,nan,NaN
nan,nan,nan,NaN
nan,nan,nan,NaN
1.76154,-0.27807,3.762,4.16329
1.77375,-0.27807,3.762,4.16847
1.78596,-0.27807,3.762,4.17368
1.77858,-0.275039,3.721,4.13338
1.79065,-0.275039,3.721,4.13859
1.80273,-0.275039,3.721,4.14383
1.83481,-0.27807,3.762,4.19482
1.84702,-0.27807,3.762,4.20017
1.83896,-0.275039,3.721,4.15972
1.85104,-0.275039,3.721,4.16507
1.86312,-0.275039,3.721,4.17046
nan,nan,nan,NaN
nan,nan,nan,NaN
nan,nan,nan,NaN
nan,nan,nan,NaN
nan,nan,nan,NaN
nan,nan,nan,NaN
nan,nan,nan,NaN
nan,nan,nan,NaN
nan,nan,nan,NaN
nan,nan,nan,NaN
1.99597,-0.275039,3.721,4.23148
2.00805,-0.275039,3.721,4.23719
1.99841,-0.272083,3.681,4.19731
1.98906,-0.2692,3.642,4.15848
2.00088,-0.2692,3.642,4.16415
2.0127,-0.2692,3.642,4.16984
2.0034,-0.266391,3.604,4.132
2.0151,-0.266391,3.604,4.13768
2.00542,-0.263582,3.566,4.0997
1.99607,-0.260847,3.529,4.06278
2.00752,-0.260847,3.529,4.06842
1.97836,-0.255599,3.458,3.99212
1.96944,-0.253012,3.423,3.95723
1.98055,-0.253012,3.423,3.96277
1.99166,-0.253012,3.423,3.96833
1.98288,-0.250499,3.389,3.93445
1.99388,-0.250499,3.389,3.94
2.00488,-0.250499,3.389,3.94558
1.99625,-0.24806,3.356,3.91271
1.98801,-0.245695,3.324,3.88092
1.99879,-0.245695,3.324,3.88645
1.97089,-0.240964,3.26,3.81708
1.96324,-0.238747,3.23,3.78737
1.97372,-0.238747,3.23,3.79282
1.94735,-0.234312,3.17,3.72773
1.93973,-0.232168,3.141,3.69896
1.94992,-0.232168,3.141,3.70432
1.92455,-0.227955,3.084,3.64238
1.91762,-0.225959,3.057,3.61574
1.92754,-0.225959,3.057,3.62101
1.90324,-0.221968,3.003,3.56225
1.89642,-0.220046,2.977,3.53658
1.87343,-0.216276,2.926,3.48109
1.88293,-0.216276,2.926,3.48621
1.86074,-0.212655,2.877,3.43288
1.85447,-0.210881,2.853,3.40928
1.86373,-0.210881,2.853,3.41432
1.84214,-0.207407,2.806,3.36305
1.83607,-0.205707,2.783,3.34044
1.84511,-0.205707,2.783,3.34542
1.83948,-0.20408,2.761,3.32392
1.81899,-0.200828,2.717,3.27584
1.8278,-0.200828,2.717,3.28075
1.82243,-0.199276,2.696,3.26027
1.81691,-0.197724,2.675,3.23974
-2.01252,-0.205015,2.901,3.53667
-2.0031,-0.205015,2.901,3.53132
-1.97719,-0.203319,2.877,3.49682
-1.96786,-0.203319,2.877,3.49155
-1.94218,-0.201623,2.853,3.45721
-1.93292,-0.201623,2.853,3.45202
-1.92366,-0.201623,2.853,3.44684
-1.89829,-0.199927,2.829,3.41273
-1.88911,-0.199927,2.829,3.40763
-1.87993,-0.199927,2.829,3.40255
-1.88662,-0.201623,2.853,3.42631
-1.87736,-0.201623,2.853,3.42122
-1.8681,-0.201623,2.853,3.41615
-1.85884,-0.201623,2.853,3.41109
-1.86514,-0.203319,2.877,3.43471
-1.87128,-0.205015,2.901,3.45825
-1.86186,-0.205015,2.901,3.45317
-1.86841,-0.206782,2.926,3.47782
-1.8748,-0.208549,2.951,3.50239
-1.86522,-0.208549,2.951,3.49728
-1.85564,-0.208549,2.951,3.49218
-1.86233,-0.210386,2.977,3.51782
-1.85267,-0.210386,2.977,3.51271
-1.8591,-0.212224,3.003,3.53826
-1.86598,-0.214132,3.03,3.56492
-1.87268,-0.21604,3.057,3.5915
-1.86276,-0.21604,3.057,3.58634
-1.85284,-0.21604,3.057,3.58119
nan,nan,nan,NaN
nan,nan,nan,NaN
nan,nan,nan,NaN
nan,nan,nan,NaN
nan,nan,nan,NaN
nan,nan,nan,NaN
nan,nan,nan,NaN
nan,nan,nan,NaN
nan,nan,nan,NaN
nan,nan,nan,NaN
nan,nan,nan,NaN
nan,nan,nan,NaN
nan,nan,nan,NaN
nan,nan,nan,NaN
nan,nan,nan,NaN
nan,nan,nan,NaN
nan,nan,nan,NaN
nan,nan,nan,NaN
nan,nan,nan,NaN
nan,nan,nan,NaN
nan,nan,nan,NaN
nan,nan,nan,NaN
nan,nan,nan,NaN
nan,nan,nan,NaN
nan,nan,nan,NaN
nan,nan,nan,NaN
nan,nan,nan,NaN
nan,nan,nan,NaN
nan,nan,nan,NaN
nan,nan,nan,NaN
nan,nan,nan,NaN
nan,nan,nan,NaN
nan,nan,nan,NaN
nan,nan,nan,NaN
nan,nan,nan,NaN
nan,nan,nan,NaN
nan,nan,nan,NaN
-1.16393,-0.170387,2.411,2.68266
-1.15611,-0.170387,2.411,2.67928
-1.14828,-0.170387,2.411,2.67591
-1.13241,-0.169185,2.394,2.65372
-1.12464,-0.169185,2.394,2.65041
-1.11687,-0.169185,2.394,2.64712
-1.10123,-0.167984,2.377,2.62508
-1.09351,-0.167984,2.377,2.62185
-1.0858,-0.167984,2.377,2.61865
-1.07082,-0.166853,2.361,2.59785
-1.06316,-0.166853,2.361,2.5947
-1.04835,-0.165722,2.345,2.57401
-1.04073,-0.165722,2.345,2.57092
-1.03312,-0.165722,2.345,2.56785
-1.01851,-0.164592,2.329,2.54729
-1.01096,-0.164592,2.329,2.54428
-1.0034,-0.164592,2.329,2.54129
-0.995836,-0.164592,2.329,2.53831
-0.988277,-0.164592,2.329,2.53535
-0.980718,-0.164592,2.329,2.53242
-0.973158,-0.164592,2.329,2.5295
-0.965599,-0.164592,2.329,2.5266
-0.95804,-0.164592,2.329,2.52372
-0.943951,-0.163461,2.313,2.50354
-0.936443,-0.163461,2.313,2.50072
-0.928936,-0.163461,2.313,2.49792
-0.921428,-0.163461,2.313,2.49514
-0.913921,-0.163461,2.313,2.49238
-0.906413,-0.163461,2.313,2.48963
-0.898906,-0.163461,2.313,2.48691
-0.891399,-0.163461,2.313,2.48421
-0.883891,-0.163461,2.313,2.48152
-0.876384,-0.163461,2.313,2.47886
-0.868876,-0.163461,2.313,2.47621
-0.861369,-0.163461,2.313,2.47359
-0.853861,-0.163461,2.313,2.47099
-0.846354,-0.163461,2.313,2.4684
-0.838847,-0.163461,2.313,2.46584
-0.83709,-0.164592,2.329,2.48033
-0.829531,-0.164592,2.329,2.47779
-0.816324,-0.163461,2.313,2.45827
-0.808817,-0.163461,2.313,2.45578
-0.801309,-0.163461,2.313,2.45332
-0.793802,-0.163461,2.313,2.45088
-0.786295,-0.163461,2.313,2.44846
-0.778787,-0.163461,2.313,2.44606
-0.77128,-0.163461,2.313,2.44368
-0.763772,-0.163461,2.313,2.44132
-0.756265,-0.163461,2.313,2.43898
-0.748757,-0.163461,2.313,2.43666
-0.74125,-0.163461,2.313,2.43437
-0.733743,-0.163461,2.313,2.43209
-0.726235,-0.163461,2.313,2.42984
-0.718728,-0.163461,2.313,2.4276
-0.71122,-0.163461,2.313,2.42539
-0.708581,-0.164592,2.329,2.43996
-0.701021,-0.164592,2.329,2.43778
-0.693462,-0.164592,2.329,2.43562
-0.685903,-0.164592,2.329,2.43347
-0.678343,-0.164592,2.329,2.43135
-0.675392,-0.165722,2.345,2.44594
-0.667781,-0.165722,2.345,2.44385
-0.66017,-0.165722,2.345,2.44178
-0.657011,-0.166853,2.361,2.45638
-0.649348,-0.166853,2.361,2.45435
-0.646033,-0.167984,2.377,2.46895
-0.638318,-0.167984,2.377,2.46694
-0.630603,-0.167984,2.377,2.46496
-0.627342,-0.169185,2.394,2.48061
-0.619572,-0.169185,2.394,2.47865
-0.611802,-0.169185,2.394,2.47672
-0.604031,-0.169185,2.394,2.47482
-0.596261,-0.169185,2.394,2.47293
-0.59267,-0.170387,2.411,2.48862
-0.584844,-0.170387,2.411,2.48676
-0.577019,-0.170387,2.411,2.48494
-0.569193,-0.170387,2.411,2.48313
-0.561368,-0.170387,2.411,2.48135
-0.553542,-0.170387,2.411,2.47959
-0.545717,-0.170387,2.411,2.47785
-0.537891,-0.170387,2.411,2.47614
-0.530066,-0.170387,2.411,2.47445
-0.518558,-0.169185,2.394,2.45535
-0.510787,-0.169185,2.394,2.45372
-0.503017,-0.169185,2.394,2.45212
-0.495247,-0.169185,2.394,2.45054
-0.487476,-0.169185,2.394,2.44898
-0.483112,-0.170387,2.411,2.46482
-0.475287,-0.170387,2.411,2.4633
-0.467461,-0.170387,2.411,2.4618
-0.459636,-0.170387,2.411,2.46033
-0.45181,-0.170387,2.411,2.45888
-0.443985,-0.170387,2.411,2.45745
-0.436159,-0.170387,2.411,2.45605
-0.431354,-0.171588,2.428,2.47198
-0.423473,-0.171588,2.428,2.47062
-0.415593,-0.171588,2.428,2.46928
-0.407712,-0.171588,2.428,2.46797
-0.402631,-0.17279,2.445,2.48395
-0.394695,-0.17279,2.445,2.48267
-0.386759,-0.17279,2.445,2.48142
-0.378823,-0.17279,2.445,2.4802
-0.370887,-0.17279,2.445,2.479
-0.362952,-0.17279,2.445,2.47782
-0.355016,-0.17279,2.445,2.47667
-0.34708,-0.17279,2.445,2.47555
-0.341641,-0.174062,2.463,2.49267
-0.333646,-0.174062,2.463,2.49158
-0.325652,-0.174062,2.463,2.49053
-0.317658,-0.174062,2.463,2.48949
-0.309664,-0.174062,2.463,2.48849
-0.301669,-0.174062,2.463,2.4875
-0.293675,-0.174062,2.463,2.48655
-0.283593,-0.17279,2.445,2.46745
-0.275657,-0.17279,2.445,2.46655
-0.267721,-0.17279,2.445,2.46568
-0.259785,-0.17279,2.445,2.46483
-0.251849,-0.17279,2.445,2.464
-0.242218,-0.171588,2.428,2.44608
-0.234337,-0.171588,2.428,2.44531
-0.226456,-0.171588,2.428,2.44457
-0.220106,-0.17279,2.445,2.46096
-0.21217,-0.17279,2.445,2.46026
-0.204234,-0.17279,2.445,2.45959
-0.196298,-0.17279,2.445,2.45895
-0.188363,-0.17279,2.445,2.45833
-0.181755,-0.174062,2.463,2.47582
-0.173761,-0.174062,2.463,2.47525
-0.165766,-0.174062,2.463,2.4747
-0.157772,-0.174062,2.463,2.47418
-0.150872,-0.175334,2.481,2.49176
-0.14282,-0.175334,2.481,2.49129
-0.134767,-0.175334,2.481,2.49084
-0.127634,-0.176606,2.499,2.50848
-0.119523,-0.176606,2.499,2.50808
-0.111411,-0.176606,2.499,2.50771
-0.104044,-0.177878,2.517,2.52542
-0.0958747,-0.177878,2.517,2.5251
-0.0877052,-0.177878,2.517,2.5248
-0.0795356,-0.177878,2.517,2.52453
-0.0719048,-0.179221,2.536,2.54334
-0.0636736,-0.179221,2.536,2.54312
-0.0554423,-0.179221,2.536,2.54293
-0.0472111,-0.179221,2.536,2.54276
-0.0389799,-0.179221,2.536,2.54262
-0.0307487,-0.179221,2.536,2.54251
-0.0225174,-0.179221,2.536,2.54242
-0.0142862,-0.179221,2.536,2.54237
-0.00605498,-0.179221,2.536,2.54233
0.00217625,-0.179221,2.536,2.54233
0.0104075,-0.179221,2.536,2.54235
0.0186387,-0.179221,2.536,2.54239
0.0268699,-0.179221,2.536,2.54247
0.0351011,-0.179221,2.536,2.54257
0.0433324,-0.179221,2.536,2.54269
0.0515636,-0.179221,2.536,2.54285
0.0593468,-0.177878,2.517,2.52398
0.0675164,-0.177878,2.517,2.52418
0.075686,-0.177878,2.517,2.52441
0.0838555,-0.177878,2.517,2.52467
0.0920251,-0.177878,2.517,2.52496
0.100195,-0.177878,2.517,2.52527
0.108364,-0.177878,2.517,2.5256
0.116534,-0.177878,2.517,2.52597
0.124703,-0.177878,2.517,2.52636
0.132873,-0.177878,2.517,2.52677
0.141042,-0.177878,2.517,2.52722
0.149212,-0.177878,2.517,2.52769
0.157382,-0.177878,2.517,2.52818
0.164367,-0.176606,2.499,2.51062
0.172478,-0.176606,2.499,2.51116
0.180589,-0.176606,2.499,2.51173
0.19006,-0.177878,2.517,2.53043
0.198229,-0.177878,2.517,2.53105
0.206399,-0.177878,2.517,2.53171
0.214568,-0.177878,2.517,2.53238
0.222738,-0.177878,2.517,2.53309
0.230908,-0.177878,2.517,2.53382
0.237367,-0.176606,2.499,2.51645
0.245479,-0.176606,2.499,2.51723
0.255416,-0.177878,2.517,2.53617
0.261701,-0.176606,2.499,2.51886
0.269812,-0.176606,2.499,2.51972
0.279925,-0.177878,2.517,2.53876
0.288094,-0.177878,2.517,2.53967
0.296264,-0.177878,2.517,2.54061
0.304434,-0.177878,2.517,2.54158
0.312603,-0.177878,2.517,2.54257
0.320773,-0.177878,2.517,2.54359
0.328942,-0.177878,2.517,2.54463
0.337112,-0.177878,2.517,2.5457
0.345281,-0.177878,2.517,2.54679
0.353451,-0.177878,2.517,2.54791
0.36162,-0.177878,2.517,2.54906
0.36979,-0.177878,2.517,2.55023
0.380813,-0.179221,2.536,2.57069
0.389044,-0.179221,2.536,2.57192
0.397275,-0.179221,2.536,2.57318
0.405506,-0.179221,2.536,2.57446
0.413738,-0.179221,2.536,2.57577
0.418807,-0.177878,2.517,2.5578
0.426977,-0.177878,2.517,2.55915
0.435146,-0.177878,2.517,2.56052
0.443316,-0.177878,2.517,2.56192
0.451486,-0.177878,2.517,2.56335
0.459655,-0.177878,2.517,2.5648
0.467825,-0.177878,2.517,2.56628
0.475994,-0.177878,2.517,2.56778
0.484164,-0.177878,2.517,2.56931
0.492333,-0.177878,2.517,2.57086
0.496924,-0.176606,2.499,2.55404
0.505035,-0.176606,2.499,2.55563
0.513146,-0.176606,2.499,2.55725
0.521257,-0.176606,2.499,2.55889
0.525555,-0.175334,2.481,2.54211
0.533608,-0.175334,2.481,2.54378
0.541661,-0.175334,2.481,2.54549
0.549713,-0.175334,2.481,2.54721
0.553719,-0.174062,2.463,2.53047
0.561714,-0.174062,2.463,2.53223
0.569708,-0.174062,2.463,2.53402
0.577702,-0.174062,2.463,2.53582
0.585697,-0.174062,2.463,2.53766
0.593691,-0.174062,2.463,2.53951
0.606082,-0.175334,2.481,2.55997
0.614135,-0.175334,2.481,2.56189
0.622188,-0.175334,2.481,2.56383
0.63024,-0.175334,2.481,2.5658
0.638293,-0.175334,2.481,2.56779
0.646346,-0.175334,2.481,2.5698
0.654399,-0.175334,2.481,2.57184
0.662451,-0.175334,2.481,2.5739
0.670504,-0.175334,2.481,2.57598
0.678557,-0.175334,2.481,2.57809
0.686609,-0.175334,2.481,2.58022
0.694662,-0.175334,2.481,2.58237
0.702715,-0.175334,2.481,2.58455
0.715924,-0.176606,2.499,2.60552
0.724035,-0.176606,2.499,2.60776
0.73742,-0.177878,2.517,2.62882
0.74559,-0.177878,2.517,2.63113
0.753759,-0.177878,2.517,2.63345
0.76768,-0.179221,2.536,2.6557
0.775912,-0.179221,2.536,2.65809
0.784143,-0.179221,2.536,2.66051
0.798311,-0.180563,2.555,2.6829
0.806603,-0.180563,2.555,2.68537
0.814896,-0.180563,2.555,2.68788
0.823189,-0.180563,2.555,2.6904
0.831482,-0.180563,2.555,2.69295
0.839775,-0.180563,2.555,2.69552
0.848068,-0.180563,2.555,2.69812
0.856361,-0.180563,2.555,2.70074
0.864654,-0.180563,2.555,2.70338
0.872947,-0.180563,2.555,2.70604
0.881239,-0.180563,2.555,2.70873
0.889532,-0.180563,2.555,2.71144
0.891149,-0.179221,2.536,2.69399
0.89938,-0.179221,2.536,2.69672
0.900811,-0.177878,2.517,2.67925
0.90248,-0.176606,2.499,2.66283
0.910591,-0.176606,2.499,2.66559
0.918703,-0.176606,2.499,2.66837
0.920138,-0.175334,2.481,2.65193
0.921457,-0.174062,2.463,2.63548
0.929451,-0.174062,2.463,2.63828
0.930594,-0.17279,2.445,2.62181
0.93853,-0.17279,2.445,2.62464
0.946466,-0.17279,2.445,2.62749
0.947766,-0.171588,2.428,2.61207
0.955646,-0.171588,2.428,2.61494
0.963527,-0.171588,2.428,2.61783
0.964606,-0.170387,2.411,2.60239
0.972432,-0.170387,2.411,2.6053
0.980257,-0.170387,2.411,2.60823
0.988083,-0.170387,2.411,2.61118
0.995908,-0.170387,2.411,2.61415
1.00373,-0.170387,2.411,2.61714
nan,nan,nan,NaN
nan,nan,nan,NaN
nan,nan,nan,NaN
nan,nan,nan,NaN
nan,nan,nan,NaN
nan,nan,nan,NaN
nan,nan,nan,NaN
nan,nan,nan,NaN
nan,nan,nan,NaN
nan,nan,nan,NaN
nan,nan,nan,NaN
nan,nan,nan,NaN
nan,nan,nan,NaN
nan,nan,nan,NaN
nan,nan,nan,NaN
1.76154,-0.265863,3.762,4.16249
1.77375,-0.265863,3.762,4.16768
1.78596,-0.265863,3.762,4.17289
1.77858,-0.262965,3.721,4.13259
1.79065,-0.262965,3.721,4.13781
1.80273,-0.262965,3.721,4.14305
1.83481,-0.265863,3.762,4.19402
1.84702,-0.265863,3.762,4.19938
1.83896,-0.262965,3.721,4.15894
1.85104,-0.262965,3.721,4.16429
1.86312,-0.262965,3.721,4.16968
nan,nan,nan,NaN
nan,nan,nan,NaN
nan,nan,nan,NaN
nan,nan,nan,NaN
nan,nan,nan,NaN
nan,nan,nan,NaN
nan,nan,nan,NaN
nan,nan,nan,NaN
nan,nan,nan,NaN
nan,nan,nan,NaN
1.99597,-0.262965,3.721,4.23071
2.00805,-0.262965,3.721,4.23642
1.99841,-0.260138,3.681,4.19656
2.01036,-0.260138,3.681,4.20226
2.02231,-0.260138,3.681,4.20799
2.0127,-0.257382,3.642,4.1691
2.0034,-0.254697,3.604,4.13126
2.0151,-0.254697,3.604,4.13694
2.00542,-0.252011,3.566,4.09897
1.99607,-0.249396,3.529,4.06206
2.00752,-0.249396,3.529,4.0677
1.97836,-0.244379,3.458,3.99141
1.96944,-0.241905,3.423,3.95653
1.98055,-0.241905,3.423,3.96208
1.99166,-0.241905,3.423,3.96764
1.98288,-0.239503,3.389,3.93376
1.99388,-0.239503,3.389,3.93932
2.00488,-0.239503,3.389,3.9449
1.99625,-0.23717,3.356,3.91203
1.98801,-0.234909,3.324,3.88025
1.99879,-0.234909,3.324,3.88579
1.97089,-0.230386,3.26,3.81642
1.96324,-0.228266,3.23,3.78673
1.97372,-0.228266,3.23,3.79217
1.94735,-0.224026,3.17,3.7271
1.93973,-0.221976,3.141,3.69834
1.94992,-0.221976,3.141,3.70369
1.92455,-0.217948,3.084,3.64176
1.91762,-0.21604,3.057,3.61513
1.92754,-0.21604,3.057,3.62041
1.90324,-0.212224,3.003,3.56165
1.87986,-0.208549,2.951,3.50511
1.87343,-0.206782,2.926,3.48052
1.86684,-0.205015,2.901,3.45586
1.86074,-0.203319,2.877,3.43232
1.83887,-0.199927,2.829,3.38004
1.84806,-0.199927,2.829,3.38504
1.84214,-0.198302,2.806,3.3625
1.83607,-0.196676,2.783,3.3399
1.84511,-0.196676,2.783,3.34487
1.82482,-0.193567,2.739,3.2969
1.81899,-0.192012,2.717,3.27531
1.8278,-0.192012,2.717,3.28022
1.82243,-0.190528,2.696,3.25975
1.81691,-0.189044,2.675,3.23922
-2.01252,-0.195602,2.901,3.53614
-2.0031,-0.195602,2.901,3.53079
-1.97719,-0.193984,2.877,3.49629
-1.96786,-0.193984,2.877,3.49102
-1.94218,-0.192366,2.853,3.45669
-1.93292,-0.192366,2.853,3.45149
-1.90748,-0.190747,2.829,3.41732
-1.88286,-0.189197,2.806,3.38446
-1.87375,-0.189197,2.806,3.37941
-1.86465,-0.189197,2.806,3.37436
-1.85554,-0.189197,2.806,3.36934
-1.84643,-0.189197,2.806,3.36433
-1.83732,-0.189197,2.806,3.35934
-1.8432,-0.190747,2.829,3.38187
-1.83402,-0.190747,2.829,3.37687
-1.84032,-0.192366,2.853,3.4005
-1.83106,-0.192366,2.853,3.39549
-1.83712,-0.193984,2.877,3.41903
-1.84303,-0.195602,2.901,3.4425
-1.83362,-0.195602,2.901,3.43747
-1.85564,-0.198973,2.951,3.49162
-1.84606,-0.198973,2.951,3.48654
-1.83648,-0.198973,2.951,3.48148
-1.843,-0.200726,2.977,3.50706
-1.84935,-0.202479,3.003,3.53258
-1.85614,-0.2043,3.03,3.5592
-1.84631,-0.2043,3.03,3.55408
-1.83648,-0.2043,3.03,3.54898
-1.82664,-0.2043,3.03,3.5439
-1.81681,-0.2043,3.03,3.53884
-1.80697,-0.2043,3.03,3.53381
-1.79714,-0.2043,3.03,3.52879
nan,nan,nan,NaN
nan,nan,nan,NaN
nan,nan,nan,NaN
nan,nan,nan,NaN
nan,nan,nan,NaN
nan,nan,nan,NaN
nan,nan,nan,NaN
nan,nan,nan,NaN
nan,nan,nan,NaN
nan,nan,nan,NaN
nan,nan,nan,NaN
nan,nan,nan,NaN
nan,nan,nan,NaN
nan,nan,nan,NaN
nan,nan,nan,NaN
nan,nan,nan,NaN
nan,nan,nan,NaN
nan,nan,nan,NaN
nan,nan,nan,NaN
nan,nan,nan,NaN
nan,nan,nan,NaN
nan,nan,nan,NaN
nan,nan,nan,NaN
nan,nan,nan,NaN
nan,nan,nan,NaN
nan,nan,nan,NaN
nan,nan,nan,NaN
nan,nan,nan,NaN
nan,nan,nan,NaN
nan,nan,nan,NaN
nan,nan,nan,NaN
nan,nan,nan,NaN
nan,nan,nan,NaN
-1.16393,-0.162563,2.411,2.68218
-1.15611,-0.162563,2.411,2.67879
-1.14828,-0.162563,2.411,2.67542
-1.14046,-0.162563,2.411,2.67208
-1.12464,-0.161417,2.394,2.64993
-1.11687,-0.161417,2.394,2.64664
-1.1091,-0.161417,2.394,2.64337
-1.09351,-0.160271,2.377,2.62137
-1.0858,-0.160271,2.377,2.61816
-1.07808,-0.160271,2.377,2.61497
-1.06316,-0.159192,2.361,2.59422
-1.04835,-0.158113,2.345,2.57353
-1.04073,-0.158113,2.345,2.57044
-1.03312,-0.158113,2.345,2.56737
-1.01851,-0.157035,2.329,2.54682
-1.01096,-0.157035,2.329,2.5438
-1.0034,-0.157035,2.329,2.54081
-0.995836,-0.157035,2.329,2.53783
-0.988277,-0.157035,2.329,2.53488
-0.980718,-0.157035,2.329,2.53194
-0.973158,-0.157035,2.329,2.52902
-0.965599,-0.157035,2.329,2.52612
-0.95804,-0.157035,2.329,2.52324
-0.943951,-0.155956,2.313,2.50307
-0.936443,-0.155956,2.313,2.50024
-0.928936,-0.155956,2.313,2.49744
-0.921428,-0.155956,2.313,2.49466
-0.913921,-0.155956,2.313,2.4919
-0.912683,-0.157035,2.329,2.50637
-0.905124,-0.157035,2.329,2.50363
-0.891399,-0.155956,2.313,2.48372
-0.883891,-0.155956,2.313,2.48104
-0.876384,-0.155956,2.313,2.47837
-0.868876,-0.155956,2.313,2.47573
-0.861369,-0.155956,2.313,2.4731
-0.853861,-0.155956,2.313,2.4705
-0.846354,-0.155956,2.313,2.46792
-0.844649,-0.157035,2.329,2.4824
-0.83709,-0.157035,2.329,2.47984
-0.829531,-0.157035,2.329,2.4773
-0.821971,-0.157035,2.329,2.47478
-0.814412,-0.157035,2.329,2.47228
-0.806852,-0.157035,2.329,2.4698
-0.799293,-0.157035,2.329,2.46734
-0.791734,-0.157035,2.329,2.4649
-0.784174,-0.157035,2.329,2.46248
-0.77128,-0.155956,2.313,2.44319
-0.763772,-0.155956,2.313,2.44083
-0.756265,-0.155956,2.313,2.43849
-0.748757,-0.155956,2.313,2.43617
-0.74125,-0.155956,2.313,2.43387
-0.733743,-0.155956,2.313,2.4316
-0.726235,-0.155956,2.313,2.42934
-0.718728,-0.155956,2.313,2.42711
-0.71122,-0.155956,2.313,2.4249
-0.708581,-0.157035,2.329,2.43946
-0.701021,-0.157035,2.329,2.43728
-0.693462,-0.157035,2.329,2.43512
-0.685903,-0.157035,2.329,2.43297
-0.678343,-0.157035,2.329,2.43085
-0.675392,-0.158113,2.345,2.44544
-0.667781,-0.158113,2.345,2.44335
-0.66017,-0.158113,2.345,2.44128
-0.657011,-0.159192,2.361,2.45588
-0.649348,-0.159192,2.361,2.45384
-0.646033,-0.160271,2.377,2.46844
-0.638318,-0.160271,2.377,2.46643
-0.630603,-0.160271,2.377,2.46444
-0.627342,-0.161417,2.394,2.48009
-0.619572,-0.161417,2.394,2.47814
-0.611802,-0.161417,2.394,2.47621
-0.604031,-0.161417,2.394,2.4743
-0.596261,-0.161417,2.394,2.47241
-0.59267,-0.162563,2.411,2.48809
-0.584844,-0.162563,2.411,2.48624
-0.577019,-0.162563,2.411,2.48441
-0.569193,-0.162563,2.411,2.48261
-0.561368,-0.162563,2.411,2.48082
-0.553542,-0.162563,2.411,2.47906
-0.545717,-0.162563,2.411,2.47733
-0.537891,-0.162563,2.411,2.47562
-0.530066,-0.162563,2.411,2.47393
-0.52224,-0.162563,2.411,2.47226
-0.514415,-0.162563,2.411,2.47062
-0.506589,-0.162563,2.411,2.469
-0.495247,-0.161417,2.394,2.45001
-0.487476,-0.161417,2.394,2.44845
-0.483112,-0.162563,2.411,2.46429
-0.475287,-0.162563,2.411,2.46277
-0.467461,-0.162563,2.411,2.46127
-0.459636,-0.162563,2.411,2.4598
-0.45181,-0.162563,2.411,2.45835
-0.443985,-0.162563,2.411,2.45692
-0.436159,-0.162563,2.411,2.45552
-0.431354,-0.16371,2.428,2.47145
-0.423473,-0.16371,2.428,2.47008
-0.415593,-0.16371,2.428,2.46875
-0.407712,-0.16371,2.428,2.46743
-0.402631,-0.164856,2.445,2.48341
-0.391951,-0.16371,2.428,2.46488
-0.38407,-0.16371,2.428,2.46363
-0.378823,-0.164856,2.445,2.47966
-0.370887,-0.164856,2.445,2.47846
-0.362952,-0.164856,2.445,2.47728
-0.355016,-0.164856,2.445,2.47613
-0.34708,-0.164856,2.445,2.47501
-0.339144,-0.164856,2.445,2.47391
-0.333646,-0.16607,2.463,2.49104
-0.325652,-0.16607,2.463,2.48998
-0.317658,-0.16607,2.463,2.48895
-0.309664,-0.16607,2.463,2.48794
-0.301669,-0.16607,2.463,2.48696
-0.291529,-0.164856,2.445,2.46783
-0.283593,-0.164856,2.445,2.46691
-0.275657,-0.164856,2.445,2.46601
-0.267721,-0.164856,2.445,2.46513
-0.259785,-0.164856,2.445,2.46428
-0.251849,-0.164856,2.445,2.46346
-0.242218,-0.16371,2.428,2.44554
-0.234337,-0.16371,2.428,2.44477
-0.226456,-0.16371,2.428,2.44403
-0.218576,-0.16371,2.428,2.44331
-0.210695,-0.16371,2.428,2.44262
-0.202814,-0.16371,2.428,2.44195
-0.196298,-0.164856,2.445,2.4584
-0.188363,-0.164856,2.445,2.45778
-0.180427,-0.164856,2.445,2.45718
-0.173761,-0.16607,2.463,2.4747
-0.165766,-0.16607,2.463,2.47415
-0.157772,-0.16607,2.463,2.47363
-0.150872,-0.167283,2.481,2.49121
-0.14282,-0.167283,2.481,2.49073
-0.134767,-0.167283,2.481,2.49028
-0.127634,-0.168497,2.499,2.50792
-0.119523,-0.168497,2.499,2.50752
-0.111411,-0.168497,2.499,2.50715
-0.1033,-0.168497,2.499,2.5068
-0.0958747,-0.169711,2.517,2.52454
-0.0877052,-0.169711,2.517,2.52424
-0.0795356,-0.169711,2.517,2.52397
-0.0713661,-0.169711,2.517,2.52372
-0.0631965,-0.169711,2.517,2.52351
-0.055027,-0.169711,2.517,2.52332
-0.0468574,-0.169711,2.517,2.52315
-0.0389799,-0.170992,2.536,2.54206
-0.0307487,-0.170992,2.536,2.54194
-0.0225174,-0.170992,2.536,2.54186
-0.0142862,-0.170992,2.536,2.5418
-0.00600962,-0.169711,2.517,2.52272
0.00215994,-0.169711,2.517,2.52272
0.0103295,-0.169711,2.517,2.52274
0.0184991,-0.169711,2.517,2.52278
0.0266686,-0.169711,2.517,2.52286
0.0348382,-0.169711,2.517,2.52296
0.0430077,-0.169711,2.517,2.52308
0.0511773,-0.169711,2.517,2.52323
0.0593468,-0.169711,2.517,2.52341
0.0675164,-0.169711,2.517,2.52362
0.0751447,-0.168497,2.499,2.5058
0.0832558,-0.168497,2.499,2.50606
0.091367,-0.168497,2.499,2.50634
0.0994781,-0.168497,2.499,2.50665
0.107589,-0.168497,2.499,2.50698
0.1157,-0.168497,2.499,2.50734
0.123811,-0.168497,2.499,2.50773
0.131923,-0.168497,2.499,2.50815
0.140034,-0.168497,2.499,2.50859
0.148145,-0.168497,2.499,2.50905
0.156256,-0.168497,2.499,2.50954
0.164367,-0.168497,2.499,2.51006
0.172478,-0.168497,2.499,2.51061
0.180589,-0.168497,2.499,2.51118
0.188701,-0.168497,2.499,2.51177
0.196812,-0.168497,2.499,2.51239
0.204923,-0.168497,2.499,2.51304
0.213034,-0.168497,2.499,2.51372
0.221145,-0.168497,2.499,2.51442
0.229256,-0.168497,2.499,2.51514
0.237367,-0.168497,2.499,2.5159
0.245479,-0.168497,2.499,2.51667
0.25359,-0.168497,2.499,2.51748
0.261701,-0.168497,2.499,2.51831
0.269812,-0.168497,2.499,2.51916
0.277923,-0.168497,2.499,2.52005
0.286034,-0.168497,2.499,2.52095
0.294145,-0.168497,2.499,2.52189
0.302256,-0.168497,2.499,2.52285
0.310368,-0.168497,2.499,2.52383
0.320773,-0.169711,2.517,2.54303
0.328942,-0.169711,2.517,2.54407
0.337112,-0.169711,2.517,2.54514
0.345281,-0.169711,2.517,2.54623
0.353451,-0.169711,2.517,2.54736
0.36162,-0.169711,2.517,2.5485
0.36979,-0.169711,2.517,2.54967
0.37796,-0.169711,2.517,2.55087
0.386129,-0.169711,2.517,2.55209
0.394299,-0.169711,2.517,2.55334
0.402468,-0.169711,2.517,2.55462
0.410638,-0.169711,2.517,2.55592
0.418807,-0.169711,2.517,2.55724
0.426977,-0.169711,2.517,2.55859
0.435146,-0.169711,2.517,2.55997
0.443316,-0.169711,2.517,2.56137
0.451486,-0.169711,2.517,2.5628
0.459655,-0.169711,2.517,2.56425
0.467825,-0.169711,2.517,2.56573
0.475994,-0.169711,2.517,2.56723
0.480701,-0.168497,2.499,2.55039
0.488812,-0.168497,2.499,2.55193
0.496924,-0.168497,2.499,2.55349
0.505035,-0.168497,2.499,2.55508
0.513146,-0.168497,2.499,2.5567
0.517502,-0.167283,2.481,2.53991
0.525555,-0.167283,2.481,2.54157
0.533608,-0.167283,2.481,2.54324
0.541661,-0.167283,2.481,2.54494
0.549713,-0.167283,2.481,2.54667
0.557766,-0.167283,2.481,2.54842
0.565819,-0.167283,2.481,2.5502
0.573871,-0.167283,2.481,2.55199
0.581924,-0.167283,2.481,2.55382
0.589977,-0.167283,2.481,2.55566
0.59803,-0.167283,2.481,2.55753
0.606082,-0.167283,2.481,2.55943
0.614135,-0.167283,2.481,2.56135
0.622188,-0.167283,2.481,2.56329
0.63024,-0.167283,2.481,2.56526
0.638293,-0.167283,2.481,2.56725
0.646346,-0.167283,2.481,2.56926
0.654399,-0.167283,2.481,2.5713
0.662451,-0.167283,2.481,2.57336
0.670504,-0.167283,2.481,2.57545
0.678557,-0.167283,2.481,2.57755
0.686609,-0.167283,2.481,2.57969
0.699702,-0.168497,2.499,2.60057
0.707813,-0.168497,2.499,2.60277
0.715924,-0.168497,2.499,2.60498
0.729251,-0.169711,2.517,2.626
0.73742,-0.169711,2.517,2.62828
0.74559,-0.169711,2.517,2.63059
0.759449,-0.170992,2.536,2.65279
0.76768,-0.170992,2.536,2.65516
0.775912,-0.170992,2.536,2.65755
0.784143,-0.170992,2.536,2.65997
0.798311,-0.172273,2.555,2.68235
0.806603,-0.172273,2.555,2.68483
0.814896,-0.172273,2.555,2.68733
0.823189,-0.172273,2.555,2.68986
0.831482,-0.172273,2.555,2.69241
0.839775,-0.172273,2.555,2.69498
0.848068,-0.172273,2.555,2.69758
0.856361,-0.172273,2.555,2.7002
0.864654,-0.172273,2.555,2.70284
0.872947,-0.172273,2.555,2.7055
0.881239,-0.172273,2.555,2.70819
0.889532,-0.172273,2.555,2.7109
0.891149,-0.170992,2.536,2.69345
0.89938,-0.170992,2.536,2.69619
0.900811,-0.169711,2.517,2.67872
0.90248,-0.168497,2.499,2.6623
0.910591,-0.168497,2.499,2.66506
0.918703,-0.168497,2.499,2.66785
0.920138,-0.167283,2.481,2.65141
0.921457,-0.16607,2.463,2.63496
0.929451,-0.16607,2.463,2.63777
0.930594,-0.164856,2.445,2.6213
0.93853,-0.164856,2.445,2.62413
0.946466,-0.164856,2.445,2.62698
0.947766,-0.16371,2.428,2.61156
0.955646,-0.16371,2.428,2.61443
0.963527,-0.16371,2.428,2.61732
0.964606,-0.162563,2.411,2.60189
0.972432,-0.162563,2.411,2.6048
0.980257,-0.162563,2.411,2.60773
0.988083,-0.162563,2.411,2.61068
0.995908,-0.162563,2.411,2.61365
1.00373,-0.162563,2.411,2.61664
nan,nan,nan,NaN
nan,nan,nan,NaN
nan,nan,nan,NaN
nan,nan,nan,NaN
nan,nan,nan,NaN
nan,nan,nan,NaN
nan,nan,nan,NaN
nan,nan,nan,NaN
nan,nan,nan,NaN
nan,nan,nan,NaN
nan,nan,nan,NaN
nan,nan,nan,NaN
nan,nan,nan,NaN
1.66416,-0.243002,3.604,3.9771
1.67586,-0.243002,3.604,3.98201
1.68756,-0.243002,3.604,3.98694
1.71717,-0.245564,3.642,4.034
1.729,-0.245564,3.642,4.03905
1.74082,-0.245564,3.642,4.04412
1.75264,-0.245564,3.642,4.04922
1.76446,-0.245564,3.642,4.05435
1.77628,-0.245564,3.642,4.05951
1.7881,-0.245564,3.642,4.0647
1.78114,-0.243002,3.604,4.02745
1.79284,-0.243002,3.604,4.03263
1.78551,-0.24044,3.566,3.99527
1.77844,-0.237945,3.529,3.95895
1.78989,-0.237945,3.529,3.96411
1.80135,-0.237945,3.529,3.9693
nan,nan,nan,NaN
nan,nan,nan,NaN
nan,nan,nan,NaN
nan,nan,nan,NaN
nan,nan,nan,NaN
nan,nan,nan,NaN
nan,nan,nan,NaN
1.97451,-0.248194,3.681,4.1845
1.98646,-0.248194,3.681,4.19015
1.99841,-0.248194,3.681,4.19583
1.98906,-0.245564,3.642,4.15702
2.00088,-0.245564,3.642,4.16269
1.9917,-0.243002,3.604,4.12489
1.98227,-0.24044,3.566,4.087
1.99385,-0.24044,3.566,4.09263
1.98461,-0.237945,3.529,4.05576
1.97571,-0.235518,3.493,4.01994
1.98704,-0.235518,3.493,4.02553
1.97836,-0.233158,3.458,3.99074
1.96944,-0.230798,3.423,3.95587
1.98055,-0.230798,3.423,3.96141
1.99166,-0.230798,3.423,3.96698
1.98288,-0.228506,3.389,3.93311
1.97447,-0.226281,3.356,3.90032
1.98536,-0.226281,3.356,3.90584
1.99625,-0.226281,3.356,3.91139
1.98801,-0.224123,3.324,3.87961
1.99879,-0.224123,3.324,3.88515
1.97089,-0.219808,3.26,3.8158
1.96324,-0.217785,3.23,3.78611
1.97372,-0.217785,3.23,3.79156
1.94735,-0.21374,3.17,3.72649
1.93973,-0.211784,3.141,3.69774
1.94992,-0.211784,3.141,3.7031
1.92455,-0.207941,3.084,3.64118
1.91762,-0.20612,3.057,3.61455
1.92754,-0.20612,3.057,3.61983
1.90324,-0.202479,3.003,3.56109
1.87986,-0.198973,2.951,3.50455
1.85743,-0.195602,2.901,3.45023
1.86684,-0.195602,2.901,3.45531
1.86074,-0.193984,2.877,3.43178
1.83887,-0.190747,2.829,3.37951
1.84806,-0.190747,2.829,3.38451
1.84214,-0.189197,2.806,3.36198
1.83607,-0.187646,2.783,3.33938
1.84511,-0.187646,2.783,3.34436
1.82482,-0.184679,2.739,3.29639
1.81899,-0.183196,2.717,3.27481
1.8278,-0.183196,2.717,3.27971
1.82243,-0.18178,2.696,3.25925
1.80265,-0.178948,2.654,3.2133
-2.01252,-0.186189,2.901,3.53563
-2.0031,-0.186189,2.901,3.53028
-1.97719,-0.184648,2.877,3.49579
-1.96786,-0.184648,2.877,3.49051
-1.94218,-0.183108,2.853,3.45618
-1.93292,-0.183108,2.853,3.45099
-1.90748,-0.181568,2.829,3.41682
-1.88286,-0.180092,2.806,3.38397
-1.87375,-0.180092,2.806,3.37891
-1.86465,-0.180092,2.806,3.37387
-1.85554,-0.180092,2.806,3.36884
-1.84643,-0.180092,2.806,3.36383
-1.83732,-0.180092,2.806,3.35884
-1.82822,-0.180092,2.806,3.35387
-1.81911,-0.180092,2.806,3.34891
-1.82484,-0.181568,2.829,3.37139
-1.81565,-0.181568,2.829,3.36642
-1.8218,-0.183108,2.853,3.39
-1.84303,-0.186189,2.901,3.44198
-1.83362,-0.186189,2.901,3.43695
-1.83992,-0.187793,2.926,3.46151
-1.83042,-0.187793,2.926,3.45647
-1.82093,-0.187793,2.926,3.45145
-1.82691,-0.189398,2.951,3.4759
-1.83334,-0.191066,2.977,3.50145
-1.8396,-0.192735,3.003,3.52694
-1.82986,-0.192735,3.003,3.52187
-1.83648,-0.194468,3.03,3.54843
-1.82664,-0.194468,3.03,3.54335
-1.81681,-0.194468,3.03,3.53829
-1.80697,-0.194468,3.03,3.53325
-1.79714,-0.194468,3.03,3.52823
nan,nan,nan,NaN
nan,nan,nan,NaN
nan,nan,nan,NaN
nan,nan,nan,NaN
nan,nan,nan,NaN
nan,nan,nan,NaN
nan,nan,nan,NaN
nan,nan,nan,NaN
nan,nan,nan,NaN
nan,nan,nan,NaN
nan,nan,nan,NaN
nan,nan,nan,NaN
nan,nan,nan,NaN
nan,nan,nan,NaN
nan,nan,nan,NaN
nan,nan,nan,NaN
nan,nan,nan,NaN
nan,nan,nan,NaN
nan,nan,nan,NaN
nan,nan,nan,NaN
nan,nan,nan,NaN
nan,nan,nan,NaN
nan,nan,nan,NaN
nan,nan,nan,NaN
nan,nan,nan,NaN
nan,nan,nan,NaN
nan,nan,nan,NaN
nan,nan,nan,NaN
nan,nan,nan,NaN
nan,nan,nan,NaN
nan,nan,nan,NaN
nan,nan,nan,NaN
nan,nan,nan,NaN
-1.18035,-0.156922,2.445,2.71953
-1.17241,-0.156922,2.445,2.7161
-1.16447,-0.156922,2.445,2.71268
-1.1485,-0.155831,2.428,2.69045
-1.13263,-0.15474,2.411,2.66828
-1.1248,-0.15474,2.411,2.66497
-1.1091,-0.153649,2.394,2.64291
-1.09351,-0.152558,2.377,2.62091
-1.0858,-0.152558,2.377,2.6177
-1.07808,-0.152558,2.377,2.61451
-1.07037,-0.152558,2.377,2.61134
-1.0555,-0.151531,2.361,2.59063
-1.04784,-0.151531,2.361,2.58752
-1.03312,-0.150504,2.345,2.56691
-1.01851,-0.149477,2.329,2.54636
-1.01096,-0.149477,2.329,2.54335
-1.0034,-0.149477,2.329,2.54035
-0.995836,-0.149477,2.329,2.53738
-0.988277,-0.149477,2.329,2.53442
-0.980718,-0.149477,2.329,2.53148
-0.973158,-0.149477,2.329,2.52856
-0.965599,-0.149477,2.329,2.52566
-0.95804,-0.149477,2.329,2.52278
-0.95048,-0.149477,2.329,2.51992
-0.936443,-0.14845,2.313,2.49979
-0.928936,-0.14845,2.313,2.49698
-0.921428,-0.14845,2.313,2.4942
-0.913921,-0.14845,2.313,2.49144
-0.912683,-0.149477,2.329,2.50591
-0.905124,-0.149477,2.329,2.50316
-0.891399,-0.14845,2.313,2.48326
-0.883891,-0.14845,2.313,2.48058
-0.876384,-0.14845,2.313,2.47791
-0.868876,-0.14845,2.313,2.47527
-0.861369,-0.14845,2.313,2.47264
-0.853861,-0.14845,2.313,2.47004
-0.846354,-0.14845,2.313,2.46745
-0.844649,-0.149477,2.329,2.48194
-0.83709,-0.149477,2.329,2.47938
-0.829531,-0.149477,2.329,2.47683
-0.821971,-0.149477,2.329,2.47431
-0.814412,-0.149477,2.329,2.47181
-0.806852,-0.149477,2.329,2.46933
-0.799293,-0.149477,2.329,2.46687
-0.791734,-0.149477,2.329,2.46443
-0.784174,-0.149477,2.329,2.46201
-0.77128,-0.14845,2.313,2.44272
-0.763772,-0.14845,2.313,2.44036
-0.756265,-0.14845,2.313,2.43802
-0.748757,-0.14845,2.313,2.4357
-0.74125,-0.14845,2.313,2.4334
-0.733743,-0.14845,2.313,2.43113
-0.726235,-0.14845,2.313,2.42887
-0.718728,-0.14845,2.313,2.42664
-0.71122,-0.14845,2.313,2.42443
-0.708581,-0.149477,2.329,2.43899
-0.701021,-0.149477,2.329,2.4368
-0.693462,-0.149477,2.329,2.43464
-0.685903,-0.149477,2.329,2.4325
-0.678343,-0.149477,2.329,2.43038
-0.675392,-0.150504,2.345,2.44496
-0.667781,-0.150504,2.345,2.44287
-0.66017,-0.150504,2.345,2.4408
-0.657011,-0.151531,2.361,2.45539
-0.649348,-0.151531,2.361,2.45335
-0.646033,-0.152558,2.377,2.46795
-0.638318,-0.152558,2.377,2.46594
-0.630603,-0.152558,2.377,2.46395
-0.627342,-0.153649,2.394,2.4796
-0.619572,-0.153649,2.394,2.47764
-0.611802,-0.153649,2.394,2.47571
-0.604031,-0.153649,2.394,2.4738
-0.596261,-0.153649,2.394,2.47192
-0.59267,-0.15474,2.411,2.48759
-0.584844,-0.15474,2.411,2.48574
-0.577019,-0.15474,2.411,2.48391
-0.569193,-0.15474,2.411,2.48211
-0.561368,-0.15474,2.411,2.48032
-0.553542,-0.15474,2.411,2.47856
-0.545717,-0.15474,2.411,2.47683
-0.537891,-0.15474,2.411,2.47511
-0.530066,-0.15474,2.411,2.47343
-0.52224,-0.15474,2.411,2.47176
-0.514415,-0.15474,2.411,2.47012
-0.506589,-0.15474,2.411,2.4685
-0.498764,-0.15474,2.411,2.46691
-0.490938,-0.15474,2.411,2.46534
-0.483112,-0.15474,2.411,2.46379
-0.475287,-0.15474,2.411,2.46227
-0.467461,-0.15474,2.411,2.46077
-0.459636,-0.15474,2.411,2.45929
-0.45181,-0.15474,2.411,2.45784
-0.443985,-0.15474,2.411,2.45642
-0.436159,-0.15474,2.411,2.45502
-0.431354,-0.155831,2.428,2.47094
-0.423473,-0.155831,2.428,2.46957
-0.415593,-0.155831,2.428,2.46824
-0.407712,-0.155831,2.428,2.46692
-0.402631,-0.156922,2.445,2.48289
-0.391951,-0.155831,2.428,2.46436
-0.38407,-0.155831,2.428,2.46312
-0.378823,-0.156922,2.445,2.47914
-0.370887,-0.156922,2.445,2.47794
-0.362952,-0.156922,2.445,2.47677
-0.355016,-0.156922,2.445,2.47562
-0.34708,-0.156922,2.445,2.47449
-0.339144,-0.156922,2.445,2.47339
-0.331208,-0.156922,2.445,2.47232
-0.323272,-0.156922,2.445,2.47127
-0.315336,-0.156922,2.445,2.47024
-0.3074,-0.156922,2.445,2.46924
-0.299465,-0.156922,2.445,2.46826
-0.291529,-0.156922,2.445,2.46731
-0.283593,-0.156922,2.445,2.46639
-0.275657,-0.156922,2.445,2.46549
-0.267721,-0.156922,2.445,2.46461
-0.259785,-0.156922,2.445,2.46377
-0.251849,-0.156922,2.445,2.46294
-0.242218,-0.155831,2.428,2.44502
-0.234337,-0.155831,2.428,2.44425
-0.226456,-0.155831,2.428,2.44351
-0.218576,-0.155831,2.428,2.44279
-0.210695,-0.155831,2.428,2.4421
-0.202814,-0.155831,2.428,2.44143
-0.196298,-0.156922,2.445,2.45788
-0.188363,-0.156922,2.445,2.45726
-0.180427,-0.156922,2.445,2.45667
-0.172491,-0.156922,2.445,2.4561
-0.164555,-0.156922,2.445,2.45555
-0.156619,-0.156922,2.445,2.45503
-0.149778,-0.158078,2.463,2.47261
-0.141784,-0.158078,2.463,2.47214
-0.133789,-0.158078,2.463,2.47169
-0.126714,-0.159233,2.481,2.48933
-0.118662,-0.159233,2.481,2.48893
-0.110609,-0.159233,2.481,2.48856
-0.1033,-0.160388,2.499,2.50627
-0.0951891,-0.160388,2.499,2.50595
-0.087078,-0.160388,2.499,2.50566
-0.0789668,-0.160388,2.499,2.50539
-0.0708557,-0.160388,2.499,2.50514
-0.0627446,-0.160388,2.499,2.50493
-0.055027,-0.161543,2.517,2.52278
-0.0468574,-0.161543,2.517,2.52261
-0.0386878,-0.161543,2.517,2.52248
-0.0305183,-0.161543,2.517,2.52236
-0.0223487,-0.161543,2.517,2.52228
-0.0141792,-0.161543,2.517,2.52222
-0.00600962,-0.161543,2.517,2.52219
0.00215994,-0.161543,2.517,2.52218
0.0103295,-0.161543,2.517,2.5222
0.0184991,-0.161543,2.517,2.52225
0.0266686,-0.161543,2.517,2.52232
0.034589,-0.160388,2.499,2.50438
0.0427002,-0.160388,2.499,2.50451
0.0508113,-0.160388,2.499,2.50466
0.0589224,-0.160388,2.499,2.50483
0.0670336,-0.160388,2.499,2.50504
0.0751447,-0.160388,2.499,2.50527
0.0826561,-0.159233,2.481,2.48748
0.0907089,-0.159233,2.481,2.48776
0.0987616,-0.159233,2.481,2.48807
0.106814,-0.159233,2.481,2.4884
0.1157,-0.160388,2.499,2.50681
0.123811,-0.160388,2.499,2.5072
0.131923,-0.160388,2.499,2.50761
0.140034,-0.160388,2.499,2.50805
0.148145,-0.160388,2.499,2.50852
0.156256,-0.160388,2.499,2.50901
0.164367,-0.160388,2.499,2.50953
0.172478,-0.160388,2.499,2.51007
0.180589,-0.160388,2.499,2.51064
0.188701,-0.160388,2.499,2.51124
0.196812,-0.160388,2.499,2.51186
0.204923,-0.160388,2.499,2.51251
0.213034,-0.160388,2.499,2.51319
0.221145,-0.160388,2.499,2.51389
0.229256,-0.160388,2.499,2.51461
0.237367,-0.160388,2.499,2.51537
0.245479,-0.160388,2.499,2.51614
0.25359,-0.160388,2.499,2.51695
0.261701,-0.160388,2.499,2.51778
0.269812,-0.160388,2.499,2.51864
0.277923,-0.160388,2.499,2.51952
0.286034,-0.160388,2.499,2.52042
0.294145,-0.160388,2.499,2.52136
0.302256,-0.160388,2.499,2.52232
0.310368,-0.160388,2.499,2.5233
0.320773,-0.161543,2.517,2.5425
0.328942,-0.161543,2.517,2.54354
0.337112,-0.161543,2.517,2.54461
0.345281,-0.161543,2.517,2.5457
0.353451,-0.161543,2.517,2.54682
0.36162,-0.161543,2.517,2.54797
0.36979,-0.161543,2.517,2.54914
0.37796,-0.161543,2.517,2.55034
0.386129,-0.161543,2.517,2.55156
0.394299,-0.161543,2.517,2.55281
0.402468,-0.161543,2.517,2.55409
0.410638,-0.161543,2.517,2.55539
0.418807,-0.161543,2.517,2.55671
0.426977,-0.161543,2.517,2.55806
0.435146,-0.161543,2.517,2.55944
0.443316,-0.161543,2.517,2.56084
0.451486,-0.161543,2.517,2.56227
0.459655,-0.161543,2.517,2.56372
0.467825,-0.161543,2.517,2.5652
0.475994,-0.161543,2.517,2.5667
0.480701,-0.160388,2.499,2.54986
0.488812,-0.160388,2.499,2.5514
0.496924,-0.160388,2.499,2.55297
0.505035,-0.160388,2.499,2.55456
0.513146,-0.160388,2.499,2.55618
0.517502,-0.159233,2.481,2.53939
0.525555,-0.159233,2.481,2.54105
0.533608,-0.159233,2.481,2.54273
0.541661,-0.159233,2.481,2.54443
0.549713,-0.159233,2.481,2.54615
0.557766,-0.159233,2.481,2.54791
0.565819,-0.159233,2.481,2.54968
0.573871,-0.159233,2.481,2.55148
0.581924,-0.159233,2.481,2.5533
0.589977,-0.159233,2.481,2.55515
0.59803,-0.159233,2.481,2.55702
0.606082,-0.159233,2.481,2.55892
0.614135,-0.159233,2.481,2.56084
0.622188,-0.159233,2.481,2.56278
0.63024,-0.159233,2.481,2.56475
0.638293,-0.159233,2.481,2.56674
0.646346,-0.159233,2.481,2.56875
0.654399,-0.159233,2.481,2.57079
0.662451,-0.159233,2.481,2.57285
0.670504,-0.159233,2.481,2.57494
0.678557,-0.159233,2.481,2.57704
0.686609,-0.159233,2.481,2.57918
0.699702,-0.160388,2.499,2.60006
0.707813,-0.160388,2.499,2.60225
0.715924,-0.160388,2.499,2.60447
0.729251,-0.161543,2.517,2.62549
0.73742,-0.161543,2.517,2.62777
0.74559,-0.161543,2.517,2.63007
0.753759,-0.161543,2.517,2.6324
0.76768,-0.162763,2.536,2.65464
0.775912,-0.162763,2.536,2.65703
0.784143,-0.162763,2.536,2.65945
0.798311,-0.163982,2.555,2.68183
0.806603,-0.163982,2.555,2.68431
0.814896,-0.163982,2.555,2.68681
0.823189,-0.163982,2.555,2.68934
0.831482,-0.163982,2.555,2.69189
0.839775,-0.163982,2.555,2.69446
0.848068,-0.163982,2.555,2.69706
0.856361,-0.163982,2.555,2.69968
0.864654,-0.163982,2.555,2.70232
0.872947,-0.163982,2.555,2.70499
0.881239,-0.163982,2.555,2.70767
0.889532,-0.163982,2.555,2.71038
0.891149,-0.162763,2.536,2.69294
0.89938,-0.162763,2.536,2.69568
0.900811,-0.161543,2.517,2.67822
0.90248,-0.160388,2.499,2.6618
0.910591,-0.160388,2.499,2.66456
0.918703,-0.160388,2.499,2.66735
0.920138,-0.159233,2.481,2.65092
0.914722,-0.156922,2.445,2.61522
