-1.66422,0.0275158,2.633,3.11498
-1.65568,0.0275158,2.633,3.11042
-1.66027,0.0277353,2.654,3.13065
-1.67779,0.0281742,2.696,3.17556
-1.66904,0.0281742,2.696,3.17095
-1.67322,0.0283936,2.717,3.19101
-1.67788,0.0286235,2.739,3.2122
-1.66899,0.0286235,2.739,3.20756
-1.67344,0.0288534,2.761,3.22867
-1.67774,0.0290833,2.783,3.24973
-1.6687,0.0290833,2.783,3.24507
-1.65967,0.0290833,2.783,3.24044
-1.63759,0.0288534,2.761,3.21024
-1.62863,0.0288534,2.761,3.20568
-1.60676,0.0286235,2.739,3.17563
-1.58504,0.0283936,2.717,3.14567
-1.57622,0.0283936,2.717,3.14123
-1.55528,0.0281742,2.696,3.11257
-1.53449,0.0279547,2.675,3.084
-1.5258,0.0279547,2.675,3.07969
-1.50521,0.0277353,2.654,3.05125
-1.48476,0.0275158,2.633,3.0229
-1.47621,0.0275158,2.633,3.01872
-1.45652,0.0273068,2.613,2.99165
-1.44803,0.0273068,2.613,2.98753
-1.45057,0.0275158,2.633,3.00626
-1.44203,0.0275158,2.633,3.00215
-1.43348,0.0275158,2.633,2.99805
-1.42493,0.0275158,2.633,2.99397
-1.43898,0.0279547,2.675,3.03761
-1.4303,0.0279547,2.675,3.03351
-1.43278,0.0281742,2.696,3.0532
-1.42403,0.0281742,2.696,3.04911
-1.41528,0.0281742,2.696,3.04503
-1.41748,0.0283936,2.717,3.06466
-1.40866,0.0283936,2.717,3.06059
-1.42251,0.0288534,2.761,3.10604
-1.41355,0.0288534,2.761,3.10195
-1.3934,0.0286235,2.739,3.07319
-1.38451,0.0286235,2.739,3.06917
-1.36457,0.0283936,2.717,3.04055
-1.34527,0.0281742,2.696,3.01313
-1.33652,0.0281742,2.696,3.00924
-1.30708,0.0277353,2.654,2.95854
-1.27841,0.0273068,2.613,2.9091
-1.26993,0.0273068,2.613,2.90538
-1.25179,0.0270978,2.593,2.87947
-1.22516,0.0267007,2.555,2.83368
-1.19876,0.0263036,2.517,2.78801
-1.1906,0.0263036,2.517,2.78451
-1.17397,0.0261154,2.499,2.76114
-1.15746,0.0259273,2.481,2.73784
-1.14941,0.0259273,2.481,2.73444
-1.12479,0.0255511,2.445,2.69144
-1.10909,0.0253735,2.428,2.66944
-1.10121,0.0253735,2.428,2.66618
-1.08568,0.0251958,2.411,2.64429
-1.07025,0.0250182,2.394,2.62246
-1.06248,0.0250182,2.394,2.6193
-1.05471,0.0250182,2.394,2.61616
-1.03951,0.0248405,2.377,2.59448
-1.02485,0.0246733,2.361,2.57395
-1.01718,0.0246733,2.361,2.57091
-1.00952,0.0246733,2.361,2.56789
-1.00186,0.0246733,2.361,2.56489
-0.994193,0.0246733,2.361,2.5619
-0.986529,0.0246733,2.361,2.55894
-0.972232,0.0245061,2.345,2.53867
-0.964621,0.0245061,2.345,2.53577
-0.95701,0.0245061,2.345,2.53288
-0.955876,0.0246733,2.361,2.54728
-0.948213,0.0246733,2.361,2.54441
-0.94055,0.0246733,2.361,2.54157
-0.926565,0.0245061,2.345,2.52154
-0.918953,0.0245061,2.345,2.51875
-0.91756,0.0246733,2.361,2.53315
-0.909897,0.0246733,2.361,2.53038
-0.902234,0.0246733,2.361,2.52764
-0.894571,0.0246733,2.361,2.52491
-0.886907,0.0246733,2.361,2.52221
-0.879244,0.0246733,2.361,2.51952
-0.877488,0.0248405,2.377,2.53392
-0.869772,0.0248405,2.377,2.53125
-0.862057,0.0248405,2.377,2.52861
-0.860452,0.0250182,2.394,2.54406
-0.852682,0.0250182,2.394,2.54144
-0.844912,0.0250182,2.394,2.53885
-0.837141,0.0250182,2.394,2.53627
-0.829371,0.0250182,2.394,2.53372
-0.821601,0.0250182,2.394,2.53118
-0.819609,0.0251958,2.411,2.54663
-0.811784,0.0251958,2.411,2.54412
-0.803958,0.0251958,2.411,2.54163
-0.801746,0.0253735,2.428,2.55707
-0.793866,0.0253735,2.428,2.55461
-0.791488,0.0255511,2.445,2.57005
-0.783552,0.0255511,2.445,2.56761
-0.775616,0.0255511,2.445,2.5652
-0.767681,0.0255511,2.445,2.56281
-0.759745,0.0255511,2.445,2.56045
-0.757344,0.0257392,2.463,2.57694
-0.749349,0.0257392,2.463,2.5746
-0.741355,0.0257392,2.463,2.57228
-0.733361,0.0257392,2.463,2.56999
-0.725366,0.0257392,2.463,2.56772
-0.722615,0.0259273,2.481,2.58422
-0.714562,0.0259273,2.481,2.58198
-0.701384,0.0257392,2.463,2.56105
-0.693389,0.0257392,2.463,2.55887
-0.685395,0.0257392,2.463,2.55672
-0.677401,0.0257392,2.463,2.55458
-0.669406,0.0257392,2.463,2.55248
-0.661412,0.0257392,2.463,2.55039
-0.653418,0.0257392,2.463,2.54833
-0.645424,0.0257392,2.463,2.54629
-0.637429,0.0257392,2.463,2.54428
-0.629435,0.0257392,2.463,2.54229
-0.621441,0.0257392,2.463,2.54032
-0.613446,0.0257392,2.463,2.53838
-0.605452,0.0257392,2.463,2.53645
-0.597458,0.0257392,2.463,2.53456
-0.589464,0.0257392,2.463,2.53269
-0.581469,0.0257392,2.463,2.53084
-0.573475,0.0257392,2.463,2.52901
-0.569613,0.0259273,2.481,2.54568
-0.561561,0.0259273,2.481,2.54389
-0.553508,0.0259273,2.481,2.54213
-0.545455,0.0259273,2.481,2.54039
-0.537403,0.0259273,2.481,2.53867
-0.52935,0.0259273,2.481,2.53698
-0.525079,0.0261154,2.499,2.5537
-0.516968,0.0261154,2.499,2.55205
-0.508857,0.0261154,2.499,2.55042
-0.504353,0.0263036,2.517,2.56717
-0.496183,0.0263036,2.517,2.56558
-0.488013,0.0263036,2.517,2.56401
-0.479844,0.0263036,2.517,2.56247
-0.475235,0.0265021,2.536,2.58028
-0.467004,0.0265021,2.536,2.57878
-0.458772,0.0265021,2.536,2.5773
-0.453917,0.0267007,2.555,2.59515
-0.445624,0.0267007,2.555,2.59371
-0.437331,0.0267007,2.555,2.5923
-0.429038,0.0267007,2.555,2.59091
-0.420745,0.0267007,2.555,2.58955
-0.412452,0.0267007,2.555,2.58821
-0.404159,0.0267007,2.555,2.58691
-0.392923,0.0265021,2.536,2.5664
-0.384691,0.0265021,2.536,2.56515
-0.37646,0.0265021,2.536,2.56393
-0.368229,0.0265021,2.536,2.56273
-0.359998,0.0265021,2.536,2.56156
-0.351766,0.0265021,2.536,2.56042
-0.343535,0.0265021,2.536,2.5593
-0.335304,0.0265021,2.536,2.55821
-0.324622,0.0263036,2.517,2.53798
-0.316453,0.0263036,2.517,2.53695
-0.308283,0.0263036,2.517,2.53595
-0.300114,0.0263036,2.517,2.53497
-0.291944,0.0263036,2.517,2.53401
-0.281745,0.0261154,2.499,2.51497
-0.273634,0.0261154,2.499,2.51407
-0.265523,0.0261154,2.499,2.5132
-0.257412,0.0261154,2.499,2.51236
-0.249301,0.0261154,2.499,2.51154
-0.24119,0.0261154,2.499,2.51075
-0.2314,0.0259273,2.481,2.4919
-0.223347,0.0259273,2.481,2.49117
-0.215294,0.0259273,2.481,2.49046
-0.207241,0.0259273,2.481,2.48978
-0.199189,0.0259273,2.481,2.48912
-0.191136,0.0259273,2.481,2.48849
-0.184412,0.0261154,2.499,2.50593
-0.1763,0.0261154,2.499,2.50535
-0.168189,0.0261154,2.499,2.50479
-0.160078,0.0261154,2.499,2.50426
-0.153062,0.0263036,2.517,2.52179
-0.144892,0.0263036,2.517,2.5213
-0.136723,0.0263036,2.517,2.52085
-0.128553,0.0263036,2.517,2.52042
-0.120383,0.0263036,2.517,2.52001
-0.112214,0.0263036,2.517,2.51964
-0.104044,0.0263036,2.517,2.51929
-0.0958747,0.0263036,2.517,2.51896
-0.0883672,0.0265021,2.536,2.53768
-0.080136,0.0265021,2.536,2.5374
-0.0719048,0.0265021,2.536,2.53716
-0.0636736,0.0265021,2.536,2.53694
-0.0554423,0.0265021,2.536,2.53674
-0.0472111,0.0265021,2.536,2.53658
-0.0389799,0.0265021,2.536,2.53644
-0.0307487,0.0265021,2.536,2.53632
-0.0225174,0.0265021,2.536,2.53624
-0.0142862,0.0265021,2.536,2.53618
-0.00605498,0.0265021,2.536,2.53615
0.00217625,0.0265021,2.536,2.53614
0.0104075,0.0265021,2.536,2.53616
0.0187783,0.0267007,2.555,2.55521
0.0270712,0.0267007,2.555,2.55528
0.0353641,0.0267007,2.555,2.55538
0.043657,0.0267007,2.555,2.55551
0.0519499,0.0267007,2.555,2.55567
0.0602428,0.0267007,2.555,2.55585
0.0685357,0.0267007,2.555,2.55606
0.0768286,0.0267007,2.555,2.55629
0.0851215,0.0267007,2.555,2.55656
0.0927197,0.0265021,2.536,2.53783
0.100951,0.0265021,2.536,2.53815
0.109182,0.0265021,2.536,2.53849
0.117413,0.0265021,2.536,2.53885
0.125645,0.0265021,2.536,2.53925
0.133876,0.0265021,2.536,2.53967
0.142107,0.0265021,2.536,2.54012
0.150338,0.0265021,2.536,2.54059
0.15857,0.0265021,2.536,2.54109
0.166801,0.0265021,2.536,2.54162
0.175032,0.0265021,2.536,2.54217
0.183263,0.0265021,2.536,2.54275
0.191494,0.0265021,2.536,2.54336
0.199726,0.0265021,2.536,2.54399
0.207957,0.0265021,2.536,2.54465
0.216188,0.0265021,2.536,2.54534
0.224419,0.0265021,2.536,2.54605
0.232651,0.0265021,2.536,2.54679
0.240882,0.0265021,2.536,2.54755
0.247247,0.0263036,2.517,2.52925
0.255416,0.0263036,2.517,2.53006
0.263586,0.0263036,2.517,2.5309
0.269812,0.0261154,2.499,2.51366
0.277923,0.0261154,2.499,2.51454
0.286034,0.0261154,2.499,2.51545
0.292027,0.0259273,2.481,2.49826
0.297902,0.0257392,2.463,2.48108
0.305896,0.0257392,2.463,2.48206
0.313891,0.0257392,2.463,2.48305
0.319533,0.0255511,2.445,2.46592
0.327469,0.0255511,2.445,2.46696
0.335404,0.0255511,2.445,2.46803
0.34334,0.0255511,2.445,2.46912
0.351276,0.0255511,2.445,2.47024
0.356714,0.0253735,2.428,2.4542
0.364595,0.0253735,2.428,2.45535
0.372476,0.0253735,2.428,2.45654
0.380356,0.0253735,2.428,2.45774
0.388237,0.0253735,2.428,2.45897
0.396118,0.0253735,2.428,2.46023
0.403999,0.0253735,2.428,2.46151
0.411879,0.0253735,2.428,2.46282
0.41976,0.0253735,2.428,2.46415
0.427641,0.0253735,2.428,2.4655
0.435521,0.0253735,2.428,2.46688
0.443402,0.0253735,2.428,2.46829
0.451283,0.0253735,2.428,2.46971
0.459163,0.0253735,2.428,2.47117
0.470314,0.0255511,2.445,2.48995
0.47825,0.0255511,2.445,2.49147
0.486186,0.0255511,2.445,2.493
0.497759,0.0257392,2.463,2.51293
0.505754,0.0257392,2.463,2.51452
0.517502,0.0259273,2.481,2.53453
0.525555,0.0259273,2.481,2.53619
0.533608,0.0259273,2.481,2.53787
0.541661,0.0259273,2.481,2.53957
0.549713,0.0259273,2.481,2.5413
0.561813,0.0261154,2.499,2.56151
0.569924,0.0261154,2.499,2.5633
0.578035,0.0261154,2.499,2.56511
0.590368,0.0263036,2.517,2.58544
0.603056,0.0265021,2.536,2.60685
0.611287,0.0265021,2.536,2.60877
0.619518,0.0265021,2.536,2.61071
0.632453,0.0267007,2.555,2.63225
0.640746,0.0267007,2.555,2.63425
0.649038,0.0267007,2.555,2.63628
0.657331,0.0267007,2.555,2.63834
0.665624,0.0267007,2.555,2.64042
0.673917,0.0267007,2.555,2.64252
0.68221,0.0267007,2.555,2.64465
0.690503,0.0267007,2.555,2.6468
0.693599,0.0265021,2.536,2.62927
0.70183,0.0265021,2.536,2.63146
0.710062,0.0265021,2.536,2.63366
0.718293,0.0265021,2.536,2.6359
0.726524,0.0265021,2.536,2.63815
0.734755,0.0265021,2.536,2.64043
0.742987,0.0265021,2.536,2.64273
0.74559,0.0263036,2.517,2.62524
0.753759,0.0263036,2.517,2.62757
0.761929,0.0263036,2.517,2.62993
0.770098,0.0263036,2.517,2.63231
0.778268,0.0263036,2.517,2.63471
0.786437,0.0263036,2.517,2.63713
0.794607,0.0263036,2.517,2.63958
0.802777,0.0263036,2.517,2.64205
0.810946,0.0263036,2.517,2.64454
0.819116,0.0263036,2.517,2.64706
0.821369,0.0261154,2.499,2.63065
0.82948,0.0261154,2.499,2.6332
0.837591,0.0261154,2.499,2.63576
0.845702,0.0261154,2.499,2.63835
0.847664,0.0259273,2.481,2.62194
0.855716,0.0259273,2.481,2.62455
0.863769,0.0259273,2.481,2.62719
0.871822,0.0259273,2.481,2.62985
0.879874,0.0259273,2.481,2.63253
0.881485,0.0257392,2.463,2.61611
0.889479,0.0257392,2.463,2.61882
0.890915,0.0255511,2.445,2.60239
0.898851,0.0255511,2.445,2.60511
0.906787,0.0255511,2.445,2.60786
0.908362,0.0253735,2.428,2.59248
0.916243,0.0253735,2.428,2.59525
0.924124,0.0253735,2.428,2.59804
0.925479,0.0251958,2.411,2.58265
0.933304,0.0251958,2.411,2.58546
0.94113,0.0251958,2.411,2.5883
0.942264,0.0250182,2.394,2.57288
0.950035,0.0250182,2.394,2.57574
0.957805,0.0250182,2.394,2.57861
0.965575,0.0250182,2.394,2.58151
0.973346,0.0250182,2.394,2.58443
0.988083,0.0251958,2.411,2.60574
0.995908,0.0251958,2.411,2.60871
1.01081,0.0253735,2.428,2.63013
1.02582,0.0255511,2.445,2.6516
1.03376,0.0255511,2.445,2.65468
1.05703,0.0259273,2.481,2.69692
1.07281,0.0261154,2.499,2.71967
1.08093,0.0261154,2.499,2.72288
1.10516,0.0265021,2.536,2.76647
1.13008,0.0268992,2.574,2.81128
1.15568,0.0273068,2.613,2.85729
1.16416,0.0273068,2.613,2.86073
1.18162,0.0275158,2.633,2.88612
1.20915,0.0279547,2.675,2.93572
1.21783,0.0279547,2.675,2.93931
1.23614,0.0281742,2.696,2.96602
1.24489,0.0281742,2.696,2.96967
1.25364,0.0281742,2.696,2.97335
1.27223,0.0283936,2.717,3.00024
1.27114,0.0281742,2.696,2.98077
1.27989,0.0281742,2.696,2.98452
1.28864,0.0281742,2.696,2.98828
1.29739,0.0281742,2.696,2.99206
1.30614,0.0281742,2.696,2.99587
1.3149,0.0281742,2.696,2.99969
1.33396,0.0283936,2.717,3.02694
1.34278,0.0283936,2.717,3.03083
1.35159,0.0283936,2.717,3.03475
1.36041,0.0283936,2.717,3.03869
1.38032,0.0286235,2.739,3.06728
1.38921,0.0286235,2.739,3.07129
1.40933,0.0288534,2.761,3.10003
1.44141,0.0293237,2.806,3.1547
1.4624,0.0295641,2.829,3.18477
1.47158,0.0295641,2.829,3.18899
1.50589,0.0300657,2.877,3.24742
1.54104,0.0305777,2.926,3.30714
1.55053,0.0305777,2.926,3.31158
1.57336,0.030839,2.951,3.34437
1.59688,0.0311107,2.977,3.37839
1.60655,0.0311107,2.977,3.38297
1.63032,0.0313824,3.003,3.41716
1.65482,0.0316646,3.03,3.45258
1.66465,0.0316646,3.03,3.45731
1.67449,0.0316646,3.03,3.46205
1.69933,0.0319467,3.057,3.49771
1.70925,0.0319467,3.057,3.50254
1.71917,0.0319467,3.057,3.5074
1.71383,0.0316646,3.03,3.48125
1.72366,0.0316646,3.03,3.4861
1.71805,0.0313824,3.003,3.45987
1.72779,0.0313824,3.003,3.46472
1.73754,0.0313824,3.003,3.46959
1.74729,0.0313824,3.003,3.47448
1.75704,0.0313824,3.003,3.47939
1.75149,0.0311107,2.977,3.45416
1.76115,0.0311107,2.977,3.45907
1.75535,0.030839,2.951,3.43374
1.74997,0.0305777,2.926,3.40952
1.75947,0.0305777,2.926,3.4144
1.75385,0.0303165,2.901,3.39009
1.74868,0.0300657,2.877,3.36688
1.75802,0.0300657,2.877,3.37174
1.76736,0.0300657,2.877,3.37662
1.76187,0.0298149,2.853,3.35331
1.77113,0.0298149,2.853,3.35819
1.75106,0.0293237,2.806,3.30768
1.73194,0.0288534,2.761,3.25938
1.7409,0.0288534,2.761,3.26415
1.73592,0.0286235,2.739,3.24289
1.71742,0.0281742,2.696,3.19668
1.72617,0.0281742,2.696,3.20139
1.72141,0.0279547,2.675,3.18114
1.71651,0.0277353,2.654,3.16084
1.69847,0.0273068,2.613,3.11662
1.70695,0.0273068,2.613,3.12125
1.7023,0.0270978,2.593,3.10197
1.69819,0.0268992,2.574,3.08383
1.70654,0.0268992,2.574,3.08844
1.70224,0.0267007,2.555,3.07024
1.69781,0.0265021,2.536,3.05198
1.70604,0.0265021,2.536,3.05656
1.70143,0.0263036,2.517,3.03823
1.69737,0.0261154,2.499,3.02105
-1.93066,0.0381137,2.783,3.38733
-1.90643,0.0378124,2.761,3.35545
-1.89747,0.0378124,2.761,3.35037
-1.87346,0.0375111,2.739,3.31864
-1.86457,0.0375111,2.739,3.31363
-1.85568,0.0375111,2.739,3.30864
-1.83196,0.0372098,2.717,3.27713
-1.80905,0.0369222,2.696,3.24691
-1.8003,0.0369222,2.696,3.24205
-1.79155,0.0369222,2.696,3.23719
-1.76891,0.0366346,2.675,3.20718
-1.76023,0.0366346,2.675,3.2024
-1.75155,0.0366346,2.675,3.19764
-1.72918,0.036347,2.654,3.16782
-1.70695,0.0360594,2.633,3.1381
-1.69841,0.0360594,2.633,3.13346
-1.68986,0.0360594,2.633,3.12884
-1.68132,0.0360594,2.633,3.12423
-1.67277,0.0360594,2.633,3.11964
-1.66422,0.0360594,2.633,3.11506
-1.65568,0.0360594,2.633,3.11051
-1.66027,0.036347,2.654,3.13074
-1.67779,0.0369222,2.696,3.17565
-1.66904,0.0369222,2.696,3.17104
-1.67322,0.0372098,2.717,3.1911
-1.67788,0.0375111,2.739,3.21229
-1.66899,0.0375111,2.739,3.20766
-1.67344,0.0378124,2.761,3.22877
-1.67774,0.0381137,2.783,3.24982
-1.6687,0.0381137,2.783,3.24517
-1.65967,0.0381137,2.783,3.24053
-1.63759,0.0378124,2.761,3.21033
-1.62863,0.0378124,2.761,3.20577
-1.60676,0.0375111,2.739,3.17572
-1.58504,0.0372098,2.717,3.14576
-1.57622,0.0372098,2.717,3.14133
-1.55528,0.0369222,2.696,3.11267
-1.52244,0.036347,2.654,3.05988
-1.51383,0.036347,2.654,3.0556
-1.4933,0.0360594,2.633,3.0272
-1.48476,0.0360594,2.633,3.02299
-1.47621,0.0360594,2.633,3.01881
-1.45652,0.0357855,2.613,2.99174
-1.44803,0.0357855,2.613,2.98762
-1.45057,0.0360594,2.633,3.00635
-1.44203,0.0360594,2.633,3.00224
-1.43348,0.0360594,2.633,2.99814
-1.42493,0.0360594,2.633,2.99407
-1.42768,0.036347,2.654,3.01385
-1.41907,0.036347,2.654,3.00978
-1.43278,0.0369222,2.696,3.0533
-1.42403,0.0369222,2.696,3.0492
-1.41528,0.0369222,2.696,3.04512
-1.41748,0.0372098,2.717,3.06476
-1.40866,0.0372098,2.717,3.06069
-1.41118,0.0375111,2.739,3.08139
-1.40229,0.0375111,2.739,3.07733
-1.38221,0.0372098,2.717,3.0486
-1.37339,0.0372098,2.717,3.04461
-1.36457,0.0372098,2.717,3.04064
-1.33479,0.0366346,2.675,2.98976
-1.32611,0.0366346,2.675,2.98589
-1.30708,0.036347,2.654,2.95863
-1.26863,0.0355116,2.593,2.88692
-1.26021,0.0355116,2.593,2.88323
-1.24262,0.0352514,2.574,2.85847
-1.22516,0.0349912,2.555,2.83377
-1.19876,0.0344708,2.517,2.7881
-1.1906,0.0344708,2.517,2.7846
-1.17397,0.0342243,2.499,2.76123
-1.15746,0.0339778,2.481,2.73793
-1.14941,0.0339778,2.481,2.73453
-1.12479,0.0334848,2.445,2.69153
-1.10909,0.0332519,2.428,2.66953
-1.10121,0.0332519,2.428,2.66626
-1.08568,0.0330191,2.411,2.64437
-1.07025,0.0327863,2.394,2.62255
-1.06248,0.0327863,2.394,2.61938
-1.05471,0.0327863,2.394,2.61624
-1.03951,0.0325535,2.377,2.59456
-1.02485,0.0323344,2.361,2.57404
-1.01718,0.0323344,2.361,2.571
-1.00952,0.0323344,2.361,2.56798
-1.00186,0.0323344,2.361,2.56497
-0.994193,0.0323344,2.361,2.56199
-0.986529,0.0323344,2.361,2.55902
-0.972232,0.0321152,2.345,2.53876
-0.964621,0.0321152,2.345,2.53585
-0.95701,0.0321152,2.345,2.53297
-0.955876,0.0323344,2.361,2.54736
-0.948213,0.0323344,2.361,2.5445
-0.94055,0.0323344,2.361,2.54165
-0.932887,0.0323344,2.361,2.53883
-0.925224,0.0323344,2.361,2.53602
-0.91756,0.0323344,2.361,2.53324
-0.909897,0.0323344,2.361,2.53047
-0.902234,0.0323344,2.361,2.52772
-0.894571,0.0323344,2.361,2.525
-0.886907,0.0323344,2.361,2.52229
-0.885203,0.0325535,2.377,2.53669
-0.877488,0.0325535,2.377,2.534
-0.869772,0.0325535,2.377,2.53134
-0.868223,0.0327863,2.394,2.54679
-0.860452,0.0327863,2.394,2.54415
-0.852682,0.0327863,2.394,2.54153
-0.844912,0.0327863,2.394,2.53893
-0.843086,0.0330191,2.411,2.55437
-0.83526,0.0330191,2.411,2.5518
-0.827435,0.0330191,2.411,2.54925
-0.819609,0.0330191,2.411,2.54672
-0.817508,0.0332519,2.428,2.56215
-0.809627,0.0332519,2.428,2.55965
-0.801746,0.0332519,2.428,2.55716
-0.799424,0.0334848,2.445,2.57259
-0.791488,0.0334848,2.445,2.57014
-0.783552,0.0334848,2.445,2.5677
-0.775616,0.0334848,2.445,2.56529
-0.767681,0.0334848,2.445,2.5629
-0.759745,0.0334848,2.445,2.56054
-0.757344,0.0337313,2.463,2.57703
-0.749349,0.0337313,2.463,2.57469
-0.741355,0.0337313,2.463,2.57238
-0.73872,0.0339778,2.481,2.58887
-0.730668,0.0339778,2.481,2.58658
-0.722615,0.0339778,2.481,2.58432
-0.714562,0.0339778,2.481,2.58208
-0.706509,0.0339778,2.481,2.57986
-0.698457,0.0339778,2.481,2.57767
-0.690404,0.0339778,2.481,2.5755
-0.682351,0.0339778,2.481,2.57335
-0.674299,0.0339778,2.481,2.57122
-0.666246,0.0339778,2.481,2.56912
-0.658193,0.0339778,2.481,2.56705
-0.65014,0.0339778,2.481,2.565
-0.642088,0.0339778,2.481,2.56297
-0.634035,0.0339778,2.481,2.56096
-0.625982,0.0339778,2.481,2.55898
-0.61793,0.0339778,2.481,2.55702
-0.609877,0.0339778,2.481,2.55509
-0.601824,0.0339778,2.481,2.55318
-0.593771,0.0339778,2.481,2.55129
-0.585719,0.0339778,2.481,2.54943
-0.577666,0.0339778,2.481,2.54759
-0.569613,0.0339778,2.481,2.54578
-0.561561,0.0339778,2.481,2.54399
-0.553508,0.0339778,2.481,2.54222
-0.545455,0.0339778,2.481,2.54048
-0.541301,0.0342243,2.499,2.55718
-0.53319,0.0342243,2.499,2.55548
-0.525079,0.0342243,2.499,2.5538
-0.516968,0.0342243,2.499,2.55214
-0.508857,0.0342243,2.499,2.55051
-0.504353,0.0344708,2.517,2.56727
-0.496183,0.0344708,2.517,2.56567
-0.488013,0.0344708,2.517,2.56411
-0.479844,0.0344708,2.517,2.56256
-0.475235,0.034731,2.536,2.58038
-0.467004,0.034731,2.536,2.57887
-0.458772,0.034731,2.536,2.5774
-0.450541,0.034731,2.536,2.57594
-0.44231,0.034731,2.536,2.57452
-0.434079,0.034731,2.536,2.57312
-0.425848,0.034731,2.536,2.57174
-0.417616,0.034731,2.536,2.57039
-0.409385,0.034731,2.536,2.56907
-0.401154,0.034731,2.536,2.56777
-0.392923,0.034731,2.536,2.56649
-0.384691,0.034731,2.536,2.56525
-0.37646,0.034731,2.536,2.56403
-0.368229,0.034731,2.536,2.56283
-0.359998,0.034731,2.536,2.56166
-0.351766,0.034731,2.536,2.56052
-0.343535,0.034731,2.536,2.5594
-0.335304,0.034731,2.536,2.55831
-0.324622,0.0344708,2.517,2.53808
-0.316453,0.0344708,2.517,2.53705
-0.308283,0.0344708,2.517,2.53604
-0.300114,0.0344708,2.517,2.53506
-0.291944,0.0344708,2.517,2.53411
-0.281745,0.0342243,2.499,2.51507
-0.273634,0.0342243,2.499,2.51417
-0.265523,0.0342243,2.499,2.5133
-0.257412,0.0342243,2.499,2.51246
-0.249301,0.0342243,2.499,2.51164
-0.24119,0.0342243,2.499,2.51085
-0.2314,0.0339778,2.481,2.492
-0.223347,0.0339778,2.481,2.49126
-0.215294,0.0339778,2.481,2.49056
-0.207241,0.0339778,2.481,2.48987
-0.199189,0.0339778,2.481,2.48922
-0.191136,0.0339778,2.481,2.48858
-0.184412,0.0342243,2.499,2.50603
-0.1763,0.0342243,2.499,2.50545
-0.168189,0.0342243,2.499,2.50489
-0.160078,0.0342243,2.499,2.50436
-0.153062,0.0344708,2.517,2.52189
-0.144892,0.0344708,2.517,2.5214
-0.136723,0.0344708,2.517,2.52095
-0.128553,0.0344708,2.517,2.52052
-0.120383,0.0344708,2.517,2.52011
-0.112214,0.0344708,2.517,2.51974
-0.104044,0.0344708,2.517,2.51939
-0.0958747,0.0344708,2.517,2.51906
-0.0883672,0.034731,2.536,2.53778
-0.080136,0.034731,2.536,2.5375
-0.0719048,0.034731,2.536,2.53726
-0.0636736,0.034731,2.536,2.53704
-0.0554423,0.034731,2.536,2.53684
-0.0472111,0.034731,2.536,2.53668
-0.0389799,0.034731,2.536,2.53654
-0.0307487,0.034731,2.536,2.53642
-0.0225174,0.034731,2.536,2.53634
-0.0142862,0.034731,2.536,2.53628
-0.00605498,0.034731,2.536,2.53625
0.00217625,0.034731,2.536,2.53624
0.0104075,0.034731,2.536,2.53626
0.0187783,0.0349912,2.555,2.55531
0.0270712,0.0349912,2.555,2.55538
0.0353641,0.0349912,2.555,2.55548
0.043657,0.0349912,2.555,2.55561
0.0519499,0.0349912,2.555,2.55577
0.0602428,0.0349912,2.555,2.55595
0.0685357,0.0349912,2.555,2.55616
0.0768286,0.0349912,2.555,2.55639
0.0851215,0.0349912,2.555,2.55666
0.0927197,0.034731,2.536,2.53793
0.100951,0.034731,2.536,2.53825
0.109182,0.034731,2.536,2.53859
0.117413,0.034731,2.536,2.53895
0.125645,0.034731,2.536,2.53935
0.133876,0.034731,2.536,2.53977
0.142107,0.034731,2.536,2.54022
0.150338,0.034731,2.536,2.54069
0.15857,0.034731,2.536,2.54119
0.166801,0.034731,2.536,2.54172
0.175032,0.034731,2.536,2.54227
0.183263,0.034731,2.536,2.54285
0.191494,0.034731,2.536,2.54346
0.199726,0.034731,2.536,2.54409
0.207957,0.034731,2.536,2.54475
0.216188,0.034731,2.536,2.54543
0.224419,0.034731,2.536,2.54615
0.232651,0.034731,2.536,2.54689
0.240882,0.034731,2.536,2.54765
0.247247,0.0344708,2.517,2.52935
0.255416,0.0344708,2.517,2.53016
0.263586,0.0344708,2.517,2.531
0.269812,0.0342243,2.499,2.51376
0.277923,0.0342243,2.499,2.51464
0.286034,0.0342243,2.499,2.51555
0.292027,0.0339778,2.481,2.49836
0.297902,0.0337313,2.463,2.48118
0.305896,0.0337313,2.463,2.48215
0.313891,0.0337313,2.463,2.48315
0.319533,0.0334848,2.445,2.46602
0.327469,0.0334848,2.445,2.46706
0.335404,0.0334848,2.445,2.46813
0.34334,0.0334848,2.445,2.46922
0.351276,0.0334848,2.445,2.47033
0.356714,0.0332519,2.428,2.45429
0.364595,0.0332519,2.428,2.45545
0.372476,0.0332519,2.428,2.45663
0.380356,0.0332519,2.428,2.45784
0.388237,0.0332519,2.428,2.45907
0.396118,0.0332519,2.428,2.46033
0.403999,0.0332519,2.428,2.46161
0.411879,0.0332519,2.428,2.46291
0.41976,0.0332519,2.428,2.46424
0.427641,0.0332519,2.428,2.4656
0.435521,0.0332519,2.428,2.46698
0.443402,0.0332519,2.428,2.46838
0.451283,0.0332519,2.428,2.46981
0.459163,0.0332519,2.428,2.47126
0.470314,0.0334848,2.445,2.49005
0.47825,0.0334848,2.445,2.49156
0.486186,0.0334848,2.445,2.4931
0.497759,0.0337313,2.463,2.51302
0.505754,0.0337313,2.463,2.51462
0.517502,0.0339778,2.481,2.53463
0.525555,0.0339778,2.481,2.53628
0.533608,0.0339778,2.481,2.53796
0.54559,0.0342243,2.499,2.55809
0.553702,0.0342243,2.499,2.55984
0.561813,0.0342243,2.499,2.5616
0.574029,0.0344708,2.517,2.58186
0.582199,0.0344708,2.517,2.58369
0.590368,0.0344708,2.517,2.58554
0.603056,0.034731,2.536,2.60695
0.611287,0.034731,2.536,2.60886
0.619518,0.034731,2.536,2.61081
0.627749,0.034731,2.536,2.61277
0.635981,0.034731,2.536,2.61476
0.644212,0.034731,2.536,2.61678
0.652443,0.034731,2.536,2.61881
0.665624,0.0349912,2.555,2.64051
0.673917,0.0349912,2.555,2.64261
0.677137,0.034731,2.536,2.62507
0.685368,0.034731,2.536,2.62721
0.693599,0.034731,2.536,2.62937
0.70183,0.034731,2.536,2.63155
0.710062,0.034731,2.536,2.63376
0.718293,0.034731,2.536,2.63599
0.726524,0.034731,2.536,2.63825
0.734755,0.034731,2.536,2.64052
0.742987,0.034731,2.536,2.64283
0.74559,0.0344708,2.517,2.62533
0.753759,0.0344708,2.517,2.62767
0.761929,0.0344708,2.517,2.63002
0.770098,0.0344708,2.517,2.6324
0.778268,0.0344708,2.517,2.6348
0.786437,0.0344708,2.517,2.63723
0.794607,0.0344708,2.517,2.63967
0.802777,0.0344708,2.517,2.64214
0.805147,0.0342243,2.499,2.62573
0.813258,0.0342243,2.499,2.62822
0.821369,0.0342243,2.499,2.63075
0.82948,0.0342243,2.499,2.63329
0.837591,0.0342243,2.499,2.63585
0.845702,0.0342243,2.499,2.63844
0.847664,0.0339778,2.481,2.62203
0.855716,0.0339778,2.481,2.62465
0.863769,0.0339778,2.481,2.62728
0.871822,0.0339778,2.481,2.62994
0.879874,0.0339778,2.481,2.63262
0.881485,0.0337313,2.463,2.6162
0.889479,0.0337313,2.463,2.61891
0.890915,0.0334848,2.445,2.60247
0.898851,0.0334848,2.445,2.6052
0.906787,0.0334848,2.445,2.60795
0.908362,0.0332519,2.428,2.59257
0.916243,0.0332519,2.428,2.59534
0.924124,0.0332519,2.428,2.59813
0.925479,0.0330191,2.411,2.58274
0.933304,0.0330191,2.411,2.58555
0.94113,0.0330191,2.411,2.58838
0.942264,0.0327863,2.394,2.57297
0.950035,0.0327863,2.394,2.57583
0.957805,0.0327863,2.394,2.5787
0.965575,0.0327863,2.394,2.5816
0.973346,0.0327863,2.394,2.58451
0.988083,0.0330191,2.411,2.60582
0.995908,0.0330191,2.411,2.6088
1.01081,0.0332519,2.428,2.63021
1.02582,0.0334848,2.445,2.65169
1.03376,0.0334848,2.445,2.65477
1.04937,0.0337313,2.463,2.67744
1.07281,0.0342243,2.499,2.71976
1.08093,0.0342243,2.499,2.72297
1.10516,0.034731,2.536,2.76657
1.13008,0.0352514,2.574,2.81137
1.14683,0.0355116,2.593,2.83551
1.15525,0.0355116,2.593,2.83893
1.18162,0.0360594,2.633,2.88621
1.19016,0.0360594,2.633,2.88972
1.19871,0.0360594,2.633,2.89325
1.23614,0.0369222,2.696,2.96611
1.24489,0.0369222,2.696,2.96977
1.25364,0.0369222,2.696,2.97345
1.27223,0.0372098,2.717,3.00034
1.27114,0.0369222,2.696,2.98087
1.27989,0.0369222,2.696,2.98461
1.28864,0.0369222,2.696,2.98837
1.29739,0.0369222,2.696,2.99216
1.30614,0.0369222,2.696,2.99596
1.3149,0.0369222,2.696,2.99979
1.33396,0.0372098,2.717,3.02703
1.34278,0.0372098,2.717,3.03093
1.35159,0.0372098,2.717,3.03484
1.36041,0.0372098,2.717,3.03878
1.38032,0.0375111,2.739,3.06738
1.38921,0.0375111,2.739,3.07139
1.40933,0.0378124,2.761,3.10012
1.44141,0.0384287,2.806,3.1548
1.4624,0.0387437,2.829,3.18486
1.47158,0.0387437,2.829,3.18909
1.50589,0.0394011,2.877,3.24752
1.54104,0.0400721,2.926,3.30725
1.55053,0.0400721,2.926,3.31168
1.57336,0.0404145,2.951,3.34447
1.59688,0.0407706,2.977,3.3785
1.60655,0.0407706,2.977,3.38307
1.63032,0.0411267,3.003,3.41726
1.65482,0.0414964,3.03,3.45269
1.67949,0.0418662,3.057,3.48822
1.68941,0.0418662,3.057,3.49301
1.69933,0.0418662,3.057,3.49782
1.70925,0.0418662,3.057,3.50265
1.71917,0.0418662,3.057,3.5075
1.71383,0.0414964,3.03,3.48135
1.72366,0.0414964,3.03,3.48621
1.73349,0.0414964,3.03,3.49108
1.72779,0.0411267,3.003,3.46482
1.73754,0.0411267,3.003,3.46969
1.74729,0.0411267,3.003,3.47458
1.75704,0.0411267,3.003,3.47949
1.75149,0.0407706,2.977,3.45426
1.76115,0.0407706,2.977,3.45917
1.75535,0.0404145,2.951,3.43384
1.74997,0.0400721,2.926,3.40962
1.75947,0.0400721,2.926,3.4145
1.75385,0.0397298,2.901,3.39019
1.74868,0.0394011,2.877,3.36698
1.75802,0.0394011,2.877,3.37184
1.76736,0.0394011,2.877,3.37672
1.76187,0.0390724,2.853,3.35341
1.77113,0.0390724,2.853,3.35828
1.75106,0.0384287,2.806,3.30777
1.73194,0.0378124,2.761,3.25947
1.7409,0.0378124,2.761,3.26425
1.73592,0.0375111,2.739,3.24299
1.71742,0.0369222,2.696,3.19677
1.72617,0.0369222,2.696,3.20148
1.70789,0.036347,2.654,3.15625
1.70293,0.0360594,2.633,3.13591
1.69847,0.0357855,2.613,3.11671
1.70695,0.0357855,2.613,3.12134
1.68983,0.0352514,2.574,3.07933
1.68565,0.0349912,2.555,3.06115
1.69394,0.0349912,2.555,3.06573
1.68958,0.034731,2.536,3.04749
1.69781,0.034731,2.536,3.05206
1.70604,0.034731,2.536,3.05664
1.70143,0.0344708,2.517,3.03831
1.69737,0.0342243,2.499,3.02113
-1.93066,0.0471441,2.783,3.38744
-1.90643,0.0467714,2.761,3.35556
-1.89747,0.0467714,2.761,3.35048
-1.87346,0.0463987,2.739,3.31876
-1.86457,0.0463987,2.739,3.31375
-1.85568,0.0463987,2.739,3.30875
-1.83196,0.0460261,2.717,3.27724
-1.80905,0.0456703,2.696,3.24702
-1.8003,0.0456703,2.696,3.24216
-1.79155,0.0456703,2.696,3.23731
-1.76891,0.0453146,2.675,3.20729
-1.76023,0.0453146,2.675,3.20251
-1.75155,0.0453146,2.675,3.19775
-1.72918,0.0449588,2.654,3.16793
-1.70695,0.0446031,2.633,3.13821
-1.69841,0.0446031,2.633,3.13357
-1.67703,0.0442643,2.613,3.10518
-1.66854,0.0442643,2.613,3.10061
-1.66006,0.0442643,2.613,3.09605
-1.63894,0.0439255,2.593,3.06785
-1.63052,0.0439255,2.593,3.06336
-1.63462,0.0442643,2.613,3.08248
-1.65165,0.0449588,2.654,3.12629
-1.64304,0.0449588,2.654,3.12175
-1.64736,0.0453146,2.675,3.14189
-1.65154,0.0456703,2.696,3.16197
-1.64279,0.0456703,2.696,3.15741
-1.64677,0.0460261,2.717,3.17743
-1.65121,0.0463987,2.739,3.19856
-1.64232,0.0463987,2.739,3.19398
-1.64655,0.0467714,2.761,3.21503
-1.63759,0.0467714,2.761,3.21045
-1.62863,0.0467714,2.761,3.20589
-1.60676,0.0463987,2.739,3.17584
-1.57278,0.0456703,2.696,3.12156
-1.56403,0.0456703,2.696,3.11716
-1.54317,0.0453146,2.675,3.08854
-1.52244,0.0449588,2.654,3.05999
-1.51383,0.0449588,2.654,3.05572
-1.4933,0.0446031,2.633,3.02731
-1.48476,0.0446031,2.633,3.02311
-1.47621,0.0446031,2.633,3.01892
-1.46766,0.0446031,2.633,3.01475
-1.45912,0.0446031,2.633,3.0106
-1.45057,0.0446031,2.633,3.00647
-1.44203,0.0446031,2.633,3.00235
-1.43348,0.0446031,2.633,2.99826
-1.42493,0.0446031,2.633,2.99418
-1.42768,0.0449588,2.654,3.01397
-1.41907,0.0449588,2.654,3.0099
-1.42162,0.0453146,2.675,3.02963
-1.42403,0.0456703,2.696,3.04932
-1.41528,0.0456703,2.696,3.04524
-1.40652,0.0456703,2.696,3.04119
-1.40866,0.0460261,2.717,3.06081
-1.39984,0.0460261,2.717,3.05676
-1.39102,0.0460261,2.717,3.05273
-1.37152,0.0456703,2.696,3.02516
-1.36277,0.0456703,2.696,3.0212
-1.35402,0.0456703,2.696,3.01726
-1.32431,0.0449588,2.654,2.9664
-1.3157,0.0449588,2.654,2.96257
-1.29674,0.0446031,2.633,2.93534
-1.26863,0.0439255,2.593,2.88704
-1.25098,0.0436036,2.574,2.86222
-1.24262,0.0436036,2.574,2.85858
-1.22516,0.0432818,2.555,2.83389
-1.19876,0.0426381,2.517,2.78822
-1.1906,0.0426381,2.517,2.78471
-1.16551,0.0420282,2.481,2.74145
-1.14906,0.0417233,2.463,2.71817
-1.14107,0.0417233,2.463,2.7148
-1.11697,0.0411304,2.428,2.67292
-1.10909,0.0411304,2.428,2.66964
-1.10121,0.0411304,2.428,2.66637
-1.08568,0.0408424,2.411,2.64448
-1.07785,0.0408424,2.411,2.64128
-1.07003,0.0408424,2.411,2.63809
-1.05471,0.0405544,2.394,2.61635
-1.03951,0.0402665,2.377,2.59467
-1.03179,0.0402665,2.377,2.59159
-1.02408,0.0402665,2.377,2.58853
-1.01636,0.0402665,2.377,2.58549
-1.00865,0.0402665,2.377,2.58246
-1.00093,0.0402665,2.377,2.57946
-0.986529,0.0399954,2.361,2.55913
-0.978866,0.0399954,2.361,2.55619
-0.971203,0.0399954,2.361,2.55326
-0.96354,0.0399954,2.361,2.55036
-0.955876,0.0399954,2.361,2.54747
-0.948213,0.0399954,2.361,2.54461
-0.94055,0.0399954,2.361,2.54176
-0.932887,0.0399954,2.361,2.53894
-0.925224,0.0399954,2.361,2.53613
-0.91756,0.0399954,2.361,2.53335
-0.909897,0.0399954,2.361,2.53058
-0.908348,0.0402665,2.377,2.54497
-0.900633,0.0402665,2.377,2.54222
-0.892918,0.0402665,2.377,2.5395
-0.885203,0.0402665,2.377,2.5368
-0.877488,0.0402665,2.377,2.53411
-0.869772,0.0402665,2.377,2.53145
-0.868223,0.0405544,2.394,2.5469
-0.860452,0.0405544,2.394,2.54426
-0.858737,0.0408424,2.411,2.55969
-0.850911,0.0408424,2.411,2.55708
-0.843086,0.0408424,2.411,2.55448
-0.83526,0.0408424,2.411,2.55191
-0.827435,0.0408424,2.411,2.54936
-0.825388,0.0411304,2.428,2.56479
-0.817508,0.0411304,2.428,2.56226
-0.809627,0.0411304,2.428,2.55976
-0.80736,0.0414184,2.445,2.57518
-0.799424,0.0414184,2.445,2.57271
-0.791488,0.0414184,2.445,2.57025
-0.783552,0.0414184,2.445,2.56782
-0.781326,0.0417233,2.463,2.5843
-0.773332,0.0417233,2.463,2.58189
-0.765338,0.0417233,2.463,2.57951
-0.762878,0.0420282,2.481,2.59598
-0.754826,0.0420282,2.481,2.59362
-0.746773,0.0420282,2.481,2.59129
-0.73872,0.0420282,2.481,2.58898
-0.730668,0.0420282,2.481,2.5867
-0.722615,0.0420282,2.481,2.58443
-0.714562,0.0420282,2.481,2.58219
-0.706509,0.0420282,2.481,2.57998
-0.698457,0.0420282,2.481,2.57778
-0.690404,0.0420282,2.481,2.57561
-0.682351,0.0420282,2.481,2.57347
-0.674299,0.0420282,2.481,2.57134
-0.666246,0.0420282,2.481,2.56924
-0.658193,0.0420282,2.481,2.56717
-0.65014,0.0420282,2.481,2.56511
-0.642088,0.0420282,2.481,2.56309
-0.634035,0.0420282,2.481,2.56108
-0.625982,0.0420282,2.481,2.5591
-0.61793,0.0420282,2.481,2.55714
-0.609877,0.0420282,2.481,2.55521
-0.601824,0.0420282,2.481,2.5533
-0.593771,0.0420282,2.481,2.55141
-0.585719,0.0420282,2.481,2.54955
-0.577666,0.0420282,2.481,2.54771
-0.573746,0.0423331,2.499,2.56437
-0.565635,0.0423331,2.499,2.56256
-0.557524,0.0423331,2.499,2.56079
-0.549413,0.0423331,2.499,2.55903
-0.541301,0.0423331,2.499,2.5573
-0.53319,0.0423331,2.499,2.5556
-0.525079,0.0423331,2.499,2.55392
-0.516968,0.0423331,2.499,2.55226
-0.508857,0.0423331,2.499,2.55063
-0.504353,0.0426381,2.517,2.56739
-0.496183,0.0426381,2.517,2.5658
-0.488013,0.0426381,2.517,2.56423
-0.479844,0.0426381,2.517,2.56269
-0.475235,0.0429599,2.536,2.5805
-0.467004,0.0429599,2.536,2.579
-0.458772,0.0429599,2.536,2.57752
-0.450541,0.0429599,2.536,2.57607
-0.44231,0.0429599,2.536,2.57464
-0.434079,0.0429599,2.536,2.57324
-0.425848,0.0429599,2.536,2.57186
-0.417616,0.0429599,2.536,2.57051
-0.409385,0.0429599,2.536,2.56919
-0.401154,0.0429599,2.536,2.56789
-0.392923,0.0429599,2.536,2.56662
-0.384691,0.0429599,2.536,2.56537
-0.37646,0.0429599,2.536,2.56415
-0.368229,0.0429599,2.536,2.56295
-0.359998,0.0429599,2.536,2.56178
-0.351766,0.0429599,2.536,2.56064
-0.340961,0.0426381,2.517,2.54035
-0.332792,0.0426381,2.517,2.53926
-0.324622,0.0426381,2.517,2.53821
-0.316453,0.0426381,2.517,2.53717
-0.308283,0.0426381,2.517,2.53617
-0.300114,0.0426381,2.517,2.53519
-0.289856,0.0423331,2.499,2.51611
-0.281745,0.0423331,2.499,2.51519
-0.273634,0.0423331,2.499,2.51429
-0.265523,0.0423331,2.499,2.51342
-0.255558,0.0420282,2.481,2.49448
-0.247505,0.0420282,2.481,2.49367
-0.239452,0.0420282,2.481,2.49288
-0.2314,0.0420282,2.481,2.49212
-0.223347,0.0420282,2.481,2.49139
-0.215294,0.0420282,2.481,2.49068
-0.207241,0.0420282,2.481,2.49
-0.199189,0.0420282,2.481,2.48934
-0.191136,0.0420282,2.481,2.48871
-0.183083,0.0420282,2.481,2.4881
-0.175031,0.0420282,2.481,2.48752
-0.168189,0.0423331,2.499,2.50501
-0.160078,0.0423331,2.499,2.50448
-0.151967,0.0423331,2.499,2.50397
-0.143856,0.0423331,2.499,2.5035
-0.135745,0.0423331,2.499,2.50304
-0.128553,0.0426381,2.517,2.52064
-0.120383,0.0426381,2.517,2.52024
-0.112214,0.0426381,2.517,2.51986
-0.104044,0.0426381,2.517,2.51951
-0.0958747,0.0426381,2.517,2.51919
-0.0883672,0.0429599,2.536,2.5379
-0.080136,0.0429599,2.536,2.53763
-0.0719048,0.0429599,2.536,2.53738
-0.0636736,0.0429599,2.536,2.53716
-0.0554423,0.0429599,2.536,2.53697
-0.0472111,0.0429599,2.536,2.5368
-0.0389799,0.0429599,2.536,2.53666
-0.0307487,0.0429599,2.536,2.53655
-0.0225174,0.0429599,2.536,2.53646
-0.0142862,0.0429599,2.536,2.5364
-0.00605498,0.0429599,2.536,2.53637
0.00217625,0.0429599,2.536,2.53636
0.0104075,0.0429599,2.536,2.53639
0.0186387,0.0429599,2.536,2.53643
0.0268699,0.0429599,2.536,2.53651
0.0351011,0.0429599,2.536,2.53661
0.0433324,0.0429599,2.536,2.53673
0.0515636,0.0429599,2.536,2.53689
0.0602428,0.0432818,2.555,2.55608
0.0685357,0.0432818,2.555,2.55629
0.0768286,0.0432818,2.555,2.55652
0.0851215,0.0432818,2.555,2.55678
0.0934144,0.0432818,2.555,2.55707
0.101707,0.0432818,2.555,2.55739
0.109182,0.0429599,2.536,2.53871
0.117413,0.0429599,2.536,2.53908
0.125645,0.0429599,2.536,2.53947
0.133876,0.0429599,2.536,2.53989
0.142107,0.0429599,2.536,2.54034
0.150338,0.0429599,2.536,2.54082
0.15857,0.0429599,2.536,2.54132
0.166801,0.0429599,2.536,2.54184
0.175032,0.0429599,2.536,2.5424
0.183263,0.0429599,2.536,2.54298
0.192929,0.0432818,2.555,2.56264
0.201222,0.0432818,2.555,2.56328
0.209515,0.0432818,2.555,2.56394
0.217808,0.0432818,2.555,2.56463
0.224419,0.0429599,2.536,2.54627
0.232651,0.0429599,2.536,2.54701
0.240882,0.0429599,2.536,2.54778
0.249113,0.0429599,2.536,2.54857
0.257344,0.0429599,2.536,2.54939
0.263586,0.0426381,2.517,2.53112
0.271755,0.0426381,2.517,2.53199
0.279925,0.0426381,2.517,2.53288
0.286034,0.0423331,2.499,2.51567
0.292027,0.0420282,2.481,2.49848
0.297902,0.0417233,2.463,2.4813
0.305896,0.0417233,2.463,2.48227
0.313891,0.0417233,2.463,2.48327
0.319533,0.0414184,2.445,2.46614
0.327469,0.0414184,2.445,2.46718
0.335404,0.0414184,2.445,2.46825
0.34334,0.0414184,2.445,2.46934
0.351276,0.0414184,2.445,2.47045
0.356714,0.0411304,2.428,2.45441
0.364595,0.0411304,2.428,2.45557
0.372476,0.0411304,2.428,2.45675
0.380356,0.0411304,2.428,2.45796
0.388237,0.0411304,2.428,2.45919
0.396118,0.0411304,2.428,2.46044
0.403999,0.0411304,2.428,2.46173
0.411879,0.0411304,2.428,2.46303
0.41976,0.0411304,2.428,2.46436
0.427641,0.0411304,2.428,2.46572
0.435521,0.0411304,2.428,2.46709
0.446507,0.0414184,2.445,2.48578
0.454442,0.0414184,2.445,2.48722
0.462378,0.0414184,2.445,2.48868
0.470314,0.0414184,2.445,2.49017
0.481771,0.0417233,2.463,2.51002
0.489765,0.0417233,2.463,2.51157
0.497759,0.0417233,2.463,2.51314
0.505754,0.0417233,2.463,2.51474
0.517502,0.0420282,2.481,2.53475
0.525555,0.0420282,2.481,2.5364
0.533608,0.0420282,2.481,2.53808
0.54559,0.0423331,2.499,2.55821
0.553702,0.0423331,2.499,2.55996
0.561813,0.0423331,2.499,2.56172
0.574029,0.0426381,2.517,2.58198
0.582199,0.0426381,2.517,2.58381
0.590368,0.0426381,2.517,2.58566
0.603056,0.0429599,2.536,2.60707
0.611287,0.0429599,2.536,2.60899
0.619518,0.0429599,2.536,2.61093
0.627749,0.0429599,2.536,2.61289
0.635981,0.0429599,2.536,2.61488
0.644212,0.0429599,2.536,2.6169
0.652443,0.0429599,2.536,2.61894
0.660674,0.0429599,2.536,2.621
0.668906,0.0429599,2.536,2.62309
0.677137,0.0429599,2.536,2.6252
0.685368,0.0429599,2.536,2.62733
0.693599,0.0429599,2.536,2.62949
0.70183,0.0429599,2.536,2.63167
0.710062,0.0429599,2.536,2.63388
0.718293,0.0429599,2.536,2.63611
0.726524,0.0429599,2.536,2.63837
0.734755,0.0429599,2.536,2.64065
0.742987,0.0429599,2.536,2.64295
0.74559,0.0426381,2.517,2.62545
0.753759,0.0426381,2.517,2.62779
0.761929,0.0426381,2.517,2.63014
0.770098,0.0426381,2.517,2.63252
0.778268,0.0426381,2.517,2.63492
0.786437,0.0426381,2.517,2.63735
0.794607,0.0426381,2.517,2.63979
0.802777,0.0426381,2.517,2.64226
0.805147,0.0423331,2.499,2.62584
0.813258,0.0423331,2.499,2.62834
0.821369,0.0423331,2.499,2.63086
0.82948,0.0423331,2.499,2.63341
0.837591,0.0423331,2.499,2.63597
0.845702,0.0423331,2.499,2.63856
0.847664,0.0420282,2.481,2.62215
0.855716,0.0420282,2.481,2.62476
0.863769,0.0420282,2.481,2.6274
0.871822,0.0420282,2.481,2.63006
0.879874,0.0420282,2.481,2.63274
0.881485,0.0417233,2.463,2.61632
0.889479,0.0417233,2.463,2.61902
0.890915,0.0414184,2.445,2.60259
0.898851,0.0414184,2.445,2.60532
0.906787,0.0414184,2.445,2.60807
0.908362,0.0411304,2.428,2.59268
0.916243,0.0411304,2.428,2.59545
0.924124,0.0411304,2.428,2.59825
0.925479,0.0408424,2.411,2.58285
0.933304,0.0408424,2.411,2.58566
0.94113,0.0408424,2.411,2.5885
0.942264,0.0405544,2.394,2.57308
0.950035,0.0405544,2.394,2.57594
0.957805,0.0405544,2.394,2.57881
0.965575,0.0405544,2.394,2.58171
0.973346,0.0405544,2.394,2.58462
0.988083,0.0408424,2.411,2.60593
0.995908,0.0408424,2.411,2.60891
1.01081,0.0411304,2.428,2.63033
1.02582,0.0414184,2.445,2.6518
1.03376,0.0414184,2.445,2.65488
1.04937,0.0417233,2.463,2.67755
1.07281,0.0423331,2.499,2.71988
1.08093,0.0423331,2.499,2.72309
1.10516,0.0429599,2.536,2.76668
1.13008,0.0436036,2.574,2.81149
1.14683,0.0439255,2.593,2.83563
1.15525,0.0439255,2.593,2.83905
1.18162,0.0446031,2.633,2.88633
1.19016,0.0446031,2.633,2.88984
1.19871,0.0446031,2.633,2.89337
1.21688,0.0449588,2.654,2.92002
1.23519,0.0453146,2.675,2.94676
1.24388,0.0453146,2.675,2.95041
1.25256,0.0453146,2.675,2.95408
1.26124,0.0453146,2.675,2.95777
1.26992,0.0453146,2.675,2.96148
1.27861,0.0453146,2.675,2.96522
1.28729,0.0453146,2.675,2.96897
1.29597,0.0453146,2.675,2.97275
1.30465,0.0453146,2.675,2.97654
1.31334,0.0453146,2.675,2.98036
1.3324,0.0456703,2.696,3.00762
1.34115,0.0456703,2.696,3.01151
1.3499,0.0456703,2.696,3.01541
1.36923,0.0460261,2.717,3.04286
1.37805,0.0460261,2.717,3.04684
1.40933,0.0467714,2.761,3.10024
1.42959,0.0471441,2.783,3.12906
1.45051,0.0475337,2.806,3.1591
1.45962,0.0475337,2.806,3.16329
1.49333,0.0483299,2.853,3.22056
1.52787,0.049143,2.901,3.27912
1.53729,0.049143,2.901,3.28351
1.57336,0.04999,2.951,3.3446
1.59688,0.0504305,2.977,3.37863
1.60655,0.0504305,2.977,3.3832
1.63032,0.0508709,3.003,3.41739
1.65482,0.0513283,3.03,3.45282
1.67949,0.0517857,3.057,3.48835
1.68941,0.0517857,3.057,3.49314
1.69933,0.0517857,3.057,3.49795
1.70925,0.0517857,3.057,3.50278
1.71917,0.0517857,3.057,3.50763
1.71383,0.0513283,3.03,3.48148
1.72366,0.0513283,3.03,3.48634
1.73349,0.0513283,3.03,3.49121
1.72779,0.0508709,3.003,3.46495
1.73754,0.0508709,3.003,3.46982
1.74729,0.0508709,3.003,3.47471
1.75704,0.0508709,3.003,3.47962
1.75149,0.0504305,2.977,3.45439
1.76115,0.0504305,2.977,3.45929
1.75535,0.04999,2.951,3.43397
1.74997,0.0495665,2.926,3.40974
1.75947,0.0495665,2.926,3.41462
1.75385,0.049143,2.901,3.39031
1.74868,0.0487365,2.877,3.3671
1.75802,0.0487365,2.877,3.37196
1.75261,0.0483299,2.853,3.34867
1.74705,0.0479233,2.829,3.32532
1.75623,0.0479233,2.829,3.33015
1.73671,0.0471441,2.783,3.28077
1.71814,0.0463987,2.739,3.23362
1.72703,0.0463987,2.739,3.23835
1.72198,0.0460261,2.717,3.21705
1.71742,0.0456703,2.696,3.19688
1.72617,0.0456703,2.696,3.20159
1.70789,0.0449588,2.654,3.15636
1.68999,0.0442643,2.613,3.1122
1.68547,0.0439255,2.593,3.09296
1.69389,0.0439255,2.593,3.09755
1.68983,0.0436036,2.574,3.07943
1.67312,0.0429599,2.536,3.0385
1.68135,0.0429599,2.536,3.04304
1.68958,0.0429599,2.536,3.04759
1.68509,0.0426381,2.517,3.0293
1.69326,0.0426381,2.517,3.03385
1.68926,0.0423331,2.499,3.01669
1.69737,0.0423331,2.499,3.02124
-1.9154,0.0557304,2.761,3.3608
-1.89124,0.0552864,2.739,3.32896
-1.88235,0.0552864,2.739,3.32392
-1.87346,0.0552864,2.739,3.31889
-1.86457,0.0552864,2.739,3.31388
-1.85568,0.0552864,2.739,3.30889
-1.83196,0.0548423,2.717,3.27737
-1.80905,0.0544184,2.696,3.24716
-1.8003,0.0544184,2.696,3.24229
-1.79155,0.0544184,2.696,3.23744
-1.7828,0.0544184,2.696,3.23261
-1.76023,0.0539945,2.675,3.20265
-1.75155,0.0539945,2.675,3.19788
-1.7155,0.0531468,2.633,3.143
-1.69399,0.0527431,2.613,3.11451
-1.68551,0.0527431,2.613,3.1099
-1.67703,0.0527431,2.613,3.10531
-1.65577,0.0523394,2.593,3.07701
-1.64736,0.0523394,2.593,3.07249
-1.63894,0.0523394,2.593,3.06798
-1.63052,0.0523394,2.593,3.06349
-1.62211,0.0523394,2.593,3.05902
-1.63858,0.0531468,2.633,3.10169
-1.63004,0.0531468,2.633,3.09718
-1.63443,0.0535706,2.654,3.11736
-1.63868,0.0539945,2.675,3.13748
-1.62999,0.0539945,2.675,3.13296
-1.63404,0.0544184,2.696,3.15301
-1.63795,0.0548423,2.717,3.17301
-1.62913,0.0548423,2.717,3.16846
-1.63343,0.0552864,2.739,3.18956
-1.62454,0.0552864,2.739,3.18501
-1.61565,0.0552864,2.739,3.18049
-1.59385,0.0548423,2.717,3.15047
-1.56053,0.0539945,2.675,3.09739
-1.55185,0.0539945,2.675,3.09302
-1.54317,0.0539945,2.675,3.08867
-1.52244,0.0535706,2.654,3.06013
-1.51383,0.0535706,2.654,3.05586
-1.50521,0.0535706,2.654,3.0516
-1.48476,0.0531468,2.633,3.02325
-1.47621,0.0531468,2.633,3.01906
-1.46766,0.0531468,2.633,3.01489
-1.45912,0.0531468,2.633,3.01074
-1.45057,0.0531468,2.633,3.0066
-1.45353,0.0535706,2.654,3.02644
-1.44491,0.0535706,2.654,3.02231
-1.4363,0.0535706,2.654,3.0182
-1.42768,0.0535706,2.654,3.01411
-1.41907,0.0535706,2.654,3.01004
-1.41046,0.0535706,2.654,3.00599
-1.42403,0.0544184,2.696,3.04946
-1.41528,0.0544184,2.696,3.04539
-1.40652,0.0544184,2.696,3.04133
-1.40866,0.0548423,2.717,3.06095
-1.39984,0.0548423,2.717,3.0569
-1.39102,0.0548423,2.717,3.05288
-1.37152,0.0544184,2.696,3.0253
-1.36277,0.0544184,2.696,3.02134
-1.35402,0.0544184,2.696,3.01741
-1.32431,0.0535706,2.654,2.96655
-1.3157,0.0535706,2.654,2.96271
-1.29674,0.0531468,2.633,2.93548
-1.26863,0.0523394,2.593,2.88718
-1.25098,0.0519558,2.574,2.86236
-1.24262,0.0519558,2.574,2.85872
-1.22516,0.0515723,2.555,2.83402
-1.19876,0.0508053,2.517,2.78835
-1.1906,0.0508053,2.517,2.78485
-1.16551,0.0500787,2.481,2.74159
-1.14906,0.0497153,2.463,2.71831
-1.14107,0.0497153,2.463,2.71494
-1.11697,0.0490089,2.428,2.67305
-1.10909,0.0490089,2.428,2.66977
-1.10121,0.0490089,2.428,2.66651
-1.08568,0.0486657,2.411,2.64461
-1.07785,0.0486657,2.411,2.64141
-1.07003,0.0486657,2.411,2.63823
-1.05471,0.0483226,2.394,2.61648
-1.04694,0.0483226,2.394,2.61336
-1.03179,0.0479794,2.377,2.59172
-1.02408,0.0479794,2.377,2.58866
-1.01636,0.0479794,2.377,2.58562
-1.00865,0.0479794,2.377,2.58259
-1.00093,0.0479794,2.377,2.57959
-0.993215,0.0479794,2.377,2.57661
-0.9855,0.0479794,2.377,2.57364
-0.977785,0.0479794,2.377,2.5707
-0.970069,0.0479794,2.377,2.56777
-0.962354,0.0479794,2.377,2.56487
-0.954639,0.0479794,2.377,2.56199
-0.946924,0.0479794,2.377,2.55912
-0.939209,0.0479794,2.377,2.55628
-0.931494,0.0479794,2.377,2.55345
-0.923778,0.0479794,2.377,2.55065
-0.916063,0.0479794,2.377,2.54786
-0.908348,0.0479794,2.377,2.5451
-0.900633,0.0479794,2.377,2.54236
-0.892918,0.0479794,2.377,2.53963
-0.885203,0.0479794,2.377,2.53693
-0.877488,0.0479794,2.377,2.53425
-0.875993,0.0483226,2.394,2.54969
-0.868223,0.0483226,2.394,2.54703
-0.860452,0.0483226,2.394,2.5444
-0.858737,0.0486657,2.411,2.55983
-0.850911,0.0486657,2.411,2.55721
-0.843086,0.0486657,2.411,2.55462
-0.83526,0.0486657,2.411,2.55205
-0.827435,0.0486657,2.411,2.5495
-0.825388,0.0490089,2.428,2.56493
-0.817508,0.0490089,2.428,2.5624
-0.809627,0.0490089,2.428,2.5599
-0.80736,0.049352,2.445,2.57532
-0.799424,0.049352,2.445,2.57285
-0.791488,0.049352,2.445,2.57039
-0.783552,0.049352,2.445,2.56796
-0.781326,0.0497153,2.463,2.58444
-0.773332,0.0497153,2.463,2.58203
-0.765338,0.0497153,2.463,2.57965
-0.757344,0.0497153,2.463,2.57729
-0.749349,0.0497153,2.463,2.57495
-0.741355,0.0497153,2.463,2.57263
-0.73872,0.0500787,2.481,2.58913
-0.730668,0.0500787,2.481,2.58684
-0.722615,0.0500787,2.481,2.58458
-0.714562,0.0500787,2.481,2.58234
-0.706509,0.0500787,2.481,2.58012
-0.698457,0.0500787,2.481,2.57793
-0.690404,0.0500787,2.481,2.57576
-0.682351,0.0500787,2.481,2.57361
-0.674299,0.0500787,2.481,2.57149
-0.666246,0.0500787,2.481,2.56939
-0.658193,0.0500787,2.481,2.56731
-0.65014,0.0500787,2.481,2.56526
-0.642088,0.0500787,2.481,2.56323
-0.634035,0.0500787,2.481,2.56122
-0.625982,0.0500787,2.481,2.55924
-0.61793,0.0500787,2.481,2.55729
-0.609877,0.0500787,2.481,2.55535
-0.601824,0.0500787,2.481,2.55344
-0.593771,0.0500787,2.481,2.55156
-0.585719,0.0500787,2.481,2.54969
-0.577666,0.0500787,2.481,2.54786
-0.573746,0.050442,2.499,2.56451
-0.565635,0.050442,2.499,2.56271
-0.557524,0.050442,2.499,2.56093
-0.549413,0.050442,2.499,2.55918
-0.541301,0.050442,2.499,2.55745
-0.53319,0.050442,2.499,2.55575
-0.525079,0.050442,2.499,2.55407
-0.516968,0.050442,2.499,2.55241
-0.508857,0.050442,2.499,2.55078
-0.504353,0.0508053,2.517,2.56754
-0.496183,0.0508053,2.517,2.56594
-0.488013,0.0508053,2.517,2.56438
-0.479844,0.0508053,2.517,2.56283
-0.471674,0.0508053,2.517,2.56132
-0.467004,0.0511888,2.536,2.57915
-0.458772,0.0511888,2.536,2.57767
-0.450541,0.0511888,2.536,2.57622
-0.44231,0.0511888,2.536,2.57479
-0.434079,0.0511888,2.536,2.57339
-0.425848,0.0511888,2.536,2.57202
-0.417616,0.0511888,2.536,2.57067
-0.409385,0.0511888,2.536,2.56934
-0.401154,0.0511888,2.536,2.56804
-0.392923,0.0511888,2.536,2.56677
-0.384691,0.0511888,2.536,2.56552
-0.37646,0.0511888,2.536,2.5643
-0.368229,0.0511888,2.536,2.56311
-0.359998,0.0511888,2.536,2.56194
-0.351766,0.0511888,2.536,2.56079
-0.340961,0.0508053,2.517,2.5405
-0.332792,0.0508053,2.517,2.53941
-0.324622,0.0508053,2.517,2.53836
-0.316453,0.0508053,2.517,2.53732
-0.308283,0.0508053,2.517,2.53632
-0.300114,0.0508053,2.517,2.53534
-0.289856,0.050442,2.499,2.51626
-0.281745,0.050442,2.499,2.51534
-0.273634,0.050442,2.499,2.51444
-0.265523,0.050442,2.499,2.51357
-0.255558,0.0500787,2.481,2.49463
-0.247505,0.0500787,2.481,2.49382
-0.239452,0.0500787,2.481,2.49303
-0.2314,0.0500787,2.481,2.49227
-0.223347,0.0500787,2.481,2.49154
-0.215294,0.0500787,2.481,2.49083
-0.207241,0.0500787,2.481,2.49014
-0.199189,0.0500787,2.481,2.48949
-0.191136,0.0500787,2.481,2.48886
-0.183083,0.0500787,2.481,2.48825
-0.175031,0.0500787,2.481,2.48767
-0.166978,0.0500787,2.481,2.48712
-0.158925,0.0500787,2.481,2.48659
-0.151967,0.050442,2.499,2.50412
-0.143856,0.050442,2.499,2.50365
-0.135745,0.050442,2.499,2.50319
-0.128553,0.0508053,2.517,2.52079
-0.120383,0.0508053,2.517,2.52039
-0.112214,0.0508053,2.517,2.52001
-0.104044,0.0508053,2.517,2.51966
