0.00212905,0.0581291,2.481,2.48168
0.0101818,0.0581291,2.481,2.4817
0.0182345,0.0581291,2.481,2.48175
0.0260965,0.0577074,2.463,2.46381
0.0340907,0.0577074,2.463,2.46391
0.042085,0.0577074,2.463,2.46404
0.0497133,0.0572856,2.445,2.44618
0.0576492,0.0572856,2.445,2.44635
0.0655851,0.0572856,2.445,2.44655
0.0735209,0.0572856,2.445,2.44678
0.0814568,0.0572856,2.445,2.44703
0.0893926,0.0572856,2.445,2.4473
0.0973285,0.0572856,2.445,2.44761
0.105264,0.0572856,2.445,2.44794
0.1132,0.0572856,2.445,2.44829
0.122028,0.0577074,2.463,2.4667
0.130022,0.0577074,2.463,2.4671
0.138016,0.0577074,2.463,2.46754
0.146011,0.0577074,2.463,2.468
0.154005,0.0577074,2.463,2.46848
0.161999,0.0577074,2.463,2.469
0.171236,0.0581291,2.481,2.48758
0.179289,0.0581291,2.481,2.48815
0.187341,0.0581291,2.481,2.48874
0.196812,0.0585508,2.499,2.50742
0.204923,0.0585508,2.499,2.50807
0.213034,0.0585508,2.499,2.50875
0.221145,0.0585508,2.499,2.50945
0.229256,0.0585508,2.499,2.51018
0.237367,0.0585508,2.499,2.51093
0.245479,0.0585508,2.499,2.51171
0.25359,0.0585508,2.499,2.51252
0.261701,0.0585508,2.499,2.51335
0.269812,0.0585508,2.499,2.51421
0.279925,0.0589726,2.517,2.5332
0.288094,0.0589726,2.517,2.53412
0.294145,0.0585508,2.499,2.51693
0.302256,0.0585508,2.499,2.51789
0.310368,0.0585508,2.499,2.51888
0.318479,0.0585508,2.499,2.51989
0.32659,0.0585508,2.499,2.52093
0.334701,0.0585508,2.499,2.52199
0.342812,0.0585508,2.499,2.52308
0.350923,0.0585508,2.499,2.5242
0.359034,0.0585508,2.499,2.52534
0.367146,0.0585508,2.499,2.5265
0.375257,0.0585508,2.499,2.5277
0.383368,0.0585508,2.499,2.52891
0.391479,0.0585508,2.499,2.53016
0.39959,0.0585508,2.499,2.53142
0.407701,0.0585508,2.499,2.53272
0.415812,0.0585508,2.499,2.53403
0.423923,0.0585508,2.499,2.53538
0.432035,0.0585508,2.499,2.53675
0.440146,0.0585508,2.499,2.53814
0.448257,0.0585508,2.499,2.53956
0.456368,0.0585508,2.499,2.541
0.467825,0.0589726,2.517,2.56079
0.475994,0.0589726,2.517,2.56229
0.484164,0.0589726,2.517,2.56382
0.492333,0.0589726,2.517,2.56538
0.500503,0.0589726,2.517,2.56696
0.508672,0.0589726,2.517,2.56856
0.516842,0.0589726,2.517,2.57019
0.525012,0.0589726,2.517,2.57185
0.533181,0.0589726,2.517,2.57353
0.541351,0.0589726,2.517,2.57523
0.54952,0.0589726,2.517,2.57696
0.55769,0.0589726,2.517,2.57872
0.565859,0.0589726,2.517,2.5805
0.574029,0.0589726,2.517,2.5823
0.582199,0.0589726,2.517,2.58413
0.590368,0.0589726,2.517,2.58598
0.598538,0.0589726,2.517,2.58786
0.606707,0.0589726,2.517,2.58976
0.614877,0.0589726,2.517,2.59169
0.623046,0.0589726,2.517,2.59364
0.631216,0.0589726,2.517,2.59561
0.639385,0.0589726,2.517,2.59761
0.642924,0.0585508,2.499,2.58104
0.651035,0.0585508,2.499,2.58308
0.659146,0.0585508,2.499,2.58513
0.667257,0.0585508,2.499,2.58721
0.675369,0.0585508,2.499,2.58931
0.68348,0.0585508,2.499,2.59144
0.686609,0.0581291,2.481,2.57491
0.694662,0.0581291,2.481,2.57707
0.702715,0.0581291,2.481,2.57925
0.710768,0.0581291,2.481,2.58146
0.71882,0.0581291,2.481,2.58369
0.726873,0.0581291,2.481,2.58594
0.734926,0.0581291,2.481,2.58821
0.742978,0.0581291,2.481,2.59051
0.751031,0.0581291,2.481,2.59283
0.759084,0.0581291,2.481,2.59518
0.767137,0.0581291,2.481,2.59754
0.775189,0.0581291,2.481,2.59993
0.783242,0.0581291,2.481,2.60235
0.791295,0.0581291,2.481,2.60478
0.799347,0.0581291,2.481,2.60724
0.8074,0.0581291,2.481,2.60972
0.815453,0.0581291,2.481,2.61222
0.823505,0.0581291,2.481,2.61475
0.831558,0.0581291,2.481,2.61729
0.839611,0.0581291,2.481,2.61986
0.847664,0.0581291,2.481,2.62246
0.855716,0.0581291,2.481,2.62507
0.863769,0.0581291,2.481,2.62771
0.871822,0.0581291,2.481,2.63036
0.879874,0.0581291,2.481,2.63304
0.887927,0.0581291,2.481,2.63575
0.89598,0.0581291,2.481,2.63847
0.904033,0.0581291,2.481,2.64121
0.912085,0.0581291,2.481,2.64398
0.913462,0.0577074,2.463,2.62757
0.921457,0.0577074,2.463,2.63036
0.929451,0.0577074,2.463,2.63317
0.930594,0.0572856,2.445,2.61674
0.93853,0.0572856,2.445,2.61957
0.946466,0.0572856,2.445,2.62242
0.947766,0.0568873,2.428,2.60704
0.955646,0.0568873,2.428,2.60992
0.963527,0.0568873,2.428,2.61282
0.964606,0.056489,2.411,2.59742
0.972432,0.056489,2.411,2.60033
0.987169,0.0568873,2.428,2.62163
0.99505,0.0568873,2.428,2.6246
1.00293,0.0568873,2.428,2.6276
1.01789,0.0572856,2.445,2.64904
1.02582,0.0572856,2.445,2.6521
1.03376,0.0572856,2.445,2.65518
1.04937,0.0577074,2.463,2.67785
1.07281,0.0585508,2.499,2.72018
1.08093,0.0585508,2.499,2.72339
1.09688,0.0589726,2.517,2.74625
1.11339,0.0594177,2.536,2.77028
1.13003,0.0598629,2.555,2.79438
1.13832,0.0598629,2.555,2.79775
1.16367,0.0607532,2.593,2.84279
1.17208,0.0607532,2.593,2.84625
1.1805,0.0607532,2.593,2.84972
1.20725,0.0616904,2.633,2.89723
1.2255,0.0621824,2.654,2.92394
1.23411,0.0621824,2.654,2.92756
1.24273,0.0621824,2.654,2.9312
1.26124,0.0626745,2.675,2.95809
1.26992,0.0626745,2.675,2.9618
1.27861,0.0626745,2.675,2.96553
1.28729,0.0626745,2.675,2.96929
1.30614,0.0631665,2.696,2.9964
1.3149,0.0631665,2.696,3.00023
1.32365,0.0631665,2.696,3.00407
1.34278,0.0636585,2.717,3.03137
1.35159,0.0636585,2.717,3.03528
1.36041,0.0636585,2.717,3.03922
1.38032,0.064174,2.739,3.06782
1.38921,0.064174,2.739,3.07183
1.4323,0.0657437,2.806,3.1511
1.47788,0.0674073,2.877,3.23509
1.51254,0.0685553,2.926,3.29454
1.52204,0.0685553,2.926,3.29891
1.54462,0.0691411,2.951,3.33152
1.58159,0.0703594,3.003,3.39476
1.59134,0.0703594,3.003,3.39931
1.62987,0.0716246,3.057,3.46509
1.65428,0.0722572,3.084,3.50042
1.6794,0.0729132,3.112,3.53698
1.6895,0.0729132,3.112,3.54179
1.71544,0.0735927,3.141,3.57967
1.74157,0.0742722,3.17,3.61766
1.75186,0.0742722,3.17,3.62263
1.74602,0.0735927,3.141,3.59443
1.75622,0.0735927,3.141,3.59939
1.76641,0.0735927,3.141,3.60437
1.77661,0.0735927,3.141,3.60938
1.7868,0.0735927,3.141,3.61441
1.78041,0.0729132,3.112,3.58604
1.7744,0.0722572,3.084,3.55876
1.78441,0.0722572,3.084,3.56376
1.79442,0.0722572,3.084,3.56878
1.78863,0.0716246,3.057,3.54254
1.78267,0.070992,3.03,3.51623
1.7925,0.070992,3.03,3.52122
1.77081,0.0697502,2.977,3.46456
1.78047,0.0697502,2.977,3.46951
1.79014,0.0697502,2.977,3.47448
1.76897,0.0685553,2.926,3.41986
1.76327,0.0679696,2.901,3.39552
1.77268,0.0679696,2.901,3.40042
1.76736,0.0674073,2.877,3.37716
1.76187,0.0668449,2.853,3.35384
1.77113,0.0668449,2.853,3.35872
1.76542,0.0662826,2.829,3.33532
1.74574,0.0652049,2.783,3.28587
1.75478,0.0652049,2.783,3.29068
1.74987,0.0646894,2.761,3.26946
1.74481,0.064174,2.739,3.24817
1.72617,0.0631665,2.696,3.20189
1.73492,0.0631665,2.696,3.20661
1.71651,0.0621824,2.654,3.16133
1.69847,0.0612218,2.613,3.1171
1.70695,0.0612218,2.613,3.12173
1.7023,0.0607532,2.593,3.10245
1.68565,0.0598629,2.555,3.06154
1.69394,0.0598629,2.555,3.06611
1.68958,0.0594177,2.536,3.04787
1.67304,0.0585508,2.499,3.0079
1.68115,0.0585508,2.499,3.01242
1.67709,0.0581291,2.481,2.99523
1.67292,0.0577074,2.463,2.97798
-1.93066,0.0742353,2.783,3.38793
-1.92163,0.0742353,2.783,3.38279
-1.91259,0.0742353,2.783,3.37766
-1.88851,0.0736484,2.761,3.3459
-1.87955,0.0736484,2.761,3.34085
-1.87059,0.0736484,2.761,3.33581
-1.84679,0.0730616,2.739,3.30426
-1.80905,0.0719146,2.696,3.2475
-1.8003,0.0719146,2.696,3.24263
-1.79155,0.0719146,2.696,3.23778
-1.76891,0.0713544,2.675,3.20777
-1.74641,0.0707942,2.654,3.17784
-1.7378,0.0707942,2.654,3.17312
-1.7155,0.0702341,2.633,3.14334
-1.69399,0.0697006,2.613,3.11484
-1.68551,0.0697006,2.613,3.11023
-1.66419,0.0691671,2.593,3.08188
-1.65577,0.0691671,2.593,3.07734
-1.64736,0.0691671,2.593,3.07282
-1.63894,0.0691671,2.593,3.06832
-1.63052,0.0691671,2.593,3.06383
-1.62211,0.0691671,2.593,3.05936
-1.62614,0.0697006,2.613,3.07847
-1.61766,0.0697006,2.613,3.07399
-1.63443,0.0707942,2.654,3.1177
-1.62581,0.0707942,2.654,3.1132
-1.6172,0.0707942,2.654,3.10871
-1.62131,0.0713544,2.675,3.1288
-1.63795,0.0724747,2.717,3.17336
-1.62913,0.0724747,2.717,3.16882
-1.62031,0.0724747,2.717,3.16429
-1.61149,0.0724747,2.717,3.15979
-1.60267,0.0724747,2.717,3.1553
-1.59385,0.0724747,2.717,3.15083
-1.58504,0.0724747,2.717,3.14638
-1.57622,0.0724747,2.717,3.14194
-1.54317,0.0713544,2.675,3.08903
-1.53449,0.0713544,2.675,3.0847
-1.5258,0.0713544,2.675,3.08039
-1.50521,0.0707942,2.654,3.05195
-1.48476,0.0702341,2.633,3.02359
-1.47621,0.0702341,2.633,3.01941
-1.46766,0.0702341,2.633,3.01524
-1.45912,0.0702341,2.633,3.01109
-1.45057,0.0702341,2.633,3.00696
-1.44203,0.0702341,2.633,3.00284
-1.43348,0.0702341,2.633,2.99875
-1.42493,0.0702341,2.633,2.99467
-1.42768,0.0707942,2.654,3.01447
-1.41907,0.0707942,2.654,3.0104
-1.42162,0.0713544,2.675,3.03013
-1.41293,0.0713544,2.675,3.02607
-1.40425,0.0713544,2.675,3.02203
-1.39557,0.0713544,2.675,3.018
-1.38689,0.0713544,2.675,3.014
-1.38902,0.0719146,2.696,3.03364
-1.38027,0.0719146,2.696,3.02964
-1.36084,0.0713544,2.675,3.0021
-1.35216,0.0713544,2.675,2.99817
-1.33293,0.0707942,2.654,2.97076
-1.31383,0.0702341,2.633,2.94343
-1.30529,0.0702341,2.633,2.93963
-1.28689,0.0697006,2.613,2.91354
-1.26863,0.0691671,2.593,2.88753
-1.25098,0.0686603,2.574,2.86271
-1.24262,0.0686603,2.574,2.85907
-1.22516,0.0681534,2.555,2.83437
-1.20781,0.0676466,2.536,2.80975
-1.19958,0.0676466,2.536,2.80622
-1.18243,0.0671398,2.517,2.78171
-1.17426,0.0671398,2.517,2.77825
-1.16609,0.0671398,2.517,2.77481
-1.14964,0.0666597,2.499,2.75156
-1.14153,0.0666597,2.499,2.74819
-1.13341,0.0666597,2.499,2.74483
-1.1172,0.0661795,2.481,2.72174
-1.10914,0.0661795,2.481,2.71845
-1.10109,0.0661795,2.481,2.71517
-1.09304,0.0661795,2.481,2.71191
-1.08499,0.0661795,2.481,2.70868
-1.06912,0.0656994,2.463,2.68583
-1.06113,0.0656994,2.463,2.68266
-1.05313,0.0656994,2.463,2.67951
-1.04514,0.0656994,2.463,2.67638
-1.03714,0.0656994,2.463,2.67327
-1.02915,0.0656994,2.463,2.67017
-1.02116,0.0656994,2.463,2.6671
-1.01316,0.0656994,2.463,2.66405
-1.00517,0.0656994,2.463,2.66102
-0.997172,0.0656994,2.463,2.65801
-0.989178,0.0656994,2.463,2.65503
-0.981184,0.0656994,2.463,2.65206
-0.973189,0.0656994,2.463,2.64911
-0.965195,0.0656994,2.463,2.64618
-0.957201,0.0656994,2.463,2.64328
-0.949206,0.0656994,2.463,2.64039
-0.941212,0.0656994,2.463,2.63753
-0.933218,0.0656994,2.463,2.63469
-0.925224,0.0656994,2.463,2.63187
-0.917229,0.0656994,2.463,2.62907
-0.909235,0.0656994,2.463,2.62629
-0.901241,0.0656994,2.463,2.62353
-0.893246,0.0656994,2.463,2.6208
-0.885252,0.0656994,2.463,2.61808
-0.877258,0.0656994,2.463,2.61539
-0.869264,0.0656994,2.463,2.61272
-0.861269,0.0656994,2.463,2.61007
-0.853275,0.0656994,2.463,2.60744
-0.845281,0.0656994,2.463,2.60484
-0.843405,0.0661795,2.481,2.62127
-0.835353,0.0661795,2.481,2.61869
-0.8273,0.0661795,2.481,2.61614
-0.819247,0.0661795,2.481,2.6136
-0.811195,0.0661795,2.481,2.61109
-0.803142,0.0661795,2.481,2.6086
-0.795089,0.0661795,2.481,2.60613
-0.787037,0.0661795,2.481,2.60368
-0.784635,0.0666597,2.499,2.62013
-0.776524,0.0666597,2.499,2.61772
-0.768413,0.0666597,2.499,2.61532
-0.760302,0.0666597,2.499,2.61295
-0.752191,0.0666597,2.499,2.6106
-0.73872,0.0661795,2.481,2.58949
-0.730668,0.0661795,2.481,2.5872
-0.727858,0.0666597,2.499,2.60369
-0.719746,0.0666597,2.499,2.60144
-0.711635,0.0666597,2.499,2.59921
-0.703524,0.0666597,2.499,2.597
-0.695413,0.0666597,2.499,2.59481
-0.687302,0.0666597,2.499,2.59265
-0.679191,0.0666597,2.499,2.59051
-0.67108,0.0666597,2.499,2.5884
-0.662968,0.0666597,2.499,2.5863
-0.654857,0.0666597,2.499,2.58424
-0.646746,0.0666597,2.499,2.58219
-0.638635,0.0666597,2.499,2.58017
-0.630524,0.0666597,2.499,2.57818
-0.622413,0.0666597,2.499,2.57621
-0.614302,0.0666597,2.499,2.57426
-0.606191,0.0666597,2.499,2.57234
-0.598079,0.0666597,2.499,2.57044
-0.589968,0.0666597,2.499,2.56856
-0.586048,0.0671398,2.517,2.5852
-0.577879,0.0671398,2.517,2.58336
-0.569709,0.0671398,2.517,2.58154
-0.561539,0.0671398,2.517,2.57975
-0.55337,0.0671398,2.517,2.57799
-0.5452,0.0671398,2.517,2.57625
-0.537031,0.0671398,2.517,2.57453
-0.528861,0.0671398,2.517,2.57284
-0.524622,0.0676466,2.536,2.59058
-0.516391,0.0676466,2.536,2.58892
-0.50816,0.0676466,2.536,2.5873
-0.499929,0.0676466,2.536,2.58569
-0.491697,0.0676466,2.536,2.58411
-0.483466,0.0676466,2.536,2.58256
-0.475235,0.0676466,2.536,2.58103
-0.470502,0.0681534,2.555,2.59885
-0.46221,0.0681534,2.555,2.59737
-0.453917,0.0681534,2.555,2.5959
-0.445624,0.0681534,2.555,2.59447
-0.437331,0.0681534,2.555,2.59305
-0.429038,0.0681534,2.555,2.59167
-0.420745,0.0681534,2.555,2.59031
-0.412452,0.0681534,2.555,2.58897
-0.404159,0.0681534,2.555,2.58767
-0.395866,0.0681534,2.555,2.58638
-0.390456,0.0686603,2.574,2.60435
-0.382101,0.0686603,2.574,2.60311
-0.373747,0.0686603,2.574,2.6019
-0.365392,0.0686603,2.574,2.60071
-0.357037,0.0686603,2.574,2.59955
-0.346109,0.0681534,2.555,2.57924
-0.337816,0.0681534,2.555,2.57814
-0.329523,0.0681534,2.555,2.57706
-0.32123,0.0681534,2.555,2.57602
-0.312937,0.0681534,2.555,2.575
-0.304645,0.0681534,2.555,2.574
-0.296352,0.0681534,2.555,2.57303
-0.288059,0.0681534,2.555,2.57209
-0.279766,0.0681534,2.555,2.57117
-0.269454,0.0676466,2.536,2.55117
-0.261223,0.0676466,2.536,2.55032
-0.252992,0.0676466,2.536,2.54949
-0.244761,0.0676466,2.536,2.54868
-0.234757,0.0671398,2.517,2.52882
-0.226588,0.0671398,2.517,2.52807
-0.218418,0.0671398,2.517,2.52735
-0.210249,0.0671398,2.517,2.52666
-0.202079,0.0671398,2.517,2.52599
-0.192523,0.0666597,2.499,2.50729
-0.184412,0.0666597,2.499,2.50668
-0.1763,0.0666597,2.499,2.5061
-0.168189,0.0666597,2.499,2.50554
-0.160078,0.0666597,2.499,2.50501
-0.151967,0.0666597,2.499,2.5045
-0.143856,0.0666597,2.499,2.50402
-0.135745,0.0666597,2.499,2.50357
-0.127634,0.0666597,2.499,2.50314
-0.119523,0.0666597,2.499,2.50274
-0.111411,0.0666597,2.499,2.50237
-0.1033,0.0666597,2.499,2.50202
-0.0951891,0.0666597,2.499,2.5017
-0.087078,0.0666597,2.499,2.50141
-0.0789668,0.0666597,2.499,2.50114
-0.0708557,0.0666597,2.499,2.50089
-0.0627446,0.0666597,2.499,2.50068
-0.0546334,0.0666597,2.499,2.50049
-0.0465223,0.0666597,2.499,2.50032
-0.0384112,0.0666597,2.499,2.50018
-0.0303,0.0666597,2.499,2.50007
-0.0220291,0.0661795,2.481,2.48198
-0.0139764,0.0661795,2.481,2.48192
-0.00592366,0.0661795,2.481,2.48189
0.00212905,0.0661795,2.481,2.48188
0.0101818,0.0661795,2.481,2.4819
0.0182345,0.0661795,2.481,2.48195
0.0260965,0.0656994,2.463,2.46401
0.0340907,0.0656994,2.463,2.46411
0.042085,0.0656994,2.463,2.46424
0.0497133,0.0652193,2.445,2.44638
0.0576492,0.0652193,2.445,2.44655
0.0655851,0.0652193,2.445,2.44675
0.0735209,0.0652193,2.445,2.44697
0.0814568,0.0652193,2.445,2.44723
0.0893926,0.0652193,2.445,2.4475
0.0973285,0.0652193,2.445,2.44781
0.105264,0.0652193,2.445,2.44813
0.1132,0.0652193,2.445,2.44849
0.122028,0.0656994,2.463,2.4669
0.130022,0.0656994,2.463,2.4673
0.138016,0.0656994,2.463,2.46774
0.146011,0.0656994,2.463,2.4682
0.154005,0.0656994,2.463,2.46868
0.161999,0.0656994,2.463,2.4692
0.171236,0.0661795,2.481,2.48778
0.179289,0.0661795,2.481,2.48835
0.187341,0.0661795,2.481,2.48894
0.196812,0.0666597,2.499,2.50762
0.204923,0.0666597,2.499,2.50827
0.213034,0.0666597,2.499,2.50895
0.221145,0.0666597,2.499,2.50965
0.230908,0.0671398,2.517,2.52846
0.239077,0.0671398,2.517,2.52922
0.247247,0.0671398,2.517,2.53001
0.255416,0.0671398,2.517,2.53082
0.263586,0.0671398,2.517,2.53165
0.271755,0.0671398,2.517,2.53252
0.279925,0.0671398,2.517,2.53341
0.286034,0.0666597,2.499,2.5162
0.294145,0.0666597,2.499,2.51713
0.302256,0.0666597,2.499,2.5181
0.310368,0.0666597,2.499,2.51908
0.318479,0.0666597,2.499,2.52009
0.32659,0.0666597,2.499,2.52113
0.334701,0.0666597,2.499,2.5222
0.342812,0.0666597,2.499,2.52328
0.350923,0.0666597,2.499,2.5244
0.359034,0.0666597,2.499,2.52554
0.367146,0.0666597,2.499,2.52671
0.375257,0.0666597,2.499,2.5279
0.386129,0.0671398,2.517,2.54733
0.394299,0.0671398,2.517,2.54858
0.402468,0.0671398,2.517,2.54986
0.410638,0.0671398,2.517,2.55116
0.418807,0.0671398,2.517,2.55249
0.426977,0.0671398,2.517,2.55384
0.435146,0.0671398,2.517,2.55522
0.443316,0.0671398,2.517,2.55662
0.451486,0.0671398,2.517,2.55805
0.459655,0.0671398,2.517,2.55951
0.467825,0.0671398,2.517,2.56099
0.475994,0.0671398,2.517,2.56249
0.484164,0.0671398,2.517,2.56402
0.492333,0.0671398,2.517,2.56558
0.500503,0.0671398,2.517,2.56716
0.508672,0.0671398,2.517,2.56876
0.516842,0.0671398,2.517,2.57039
0.525012,0.0671398,2.517,2.57205
0.533181,0.0671398,2.517,2.57373
0.541351,0.0671398,2.517,2.57543
0.54952,0.0671398,2.517,2.57716
0.55769,0.0671398,2.517,2.57892
0.565859,0.0671398,2.517,2.5807
0.574029,0.0671398,2.517,2.5825
0.582199,0.0671398,2.517,2.58433
0.590368,0.0671398,2.517,2.58618
0.598538,0.0671398,2.517,2.58806
0.606707,0.0671398,2.517,2.58996
0.614877,0.0671398,2.517,2.59189
0.623046,0.0671398,2.517,2.59384
0.631216,0.0671398,2.517,2.59581
0.634813,0.0666597,2.499,2.57923
0.642924,0.0666597,2.499,2.58124
0.651035,0.0666597,2.499,2.58327
0.659146,0.0666597,2.499,2.58533
0.667257,0.0666597,2.499,2.58741
0.675369,0.0666597,2.499,2.58951
0.68348,0.0666597,2.499,2.59164
0.686609,0.0661795,2.481,2.57511
0.694662,0.0661795,2.481,2.57727
0.702715,0.0661795,2.481,2.57945
0.710768,0.0661795,2.481,2.58165
0.71882,0.0661795,2.481,2.58388
0.726873,0.0661795,2.481,2.58613
0.734926,0.0661795,2.481,2.58841
0.742978,0.0661795,2.481,2.59071
0.751031,0.0661795,2.481,2.59303
0.759084,0.0661795,2.481,2.59537
0.767137,0.0661795,2.481,2.59774
0.775189,0.0661795,2.481,2.60013
0.777559,0.0656994,2.463,2.58366
0.785554,0.0656994,2.463,2.58607
0.799347,0.0661795,2.481,2.60743
0.8074,0.0661795,2.481,2.60991
0.815453,0.0661795,2.481,2.61241
0.823505,0.0661795,2.481,2.61494
0.831558,0.0661795,2.481,2.61749
0.839611,0.0661795,2.481,2.62005
0.847664,0.0661795,2.481,2.62265
0.855716,0.0661795,2.481,2.62526
0.863769,0.0661795,2.481,2.6279
0.871822,0.0661795,2.481,2.63055
0.879874,0.0661795,2.481,2.63323
0.887927,0.0661795,2.481,2.63594
0.89598,0.0661795,2.481,2.63866
0.904033,0.0661795,2.481,2.6414
0.912085,0.0661795,2.481,2.64417
0.913462,0.0656994,2.463,2.62776
0.921457,0.0656994,2.463,2.63055
0.929451,0.0656994,2.463,2.63336
0.930594,0.0652193,2.445,2.61692
0.93853,0.0652193,2.445,2.61976
0.946466,0.0652193,2.445,2.62261
0.947766,0.0647658,2.428,2.60723
0.955646,0.0647658,2.428,2.6101
0.963527,0.0647658,2.428,2.613
0.971408,0.0647658,2.428,2.61592
0.979289,0.0647658,2.428,2.61885
0.987169,0.0647658,2.428,2.62181
0.99505,0.0647658,2.428,2.62479
1.00293,0.0647658,2.428,2.62778
1.01789,0.0652193,2.445,2.64922
1.03338,0.0656994,2.463,2.67181
1.04137,0.0656994,2.463,2.67491
1.05703,0.0661795,2.481,2.6976
1.07281,0.0666597,2.499,2.72036
1.08093,0.0666597,2.499,2.72357
1.09688,0.0671398,2.517,2.74644
1.12173,0.0681534,2.555,2.79123
1.13843,0.0686603,2.574,2.81535
1.14678,0.0686603,2.574,2.81874
1.16367,0.0691671,2.593,2.84298
1.18112,0.0697006,2.613,2.86839
1.1896,0.0697006,2.613,2.8719
1.20725,0.0702341,2.633,2.89743
1.2255,0.0707942,2.654,2.92414
1.23411,0.0707942,2.654,2.92776
1.24273,0.0707942,2.654,2.9314
1.26124,0.0713544,2.675,2.95828
1.26992,0.0713544,2.675,2.962
1.27861,0.0713544,2.675,2.96573
1.28729,0.0713544,2.675,2.96948
1.30614,0.0719146,2.696,2.9966
1.3149,0.0719146,2.696,3.00042
1.32365,0.0719146,2.696,3.00427
1.34278,0.0724747,2.717,3.03157
1.35159,0.0724747,2.717,3.03548
1.36041,0.0724747,2.717,3.03942
1.38032,0.0730616,2.739,3.06802
1.38921,0.0730616,2.739,3.07203
1.42056,0.0742353,2.783,3.12547
1.44141,0.0748488,2.806,3.15545
1.47481,0.0761025,2.853,3.21255
1.48407,0.0761025,2.853,3.21681
1.53154,0.0780497,2.926,3.30351
1.5542,0.0787166,2.951,3.33619
1.56378,0.0787166,2.951,3.34066
1.60108,0.0801036,3.003,3.4041
1.62531,0.0808239,3.03,3.43934
1.66429,0.0822643,3.084,3.50538
1.6743,0.0822643,3.084,3.51014
1.68431,0.0822643,3.084,3.51493
1.7097,0.0830112,3.112,3.55169
1.7198,0.0830112,3.112,3.55657
1.7299,0.0830112,3.112,3.56146
1.74,0.0830112,3.112,3.56638
1.73436,0.0822643,3.084,3.53918
1.74437,0.0822643,3.084,3.5441
1.75438,0.0822643,3.084,3.54904
1.74894,0.0815441,3.057,3.52288
1.75886,0.0815441,3.057,3.52782
1.75316,0.0808239,3.03,3.50157
1.763,0.0808239,3.03,3.50651
1.75704,0.0801036,3.003,3.48017
1.75149,0.0794101,2.977,3.45493
1.76115,0.0794101,2.977,3.45984
1.75535,0.0787166,2.951,3.43451
1.74997,0.0780497,2.926,3.41027
1.75947,0.0780497,2.926,3.41516
1.75385,0.0773828,2.901,3.39084
1.76327,0.0773828,2.901,3.39572
1.77268,0.0773828,2.901,3.40062
1.75261,0.0761025,2.853,3.34919
1.74705,0.0754623,2.829,3.32583
1.75623,0.0754623,2.829,3.33066
1.75106,0.0748488,2.806,3.30839
1.74574,0.0742353,2.783,3.28606
1.75478,0.0742353,2.783,3.29087
1.73592,0.0730616,2.739,3.24359
1.7308,0.0724747,2.717,3.22227
1.71273,0.0713544,2.675,3.17713
1.72141,0.0713544,2.675,3.18182
1.70293,0.0702341,2.633,3.13649
1.69847,0.0697006,2.613,3.11728
1.70695,0.0697006,2.613,3.12191
1.68983,0.0686603,2.574,3.07989
1.68565,0.0681534,2.555,3.06171
1.69394,0.0681534,2.555,3.06629
1.67692,0.0671398,2.517,3.0252
1.67304,0.0666597,2.499,3.00807
1.68115,0.0666597,2.499,3.01259
1.67709,0.0661795,2.481,2.99539
1.67292,0.0656994,2.463,2.97814
-1.93066,0.0832656,2.783,3.38814
-1.92163,0.0832656,2.783,3.383
-1.91259,0.0832656,2.783,3.37787
-1.88851,0.0826074,2.761,3.34611
-1.87955,0.0826074,2.761,3.34106
-1.87059,0.0826074,2.761,3.33602
-1.84679,0.0819492,2.739,3.30446
-1.80905,0.0806626,2.696,3.2477
-1.78628,0.0800343,2.675,3.21758
-1.77759,0.0800343,2.675,3.21277
-1.76891,0.0800343,2.675,3.20797
-1.74641,0.079406,2.654,3.17805
-1.7378,0.079406,2.654,3.17332
-1.70247,0.0781793,2.613,3.11966
-1.68102,0.0775809,2.593,3.0912
-1.67261,0.0775809,2.593,3.08663
-1.652,0.0770125,2.574,3.05949
-1.63151,0.076444,2.555,3.03244
-1.62322,0.076444,2.555,3.02799
-1.61492,0.076444,2.555,3.02355
-1.61858,0.0770125,2.574,3.04158
-1.61022,0.0770125,2.574,3.03714
-1.61369,0.0775809,2.593,3.05511
-1.60528,0.0775809,2.593,3.05067
-1.60918,0.0781793,2.613,3.06974
-1.61295,0.0787777,2.633,3.08877
-1.6044,0.0787777,2.633,3.08431
-1.62131,0.0800343,2.675,3.12901
-1.61263,0.0800343,2.675,3.12452
-1.60395,0.0800343,2.675,3.12004
-1.60779,0.0806626,2.696,3.14005
-1.59904,0.0806626,2.696,3.13558
-1.59029,0.0806626,2.696,3.13112
-1.58154,0.0806626,2.696,3.12669
-1.58504,0.081291,2.717,3.14659
-1.57622,0.081291,2.717,3.14216
-1.54317,0.0800343,2.675,3.08924
-1.53449,0.0800343,2.675,3.08491
-1.5258,0.0800343,2.675,3.0806
-1.51712,0.0800343,2.675,3.07631
-1.48476,0.0787777,2.633,3.0238
-1.47621,0.0787777,2.633,3.01962
-1.46766,0.0787777,2.633,3.01545
-1.45912,0.0787777,2.633,3.0113
-1.45057,0.0787777,2.633,3.00717
-1.44203,0.0787777,2.633,3.00305
-1.43348,0.0787777,2.633,2.99896
-1.4363,0.079406,2.654,3.01877
-1.42768,0.079406,2.654,3.01468
-1.41907,0.079406,2.654,3.01061
-1.41046,0.079406,2.654,3.00656
-1.41293,0.0800343,2.675,3.02629
-1.40425,0.0800343,2.675,3.02224
-1.39557,0.0800343,2.675,3.01822
-1.38689,0.0800343,2.675,3.01421
-1.3782,0.0800343,2.675,3.01023
-1.36952,0.0800343,2.675,3.00626
-1.36084,0.0800343,2.675,3.00232
-1.35216,0.0800343,2.675,2.99839
-1.33293,0.079406,2.654,2.97098
-1.31383,0.0787777,2.633,2.94365
-1.30529,0.0787777,2.633,2.93984
-1.28689,0.0781793,2.613,2.91376
-1.26863,0.0775809,2.593,2.88775
-1.25098,0.0770125,2.574,2.86293
-1.24262,0.0770125,2.574,2.85929
-1.22516,0.076444,2.555,2.83459
-1.20781,0.0758755,2.536,2.80996
-1.19958,0.0758755,2.536,2.80643
-1.19135,0.0758755,2.536,2.80292
-1.17426,0.0753071,2.517,2.77846
-1.16609,0.0753071,2.517,2.77502
-1.14964,0.0747685,2.499,2.75177
-1.14153,0.0747685,2.499,2.74839
-1.13341,0.0747685,2.499,2.74504
-1.1253,0.0747685,2.499,2.7417
-1.10914,0.07423,2.481,2.71865
-1.10109,0.07423,2.481,2.71538
-1.09304,0.07423,2.481,2.71212
-1.08499,0.07423,2.481,2.70889
-1.07693,0.07423,2.481,2.70567
-1.06888,0.07423,2.481,2.70248
-1.06083,0.07423,2.481,2.6993
-1.05278,0.07423,2.481,2.69615
-1.04472,0.07423,2.481,2.69301
-1.02915,0.0736914,2.463,2.67038
-1.02116,0.0736914,2.463,2.66731
-1.01316,0.0736914,2.463,2.66426
-1.00517,0.0736914,2.463,2.66123
-0.997172,0.0736914,2.463,2.65822
-0.989178,0.0736914,2.463,2.65523
-0.981184,0.0736914,2.463,2.65227
-0.973189,0.0736914,2.463,2.64932
-0.965195,0.0736914,2.463,2.64639
-0.957201,0.0736914,2.463,2.64349
-0.949206,0.0736914,2.463,2.6406
-0.941212,0.0736914,2.463,2.63774
-0.933218,0.0736914,2.463,2.6349
-0.925224,0.0736914,2.463,2.63208
-0.917229,0.0736914,2.463,2.62928
-0.909235,0.0736914,2.463,2.6265
-0.901241,0.0736914,2.463,2.62374
-0.893246,0.0736914,2.463,2.62101
-0.885252,0.0736914,2.463,2.6183
-0.877258,0.0736914,2.463,2.6156
-0.869264,0.0736914,2.463,2.61293
-0.861269,0.0736914,2.463,2.61028
-0.853275,0.0736914,2.463,2.60766
-0.845281,0.0736914,2.463,2.60505
-0.843405,0.07423,2.481,2.62149
-0.835353,0.07423,2.481,2.61891
-0.8273,0.07423,2.481,2.61635
-0.819247,0.07423,2.481,2.61382
-0.811195,0.07423,2.481,2.6113
-0.803142,0.07423,2.481,2.60881
-0.795089,0.07423,2.481,2.60635
-0.792747,0.0747685,2.499,2.62279
-0.784635,0.0747685,2.499,2.62035
-0.776524,0.0747685,2.499,2.61793
-0.768413,0.0747685,2.499,2.61554
-0.760302,0.0747685,2.499,2.61317
-0.752191,0.0747685,2.499,2.61082
-0.74408,0.0747685,2.499,2.60849
-0.735969,0.0747685,2.499,2.60619
-0.727858,0.0747685,2.499,2.60391
-0.719746,0.0747685,2.499,2.60166
-0.711635,0.0747685,2.499,2.59943
-0.703524,0.0747685,2.499,2.59722
-0.695413,0.0747685,2.499,2.59503
-0.687302,0.0747685,2.499,2.59287
-0.679191,0.0747685,2.499,2.59073
-0.67108,0.0747685,2.499,2.58862
-0.662968,0.0747685,2.499,2.58653
-0.654857,0.0747685,2.499,2.58446
-0.646746,0.0747685,2.499,2.58242
-0.638635,0.0747685,2.499,2.5804
-0.630524,0.0747685,2.499,2.5784
-0.622413,0.0747685,2.499,2.57643
-0.614302,0.0747685,2.499,2.57448
-0.606191,0.0747685,2.499,2.57256
-0.598079,0.0747685,2.499,2.57066
-0.589968,0.0747685,2.499,2.56878
-0.586048,0.0753071,2.517,2.58542
-0.577879,0.0753071,2.517,2.58358
-0.569709,0.0753071,2.517,2.58177
-0.561539,0.0753071,2.517,2.57998
-0.55337,0.0753071,2.517,2.57821
-0.5452,0.0753071,2.517,2.57647
-0.537031,0.0753071,2.517,2.57475
-0.528861,0.0753071,2.517,2.57306
-0.520692,0.0753071,2.517,2.5714
-0.512522,0.0753071,2.517,2.56975
-0.50816,0.0758755,2.536,2.58752
-0.499929,0.0758755,2.536,2.58592
-0.491697,0.0758755,2.536,2.58434
-0.483466,0.0758755,2.536,2.58279
-0.475235,0.0758755,2.536,2.58126
-0.470502,0.076444,2.555,2.59908
-0.46221,0.076444,2.555,2.5976
-0.453917,0.076444,2.555,2.59613
-0.445624,0.076444,2.555,2.5947
-0.437331,0.076444,2.555,2.59329
-0.429038,0.076444,2.555,2.5919
-0.420745,0.076444,2.555,2.59054
-0.412452,0.076444,2.555,2.58921
-0.404159,0.076444,2.555,2.5879
-0.395866,0.076444,2.555,2.58662
-0.390456,0.0770125,2.574,2.60459
-0.382101,0.0770125,2.574,2.60335
-0.373747,0.0770125,2.574,2.60213
-0.365392,0.0770125,2.574,2.60095
-0.357037,0.0770125,2.574,2.59979
-0.346109,0.076444,2.555,2.57947
-0.337816,0.076444,2.555,2.57837
-0.329523,0.076444,2.555,2.5773
-0.32123,0.076444,2.555,2.57625
-0.312937,0.076444,2.555,2.57523
-0.304645,0.076444,2.555,2.57423
-0.296352,0.076444,2.555,2.57327
-0.285917,0.0758755,2.536,2.55319
-0.277685,0.0758755,2.536,2.55229
-0.269454,0.0758755,2.536,2.5514
-0.261223,0.0758755,2.536,2.55055
-0.252992,0.0758755,2.536,2.54972
-0.244761,0.0758755,2.536,2.54891
-0.234757,0.0753071,2.517,2.52905
-0.226588,0.0753071,2.517,2.5283
-0.218418,0.0753071,2.517,2.52758
-0.210249,0.0753071,2.517,2.52689
-0.202079,0.0753071,2.517,2.52622
-0.193909,0.0753071,2.517,2.52558
-0.184412,0.0747685,2.499,2.50691
-0.1763,0.0747685,2.499,2.50633
-0.168189,0.0747685,2.499,2.50577
-0.160078,0.0747685,2.499,2.50524
-0.151967,0.0747685,2.499,2.50473
-0.143856,0.0747685,2.499,2.50425
-0.135745,0.0747685,2.499,2.5038
-0.127634,0.0747685,2.499,2.50337
-0.119523,0.0747685,2.499,2.50297
-0.111411,0.0747685,2.499,2.5026
-0.1033,0.0747685,2.499,2.50225
-0.0951891,0.0747685,2.499,2.50193
-0.087078,0.0747685,2.499,2.50163
-0.0789668,0.0747685,2.499,2.50137
-0.0708557,0.0747685,2.499,2.50112
-0.0627446,0.0747685,2.499,2.50091
-0.0546334,0.0747685,2.499,2.50072
-0.0465223,0.0747685,2.499,2.50055
-0.0384112,0.0747685,2.499,2.50041
-0.0303,0.0747685,2.499,2.5003
-0.0220291,0.07423,2.481,2.48221
-0.0139764,0.07423,2.481,2.48215
-0.00592366,0.07423,2.481,2.48212
0.00212905,0.07423,2.481,2.48211
0.0101818,0.07423,2.481,2.48213
0.0182345,0.07423,2.481,2.48218
0.0260965,0.0736914,2.463,2.46424
0.0340907,0.0736914,2.463,2.46434
0.042085,0.0736914,2.463,2.46446
0.0497133,0.0731529,2.445,2.4466
0.0576492,0.0731529,2.445,2.44677
0.0655851,0.0731529,2.445,2.44697
0.0735209,0.0731529,2.445,2.4472
0.0814568,0.0731529,2.445,2.44745
0.0893926,0.0731529,2.445,2.44773
0.0973285,0.0731529,2.445,2.44803
0.105264,0.0731529,2.445,2.44836
0.1132,0.0731529,2.445,2.44871
0.122028,0.0736914,2.463,2.46712
0.130022,0.0736914,2.463,2.46753
0.138016,0.0736914,2.463,2.46796
0.146011,0.0736914,2.463,2.46842
0.154005,0.0736914,2.463,2.46891
0.163183,0.07423,2.481,2.48747
0.171236,0.07423,2.481,2.48801
0.179289,0.07423,2.481,2.48858
0.187341,0.07423,2.481,2.48917
0.196812,0.0747685,2.499,2.50785
0.204923,0.0747685,2.499,2.5085
0.213034,0.0747685,2.499,2.50918
0.222738,0.0753071,2.517,2.52796
0.230908,0.0753071,2.517,2.52869
0.239077,0.0753071,2.517,2.52945
0.247247,0.0753071,2.517,2.53024
0.255416,0.0753071,2.517,2.53105
0.263586,0.0753071,2.517,2.53188
0.271755,0.0753071,2.517,2.53275
0.277923,0.0747685,2.499,2.51552
0.286034,0.0747685,2.499,2.51643
0.294145,0.0747685,2.499,2.51736
0.302256,0.0747685,2.499,2.51832
0.310368,0.0747685,2.499,2.51931
0.318479,0.0747685,2.499,2.52032
0.32659,0.0747685,2.499,2.52136
0.334701,0.0747685,2.499,2.52242
0.342812,0.0747685,2.499,2.52351
0.350923,0.0747685,2.499,2.52463
0.359034,0.0747685,2.499,2.52577
0.367146,0.0747685,2.499,2.52693
0.375257,0.0747685,2.499,2.52812
0.386129,0.0753071,2.517,2.54756
0.394299,0.0753071,2.517,2.54881
0.402468,0.0753071,2.517,2.55009
0.410638,0.0753071,2.517,2.55139
0.418807,0.0753071,2.517,2.55272
0.426977,0.0753071,2.517,2.55407
0.435146,0.0753071,2.517,2.55545
0.443316,0.0753071,2.517,2.55685
0.451486,0.0753071,2.517,2.55828
0.459655,0.0753071,2.517,2.55974
0.471356,0.0758755,2.536,2.58055
0.479587,0.0758755,2.536,2.58206
0.484164,0.0753071,2.517,2.56425
0.492333,0.0753071,2.517,2.5658
0.500503,0.0753071,2.517,2.56738
0.508672,0.0753071,2.517,2.56899
0.516842,0.0753071,2.517,2.57062
0.528975,0.0758755,2.536,2.59169
0.533181,0.0753071,2.517,2.57395
0.541351,0.0753071,2.517,2.57566
0.54952,0.0753071,2.517,2.57739
0.55769,0.0753071,2.517,2.57914
0.565859,0.0753071,2.517,2.58092
0.574029,0.0753071,2.517,2.58273
0.582199,0.0753071,2.517,2.58455
0.590368,0.0753071,2.517,2.58641
0.598538,0.0753071,2.517,2.58828
0.606707,0.0753071,2.517,2.59018
0.614877,0.0753071,2.517,2.59211
0.623046,0.0753071,2.517,2.59406
0.631216,0.0753071,2.517,2.59603
0.634813,0.0747685,2.499,2.57945
0.642924,0.0747685,2.499,2.58146
0.651035,0.0747685,2.499,2.58349
0.659146,0.0747685,2.499,2.58555
0.667257,0.0747685,2.499,2.58763
0.675369,0.0747685,2.499,2.58973
0.68348,0.0747685,2.499,2.59186
0.686609,0.07423,2.481,2.57533
0.694662,0.07423,2.481,2.57748
0.702715,0.07423,2.481,2.57967
0.710768,0.07423,2.481,2.58187
0.71882,0.07423,2.481,2.5841
0.726873,0.07423,2.481,2.58635
0.734926,0.07423,2.481,2.58863
0.742978,0.07423,2.481,2.59092
0.751031,0.07423,2.481,2.59325
0.759084,0.07423,2.481,2.59559
0.767137,0.07423,2.481,2.59795
0.775189,0.07423,2.481,2.60034
0.777559,0.0736914,2.463,2.58387
0.785554,0.0736914,2.463,2.58629
0.799347,0.07423,2.481,2.60765
0.8074,0.07423,2.481,2.61013
0.815453,0.07423,2.481,2.61263
0.823505,0.07423,2.481,2.61515
0.831558,0.07423,2.481,2.6177
0.839611,0.07423,2.481,2.62027
0.847664,0.07423,2.481,2.62286
0.855716,0.07423,2.481,2.62548
0.863769,0.07423,2.481,2.62811
0.871822,0.07423,2.481,2.63077
0.879874,0.07423,2.481,2.63345
0.887927,0.07423,2.481,2.63615
0.89598,0.07423,2.481,2.63887
0.904033,0.07423,2.481,2.64162
0.912085,0.07423,2.481,2.64438
0.913462,0.0736914,2.463,2.62797
0.921457,0.0736914,2.463,2.63076
0.929451,0.0736914,2.463,2.63357
0.930594,0.0731529,2.445,2.61713
0.93853,0.0731529,2.445,2.61996
0.946466,0.0731529,2.445,2.62282
0.947766,0.0726442,2.428,2.60744
0.955646,0.0726442,2.428,2.61031
0.963527,0.0726442,2.428,2.61321
0.971408,0.0726442,2.428,2.61612
0.979289,0.0726442,2.428,2.61906
0.987169,0.0726442,2.428,2.62202
0.99505,0.0726442,2.428,2.62499
1.00293,0.0726442,2.428,2.62799
1.01789,0.0731529,2.445,2.64943
1.03338,0.0736914,2.463,2.67202
1.04137,0.0736914,2.463,2.67512
1.05703,0.07423,2.481,2.69781
1.07281,0.0747685,2.499,2.72057
1.08093,0.0747685,2.499,2.72378
1.09688,0.0753071,2.517,2.74665
1.12173,0.076444,2.555,2.79144
1.13843,0.0770125,2.574,2.81557
1.14678,0.0770125,2.574,2.81896
1.16367,0.0775809,2.593,2.8432
1.18112,0.0781793,2.613,2.86861
1.1896,0.0781793,2.613,2.87211
1.19808,0.0781793,2.613,2.87564
1.2158,0.0787777,2.633,2.90122
1.22435,0.0787777,2.633,2.90481
1.24273,0.079406,2.654,2.93162
1.25134,0.079406,2.654,2.93528
1.25995,0.079406,2.654,2.93896
1.26857,0.079406,2.654,2.94267
1.27718,0.079406,2.654,2.94639
1.29597,0.0800343,2.675,2.97348
1.30465,0.0800343,2.675,2.97727
1.31334,0.0800343,2.675,2.98109
1.32202,0.0800343,2.675,2.98492
1.3307,0.0800343,2.675,2.98878
1.33938,0.0800343,2.675,2.99265
1.35865,0.0806626,2.696,3.02007
1.3674,0.0806626,2.696,3.02402
1.3981,0.0819492,2.739,3.07628
1.42959,0.0832656,2.783,3.12982
1.4624,0.0846419,2.829,3.18575
1.47158,0.0846419,2.829,3.18998
1.50589,0.086078,2.877,3.24842
1.52787,0.0867961,2.901,3.2799
1.53729,0.0867961,2.901,3.28429
1.57336,0.0882921,2.951,3.34539
1.61083,0.0898479,3.003,3.40894
1.63515,0.0906557,3.03,3.44425
1.64498,0.0906557,3.03,3.44893
1.66956,0.0914635,3.057,3.4844
1.69432,0.0922714,3.084,3.51998
1.70433,0.0922714,3.084,3.52481
1.69933,0.0914635,3.057,3.49876
1.70925,0.0914635,3.057,3.50359
1.71917,0.0914635,3.057,3.50844
1.71383,0.0906557,3.03,3.48229
1.72366,0.0906557,3.03,3.48714
1.73349,0.0906557,3.03,3.49201
1.72779,0.0898479,3.003,3.46574
1.73754,0.0898479,3.003,3.47061
1.74729,0.0898479,3.003,3.4755
1.74182,0.08907,2.977,3.45028
1.73619,0.0882921,2.951,3.42499
1.74577,0.0882921,2.951,3.42985
1.74047,0.0875441,2.926,3.40564
1.73502,0.0867961,2.901,3.38136
1.74444,0.0867961,2.901,3.38621
1.73934,0.086078,2.877,3.36301
1.73409,0.08536,2.853,3.33976
1.74335,0.08536,2.853,3.34457
1.73787,0.0846419,2.829,3.32123
1.73285,0.0839538,2.806,3.29901
1.74196,0.0839538,2.806,3.3038
1.73671,0.0832656,2.783,3.28149
1.73194,0.0826074,2.761,3.2603
1.7409,0.0826074,2.761,3.26507
1.72198,0.081291,2.717,3.21775
1.71742,0.0806626,2.696,3.19757
1.69928,0.079406,2.654,3.15239
1.70789,0.079406,2.654,3.15704
1.68999,0.0781793,2.613,3.11287
1.68547,0.0775809,2.593,3.09362
1.69389,0.0775809,2.593,3.09821
1.67736,0.076444,2.555,3.05735
1.67312,0.0758755,2.536,3.03914
1.68135,0.0758755,2.536,3.04368
1.67692,0.0753071,2.517,3.0254
1.67304,0.0747685,2.499,3.00826
1.68115,0.0747685,2.499,3.01278
1.67709,0.07423,2.481,2.99558
1.67292,0.0736914,2.463,2.97833
-1.9154,0.0915664,2.761,3.36158
-1.90643,0.0915664,2.761,3.35649
-1.89747,0.0915664,2.761,3.3514
-1.88851,0.0915664,2.761,3.34634
-1.86457,0.0908368,2.739,3.31467
-1.85568,0.0908368,2.739,3.30967
-1.84679,0.0908368,2.739,3.3047
-1.80905,0.0894107,2.696,3.24793
-1.78628,0.0887143,2.675,3.21781
-1.77759,0.0887143,2.675,3.21299
-1.75502,0.0880178,2.654,3.18301
-1.73259,0.0873214,2.633,3.15312
-1.72405,0.0873214,2.633,3.14844
-1.70247,0.0866581,2.613,3.11988
-1.68102,0.0859948,2.593,3.09142
-1.67261,0.0859948,2.593,3.08685
-1.652,0.0853647,2.574,3.05971
-1.63151,0.0847346,2.555,3.03266
-1.62322,0.0847346,2.555,3.02821
-1.61492,0.0847346,2.555,3.02377
-1.61858,0.0853647,2.574,3.0418
-1.61022,0.0853647,2.574,3.03736
-1.61369,0.0859948,2.593,3.05533
-1.60528,0.0859948,2.593,3.05089
-1.60918,0.0866581,2.613,3.06997
-1.61295,0.0873214,2.633,3.089
-1.6044,0.0873214,2.633,3.08454
-1.62131,0.0887143,2.675,3.12924
-1.61263,0.0887143,2.675,3.12475
-1.60395,0.0887143,2.675,3.12028
-1.60779,0.0894107,2.696,3.14028
-1.59904,0.0894107,2.696,3.13581
-1.59029,0.0894107,2.696,3.13136
-1.58154,0.0894107,2.696,3.12693
-1.58504,0.0901072,2.717,3.14683
-1.57622,0.0901072,2.717,3.1424
-1.55528,0.0894107,2.696,3.11373
-1.54653,0.0894107,2.696,3.10937
-1.53778,0.0894107,2.696,3.10503
-1.51712,0.0887143,2.675,3.07655
-1.50844,0.0887143,2.675,3.07228
-1.48798,0.0880178,2.654,3.04394
-1.47937,0.0880178,2.654,3.03974
-1.47075,0.0880178,2.654,3.03555
-1.46214,0.0880178,2.654,3.03139
-1.46503,0.0887143,2.675,3.0512
-1.45635,0.0887143,2.675,3.04704
-1.4363,0.0880178,2.654,3.01901
-1.42768,0.0880178,2.654,3.01492
-1.41907,0.0880178,2.654,3.01085
-1.41046,0.0880178,2.654,3.0068
-1.41293,0.0887143,2.675,3.02653
-1.40425,0.0887143,2.675,3.02249
-1.39557,0.0887143,2.675,3.01846
-1.38689,0.0887143,2.675,3.01446
-1.3782,0.0887143,2.675,3.01047
-1.36952,0.0887143,2.675,3.00651
-1.36084,0.0887143,2.675,3.00256
-1.35216,0.0887143,2.675,2.99864
-1.33293,0.0880178,2.654,2.97122
-1.31383,0.0873214,2.633,2.94389
-1.30529,0.0873214,2.633,2.94008
-1.28689,0.0866581,2.613,2.914
-1.26863,0.0859948,2.593,2.88798
-1.26021,0.0859948,2.593,2.8843
-1.25179,0.0859948,2.593,2.88063
-1.22516,0.0847346,2.555,2.83482
-1.20781,0.0841044,2.536,2.81019
-1.19958,0.0841044,2.536,2.80666
-1.19135,0.0841044,2.536,2.80316
-1.17426,0.0834743,2.517,2.77869
-1.16609,0.0834743,2.517,2.77525
-1.14964,0.0828774,2.499,2.75201
-1.14153,0.0828774,2.499,2.74863
-1.13341,0.0828774,2.499,2.74527
-1.1253,0.0828774,2.499,2.74193
-1.10914,0.0822804,2.481,2.71888
-1.10109,0.0822804,2.481,2.71561
-1.09304,0.0822804,2.481,2.71235
-1.08499,0.0822804,2.481,2.70912
-1.07693,0.0822804,2.481,2.7059
-1.06888,0.0822804,2.481,2.70271
-1.06083,0.0822804,2.481,2.69954
-1.05278,0.0822804,2.481,2.69638
-1.04472,0.0822804,2.481,2.69325
-1.02915,0.0816835,2.463,2.67062
-1.02116,0.0816835,2.463,2.66755
-1.01316,0.0816835,2.463,2.6645
-1.00517,0.0816835,2.463,2.66147
-0.997172,0.0816835,2.463,2.65846
-0.989178,0.0816835,2.463,2.65547
-0.981184,0.0816835,2.463,2.6525
-0.973189,0.0816835,2.463,2.64955
-0.965195,0.0816835,2.463,2.64663
-0.957201,0.0816835,2.463,2.64372
-0.949206,0.0816835,2.463,2.64084
-0.941212,0.0816835,2.463,2.63798
-0.933218,0.0816835,2.463,2.63514
-0.925224,0.0816835,2.463,2.63231
-0.917229,0.0816835,2.463,2.62952
-0.909235,0.0816835,2.463,2.62674
-0.901241,0.0816835,2.463,2.62398
-0.893246,0.0816835,2.463,2.62125
-0.885252,0.0816835,2.463,2.61853
-0.877258,0.0816835,2.463,2.61584
-0.869264,0.0816835,2.463,2.61317
-0.861269,0.0816835,2.463,2.61052
-0.853275,0.0816835,2.463,2.6079
-0.845281,0.0816835,2.463,2.60529
-0.843405,0.0822804,2.481,2.62173
-0.835353,0.0822804,2.481,2.61915
-0.8273,0.0822804,2.481,2.61659
-0.819247,0.0822804,2.481,2.61406
-0.811195,0.0822804,2.481,2.61155
-0.803142,0.0822804,2.481,2.60906
-0.795089,0.0822804,2.481,2.60659
-0.792747,0.0828774,2.499,2.62304
-0.784635,0.0828774,2.499,2.6206
-0.776524,0.0828774,2.499,2.61818
-0.768413,0.0828774,2.499,2.61578
-0.760302,0.0828774,2.499,2.61341
-0.752191,0.0828774,2.499,2.61107
-0.74408,0.0828774,2.499,2.60874
-0.735969,0.0828774,2.499,2.60644
-0.727858,0.0828774,2.499,2.60416
-0.719746,0.0828774,2.499,2.6019
-0.711635,0.0828774,2.499,2.59967
-0.703524,0.0828774,2.499,2.59746
-0.695413,0.0828774,2.499,2.59528
-0.687302,0.0828774,2.499,2.59312
-0.679191,0.0828774,2.499,2.59098
-0.67108,0.0828774,2.499,2.58886
-0.662968,0.0828774,2.499,2.58677
-0.654857,0.0828774,2.499,2.58471
-0.646746,0.0828774,2.499,2.58266
-0.638635,0.0828774,2.499,2.58064
-0.630524,0.0828774,2.499,2.57865
-0.622413,0.0828774,2.499,2.57668
-0.614302,0.0828774,2.499,2.57473
-0.606191,0.0828774,2.499,2.57281
-0.598079,0.0828774,2.499,2.57091
-0.589968,0.0828774,2.499,2.56903
-0.581857,0.0828774,2.499,2.56718
-0.573746,0.0828774,2.499,2.56536
-0.569709,0.0834743,2.517,2.58202
-0.561539,0.0834743,2.517,2.58023
-0.55337,0.0834743,2.517,2.57846
-0.5452,0.0834743,2.517,2.57672
-0.537031,0.0834743,2.517,2.57501
-0.528861,0.0834743,2.517,2.57332
-0.520692,0.0834743,2.517,2.57165
-0.512522,0.0834743,2.517,2.57001
-0.504353,0.0834743,2.517,2.56839
-0.496183,0.0834743,2.517,2.5668
-0.488013,0.0834743,2.517,2.56523
-0.479844,0.0834743,2.517,2.56369
-0.475235,0.0841044,2.536,2.58151
-0.467004,0.0841044,2.536,2.58001
-0.458772,0.0841044,2.536,2.57853
-0.450541,0.0841044,2.536,2.57708
-0.44231,0.0841044,2.536,2.57566
-0.434079,0.0841044,2.536,2.57426
-0.425848,0.0841044,2.536,2.57288
-0.420745,0.0847346,2.555,2.5908
-0.412452,0.0847346,2.555,2.58946
-0.404159,0.0847346,2.555,2.58816
-0.395866,0.0847346,2.555,2.58687
-0.387574,0.0847346,2.555,2.58562
-0.379281,0.0847346,2.555,2.58439
-0.373747,0.0853647,2.574,2.60239
-0.365392,0.0853647,2.574,2.60121
-0.357037,0.0853647,2.574,2.60005
-0.346109,0.0847346,2.555,2.57973
-0.337816,0.0847346,2.555,2.57863
-0.329523,0.0847346,2.555,2.57756
-0.32123,0.0847346,2.555,2.57651
-0.312937,0.0847346,2.555,2.57549
-0.304645,0.0847346,2.555,2.57449
-0.296352,0.0847346,2.555,2.57352
-0.285917,0.0841044,2.536,2.55345
-0.277685,0.0841044,2.536,2.55254
-0.269454,0.0841044,2.536,2.55166
-0.261223,0.0841044,2.536,2.55081
-0.252992,0.0841044,2.536,2.54998
-0.244761,0.0841044,2.536,2.54917
-0.234757,0.0834743,2.517,2.5293
-0.226588,0.0834743,2.517,2.52856
-0.218418,0.0834743,2.517,2.52784
-0.210249,0.0834743,2.517,2.52715
-0.202079,0.0834743,2.517,2.52648
-0.193909,0.0834743,2.517,2.52584
-0.18574,0.0834743,2.517,2.52522
-0.17757,0.0834743,2.517,2.52464
-0.169401,0.0834743,2.517,2.52408
-0.160078,0.0828774,2.499,2.50549
-0.151967,0.0828774,2.499,2.50499
-0.143856,0.0828774,2.499,2.50451
-0.135745,0.0828774,2.499,2.50406
-0.127634,0.0828774,2.499,2.50363
-0.119523,0.0828774,2.499,2.50323
-0.111411,0.0828774,2.499,2.50285
-0.104044,0.0834743,2.517,2.52053
-0.0958747,0.0834743,2.517,2.52021
-0.0877052,0.0834743,2.517,2.51991
-0.0789668,0.0828774,2.499,2.50162
-0.0708557,0.0828774,2.499,2.50138
-0.0627446,0.0828774,2.499,2.50116
-0.0546334,0.0828774,2.499,2.50097
-0.0465223,0.0828774,2.499,2.50081
-0.0384112,0.0828774,2.499,2.50067
-0.0303,0.0828774,2.499,2.50056
-0.0221889,0.0828774,2.499,2.50047
-0.0140778,0.0828774,2.499,2.50041
-0.00592366,0.0822804,2.481,2.48237
0.00212905,0.0822804,2.481,2.48237
0.0101818,0.0822804,2.481,2.48239
0.0182345,0.0822804,2.481,2.48243
0.0260965,0.0816835,2.463,2.46449
0.0340907,0.0816835,2.463,2.46459
0.042085,0.0816835,2.463,2.46471
0.0500793,0.0816835,2.463,2.46486
0.0576492,0.0810865,2.445,2.44702
0.0655851,0.0810865,2.445,2.44722
0.0735209,0.0810865,2.445,2.44745
0.0820565,0.0816835,2.463,2.46572
0.0900507,0.0816835,2.463,2.466
0.098045,0.0816835,2.463,2.4663
0.106039,0.0816835,2.463,2.46663
0.114034,0.0816835,2.463,2.46699
0.122028,0.0816835,2.463,2.46737
0.130022,0.0816835,2.463,2.46778
0.138016,0.0816835,2.463,2.46822
0.147078,0.0822804,2.481,2.48672
0.155131,0.0822804,2.481,2.48721
0.163183,0.0822804,2.481,2.48772
0.171236,0.0822804,2.481,2.48826
0.179289,0.0822804,2.481,2.48883
0.188701,0.0828774,2.499,2.50748
0.196812,0.0828774,2.499,2.50811
0.206399,0.0834743,2.517,2.52683
0.214568,0.0834743,2.517,2.52751
0.222738,0.0834743,2.517,2.52821
0.230908,0.0834743,2.517,2.52895
0.239077,0.0834743,2.517,2.52971
0.247247,0.0834743,2.517,2.53049
0.255416,0.0834743,2.517,2.5313
0.263586,0.0834743,2.517,2.53214
0.271755,0.0834743,2.517,2.533
0.277923,0.0828774,2.499,2.51577
0.286034,0.0828774,2.499,2.51668
0.294145,0.0828774,2.499,2.51762
0.302256,0.0828774,2.499,2.51858
0.310368,0.0828774,2.499,2.51956
0.318479,0.0828774,2.499,2.52058
0.32659,0.0828774,2.499,2.52161
0.334701,0.0828774,2.499,2.52268
0.342812,0.0828774,2.499,2.52377
0.350923,0.0828774,2.499,2.52488
0.359034,0.0828774,2.499,2.52602
0.367146,0.0828774,2.499,2.52719
0.375257,0.0828774,2.499,2.52838
0.386129,0.0834743,2.517,2.54781
0.394299,0.0834743,2.517,2.54906
0.402468,0.0834743,2.517,2.55034
0.410638,0.0834743,2.517,2.55164
0.418807,0.0834743,2.517,2.55297
0.426977,0.0834743,2.517,2.55432
0.435146,0.0834743,2.517,2.5557
0.443316,0.0834743,2.517,2.55711
0.451486,0.0834743,2.517,2.55853
0.459655,0.0834743,2.517,2.55999
0.471356,0.0841044,2.536,2.5808
0.479587,0.0841044,2.536,2.58232
0.484164,0.0834743,2.517,2.5645
0.492333,0.0834743,2.517,2.56606
0.500503,0.0834743,2.517,2.56764
0.508672,0.0834743,2.517,2.56924
0.516842,0.0834743,2.517,2.57087
0.528975,0.0841044,2.536,2.59195
0.533181,0.0834743,2.517,2.57421
0.541351,0.0834743,2.517,2.57591
0.54952,0.0834743,2.517,2.57764
0.55769,0.0834743,2.517,2.57939
0.565859,0.0834743,2.517,2.58117
0.574029,0.0834743,2.517,2.58298
0.582199,0.0834743,2.517,2.5848
0.590368,0.0834743,2.517,2.58666
0.598538,0.0834743,2.517,2.58853
0.606707,0.0834743,2.517,2.59043
0.610479,0.0828774,2.499,2.57382
0.618591,0.0828774,2.499,2.57576
0.626702,0.0828774,2.499,2.57772
0.634813,0.0828774,2.499,2.5797
0.642924,0.0828774,2.499,2.58171
0.651035,0.0828774,2.499,2.58374
0.659146,0.0828774,2.499,2.5858
0.667257,0.0828774,2.499,2.58788
0.675369,0.0828774,2.499,2.58998
0.678557,0.0822804,2.481,2.57344
0.686609,0.0822804,2.481,2.57557
0.694662,0.0822804,2.481,2.57773
0.702715,0.0822804,2.481,2.57991
0.710768,0.0822804,2.481,2.58212
0.71882,0.0822804,2.481,2.58434
0.726873,0.0822804,2.481,2.5866
0.734926,0.0822804,2.481,2.58887
0.737588,0.0816835,2.463,2.57237
0.745582,0.0816835,2.463,2.57467
0.753577,0.0816835,2.463,2.577
0.761571,0.0816835,2.463,2.57935
0.769565,0.0816835,2.463,2.58172
0.777559,0.0816835,2.463,2.58411
0.785554,0.0816835,2.463,2.58653
0.793548,0.0816835,2.463,2.58897
0.801542,0.0816835,2.463,2.59143
0.809537,0.0816835,2.463,2.59391
0.823505,0.0822804,2.481,2.6154
0.831558,0.0822804,2.481,2.61794
0.839611,0.0822804,2.481,2.62051
0.847664,0.0822804,2.481,2.6231
0.855716,0.0822804,2.481,2.62572
0.863769,0.0822804,2.481,2.62835
0.871822,0.0822804,2.481,2.63101
0.879874,0.0822804,2.481,2.63369
0.887927,0.0822804,2.481,2.63639
0.89598,0.0822804,2.481,2.63911
0.904033,0.0822804,2.481,2.64186
0.912085,0.0822804,2.481,2.64462
0.913462,0.0816835,2.463,2.6282
0.921457,0.0816835,2.463,2.63099
0.929451,0.0816835,2.463,2.6338
0.930594,0.0810865,2.445,2.61737
0.93853,0.0810865,2.445,2.6202
0.946466,0.0810865,2.445,2.62305
0.947766,0.0805227,2.428,2.60767
0.955646,0.0805227,2.428,2.61054
0.963527,0.0805227,2.428,2.61344
0.971408,0.0805227,2.428,2.61635
0.979289,0.0805227,2.428,2.61929
0.987169,0.0805227,2.428,2.62225
1.00202,0.0810865,2.445,2.6436
1.00995,0.0810865,2.445,2.64662
1.01789,0.0810865,2.445,2.64966
1.03338,0.0816835,2.463,2.67225
1.04137,0.0816835,2.463,2.67535
1.05703,0.0822804,2.481,2.69805
1.07281,0.0828774,2.499,2.72081
1.08093,0.0828774,2.499,2.72402
1.09688,0.0834743,2.517,2.74689
1.12173,0.0847346,2.555,2.79168
1.13843,0.0853647,2.574,2.81581
1.14678,0.0853647,2.574,2.8192
1.16367,0.0859948,2.593,2.84344
1.18112,0.0866581,2.613,2.86885
1.1896,0.0866581,2.613,2.87236
1.19808,0.0866581,2.613,2.87588
1.2158,0.0873214,2.633,2.90146
1.22435,0.0873214,2.633,2.90505
1.24273,0.0880178,2.654,2.93186
1.25134,0.0880178,2.654,2.93553
1.25995,0.0880178,2.654,2.93921
1.26857,0.0880178,2.654,2.94291
1.27718,0.0880178,2.654,2.94664
1.2858,0.0880178,2.654,2.95038
1.29441,0.0880178,2.654,2.95414
1.30303,0.0880178,2.654,2.95793
1.31164,0.0880178,2.654,2.96173
1.32025,0.0880178,2.654,2.96556
1.32887,0.0880178,2.654,2.9694
1.34807,0.0887143,2.675,2.99679
1.35675,0.0887143,2.675,3.00071
1.37615,0.0894107,2.696,3.02823
1.40699,0.0908368,2.739,3.08058
1.43862,0.092296,2.783,3.13421
1.44766,0.092296,2.783,3.13836
1.48077,0.0938216,2.829,3.19448
1.50259,0.0946175,2.853,3.22589
1.51185,0.0946175,2.853,3.23021
1.5467,0.0962094,2.901,3.28897
1.58294,0.0978676,2.951,3.35017
1.60655,0.0987299,2.977,3.38427
1.61621,0.0987299,2.977,3.38887
1.64007,0.0995921,3.003,3.42312
1.66465,0.100488,3.03,3.45862
1.67449,0.100488,3.03,3.46337
1.69933,0.101383,3.057,3.49904
1.70925,0.101383,3.057,3.50387
1.71917,0.101383,3.057,3.50872
1.71383,0.100488,3.03,3.48256
1.72366,0.100488,3.03,3.48741
1.73349,0.100488,3.03,3.49228
1.72779,0.0995921,3.003,3.46601
1.73754,0.0995921,3.003,3.47088
1.74729,0.0995921,3.003,3.47577
1.74182,0.0987299,2.977,3.45054
1.73619,0.0978676,2.951,3.42525
1.74577,0.0978676,2.951,3.43011
1.74047,0.0970385,2.926,3.4059
1.73502,0.0962094,2.901,3.38162
1.74444,0.0962094,2.901,3.38646
1.73934,0.0954134,2.877,3.36326
1.73409,0.0946175,2.853,3.34001
1.74335,0.0946175,2.853,3.34482
1.73787,0.0938216,2.829,3.32148
1.73285,0.0930588,2.806,3.29925
1.74196,0.0930588,2.806,3.30404
1.73671,0.092296,2.783,3.28173
