-0.412452,0.0432818,2.555,2.58844
-0.404159,0.0432818,2.555,2.58713
-0.395866,0.0432818,2.555,2.58585
-0.387574,0.0432818,2.555,2.58459
-0.379281,0.0432818,2.555,2.58336
-0.370988,0.0432818,2.555,2.58216
-0.362695,0.0432818,2.555,2.58098
-0.354402,0.0432818,2.555,2.57983
-0.346109,0.0432818,2.555,2.5787
-0.337816,0.0432818,2.555,2.5776
-0.329523,0.0432818,2.555,2.57653
-0.318842,0.0429599,2.536,2.55633
-0.31061,0.0429599,2.536,2.55531
-0.302379,0.0429599,2.536,2.55432
-0.294148,0.0429599,2.536,2.55336
-0.285917,0.0429599,2.536,2.55243
-0.277685,0.0429599,2.536,2.55152
-0.269454,0.0429599,2.536,2.55064
-0.259266,0.0426381,2.517,2.53068
-0.251096,0.0426381,2.517,2.52985
-0.24119,0.0423331,2.499,2.51097
-0.233078,0.0423331,2.499,2.5102
-0.224967,0.0423331,2.499,2.50946
-0.216856,0.0423331,2.499,2.50875
-0.208745,0.0423331,2.499,2.50806
-0.200634,0.0423331,2.499,2.5074
-0.192523,0.0423331,2.499,2.50676
-0.184412,0.0423331,2.499,2.50615
-0.1763,0.0423331,2.499,2.50557
-0.168189,0.0423331,2.499,2.50501
-0.160078,0.0423331,2.499,2.50448
-0.151967,0.0423331,2.499,2.50397
-0.143856,0.0423331,2.499,2.5035
-0.135745,0.0423331,2.499,2.50304
-0.128553,0.0426381,2.517,2.52064
-0.120383,0.0426381,2.517,2.52024
-0.112214,0.0426381,2.517,2.51986
-0.104044,0.0426381,2.517,2.51951
-0.0958747,0.0426381,2.517,2.51919
-0.0877052,0.0426381,2.517,2.51889
-0.0795356,0.0426381,2.517,2.51862
-0.0719048,0.0429599,2.536,2.53738
-0.0636736,0.0429599,2.536,2.53716
-0.0554423,0.0429599,2.536,2.53697
-0.0472111,0.0429599,2.536,2.5368
-0.0389799,0.0429599,2.536,2.53666
-0.0307487,0.0429599,2.536,2.53655
-0.0223487,0.0426381,2.517,2.51746
-0.0141792,0.0426381,2.517,2.5174
-0.00600962,0.0426381,2.517,2.51737
0.00215994,0.0426381,2.517,2.51736
0.0103295,0.0426381,2.517,2.51738
0.0184991,0.0426381,2.517,2.51743
0.0266686,0.0426381,2.517,2.5175
0.034589,0.0423331,2.499,2.4996
0.0427002,0.0423331,2.499,2.49972
0.0508113,0.0423331,2.499,2.49988
0.0589224,0.0423331,2.499,2.50005
0.0670336,0.0423331,2.499,2.50026
0.0751447,0.0423331,2.499,2.50049
0.0832558,0.0423331,2.499,2.50074
0.091367,0.0423331,2.499,2.50103
0.0994781,0.0423331,2.499,2.50134
0.107589,0.0423331,2.499,2.50167
0.1157,0.0423331,2.499,2.50204
0.123811,0.0423331,2.499,2.50242
0.131923,0.0423331,2.499,2.50284
0.140034,0.0423331,2.499,2.50328
0.148145,0.0423331,2.499,2.50375
0.156256,0.0423331,2.499,2.50424
0.164367,0.0423331,2.499,2.50476
0.172478,0.0423331,2.499,2.5053
0.180589,0.0423331,2.499,2.50587
0.188701,0.0423331,2.499,2.50647
0.196812,0.0423331,2.499,2.5071
0.204923,0.0423331,2.499,2.50775
0.213034,0.0423331,2.499,2.50842
0.221145,0.0423331,2.499,2.50912
0.229256,0.0423331,2.499,2.50985
0.237367,0.0423331,2.499,2.5106
0.245479,0.0423331,2.499,2.51138
0.25359,0.0423331,2.499,2.51219
0.259816,0.0420282,2.481,2.49492
0.267868,0.0420282,2.481,2.49577
0.275921,0.0420282,2.481,2.49665
0.281914,0.0417233,2.463,2.47943
0.289908,0.0417233,2.463,2.48035
0.297902,0.0417233,2.463,2.4813
0.305896,0.0417233,2.463,2.48227
0.313891,0.0417233,2.463,2.48327
0.321885,0.0417233,2.463,2.48429
0.329879,0.0417233,2.463,2.48534
0.335404,0.0414184,2.445,2.46825
0.340953,0.0411304,2.428,2.45217
0.348834,0.0411304,2.428,2.45328
0.356714,0.0411304,2.428,2.45441
0.364595,0.0411304,2.428,2.45557
0.375084,0.0414184,2.445,2.47395
0.38302,0.0414184,2.445,2.47517
0.390955,0.0414184,2.445,2.47641
0.398891,0.0414184,2.445,2.47767
0.406827,0.0414184,2.445,2.47896
0.414763,0.0414184,2.445,2.48028
0.422699,0.0414184,2.445,2.48162
0.430635,0.0414184,2.445,2.48298
0.438571,0.0414184,2.445,2.48437
0.446507,0.0414184,2.445,2.48578
0.457788,0.0417233,2.463,2.50553
0.465782,0.0417233,2.463,2.507
0.473776,0.0417233,2.463,2.5085
0.481771,0.0417233,2.463,2.51002
0.489765,0.0417233,2.463,2.51157
0.497759,0.0417233,2.463,2.51314
0.50945,0.0420282,2.481,2.53311
0.517502,0.0420282,2.481,2.53475
0.525555,0.0420282,2.481,2.5364
0.533608,0.0420282,2.481,2.53808
0.541661,0.0420282,2.481,2.53979
0.549713,0.0420282,2.481,2.54152
0.557766,0.0420282,2.481,2.54327
0.569924,0.0423331,2.499,2.56351
0.578035,0.0423331,2.499,2.56533
0.586146,0.0423331,2.499,2.56717
0.594257,0.0423331,2.499,2.56903
0.602368,0.0423331,2.499,2.57092
0.610479,0.0423331,2.499,2.57283
0.618591,0.0423331,2.499,2.57477
0.626702,0.0423331,2.499,2.57673
0.634813,0.0423331,2.499,2.57872
0.642924,0.0423331,2.499,2.58073
0.651035,0.0423331,2.499,2.58276
0.654399,0.0420282,2.481,2.5662
0.662451,0.0420282,2.481,2.56826
0.675369,0.0423331,2.499,2.589
0.68348,0.0423331,2.499,2.59113
0.686609,0.0420282,2.481,2.5746
0.694662,0.0420282,2.481,2.57676
0.702715,0.0420282,2.481,2.57894
0.705611,0.0417233,2.463,2.56242
0.713605,0.0417233,2.463,2.56463
0.721599,0.0417233,2.463,2.56687
0.729594,0.0417233,2.463,2.56913
0.737588,0.0417233,2.463,2.57141
0.745582,0.0417233,2.463,2.57371
0.753577,0.0417233,2.463,2.57604
0.761571,0.0417233,2.463,2.57839
0.769565,0.0417233,2.463,2.58076
0.777559,0.0417233,2.463,2.58316
0.785554,0.0417233,2.463,2.58558
0.793548,0.0417233,2.463,2.58802
0.801542,0.0417233,2.463,2.59048
0.809537,0.0417233,2.463,2.59296
0.817531,0.0417233,2.463,2.59547
0.825525,0.0417233,2.463,2.598
0.827428,0.0414184,2.445,2.58155
0.835364,0.0414184,2.445,2.5841
0.8433,0.0414184,2.445,2.58668
0.851236,0.0414184,2.445,2.58927
0.865497,0.0417233,2.463,2.61098
0.873491,0.0417233,2.463,2.61364
0.881485,0.0417233,2.463,2.61632
0.889479,0.0417233,2.463,2.61902
0.897474,0.0417233,2.463,2.62175
0.905468,0.0417233,2.463,2.6245
0.906787,0.0414184,2.445,2.60807
0.914722,0.0414184,2.445,2.61083
0.922658,0.0414184,2.445,2.61363
0.930594,0.0414184,2.445,2.61644
0.93853,0.0414184,2.445,2.61927
0.946466,0.0414184,2.445,2.62212
0.947766,0.0411304,2.428,2.60675
0.948955,0.0408424,2.411,2.59135
0.956781,0.0408424,2.411,2.59423
0.957805,0.0405544,2.394,2.57881
0.965575,0.0405544,2.394,2.58171
0.980257,0.0408424,2.411,2.60298
0.988083,0.0408424,2.411,2.60593
0.995908,0.0408424,2.411,2.60891
1.01081,0.0411304,2.428,2.63033
1.01869,0.0411304,2.428,2.63336
1.02657,0.0411304,2.428,2.63642
1.0417,0.0414184,2.445,2.65798
1.05736,0.0417233,2.463,2.68069
1.06535,0.0417233,2.463,2.68386
1.08904,0.0423331,2.499,2.72632
1.12173,0.0432818,2.555,2.79073
1.14683,0.0439255,2.593,2.83563
1.15525,0.0439255,2.593,2.83905
1.18162,0.0446031,2.633,2.88633
1.20915,0.0453146,2.675,2.93594
1.21783,0.0453146,2.675,2.93952
1.23614,0.0456703,2.696,2.96623
1.26475,0.0463987,2.739,3.01726
1.27364,0.0463987,2.739,3.021
1.30313,0.0471441,2.783,3.07335
1.32301,0.0475337,2.806,3.10262
1.33211,0.0475337,2.806,3.10651
1.34122,0.0475337,2.806,3.11043
1.35033,0.0475337,2.806,3.11437
1.35944,0.0475337,2.806,3.11833
1.36854,0.0475337,2.806,3.12231
1.37765,0.0475337,2.806,3.12631
1.39813,0.0479233,2.829,3.15599
1.40731,0.0479233,2.829,3.16007
1.41649,0.0479233,2.829,3.16417
1.42567,0.0479233,2.829,3.16829
1.44703,0.0483299,2.853,3.19935
1.45629,0.0483299,2.853,3.20355
1.47788,0.0487365,2.877,3.23475
1.49962,0.049143,2.901,3.26605
1.50904,0.049143,2.901,3.27038
1.53154,0.0495665,2.926,3.30296
1.5542,0.04999,2.951,3.33563
1.56378,0.04999,2.951,3.34011
1.60108,0.0508709,3.003,3.40354
1.61083,0.0508709,3.003,3.40813
1.62058,0.0508709,3.003,3.41275
1.64498,0.0513283,3.03,3.44812
1.65482,0.0513283,3.03,3.45282
1.67949,0.0517857,3.057,3.48835
1.68941,0.0517857,3.057,3.49314
1.69933,0.0517857,3.057,3.49795
1.70925,0.0517857,3.057,3.50278
1.71917,0.0517857,3.057,3.50763
1.7291,0.0517857,3.057,3.51251
1.73902,0.0517857,3.057,3.5174
1.74894,0.0517857,3.057,3.52232
1.74333,0.0513283,3.03,3.4961
1.75316,0.0513283,3.03,3.50102
1.763,0.0513283,3.03,3.50595
1.77283,0.0513283,3.03,3.51091
1.76678,0.0508709,3.003,3.48455
1.77653,0.0508709,3.003,3.48951
1.77081,0.0504305,2.977,3.46422
1.78047,0.0504305,2.977,3.46917
1.79014,0.0504305,2.977,3.47414
1.78408,0.04999,2.951,3.44875
1.77846,0.0495665,2.926,3.42445
1.78796,0.0495665,2.926,3.42939
1.7821,0.049143,2.901,3.40501
1.77669,0.0487365,2.877,3.38174
1.78603,0.0487365,2.877,3.38665
1.78039,0.0483299,2.853,3.36329
1.7746,0.0479233,2.829,3.33987
1.78378,0.0479233,2.829,3.34476
1.76381,0.0471441,2.783,3.2952
1.74481,0.0463987,2.739,3.24787
1.73962,0.0460261,2.717,3.22653
1.74844,0.0460261,2.717,3.23129
1.74367,0.0456703,2.696,3.21106
1.72512,0.0449588,2.654,3.16572
1.73374,0.0449588,2.654,3.17042
1.72856,0.0446031,2.633,3.15002
1.72392,0.0442643,2.613,3.13075
1.7324,0.0442643,2.613,3.13543
1.72755,0.0439255,2.593,3.11609
1.72325,0.0436036,2.574,3.0979
1.7316,0.0436036,2.574,3.10255
1.72711,0.0432818,2.555,3.08429
1.7225,0.0429599,2.536,3.06597
-1.96257,0.057103,2.829,3.44357
-1.95339,0.057103,2.829,3.43835
-1.94421,0.057103,2.829,3.43314
-1.91929,0.0566387,2.806,3.40008
-1.89453,0.0561745,2.783,3.36712
-1.88549,0.0561745,2.783,3.36204
-1.86163,0.0557304,2.761,3.33045
-1.82314,0.0548423,2.717,3.27245
-1.81432,0.0548423,2.717,3.26755
-1.8055,0.0548423,2.717,3.26266
-1.7828,0.0544184,2.696,3.23261
-1.76023,0.0539945,2.675,3.20265
-1.75155,0.0539945,2.675,3.19788
-1.72918,0.0535706,2.654,3.16807
-1.70695,0.0531468,2.633,3.13834
-1.69841,0.0531468,2.633,3.1337
-1.67703,0.0527431,2.613,3.10531
-1.65577,0.0523394,2.593,3.07701
-1.64736,0.0523394,2.593,3.07249
-1.63894,0.0523394,2.593,3.06798
-1.63052,0.0523394,2.593,3.06349
-1.62211,0.0523394,2.593,3.05902
-1.61369,0.0523394,2.593,3.05457
-1.60528,0.0523394,2.593,3.05013
-1.60918,0.0527431,2.613,3.0692
-1.61295,0.0531468,2.633,3.08822
-1.6044,0.0531468,2.633,3.08377
-1.60858,0.0535706,2.654,3.10389
-1.61263,0.0539945,2.675,3.12396
-1.60395,0.0539945,2.675,3.11948
-1.60779,0.0544184,2.696,3.13948
-1.59904,0.0544184,2.696,3.13501
-1.59029,0.0544184,2.696,3.13056
-1.58154,0.0544184,2.696,3.12612
-1.57278,0.0544184,2.696,3.1217
-1.56403,0.0544184,2.696,3.1173
-1.55528,0.0544184,2.696,3.11292
-1.55858,0.0548423,2.717,3.13277
-1.56231,0.0552864,2.739,3.15373
-1.55342,0.0552864,2.739,3.14933
-1.54453,0.0552864,2.739,3.14496
-1.53564,0.0552864,2.739,3.1406
-1.53901,0.0557304,2.761,3.16145
-1.53005,0.0557304,2.761,3.1571
-1.53321,0.0561745,2.783,3.17789
-1.52418,0.0561745,2.783,3.17354
-1.51514,0.0561745,2.783,3.16921
-1.51856,0.0566387,2.806,3.19106
-1.50945,0.0566387,2.806,3.18674
-1.48804,0.0561745,2.783,3.15635
-1.47901,0.0561745,2.783,3.1521
-1.46998,0.0561745,2.783,3.14787
-1.46095,0.0561745,2.783,3.14366
-1.45191,0.0561745,2.783,3.13947
-1.44288,0.0561745,2.783,3.13531
-1.43385,0.0561745,2.783,3.13116
-1.41355,0.0557304,2.761,3.10231
-1.40459,0.0557304,2.761,3.09824
-1.39563,0.0557304,2.761,3.09419
-1.37562,0.0552864,2.739,3.06553
-1.34527,0.0544184,2.696,3.01349
-1.33652,0.0544184,2.696,3.0096
-1.31743,0.0539945,2.675,2.98231
-1.29847,0.0535706,2.654,2.9551
-1.26993,0.0527431,2.613,2.90573
-1.26145,0.0527431,2.613,2.90203
-1.23427,0.0519558,2.574,2.8551
-1.20781,0.0511888,2.536,2.8094
-1.19958,0.0511888,2.536,2.80587
-1.17397,0.050442,2.499,2.76148
-1.15746,0.0500787,2.481,2.73817
-1.14941,0.0500787,2.481,2.73478
-1.12479,0.049352,2.445,2.69177
-1.10909,0.0490089,2.428,2.66977
-1.10121,0.0490089,2.428,2.66651
-1.08568,0.0486657,2.411,2.64461
-1.07025,0.0483226,2.394,2.62279
-1.06248,0.0483226,2.394,2.61963
-1.04722,0.0479794,2.377,2.5979
-1.03951,0.0479794,2.377,2.5948
-1.02485,0.0476565,2.361,2.57428
-1.01718,0.0476565,2.361,2.57124
-1.00952,0.0476565,2.361,2.56821
-0.995066,0.0473335,2.345,2.54783
-0.987455,0.0473335,2.345,2.54486
-0.979844,0.0473335,2.345,2.54192
-0.972232,0.0473335,2.345,2.539
-0.964621,0.0473335,2.345,2.53609
-0.95701,0.0473335,2.345,2.53321
-0.949399,0.0473335,2.345,2.53034
-0.941787,0.0473335,2.345,2.52749
-0.934176,0.0473335,2.345,2.52467
-0.926565,0.0473335,2.345,2.52186
-0.925224,0.0476565,2.361,2.53626
-0.91756,0.0476565,2.361,2.53348
-0.909897,0.0476565,2.361,2.53071
-0.902234,0.0476565,2.361,2.52797
-0.900633,0.0479794,2.377,2.54236
-0.892918,0.0479794,2.377,2.53963
-0.891534,0.0483226,2.394,2.55507
-0.883763,0.0483226,2.394,2.55237
-0.882213,0.0486657,2.411,2.5678
-0.874388,0.0486657,2.411,2.56512
-0.866562,0.0486657,2.411,2.56246
-0.864792,0.0490089,2.428,2.57788
-0.856911,0.0490089,2.428,2.57524
-0.84903,0.0490089,2.428,2.57263
-0.847039,0.049352,2.445,2.58804
-0.839103,0.049352,2.445,2.58545
-0.831167,0.049352,2.445,2.58289
-0.823232,0.049352,2.445,2.58034
-0.815296,0.049352,2.445,2.57782
-0.80736,0.049352,2.445,2.57532
-0.805309,0.0497153,2.463,2.59179
-0.797315,0.0497153,2.463,2.58931
-0.783552,0.049352,2.445,2.56796
-0.775616,0.049352,2.445,2.56555
-0.767681,0.049352,2.445,2.56316
-0.759745,0.049352,2.445,2.5608
-0.751809,0.049352,2.445,2.55845
-0.743873,0.049352,2.445,2.55613
-0.735937,0.049352,2.445,2.55383
-0.728001,0.049352,2.445,2.55156
-0.720065,0.049352,2.445,2.5493
-0.712129,0.049352,2.445,2.54707
-0.704194,0.049352,2.445,2.54487
-0.696258,0.049352,2.445,2.54268
-0.693389,0.0497153,2.463,2.55922
-0.685395,0.0497153,2.463,2.55707
-0.677401,0.0497153,2.463,2.55494
-0.669406,0.0497153,2.463,2.55283
-0.661412,0.0497153,2.463,2.55075
-0.653418,0.0497153,2.463,2.54869
-0.645424,0.0497153,2.463,2.54665
-0.637429,0.0497153,2.463,2.54463
-0.629435,0.0497153,2.463,2.54264
-0.621441,0.0497153,2.463,2.54067
-0.613446,0.0497153,2.463,2.53873
-0.605452,0.0497153,2.463,2.53681
-0.597458,0.0497153,2.463,2.53492
-0.593771,0.0500787,2.481,2.55156
-0.585719,0.0500787,2.481,2.54969
-0.577666,0.0500787,2.481,2.54786
-0.569613,0.0500787,2.481,2.54604
-0.561561,0.0500787,2.481,2.54425
-0.557524,0.050442,2.499,2.56093
-0.549413,0.050442,2.499,2.55918
-0.541301,0.050442,2.499,2.55745
-0.53319,0.050442,2.499,2.55575
-0.528861,0.0508053,2.517,2.57246
-0.520692,0.0508053,2.517,2.5708
-0.512522,0.0508053,2.517,2.56915
-0.504353,0.0508053,2.517,2.56754
-0.499929,0.0511888,2.536,2.58531
-0.491697,0.0511888,2.536,2.58373
-0.483466,0.0511888,2.536,2.58218
-0.475235,0.0511888,2.536,2.58065
-0.467004,0.0511888,2.536,2.57915
-0.458772,0.0511888,2.536,2.57767
-0.450541,0.0511888,2.536,2.57622
-0.445624,0.0515723,2.555,2.59408
-0.437331,0.0515723,2.555,2.59267
-0.429038,0.0515723,2.555,2.59128
-0.420745,0.0515723,2.555,2.58993
-0.412452,0.0515723,2.555,2.58859
-0.404159,0.0515723,2.555,2.58728
-0.395866,0.0515723,2.555,2.586
-0.387574,0.0515723,2.555,2.58474
-0.379281,0.0515723,2.555,2.58351
-0.370988,0.0515723,2.555,2.58231
-0.362695,0.0515723,2.555,2.58113
-0.354402,0.0515723,2.555,2.57998
-0.346109,0.0515723,2.555,2.57885
-0.337816,0.0515723,2.555,2.57775
-0.329523,0.0515723,2.555,2.57668
-0.32123,0.0515723,2.555,2.57563
-0.312937,0.0515723,2.555,2.57461
-0.302379,0.0511888,2.536,2.55448
-0.294148,0.0511888,2.536,2.55351
-0.285917,0.0511888,2.536,2.55258
-0.277685,0.0511888,2.536,2.55167
-0.269454,0.0511888,2.536,2.55079
-0.259266,0.0508053,2.517,2.53083
-0.251096,0.0508053,2.517,2.53
-0.24119,0.050442,2.499,2.51112
-0.233078,0.050442,2.499,2.51035
-0.224967,0.050442,2.499,2.50961
-0.216856,0.050442,2.499,2.5089
-0.208745,0.050442,2.499,2.50821
-0.200634,0.050442,2.499,2.50755
-0.192523,0.050442,2.499,2.50691
-0.184412,0.050442,2.499,2.5063
-0.1763,0.050442,2.499,2.50572
-0.168189,0.050442,2.499,2.50516
-0.160078,0.050442,2.499,2.50463
-0.151967,0.050442,2.499,2.50412
-0.143856,0.050442,2.499,2.50365
-0.135745,0.050442,2.499,2.50319
-0.128553,0.0508053,2.517,2.52079
-0.120383,0.0508053,2.517,2.52039
-0.112214,0.0508053,2.517,2.52001
-0.104044,0.0508053,2.517,2.51966
-0.0958747,0.0508053,2.517,2.51934
-0.0877052,0.0508053,2.517,2.51904
-0.0795356,0.0508053,2.517,2.51877
-0.0719048,0.0511888,2.536,2.53754
-0.0636736,0.0511888,2.536,2.53732
-0.0554423,0.0511888,2.536,2.53712
-0.0472111,0.0511888,2.536,2.53696
-0.0389799,0.0511888,2.536,2.53682
-0.0307487,0.0511888,2.536,2.5367
-0.0223487,0.0508053,2.517,2.51761
-0.0141792,0.0508053,2.517,2.51755
-0.00600962,0.0508053,2.517,2.51752
0.00215994,0.0508053,2.517,2.51751
0.0103295,0.0508053,2.517,2.51753
0.0184991,0.0508053,2.517,2.51758
0.0266686,0.0508053,2.517,2.51765
0.034589,0.050442,2.499,2.49975
0.0427002,0.050442,2.499,2.49987
0.0508113,0.050442,2.499,2.50003
0.0589224,0.050442,2.499,2.5002
0.0670336,0.050442,2.499,2.50041
0.0746034,0.0500787,2.481,2.48263
0.0826561,0.0500787,2.481,2.48288
0.0907089,0.0500787,2.481,2.48316
0.0987616,0.0500787,2.481,2.48347
0.106814,0.0500787,2.481,2.4838
0.1157,0.050442,2.499,2.50219
0.123811,0.050442,2.499,2.50257
0.131923,0.050442,2.499,2.50299
0.140034,0.050442,2.499,2.50343
0.148145,0.050442,2.499,2.5039
0.156256,0.050442,2.499,2.50439
0.164367,0.050442,2.499,2.50491
0.172478,0.050442,2.499,2.50545
0.180589,0.050442,2.499,2.50602
0.188701,0.050442,2.499,2.50662
0.196812,0.050442,2.499,2.50725
0.206399,0.0508053,2.517,2.52596
0.213034,0.050442,2.499,2.50857
0.221145,0.050442,2.499,2.50927
0.229256,0.050442,2.499,2.51
0.237367,0.050442,2.499,2.51075
0.245479,0.050442,2.499,2.51153
0.25359,0.050442,2.499,2.51234
0.259816,0.0500787,2.481,2.49507
0.267868,0.0500787,2.481,2.49592
0.275921,0.0500787,2.481,2.4968
0.281914,0.0497153,2.463,2.47958
0.289908,0.0497153,2.463,2.4805
0.297902,0.0497153,2.463,2.48145
0.305896,0.0497153,2.463,2.48242
0.313891,0.0497153,2.463,2.48342
0.321885,0.0497153,2.463,2.48444
0.329879,0.0497153,2.463,2.48549
0.335404,0.049352,2.445,2.46839
0.340953,0.0490089,2.428,2.45231
0.348834,0.0490089,2.428,2.45342
0.356714,0.0490089,2.428,2.45455
0.364595,0.0490089,2.428,2.45571
0.375084,0.049352,2.445,2.4741
0.38302,0.049352,2.445,2.47531
0.390955,0.049352,2.445,2.47655
0.398891,0.049352,2.445,2.47782
0.406827,0.049352,2.445,2.47911
0.414763,0.049352,2.445,2.48042
0.422699,0.049352,2.445,2.48176
0.430635,0.049352,2.445,2.48312
0.438571,0.049352,2.445,2.48451
0.446507,0.049352,2.445,2.48593
0.457788,0.0497153,2.463,2.50568
0.465782,0.0497153,2.463,2.50715
0.473776,0.0497153,2.463,2.50865
0.481771,0.0497153,2.463,2.51017
0.489765,0.0497153,2.463,2.51171
0.497759,0.0497153,2.463,2.51329
0.50945,0.0500787,2.481,2.53326
0.517502,0.0500787,2.481,2.53489
0.525555,0.0500787,2.481,2.53655
0.533608,0.0500787,2.481,2.53823
0.541661,0.0500787,2.481,2.53993
0.549713,0.0500787,2.481,2.54166
0.557766,0.0500787,2.481,2.54342
0.569924,0.050442,2.499,2.56366
0.578035,0.050442,2.499,2.56548
0.586146,0.050442,2.499,2.56732
0.594257,0.050442,2.499,2.56918
0.602368,0.050442,2.499,2.57107
0.610479,0.050442,2.499,2.57298
0.618591,0.050442,2.499,2.57492
0.626702,0.050442,2.499,2.57688
0.634813,0.050442,2.499,2.57886
0.642924,0.050442,2.499,2.58087
0.651035,0.050442,2.499,2.5829
0.654399,0.0500787,2.481,2.56634
0.662451,0.0500787,2.481,2.56841
0.670504,0.0500787,2.481,2.5705
0.678557,0.0500787,2.481,2.57261
0.686609,0.0500787,2.481,2.57474
0.689622,0.0497153,2.463,2.55821
0.697617,0.0497153,2.463,2.56037
0.705611,0.0497153,2.463,2.56256
0.713605,0.0497153,2.463,2.56478
0.721599,0.0497153,2.463,2.56701
0.724262,0.049352,2.445,2.55049
0.732198,0.049352,2.445,2.55276
0.740133,0.049352,2.445,2.55505
0.748069,0.049352,2.445,2.55736
0.756005,0.049352,2.445,2.55969
0.763941,0.049352,2.445,2.56204
0.771877,0.049352,2.445,2.56442
0.779813,0.049352,2.445,2.56682
0.787749,0.049352,2.445,2.56924
0.795684,0.049352,2.445,2.57169
0.80362,0.049352,2.445,2.57415
0.811556,0.049352,2.445,2.57664
0.819492,0.049352,2.445,2.57915
0.827428,0.049352,2.445,2.58169
0.835364,0.049352,2.445,2.58424
0.8433,0.049352,2.445,2.58682
0.851236,0.049352,2.445,2.58941
0.859171,0.049352,2.445,2.59203
0.867107,0.049352,2.445,2.59467
0.875043,0.049352,2.445,2.59734
0.882979,0.049352,2.445,2.60002
0.890915,0.049352,2.445,2.60273
0.898851,0.049352,2.445,2.60545
0.906787,0.049352,2.445,2.6082
0.914722,0.049352,2.445,2.61097
0.922658,0.049352,2.445,2.61376
0.924124,0.0490089,2.428,2.59838
0.932004,0.0490089,2.428,2.6012
0.939885,0.0490089,2.428,2.60403
0.94113,0.0486657,2.411,2.58863
0.942264,0.0483226,2.394,2.57321
0.950035,0.0483226,2.394,2.57607
0.957805,0.0483226,2.394,2.57895
0.965575,0.0483226,2.394,2.58184
0.973346,0.0483226,2.394,2.58476
0.988083,0.0486657,2.411,2.60607
0.995908,0.0486657,2.411,2.60905
1.01081,0.0490089,2.428,2.63046
1.01869,0.0490089,2.428,2.6335
1.02657,0.0490089,2.428,2.63656
1.0417,0.049352,2.445,2.65812
1.05736,0.0497153,2.463,2.68083
1.06535,0.0497153,2.463,2.68399
1.08904,0.050442,2.499,2.72645
1.11339,0.0511888,2.536,2.77012
1.14683,0.0523394,2.593,2.83577
1.15525,0.0523394,2.593,2.83919
1.18162,0.0531468,2.633,2.88647
1.19965,0.0535706,2.654,2.91303
1.20827,0.0535706,2.654,2.91659
1.23614,0.0544184,2.696,2.96638
1.25459,0.0548423,2.717,2.99317
1.26341,0.0548423,2.717,2.99688
1.28253,0.0552864,2.739,3.02491
1.31216,0.0561745,2.783,3.07734
1.3212,0.0561745,2.783,3.0812
1.33023,0.0561745,2.783,3.08509
1.33926,0.0561745,2.783,3.08899
1.34829,0.0561745,2.783,3.09292
1.35733,0.0561745,2.783,3.09687
1.36636,0.0561745,2.783,3.10084
1.38676,0.0566387,2.806,3.13049
1.39587,0.0566387,2.806,3.13453
1.40498,0.0566387,2.806,3.1386
1.41408,0.0566387,2.806,3.14269
1.43486,0.057103,2.829,3.17259
1.44404,0.057103,2.829,3.17675
1.46555,0.0575874,2.853,3.20792
1.48722,0.0580719,2.877,3.23918
1.49655,0.0580719,2.877,3.24348
1.51845,0.0585563,2.901,3.27489
1.5542,0.0595655,2.951,3.33579
1.56378,0.0595655,2.951,3.34026
1.58722,0.0600903,2.977,3.37423
1.61083,0.0606152,3.003,3.40829
1.63515,0.0611602,3.03,3.4436
1.64498,0.0611602,3.03,3.44828
1.66956,0.0617051,3.057,3.48375
1.67949,0.0617051,3.057,3.48851
1.68941,0.0617051,3.057,3.4933
1.71434,0.0622501,3.084,3.52901
1.72435,0.0622501,3.084,3.53388
1.73436,0.0622501,3.084,3.53878
1.74437,0.0622501,3.084,3.54369
1.75438,0.0622501,3.084,3.54863
1.74894,0.0617051,3.057,3.52248
1.75886,0.0617051,3.057,3.52742
1.76879,0.0617051,3.057,3.53237
1.77871,0.0617051,3.057,3.53735
1.77283,0.0611602,3.03,3.51107
1.76678,0.0606152,3.003,3.48471
1.77653,0.0606152,3.003,3.48966
1.78628,0.0606152,3.003,3.49463
1.78047,0.0600903,2.977,3.46933
1.79014,0.0600903,2.977,3.4743
1.78408,0.0595655,2.951,3.4489
1.77846,0.0590609,2.926,3.4246
1.78796,0.0590609,2.926,3.42954
1.7821,0.0585563,2.901,3.40516
1.77669,0.0580719,2.877,3.38188
1.78603,0.0580719,2.877,3.3868
1.78039,0.0575874,2.853,3.36344
1.76017,0.0566387,2.806,3.31286
1.76928,0.0566387,2.806,3.31771
1.76381,0.0561745,2.783,3.29534
1.74481,0.0552864,2.739,3.24801
1.72617,0.0544184,2.696,3.20173
1.73492,0.0544184,2.696,3.20645
1.73009,0.0539945,2.675,3.18618
1.72512,0.0535706,2.654,3.16585
1.73374,0.0535706,2.654,3.17056
1.71543,0.0527431,2.613,3.12622
1.71072,0.0523394,2.593,3.10692
1.71914,0.0523394,2.593,3.11156
1.72755,0.0523394,2.593,3.11622
1.72325,0.0519558,2.574,3.09803
1.7316,0.0519558,2.574,3.10268
1.72711,0.0515723,2.555,3.08441
1.7225,0.0511888,2.536,3.06609
-1.96257,0.0662826,2.829,3.44374
-1.95339,0.0662826,2.829,3.43851
-1.94421,0.0662826,2.829,3.4333
-1.91929,0.0657437,2.806,3.40024
-1.89453,0.0652049,2.783,3.36728
-1.88549,0.0652049,2.783,3.36221
-1.86163,0.0646894,2.761,3.33061
-1.8379,0.064174,2.739,3.29911
-1.81432,0.0636585,2.717,3.26771
-1.8055,0.0636585,2.717,3.26282
-1.7828,0.0631665,2.696,3.23277
-1.76023,0.0626745,2.675,3.2028
-1.75155,0.0626745,2.675,3.19804
-1.72918,0.0621824,2.654,3.16823
-1.70695,0.0616904,2.633,3.1385
-1.69841,0.0616904,2.633,3.13386
-1.67703,0.0612218,2.613,3.10547
-1.65577,0.0607532,2.593,3.07716
-1.64736,0.0607532,2.593,3.07264
-1.63894,0.0607532,2.593,3.06814
-1.63052,0.0607532,2.593,3.06365
-1.62211,0.0607532,2.593,3.05918
-1.61369,0.0607532,2.593,3.05472
-1.60528,0.0607532,2.593,3.05029
-1.60918,0.0612218,2.613,3.06936
-1.61295,0.0616904,2.633,3.08838
-1.6044,0.0616904,2.633,3.08393
-1.60858,0.0621824,2.654,3.10405
-1.61263,0.0626745,2.675,3.12412
-1.60395,0.0626745,2.675,3.11965
-1.60779,0.0631665,2.696,3.13965
-1.59904,0.0631665,2.696,3.13518
-1.59029,0.0631665,2.696,3.13072
-1.58154,0.0631665,2.696,3.12629
-1.57278,0.0631665,2.696,3.12187
-1.56403,0.0631665,2.696,3.11747
-1.55528,0.0631665,2.696,3.11309
-1.55858,0.0636585,2.717,3.13294
-1.56231,0.064174,2.739,3.15389
-1.55342,0.064174,2.739,3.1495
-1.54453,0.064174,2.739,3.14512
-1.53564,0.064174,2.739,3.14077
-1.53901,0.0646894,2.761,3.16162
-1.53005,0.0646894,2.761,3.15727
-1.53321,0.0652049,2.783,3.17806
-1.52418,0.0652049,2.783,3.17371
-1.51514,0.0652049,2.783,3.16939
-1.51856,0.0657437,2.806,3.19123
-1.50945,0.0657437,2.806,3.18691
-1.48804,0.0652049,2.783,3.15652
-1.47901,0.0652049,2.783,3.15227
-1.46998,0.0652049,2.783,3.14804
-1.46095,0.0652049,2.783,3.14384
-1.44044,0.0646894,2.761,3.11483
-1.43147,0.0646894,2.761,3.1107
-1.42251,0.0646894,2.761,3.10658
-1.40229,0.064174,2.739,3.07777
-1.38221,0.0636585,2.717,3.04904
-1.37339,0.0636585,2.717,3.04505
-1.35402,0.0631665,2.696,3.01758
-1.33479,0.0626745,2.675,2.99019
-1.32611,0.0626745,2.675,2.98632
-1.30708,0.0621824,2.654,2.95906
-1.2882,0.0616904,2.633,2.93188
-1.26021,0.0607532,2.593,2.88366
-1.25179,0.0607532,2.593,2.87999
-1.22516,0.0598629,2.555,2.83419
-1.19876,0.0589726,2.517,2.78851
-1.1906,0.0589726,2.517,2.78501
-1.17397,0.0585508,2.499,2.76164
-1.15746,0.0581291,2.481,2.73833
-1.14941,0.0581291,2.481,2.73494
-1.12479,0.0572856,2.445,2.69193
-1.10909,0.0568873,2.428,2.66993
-1.10121,0.0568873,2.428,2.66666
-1.08568,0.056489,2.411,2.64477
-1.07025,0.0560907,2.394,2.62294
-1.06248,0.0560907,2.394,2.61978
-1.04722,0.0556924,2.377,2.59806
-1.03951,0.0556924,2.377,2.59496
-1.02485,0.0553175,2.361,2.57443
-1.01718,0.0553175,2.361,2.57139
-1.00952,0.0553175,2.361,2.56837
-0.995066,0.0549427,2.345,2.54798
-0.987455,0.0549427,2.345,2.54502
-0.979844,0.0549427,2.345,2.54207
-0.972232,0.0549427,2.345,2.53915
-0.964621,0.0549427,2.345,2.53624
-0.95701,0.0549427,2.345,2.53336
-0.949399,0.0549427,2.345,2.53049
-0.941787,0.0549427,2.345,2.52765
-0.934176,0.0549427,2.345,2.52482
-0.926565,0.0549427,2.345,2.52202
-0.925224,0.0553175,2.361,2.53642
-0.91756,0.0553175,2.361,2.53363
-0.909897,0.0553175,2.361,2.53087
-0.902234,0.0553175,2.361,2.52812
-0.900633,0.0556924,2.377,2.54251
-0.892918,0.0556924,2.377,2.53979
-0.891534,0.0560907,2.394,2.55523
-0.883763,0.0560907,2.394,2.55253
-0.882213,0.056489,2.411,2.56796
-0.874388,0.056489,2.411,2.56528
-0.866562,0.056489,2.411,2.56262
-0.864792,0.0568873,2.428,2.57804
-0.856911,0.0568873,2.428,2.57541
-0.84903,0.0568873,2.428,2.57279
-0.847039,0.0572856,2.445,2.5882
-0.839103,0.0572856,2.445,2.58561
-0.831167,0.0572856,2.445,2.58305
-0.823232,0.0572856,2.445,2.58051
-0.815296,0.0572856,2.445,2.57799
-0.80736,0.0572856,2.445,2.57549
-0.799424,0.0572856,2.445,2.57301
-0.791488,0.0572856,2.445,2.57056
-0.783552,0.0572856,2.445,2.56812
-0.775616,0.0572856,2.445,2.56571
-0.767681,0.0572856,2.445,2.56333
-0.759745,0.0572856,2.445,2.56096
-0.751809,0.0572856,2.445,2.55862
-0.743873,0.0572856,2.445,2.5563
-0.735937,0.0572856,2.445,2.554
-0.728001,0.0572856,2.445,2.55172
-0.720065,0.0572856,2.445,2.54947
-0.712129,0.0572856,2.445,2.54724
-0.704194,0.0572856,2.445,2.54503
-0.696258,0.0572856,2.445,2.54285
-0.688322,0.0572856,2.445,2.54069
-0.680386,0.0572856,2.445,2.53855
-0.67245,0.0572856,2.445,2.53643
-0.669406,0.0577074,2.463,2.553
-0.661412,0.0577074,2.463,2.55091
-0.653418,0.0577074,2.463,2.54885
-0.645424,0.0577074,2.463,2.54682
-0.637429,0.0577074,2.463,2.5448
-0.629435,0.0577074,2.463,2.54281
-0.621441,0.0577074,2.463,2.54084
-0.61793,0.0581291,2.481,2.55746
-0.609877,0.0581291,2.481,2.55552
-0.601824,0.0581291,2.481,2.55361
-0.593771,0.0581291,2.481,2.55173
-0.585719,0.0581291,2.481,2.54986
-0.581857,0.0585508,2.499,2.56651
-0.573746,0.0585508,2.499,2.56469
-0.565635,0.0585508,2.499,2.56288
-0.557524,0.0585508,2.499,2.56111
-0.549413,0.0585508,2.499,2.55935
-0.5452,0.0589726,2.517,2.57605
-0.537031,0.0589726,2.517,2.57433
-0.528861,0.0589726,2.517,2.57264
-0.520692,0.0589726,2.517,2.57097
-0.512522,0.0589726,2.517,2.56933
-0.50816,0.0594177,2.536,2.58709
-0.499929,0.0594177,2.536,2.58549
-0.491697,0.0594177,2.536,2.58391
-0.483466,0.0594177,2.536,2.58236
-0.475235,0.0594177,2.536,2.58083
-0.467004,0.0594177,2.536,2.57933
-0.458772,0.0594177,2.536,2.57785
-0.453917,0.0598629,2.555,2.5957
-0.445624,0.0598629,2.555,2.59426
-0.437331,0.0598629,2.555,2.59285
-0.429038,0.0598629,2.555,2.59146
-0.420745,0.0598629,2.555,2.5901
-0.412452,0.0598629,2.555,2.58877
-0.404159,0.0598629,2.555,2.58746
-0.395866,0.0598629,2.555,2.58618
-0.387574,0.0598629,2.555,2.58492
-0.379281,0.0598629,2.555,2.58369
-0.370988,0.0598629,2.555,2.58249
-0.362695,0.0598629,2.555,2.58131
-0.354402,0.0598629,2.555,2.58016
-0.346109,0.0598629,2.555,2.57903
-0.337816,0.0598629,2.555,2.57793
-0.329523,0.0598629,2.555,2.57686
-0.32123,0.0598629,2.555,2.57581
-0.312937,0.0598629,2.555,2.57479
-0.304645,0.0598629,2.555,2.57379
-0.296352,0.0598629,2.555,2.57283
-0.285917,0.0594177,2.536,2.55276
-0.277685,0.0594177,2.536,2.55185
-0.269454,0.0594177,2.536,2.55097
-0.261223,0.0594177,2.536,2.55011
-0.252992,0.0594177,2.536,2.54928
-0.242927,0.0589726,2.517,2.52938
-0.233078,0.0585508,2.499,2.51053
-0.224967,0.0585508,2.499,2.50979
-0.216856,0.0585508,2.499,2.50907
-0.208745,0.0585508,2.499,2.50839
-0.200634,0.0585508,2.499,2.50772
-0.192523,0.0585508,2.499,2.50709
-0.184412,0.0585508,2.499,2.50648
-0.1763,0.0585508,2.499,2.5059
-0.168189,0.0585508,2.499,2.50534
-0.160078,0.0585508,2.499,2.50481
-0.151967,0.0585508,2.499,2.5043
-0.143856,0.0585508,2.499,2.50382
-0.135745,0.0585508,2.499,2.50337
-0.128553,0.0589726,2.517,2.52097
-0.120383,0.0589726,2.517,2.52057
-0.112214,0.0589726,2.517,2.52019
-0.104044,0.0589726,2.517,2.51984
-0.0958747,0.0589726,2.517,2.51952
-0.0883672,0.0594177,2.536,2.53823
-0.080136,0.0594177,2.536,2.53796
-0.0719048,0.0594177,2.536,2.53771
-0.0636736,0.0594177,2.536,2.53749
-0.0554423,0.0594177,2.536,2.5373
-0.0472111,0.0594177,2.536,2.53714
-0.0392719,0.0598629,2.555,2.556
-0.0307487,0.0594177,2.536,2.53688
-0.0225174,0.0594177,2.536,2.5368
-0.0142862,0.0594177,2.536,2.53674
-0.00605498,0.0594177,2.536,2.5367
0.00217625,0.0594177,2.536,2.5367
0.0103295,0.0589726,2.517,2.51771
0.0184991,0.0589726,2.517,2.51776
0.0266686,0.0589726,2.517,2.51783
0.034589,0.0585508,2.499,2.49993
0.0427002,0.0585508,2.499,2.50005
0.0508113,0.0585508,2.499,2.5002
0.0589224,0.0585508,2.499,2.50038
0.0670336,0.0585508,2.499,2.50058
0.0746034,0.0581291,2.481,2.4828
0.0826561,0.0581291,2.481,2.48306
0.0907089,0.0581291,2.481,2.48334
0.0987616,0.0581291,2.481,2.48365
0.106814,0.0581291,2.481,2.48398
0.1157,0.0585508,2.499,2.50236
0.123811,0.0585508,2.499,2.50275
0.131923,0.0585508,2.499,2.50316
0.140034,0.0585508,2.499,2.50361
0.148145,0.0585508,2.499,2.50407
0.156256,0.0585508,2.499,2.50457
0.164367,0.0585508,2.499,2.50508
0.172478,0.0585508,2.499,2.50563
0.180589,0.0585508,2.499,2.5062
0.188701,0.0585508,2.499,2.5068
0.196812,0.0585508,2.499,2.50742
0.206399,0.0589726,2.517,2.52614
0.213034,0.0585508,2.499,2.50875
0.221145,0.0585508,2.499,2.50945
0.229256,0.0585508,2.499,2.51018
0.237367,0.0585508,2.499,2.51093
0.245479,0.0585508,2.499,2.51171
0.25359,0.0585508,2.499,2.51252
0.259816,0.0581291,2.481,2.49524
0.267868,0.0581291,2.481,2.4961
0.275921,0.0581291,2.481,2.49697
0.281914,0.0577074,2.463,2.47975
0.289908,0.0577074,2.463,2.48067
0.297902,0.0577074,2.463,2.48162
0.305896,0.0577074,2.463,2.48259
0.313891,0.0577074,2.463,2.48359
0.321885,0.0577074,2.463,2.48461
0.329879,0.0577074,2.463,2.48566
0.335404,0.0572856,2.445,2.46856
0.340953,0.0568873,2.428,2.45248
0.348834,0.0568873,2.428,2.45359
0.356714,0.0568873,2.428,2.45472
0.364595,0.0568873,2.428,2.45588
0.375084,0.0572856,2.445,2.47427
0.38302,0.0572856,2.445,2.47548
0.390955,0.0572856,2.445,2.47672
0.398891,0.0572856,2.445,2.47799
0.406827,0.0572856,2.445,2.47928
0.414763,0.0572856,2.445,2.48059
0.422699,0.0572856,2.445,2.48193
0.430635,0.0572856,2.445,2.48329
0.438571,0.0572856,2.445,2.48468
0.446507,0.0572856,2.445,2.4861
0.454442,0.0572856,2.445,2.48753
0.462378,0.0572856,2.445,2.489
0.470314,0.0572856,2.445,2.49048
0.481771,0.0577074,2.463,2.51034
0.489765,0.0577074,2.463,2.51189
0.497759,0.0577074,2.463,2.51346
0.505754,0.0577074,2.463,2.51505
0.513748,0.0577074,2.463,2.51667
0.521742,0.0577074,2.463,2.51832
0.533608,0.0581291,2.481,2.5384
0.541661,0.0581291,2.481,2.54011
0.549713,0.0581291,2.481,2.54184
0.557766,0.0581291,2.481,2.54359
0.565819,0.0581291,2.481,2.54537
0.573871,0.0581291,2.481,2.54717
0.581924,0.0581291,2.481,2.549
0.589977,0.0581291,2.481,2.55085
0.59803,0.0581291,2.481,2.55272
0.606082,0.0581291,2.481,2.55462
0.614135,0.0581291,2.481,2.55654
0.622188,0.0581291,2.481,2.55849
0.63024,0.0581291,2.481,2.56046
0.638293,0.0581291,2.481,2.56245
0.646346,0.0581291,2.481,2.56447
0.654399,0.0581291,2.481,2.56651
0.657645,0.0577074,2.463,2.54994
0.665639,0.0577074,2.463,2.55201
0.673634,0.0577074,2.463,2.55411
0.681628,0.0577074,2.463,2.55623
0.689622,0.0577074,2.463,2.55837
0.697617,0.0577074,2.463,2.56054
0.700454,0.0572856,2.445,2.544
0.70839,0.0572856,2.445,2.5462
0.716326,0.0572856,2.445,2.54842
0.724262,0.0572856,2.445,2.55066
0.732198,0.0572856,2.445,2.55292
0.740133,0.0572856,2.445,2.55521
0.748069,0.0572856,2.445,2.55752
0.750749,0.0568873,2.428,2.54206
0.758629,0.0568873,2.428,2.54439
0.76651,0.0568873,2.428,2.54675
0.774391,0.0568873,2.428,2.54914
0.782271,0.0568873,2.428,2.55154
0.790152,0.0568873,2.428,2.55397
0.798033,0.0568873,2.428,2.55642
0.805913,0.0568873,2.428,2.55889
0.819492,0.0572856,2.445,2.57932
0.827428,0.0572856,2.445,2.58185
0.835364,0.0572856,2.445,2.5844
0.8433,0.0572856,2.445,2.58698
0.851236,0.0572856,2.445,2.58958
0.859171,0.0572856,2.445,2.5922
0.867107,0.0572856,2.445,2.59484
0.875043,0.0572856,2.445,2.5975
0.882979,0.0572856,2.445,2.60018
0.88472,0.0568873,2.428,2.58479
0.892601,0.0568873,2.428,2.5875
0.900482,0.0568873,2.428,2.59023
0.908362,0.0568873,2.428,2.59298
0.916243,0.0568873,2.428,2.59575
0.917653,0.056489,2.411,2.58035
0.925479,0.056489,2.411,2.58314
0.933304,0.056489,2.411,2.58596
0.934494,0.0560907,2.394,2.57054
0.935573,0.0556924,2.377,2.5551
0.943288,0.0556924,2.377,2.55793
0.951003,0.0556924,2.377,2.56079
0.958719,0.0556924,2.377,2.56366
0.966434,0.0556924,2.377,2.56656
0.988083,0.056489,2.411,2.60623
0.995908,0.056489,2.411,2.6092
1.00373,0.056489,2.411,2.6122
1.01869,0.0568873,2.428,2.63366
1.02657,0.0568873,2.428,2.63672
1.0417,0.0572856,2.445,2.65828
1.05736,0.0577074,2.463,2.68099
1.06535,0.0577074,2.463,2.68415
1.08904,0.0585508,2.499,2.72662
1.11339,0.0594177,2.536,2.77028
1.13843,0.0603081,2.574,2.81516
1.14678,0.0603081,2.574,2.81855
1.17264,0.0612218,2.613,2.86472
1.19016,0.0616904,2.633,2.89015
1.19871,0.0616904,2.633,2.89368
1.21688,0.0621824,2.654,2.92034
1.24489,0.0631665,2.696,2.97021
1.25364,0.0631665,2.696,2.97389
1.27223,0.0636585,2.717,3.00078
1.29142,0.064174,2.739,3.02886
1.31075,0.0646894,2.761,3.05702
1.31971,0.0646894,2.761,3.06087
1.32867,0.0646894,2.761,3.06475
1.33764,0.0646894,2.761,3.06864
1.3466,0.0646894,2.761,3.07256
1.35556,0.0646894,2.761,3.0765
1.36452,0.0646894,2.761,3.08046
1.37348,0.0646894,2.761,3.08444
1.38244,0.0646894,2.761,3.08844
1.3914,0.0646894,2.761,3.09246
1.40037,0.0646894,2.761,3.0965
1.44404,0.0662826,2.829,3.17693
1.46555,0.0668449,2.853,3.2081
1.48722,0.0674073,2.877,3.23936
1.49655,0.0674073,2.877,3.24366
1.51845,0.0679696,2.901,3.27508
1.5542,0.0691411,2.951,3.33598
1.56378,0.0691411,2.951,3.34045
1.58722,0.0697502,2.977,3.37441
1.61083,0.0703594,3.003,3.40848
1.63515,0.070992,3.03,3.44378
1.64498,0.070992,3.03,3.44846
1.66956,0.0716246,3.057,3.48394
1.69432,0.0722572,3.084,3.51952
1.70433,0.0722572,3.084,3.52435
1.7299,0.0729132,3.112,3.56124
1.74,0.0729132,3.112,3.56616
1.75011,0.0729132,3.112,3.5711
1.74437,0.0722572,3.084,3.54388
1.75438,0.0722572,3.084,3.54882
1.76439,0.0722572,3.084,3.55378
1.7744,0.0722572,3.084,3.55876
1.76879,0.0716246,3.057,3.53256
1.77871,0.0716246,3.057,3.53754
1.77283,0.070992,3.03,3.51125
1.78267,0.070992,3.03,3.51623
1.7925,0.070992,3.03,3.52122
1.78628,0.0703594,3.003,3.49482
1.78047,0.0697502,2.977,3.46951
1.79014,0.0697502,2.977,3.47448
1.78408,0.0691411,2.951,3.44908
1.77846,0.0685553,2.926,3.42478
1.78796,0.0685553,2.926,3.42972
1.7821,0.0679696,2.901,3.40533
1.77669,0.0674073,2.877,3.38206
1.78603,0.0674073,2.877,3.38697
1.78039,0.0668449,2.853,3.36361
1.76017,0.0657437,2.806,3.31303
1.76928,0.0657437,2.806,3.31788
1.76381,0.0652049,2.783,3.29551
1.74481,0.064174,2.739,3.24817
1.72617,0.0631665,2.696,3.20189
1.73492,0.0631665,2.696,3.20661
1.73009,0.0626745,2.675,3.18634
1.72512,0.0621824,2.654,3.16601
1.73374,0.0621824,2.654,3.17071
1.71543,0.0612218,2.613,3.12638
1.71072,0.0607532,2.593,3.10707
1.71914,0.0607532,2.593,3.11172
1.72755,0.0607532,2.593,3.11637
1.72325,0.0603081,2.574,3.09818
1.7316,0.0603081,2.574,3.10283
1.72711,0.0598629,2.555,3.08456
1.7225,0.0594177,2.536,3.06624
-1.96257,0.0754623,2.829,3.44392
-1.93751,0.0748488,2.806,3.41074
-1.9284,0.0748488,2.806,3.40558
-1.90356,0.0742353,2.783,3.37256
-1.89453,0.0742353,2.783,3.36747
-1.88549,0.0742353,2.783,3.36239
-1.86163,0.0736484,2.761,3.3308
-1.82314,0.0724747,2.717,3.27279
-1.81432,0.0724747,2.717,3.26789
-1.8055,0.0724747,2.717,3.263
-1.76891,0.0713544,2.675,3.20777
-1.76023,0.0713544,2.675,3.20299
-1.75155,0.0713544,2.675,3.19822
-1.7155,0.0702341,2.633,3.14334
-1.69399,0.0697006,2.613,3.11484
-1.68551,0.0697006,2.613,3.11023
-1.67703,0.0697006,2.613,3.10565
-1.65577,0.0691671,2.593,3.07734
-1.64736,0.0691671,2.593,3.07282
-1.63894,0.0691671,2.593,3.06832
-1.63052,0.0691671,2.593,3.06383
-1.62211,0.0691671,2.593,3.05936
-1.61369,0.0691671,2.593,3.0549
-1.60528,0.0691671,2.593,3.05047
-1.59686,0.0691671,2.593,3.04605
-1.61295,0.0702341,2.633,3.08856
-1.6044,0.0702341,2.633,3.08411
-1.59585,0.0702341,2.633,3.07967
-1.59997,0.0707942,2.654,3.09978
-1.59135,0.0707942,2.654,3.09534
-1.59526,0.0713544,2.675,3.11538
-1.58658,0.0713544,2.675,3.11094
-1.5779,0.0713544,2.675,3.10652
-1.56922,0.0713544,2.675,3.10212
-1.56053,0.0713544,2.675,3.09774
-1.56403,0.0719146,2.696,3.11766
-1.55528,0.0719146,2.696,3.11328
-1.54653,0.0719146,2.696,3.10892
-1.54976,0.0724747,2.717,3.12875
-1.54094,0.0724747,2.717,3.1244
-1.53212,0.0724747,2.717,3.12006
-1.5233,0.0724747,2.717,3.11573
-1.52675,0.0730616,2.739,3.13663
-1.51786,0.0730616,2.739,3.13231
-1.52109,0.0736484,2.761,3.15313
-1.51213,0.0736484,2.761,3.14882
-1.50317,0.0736484,2.761,3.14453
-1.4942,0.0736484,2.761,3.14025
-1.48524,0.0736484,2.761,3.136
-1.46452,0.0730616,2.739,3.10681
-1.45563,0.0730616,2.739,3.10263
-1.44674,0.0730616,2.739,3.09847
-1.43785,0.0730616,2.739,3.09433
-1.42896,0.0730616,2.739,3.09021
-1.42007,0.0730616,2.739,3.08611
-1.41118,0.0730616,2.739,3.08203
-1.39102,0.0724747,2.717,3.05324
-1.37152,0.0719146,2.696,3.02567
-1.36277,0.0719146,2.696,3.02171
-1.34347,0.0713544,2.675,2.99427
-1.32431,0.0707942,2.654,2.96691
-1.3157,0.0707942,2.654,2.96307
-1.29674,0.0702341,2.633,2.93584
-1.27841,0.0697006,2.613,2.9098
-1.25098,0.0686603,2.574,2.86271
-1.24262,0.0686603,2.574,2.85907
-1.21605,0.0676466,2.536,2.8133
-1.19876,0.0671398,2.517,2.7887
-1.1906,0.0671398,2.517,2.7852
-1.16551,0.0661795,2.481,2.74193
-1.14906,0.0656994,2.463,2.71865
-1.14107,0.0656994,2.463,2.71528
-1.12479,0.0652193,2.445,2.69211
-1.10909,0.0647658,2.428,2.67011
-1.10121,0.0647658,2.428,2.66684
-1.08568,0.0643123,2.411,2.64495
-1.07025,0.0638589,2.394,2.62312
-1.06248,0.0638589,2.394,2.61996
-1.05471,0.0638589,2.394,2.61682
-1.03951,0.0634054,2.377,2.59513
-1.02485,0.0629786,2.361,2.57461
-1.01718,0.0629786,2.361,2.57157
-1.00952,0.0629786,2.361,2.56854
-1.00186,0.0629786,2.361,2.56554
-0.994193,0.0629786,2.361,2.56256
-0.979844,0.0625518,2.345,2.54225
-0.972232,0.0625518,2.345,2.53933
-0.964621,0.0625518,2.345,2.53642
-0.95701,0.0625518,2.345,2.53354
-0.949399,0.0625518,2.345,2.53067
-0.948213,0.0629786,2.361,2.54507
-0.94055,0.0629786,2.361,2.54223
-0.932887,0.0629786,2.361,2.5394
-0.925224,0.0629786,2.361,2.5366
-0.91756,0.0629786,2.361,2.53381
-0.909897,0.0629786,2.361,2.53105
-0.908348,0.0634054,2.377,2.54544
-0.900633,0.0634054,2.377,2.54269
-0.892918,0.0634054,2.377,2.53997
-0.891534,0.0638589,2.394,2.55542
-0.890039,0.0643123,2.411,2.57084
-0.882213,0.0643123,2.411,2.56814
-0.874388,0.0643123,2.411,2.56547
-0.872672,0.0647658,2.428,2.58088
-0.864792,0.0647658,2.428,2.57823
-0.856911,0.0647658,2.428,2.57559
-0.854975,0.0652193,2.445,2.591
-0.847039,0.0652193,2.445,2.58839
-0.839103,0.0652193,2.445,2.5858
-0.831167,0.0652193,2.445,2.58324
-0.823232,0.0652193,2.445,2.5807
-0.815296,0.0652193,2.445,2.57818
-0.80736,0.0652193,2.445,2.57568
-0.799424,0.0652193,2.445,2.5732
-0.791488,0.0652193,2.445,2.57075
-0.783552,0.0652193,2.445,2.56831
-0.775616,0.0652193,2.445,2.5659
-0.767681,0.0652193,2.445,2.56352
-0.759745,0.0652193,2.445,2.56115
-0.751809,0.0652193,2.445,2.55881
-0.743873,0.0652193,2.445,2.55649
-0.735937,0.0652193,2.445,2.55419
-0.728001,0.0652193,2.445,2.55191
-0.720065,0.0652193,2.445,2.54966
-0.712129,0.0652193,2.445,2.54743
-0.704194,0.0652193,2.445,2.54522
-0.696258,0.0652193,2.445,2.54304
-0.688322,0.0652193,2.445,2.54088
-0.680386,0.0652193,2.445,2.53874
-0.67245,0.0652193,2.445,2.53663
-0.669406,0.0656994,2.463,2.55319
-0.661412,0.0656994,2.463,2.55111
-0.653418,0.0656994,2.463,2.54905
-0.645424,0.0656994,2.463,2.54701
-0.637429,0.0656994,2.463,2.545
-0.629435,0.0656994,2.463,2.543
-0.625982,0.0661795,2.481,2.55961
-0.61793,0.0661795,2.481,2.55765
-0.609877,0.0661795,2.481,2.55572
-0.601824,0.0661795,2.481,2.55381
-0.598079,0.0666597,2.499,2.57044
-0.589968,0.0666597,2.499,2.56856
-0.581857,0.0666597,2.499,2.56671
-0.573746,0.0666597,2.499,2.56488
-0.565635,0.0666597,2.499,2.56308
-0.557524,0.0666597,2.499,2.5613
-0.549413,0.0666597,2.499,2.55955
-0.5452,0.0671398,2.517,2.57625
-0.537031,0.0671398,2.517,2.57453
-0.528861,0.0671398,2.517,2.57284
-0.520692,0.0671398,2.517,2.57117
-0.512522,0.0671398,2.517,2.56953
-0.50816,0.0676466,2.536,2.5873
-0.499929,0.0676466,2.536,2.58569
-0.491697,0.0676466,2.536,2.58411
-0.483466,0.0676466,2.536,2.58256
-0.475235,0.0676466,2.536,2.58103
-0.467004,0.0676466,2.536,2.57953
-0.458772,0.0676466,2.536,2.57805
-0.453917,0.0681534,2.555,2.5959
-0.445624,0.0681534,2.555,2.59447
-0.437331,0.0681534,2.555,2.59305
-0.429038,0.0681534,2.555,2.59167
-0.420745,0.0681534,2.555,2.59031
-0.412452,0.0681534,2.555,2.58897
-0.404159,0.0681534,2.555,2.58767
-0.395866,0.0681534,2.555,2.58638
-0.387574,0.0681534,2.555,2.58513
-0.379281,0.0681534,2.555,2.5839
-0.370988,0.0681534,2.555,2.58269
-0.362695,0.0681534,2.555,2.58151
-0.354402,0.0681534,2.555,2.58036
-0.346109,0.0681534,2.555,2.57924
-0.337816,0.0681534,2.555,2.57814
-0.329523,0.0681534,2.555,2.57706
-0.32123,0.0681534,2.555,2.57602
-0.312937,0.0681534,2.555,2.575
-0.304645,0.0681534,2.555,2.574
-0.296352,0.0681534,2.555,2.57303
-0.288059,0.0681534,2.555,2.57209
-0.279766,0.0681534,2.555,2.57117
-0.269454,0.0676466,2.536,2.55117
-0.261223,0.0676466,2.536,2.55032
-0.252992,0.0676466,2.536,2.54949
-0.242927,0.0671398,2.517,2.52959
-0.233078,0.0666597,2.499,2.51073
-0.224967,0.0666597,2.499,2.50999
-0.216856,0.0666597,2.499,2.50928
-0.208745,0.0666597,2.499,2.50859
-0.200634,0.0666597,2.499,2.50793
-0.192523,0.0666597,2.499,2.50729
-0.184412,0.0666597,2.499,2.50668
-0.1763,0.0666597,2.499,2.5061
-0.168189,0.0666597,2.499,2.50554
-0.160078,0.0666597,2.499,2.50501
-0.151967,0.0666597,2.499,2.5045
-0.143856,0.0666597,2.499,2.50402
-0.135745,0.0666597,2.499,2.50357
-0.127634,0.0666597,2.499,2.50314
-0.120383,0.0671398,2.517,2.52077
-0.112214,0.0671398,2.517,2.52039
-0.104044,0.0671398,2.517,2.52004
-0.0958747,0.0671398,2.517,2.51972
-0.0883672,0.0676466,2.536,2.53844
-0.080136,0.0676466,2.536,2.53817
-0.0719048,0.0676466,2.536,2.53792
-0.0636736,0.0676466,2.536,2.5377
-0.0554423,0.0676466,2.536,2.53751
-0.0472111,0.0676466,2.536,2.53734
-0.0389799,0.0676466,2.536,2.5372
-0.0307487,0.0676466,2.536,2.53709
-0.0225174,0.0676466,2.536,2.537
-0.0142862,0.0676466,2.536,2.53694
-0.00605498,0.0676466,2.536,2.53691
0.00217625,0.0676466,2.536,2.5369
0.0103295,0.0671398,2.517,2.51792
0.0184991,0.0671398,2.517,2.51796
0.0266686,0.0671398,2.517,2.51804
0.034589,0.0666597,2.499,2.50013
0.0427002,0.0666597,2.499,2.50025
0.0508113,0.0666597,2.499,2.50041
0.058498,0.0661795,2.481,2.48257
0.0665507,0.0661795,2.481,2.48277
0.0746034,0.0661795,2.481,2.483
0.0826561,0.0661795,2.481,2.48326
0.0907089,0.0661795,2.481,2.48354
0.0987616,0.0661795,2.481,2.48385
0.106814,0.0661795,2.481,2.48418
0.1157,0.0666597,2.499,2.50256
0.123811,0.0666597,2.499,2.50295
0.131923,0.0666597,2.499,2.50337
0.140034,0.0666597,2.499,2.50381
0.148145,0.0666597,2.499,2.50427
0.156256,0.0666597,2.499,2.50477
0.164367,0.0666597,2.499,2.50529
0.172478,0.0666597,2.499,2.50583
0.180589,0.0666597,2.499,2.5064
0.188701,0.0666597,2.499,2.507
0.196812,0.0666597,2.499,2.50762
0.206399,0.0671398,2.517,2.52634
0.213034,0.0666597,2.499,2.50895
0.221145,0.0666597,2.499,2.50965
0.229256,0.0666597,2.499,2.51038
0.237367,0.0666597,2.499,2.51113
0.245479,0.0666597,2.499,2.51191
0.25359,0.0666597,2.499,2.51272
0.259816,0.0661795,2.481,2.49545
0.267868,0.0661795,2.481,2.4963
0.275921,0.0661795,2.481,2.49717
0.283974,0.0661795,2.481,2.49808
0.292027,0.0661795,2.481,2.499
0.297902,0.0656994,2.463,2.48182
0.305896,0.0656994,2.463,2.48279
0.313891,0.0656994,2.463,2.48379
0.321885,0.0656994,2.463,2.48481
0.329879,0.0656994,2.463,2.48586
0.335404,0.0652193,2.445,2.46876
0.34334,0.0652193,2.445,2.46985
0.351276,0.0652193,2.445,2.47097
0.359212,0.0652193,2.445,2.47211
0.367148,0.0652193,2.445,2.47327
0.375084,0.0652193,2.445,2.47446
0.38302,0.0652193,2.445,2.47568
0.390955,0.0652193,2.445,2.47692
0.398891,0.0652193,2.445,2.47818
0.406827,0.0652193,2.445,2.47947
0.414763,0.0652193,2.445,2.48079
0.422699,0.0652193,2.445,2.48213
0.430635,0.0652193,2.445,2.48349
0.438571,0.0652193,2.445,2.48488
0.446507,0.0652193,2.445,2.48629
0.454442,0.0652193,2.445,2.48773
0.462378,0.0652193,2.445,2.48919
0.470314,0.0652193,2.445,2.49068
0.481771,0.0656994,2.463,2.51054
0.489765,0.0656994,2.463,2.51208
0.497759,0.0656994,2.463,2.51365
0.505754,0.0656994,2.463,2.51525
0.513748,0.0656994,2.463,2.51687
0.521742,0.0656994,2.463,2.51851
0.529737,0.0656994,2.463,2.52018
0.537731,0.0656994,2.463,2.52187
0.545725,0.0656994,2.463,2.52359
0.557766,0.0661795,2.481,2.54379
0.565819,0.0661795,2.481,2.54556
0.573871,0.0661795,2.481,2.54737
0.581924,0.0661795,2.481,2.54919
0.589977,0.0661795,2.481,2.55104
0.59803,0.0661795,2.481,2.55292
0.606082,0.0661795,2.481,2.55481
0.614135,0.0661795,2.481,2.55674
0.622188,0.0661795,2.481,2.55868
0.63024,0.0661795,2.481,2.56065
0.633662,0.0656994,2.463,2.54405
0.641657,0.0656994,2.463,2.54606
0.649651,0.0656994,2.463,2.54808
0.657645,0.0656994,2.463,2.55013
0.665639,0.0656994,2.463,2.55221
0.673634,0.0656994,2.463,2.5543
0.676647,0.0652193,2.445,2.53774
0.684582,0.0652193,2.445,2.53987
0.692518,0.0652193,2.445,2.54202
0.700454,0.0652193,2.445,2.54419
0.70839,0.0652193,2.445,2.54639
0.716326,0.0652193,2.445,2.54861
0.719226,0.0647658,2.428,2.53311
0.727107,0.0647658,2.428,2.53536
0.734987,0.0647658,2.428,2.53763
0.742868,0.0647658,2.428,2.53993
0.750749,0.0647658,2.428,2.54224
0.758629,0.0647658,2.428,2.54458
0.76651,0.0647658,2.428,2.54694
0.774391,0.0647658,2.428,2.54933
0.782271,0.0647658,2.428,2.55173
0.790152,0.0647658,2.428,2.55416
0.798033,0.0647658,2.428,2.55661
0.805913,0.0647658,2.428,2.55908
0.819492,0.0652193,2.445,2.57951
0.827428,0.0652193,2.445,2.58204
0.835364,0.0652193,2.445,2.58459
0.8433,0.0652193,2.445,2.58717
0.851236,0.0652193,2.445,2.58976
0.859171,0.0652193,2.445,2.59238
0.867107,0.0652193,2.445,2.59502
0.875043,0.0652193,2.445,2.59769
0.882979,0.0652193,2.445,2.60037
0.88472,0.0647658,2.428,2.58498
0.892601,0.0647658,2.428,2.58769
0.900482,0.0647658,2.428,2.59041
0.908362,0.0647658,2.428,2.59316
0.916243,0.0647658,2.428,2.59594
0.917653,0.0643123,2.411,2.58053
0.925479,0.0643123,2.411,2.58333
0.933304,0.0643123,2.411,2.58614
0.934494,0.0638589,2.394,2.57072
0.935573,0.0634054,2.377,2.55528
0.943288,0.0634054,2.377,2.55811
0.951003,0.0634054,2.377,2.56097
0.958719,0.0634054,2.377,2.56384
0.966434,0.0634054,2.377,2.56674
0.988083,0.0643123,2.411,2.60641
0.995908,0.0643123,2.411,2.60939
1.00373,0.0643123,2.411,2.61238
1.01869,0.0647658,2.428,2.63384
1.02657,0.0647658,2.428,2.6369
1.0417,0.0652193,2.445,2.65846
1.05736,0.0656994,2.463,2.68117
1.06535,0.0656994,2.463,2.68434
1.08904,0.0666597,2.499,2.7268
1.11339,0.0676466,2.536,2.77047
1.13843,0.0686603,2.574,2.81535
