0.213034,-0.411762,2.499,2.54164
0.221145,-0.411762,2.499,2.54233
0.229256,-0.411762,2.499,2.54305
0.237367,-0.411762,2.499,2.54379
0.247247,-0.414728,2.517,2.56289
0.255416,-0.414728,2.517,2.56369
0.263586,-0.414728,2.517,2.56452
0.271755,-0.414728,2.517,2.56537
0.279925,-0.414728,2.517,2.56625
0.288094,-0.414728,2.517,2.56716
0.296264,-0.414728,2.517,2.56809
0.304434,-0.414728,2.517,2.56904
0.312603,-0.414728,2.517,2.57002
0.323194,-0.417859,2.536,2.59044
0.331425,-0.417859,2.536,2.59148
0.339657,-0.417859,2.536,2.59254
0.347888,-0.417859,2.536,2.59363
0.356119,-0.417859,2.536,2.59475
0.36435,-0.417859,2.536,2.59589
0.372581,-0.417859,2.536,2.59706
0.380813,-0.417859,2.536,2.59825
0.389044,-0.417859,2.536,2.59947
0.397275,-0.417859,2.536,2.60072
0.405506,-0.417859,2.536,2.60199
0.413738,-0.417859,2.536,2.60328
0.421969,-0.417859,2.536,2.6046
0.4302,-0.417859,2.536,2.60595
0.438431,-0.417859,2.536,2.60732
0.446662,-0.417859,2.536,2.60872
0.454894,-0.417859,2.536,2.61014
0.463125,-0.417859,2.536,2.61159
0.471356,-0.417859,2.536,2.61306
0.479587,-0.417859,2.536,2.61456
0.487819,-0.417859,2.536,2.61608
0.49605,-0.417859,2.536,2.61763
0.500503,-0.414728,2.517,2.59958
0.508672,-0.414728,2.517,2.60116
0.520743,-0.417859,2.536,2.62242
0.528975,-0.417859,2.536,2.62406
0.537206,-0.417859,2.536,2.62574
0.545437,-0.417859,2.536,2.62743
0.553668,-0.417859,2.536,2.62915
0.5619,-0.417859,2.536,2.6309
0.574402,-0.420989,2.555,2.65239
0.582695,-0.420989,2.555,2.6542
0.590988,-0.420989,2.555,2.65604
0.599281,-0.420989,2.555,2.65789
0.607574,-0.420989,2.555,2.65978
0.615867,-0.420989,2.555,2.66168
0.62416,-0.420989,2.555,2.66361
0.632453,-0.420989,2.555,2.66557
0.640746,-0.420989,2.555,2.66755
0.644212,-0.417859,2.536,2.6497
0.652443,-0.417859,2.536,2.65171
0.660674,-0.417859,2.536,2.65375
0.668906,-0.417859,2.536,2.65581
0.672064,-0.414728,2.517,2.63798
0.680233,-0.414728,2.517,2.64008
0.688403,-0.414728,2.517,2.64219
0.691591,-0.411762,2.499,2.62542
0.699702,-0.411762,2.499,2.62757
0.707813,-0.411762,2.499,2.62974
0.710768,-0.408796,2.481,2.61298
0.71882,-0.408796,2.481,2.61518
0.726873,-0.408796,2.481,2.61741
0.734926,-0.408796,2.481,2.61965
0.742978,-0.408796,2.481,2.62193
0.751031,-0.408796,2.481,2.62422
0.753577,-0.405831,2.463,2.60748
0.761571,-0.405831,2.463,2.6098
0.769565,-0.405831,2.463,2.61214
0.777559,-0.405831,2.463,2.61451
0.785554,-0.405831,2.463,2.6169
0.793548,-0.405831,2.463,2.61931
0.801542,-0.405831,2.463,2.62174
0.809537,-0.405831,2.463,2.6242
0.817531,-0.405831,2.463,2.62668
0.825525,-0.405831,2.463,2.62917
0.839611,-0.408796,2.481,2.65093
0.847664,-0.408796,2.481,2.65349
0.855716,-0.408796,2.481,2.65607
0.863769,-0.408796,2.481,2.65868
0.871822,-0.408796,2.481,2.66131
0.879874,-0.408796,2.481,2.66395
0.887927,-0.408796,2.481,2.66663
0.89598,-0.408796,2.481,2.66932
0.904033,-0.408796,2.481,2.67203
0.912085,-0.408796,2.481,2.67477
0.913462,-0.405831,2.463,2.6581
0.921457,-0.405831,2.463,2.66086
0.929451,-0.405831,2.463,2.66363
0.937445,-0.405831,2.463,2.66643
0.945439,-0.405831,2.463,2.66926
0.953434,-0.405831,2.463,2.6721
0.961428,-0.405831,2.463,2.67496
0.969422,-0.405831,2.463,2.67784
0.977417,-0.405831,2.463,2.68075
0.985411,-0.405831,2.463,2.68367
0.993405,-0.405831,2.463,2.68662
1.0014,-0.405831,2.463,2.68959
1.00939,-0.405831,2.463,2.69257
nan,nan,nan,NaN
nan,nan,nan,NaN
nan,nan,nan,NaN
nan,nan,nan,NaN
nan,nan,nan,NaN
nan,nan,nan,NaN
nan,nan,nan,NaN
1.30867,-0.494807,3.003,3.31292
1.31842,-0.494807,3.003,3.31679
1.32817,-0.494807,3.003,3.32067
1.33791,-0.494807,3.003,3.32458
1.35978,-0.499256,3.03,3.35845
1.36961,-0.499256,3.03,3.36244
1.37945,-0.499256,3.03,3.36646
1.38928,-0.499256,3.03,3.3705
1.41158,-0.503704,3.057,3.40463
1.42151,-0.503704,3.057,3.40876
1.43143,-0.503704,3.057,3.41291
1.44135,-0.503704,3.057,3.41708
1.45127,-0.503704,3.057,3.42128
1.4612,-0.503704,3.057,3.4255
1.47112,-0.503704,3.057,3.42975
1.48104,-0.503704,3.057,3.43401
1.49096,-0.503704,3.057,3.4383
1.50089,-0.503704,3.057,3.44262
1.51081,-0.503704,3.057,3.44696
1.52073,-0.503704,3.057,3.45132
1.53065,-0.503704,3.057,3.4557
1.54057,-0.503704,3.057,3.46011
1.5505,-0.503704,3.057,3.46454
1.56042,-0.503704,3.057,3.46899
1.59859,-0.512767,3.112,3.53595
1.60869,-0.512767,3.112,3.54053
1.63388,-0.517545,3.141,3.57817
1.72311,-0.542426,3.292,3.75508
nan,nan,nan,NaN
nan,nan,nan,NaN
nan,nan,nan,NaN
nan,nan,nan,NaN
1.96542,-0.600095,3.642,4.18176
1.97724,-0.600095,3.642,4.18733
1.98906,-0.600095,3.642,4.19293
2.00088,-0.600095,3.642,4.19855
2.0127,-0.600095,3.642,4.20419
2.0034,-0.593834,3.604,4.16594
2.0151,-0.593834,3.604,4.17158
2.00542,-0.587573,3.566,4.1332
1.97571,-0.575544,3.493,4.0541
1.98704,-0.575544,3.493,4.05964
1.97836,-0.569777,3.458,4.02446
1.98958,-0.569777,3.458,4.02999
2.00081,-0.569777,3.458,4.03555
1.99166,-0.564011,3.423,4.00022
2.00277,-0.564011,3.423,4.00576
2.01389,-0.564011,3.423,4.01133
2.00488,-0.558408,3.389,3.97702
1.97722,-0.547698,3.324,3.90619
1.96887,-0.542426,3.292,3.87401
1.97955,-0.542426,3.292,3.87945
1.99024,-0.542426,3.292,3.88491
1.96324,-0.53221,3.23,3.81713
1.97372,-0.53221,3.23,3.82253
1.96516,-0.527102,3.199,3.79121
1.95764,-0.522323,3.17,3.76219
1.96793,-0.522323,3.17,3.76755
1.94202,-0.512767,3.112,3.70391
1.90068,-0.499256,3.03,3.61148
1.91052,-0.499256,3.03,3.61666
1.88676,-0.490523,2.977,3.55851
1.87986,-0.486239,2.951,3.53252
1.88944,-0.486239,2.951,3.53763
1.86684,-0.478,2.901,3.48273
1.84521,-0.470091,2.853,3.43007
1.85447,-0.470091,2.853,3.43506
1.83303,-0.462347,2.806,3.3834
1.8126,-0.454932,2.761,3.33401
1.82156,-0.454932,2.761,3.33889
1.80135,-0.447682,2.717,3.2905
1.79618,-0.444222,2.696,3.26986
1.79087,-0.440762,2.675,3.24917
1.79955,-0.440762,2.675,3.25396
1.79404,-0.437302,2.654,3.23319
1.78839,-0.433842,2.633,3.21236
-2.30597,-0.536912,3.324,4.08102
-2.31727,-0.542081,3.356,4.11416
-2.30638,-0.542081,3.356,4.10804
-2.29549,-0.542081,3.356,4.10193
-2.2846,-0.542081,3.356,4.09585
-2.29606,-0.547412,3.389,4.13
-2.28506,-0.547412,3.389,4.12389
-2.25192,-0.542081,3.356,4.07771
-2.24102,-0.542081,3.356,4.0717
-2.23013,-0.542081,3.356,4.06572
-2.24106,-0.547412,3.389,4.09968
-2.23006,-0.547412,3.389,4.09367
-2.21906,-0.547412,3.389,4.08769
-2.20806,-0.547412,3.389,4.08173
-2.2191,-0.552903,3.423,4.11668
-2.20799,-0.552903,3.423,4.1107
-2.19688,-0.552903,3.423,4.10474
-2.18577,-0.552903,3.423,4.09881
-2.17466,-0.552903,3.423,4.0929
-2.16355,-0.552903,3.423,4.087
-2.17445,-0.558557,3.458,4.12286
-2.18512,-0.56421,3.493,4.15862
-2.152,-0.558557,3.458,4.11107
-2.14078,-0.558557,3.458,4.1052
-2.108,-0.552903,3.423,4.05787
-2.09689,-0.552903,3.423,4.05211
-2.08578,-0.552903,3.423,4.04637
-2.05406,-0.547412,3.389,4.00052
-2.04306,-0.547412,3.389,3.99488
-2.03206,-0.547412,3.389,3.98927
-2.04134,-0.552903,3.423,4.02364
nan,nan,nan,NaN
nan,nan,nan,NaN
nan,nan,nan,NaN
nan,nan,nan,NaN
nan,nan,nan,NaN
nan,nan,nan,NaN
nan,nan,nan,NaN
nan,nan,nan,NaN
nan,nan,nan,NaN
nan,nan,nan,NaN
nan,nan,nan,NaN
nan,nan,nan,NaN
nan,nan,nan,NaN
nan,nan,nan,NaN
nan,nan,nan,NaN
nan,nan,nan,NaN
nan,nan,nan,NaN
nan,nan,nan,NaN
nan,nan,nan,NaN
nan,nan,nan,NaN
nan,nan,nan,NaN
nan,nan,nan,NaN
nan,nan,nan,NaN
nan,nan,nan,NaN
nan,nan,nan,NaN
nan,nan,nan,NaN
nan,nan,nan,NaN
nan,nan,nan,NaN
nan,nan,nan,NaN
nan,nan,nan,NaN
nan,nan,nan,NaN
-1.19578,-0.392185,2.428,2.73476
-1.1879,-0.392185,2.428,2.73132
-1.18002,-0.392185,2.428,2.7279
-1.17214,-0.392185,2.428,2.7245
-1.16426,-0.392185,2.428,2.72112
-1.15638,-0.392185,2.428,2.71776
-1.1485,-0.392185,2.428,2.71441
-1.13263,-0.389439,2.411,2.69211
-1.1248,-0.389439,2.411,2.68882
-1.11698,-0.389439,2.411,2.68556
-1.10915,-0.389439,2.411,2.68231
-1.10133,-0.389439,2.411,2.67909
-1.0935,-0.389439,2.411,2.67588
-1.09333,-0.392185,2.428,2.69154
-1.08545,-0.392185,2.428,2.68834
-1.07757,-0.392185,2.428,2.68517
-1.0622,-0.389439,2.411,2.66324
-1.05437,-0.389439,2.411,2.66013
-1.04655,-0.389439,2.411,2.65704
-1.03872,-0.389439,2.411,2.65396
-1.0309,-0.389439,2.411,2.65091
-1.02307,-0.389439,2.411,2.64788
-1.01525,-0.389439,2.411,2.64486
-1.00742,-0.389439,2.411,2.64187
-0.999596,-0.389439,2.411,2.6389
-0.99177,-0.389439,2.411,2.63594
-0.983945,-0.389439,2.411,2.63301
-0.976119,-0.389439,2.411,2.63009
-0.968294,-0.389439,2.411,2.6272
-0.960468,-0.389439,2.411,2.62433
-0.952643,-0.389439,2.411,2.62147
-0.951479,-0.392185,2.428,2.6371
-0.936992,-0.389439,2.411,2.61582
-0.929166,-0.389439,2.411,2.61303
-0.921341,-0.389439,2.411,2.61026
-0.913515,-0.389439,2.411,2.60751
-0.90569,-0.389439,2.411,2.60478
-0.897864,-0.389439,2.411,2.60207
-0.890039,-0.389439,2.411,2.59938
-0.882213,-0.389439,2.411,2.59671
-0.874388,-0.389439,2.411,2.59406
-0.866562,-0.389439,2.411,2.59143
-0.858737,-0.389439,2.411,2.58882
-0.850911,-0.389439,2.411,2.58624
-0.843086,-0.389439,2.411,2.58368
-0.83526,-0.389439,2.411,2.58113
-0.827435,-0.389439,2.411,2.57861
-0.819609,-0.389439,2.411,2.57611
-0.811784,-0.389439,2.411,2.57363
-0.803958,-0.389439,2.411,2.57117
-0.796133,-0.389439,2.411,2.56874
-0.788307,-0.389439,2.411,2.56632
-0.780482,-0.389439,2.411,2.56393
-0.772656,-0.389439,2.411,2.56156
-0.764831,-0.389439,2.411,2.55921
-0.757005,-0.389439,2.411,2.55688
-0.74918,-0.389439,2.411,2.55458
-0.741354,-0.389439,2.411,2.55229
-0.733529,-0.389439,2.411,2.55003
-0.725703,-0.389439,2.411,2.54779
-0.722939,-0.392185,2.428,2.56352
-0.715059,-0.392185,2.428,2.56131
-0.707178,-0.392185,2.428,2.55912
-0.699297,-0.392185,2.428,2.55695
-0.696258,-0.394931,2.445,2.5727
-0.688322,-0.394931,2.445,2.57056
-0.680386,-0.394931,2.445,2.56845
-0.67245,-0.394931,2.445,2.56636
-0.664514,-0.394931,2.445,2.56429
-0.656578,-0.394931,2.445,2.56224
-0.648643,-0.394931,2.445,2.56022
-0.640707,-0.394931,2.445,2.55822
-0.637429,-0.397838,2.463,2.57507
-0.629435,-0.397838,2.463,2.5731
-0.621441,-0.397838,2.463,2.57115
-0.613446,-0.397838,2.463,2.56923
-0.605452,-0.397838,2.463,2.56734
-0.597458,-0.397838,2.463,2.56546
-0.589464,-0.397838,2.463,2.56361
-0.581469,-0.397838,2.463,2.56179
-0.573475,-0.397838,2.463,2.55998
-0.565481,-0.397838,2.463,2.55821
-0.557486,-0.397838,2.463,2.55645
-0.549492,-0.397838,2.463,2.55472
-0.545455,-0.400746,2.481,2.57167
-0.537403,-0.400746,2.481,2.56997
-0.52935,-0.400746,2.481,2.5683
-0.521297,-0.400746,2.481,2.56665
-0.513244,-0.400746,2.481,2.56503
-0.505192,-0.400746,2.481,2.56343
-0.497139,-0.400746,2.481,2.56186
-0.485538,-0.397838,2.463,2.54173
-0.477544,-0.397838,2.463,2.54022
-0.469549,-0.397838,2.463,2.53872
-0.461555,-0.397838,2.463,2.53726
-0.453561,-0.397838,2.463,2.53582
-0.445566,-0.397838,2.463,2.5344
-0.437572,-0.397838,2.463,2.533
-0.429578,-0.397838,2.463,2.53164
-0.421584,-0.397838,2.463,2.53029
-0.413589,-0.397838,2.463,2.52897
-0.405595,-0.397838,2.463,2.52768
-0.394695,-0.394931,2.445,2.50794
-0.386759,-0.394931,2.445,2.50671
-0.378823,-0.394931,2.445,2.50549
-0.370887,-0.394931,2.445,2.50431
-0.362952,-0.394931,2.445,2.50314
-0.355016,-0.394931,2.445,2.50201
-0.34708,-0.394931,2.445,2.50089
-0.339144,-0.394931,2.445,2.4998
-0.331208,-0.394931,2.445,2.49874
-0.323272,-0.394931,2.445,2.4977
-0.315336,-0.394931,2.445,2.49668
-0.3074,-0.394931,2.445,2.49569
-0.299465,-0.394931,2.445,2.49473
-0.291529,-0.394931,2.445,2.49379
-0.283593,-0.394931,2.445,2.49287
-0.275657,-0.394931,2.445,2.49198
-0.267721,-0.394931,2.445,2.49112
-0.261698,-0.397838,2.463,2.50861
-0.253704,-0.397838,2.463,2.50779
-0.243914,-0.394931,2.445,2.48867
-0.235978,-0.394931,2.445,2.48791
-0.229721,-0.397838,2.463,2.50548
-0.221726,-0.397838,2.463,2.50476
-0.213732,-0.397838,2.463,2.50406
-0.205738,-0.397838,2.463,2.50339
-0.197744,-0.397838,2.463,2.50275
-0.189749,-0.397838,2.463,2.50213
-0.181755,-0.397838,2.463,2.50154
-0.173761,-0.397838,2.463,2.50097
-0.165766,-0.397838,2.463,2.50042
-0.157772,-0.397838,2.463,2.49991
-0.149778,-0.397838,2.463,2.49942
-0.141784,-0.397838,2.463,2.49895
-0.133789,-0.397838,2.463,2.49851
-0.125795,-0.397838,2.463,2.49809
-0.117801,-0.397838,2.463,2.4977
-0.109806,-0.397838,2.463,2.49734
-0.102556,-0.400746,2.481,2.51525
-0.0945035,-0.400746,2.481,2.51493
-0.0864508,-0.400746,2.481,2.51464
-0.0789668,-0.403653,2.499,2.53262
-0.0708557,-0.403653,2.499,2.53238
-0.0627446,-0.403653,2.499,2.53217
-0.0546334,-0.403653,2.499,2.53198
-0.0465223,-0.403653,2.499,2.53182
-0.0384112,-0.403653,2.499,2.53168
-0.0303,-0.403653,2.499,2.53157
-0.0221889,-0.403653,2.499,2.53149
-0.0139764,-0.400746,2.481,2.5132
-0.00592366,-0.400746,2.481,2.51316
0.00212905,-0.400746,2.481,2.51316
0.0101818,-0.400746,2.481,2.51318
0.0181022,-0.397838,2.463,2.49499
0.0260965,-0.397838,2.463,2.49506
0.0340907,-0.397838,2.463,2.49516
0.042085,-0.397838,2.463,2.49528
0.0500793,-0.397838,2.463,2.49543
0.0580736,-0.397838,2.463,2.4956
0.0660679,-0.397838,2.463,2.4958
0.0735209,-0.394931,2.445,2.47778
0.0814568,-0.394931,2.445,2.47803
0.0893926,-0.394931,2.445,2.4783
0.0973285,-0.394931,2.445,2.4786
0.105264,-0.394931,2.445,2.47893
0.1132,-0.394931,2.445,2.47928
0.121136,-0.394931,2.445,2.47965
0.129072,-0.394931,2.445,2.48005
0.137008,-0.394931,2.445,2.48048
0.144944,-0.394931,2.445,2.48093
0.154005,-0.397838,2.463,2.49967
0.161999,-0.397838,2.463,2.50018
0.169994,-0.397838,2.463,2.50071
0.177988,-0.397838,2.463,2.50126
0.187341,-0.400746,2.481,2.52013
0.195394,-0.400746,2.481,2.52074
0.203447,-0.400746,2.481,2.52138
0.2115,-0.400746,2.481,2.52204
0.221145,-0.403653,2.499,2.54103
0.229256,-0.403653,2.499,2.54175
0.237367,-0.403653,2.499,2.5425
0.245479,-0.403653,2.499,2.54327
0.25359,-0.403653,2.499,2.54406
0.263586,-0.406561,2.517,2.56321
0.271755,-0.406561,2.517,2.56407
0.279925,-0.406561,2.517,2.56494
0.288094,-0.406561,2.517,2.56585
0.296264,-0.406561,2.517,2.56678
0.304434,-0.406561,2.517,2.56773
0.312603,-0.406561,2.517,2.56872
0.320773,-0.406561,2.517,2.56972
0.331425,-0.40963,2.536,2.59016
0.339657,-0.40963,2.536,2.59123
0.347888,-0.40963,2.536,2.59232
0.356119,-0.40963,2.536,2.59344
0.36435,-0.40963,2.536,2.59458
0.372581,-0.40963,2.536,2.59575
0.380813,-0.40963,2.536,2.59694
0.389044,-0.40963,2.536,2.59816
0.397275,-0.40963,2.536,2.59941
0.405506,-0.40963,2.536,2.60068
0.413738,-0.40963,2.536,2.60197
0.421969,-0.40963,2.536,2.6033
0.4302,-0.40963,2.536,2.60464
0.438431,-0.40963,2.536,2.60601
0.446662,-0.40963,2.536,2.60741
0.454894,-0.40963,2.536,2.60884
0.463125,-0.40963,2.536,2.61028
0.471356,-0.40963,2.536,2.61176
0.479587,-0.40963,2.536,2.61325
0.487819,-0.40963,2.536,2.61478
0.49605,-0.40963,2.536,2.61633
0.500503,-0.406561,2.517,2.59828
0.508672,-0.406561,2.517,2.59987
0.520743,-0.40963,2.536,2.62112
0.528975,-0.40963,2.536,2.62277
0.537206,-0.40963,2.536,2.62444
0.545437,-0.40963,2.536,2.62614
0.553668,-0.40963,2.536,2.62786
0.5619,-0.40963,2.536,2.62961
0.574402,-0.412699,2.555,2.65109
0.582695,-0.412699,2.555,2.6529
0.590988,-0.412699,2.555,2.65473
0.599281,-0.412699,2.555,2.65659
0.607574,-0.412699,2.555,2.65848
0.615867,-0.412699,2.555,2.66038
0.62416,-0.412699,2.555,2.66231
0.632453,-0.412699,2.555,2.66427
0.640746,-0.412699,2.555,2.66625
0.644212,-0.40963,2.536,2.64841
0.652443,-0.40963,2.536,2.65043
0.660674,-0.40963,2.536,2.65247
0.668906,-0.40963,2.536,2.65453
0.672064,-0.406561,2.517,2.63671
0.680233,-0.406561,2.517,2.63881
0.688403,-0.406561,2.517,2.64092
0.691591,-0.403653,2.499,2.62416
0.699702,-0.403653,2.499,2.62631
0.707813,-0.403653,2.499,2.62849
0.710768,-0.400746,2.481,2.61173
0.71882,-0.400746,2.481,2.61394
0.726873,-0.400746,2.481,2.61616
0.734926,-0.400746,2.481,2.61841
0.742978,-0.400746,2.481,2.62068
0.751031,-0.400746,2.481,2.62298
0.753577,-0.397838,2.463,2.60625
0.761571,-0.397838,2.463,2.60857
0.769565,-0.397838,2.463,2.61091
0.777559,-0.397838,2.463,2.61328
0.785554,-0.397838,2.463,2.61567
0.793548,-0.397838,2.463,2.61808
0.801542,-0.397838,2.463,2.62052
0.809537,-0.397838,2.463,2.62297
0.823505,-0.400746,2.481,2.64464
0.831558,-0.400746,2.481,2.64716
0.839611,-0.400746,2.481,2.6497
0.847664,-0.400746,2.481,2.65226
0.855716,-0.400746,2.481,2.65485
0.863769,-0.400746,2.481,2.65745
0.871822,-0.400746,2.481,2.66008
0.879874,-0.400746,2.481,2.66273
0.887927,-0.400746,2.481,2.6654
0.89598,-0.400746,2.481,2.6681
0.904033,-0.400746,2.481,2.67081
0.912085,-0.400746,2.481,2.67355
0.913462,-0.397838,2.463,2.65689
0.921457,-0.397838,2.463,2.65965
0.929451,-0.397838,2.463,2.66243
0.937445,-0.397838,2.463,2.66523
0.945439,-0.397838,2.463,2.66805
0.953434,-0.397838,2.463,2.6709
0.961428,-0.397838,2.463,2.67376
0.969422,-0.397838,2.463,2.67664
0.977417,-0.397838,2.463,2.67955
0.985411,-0.397838,2.463,2.68248
0.986145,-0.394931,2.445,2.6658
0.994081,-0.394931,2.445,2.66874
1.00202,-0.394931,2.445,2.67171
1.00995,-0.394931,2.445,2.6747
1.02538,-0.397838,2.463,2.69742
1.03338,-0.397838,2.463,2.70047
nan,nan,nan,NaN
nan,nan,nan,NaN
nan,nan,nan,NaN
nan,nan,nan,NaN
1.29734,-0.480863,2.977,3.28281
1.30701,-0.480863,2.977,3.28664
1.31667,-0.480863,2.977,3.2905
1.33791,-0.485063,3.003,3.32315
1.34766,-0.485063,3.003,3.32708
1.36961,-0.489424,3.03,3.36099
1.37945,-0.489424,3.03,3.36501
1.38928,-0.489424,3.03,3.36906
1.41158,-0.493785,3.057,3.40318
1.42151,-0.493785,3.057,3.40731
1.43143,-0.493785,3.057,3.41146
1.44135,-0.493785,3.057,3.41564
1.45127,-0.493785,3.057,3.41983
1.4612,-0.493785,3.057,3.42406
1.47112,-0.493785,3.057,3.4283
1.48104,-0.493785,3.057,3.43257
1.49096,-0.493785,3.057,3.43687
1.50089,-0.493785,3.057,3.44118
1.51081,-0.493785,3.057,3.44552
1.52073,-0.493785,3.057,3.44988
1.53065,-0.493785,3.057,3.45427
1.54057,-0.493785,3.057,3.45868
1.5505,-0.493785,3.057,3.46311
1.56042,-0.493785,3.057,3.46756
1.59859,-0.502669,3.112,3.5345
1.60869,-0.502669,3.112,3.53908
1.63388,-0.507353,3.141,3.57671
1.72311,-0.531744,3.292,3.75355
nan,nan,nan,NaN
nan,nan,nan,NaN
nan,nan,nan,NaN
nan,nan,nan,NaN
1.94491,-0.58214,3.604,4.13647
1.95661,-0.58214,3.604,4.14198
1.98906,-0.588278,3.642,4.19125
2.00088,-0.588278,3.642,4.19687
1.9917,-0.58214,3.604,4.15867
2.0034,-0.58214,3.604,4.16429
2.0151,-0.58214,3.604,4.16993
2.00542,-0.576002,3.566,4.13157
1.99607,-0.570025,3.529,4.09427
2.00752,-0.570025,3.529,4.09987
1.99838,-0.56421,3.493,4.06361
1.98958,-0.558557,3.458,4.02842
2.00081,-0.558557,3.458,4.03398
2.01203,-0.558557,3.458,4.03956
2.00277,-0.552903,3.423,4.00422
2.01389,-0.552903,3.423,4.00978
2.00488,-0.547412,3.389,3.97549
1.99625,-0.542081,3.356,3.94229
1.98801,-0.536912,3.324,3.91017
1.99879,-0.536912,3.324,3.91567
1.99024,-0.531744,3.292,3.88343
1.98147,-0.526575,3.26,3.85112
1.99205,-0.526575,3.26,3.85657
1.98421,-0.521729,3.23,3.82651
1.95764,-0.512037,3.17,3.76077
1.96793,-0.512037,3.17,3.76614
1.94202,-0.502669,3.112,3.70252
1.90068,-0.489424,3.03,3.61013
1.91052,-0.489424,3.03,3.61532
1.88676,-0.480863,2.977,3.55719
1.87986,-0.476663,2.951,3.53122
1.88944,-0.476663,2.951,3.53633
1.86684,-0.468587,2.901,3.48145
1.84521,-0.460834,2.853,3.42882
1.85447,-0.460834,2.853,3.43381
1.83303,-0.453242,2.806,3.38217
1.8126,-0.445973,2.761,3.33279
1.82156,-0.445973,2.761,3.33768
1.81593,-0.44242,2.739,3.31594
1.79618,-0.435474,2.696,3.26868
1.79087,-0.432082,2.675,3.248
1.79955,-0.432082,2.675,3.2528
1.79404,-0.42869,2.654,3.23204
1.78839,-0.425298,2.633,3.21121
-2.30597,-0.526127,3.324,4.07962
-2.31727,-0.531192,3.356,4.11274
-2.30638,-0.531192,3.356,4.10662
-2.29549,-0.531192,3.356,4.10051
-2.2846,-0.531192,3.356,4.09442
-2.29606,-0.536415,3.389,4.12855
-2.28506,-0.536415,3.389,4.12245
-2.25192,-0.531192,3.356,4.07628
-2.24102,-0.531192,3.356,4.07027
-2.23013,-0.531192,3.356,4.06428
-2.24106,-0.536415,3.389,4.09822
-2.23006,-0.536415,3.389,4.09222
-2.21906,-0.536415,3.389,4.08623
-2.20806,-0.536415,3.389,4.08027
-2.2191,-0.541796,3.423,4.1152
-2.20799,-0.541796,3.423,4.10922
-2.19688,-0.541796,3.423,4.10326
-2.18577,-0.541796,3.423,4.09733
-2.17466,-0.541796,3.423,4.09141
-2.16355,-0.541796,3.423,4.08552
-2.17445,-0.547336,3.458,4.12136
-2.18512,-0.552876,3.493,4.1571
-2.152,-0.547336,3.458,4.10956
-2.14078,-0.547336,3.458,4.10369
-2.108,-0.541796,3.423,4.05637
-2.09689,-0.541796,3.423,4.05061
-2.08578,-0.541796,3.423,4.04487
-2.05406,-0.536415,3.389,3.99903
-2.04306,-0.536415,3.389,3.99339
-2.03206,-0.536415,3.389,3.98777
-2.04134,-0.541796,3.423,4.02213
nan,nan,nan,NaN
nan,nan,nan,NaN
nan,nan,nan,NaN
nan,nan,nan,NaN
nan,nan,nan,NaN
nan,nan,nan,NaN
nan,nan,nan,NaN
nan,nan,nan,NaN
nan,nan,nan,NaN
nan,nan,nan,NaN
nan,nan,nan,NaN
nan,nan,nan,NaN
nan,nan,nan,NaN
nan,nan,nan,NaN
nan,nan,nan,NaN
nan,nan,nan,NaN
nan,nan,nan,NaN
nan,nan,nan,NaN
nan,nan,nan,NaN
nan,nan,nan,NaN
nan,nan,nan,NaN
nan,nan,nan,NaN
nan,nan,nan,NaN
nan,nan,nan,NaN
nan,nan,nan,NaN
nan,nan,nan,NaN
nan,nan,nan,NaN
nan,nan,nan,NaN
nan,nan,nan,NaN
nan,nan,nan,NaN
nan,nan,nan,NaN
-1.19578,-0.384307,2.428,2.73364
-1.1879,-0.384307,2.428,2.7302
-1.18002,-0.384307,2.428,2.72678
-1.17214,-0.384307,2.428,2.72338
-1.16426,-0.384307,2.428,2.72
-1.15638,-0.384307,2.428,2.71663
-1.1485,-0.384307,2.428,2.71329
-1.13263,-0.381616,2.411,2.69099
-1.1248,-0.381616,2.411,2.6877
-1.11698,-0.381616,2.411,2.68444
-1.10915,-0.381616,2.411,2.68119
-1.10133,-0.381616,2.411,2.67796
-1.0935,-0.381616,2.411,2.67475
-1.09333,-0.384307,2.428,2.6904
-1.08545,-0.384307,2.428,2.68721
-1.07757,-0.384307,2.428,2.68403
-1.0622,-0.381616,2.411,2.66211
-1.05437,-0.381616,2.411,2.659
-1.04655,-0.381616,2.411,2.6559
-1.03872,-0.381616,2.411,2.65283
-1.0309,-0.381616,2.411,2.64977
-1.02307,-0.381616,2.411,2.64674
-1.01525,-0.381616,2.411,2.64372
-1.00742,-0.381616,2.411,2.64073
-0.999596,-0.381616,2.411,2.63775
-0.99177,-0.381616,2.411,2.6348
-0.983945,-0.381616,2.411,2.63186
-0.976119,-0.381616,2.411,2.62895
-0.968294,-0.381616,2.411,2.62605
-0.960468,-0.381616,2.411,2.62318
-0.952643,-0.381616,2.411,2.62032
-0.951479,-0.384307,2.428,2.63594
-0.936992,-0.381616,2.411,2.61467
-0.929166,-0.381616,2.411,2.61188
-0.921341,-0.381616,2.411,2.6091
-0.913515,-0.381616,2.411,2.60635
-0.90569,-0.381616,2.411,2.60362
-0.897864,-0.381616,2.411,2.60091
-0.890039,-0.381616,2.411,2.59821
-0.882213,-0.381616,2.411,2.59554
-0.874388,-0.381616,2.411,2.5929
-0.866562,-0.381616,2.411,2.59027
-0.858737,-0.381616,2.411,2.58766
-0.850911,-0.381616,2.411,2.58507
-0.843086,-0.381616,2.411,2.58251
-0.83526,-0.381616,2.411,2.57996
-0.827435,-0.381616,2.411,2.57744
-0.819609,-0.381616,2.411,2.57494
-0.811784,-0.381616,2.411,2.57246
-0.803958,-0.381616,2.411,2.57
-0.796133,-0.381616,2.411,2.56756
-0.788307,-0.381616,2.411,2.56515
-0.780482,-0.381616,2.411,2.56275
-0.772656,-0.381616,2.411,2.56038
-0.764831,-0.381616,2.411,2.55803
-0.757005,-0.381616,2.411,2.5557
-0.74918,-0.381616,2.411,2.55339
-0.741354,-0.381616,2.411,2.55111
-0.733529,-0.381616,2.411,2.54885
-0.73082,-0.384307,2.428,2.56456
-0.722939,-0.384307,2.428,2.56233
-0.715059,-0.384307,2.428,2.56011
-0.707178,-0.384307,2.428,2.55792
-0.704194,-0.386997,2.445,2.57365
-0.696258,-0.386997,2.445,2.57149
-0.688322,-0.386997,2.445,2.56935
-0.680386,-0.386997,2.445,2.56724
-0.67245,-0.386997,2.445,2.56515
-0.664514,-0.386997,2.445,2.56308
-0.656578,-0.386997,2.445,2.56103
-0.653418,-0.389846,2.463,2.57785
-0.645424,-0.389846,2.463,2.57583
-0.637429,-0.389846,2.463,2.57384
-0.629435,-0.389846,2.463,2.57187
-0.621441,-0.389846,2.463,2.56993
-0.613446,-0.389846,2.463,2.56801
-0.605452,-0.389846,2.463,2.56611
-0.597458,-0.389846,2.463,2.56424
-0.589464,-0.389846,2.463,2.56239
-0.585719,-0.392696,2.481,2.57927
-0.577666,-0.392696,2.481,2.57745
-0.569613,-0.392696,2.481,2.57566
-0.561561,-0.392696,2.481,2.57389
-0.553508,-0.392696,2.481,2.57215
-0.545455,-0.392696,2.481,2.57043
-0.537403,-0.392696,2.481,2.56873
-0.52935,-0.392696,2.481,2.56706
-0.521297,-0.392696,2.481,2.56541
-0.513244,-0.392696,2.481,2.56378
-0.505192,-0.392696,2.481,2.56218
-0.497139,-0.392696,2.481,2.56061
-0.489086,-0.392696,2.481,2.55906
-0.481034,-0.392696,2.481,2.55753
-0.472981,-0.392696,2.481,2.55603
-0.464928,-0.392696,2.481,2.55455
-0.456875,-0.392696,2.481,2.5531
-0.445566,-0.389846,2.463,2.53316
-0.437572,-0.389846,2.463,2.53176
-0.429578,-0.389846,2.463,2.53039
-0.421584,-0.389846,2.463,2.52905
-0.413589,-0.389846,2.463,2.52773
-0.405595,-0.389846,2.463,2.52643
-0.397601,-0.389846,2.463,2.52516
-0.389606,-0.389846,2.463,2.52391
-0.378823,-0.386997,2.445,2.50426
-0.370887,-0.386997,2.445,2.50307
-0.362952,-0.386997,2.445,2.5019
-0.355016,-0.386997,2.445,2.50077
-0.344667,-0.384307,2.428,2.48227
-0.336786,-0.384307,2.428,2.48119
-0.328905,-0.384307,2.428,2.48013
-0.321025,-0.384307,2.428,2.4791
-0.313144,-0.384307,2.428,2.47809
-0.305263,-0.384307,2.428,2.47711
-0.297382,-0.384307,2.428,2.47615
-0.289502,-0.384307,2.428,2.47521
-0.283593,-0.386997,2.445,2.49163
-0.275657,-0.386997,2.445,2.49074
-0.267721,-0.386997,2.445,2.48987
-0.257979,-0.384307,2.428,2.47173
-0.250098,-0.384307,2.428,2.47092
-0.242218,-0.384307,2.428,2.47013
-0.234337,-0.384307,2.428,2.46937
-0.228042,-0.386997,2.445,2.48592
-0.220106,-0.386997,2.445,2.4852
-0.21217,-0.386997,2.445,2.48451
-0.204234,-0.386997,2.445,2.48385
-0.196298,-0.386997,2.445,2.48321
-0.188363,-0.386997,2.445,2.48259
-0.180427,-0.386997,2.445,2.482
-0.172491,-0.386997,2.445,2.48144
-0.164555,-0.386997,2.445,2.4809
-0.156619,-0.386997,2.445,2.48039
-0.148683,-0.386997,2.445,2.4799
-0.140747,-0.386997,2.445,2.47944
-0.133789,-0.389846,2.463,2.49725
-0.125795,-0.389846,2.463,2.49683
-0.117801,-0.389846,2.463,2.49644
-0.109806,-0.389846,2.463,2.49608
-0.102556,-0.392696,2.481,2.51398
-0.0945035,-0.392696,2.481,2.51366
-0.0864508,-0.392696,2.481,2.51337
-0.0789668,-0.395545,2.499,2.53134
-0.0708557,-0.395545,2.499,2.5311
-0.0627446,-0.395545,2.499,2.53089
-0.0546334,-0.395545,2.499,2.5307
-0.0465223,-0.395545,2.499,2.53054
-0.0384112,-0.395545,2.499,2.5304
-0.0303,-0.395545,2.499,2.53029
-0.0221889,-0.395545,2.499,2.53021
-0.0139764,-0.392696,2.481,2.51192
-0.00592366,-0.392696,2.481,2.51189
0.00212905,-0.392696,2.481,2.51189
0.0101818,-0.392696,2.481,2.51191
0.0181022,-0.389846,2.463,2.49373
0.0260965,-0.389846,2.463,2.4938
0.0340907,-0.389846,2.463,2.49389
0.042085,-0.389846,2.463,2.49402
0.0500793,-0.389846,2.463,2.49416
0.0580736,-0.389846,2.463,2.49434
0.0660679,-0.389846,2.463,2.49454
0.0740622,-0.389846,2.463,2.49476
0.0820565,-0.389846,2.463,2.49501
0.0893926,-0.386997,2.445,2.47705
0.0973285,-0.386997,2.445,2.47735
0.105264,-0.386997,2.445,2.47767
0.1132,-0.386997,2.445,2.47802
0.121136,-0.386997,2.445,2.4784
0.129072,-0.386997,2.445,2.4788
0.138016,-0.389846,2.463,2.49748
0.146011,-0.389846,2.463,2.49793
0.154005,-0.389846,2.463,2.49841
0.161999,-0.389846,2.463,2.49892
0.169994,-0.389846,2.463,2.49945
0.177988,-0.389846,2.463,2.50001
0.187341,-0.392696,2.481,2.51886
0.195394,-0.392696,2.481,2.51947
0.203447,-0.392696,2.481,2.52011
0.2115,-0.392696,2.481,2.52077
0.221145,-0.395545,2.499,2.53976
0.229256,-0.395545,2.499,2.54048
0.237367,-0.395545,2.499,2.54122
0.245479,-0.395545,2.499,2.54199
0.25359,-0.395545,2.499,2.54279
0.263586,-0.398394,2.517,2.56193
0.271755,-0.398394,2.517,2.56278
0.279925,-0.398394,2.517,2.56366
0.288094,-0.398394,2.517,2.56457
0.296264,-0.398394,2.517,2.5655
0.304434,-0.398394,2.517,2.56645
0.312603,-0.398394,2.517,2.56744
0.320773,-0.398394,2.517,2.56844
0.331425,-0.401401,2.536,2.58887
0.339657,-0.401401,2.536,2.58994
0.347888,-0.401401,2.536,2.59103
0.356119,-0.401401,2.536,2.59215
0.36435,-0.401401,2.536,2.59329
0.36979,-0.398394,2.517,2.57502
0.37796,-0.398394,2.517,2.57621
0.386129,-0.398394,2.517,2.57742
0.394299,-0.398394,2.517,2.57866
0.402468,-0.398394,2.517,2.57992
0.410638,-0.398394,2.517,2.58121
0.418807,-0.398394,2.517,2.58252
0.426977,-0.398394,2.517,2.58386
0.435146,-0.398394,2.517,2.58522
0.443316,-0.398394,2.517,2.58661
0.451486,-0.398394,2.517,2.58802
0.459655,-0.398394,2.517,2.58946
0.467825,-0.398394,2.517,2.59092
0.475994,-0.398394,2.517,2.59241
0.484164,-0.398394,2.517,2.59392
0.492333,-0.398394,2.517,2.59546
0.500503,-0.398394,2.517,2.59702
0.508672,-0.398394,2.517,2.59861
0.516842,-0.398394,2.517,2.60022
0.525012,-0.398394,2.517,2.60185
0.533181,-0.398394,2.517,2.60351
0.545437,-0.401401,2.536,2.62487
0.553668,-0.401401,2.536,2.62659
0.5619,-0.401401,2.536,2.62834
0.570131,-0.401401,2.536,2.63011
0.578362,-0.401401,2.536,2.6319
0.586593,-0.401401,2.536,2.63373
0.594824,-0.401401,2.536,2.63557
0.603056,-0.401401,2.536,2.63744
0.611287,-0.401401,2.536,2.63934
0.619518,-0.401401,2.536,2.64125
0.627749,-0.401401,2.536,2.6432
0.631216,-0.398394,2.517,2.62535
0.639385,-0.398394,2.517,2.62732
0.652443,-0.401401,2.536,2.64917
0.660674,-0.401401,2.536,2.65121
0.663894,-0.398394,2.517,2.63339
0.672064,-0.398394,2.517,2.63547
0.680233,-0.398394,2.517,2.63756
0.688403,-0.398394,2.517,2.63968
0.691591,-0.395545,2.499,2.62293
0.699702,-0.395545,2.499,2.62508
0.707813,-0.395545,2.499,2.62725
0.710768,-0.392696,2.481,2.61051
0.71882,-0.392696,2.481,2.61271
0.726873,-0.392696,2.481,2.61494
0.729594,-0.389846,2.463,2.5982
0.737588,-0.389846,2.463,2.60046
0.745582,-0.389846,2.463,2.60274
0.753577,-0.389846,2.463,2.60504
0.761571,-0.389846,2.463,2.60736
0.769565,-0.389846,2.463,2.60971
0.777559,-0.389846,2.463,2.61208
0.785554,-0.389846,2.463,2.61447
0.793548,-0.389846,2.463,2.61688
0.801542,-0.389846,2.463,2.61932
0.809537,-0.389846,2.463,2.62177
0.823505,-0.392696,2.481,2.64343
0.831558,-0.392696,2.481,2.64595
0.839611,-0.392696,2.481,2.64849
0.847664,-0.392696,2.481,2.65106
0.855716,-0.392696,2.481,2.65364
0.863769,-0.392696,2.481,2.65625
0.871822,-0.392696,2.481,2.65888
0.879874,-0.392696,2.481,2.66153
0.887927,-0.392696,2.481,2.6642
0.89598,-0.392696,2.481,2.6669
0.904033,-0.392696,2.481,2.66962
0.905468,-0.389846,2.463,2.65296
0.913462,-0.389846,2.463,2.6557
0.921457,-0.389846,2.463,2.65846
0.929451,-0.389846,2.463,2.66125
0.937445,-0.389846,2.463,2.66405
0.945439,-0.389846,2.463,2.66687
0.953434,-0.389846,2.463,2.66972
0.961428,-0.389846,2.463,2.67258
0.962338,-0.386997,2.445,2.65592
0.970273,-0.386997,2.445,2.6588
0.978209,-0.386997,2.445,2.66171
0.986145,-0.386997,2.445,2.66463
0.994081,-0.386997,2.445,2.66758
1.00202,-0.386997,2.445,2.67055
1.00995,-0.386997,2.445,2.67354
1.02538,-0.389846,2.463,2.69625
1.03338,-0.389846,2.463,2.6993
nan,nan,nan,NaN
nan,nan,nan,NaN
nan,nan,nan,NaN
nan,nan,nan,NaN
1.29734,-0.471203,2.977,3.28141
1.30701,-0.471203,2.977,3.28524
1.31667,-0.471203,2.977,3.2891
1.32633,-0.471203,2.977,3.29298
1.34766,-0.475318,3.003,3.32568
1.36961,-0.479592,3.03,3.35958
1.37945,-0.479592,3.03,3.3636
1.38928,-0.479592,3.03,3.36764
1.41158,-0.483865,3.057,3.40176
1.42151,-0.483865,3.057,3.40589
1.43143,-0.483865,3.057,3.41004
1.44135,-0.483865,3.057,3.41422
1.45127,-0.483865,3.057,3.41842
1.4612,-0.483865,3.057,3.42264
1.47112,-0.483865,3.057,3.42689
1.48104,-0.483865,3.057,3.43116
1.49096,-0.483865,3.057,3.43545
1.50089,-0.483865,3.057,3.43977
1.51081,-0.483865,3.057,3.44411
1.52073,-0.483865,3.057,3.44848
1.53065,-0.483865,3.057,3.45286
1.54057,-0.483865,3.057,3.45727
1.5505,-0.483865,3.057,3.46171
1.5742,-0.488139,3.084,3.49678
1.59859,-0.492571,3.112,3.53308
1.60869,-0.492571,3.112,3.53766
1.64897,-0.501751,3.17,3.60829
1.73986,-0.526127,3.324,3.78852
nan,nan,nan,NaN
nan,nan,nan,NaN
nan,nan,nan,NaN
nan,nan,nan,NaN
1.9244,-0.564431,3.566,4.09124
1.93598,-0.564431,3.566,4.0967
1.98906,-0.57646,3.642,4.18961
2.00088,-0.57646,3.642,4.19523
1.9917,-0.570445,3.604,4.15705
2.0034,-0.570445,3.604,4.16267
2.0151,-0.570445,3.604,4.16831
2.00542,-0.564431,3.566,4.12997
1.99607,-0.558574,3.529,4.09269
2.00752,-0.558574,3.529,4.09829
1.99838,-0.552876,3.493,4.06205
2.00972,-0.552876,3.493,4.06764
2.02106,-0.552876,3.493,4.07325
2.03239,-0.552876,3.493,4.07889
2.02325,-0.547336,3.458,4.04362
2.03448,-0.547336,3.458,4.04925
2.025,-0.541796,3.423,4.01386
2.01588,-0.536415,3.389,3.97955
2.00714,-0.531192,3.356,3.94633
2.01804,-0.531192,3.356,3.95188
2.00958,-0.526127,3.324,3.91972
1.98147,-0.515997,3.26,3.84969
1.99205,-0.515997,3.26,3.85514
1.98421,-0.511248,3.23,3.82509
1.95764,-0.501751,3.17,3.75939
1.96793,-0.501751,3.17,3.76476
1.94202,-0.492571,3.112,3.70116
1.90068,-0.479592,3.03,3.60881
1.91052,-0.479592,3.03,3.614
1.88676,-0.471203,2.977,3.5559
1.87986,-0.467088,2.951,3.52994
1.88944,-0.467088,2.951,3.53505
1.86684,-0.459174,2.901,3.48019
1.84521,-0.451576,2.853,3.42759
1.85447,-0.451576,2.853,3.43258
1.83303,-0.444137,2.806,3.38096
1.8126,-0.437014,2.761,3.33161
1.82156,-0.437014,2.761,3.33649
1.81593,-0.433532,2.739,3.31477
1.81017,-0.43005,2.717,3.29298
1.79087,-0.423402,2.675,3.24686
1.79955,-0.423402,2.675,3.25166
1.79404,-0.420078,2.654,3.23091
1.78839,-0.416754,2.633,3.21009
-2.30597,-0.515341,3.324,4.07824
-2.29518,-0.515341,3.324,4.07215
-2.28439,-0.515341,3.324,4.06608
-2.2736,-0.515341,3.324,4.06003
-2.2846,-0.520302,3.356,4.09302
-2.29606,-0.525418,3.389,4.12714
-2.28506,-0.525418,3.389,4.12103
-2.25192,-0.520302,3.356,4.07487
-2.24102,-0.520302,3.356,4.06886
-2.23013,-0.520302,3.356,4.06287
-2.24106,-0.525418,3.389,4.0968
-2.23006,-0.525418,3.389,4.09079
-2.21906,-0.525418,3.389,4.0848
-2.20806,-0.525418,3.389,4.07884
-2.2191,-0.530689,3.423,4.11376
-2.20799,-0.530689,3.423,4.10777
-2.19688,-0.530689,3.423,4.10181
-2.18577,-0.530689,3.423,4.09587
-2.17466,-0.530689,3.423,4.08995
-2.16355,-0.530689,3.423,4.08406
-2.17445,-0.536116,3.458,4.11988
-2.18512,-0.541542,3.493,4.15561
-2.152,-0.536116,3.458,4.10808
-2.14078,-0.536116,3.458,4.10221
-2.108,-0.530689,3.423,4.0549
-2.09689,-0.530689,3.423,4.04914
-2.08578,-0.530689,3.423,4.0434
-2.05406,-0.525418,3.389,3.99757
-2.04306,-0.525418,3.389,3.99193
-2.03206,-0.525418,3.389,3.98631
-2.04134,-0.530689,3.423,4.02065
nan,nan,nan,NaN
nan,nan,nan,NaN
nan,nan,nan,NaN
nan,nan,nan,NaN
nan,nan,nan,NaN
nan,nan,nan,NaN
nan,nan,nan,NaN
nan,nan,nan,NaN
nan,nan,nan,NaN
nan,nan,nan,NaN
nan,nan,nan,NaN
nan,nan,nan,NaN
nan,nan,nan,NaN
nan,nan,nan,NaN
nan,nan,nan,NaN
nan,nan,nan,NaN
nan,nan,nan,NaN
nan,nan,nan,NaN
nan,nan,nan,NaN
nan,nan,nan,NaN
nan,nan,nan,NaN
nan,nan,nan,NaN
nan,nan,nan,NaN
nan,nan,nan,NaN
nan,nan,nan,NaN
nan,nan,nan,NaN
nan,nan,nan,NaN
nan,nan,nan,NaN
nan,nan,nan,NaN
nan,nan,nan,NaN
nan,nan,nan,NaN
-1.19578,-0.376428,2.428,2.73254
-1.1879,-0.376428,2.428,2.7291
-1.18002,-0.376428,2.428,2.72568
-1.17214,-0.376428,2.428,2.72228
-1.16426,-0.376428,2.428,2.71889
-1.15638,-0.376428,2.428,2.71553
-1.1485,-0.376428,2.428,2.71218
-1.14062,-0.376428,2.428,2.70885
-1.13274,-0.376428,2.428,2.70554
-1.12485,-0.376428,2.428,2.70225
-1.11697,-0.376428,2.428,2.69898
-1.10909,-0.376428,2.428,2.69573
-1.10121,-0.376428,2.428,2.6925
-1.09333,-0.376428,2.428,2.68929
-1.08545,-0.376428,2.428,2.68609
-1.07757,-0.376428,2.428,2.68292
-1.06969,-0.376428,2.428,2.67976
-1.05437,-0.373793,2.411,2.65788
-1.04655,-0.373793,2.411,2.65479
-1.03872,-0.373793,2.411,2.65171
-1.0309,-0.373793,2.411,2.64866
-1.03029,-0.376428,2.428,2.66428
-1.02241,-0.376428,2.428,2.66124
-1.01452,-0.376428,2.428,2.65822
-1.00664,-0.376428,2.428,2.65522
-0.99177,-0.373793,2.411,2.63368
-0.983945,-0.373793,2.411,2.63074
-0.976119,-0.373793,2.411,2.62782
-0.968294,-0.373793,2.411,2.62493
-0.960468,-0.373793,2.411,2.62205
-0.952643,-0.373793,2.411,2.61919
-0.951479,-0.376428,2.428,2.6348
-0.943599,-0.376428,2.428,2.63197
-0.929166,-0.373793,2.411,2.61075
-0.921341,-0.373793,2.411,2.60797
-0.913515,-0.373793,2.411,2.60522
-0.90569,-0.373793,2.411,2.60248
-0.897864,-0.373793,2.411,2.59977
-0.890039,-0.373793,2.411,2.59708
-0.882213,-0.373793,2.411,2.59441
-0.874388,-0.373793,2.411,2.59176
-0.872672,-0.376428,2.428,2.60738
-0.864792,-0.376428,2.428,2.60475
-0.856911,-0.376428,2.428,2.60215
-0.84903,-0.376428,2.428,2.59956
-0.84115,-0.376428,2.428,2.597
-0.833269,-0.376428,2.428,2.59446
-0.825388,-0.376428,2.428,2.59194
-0.817508,-0.376428,2.428,2.58944
-0.809627,-0.376428,2.428,2.58696
-0.801746,-0.376428,2.428,2.58451
-0.793866,-0.376428,2.428,2.58207
-0.785985,-0.376428,2.428,2.57966
-0.778104,-0.376428,2.428,2.57727
-0.770224,-0.376428,2.428,2.5749
-0.762343,-0.376428,2.428,2.57256
-0.754462,-0.376428,2.428,2.57023
-0.746581,-0.376428,2.428,2.56793
-0.738701,-0.376428,2.428,2.56565
-0.73082,-0.376428,2.428,2.56339
-0.722939,-0.376428,2.428,2.56116
-0.720065,-0.379064,2.445,2.57686
-0.712129,-0.379064,2.445,2.57465
-0.704194,-0.379064,2.445,2.57247
-0.696258,-0.379064,2.445,2.57031
-0.688322,-0.379064,2.445,2.56817
-0.680386,-0.379064,2.445,2.56606
-0.67245,-0.379064,2.445,2.56396
-0.664514,-0.379064,2.445,2.56189
-0.661412,-0.381854,2.463,2.57869
-0.653418,-0.381854,2.463,2.57665
-0.645424,-0.381854,2.463,2.57464
-0.637429,-0.381854,2.463,2.57264
-0.629435,-0.381854,2.463,2.57068
-0.621441,-0.381854,2.463,2.56873
-0.613446,-0.381854,2.463,2.56681
-0.605452,-0.381854,2.463,2.56491
-0.601824,-0.384645,2.481,2.58176
-0.593771,-0.384645,2.481,2.5799
-0.585719,-0.384645,2.481,2.57806
-0.577666,-0.384645,2.481,2.57624
-0.569613,-0.384645,2.481,2.57445
-0.561561,-0.384645,2.481,2.57268
-0.553508,-0.384645,2.481,2.57093
-0.545455,-0.384645,2.481,2.56921
-0.537403,-0.384645,2.481,2.56751
-0.52935,-0.384645,2.481,2.56584
-0.521297,-0.384645,2.481,2.56419
-0.513244,-0.384645,2.481,2.56256
-0.505192,-0.384645,2.481,2.56096
-0.497139,-0.384645,2.481,2.55939
-0.489086,-0.384645,2.481,2.55783
-0.481034,-0.384645,2.481,2.55631
-0.472981,-0.384645,2.481,2.5548
-0.464928,-0.384645,2.481,2.55333
-0.456875,-0.384645,2.481,2.55187
-0.448823,-0.384645,2.481,2.55044
-0.44077,-0.384645,2.481,2.54904
-0.429578,-0.381854,2.463,2.52917
-0.421584,-0.381854,2.463,2.52783
-0.413589,-0.381854,2.463,2.52651
-0.405595,-0.381854,2.463,2.52521
-0.397601,-0.381854,2.463,2.52394
-0.389606,-0.381854,2.463,2.52269
-0.378823,-0.379064,2.445,2.50304
-0.370887,-0.379064,2.445,2.50185
-0.362952,-0.379064,2.445,2.50069
-0.355016,-0.379064,2.445,2.49955
-0.344667,-0.376428,2.428,2.48106
-0.336786,-0.376428,2.428,2.47998
-0.328905,-0.376428,2.428,2.47892
-0.321025,-0.376428,2.428,2.47789
-0.313144,-0.376428,2.428,2.47688
-0.305263,-0.376428,2.428,2.4759
-0.297382,-0.376428,2.428,2.47494
-0.289502,-0.376428,2.428,2.474
-0.283593,-0.379064,2.445,2.49041
-0.275657,-0.379064,2.445,2.48952
-0.267721,-0.379064,2.445,2.48865
-0.257979,-0.376428,2.428,2.47051
-0.250098,-0.376428,2.428,2.4697
-0.242218,-0.376428,2.428,2.46892
-0.234337,-0.376428,2.428,2.46816
-0.228042,-0.379064,2.445,2.4847
-0.220106,-0.379064,2.445,2.48398
-0.21217,-0.379064,2.445,2.48329
-0.204234,-0.379064,2.445,2.48263
-0.196298,-0.379064,2.445,2.48198
-0.188363,-0.379064,2.445,2.48137
-0.180427,-0.379064,2.445,2.48078
-0.172491,-0.379064,2.445,2.48022
-0.164555,-0.379064,2.445,2.47968
-0.156619,-0.379064,2.445,2.47916
-0.148683,-0.379064,2.445,2.47867
-0.140747,-0.379064,2.445,2.47821
-0.132812,-0.379064,2.445,2.47777
-0.124876,-0.379064,2.445,2.47736
-0.11694,-0.379064,2.445,2.47697
-0.109004,-0.379064,2.445,2.47661
-0.101812,-0.381854,2.463,2.4945
-0.0945035,-0.384645,2.481,2.51242
-0.0864508,-0.384645,2.481,2.51213
-0.078398,-0.384645,2.481,2.51186
-0.0703453,-0.384645,2.481,2.51163
-0.0622926,-0.384645,2.481,2.51141
-0.0542399,-0.384645,2.481,2.51123
-0.0461872,-0.384645,2.481,2.51107
-0.0381345,-0.384645,2.481,2.51093
-0.0300818,-0.384645,2.481,2.51082
-0.0220291,-0.384645,2.481,2.51074
-0.0139764,-0.384645,2.481,2.51068
-0.00592366,-0.384645,2.481,2.51065
0.00212905,-0.384645,2.481,2.51064
0.0101818,-0.384645,2.481,2.51066
0.0181022,-0.381854,2.463,2.49249
0.0260965,-0.381854,2.463,2.49256
0.0340907,-0.381854,2.463,2.49266
0.042085,-0.381854,2.463,2.49278
0.0500793,-0.381854,2.463,2.49293
0.0580736,-0.381854,2.463,2.4931
0.0660679,-0.381854,2.463,2.4933
0.0735209,-0.379064,2.445,2.4753
0.0814568,-0.379064,2.445,2.47555
0.0893926,-0.379064,2.445,2.47582
0.0973285,-0.379064,2.445,2.47612
0.105264,-0.379064,2.445,2.47645
0.1132,-0.379064,2.445,2.4768
0.121136,-0.379064,2.445,2.47717
0.129072,-0.379064,2.445,2.47757
0.138016,-0.381854,2.463,2.49624
0.146011,-0.381854,2.463,2.4967
0.154005,-0.381854,2.463,2.49718
0.161999,-0.381854,2.463,2.49768
0.169994,-0.381854,2.463,2.49822
0.177988,-0.381854,2.463,2.49877
0.187341,-0.384645,2.481,2.51762
0.195394,-0.384645,2.481,2.51823
0.203447,-0.384645,2.481,2.51887
0.2115,-0.384645,2.481,2.51953
0.221145,-0.387436,2.499,2.53851
0.229256,-0.387436,2.499,2.53923
0.237367,-0.387436,2.499,2.53997
0.245479,-0.387436,2.499,2.54074
0.25359,-0.387436,2.499,2.54154
0.261701,-0.387436,2.499,2.54236
0.269812,-0.387436,2.499,2.54321
0.279925,-0.390226,2.517,2.56241
0.288094,-0.390226,2.517,2.56331
0.296264,-0.390226,2.517,2.56424
0.304434,-0.390226,2.517,2.5652
0.312603,-0.390226,2.517,2.56618
0.320773,-0.390226,2.517,2.56719
0.328942,-0.390226,2.517,2.56822
0.337112,-0.390226,2.517,2.56928
0.345281,-0.390226,2.517,2.57037
0.353451,-0.390226,2.517,2.57148
0.36162,-0.390226,2.517,2.57261
0.36979,-0.390226,2.517,2.57377
0.37796,-0.390226,2.517,2.57496
0.386129,-0.390226,2.517,2.57617
0.394299,-0.390226,2.517,2.57741
0.402468,-0.390226,2.517,2.57867
0.410638,-0.390226,2.517,2.57996
0.418807,-0.390226,2.517,2.58127
0.426977,-0.390226,2.517,2.58261
0.435146,-0.390226,2.517,2.58397
0.443316,-0.390226,2.517,2.58536
0.451486,-0.390226,2.517,2.58678
0.459655,-0.390226,2.517,2.58821
0.464479,-0.387436,2.499,2.57116
0.47259,-0.387436,2.499,2.57263
0.480701,-0.387436,2.499,2.57414
0.488812,-0.387436,2.499,2.57566
0.496924,-0.387436,2.499,2.57722
0.505035,-0.387436,2.499,2.57879
0.513146,-0.387436,2.499,2.58039
0.521257,-0.387436,2.499,2.58202
0.529368,-0.387436,2.499,2.58367
0.541351,-0.390226,2.517,2.60396
0.54952,-0.390226,2.517,2.60567
0.55769,-0.390226,2.517,2.60741
0.565859,-0.390226,2.517,2.60917
0.574029,-0.390226,2.517,2.61095
0.582199,-0.390226,2.517,2.61276
0.590368,-0.390226,2.517,2.61459
0.598538,-0.390226,2.517,2.61645
0.606707,-0.390226,2.517,2.61833
0.614877,-0.390226,2.517,2.62024
0.623046,-0.390226,2.517,2.62217
0.631216,-0.390226,2.517,2.62412
0.639385,-0.390226,2.517,2.6261
0.647555,-0.390226,2.517,2.6281
0.651035,-0.387436,2.499,2.61131
0.659146,-0.387436,2.499,2.61335
0.667257,-0.387436,2.499,2.6154
0.675369,-0.387436,2.499,2.61749
0.68348,-0.387436,2.499,2.61959
0.686609,-0.384645,2.481,2.60283
0.694662,-0.384645,2.481,2.60497
0.702715,-0.384645,2.481,2.60713
0.710768,-0.384645,2.481,2.60931
0.71882,-0.384645,2.481,2.61152
0.721599,-0.381854,2.463,2.59478
0.729594,-0.381854,2.463,2.59702
0.737588,-0.381854,2.463,2.59927
0.745582,-0.381854,2.463,2.60155
0.753577,-0.381854,2.463,2.60385
0.761571,-0.381854,2.463,2.60618
0.769565,-0.381854,2.463,2.60853
0.777559,-0.381854,2.463,2.6109
0.785554,-0.381854,2.463,2.61329
0.793548,-0.381854,2.463,2.6157
0.801542,-0.381854,2.463,2.61814
0.809537,-0.381854,2.463,2.6206
0.817531,-0.381854,2.463,2.62308
0.825525,-0.381854,2.463,2.62558
0.839611,-0.384645,2.481,2.64731
0.847664,-0.384645,2.481,2.64988
0.855716,-0.384645,2.481,2.65246
0.863769,-0.384645,2.481,2.65507
0.871822,-0.384645,2.481,2.6577
0.879874,-0.384645,2.481,2.66036
0.881485,-0.381854,2.463,2.64371
0.889479,-0.381854,2.463,2.64639
0.897474,-0.381854,2.463,2.64908
0.905468,-0.381854,2.463,2.6518
0.913462,-0.381854,2.463,2.65454
0.921457,-0.381854,2.463,2.6573
0.929451,-0.381854,2.463,2.66009
0.937445,-0.381854,2.463,2.66289
0.945439,-0.381854,2.463,2.66572
0.946466,-0.379064,2.445,2.64906
0.954402,-0.379064,2.445,2.6519
0.962338,-0.379064,2.445,2.65477
0.970273,-0.379064,2.445,2.65766
0.978209,-0.379064,2.445,2.66057
0.993405,-0.381854,2.463,2.6831
1.0014,-0.381854,2.463,2.68607
1.00939,-0.381854,2.463,2.68906
1.01739,-0.381854,2.463,2.69207
1.02538,-0.381854,2.463,2.69511
1.03338,-0.381854,2.463,2.69816
nan,nan,nan,NaN
nan,nan,nan,NaN
nan,nan,nan,NaN
nan,nan,nan,NaN
1.29734,-0.461543,2.977,3.28004
1.30701,-0.461543,2.977,3.28387
1.31667,-0.461543,2.977,3.28773
1.32633,-0.461543,2.977,3.29161
1.35978,-0.46976,3.03,3.35419
1.36961,-0.46976,3.03,3.35819
1.37945,-0.46976,3.03,3.36221
1.38928,-0.46976,3.03,3.36626
1.41158,-0.473946,3.057,3.40036
1.42151,-0.473946,3.057,3.40449
1.43143,-0.473946,3.057,3.40865
1.44135,-0.473946,3.057,3.41282
1.45127,-0.473946,3.057,3.41703
1.4612,-0.473946,3.057,3.42125
1.47112,-0.473946,3.057,3.4255
1.48104,-0.473946,3.057,3.42977
1.49096,-0.473946,3.057,3.43407
1.50089,-0.473946,3.057,3.43839
1.51081,-0.473946,3.057,3.44273
1.52073,-0.473946,3.057,3.4471
1.53065,-0.473946,3.057,3.45149
1.55418,-0.478132,3.084,3.48642
1.56419,-0.478132,3.084,3.4909
1.5742,-0.478132,3.084,3.49539
1.61349,-0.486969,3.141,3.5646
1.62369,-0.486969,3.141,3.56923
1.66405,-0.495961,3.199,3.63987
nan,nan,nan,NaN
nan,nan,nan,NaN
nan,nan,nan,NaN
nan,nan,nan,NaN
nan,nan,nan,NaN
1.9244,-0.552859,3.566,4.08966
1.93598,-0.552859,3.566,4.09512
1.98906,-0.564642,3.642,4.188
2.00088,-0.564642,3.642,4.19363
1.9917,-0.558751,3.604,4.15546
2.0034,-0.558751,3.604,4.16108
2.0151,-0.558751,3.604,4.16673
2.00542,-0.552859,3.566,4.12841
1.99607,-0.547123,3.529,4.09115
2.00752,-0.547123,3.529,4.09675
2.01898,-0.547123,3.529,4.10237
2.03043,-0.547123,3.529,4.10802
2.04189,-0.547123,3.529,4.11369
2.03239,-0.541542,3.493,4.07737
2.04373,-0.541542,3.493,4.08303
2.05507,-0.541542,3.493,4.08872
2.0457,-0.536116,3.458,4.0534
2.03611,-0.530689,3.423,4.018
2.00714,-0.520302,3.356,3.94488
2.01804,-0.520302,3.356,3.95043
2.00958,-0.515341,3.324,3.91829
1.98147,-0.505418,3.26,3.84828
1.99205,-0.505418,3.26,3.85374
1.98421,-0.500767,3.23,3.82371
1.95764,-0.491465,3.17,3.75803
1.96793,-0.491465,3.17,3.7634
1.94202,-0.482473,3.112,3.69983
1.90068,-0.46976,3.03,3.60752
1.91052,-0.46976,3.03,3.61271
1.88676,-0.461543,2.977,3.55463
1.87986,-0.457512,2.951,3.52868
1.88944,-0.457512,2.951,3.53379
1.86684,-0.44976,2.901,3.47896
1.84521,-0.442319,2.853,3.42638
1.85447,-0.442319,2.853,3.43137
1.83303,-0.435032,2.806,3.37978
1.8126,-0.428055,2.761,3.33044
1.82156,-0.428055,2.761,3.33533
1.81593,-0.424644,2.739,3.31362
1.81017,-0.421234,2.717,3.29184
1.79087,-0.414722,2.675,3.24574
1.79955,-0.414722,2.675,3.25054
1.79404,-0.411466,2.654,3.2298
1.78839,-0.408211,2.633,3.209
-2.28377,-0.499698,3.292,4.03764
-2.29518,-0.504555,3.324,4.0708
-2.28439,-0.504555,3.324,4.06472
-2.2736,-0.504555,3.324,4.05867
-2.2846,-0.509412,3.356,4.09165
-2.29606,-0.514421,3.389,4.12575
-2.28506,-0.514421,3.389,4.11964
-2.27406,-0.514421,3.389,4.11355
-2.26306,-0.514421,3.389,4.10748
-2.25206,-0.514421,3.389,4.10143
-2.24106,-0.514421,3.389,4.0954
-2.23006,-0.514421,3.389,4.08939
-2.21906,-0.514421,3.389,4.0834
-2.20806,-0.514421,3.389,4.07744
-2.2191,-0.519582,3.423,4.11234
-2.20799,-0.519582,3.423,4.10635
-2.19688,-0.519582,3.423,4.10039
-2.18577,-0.519582,3.423,4.09445
-2.17466,-0.519582,3.423,4.08853
-2.16355,-0.519582,3.423,4.08263
-2.17445,-0.524895,3.458,4.11844
-2.18512,-0.530208,3.493,4.15415
-2.17379,-0.530208,3.493,4.14819
-2.14078,-0.524895,3.458,4.10076
-2.12956,-0.524895,3.458,4.09491
-2.11833,-0.524895,3.458,4.08908
-2.08578,-0.519582,3.423,4.04195
-2.07467,-0.519582,3.423,4.03623
-2.06356,-0.519582,3.423,4.03053
-2.05245,-0.519582,3.423,4.02485
-2.04134,-0.519582,3.423,4.0192
nan,nan,nan,NaN
nan,nan,nan,NaN
nan,nan,nan,NaN
nan,nan,nan,NaN
nan,nan,nan,NaN
nan,nan,nan,NaN
nan,nan,nan,NaN
nan,nan,nan,NaN
nan,nan,nan,NaN
nan,nan,nan,NaN
nan,nan,nan,NaN
nan,nan,nan,NaN
nan,nan,nan,NaN
nan,nan,nan,NaN
nan,nan,nan,NaN
nan,nan,nan,NaN
nan,nan,nan,NaN
nan,nan,nan,NaN
nan,nan,nan,NaN
nan,nan,nan,NaN
nan,nan,nan,NaN
nan,nan,nan,NaN
nan,nan,nan,NaN
nan,nan,nan,NaN
nan,nan,nan,NaN
nan,nan,nan,NaN
nan,nan,nan,NaN
nan,nan,nan,NaN
nan,nan,nan,NaN
nan,nan,nan,NaN
nan,nan,nan,NaN
-1.20415,-0.37113,2.445,2.75059
-1.19622,-0.37113,2.445,2.74713
-1.18828,-0.37113,2.445,2.74368
-1.18035,-0.37113,2.445,2.74025
-1.17241,-0.37113,2.445,2.73684
-1.16447,-0.37113,2.445,2.73345
-1.15654,-0.37113,2.445,2.73008
-1.14062,-0.36855,2.428,2.70777
-1.13274,-0.36855,2.428,2.70446
-1.12485,-0.36855,2.428,2.70117
-1.11697,-0.36855,2.428,2.6979
-1.10909,-0.36855,2.428,2.69464
-1.10121,-0.36855,2.428,2.69141
-1.09333,-0.36855,2.428,2.68819
-1.08545,-0.36855,2.428,2.685
-1.07757,-0.36855,2.428,2.68182
-1.06969,-0.36855,2.428,2.67867
-1.06181,-0.36855,2.428,2.67553
-1.05393,-0.36855,2.428,2.67241
-1.04605,-0.36855,2.428,2.66931
-1.03817,-0.36855,2.428,2.66623
-1.03029,-0.36855,2.428,2.66318
-1.02241,-0.36855,2.428,2.66014
-1.01452,-0.36855,2.428,2.65712
-1.00664,-0.36855,2.428,2.65412
-0.998763,-0.36855,2.428,2.65114
-0.990883,-0.36855,2.428,2.64818
