1.99631,-0.361018,3.199,3.78803
1.97031,-0.354473,3.141,3.72474
1.98051,-0.354473,3.141,3.73014
1.95458,-0.34804,3.084,3.66777
1.93019,-0.341946,3.03,3.6088
1.94002,-0.341946,3.03,3.61407
1.89902,-0.33303,2.951,3.52499
1.87626,-0.327388,2.901,3.47035
1.85447,-0.321971,2.853,3.41795
1.86373,-0.321971,2.853,3.42298
1.84214,-0.316667,2.806,3.37156
1.82156,-0.311588,2.761,3.32239
1.83052,-0.311588,2.761,3.32731
1.81017,-0.306623,2.717,3.27915
1.80493,-0.304253,2.696,3.25864
1.81368,-0.304253,2.696,3.2635
1.79404,-0.299513,2.654,3.21745
1.78839,-0.297143,2.633,3.19677
-2.24076,-0.354036,3.23,3.94705
-2.23027,-0.354036,3.23,3.94111
-2.24041,-0.357324,3.26,3.97174
-2.22983,-0.357324,3.26,3.96578
-2.21924,-0.357324,3.26,3.95984
-2.20866,-0.357324,3.26,3.95392
-2.19808,-0.357324,3.26,3.94802
-2.20897,-0.360831,3.292,3.98083
-2.21966,-0.364339,3.324,4.01355
-2.20887,-0.364339,3.324,4.0076
-2.19808,-0.364339,3.324,4.00166
-2.20835,-0.367846,3.356,4.03421
-2.19745,-0.367846,3.356,4.02826
-2.18656,-0.367846,3.356,4.02233
-2.19706,-0.371464,3.389,4.05591
-2.18606,-0.371464,3.389,4.04996
-2.17506,-0.371464,3.389,4.04403
-2.18577,-0.37519,3.423,4.07864
-2.1969,-0.379027,3.458,4.11434
-2.18568,-0.379027,3.458,4.10836
-2.19646,-0.382863,3.493,4.14392
-2.18512,-0.382863,3.493,4.13792
-2.17379,-0.382863,3.493,4.13195
-2.16245,-0.382863,3.493,4.12599
-2.12956,-0.379027,3.458,4.07878
-2.11833,-0.379027,3.458,4.07293
-2.10711,-0.379027,3.458,4.0671
-2.1171,-0.382863,3.493,4.10241
-2.10576,-0.382863,3.493,4.09657
-2.07344,-0.379027,3.458,4.04976
-2.06221,-0.379027,3.458,4.04403
nan,nan,nan,NaN
nan,nan,nan,NaN
nan,nan,nan,NaN
nan,nan,nan,NaN
nan,nan,nan,NaN
nan,nan,nan,NaN
nan,nan,nan,NaN
nan,nan,nan,NaN
nan,nan,nan,NaN
nan,nan,nan,NaN
nan,nan,nan,NaN
nan,nan,nan,NaN
nan,nan,nan,NaN
nan,nan,nan,NaN
nan,nan,nan,NaN
nan,nan,nan,NaN
nan,nan,nan,NaN
nan,nan,nan,NaN
nan,nan,nan,NaN
nan,nan,nan,NaN
nan,nan,nan,NaN
nan,nan,nan,NaN
nan,nan,nan,NaN
nan,nan,nan,NaN
nan,nan,nan,NaN
nan,nan,nan,NaN
nan,nan,nan,NaN
nan,nan,nan,NaN
nan,nan,nan,NaN
nan,nan,nan,NaN
nan,nan,nan,NaN
-1.20415,-0.267993,2.445,2.73858
-1.19622,-0.267993,2.445,2.7351
-1.18828,-0.267993,2.445,2.73164
-1.18035,-0.267993,2.445,2.7282
-1.17241,-0.267993,2.445,2.72477
-1.16447,-0.267993,2.445,2.72137
-1.15654,-0.267993,2.445,2.71798
-1.1486,-0.267993,2.445,2.71461
-1.14067,-0.267993,2.445,2.71127
-1.12485,-0.26613,2.428,2.68911
-1.11697,-0.26613,2.428,2.68582
-1.10909,-0.26613,2.428,2.68255
-1.10121,-0.26613,2.428,2.67931
-1.09333,-0.26613,2.428,2.67608
-1.08545,-0.26613,2.428,2.67287
-1.07757,-0.26613,2.428,2.66968
-1.06969,-0.26613,2.428,2.6665
-1.05437,-0.264266,2.411,2.6447
-1.04655,-0.264266,2.411,2.64159
-1.03872,-0.264266,2.411,2.6385
-1.0309,-0.264266,2.411,2.63543
-1.02307,-0.264266,2.411,2.63238
-1.01525,-0.264266,2.411,2.62935
-1.00742,-0.264266,2.411,2.62634
-0.999596,-0.264266,2.411,2.62335
-0.984778,-0.262403,2.394,2.6019
-0.977007,-0.262403,2.394,2.59897
-0.969237,-0.262403,2.394,2.59606
-0.961466,-0.262403,2.394,2.59317
-0.953696,-0.262403,2.394,2.5903
-0.945926,-0.262403,2.394,2.58744
-0.938156,-0.262403,2.394,2.58461
-0.923778,-0.26054,2.377,2.56347
-0.916063,-0.26054,2.377,2.5607
-0.908348,-0.26054,2.377,2.55795
-0.900633,-0.26054,2.377,2.55522
-0.892918,-0.26054,2.377,2.55251
-0.885203,-0.26054,2.377,2.54982
-0.877488,-0.26054,2.377,2.54715
-0.869772,-0.26054,2.377,2.54451
-0.862057,-0.26054,2.377,2.54188
-0.854342,-0.26054,2.377,2.53927
-0.846627,-0.26054,2.377,2.53669
-0.838912,-0.26054,2.377,2.53412
-0.831197,-0.26054,2.377,2.53158
-0.823481,-0.26054,2.377,2.52906
-0.821601,-0.262403,2.394,2.54463
-0.81383,-0.262403,2.394,2.54213
-0.80606,-0.262403,2.394,2.53965
-0.79829,-0.262403,2.394,2.53719
-0.790519,-0.262403,2.394,2.53476
-0.782749,-0.262403,2.394,2.53235
-0.774979,-0.262403,2.394,2.52996
-0.772656,-0.264266,2.411,2.54554
-0.764831,-0.264266,2.411,2.54317
-0.757005,-0.264266,2.411,2.54083
-0.74918,-0.264266,2.411,2.53851
-0.741354,-0.264266,2.411,2.53621
-0.738701,-0.26613,2.428,2.5518
-0.73082,-0.26613,2.428,2.54953
-0.722939,-0.26613,2.428,2.54728
-0.715059,-0.26613,2.428,2.54506
-0.707178,-0.26613,2.428,2.54285
-0.699297,-0.26613,2.428,2.54067
-0.691417,-0.26613,2.428,2.53852
-0.683536,-0.26613,2.428,2.53638
-0.680386,-0.267993,2.445,2.55201
-0.67245,-0.267993,2.445,2.54991
-0.664514,-0.267993,2.445,2.54783
-0.661412,-0.269966,2.463,2.56451
-0.653418,-0.269966,2.463,2.56246
-0.645424,-0.269966,2.463,2.56043
-0.637429,-0.269966,2.463,2.55843
-0.629435,-0.269966,2.463,2.55645
-0.625982,-0.271939,2.481,2.57316
-0.61793,-0.271939,2.481,2.57122
-0.609877,-0.271939,2.481,2.56929
-0.601824,-0.271939,2.481,2.56739
-0.593771,-0.271939,2.481,2.56552
-0.589968,-0.273912,2.499,2.58226
-0.586048,-0.275885,2.517,2.59901
-0.577879,-0.275885,2.517,2.59718
-0.569709,-0.275885,2.517,2.59537
-0.561539,-0.275885,2.517,2.59359
-0.55337,-0.275885,2.517,2.59184
-0.5452,-0.275885,2.517,2.59011
-0.53319,-0.273912,2.499,2.56989
-0.525079,-0.273912,2.499,2.56822
-0.516968,-0.273912,2.499,2.56657
-0.508857,-0.273912,2.499,2.56495
-0.500746,-0.273912,2.499,2.56335
-0.492635,-0.273912,2.499,2.56178
-0.484524,-0.273912,2.499,2.56023
-0.476412,-0.273912,2.499,2.55871
-0.468301,-0.273912,2.499,2.55721
-0.46019,-0.273912,2.499,2.55574
-0.452079,-0.273912,2.499,2.55429
-0.443968,-0.273912,2.499,2.55287
-0.435857,-0.273912,2.499,2.55147
-0.427746,-0.273912,2.499,2.5501
-0.419634,-0.273912,2.499,2.54875
-0.411523,-0.273912,2.499,2.54743
-0.403412,-0.273912,2.499,2.54613
-0.395301,-0.273912,2.499,2.54486
-0.389979,-0.275885,2.517,2.56193
-0.381809,-0.275885,2.517,2.5607
-0.37364,-0.275885,2.517,2.55949
-0.36547,-0.275885,2.517,2.55831
-0.357301,-0.275885,2.517,2.55716
-0.349131,-0.275885,2.517,2.55603
-0.340961,-0.275885,2.517,2.55493
-0.332792,-0.275885,2.517,2.55385
-0.324622,-0.275885,2.517,2.5528
-0.316453,-0.275885,2.517,2.55177
-0.308283,-0.275885,2.517,2.55077
-0.300114,-0.275885,2.517,2.5498
-0.291944,-0.275885,2.517,2.54885
-0.283775,-0.275885,2.517,2.54793
-0.273634,-0.273912,2.499,2.52881
-0.265523,-0.273912,2.499,2.52795
-0.257412,-0.273912,2.499,2.52711
-0.249301,-0.273912,2.499,2.5263
-0.24119,-0.273912,2.499,2.52551
-0.233078,-0.273912,2.499,2.52475
-0.224967,-0.273912,2.499,2.52401
-0.216856,-0.273912,2.499,2.5233
-0.208745,-0.273912,2.499,2.52262
-0.202079,-0.275885,2.517,2.54013
-0.193909,-0.275885,2.517,2.53949
-0.187142,-0.277967,2.536,2.55804
-0.178911,-0.277967,2.536,2.55745
-0.170679,-0.277967,2.536,2.55689
-0.162448,-0.277967,2.536,2.55635
-0.154217,-0.277967,2.536,2.55585
-0.145986,-0.277967,2.536,2.55536
-0.137755,-0.277967,2.536,2.5549
-0.129523,-0.277967,2.536,2.55447
-0.121292,-0.277967,2.536,2.55407
-0.113061,-0.277967,2.536,2.55369
-0.10483,-0.277967,2.536,2.55334
-0.0965985,-0.277967,2.536,2.55302
-0.0883672,-0.277967,2.536,2.55272
-0.080136,-0.277967,2.536,2.55245
-0.0719048,-0.277967,2.536,2.5522
-0.0636736,-0.277967,2.536,2.55198
-0.0554423,-0.277967,2.536,2.55179
-0.0472111,-0.277967,2.536,2.55163
-0.0389799,-0.277967,2.536,2.55149
-0.0307487,-0.277967,2.536,2.55137
-0.0226861,-0.28005,2.555,2.5704
-0.0143932,-0.28005,2.555,2.57034
-0.00610034,-0.28005,2.555,2.57031
0.00219255,-0.28005,2.555,2.5703
0.0105634,-0.282133,2.574,2.58944
0.018918,-0.282133,2.574,2.58949
0.0272725,-0.282133,2.574,2.58956
0.0356271,-0.282133,2.574,2.58966
0.0439817,-0.282133,2.574,2.58979
0.0523362,-0.282133,2.574,2.58994
0.0606908,-0.282133,2.574,2.59013
0.0690454,-0.282133,2.574,2.59034
0.0768286,-0.28005,2.555,2.57145
0.0851215,-0.28005,2.555,2.57171
0.0934144,-0.28005,2.555,2.572
0.101707,-0.28005,2.555,2.57231
0.109182,-0.277967,2.536,2.55352
0.117413,-0.277967,2.536,2.55389
0.125645,-0.277967,2.536,2.55428
0.133876,-0.277967,2.536,2.5547
0.142107,-0.277967,2.536,2.55514
0.150338,-0.277967,2.536,2.55561
0.15857,-0.277967,2.536,2.55611
0.166801,-0.277967,2.536,2.55664
0.175032,-0.277967,2.536,2.55719
0.183263,-0.277967,2.536,2.55776
0.19006,-0.275885,2.517,2.5392
0.198229,-0.275885,2.517,2.53982
0.206399,-0.275885,2.517,2.54047
0.214568,-0.275885,2.517,2.54115
0.222738,-0.275885,2.517,2.54185
0.230908,-0.275885,2.517,2.54258
0.239077,-0.275885,2.517,2.54334
0.247247,-0.275885,2.517,2.54412
0.255416,-0.275885,2.517,2.54492
0.263586,-0.275885,2.517,2.54576
0.271755,-0.275885,2.517,2.54662
0.279925,-0.275885,2.517,2.5475
0.288094,-0.275885,2.517,2.54841
0.296264,-0.275885,2.517,2.54935
0.304434,-0.275885,2.517,2.55031
0.312603,-0.275885,2.517,2.5513
0.320773,-0.275885,2.517,2.55231
0.328942,-0.275885,2.517,2.55335
0.337112,-0.275885,2.517,2.55442
0.345281,-0.275885,2.517,2.55551
0.353451,-0.275885,2.517,2.55662
0.36162,-0.275885,2.517,2.55777
0.36979,-0.275885,2.517,2.55893
0.37796,-0.275885,2.517,2.56013
0.386129,-0.275885,2.517,2.56135
0.394299,-0.275885,2.517,2.56259
0.402468,-0.275885,2.517,2.56386
0.410638,-0.275885,2.517,2.56516
0.418807,-0.275885,2.517,2.56648
0.426977,-0.275885,2.517,2.56782
0.435146,-0.275885,2.517,2.56919
0.443316,-0.275885,2.517,2.57059
0.454894,-0.277967,2.536,2.59143
0.463125,-0.277967,2.536,2.59288
0.471356,-0.277967,2.536,2.59437
0.479587,-0.277967,2.536,2.59587
0.487819,-0.277967,2.536,2.59741
0.49605,-0.277967,2.536,2.59897
0.504281,-0.277967,2.536,2.60055
0.512512,-0.277967,2.536,2.60216
0.520743,-0.277967,2.536,2.60379
0.528975,-0.277967,2.536,2.60545
0.537206,-0.277967,2.536,2.60713
0.545437,-0.277967,2.536,2.60884
0.553668,-0.277967,2.536,2.61058
0.5619,-0.277967,2.536,2.61233
0.570131,-0.277967,2.536,2.61412
0.578362,-0.277967,2.536,2.61593
0.586593,-0.277967,2.536,2.61776
0.590368,-0.275885,2.517,2.59999
0.598538,-0.275885,2.517,2.60186
0.606707,-0.275885,2.517,2.60375
0.614877,-0.275885,2.517,2.60566
0.623046,-0.275885,2.517,2.6076
0.631216,-0.275885,2.517,2.60957
0.639385,-0.275885,2.517,2.61155
0.642924,-0.273912,2.499,2.59488
0.651035,-0.273912,2.499,2.5969
0.659146,-0.273912,2.499,2.59894
0.667257,-0.273912,2.499,2.60101
0.675369,-0.273912,2.499,2.6031
0.68348,-0.273912,2.499,2.60522
0.686609,-0.271939,2.481,2.58858
0.694662,-0.271939,2.481,2.59073
0.702715,-0.271939,2.481,2.5929
0.710768,-0.271939,2.481,2.59509
0.71882,-0.271939,2.481,2.59731
0.726873,-0.271939,2.481,2.59955
0.734926,-0.271939,2.481,2.60181
0.748369,-0.273912,2.499,2.62299
0.75648,-0.273912,2.499,2.62532
0.764591,-0.273912,2.499,2.62767
0.772702,-0.273912,2.499,2.63004
0.780813,-0.273912,2.499,2.63243
0.788924,-0.273912,2.499,2.63485
0.797036,-0.273912,2.499,2.63729
0.810946,-0.275885,2.517,2.65877
0.819116,-0.275885,2.517,2.66127
0.827285,-0.275885,2.517,2.66379
0.835455,-0.275885,2.517,2.66634
0.843624,-0.275885,2.517,2.66891
0.851794,-0.275885,2.517,2.67151
0.853814,-0.273912,2.499,2.655
0.861925,-0.273912,2.499,2.65762
0.870036,-0.273912,2.499,2.66026
0.878147,-0.273912,2.499,2.66293
0.886258,-0.273912,2.499,2.66561
0.894369,-0.273912,2.499,2.66832
0.89598,-0.271939,2.481,2.65181
0.904033,-0.271939,2.481,2.65454
0.912085,-0.271939,2.481,2.65729
0.913462,-0.269966,2.463,2.64077
0.921457,-0.269966,2.463,2.64355
0.929451,-0.269966,2.463,2.64634
0.930594,-0.267993,2.445,2.6298
0.93853,-0.267993,2.445,2.63262
0.946466,-0.267993,2.445,2.63546
0.954402,-0.267993,2.445,2.63832
0.955646,-0.26613,2.428,2.62284
0.963527,-0.26613,2.428,2.62572
0.971408,-0.26613,2.428,2.62862
0.979289,-0.26613,2.428,2.63154
0.987169,-0.26613,2.428,2.63449
0.99505,-0.26613,2.428,2.63745
1.00293,-0.26613,2.428,2.64043
nan,nan,nan,NaN
nan,nan,nan,NaN
nan,nan,nan,NaN
nan,nan,nan,NaN
nan,nan,nan,NaN
nan,nan,nan,NaN
nan,nan,nan,NaN
nan,nan,nan,NaN
nan,nan,nan,NaN
nan,nan,nan,NaN
nan,nan,nan,NaN
1.64625,-0.399194,3.642,4.01667
1.65807,-0.399194,3.642,4.02153
1.66989,-0.399194,3.642,4.02642
1.68171,-0.399194,3.642,4.03134
1.69353,-0.399194,3.642,4.03628
1.70535,-0.399194,3.642,4.04126
1.71717,-0.399194,3.642,4.04626
1.74751,-0.403469,3.681,4.09467
1.75946,-0.403469,3.681,4.09979
1.77141,-0.403469,3.681,4.10493
1.78335,-0.403469,3.681,4.1101
1.7953,-0.403469,3.681,4.11529
1.80725,-0.403469,3.681,4.12052
1.79992,-0.399194,3.642,4.08206
1.81174,-0.399194,3.642,4.08729
1.82356,-0.399194,3.642,4.09254
1.83538,-0.399194,3.642,4.09782
1.84721,-0.399194,3.642,4.10313
1.83963,-0.395029,3.604,4.0656
1.85133,-0.395029,3.604,4.07091
1.86303,-0.395029,3.604,4.07624
1.85496,-0.390864,3.566,4.03856
1.86653,-0.390864,3.566,4.04389
1.8781,-0.390864,3.566,4.04925
1.88968,-0.390864,3.566,4.05463
1.90125,-0.390864,3.566,4.06004
1.91283,-0.390864,3.566,4.06547
1.9244,-0.390864,3.566,4.07093
1.93598,-0.390864,3.566,4.07641
1.94755,-0.390864,3.566,4.08192
1.95913,-0.390864,3.566,4.08746
1.9707,-0.390864,3.566,4.09302
1.98227,-0.390864,3.566,4.0986
1.99385,-0.390864,3.566,4.10421
1.98461,-0.386809,3.529,4.06721
1.97571,-0.382863,3.493,4.03126
1.98704,-0.382863,3.493,4.03683
1.99838,-0.382863,3.493,4.04242
1.98958,-0.379027,3.458,4.00748
2.00081,-0.379027,3.458,4.01306
2.01203,-0.379027,3.458,4.01867
2.02325,-0.379027,3.458,4.0243
2.01389,-0.37519,3.423,3.98916
2.025,-0.37519,3.423,3.99478
2.01588,-0.371464,3.389,3.96069
2.00714,-0.367846,3.356,3.92768
2.01804,-0.367846,3.356,3.93326
2.02893,-0.367846,3.356,3.93886
2.02037,-0.364339,3.324,3.90687
2.03116,-0.364339,3.324,3.91246
2.02229,-0.360831,3.292,3.88035
2.01322,-0.357324,3.26,3.84816
2.0238,-0.357324,3.26,3.8537
1.97821,-0.347459,3.17,3.75273
1.97031,-0.344281,3.141,3.72378
1.98051,-0.344281,3.141,3.72918
1.95458,-0.338033,3.084,3.66684
1.93019,-0.332114,3.03,3.60788
1.94002,-0.332114,3.03,3.61315
1.89902,-0.323455,2.951,3.5241
1.87626,-0.317975,2.901,3.46948
1.85447,-0.312713,2.853,3.41709
1.86373,-0.312713,2.853,3.42212
1.84214,-0.307562,2.806,3.37071
1.82156,-0.302629,2.761,3.32156
1.83052,-0.302629,2.761,3.32649
1.81017,-0.297807,2.717,3.27834
1.79087,-0.293203,2.675,3.23246
1.79955,-0.293203,2.675,3.23728
1.79404,-0.290901,2.654,3.21666
1.78839,-0.288599,2.633,3.19598
-2.21925,-0.340258,3.199,3.90825
-2.20887,-0.340258,3.199,3.90237
-2.19848,-0.340258,3.199,3.8965
-2.1881,-0.340258,3.199,3.89065
-2.19882,-0.343555,3.23,3.92247
-2.18834,-0.343555,3.23,3.9166
-2.17785,-0.343555,3.23,3.91075
-2.16737,-0.343555,3.23,3.90492
-2.15689,-0.343555,3.23,3.89911
-2.1464,-0.343555,3.23,3.89332
-2.15576,-0.346746,3.26,3.92366
-2.16623,-0.35015,3.292,3.95632
-2.1765,-0.353553,3.324,3.98888
-2.16571,-0.353553,3.324,3.983
-2.15492,-0.353553,3.324,3.97714
-2.16478,-0.356957,3.356,4.00954
-2.15388,-0.356957,3.356,4.00367
-2.16406,-0.360467,3.389,4.03713
-2.17466,-0.364083,3.423,4.07169
-2.16355,-0.364083,3.423,4.06577
-2.17445,-0.367806,3.458,4.10138
-2.18512,-0.371529,3.493,4.13689
-2.17379,-0.371529,3.493,4.13091
-2.16245,-0.371529,3.493,4.12496
-2.12956,-0.367806,3.458,4.07775
-2.11833,-0.367806,3.458,4.0719
-2.10711,-0.367806,3.458,4.06607
-2.1171,-0.371529,3.493,4.10136
-2.10576,-0.371529,3.493,4.09552
-2.07344,-0.367806,3.458,4.04873
-2.06221,-0.367806,3.458,4.04299
nan,nan,nan,NaN
nan,nan,nan,NaN
nan,nan,nan,NaN
nan,nan,nan,NaN
nan,nan,nan,NaN
nan,nan,nan,NaN
nan,nan,nan,NaN
nan,nan,nan,NaN
nan,nan,nan,NaN
nan,nan,nan,NaN
nan,nan,nan,NaN
nan,nan,nan,NaN
nan,nan,nan,NaN
nan,nan,nan,NaN
nan,nan,nan,NaN
nan,nan,nan,NaN
nan,nan,nan,NaN
nan,nan,nan,NaN
nan,nan,nan,NaN
nan,nan,nan,NaN
nan,nan,nan,NaN
nan,nan,nan,NaN
nan,nan,nan,NaN
nan,nan,nan,NaN
nan,nan,nan,NaN
nan,nan,nan,NaN
nan,nan,nan,NaN
nan,nan,nan,NaN
nan,nan,nan,NaN
nan,nan,nan,NaN
nan,nan,nan,NaN
-1.20415,-0.260059,2.445,2.73782
-1.19622,-0.260059,2.445,2.73434
-1.18828,-0.260059,2.445,2.73087
-1.18035,-0.260059,2.445,2.72743
-1.17241,-0.260059,2.445,2.724
-1.16447,-0.260059,2.445,2.7206
-1.15654,-0.260059,2.445,2.71721
-1.1486,-0.260059,2.445,2.71384
-1.14067,-0.260059,2.445,2.71049
-1.13273,-0.260059,2.445,2.70716
-1.11697,-0.258251,2.428,2.68505
-1.10909,-0.258251,2.428,2.68178
-1.10121,-0.258251,2.428,2.67853
-1.09333,-0.258251,2.428,2.6753
-1.08545,-0.258251,2.428,2.67209
-1.07757,-0.258251,2.428,2.6689
-1.06969,-0.258251,2.428,2.66573
-1.05437,-0.256443,2.411,2.64393
-1.04655,-0.256443,2.411,2.64082
-1.03872,-0.256443,2.411,2.63773
-1.0309,-0.256443,2.411,2.63466
-1.02307,-0.256443,2.411,2.63161
-1.01525,-0.256443,2.411,2.62858
-1.00742,-0.256443,2.411,2.62556
-0.992548,-0.254635,2.394,2.60408
-0.984778,-0.254635,2.394,2.60113
-0.977007,-0.254635,2.394,2.5982
-0.969237,-0.254635,2.394,2.59528
-0.961466,-0.254635,2.394,2.59239
-0.946924,-0.252827,2.377,2.57113
-0.939209,-0.252827,2.377,2.5683
-0.931494,-0.252827,2.377,2.56549
-0.923778,-0.252827,2.377,2.5627
-0.916063,-0.252827,2.377,2.55993
-0.908348,-0.252827,2.377,2.55718
-0.894571,-0.251125,2.361,2.53725
-0.886907,-0.251125,2.361,2.53456
-0.879244,-0.251125,2.361,2.53189
-0.871581,-0.251125,2.361,2.52924
-0.863918,-0.251125,2.361,2.52661
-0.862057,-0.252827,2.377,2.5411
-0.854342,-0.252827,2.377,2.53849
-0.846627,-0.252827,2.377,2.53591
-0.838912,-0.252827,2.377,2.53334
-0.831197,-0.252827,2.377,2.5308
-0.823481,-0.252827,2.377,2.52827
-0.815766,-0.252827,2.377,2.52577
-0.808051,-0.252827,2.377,2.52329
-0.80606,-0.254635,2.394,2.53886
-0.79829,-0.254635,2.394,2.5364
-0.790519,-0.254635,2.394,2.53397
-0.782749,-0.254635,2.394,2.53156
-0.774979,-0.254635,2.394,2.52916
-0.767208,-0.254635,2.394,2.52679
-0.759438,-0.254635,2.394,2.52444
-0.751668,-0.254635,2.394,2.52212
-0.74918,-0.256443,2.411,2.53771
-0.741354,-0.256443,2.411,2.53541
-0.733529,-0.256443,2.411,2.53313
-0.725703,-0.256443,2.411,2.53088
-0.722939,-0.258251,2.428,2.54647
-0.715059,-0.258251,2.428,2.54425
-0.707178,-0.258251,2.428,2.54204
-0.699297,-0.258251,2.428,2.53986
-0.691417,-0.258251,2.428,2.5377
-0.683536,-0.258251,2.428,2.53557
-0.675655,-0.258251,2.428,2.53345
-0.67245,-0.260059,2.445,2.54909
-0.664514,-0.260059,2.445,2.54701
-0.656578,-0.260059,2.445,2.54495
-0.648643,-0.260059,2.445,2.54291
-0.645424,-0.261974,2.463,2.5596
-0.637429,-0.261974,2.463,2.5576
-0.629435,-0.261974,2.463,2.55562
-0.625982,-0.263888,2.481,2.57232
-0.61793,-0.263888,2.481,2.57038
-0.609877,-0.263888,2.481,2.56845
-0.601824,-0.263888,2.481,2.56655
-0.593771,-0.263888,2.481,2.56468
-0.589968,-0.265803,2.499,2.58142
-0.581857,-0.265803,2.499,2.57958
-0.573746,-0.265803,2.499,2.57776
-0.565635,-0.265803,2.499,2.57596
-0.557524,-0.265803,2.499,2.5742
-0.549413,-0.265803,2.499,2.57245
-0.541301,-0.265803,2.499,2.57073
-0.53319,-0.265803,2.499,2.56904
-0.525079,-0.265803,2.499,2.56736
-0.513244,-0.263888,2.481,2.54724
-0.505192,-0.263888,2.481,2.54563
-0.497139,-0.263888,2.481,2.54404
-0.489086,-0.263888,2.481,2.54248
-0.481034,-0.263888,2.481,2.54094
-0.472981,-0.263888,2.481,2.53943
-0.464928,-0.263888,2.481,2.53794
-0.456875,-0.263888,2.481,2.53648
-0.448823,-0.263888,2.481,2.53504
-0.44077,-0.263888,2.481,2.53363
-0.432717,-0.263888,2.481,2.53224
-0.424665,-0.263888,2.481,2.53088
-0.416612,-0.263888,2.481,2.52954
-0.408559,-0.263888,2.481,2.52822
-0.400506,-0.263888,2.481,2.52694
-0.392454,-0.263888,2.481,2.52567
-0.38719,-0.265803,2.499,2.54275
-0.379079,-0.265803,2.499,2.54153
-0.370968,-0.265803,2.499,2.54033
-0.362857,-0.265803,2.499,2.53916
-0.354745,-0.265803,2.499,2.53801
-0.349131,-0.267718,2.517,2.55516
-0.340961,-0.267718,2.517,2.55406
-0.332792,-0.267718,2.517,2.55298
-0.324622,-0.267718,2.517,2.55193
-0.316453,-0.267718,2.517,2.5509
-0.308283,-0.267718,2.517,2.5499
-0.297967,-0.265803,2.499,2.5307
-0.289856,-0.265803,2.499,2.52976
-0.281745,-0.265803,2.499,2.52884
-0.273634,-0.265803,2.499,2.52795
-0.265523,-0.265803,2.499,2.52708
-0.257412,-0.265803,2.499,2.52624
-0.249301,-0.265803,2.499,2.52543
-0.24119,-0.265803,2.499,2.52464
-0.233078,-0.265803,2.499,2.52388
-0.224967,-0.265803,2.499,2.52315
-0.216856,-0.265803,2.499,2.52244
-0.208745,-0.265803,2.499,2.52175
-0.202079,-0.267718,2.517,2.53925
-0.193909,-0.267718,2.517,2.53861
-0.18574,-0.267718,2.517,2.538
-0.17757,-0.267718,2.517,2.53742
-0.169401,-0.267718,2.517,2.53686
-0.161231,-0.267718,2.517,2.53633
-0.153062,-0.267718,2.517,2.53582
-0.144892,-0.267718,2.517,2.53534
-0.137755,-0.269738,2.536,2.55402
-0.129523,-0.269738,2.536,2.55359
-0.121292,-0.269738,2.536,2.55319
-0.113061,-0.269738,2.536,2.55281
-0.10483,-0.269738,2.536,2.55246
-0.0965985,-0.269738,2.536,2.55213
-0.0883672,-0.269738,2.536,2.55184
-0.080136,-0.269738,2.536,2.55156
-0.0719048,-0.269738,2.536,2.55132
-0.0636736,-0.269738,2.536,2.5511
-0.0554423,-0.269738,2.536,2.55091
-0.0472111,-0.269738,2.536,2.55074
-0.0389799,-0.269738,2.536,2.5506
-0.0307487,-0.269738,2.536,2.55049
-0.0225174,-0.269738,2.536,2.5504
-0.0143932,-0.271759,2.555,2.56945
-0.00610034,-0.271759,2.555,2.56942
0.00219255,-0.271759,2.555,2.56941
0.0104854,-0.271759,2.555,2.56943
0.0187783,-0.271759,2.555,2.56948
0.0270712,-0.271759,2.555,2.56955
0.0353641,-0.271759,2.555,2.56966
0.043657,-0.271759,2.555,2.56978
0.0519499,-0.271759,2.555,2.56994
0.0602428,-0.271759,2.555,2.57012
0.0690454,-0.27378,2.574,2.58944
0.0768286,-0.271759,2.555,2.57056
0.0851215,-0.271759,2.555,2.57082
0.0934144,-0.271759,2.555,2.57111
0.101707,-0.271759,2.555,2.57142
0.109182,-0.269738,2.536,2.55264
0.117413,-0.269738,2.536,2.55301
0.125645,-0.269738,2.536,2.5534
0.133876,-0.269738,2.536,2.55382
0.142107,-0.269738,2.536,2.55426
0.150338,-0.269738,2.536,2.55473
0.15857,-0.269738,2.536,2.55523
0.166801,-0.269738,2.536,2.55575
0.175032,-0.269738,2.536,2.5563
0.183263,-0.269738,2.536,2.55688
0.19006,-0.267718,2.517,2.53832
0.198229,-0.267718,2.517,2.53895
0.206399,-0.267718,2.517,2.5396
0.214568,-0.267718,2.517,2.54028
0.222738,-0.267718,2.517,2.54098
0.230908,-0.267718,2.517,2.54171
0.239077,-0.267718,2.517,2.54246
0.247247,-0.267718,2.517,2.54324
0.255416,-0.267718,2.517,2.54405
0.263586,-0.267718,2.517,2.54489
0.271755,-0.267718,2.517,2.54574
0.279925,-0.267718,2.517,2.54663
0.288094,-0.267718,2.517,2.54754
0.296264,-0.267718,2.517,2.54848
0.304434,-0.267718,2.517,2.54944
0.312603,-0.267718,2.517,2.55043
0.320773,-0.267718,2.517,2.55144
0.328942,-0.267718,2.517,2.55248
0.337112,-0.267718,2.517,2.55355
0.345281,-0.267718,2.517,2.55464
0.353451,-0.267718,2.517,2.55576
0.36162,-0.267718,2.517,2.5569
0.36979,-0.267718,2.517,2.55807
0.37796,-0.267718,2.517,2.55926
0.386129,-0.267718,2.517,2.56048
0.394299,-0.267718,2.517,2.56172
0.402468,-0.267718,2.517,2.56299
0.410638,-0.267718,2.517,2.56429
0.418807,-0.267718,2.517,2.56561
0.426977,-0.267718,2.517,2.56696
0.435146,-0.267718,2.517,2.56833
0.443316,-0.267718,2.517,2.56973
0.454894,-0.269738,2.536,2.59056
0.463125,-0.269738,2.536,2.59201
0.471356,-0.269738,2.536,2.5935
0.479587,-0.269738,2.536,2.59501
0.487819,-0.269738,2.536,2.59654
0.49605,-0.269738,2.536,2.5981
0.504281,-0.269738,2.536,2.59968
0.512512,-0.269738,2.536,2.60129
0.520743,-0.269738,2.536,2.60293
0.528975,-0.269738,2.536,2.60459
0.537206,-0.269738,2.536,2.60627
0.545437,-0.269738,2.536,2.60798
0.553668,-0.269738,2.536,2.60971
0.5619,-0.269738,2.536,2.61147
0.570131,-0.269738,2.536,2.61326
0.578362,-0.269738,2.536,2.61506
0.586593,-0.269738,2.536,2.6169
0.590368,-0.267718,2.517,2.59913
0.598538,-0.267718,2.517,2.601
0.606707,-0.267718,2.517,2.60289
0.614877,-0.267718,2.517,2.60481
0.623046,-0.267718,2.517,2.60675
0.631216,-0.267718,2.517,2.60872
0.634813,-0.265803,2.499,2.59203
0.642924,-0.265803,2.499,2.59403
0.651035,-0.265803,2.499,2.59605
0.659146,-0.265803,2.499,2.5981
0.667257,-0.265803,2.499,2.60017
0.675369,-0.265803,2.499,2.60226
0.68348,-0.265803,2.499,2.60438
0.686609,-0.263888,2.481,2.58775
0.694662,-0.263888,2.481,2.58989
0.702715,-0.263888,2.481,2.59207
0.710768,-0.263888,2.481,2.59426
0.71882,-0.263888,2.481,2.59648
0.726873,-0.263888,2.481,2.59872
0.734926,-0.263888,2.481,2.60098
0.748369,-0.265803,2.499,2.62216
0.75648,-0.265803,2.499,2.62448
0.764591,-0.265803,2.499,2.62683
0.772702,-0.265803,2.499,2.62921
0.780813,-0.265803,2.499,2.6316
0.788924,-0.265803,2.499,2.63402
0.797036,-0.265803,2.499,2.63646
0.810946,-0.267718,2.517,2.65793
0.819116,-0.267718,2.517,2.66043
0.827285,-0.267718,2.517,2.66296
0.835455,-0.267718,2.517,2.66551
0.843624,-0.267718,2.517,2.66808
0.851794,-0.267718,2.517,2.67068
0.853814,-0.265803,2.499,2.65418
0.861925,-0.265803,2.499,2.6568
0.870036,-0.265803,2.499,2.65944
0.878147,-0.265803,2.499,2.6621
0.886258,-0.265803,2.499,2.66479
0.894369,-0.265803,2.499,2.6675
0.89598,-0.263888,2.481,2.651
0.904033,-0.263888,2.481,2.65373
0.912085,-0.263888,2.481,2.65648
0.913462,-0.261974,2.463,2.63996
0.921457,-0.261974,2.463,2.64274
0.929451,-0.261974,2.463,2.64554
0.930594,-0.260059,2.445,2.629
0.93853,-0.260059,2.445,2.63182
0.946466,-0.260059,2.445,2.63466
0.954402,-0.260059,2.445,2.63753
0.955646,-0.258251,2.428,2.62205
0.963527,-0.258251,2.428,2.62493
0.971408,-0.258251,2.428,2.62783
0.979289,-0.258251,2.428,2.63076
0.987169,-0.258251,2.428,2.6337
0.99505,-0.258251,2.428,2.63667
1.00293,-0.258251,2.428,2.63965
nan,nan,nan,NaN
nan,nan,nan,NaN
nan,nan,nan,NaN
nan,nan,nan,NaN
nan,nan,nan,NaN
nan,nan,nan,NaN
nan,nan,nan,NaN
nan,nan,nan,NaN
nan,nan,nan,NaN
nan,nan,nan,NaN
nan,nan,nan,NaN
nan,nan,nan,NaN
nan,nan,nan,NaN
1.68777,-0.391525,3.681,4.06837
1.69972,-0.391525,3.681,4.07334
1.71167,-0.391525,3.681,4.07834
1.72361,-0.391525,3.681,4.08337
1.73556,-0.391525,3.681,4.08843
1.74751,-0.391525,3.681,4.09351
1.75946,-0.391525,3.681,4.09863
1.77141,-0.391525,3.681,4.10377
1.78335,-0.391525,3.681,4.10894
1.7953,-0.391525,3.681,4.11414
1.82689,-0.39578,3.721,4.16413
1.8192,-0.391525,3.681,4.12462
1.83114,-0.391525,3.681,4.12991
1.82356,-0.387377,3.642,4.09141
1.83538,-0.387377,3.642,4.09669
1.84721,-0.387377,3.642,4.102
1.85903,-0.387377,3.642,4.10734
1.85133,-0.383335,3.604,4.06979
1.86303,-0.383335,3.604,4.07512
1.87472,-0.383335,3.604,4.08048
nan,nan,nan,NaN
nan,nan,nan,NaN
1.90982,-0.383335,3.604,4.09673
1.92151,-0.383335,3.604,4.10219
1.91283,-0.379293,3.566,4.06437
1.9244,-0.379293,3.566,4.06983
1.93598,-0.379293,3.566,4.07532
1.9683,-0.383335,3.604,4.12432
1.98,-0.383335,3.604,4.12991
1.9707,-0.379293,3.566,4.09193
1.98227,-0.379293,3.566,4.09752
1.99385,-0.379293,3.566,4.10313
1.98461,-0.375358,3.529,4.06613
1.97571,-0.371529,3.493,4.0302
1.98704,-0.371529,3.493,4.03577
1.97836,-0.367806,3.458,4.00087
1.98958,-0.367806,3.458,4.00643
2.00081,-0.367806,3.458,4.01202
2.01203,-0.367806,3.458,4.01762
2.02325,-0.367806,3.458,4.02326
2.01389,-0.364083,3.423,3.98813
2.025,-0.364083,3.423,3.99376
2.01588,-0.360467,3.389,3.95968
2.00714,-0.356957,3.356,3.92668
2.01804,-0.356957,3.356,3.93226
2.00958,-0.353553,3.324,3.90031
2.00092,-0.35015,3.292,3.86828
2.01161,-0.35015,3.292,3.87381
2.00264,-0.346746,3.26,3.84166
1.99469,-0.343555,3.23,3.81179
2.00517,-0.343555,3.23,3.81728
1.97821,-0.337173,3.17,3.75179
1.97031,-0.334089,3.141,3.72285
1.98051,-0.334089,3.141,3.72826
1.95458,-0.328026,3.084,3.66593
1.93019,-0.322282,3.03,3.60699
1.94002,-0.322282,3.03,3.61226
1.89902,-0.313879,2.951,3.52324
1.87626,-0.308561,2.901,3.46862
1.85447,-0.303456,2.853,3.41625
1.86373,-0.303456,2.853,3.42129
1.84214,-0.298457,2.806,3.36989
1.82156,-0.29367,2.761,3.32076
1.83052,-0.29367,2.761,3.32568
1.81017,-0.28899,2.717,3.27755
1.79087,-0.284523,2.675,3.23168
1.79955,-0.284523,2.675,3.2365
1.79404,-0.282289,2.654,3.21589
1.78839,-0.280056,2.633,3.19522
-2.21925,-0.329877,3.199,3.90736
-2.20887,-0.329877,3.199,3.90148
-2.19848,-0.329877,3.199,3.89561
-2.1881,-0.329877,3.199,3.88976
-2.19882,-0.333074,3.23,3.92156
-2.18834,-0.333074,3.23,3.91569
-2.17785,-0.333074,3.23,3.90985
-2.16737,-0.333074,3.23,3.90402
-2.15689,-0.333074,3.23,3.8982
-2.1464,-0.333074,3.23,3.89241
-2.15576,-0.336168,3.26,3.92274
-2.16623,-0.339467,3.292,3.95538
-2.1765,-0.342767,3.324,3.98793
-2.16571,-0.342767,3.324,3.98206
-2.15492,-0.342767,3.324,3.9762
-2.16478,-0.346067,3.356,4.00858
-2.15388,-0.346067,3.356,4.00271
-2.16406,-0.34947,3.389,4.03616
-2.17466,-0.352976,3.423,4.07071
-2.16355,-0.352976,3.423,4.06479
-2.17445,-0.356585,3.458,4.10039
-2.18512,-0.360194,3.493,4.13589
-2.17379,-0.360194,3.493,4.12991
-2.14078,-0.356585,3.458,4.08263
-2.12956,-0.356585,3.458,4.07675
-2.11833,-0.356585,3.458,4.0709
-2.10711,-0.356585,3.458,4.06507
-2.09589,-0.356585,3.458,4.05927
-2.08466,-0.356585,3.458,4.05348
-2.07344,-0.356585,3.458,4.04772
-2.06221,-0.356585,3.458,4.04199
nan,nan,nan,NaN
nan,nan,nan,NaN
nan,nan,nan,NaN
nan,nan,nan,NaN
nan,nan,nan,NaN
nan,nan,nan,NaN
nan,nan,nan,NaN
nan,nan,nan,NaN
nan,nan,nan,NaN
nan,nan,nan,NaN
nan,nan,nan,NaN
nan,nan,nan,NaN
nan,nan,nan,NaN
nan,nan,nan,NaN
nan,nan,nan,NaN
nan,nan,nan,NaN
nan,nan,nan,NaN
nan,nan,nan,NaN
nan,nan,nan,NaN
nan,nan,nan,NaN
nan,nan,nan,NaN
nan,nan,nan,NaN
nan,nan,nan,NaN
nan,nan,nan,NaN
nan,nan,nan,NaN
nan,nan,nan,NaN
nan,nan,nan,NaN
nan,nan,nan,NaN
nan,nan,nan,NaN
nan,nan,nan,NaN
nan,nan,nan,NaN
-1.20415,-0.252126,2.445,2.73707
-1.19622,-0.252126,2.445,2.73359
-1.18828,-0.252126,2.445,2.73013
-1.18035,-0.252126,2.445,2.72668
-1.17241,-0.252126,2.445,2.72326
-1.16447,-0.252126,2.445,2.71985
-1.15654,-0.252126,2.445,2.71646
-1.1486,-0.252126,2.445,2.71309
-1.14067,-0.252126,2.445,2.70974
-1.13273,-0.252126,2.445,2.70641
-1.11697,-0.250373,2.428,2.68431
-1.10909,-0.250373,2.428,2.68104
-1.10121,-0.250373,2.428,2.67779
-1.09333,-0.250373,2.428,2.67456
-1.08545,-0.250373,2.428,2.67134
-1.07757,-0.250373,2.428,2.66815
-1.06969,-0.250373,2.428,2.66498
-1.05437,-0.24862,2.411,2.64319
-1.04655,-0.24862,2.411,2.64008
-1.03872,-0.24862,2.411,2.63698
-1.0309,-0.24862,2.411,2.63391
-1.02307,-0.24862,2.411,2.63086
-1.01525,-0.24862,2.411,2.62782
-1.00032,-0.246867,2.394,2.6063
-0.992548,-0.246867,2.394,2.60333
-0.984778,-0.246867,2.394,2.60038
-0.977007,-0.246867,2.394,2.59745
-0.962354,-0.245114,2.377,2.57611
-0.954639,-0.245114,2.377,2.57324
-0.946924,-0.245114,2.377,2.57038
-0.939209,-0.245114,2.377,2.56755
-0.931494,-0.245114,2.377,2.56474
-0.923778,-0.245114,2.377,2.56195
-0.909897,-0.243464,2.361,2.54195
-0.902234,-0.243464,2.361,2.53922
-0.894571,-0.243464,2.361,2.5365
-0.886907,-0.243464,2.361,2.53381
-0.879244,-0.243464,2.361,2.53114
-0.871581,-0.243464,2.361,2.52849
-0.863918,-0.243464,2.361,2.52586
-0.856255,-0.243464,2.361,2.52325
-0.848591,-0.243464,2.361,2.52066
-0.840928,-0.243464,2.361,2.51809
-0.838912,-0.245114,2.377,2.53258
-0.831197,-0.245114,2.377,2.53004
-0.823481,-0.245114,2.377,2.52751
-0.815766,-0.245114,2.377,2.52501
-0.808051,-0.245114,2.377,2.52253
-0.800336,-0.245114,2.377,2.52007
-0.792621,-0.245114,2.377,2.51763
-0.784906,-0.245114,2.377,2.51521
-0.782749,-0.246867,2.394,2.53079
-0.774979,-0.246867,2.394,2.52839
-0.767208,-0.246867,2.394,2.52602
-0.759438,-0.246867,2.394,2.52367
-0.751668,-0.246867,2.394,2.52135
-0.743897,-0.246867,2.394,2.51904
-0.741354,-0.24862,2.411,2.53463
-0.733529,-0.24862,2.411,2.53235
-0.725703,-0.24862,2.411,2.53009
-0.717878,-0.24862,2.411,2.52786
-0.715059,-0.250373,2.428,2.54346
-0.707178,-0.250373,2.428,2.54125
-0.699297,-0.250373,2.428,2.53907
-0.691417,-0.250373,2.428,2.53691
-0.683536,-0.250373,2.428,2.53478
-0.675655,-0.250373,2.428,2.53266
-0.67245,-0.252126,2.445,2.54829
-0.664514,-0.252126,2.445,2.54621
-0.656578,-0.252126,2.445,2.54415
-0.648643,-0.252126,2.445,2.54211
-0.645424,-0.253982,2.463,2.5588
-0.637429,-0.253982,2.463,2.55679
-0.629435,-0.253982,2.463,2.55481
-0.621441,-0.253982,2.463,2.55285
-0.613446,-0.253982,2.463,2.55092
-0.605452,-0.253982,2.463,2.54901
-0.601824,-0.255838,2.481,2.56574
-0.593771,-0.255838,2.481,2.56386
-0.589968,-0.257694,2.499,2.5806
-0.581857,-0.257694,2.499,2.57875
-0.573746,-0.257694,2.499,2.57693
-0.565635,-0.257694,2.499,2.57514
-0.557524,-0.257694,2.499,2.57337
-0.549413,-0.257694,2.499,2.57163
-0.537403,-0.255838,2.481,2.5514
-0.52935,-0.255838,2.481,2.54971
-0.521297,-0.255838,2.481,2.54805
-0.509521,-0.253982,2.463,2.52794
-0.501526,-0.253982,2.463,2.52634
-0.493532,-0.253982,2.463,2.52477
-0.485538,-0.253982,2.463,2.52322
-0.477544,-0.253982,2.463,2.52169
-0.469549,-0.253982,2.463,2.52019
-0.461555,-0.253982,2.463,2.51871
-0.453561,-0.253982,2.463,2.51726
-0.445566,-0.253982,2.463,2.51583
-0.437572,-0.253982,2.463,2.51443
-0.429578,-0.253982,2.463,2.51305
-0.421584,-0.253982,2.463,2.51169
-0.416612,-0.255838,2.481,2.52871
-0.408559,-0.255838,2.481,2.5274
-0.400506,-0.255838,2.481,2.52611
-0.392454,-0.255838,2.481,2.52484
-0.38719,-0.257694,2.499,2.54191
-0.379079,-0.257694,2.499,2.54069
-0.370968,-0.257694,2.499,2.53949
-0.362857,-0.257694,2.499,2.53832
-0.354745,-0.257694,2.499,2.53717
-0.349131,-0.25955,2.517,2.55432
-0.340961,-0.25955,2.517,2.55322
-0.332792,-0.25955,2.517,2.55214
-0.324622,-0.25955,2.517,2.55109
-0.316453,-0.25955,2.517,2.55006
-0.308283,-0.25955,2.517,2.54906
-0.297967,-0.257694,2.499,2.52986
-0.289856,-0.257694,2.499,2.52892
-0.281745,-0.257694,2.499,2.528
-0.273634,-0.257694,2.499,2.52711
-0.265523,-0.257694,2.499,2.52624
-0.257412,-0.257694,2.499,2.5254
-0.249301,-0.257694,2.499,2.52459
-0.24119,-0.257694,2.499,2.5238
-0.233078,-0.257694,2.499,2.52304
-0.224967,-0.257694,2.499,2.5223
-0.216856,-0.257694,2.499,2.52159
-0.208745,-0.257694,2.499,2.52091
-0.202079,-0.25955,2.517,2.5384
-0.193909,-0.25955,2.517,2.53777
-0.18574,-0.25955,2.517,2.53716
-0.17757,-0.25955,2.517,2.53657
-0.169401,-0.25955,2.517,2.53601
-0.161231,-0.25955,2.517,2.53548
-0.153062,-0.25955,2.517,2.53497
-0.144892,-0.25955,2.517,2.53449
-0.137755,-0.26151,2.536,2.55317
-0.129523,-0.26151,2.536,2.55274
-0.121292,-0.26151,2.536,2.55233
-0.113061,-0.26151,2.536,2.55195
-0.10483,-0.26151,2.536,2.5516
-0.0965985,-0.26151,2.536,2.55128
-0.0883672,-0.26151,2.536,2.55098
-0.080136,-0.26151,2.536,2.55071
-0.0719048,-0.26151,2.536,2.55046
-0.0636736,-0.26151,2.536,2.55024
-0.0554423,-0.26151,2.536,2.55005
-0.0472111,-0.26151,2.536,2.54988
-0.0389799,-0.26151,2.536,2.54975
-0.0307487,-0.26151,2.536,2.54963
-0.0225174,-0.26151,2.536,2.54955
-0.0143932,-0.263469,2.555,2.56859
-0.00610034,-0.263469,2.555,2.56856
0.00219255,-0.263469,2.555,2.56855
0.0104854,-0.263469,2.555,2.56857
0.0187783,-0.263469,2.555,2.56862
0.0270712,-0.263469,2.555,2.56869
0.0353641,-0.263469,2.555,2.56879
0.043657,-0.263469,2.555,2.56892
0.0519499,-0.263469,2.555,2.56907
0.0602428,-0.263469,2.555,2.56925
0.0685357,-0.263469,2.555,2.56946
0.0768286,-0.263469,2.555,2.5697
0.0844885,-0.26151,2.536,2.55085
0.0927197,-0.26151,2.536,2.55113
0.100951,-0.26151,2.536,2.55145
0.109182,-0.26151,2.536,2.55178
0.117413,-0.26151,2.536,2.55215
0.125645,-0.26151,2.536,2.55254
0.133876,-0.26151,2.536,2.55296
0.142107,-0.26151,2.536,2.55341
0.150338,-0.26151,2.536,2.55388
0.157382,-0.25955,2.517,2.53524
0.165551,-0.25955,2.517,2.53576
0.173721,-0.25955,2.517,2.5363
0.18189,-0.25955,2.517,2.53688
0.19006,-0.25955,2.517,2.53747
0.198229,-0.25955,2.517,2.5381
0.206399,-0.25955,2.517,2.53875
0.214568,-0.25955,2.517,2.53943
0.222738,-0.25955,2.517,2.54013
0.230908,-0.25955,2.517,2.54086
0.239077,-0.25955,2.517,2.54162
0.247247,-0.25955,2.517,2.5424
0.255416,-0.25955,2.517,2.54321
0.263586,-0.25955,2.517,2.54404
0.271755,-0.25955,2.517,2.5449
0.279925,-0.25955,2.517,2.54578
0.288094,-0.25955,2.517,2.54669
0.296264,-0.25955,2.517,2.54763
0.304434,-0.25955,2.517,2.54859
0.312603,-0.25955,2.517,2.54958
0.320773,-0.25955,2.517,2.5506
0.328942,-0.25955,2.517,2.55164
0.337112,-0.25955,2.517,2.5527
0.345281,-0.25955,2.517,2.5538
0.353451,-0.25955,2.517,2.55491
0.36162,-0.25955,2.517,2.55606
0.36979,-0.25955,2.517,2.55723
0.37796,-0.25955,2.517,2.55842
0.386129,-0.25955,2.517,2.55964
0.394299,-0.25955,2.517,2.56088
0.402468,-0.25955,2.517,2.56215
0.410638,-0.25955,2.517,2.56345
0.418807,-0.25955,2.517,2.56477
0.426977,-0.25955,2.517,2.56612
0.435146,-0.25955,2.517,2.56749
0.443316,-0.25955,2.517,2.56889
0.454894,-0.26151,2.536,2.58971
0.463125,-0.26151,2.536,2.59117
0.471356,-0.26151,2.536,2.59265
0.479587,-0.26151,2.536,2.59416
0.487819,-0.26151,2.536,2.5957
0.49605,-0.26151,2.536,2.59726
0.504281,-0.26151,2.536,2.59884
0.512512,-0.26151,2.536,2.60045
0.520743,-0.26151,2.536,2.60209
0.528975,-0.26151,2.536,2.60375
0.537206,-0.26151,2.536,2.60543
0.545437,-0.26151,2.536,2.60714
0.553668,-0.26151,2.536,2.60888
0.55769,-0.25955,2.517,2.59108
0.565859,-0.25955,2.517,2.59285
0.574029,-0.25955,2.517,2.59464
0.582199,-0.25955,2.517,2.59646
0.590368,-0.25955,2.517,2.59831
0.598538,-0.25955,2.517,2.60017
0.606707,-0.25955,2.517,2.60207
0.614877,-0.25955,2.517,2.60398
0.623046,-0.25955,2.517,2.60592
0.626702,-0.257694,2.499,2.58924
0.634813,-0.257694,2.499,2.59121
0.642924,-0.257694,2.499,2.59321
0.651035,-0.257694,2.499,2.59524
0.659146,-0.257694,2.499,2.59728
0.667257,-0.257694,2.499,2.59935
0.675369,-0.257694,2.499,2.60145
0.68348,-0.257694,2.499,2.60357
0.686609,-0.255838,2.481,2.58694
0.694662,-0.255838,2.481,2.58909
0.702715,-0.255838,2.481,2.59126
0.710768,-0.255838,2.481,2.59345
0.724035,-0.257694,2.499,2.6145
0.732147,-0.257694,2.499,2.61676
0.740258,-0.257694,2.499,2.61904
0.748369,-0.257694,2.499,2.62135
0.75648,-0.257694,2.499,2.62367
0.764591,-0.257694,2.499,2.62602
0.772702,-0.257694,2.499,2.6284
0.780813,-0.257694,2.499,2.63079
0.788924,-0.257694,2.499,2.63321
0.797036,-0.257694,2.499,2.63565
0.810946,-0.25955,2.517,2.65712
0.819116,-0.25955,2.517,2.65963
0.827285,-0.25955,2.517,2.66215
0.835455,-0.25955,2.517,2.6647
0.843624,-0.25955,2.517,2.66728
0.851794,-0.25955,2.517,2.66987
0.853814,-0.257694,2.499,2.65338
0.861925,-0.257694,2.499,2.656
0.870036,-0.257694,2.499,2.65864
0.878147,-0.257694,2.499,2.66131
0.886258,-0.257694,2.499,2.66399
0.894369,-0.257694,2.499,2.6667
0.89598,-0.255838,2.481,2.65021
0.904033,-0.255838,2.481,2.65294
0.912085,-0.255838,2.481,2.65569
0.913462,-0.253982,2.463,2.63918
0.921457,-0.253982,2.463,2.64196
0.922658,-0.252126,2.445,2.62543
0.930594,-0.252126,2.445,2.62823
0.93853,-0.252126,2.445,2.63105
0.946466,-0.252126,2.445,2.63389
0.954402,-0.252126,2.445,2.63675
0.962338,-0.252126,2.445,2.63964
0.970273,-0.252126,2.445,2.64254
0.971408,-0.250373,2.428,2.62707
0.979289,-0.250373,2.428,2.63
0.987169,-0.250373,2.428,2.63294
0.99505,-0.250373,2.428,2.63591
1.00293,-0.250373,2.428,2.63889
nan,nan,nan,NaN
nan,nan,nan,NaN
nan,nan,nan,NaN
nan,nan,nan,NaN
nan,nan,nan,NaN
nan,nan,nan,NaN
nan,nan,nan,NaN
nan,nan,nan,NaN
nan,nan,nan,NaN
nan,nan,nan,NaN
nan,nan,nan,NaN
nan,nan,nan,NaN
nan,nan,nan,NaN
1.70611,-0.383705,3.721,4.11143
1.71819,-0.383705,3.721,4.11646
1.73027,-0.383705,3.721,4.12152
1.74234,-0.383705,3.721,4.1266
1.75442,-0.383705,3.721,4.13172
1.7665,-0.383705,3.721,4.13686
1.77858,-0.383705,3.721,4.14203
1.79065,-0.383705,3.721,4.14723
1.80273,-0.383705,3.721,4.15246
1.81481,-0.383705,3.721,4.15772
1.82689,-0.383705,3.721,4.163
1.8192,-0.379581,3.681,4.12351
1.83114,-0.379581,3.681,4.12879
1.84309,-0.379581,3.681,4.13411
1.85504,-0.379581,3.681,4.13945
nan,nan,nan,NaN
nan,nan,nan,NaN
nan,nan,nan,NaN
nan,nan,nan,NaN
nan,nan,nan,NaN
nan,nan,nan,NaN
nan,nan,nan,NaN
1.95062,-0.379581,3.681,4.18315
1.94177,-0.375559,3.642,4.14436
1.95359,-0.375559,3.642,4.14991
1.96542,-0.375559,3.642,4.15549
1.95661,-0.371641,3.604,4.11767
1.9683,-0.371641,3.604,4.12325
1.98,-0.371641,3.604,4.12884
1.9707,-0.367722,3.566,4.09087
1.98227,-0.367722,3.566,4.09646
1.99385,-0.367722,3.566,4.10207
1.98461,-0.363907,3.529,4.06509
1.97571,-0.360194,3.493,4.02917
1.98704,-0.360194,3.493,4.03474
1.97836,-0.356585,3.458,3.99985
1.98958,-0.356585,3.458,4.00542
2.00081,-0.356585,3.458,4.011
2.01203,-0.356585,3.458,4.01661
2.02325,-0.356585,3.458,4.02225
2.01389,-0.352976,3.423,3.98714
2.025,-0.352976,3.423,3.99276
2.01588,-0.34947,3.389,3.95869
2.00714,-0.346067,3.356,3.9257
2.01804,-0.346067,3.356,3.93128
2.00958,-0.342767,3.324,3.89935
2.00092,-0.339467,3.292,3.86732
2.01161,-0.339467,3.292,3.87286
2.00264,-0.336168,3.26,3.84072
1.99469,-0.333074,3.23,3.81086
2.00517,-0.333074,3.23,3.81635
2.01566,-0.333074,3.23,3.82187
nan,nan,nan,NaN
nan,nan,nan,NaN
nan,nan,nan,NaN
nan,nan,nan,NaN
nan,nan,nan,NaN
1.89902,-0.304304,2.951,3.5224
1.87626,-0.299148,2.901,3.4678
1.85447,-0.294198,2.853,3.41544
1.86373,-0.294198,2.853,3.42048
1.84214,-0.289352,2.806,3.3691
1.82156,-0.284711,2.761,3.31998
1.83052,-0.284711,2.761,3.3249
1.81017,-0.280174,2.717,3.27678
1.79087,-0.275843,2.675,3.23093
1.79955,-0.275843,2.675,3.23575
1.79404,-0.273678,2.654,3.21515
1.78839,-0.271512,2.633,3.19449
-2.17901,-0.313705,3.141,3.83567
-2.16882,-0.313705,3.141,3.82989
-2.15862,-0.313705,3.141,3.82413
-2.14843,-0.313705,3.141,3.81838
-2.13823,-0.313705,3.141,3.81266
-2.14769,-0.316601,3.17,3.8421
-2.1374,-0.316601,3.17,3.83635
-2.12711,-0.316601,3.17,3.83063
-2.11682,-0.316601,3.17,3.82493
-2.10653,-0.316601,3.17,3.81924
-2.09624,-0.316601,3.17,3.81358
-2.12544,-0.322593,3.23,3.88001
-2.11495,-0.322593,3.23,3.87427
-2.10447,-0.322593,3.23,3.86856
-2.11343,-0.32559,3.26,3.89874
-2.12349,-0.328786,3.292,3.93123
-2.11281,-0.328786,3.292,3.92547
-2.12256,-0.331981,3.324,3.95783
-2.1321,-0.335177,3.356,3.9901
-2.1212,-0.335177,3.356,3.98429
-2.15244,-0.341869,3.423,4.05793
-2.16323,-0.345365,3.458,4.09348
-2.152,-0.345365,3.458,4.08756
-2.11911,-0.341869,3.423,4.04035
-2.108,-0.341869,3.423,4.03454
-2.09689,-0.341869,3.423,4.02874
-2.08578,-0.341869,3.423,4.02297
-2.07467,-0.341869,3.423,4.01722
-2.06356,-0.341869,3.423,4.01149
-2.05245,-0.341869,3.423,4.00579
-2.04134,-0.341869,3.423,4.00011
nan,nan,nan,NaN
nan,nan,nan,NaN
nan,nan,nan,NaN
nan,nan,nan,NaN
nan,nan,nan,NaN
nan,nan,nan,NaN
nan,nan,nan,NaN
nan,nan,nan,NaN
nan,nan,nan,NaN
nan,nan,nan,NaN
nan,nan,nan,NaN
nan,nan,nan,NaN
nan,nan,nan,NaN
nan,nan,nan,NaN
nan,nan,nan,NaN
nan,nan,nan,NaN
nan,nan,nan,NaN
nan,nan,nan,NaN
nan,nan,nan,NaN
nan,nan,nan,NaN
nan,nan,nan,NaN
nan,nan,nan,NaN
nan,nan,nan,NaN
nan,nan,nan,NaN
nan,nan,nan,NaN
nan,nan,nan,NaN
nan,nan,nan,NaN
nan,nan,nan,NaN
nan,nan,nan,NaN
nan,nan,nan,NaN
nan,nan,nan,NaN
nan,nan,nan,NaN
-1.19622,-0.244192,2.445,2.73287
-1.18828,-0.244192,2.445,2.72941
-1.18035,-0.244192,2.445,2.72596
-1.17241,-0.244192,2.445,2.72254
-1.16447,-0.244192,2.445,2.71913
-1.15654,-0.244192,2.445,2.71574
-1.1486,-0.244192,2.445,2.71237
-1.14067,-0.244192,2.445,2.70902
-1.13273,-0.244192,2.445,2.70569
-1.12479,-0.244192,2.445,2.70237
-1.11686,-0.244192,2.445,2.69908
-1.10121,-0.242494,2.428,2.67706
-1.09333,-0.242494,2.428,2.67383
-1.08545,-0.242494,2.428,2.67062
-1.07757,-0.242494,2.428,2.66742
-1.0622,-0.240796,2.411,2.6456
-1.05437,-0.240796,2.411,2.64246
-1.04655,-0.240796,2.411,2.63935
-1.03872,-0.240796,2.411,2.63626
-1.0309,-0.240796,2.411,2.63318
-1.02307,-0.240796,2.411,2.63013
-1.00809,-0.239099,2.394,2.60857
-1.00032,-0.239099,2.394,2.60558
-0.992548,-0.239099,2.394,2.60261
-0.984778,-0.239099,2.394,2.59965
-0.970069,-0.237401,2.377,2.57828
-0.962354,-0.237401,2.377,2.57539
-0.954639,-0.237401,2.377,2.57251
-0.946924,-0.237401,2.377,2.56966
-0.939209,-0.237401,2.377,2.56683
-0.931494,-0.237401,2.377,2.56401
-0.91756,-0.235803,2.361,2.54398
-0.909897,-0.235803,2.361,2.54123
-0.902234,-0.235803,2.361,2.53849
-0.894571,-0.235803,2.361,2.53578
-0.886907,-0.235803,2.361,2.53309
-0.879244,-0.235803,2.361,2.53041
-0.871581,-0.235803,2.361,2.52776
-0.863918,-0.235803,2.361,2.52513
-0.856255,-0.235803,2.361,2.52252
-0.848591,-0.235803,2.361,2.51993
-0.840928,-0.235803,2.361,2.51736
-0.838912,-0.237401,2.377,2.53185
-0.831197,-0.237401,2.377,2.5293
-0.823481,-0.237401,2.377,2.52678
-0.815766,-0.237401,2.377,2.52427
-0.808051,-0.237401,2.377,2.52179
-0.800336,-0.237401,2.377,2.51933
-0.792621,-0.237401,2.377,2.51689
-0.784906,-0.237401,2.377,2.51447
-0.782749,-0.239099,2.394,2.53004
-0.774979,-0.239099,2.394,2.52765
-0.767208,-0.239099,2.394,2.52527
-0.759438,-0.239099,2.394,2.52292
-0.751668,-0.239099,2.394,2.5206
-0.743897,-0.239099,2.394,2.51829
-0.741354,-0.240796,2.411,2.53387
-0.733529,-0.240796,2.411,2.53159
-0.725703,-0.240796,2.411,2.52934
-0.717878,-0.240796,2.411,2.5271
-0.715059,-0.242494,2.428,2.5427
-0.707178,-0.242494,2.428,2.54049
-0.699297,-0.242494,2.428,2.53831
-0.691417,-0.242494,2.428,2.53615
-0.683536,-0.242494,2.428,2.53401
-0.675655,-0.242494,2.428,2.5319
-0.67245,-0.244192,2.445,2.54752
-0.664514,-0.244192,2.445,2.54543
-0.656578,-0.244192,2.445,2.54337
-0.648643,-0.244192,2.445,2.54134
-0.645424,-0.24599,2.463,2.55802
-0.637429,-0.24599,2.463,2.55601
-0.629435,-0.24599,2.463,2.55403
-0.621441,-0.24599,2.463,2.55207
-0.613446,-0.24599,2.463,2.55014
-0.605452,-0.24599,2.463,2.54823
-0.601824,-0.247788,2.481,2.56495
-0.593771,-0.247788,2.481,2.56307
-0.589968,-0.249585,2.499,2.5798
-0.581857,-0.249585,2.499,2.57796
-0.573746,-0.249585,2.499,2.57614
-0.565635,-0.249585,2.499,2.57434
-0.557524,-0.249585,2.499,2.57257
-0.549413,-0.249585,2.499,2.57083
-0.537403,-0.247788,2.481,2.5506
-0.52935,-0.247788,2.481,2.54892
-0.521297,-0.247788,2.481,2.54726
-0.509521,-0.24599,2.463,2.52715
-0.501526,-0.24599,2.463,2.52555
-0.493532,-0.24599,2.463,2.52398
-0.485538,-0.24599,2.463,2.52242
-0.477544,-0.24599,2.463,2.5209
-0.469549,-0.24599,2.463,2.5194
-0.461555,-0.24599,2.463,2.51792
-0.453561,-0.24599,2.463,2.51647
-0.445566,-0.24599,2.463,2.51504
-0.437572,-0.24599,2.463,2.51363
-0.429578,-0.24599,2.463,2.51225
-0.421584,-0.24599,2.463,2.5109
-0.413589,-0.24599,2.463,2.50957
-0.405595,-0.24599,2.463,2.50826
-0.400506,-0.247788,2.481,2.52531
-0.392454,-0.247788,2.481,2.52404
-0.384401,-0.247788,2.481,2.5228
-0.376348,-0.247788,2.481,2.52159
-0.370968,-0.249585,2.499,2.53868
-0.362857,-0.249585,2.499,2.53751
-0.354745,-0.249585,2.499,2.53636
-0.346634,-0.249585,2.499,2.53524
-0.338523,-0.249585,2.499,2.53415
-0.330412,-0.249585,2.499,2.53307
-0.324622,-0.251383,2.517,2.55027
-0.316453,-0.251383,2.517,2.54924
-0.308283,-0.251383,2.517,2.54824
-0.297967,-0.249585,2.499,2.52905
-0.289856,-0.249585,2.499,2.5281
-0.281745,-0.249585,2.499,2.52719
-0.273634,-0.249585,2.499,2.5263
-0.265523,-0.249585,2.499,2.52543
-0.257412,-0.249585,2.499,2.52459
-0.249301,-0.249585,2.499,2.52378
-0.24119,-0.249585,2.499,2.52299
-0.233078,-0.249585,2.499,2.52223
-0.224967,-0.249585,2.499,2.52149
-0.216856,-0.249585,2.499,2.52078
-0.208745,-0.249585,2.499,2.52009
-0.202079,-0.251383,2.517,2.53758
-0.193909,-0.251383,2.517,2.53694
-0.18574,-0.251383,2.517,2.53633
-0.17757,-0.251383,2.517,2.53575
-0.169401,-0.251383,2.517,2.53519
-0.161231,-0.251383,2.517,2.53466
-0.153062,-0.251383,2.517,2.53415
-0.144892,-0.251383,2.517,2.53367
-0.137755,-0.253281,2.536,2.55234
-0.129523,-0.253281,2.536,2.55191
-0.121292,-0.253281,2.536,2.5515
-0.113061,-0.253281,2.536,2.55112
-0.10483,-0.253281,2.536,2.55077
-0.0965985,-0.253281,2.536,2.55045
-0.0883672,-0.253281,2.536,2.55015
-0.080136,-0.253281,2.536,2.54988
-0.0719048,-0.253281,2.536,2.54963
-0.0636736,-0.253281,2.536,2.54941
-0.0554423,-0.253281,2.536,2.54922
-0.0472111,-0.253281,2.536,2.54905
-0.0389799,-0.253281,2.536,2.54891
-0.0307487,-0.253281,2.536,2.5488
-0.0225174,-0.253281,2.536,2.54872
-0.0143932,-0.255178,2.555,2.56775
-0.00610034,-0.255178,2.555,2.56772
0.00219255,-0.255178,2.555,2.56771
0.0104854,-0.255178,2.555,2.56773
0.0187783,-0.255178,2.555,2.56778
0.0270712,-0.255178,2.555,2.56785
0.0353641,-0.255178,2.555,2.56795
0.043657,-0.255178,2.555,2.56808
0.0519499,-0.255178,2.555,2.56824
0.0602428,-0.255178,2.555,2.56842
0.0685357,-0.255178,2.555,2.56863
0.0762573,-0.253281,2.536,2.54976
0.0844885,-0.253281,2.536,2.55002
0.0927197,-0.253281,2.536,2.5503
0.100951,-0.253281,2.536,2.55062
0.109182,-0.253281,2.536,2.55095
0.117413,-0.253281,2.536,2.55132
0.125645,-0.253281,2.536,2.55171
0.133876,-0.253281,2.536,2.55213
0.142107,-0.253281,2.536,2.55258
0.149212,-0.251383,2.517,2.53392
0.157382,-0.251383,2.517,2.53441
0.165551,-0.251383,2.517,2.53493
0.173721,-0.251383,2.517,2.53548
0.18189,-0.251383,2.517,2.53605
0.19006,-0.251383,2.517,2.53665
0.198229,-0.251383,2.517,2.53728
0.206399,-0.251383,2.517,2.53793
0.214568,-0.251383,2.517,2.53861
0.222738,-0.251383,2.517,2.53931
0.230908,-0.251383,2.517,2.54004
0.240882,-0.253281,2.536,2.55997
0.249113,-0.253281,2.536,2.56076
0.257344,-0.253281,2.536,2.56158
0.265575,-0.253281,2.536,2.56242
0.271755,-0.251383,2.517,2.54408
0.279925,-0.251383,2.517,2.54496
0.288094,-0.251383,2.517,2.54588
0.296264,-0.251383,2.517,2.54681
0.306732,-0.253281,2.536,2.56701
0.314963,-0.253281,2.536,2.568
0.323194,-0.253281,2.536,2.56903
0.331425,-0.253281,2.536,2.57008
0.337112,-0.251383,2.517,2.55189
0.345281,-0.251383,2.517,2.55298
0.353451,-0.251383,2.517,2.5541
0.36162,-0.251383,2.517,2.55524
