-1.2882,0.48033,2.633,2.97033
-1.26993,0.476681,2.613,2.9441
-1.26145,0.476681,2.613,2.94045
-1.25297,0.476681,2.613,2.93682
-1.24449,0.476681,2.613,2.93321
-1.22654,0.473032,2.593,2.9072
-1.21813,0.473032,2.593,2.90366
-1.20085,0.469566,2.574,2.87889
-1.18369,0.4661,2.555,2.85419
-1.1754,0.4661,2.555,2.85076
-1.15843,0.462634,2.536,2.82618
-1.14158,0.459168,2.517,2.80166
-1.13341,0.459168,2.517,2.79835
-1.11719,0.455884,2.499,2.77506
-1.10109,0.452601,2.481,2.75184
-1.08511,0.449317,2.463,2.72868
-1.07712,0.449317,2.463,2.72551
-1.06131,0.446033,2.445,2.70247
-1.05337,0.446033,2.445,2.69936
-1.04544,0.446033,2.445,2.69628
-1.03029,0.442932,2.428,2.67448
-1.02241,0.442932,2.428,2.67146
-1.01452,0.442932,2.428,2.66845
-0.999596,0.439831,2.411,2.6468
-0.99177,0.439831,2.411,2.64386
-0.983945,0.439831,2.411,2.64093
-0.976119,0.439831,2.411,2.63803
-0.961466,0.436729,2.394,2.61656
-0.953696,0.436729,2.394,2.61371
-0.945926,0.436729,2.394,2.61089
-0.931494,0.433628,2.377,2.58956
-0.923778,0.433628,2.377,2.5868
-0.916063,0.433628,2.377,2.58405
-0.908348,0.433628,2.377,2.58133
-0.900633,0.433628,2.377,2.57862
-0.892918,0.433628,2.377,2.57594
-0.885203,0.433628,2.377,2.57328
-0.871581,0.430709,2.361,2.55333
-0.863918,0.430709,2.361,2.55072
-0.856255,0.430709,2.361,2.54814
-0.848591,0.430709,2.361,2.54557
-0.840928,0.430709,2.361,2.54303
-0.838912,0.433628,2.377,2.55772
-0.831197,0.433628,2.377,2.5552
-0.823481,0.433628,2.377,2.5527
-0.815766,0.433628,2.377,2.55022
-0.808051,0.433628,2.377,2.54777
-0.80606,0.436729,2.394,2.56353
-0.79829,0.436729,2.394,2.5611
-0.790519,0.436729,2.394,2.55869
-0.782749,0.436729,2.394,2.5563
-0.780482,0.439831,2.411,2.57207
-0.772656,0.439831,2.411,2.5697
-0.764831,0.439831,2.411,2.56736
-0.762343,0.442932,2.428,2.58313
-0.759745,0.446033,2.445,2.59888
-0.751809,0.446033,2.445,2.59657
-0.743873,0.446033,2.445,2.59429
-0.741355,0.449317,2.463,2.6111
-0.733361,0.449317,2.463,2.60884
-0.725366,0.449317,2.463,2.60661
-0.717372,0.449317,2.463,2.6044
-0.714562,0.452601,2.481,2.62122
-0.706509,0.452601,2.481,2.61904
-0.698457,0.452601,2.481,2.61688
-0.695413,0.455884,2.499,2.63371
-0.687302,0.455884,2.499,2.63158
-0.679191,0.455884,2.499,2.62947
-0.67108,0.455884,2.499,2.62739
-0.658193,0.452601,2.481,2.60642
-0.65014,0.452601,2.481,2.6044
-0.642088,0.452601,2.481,2.6024
-0.634035,0.452601,2.481,2.60043
-0.625982,0.452601,2.481,2.59847
-0.61793,0.452601,2.481,2.59654
-0.609877,0.452601,2.481,2.59464
-0.601824,0.452601,2.481,2.59276
-0.593771,0.452601,2.481,2.5909
-0.585719,0.452601,2.481,2.58907
-0.573475,0.449317,2.463,2.56849
-0.565481,0.449317,2.463,2.56671
-0.561561,0.452601,2.481,2.58371
-0.553508,0.452601,2.481,2.58197
-0.545455,0.452601,2.481,2.58026
-0.537403,0.452601,2.481,2.57857
-0.52935,0.452601,2.481,2.5769
-0.521297,0.452601,2.481,2.57526
-0.513244,0.452601,2.481,2.57364
-0.505192,0.452601,2.481,2.57205
-0.497139,0.452601,2.481,2.57048
-0.492635,0.455884,2.499,2.58757
-0.484524,0.455884,2.499,2.58604
-0.476412,0.455884,2.499,2.58453
-0.468301,0.455884,2.499,2.58305
-0.46019,0.455884,2.499,2.58159
-0.452079,0.455884,2.499,2.58016
-0.443968,0.455884,2.499,2.57875
-0.435857,0.455884,2.499,2.57736
-0.430827,0.459168,2.517,2.59456
-0.422657,0.459168,2.517,2.59321
-0.414487,0.459168,2.517,2.5919
-0.406318,0.459168,2.517,2.5906
-0.398148,0.459168,2.517,2.58933
-0.389979,0.459168,2.517,2.58809
-0.381809,0.459168,2.517,2.58687
-0.370968,0.455884,2.499,2.56719
-0.362857,0.455884,2.499,2.56603
-0.354745,0.455884,2.499,2.56489
-0.346634,0.455884,2.499,2.56378
-0.338523,0.455884,2.499,2.5627
-0.330412,0.455884,2.499,2.56164
-0.322301,0.455884,2.499,2.56061
-0.31419,0.455884,2.499,2.5596
-0.306079,0.455884,2.499,2.55862
-0.297967,0.455884,2.499,2.55766
-0.289856,0.455884,2.499,2.55673
-0.279716,0.452601,2.481,2.53741
-0.271663,0.452601,2.481,2.53654
-0.26361,0.452601,2.481,2.53569
-0.255558,0.452601,2.481,2.53486
-0.247505,0.452601,2.481,2.53406
-0.239452,0.452601,2.481,2.53329
-0.2314,0.452601,2.481,2.53254
-0.223347,0.452601,2.481,2.53182
-0.215294,0.452601,2.481,2.53112
-0.207241,0.452601,2.481,2.53045
-0.199189,0.452601,2.481,2.5298
-0.192523,0.455884,2.499,2.54753
-0.184412,0.455884,2.499,2.54693
-0.1763,0.455884,2.499,2.54635
-0.168189,0.455884,2.499,2.5458
-0.160078,0.455884,2.499,2.54528
-0.151967,0.455884,2.499,2.54478
-0.143856,0.455884,2.499,2.54431
-0.135745,0.455884,2.499,2.54387
-0.127634,0.455884,2.499,2.54345
-0.119523,0.455884,2.499,2.54305
-0.112214,0.459168,2.517,2.561
-0.104044,0.459168,2.517,2.56065
-0.0958747,0.459168,2.517,2.56034
-0.0877052,0.459168,2.517,2.56004
-0.0789668,0.455884,2.499,2.54147
-0.0708557,0.455884,2.499,2.54123
-0.0627446,0.455884,2.499,2.54102
-0.0546334,0.455884,2.499,2.54083
-0.0465223,0.455884,2.499,2.54067
-0.0384112,0.455884,2.499,2.54053
-0.0303,0.455884,2.499,2.54042
-0.0221889,0.455884,2.499,2.54034
-0.0140778,0.455884,2.499,2.54028
-0.00596664,0.455884,2.499,2.54025
0.00214449,0.455884,2.499,2.54024
0.0102556,0.455884,2.499,2.54026
0.0184991,0.459168,2.517,2.55861
0.0266686,0.459168,2.517,2.55868
0.0348382,0.459168,2.517,2.55878
0.0430077,0.459168,2.517,2.5589
0.0511773,0.459168,2.517,2.55905
0.0593468,0.459168,2.517,2.55923
0.0675164,0.459168,2.517,2.55943
0.075686,0.459168,2.517,2.55966
0.0838555,0.459168,2.517,2.55991
0.0920251,0.459168,2.517,2.56019
0.100195,0.459168,2.517,2.5605
0.108364,0.459168,2.517,2.56083
0.116534,0.459168,2.517,2.56119
0.124703,0.459168,2.517,2.56158
0.132873,0.459168,2.517,2.56199
0.141042,0.459168,2.517,2.56242
0.149212,0.459168,2.517,2.56289
0.157382,0.459168,2.517,2.56338
0.165551,0.459168,2.517,2.56389
0.175032,0.462634,2.536,2.58379
0.183263,0.462634,2.536,2.58436
0.19006,0.459168,2.517,2.56559
0.198229,0.459168,2.517,2.56621
0.206399,0.459168,2.517,2.56685
0.214568,0.459168,2.517,2.56752
0.222738,0.459168,2.517,2.56822
0.230908,0.459168,2.517,2.56894
0.239077,0.459168,2.517,2.56969
0.247247,0.459168,2.517,2.57046
0.255416,0.459168,2.517,2.57126
0.263586,0.459168,2.517,2.57208
0.271755,0.459168,2.517,2.57293
0.277923,0.455884,2.499,2.5554
0.286034,0.455884,2.499,2.5563
0.294145,0.455884,2.499,2.55722
0.302256,0.455884,2.499,2.55816
0.310368,0.455884,2.499,2.55913
0.316185,0.452601,2.481,2.54169
0.324237,0.452601,2.481,2.5427
0.33229,0.452601,2.481,2.54374
0.340343,0.452601,2.481,2.54481
0.348396,0.452601,2.481,2.5459
0.356448,0.452601,2.481,2.54701
0.364501,0.452601,2.481,2.54815
0.369851,0.449317,2.463,2.53082
0.377845,0.449317,2.463,2.532
0.385839,0.449317,2.463,2.5332
0.393834,0.449317,2.463,2.53443
0.401828,0.449317,2.463,2.53569
0.409822,0.449317,2.463,2.53697
0.414763,0.446033,2.445,2.51972
0.422699,0.446033,2.445,2.52104
0.430635,0.446033,2.445,2.52238
0.438571,0.446033,2.445,2.52375
0.446507,0.446033,2.445,2.52514
0.454442,0.446033,2.445,2.52656
0.462378,0.446033,2.445,2.528
0.470314,0.446033,2.445,2.52946
0.47825,0.446033,2.445,2.53095
0.486186,0.446033,2.445,2.53246
0.490686,0.442932,2.428,2.51638
0.495076,0.439831,2.411,2.50029
0.502901,0.439831,2.411,2.50186
0.510727,0.439831,2.411,2.50344
0.518552,0.439831,2.411,2.50505
0.526378,0.439831,2.411,2.50668
0.534203,0.439831,2.411,2.50834
0.538207,0.436729,2.394,2.49232
0.545977,0.436729,2.394,2.494
0.553748,0.436729,2.394,2.49572
0.561518,0.436729,2.394,2.49745
0.569288,0.436729,2.394,2.49921
0.577059,0.436729,2.394,2.50099
0.584829,0.436729,2.394,2.5028
0.588391,0.433628,2.377,2.48684
0.596106,0.433628,2.377,2.48868
0.603822,0.433628,2.377,2.49053
0.611537,0.433628,2.377,2.49242
0.615084,0.430709,2.361,2.47753
0.622747,0.430709,2.361,2.47944
0.63041,0.430709,2.361,2.48138
0.638073,0.430709,2.361,2.48334
0.645737,0.430709,2.361,2.48532
0.6534,0.430709,2.361,2.48732
0.661063,0.430709,2.361,2.48934
0.668726,0.430709,2.361,2.49139
0.676389,0.430709,2.361,2.49346
0.688688,0.433628,2.377,2.51246
0.696403,0.433628,2.377,2.51459
0.704119,0.433628,2.377,2.51673
0.711834,0.433628,2.377,2.5189
0.719549,0.433628,2.377,2.52109
0.727264,0.433628,2.377,2.52331
0.734979,0.433628,2.377,2.52554
0.742694,0.433628,2.377,2.5278
0.75041,0.433628,2.377,2.53007
0.758125,0.433628,2.377,2.53237
0.760685,0.430709,2.361,2.51763
0.768348,0.430709,2.361,2.51996
0.770752,0.427791,2.345,2.50521
0.773053,0.424872,2.329,2.49046
0.780612,0.424872,2.329,2.49281
0.782757,0.421953,2.313,2.47805
0.779673,0.416298,2.282,2.44719
0.776732,0.410825,2.252,2.41735
0.784042,0.410825,2.252,2.41971
0.78608,0.408089,2.237,2.40596
0.788376,0.405535,2.223,2.39327
0.795591,0.405535,2.223,2.39565
0.797751,0.402981,2.209,2.38296
0.804921,0.402981,2.209,2.38537
0.81209,0.402981,2.209,2.3878
0.81926,0.402981,2.209,2.39024
0.82643,0.402981,2.209,2.39271
0.8336,0.402981,2.209,2.3952
0.84077,0.402981,2.209,2.3977
0.84794,0.402981,2.209,2.40022
0.860529,0.405535,2.223,2.41799
0.867744,0.405535,2.223,2.42057
0.87496,0.405535,2.223,2.42317
0.887731,0.408089,2.237,2.44106
0.900993,0.410825,2.252,2.4601
0.908302,0.410825,2.252,2.46278
0.915612,0.410825,2.252,2.46549
0.929068,0.413561,2.267,2.48465
0.936427,0.413561,2.267,2.48741
0.950029,0.416298,2.282,2.50667
0.964149,0.419217,2.298,2.52708
0.971608,0.419217,2.298,2.52993
0.979067,0.419217,2.298,2.53281
0.992965,0.421953,2.313,2.55225
1.00047,0.421953,2.313,2.55518
1.00798,0.421953,2.313,2.55813
1.02251,0.424872,2.329,2.57881
1.03715,0.427791,2.345,2.59956
1.04476,0.427791,2.345,2.6026
1.05955,0.430709,2.361,2.62345
1.06721,0.430709,2.361,2.62655
1.07488,0.430709,2.361,2.62968
1.08988,0.433628,2.377,2.65066
1.09759,0.433628,2.377,2.65384
1.11321,0.436729,2.394,2.67604
1.12098,0.436729,2.394,2.67929
1.12875,0.436729,2.394,2.68255
1.14459,0.439831,2.411,2.7049
1.15242,0.439831,2.411,2.70822
1.16842,0.442932,2.428,2.73068
1.17631,0.442932,2.428,2.73406
1.18419,0.442932,2.428,2.73746
1.20041,0.446033,2.445,2.76007
1.20835,0.446033,2.445,2.76353
1.21629,0.446033,2.445,2.76701
1.23323,0.449317,2.463,2.7909
1.24123,0.449317,2.463,2.79444
1.24922,0.449317,2.463,2.798
1.25722,0.449317,2.463,2.80158
1.26521,0.449317,2.463,2.80518
1.27321,0.449317,2.463,2.80879
1.2812,0.449317,2.463,2.81242
1.28919,0.449317,2.463,2.81607
1.29719,0.449317,2.463,2.81974
1.30518,0.449317,2.463,2.82343
1.31318,0.449317,2.463,2.82713
1.32117,0.449317,2.463,2.83086
1.32917,0.449317,2.463,2.8346
1.33716,0.449317,2.463,2.83835
1.35498,0.452601,2.481,2.8629
1.37293,0.455884,2.499,2.88752
1.38104,0.455884,2.499,2.89138
1.40972,0.462634,2.536,2.93813
1.43919,0.469566,2.574,2.98618
1.44755,0.469566,2.574,2.99021
1.47796,0.476681,2.613,3.03963
1.50977,0.48416,2.654,3.09152
1.51838,0.48416,2.654,3.09574
1.53908,0.487991,2.675,3.1245
1.57206,0.495653,2.717,3.17791
1.58088,0.495653,2.717,3.18229
1.5897,0.495653,2.717,3.18668
1.61146,0.499667,2.739,3.21692
1.62035,0.499667,2.739,3.22139
1.61616,0.495653,2.717,3.19996
1.61241,0.491822,2.696,3.17965
1.62116,0.491822,2.696,3.1841
1.62992,0.491822,2.696,3.18856
1.61314,0.48416,2.654,3.1433
1.62175,0.48416,2.654,3.14773
1.61747,0.48033,2.633,3.12724
1.61366,0.476681,2.613,3.10788
1.60973,0.473032,2.593,3.08847
1.61814,0.473032,2.593,3.09286
1.60272,0.4661,2.555,3.05188
1.59903,0.462634,2.536,3.03352
1.60727,0.462634,2.536,3.03787
1.59193,0.455884,2.499,2.99784
1.58851,0.452601,2.481,2.98053
1.59657,0.452601,2.481,2.98483
1.59298,0.449317,2.463,2.96746
1.58927,0.446033,2.445,2.95004
1.59721,0.446033,2.445,2.95433
1.59398,0.442932,2.428,2.93805
1.59065,0.439831,2.411,2.92173
1.59847,0.439831,2.411,2.926
1.59497,0.436729,2.394,2.90962
1.59136,0.433628,2.377,2.8932
1.59908,0.433628,2.377,2.89745
1.59598,0.430709,2.361,2.88218
1.59277,0.427791,2.345,2.86687
-1.72115,0.460651,2.481,3.05449
-1.70067,0.457309,2.463,3.02783
-1.69268,0.457309,2.463,3.02335
-1.68468,0.457309,2.463,3.01888
-1.67669,0.457309,2.463,3.01443
-1.66869,0.457309,2.463,3.00999
-1.6607,0.457309,2.463,3.00556
-1.64063,0.453967,2.445,2.97922
-1.63269,0.453967,2.445,2.97486
-1.62475,0.453967,2.445,2.97051
-1.61682,0.453967,2.445,2.96618
-1.5977,0.45081,2.428,2.94127
-1.58981,0.45081,2.428,2.93699
-1.58193,0.45081,2.428,2.93273
-1.56303,0.447654,2.411,2.90799
-1.54424,0.444498,2.394,2.88331
-1.53647,0.444498,2.394,2.87916
-1.5287,0.444498,2.394,2.87502
-1.51013,0.441341,2.377,2.85051
-1.50241,0.441341,2.377,2.84643
-1.4947,0.441341,2.377,2.84237
-1.48698,0.441341,2.377,2.83832
-1.47927,0.441341,2.377,2.83428
-1.47155,0.441341,2.377,2.83026
-1.46384,0.441341,2.377,2.82626
-1.44632,0.43837,2.361,2.80327
-1.43866,0.43837,2.361,2.79933
-1.431,0.43837,2.361,2.7954
-1.43298,0.441341,2.377,2.8104
-1.42526,0.441341,2.377,2.80647
-1.41755,0.441341,2.377,2.80256
-1.40983,0.441341,2.377,2.79867
-1.40212,0.441341,2.377,2.79479
-1.3944,0.441341,2.377,2.79093
-1.38669,0.441341,2.377,2.78708
-1.37897,0.441341,2.377,2.78325
-1.38106,0.444498,2.394,2.79931
-1.37329,0.444498,2.394,2.79549
-1.37522,0.447654,2.411,2.8115
-1.37704,0.45081,2.428,2.82748
-1.36916,0.45081,2.428,2.82365
-1.37081,0.453967,2.445,2.83958
-1.3729,0.457309,2.463,2.85664
-1.36491,0.457309,2.463,2.8528
-1.37675,0.463993,2.499,2.89063
-1.3785,0.467335,2.517,2.90757
-1.39101,0.474391,2.555,2.94754
-1.38272,0.474391,2.555,2.94364
-1.38465,0.477919,2.574,2.96161
-1.39715,0.48516,2.613,3.00253
-1.38867,0.48516,2.613,2.99859
-1.39075,0.488873,2.633,3.01759
-1.3822,0.488873,2.633,3.01366
-1.38461,0.492772,2.654,3.03376
-1.376,0.492772,2.654,3.02984
-1.36738,0.492772,2.654,3.02593
-1.35877,0.492772,2.654,3.02205
-1.35016,0.492772,2.654,3.01819
-1.34154,0.492772,2.654,3.01434
-1.33293,0.492772,2.654,3.01052
-1.32431,0.492772,2.654,3.00672
-1.30529,0.488873,2.633,2.97917
-1.29674,0.488873,2.633,2.97544
-1.27841,0.48516,2.613,2.94915
-1.26993,0.48516,2.613,2.94548
-1.25179,0.481446,2.593,2.91932
-1.24338,0.481446,2.593,2.91572
-1.23496,0.481446,2.593,2.91214
-1.21756,0.477919,2.574,2.88727
-1.2092,0.477919,2.574,2.88376
-1.19198,0.474391,2.555,2.859
-1.17489,0.470863,2.536,2.83432
-1.16666,0.470863,2.536,2.83092
-1.14975,0.467335,2.517,2.80635
-1.13341,0.463993,2.499,2.78297
-1.1253,0.463993,2.499,2.77968
-1.11719,0.463993,2.499,2.7764
-1.10109,0.460651,2.481,2.75317
-1.08511,0.457309,2.463,2.73001
-1.07712,0.457309,2.463,2.72684
-1.06131,0.453967,2.445,2.70379
-1.04605,0.45081,2.428,2.68191
-1.03817,0.45081,2.428,2.67884
-1.03029,0.45081,2.428,2.6758
-1.01525,0.447654,2.411,2.65406
-1.00742,0.447654,2.411,2.65108
-0.999596,0.447654,2.411,2.64811
-0.99177,0.447654,2.411,2.64517
-0.983945,0.447654,2.411,2.64225
-0.969237,0.444498,2.394,2.62073
-0.961466,0.444498,2.394,2.61787
-0.946924,0.441341,2.377,2.59645
-0.939209,0.441341,2.377,2.59365
-0.931494,0.441341,2.377,2.59087
-0.923778,0.441341,2.377,2.5881
-0.916063,0.441341,2.377,2.58536
-0.908348,0.441341,2.377,2.58264
-0.900633,0.441341,2.377,2.57993
-0.892918,0.441341,2.377,2.57725
-0.885203,0.441341,2.377,2.57459
-0.871581,0.43837,2.361,2.55463
-0.863918,0.43837,2.361,2.55203
-0.856255,0.43837,2.361,2.54944
-0.848591,0.43837,2.361,2.54688
-0.846627,0.441341,2.377,2.56158
-0.838912,0.441341,2.377,2.55904
-0.831197,0.441341,2.377,2.55652
-0.823481,0.441341,2.377,2.55402
-0.821601,0.444498,2.394,2.56979
-0.81383,0.444498,2.394,2.56732
-0.80606,0.444498,2.394,2.56487
-0.79829,0.444498,2.394,2.56244
-0.790519,0.444498,2.394,2.56003
-0.782749,0.444498,2.394,2.55764
-0.780482,0.447654,2.411,2.57342
-0.772656,0.447654,2.411,2.57105
-0.764831,0.447654,2.411,2.56871
-0.762343,0.45081,2.428,2.58449
-0.759745,0.453967,2.445,2.60025
-0.751809,0.453967,2.445,2.59795
-0.743873,0.453967,2.445,2.59566
-0.741355,0.457309,2.463,2.61249
-0.733361,0.457309,2.463,2.61023
-0.725366,0.457309,2.463,2.608
-0.717372,0.457309,2.463,2.60579
-0.714562,0.460651,2.481,2.62262
-0.706509,0.460651,2.481,2.62044
-0.698457,0.460651,2.481,2.61828
-0.695413,0.463993,2.499,2.63513
-0.687302,0.463993,2.499,2.633
-0.679191,0.463993,2.499,2.63089
-0.67108,0.463993,2.499,2.62881
-0.662968,0.463993,2.499,2.62675
-0.65014,0.460651,2.481,2.60581
-0.642088,0.460651,2.481,2.60381
-0.634035,0.460651,2.481,2.60184
-0.625982,0.460651,2.481,2.59989
-0.61793,0.460651,2.481,2.59796
-0.609877,0.460651,2.481,2.59606
-0.601824,0.460651,2.481,2.59418
-0.593771,0.460651,2.481,2.59232
-0.585719,0.460651,2.481,2.59049
-0.577666,0.460651,2.481,2.58868
-0.569613,0.460651,2.481,2.58689
-0.561561,0.460651,2.481,2.58513
-0.553508,0.460651,2.481,2.5834
-0.545455,0.460651,2.481,2.58168
-0.537403,0.460651,2.481,2.57999
-0.52935,0.460651,2.481,2.57833
-0.521297,0.460651,2.481,2.57669
-0.513244,0.460651,2.481,2.57507
-0.505192,0.460651,2.481,2.57348
-0.497139,0.460651,2.481,2.57191
-0.492635,0.463993,2.499,2.58901
-0.484524,0.463993,2.499,2.58748
-0.476412,0.463993,2.499,2.58597
-0.468301,0.463993,2.499,2.58449
-0.463505,0.467335,2.517,2.60164
-0.455335,0.467335,2.517,2.6002
-0.447166,0.467335,2.517,2.59878
-0.438996,0.467335,2.517,2.59739
-0.430827,0.467335,2.517,2.59602
-0.422657,0.467335,2.517,2.59467
-0.414487,0.467335,2.517,2.59336
-0.406318,0.467335,2.517,2.59206
-0.398148,0.467335,2.517,2.59079
-0.389979,0.467335,2.517,2.58955
-0.381809,0.467335,2.517,2.58833
-0.37364,0.467335,2.517,2.58714
-0.36547,0.467335,2.517,2.58597
-0.357301,0.467335,2.517,2.58483
-0.349131,0.467335,2.517,2.58372
-0.340961,0.467335,2.517,2.58262
-0.330412,0.463993,2.499,2.5631
-0.322301,0.463993,2.499,2.56206
-0.31419,0.463993,2.499,2.56106
-0.306079,0.463993,2.499,2.56007
-0.297967,0.463993,2.499,2.55912
-0.289856,0.463993,2.499,2.55818
-0.279716,0.460651,2.481,2.53886
-0.271663,0.460651,2.481,2.53798
-0.26361,0.460651,2.481,2.53713
-0.255558,0.460651,2.481,2.53631
-0.247505,0.460651,2.481,2.53551
-0.239452,0.460651,2.481,2.53474
-0.2314,0.460651,2.481,2.53399
-0.223347,0.460651,2.481,2.53327
-0.215294,0.460651,2.481,2.53257
-0.207241,0.460651,2.481,2.5319
-0.199189,0.460651,2.481,2.53125
-0.191136,0.460651,2.481,2.53063
-0.183083,0.460651,2.481,2.53004
-0.175031,0.460651,2.481,2.52947
-0.168189,0.463993,2.499,2.54727
-0.160078,0.463993,2.499,2.54675
-0.151967,0.463993,2.499,2.54625
-0.143856,0.463993,2.499,2.54578
-0.135745,0.463993,2.499,2.54533
-0.127634,0.463993,2.499,2.54491
-0.119523,0.463993,2.499,2.54452
-0.112214,0.467335,2.517,2.56248
-0.104044,0.467335,2.517,2.56213
-0.0958747,0.467335,2.517,2.56181
-0.087078,0.463993,2.499,2.5432
-0.0789668,0.463993,2.499,2.54294
-0.0708557,0.463993,2.499,2.5427
-0.0627446,0.463993,2.499,2.54248
-0.0546334,0.463993,2.499,2.5423
-0.0465223,0.463993,2.499,2.54214
-0.0384112,0.463993,2.499,2.542
-0.0303,0.463993,2.499,2.54189
-0.0221889,0.463993,2.499,2.54181
-0.0140778,0.463993,2.499,2.54175
-0.00596664,0.463993,2.499,2.54172
0.00214449,0.463993,2.499,2.54171
0.0102556,0.463993,2.499,2.54173
0.0184991,0.467335,2.517,2.56008
0.0266686,0.467335,2.517,2.56016
0.0348382,0.467335,2.517,2.56026
0.0430077,0.467335,2.517,2.56038
0.0511773,0.467335,2.517,2.56053
0.0593468,0.467335,2.517,2.56071
0.0675164,0.467335,2.517,2.56091
0.075686,0.467335,2.517,2.56114
0.0838555,0.467335,2.517,2.56139
0.0920251,0.467335,2.517,2.56167
0.100195,0.467335,2.517,2.56198
0.108364,0.467335,2.517,2.56231
0.116534,0.467335,2.517,2.56267
0.124703,0.467335,2.517,2.56305
0.132873,0.467335,2.517,2.56346
0.141042,0.467335,2.517,2.5639
0.149212,0.467335,2.517,2.56436
0.157382,0.467335,2.517,2.56485
0.165551,0.467335,2.517,2.56537
0.175032,0.470863,2.536,2.58527
0.183263,0.470863,2.536,2.58584
0.19006,0.467335,2.517,2.56706
0.198229,0.467335,2.517,2.56768
0.206399,0.467335,2.517,2.56832
0.214568,0.467335,2.517,2.56899
0.222738,0.467335,2.517,2.56969
0.230908,0.467335,2.517,2.57041
0.240882,0.470863,2.536,2.59057
0.247247,0.467335,2.517,2.57193
0.255416,0.467335,2.517,2.57273
0.263586,0.467335,2.517,2.57355
0.271755,0.467335,2.517,2.5744
0.277923,0.463993,2.499,2.55686
0.286034,0.463993,2.499,2.55775
0.294145,0.463993,2.499,2.55867
0.302256,0.463993,2.499,2.55962
0.310368,0.463993,2.499,2.56059
0.318479,0.463993,2.499,2.56159
0.32659,0.463993,2.499,2.56261
0.33229,0.460651,2.481,2.54519
0.340343,0.460651,2.481,2.54625
0.348396,0.460651,2.481,2.54734
0.353862,0.457309,2.463,2.52996
0.361856,0.457309,2.463,2.53109
0.369851,0.457309,2.463,2.53225
0.377845,0.457309,2.463,2.53343
0.385839,0.457309,2.463,2.53463
0.393834,0.457309,2.463,2.53586
0.401828,0.457309,2.463,2.53712
0.406827,0.453967,2.445,2.51985
0.414763,0.453967,2.445,2.52114
0.422699,0.453967,2.445,2.52246
0.430635,0.453967,2.445,2.5238
0.438571,0.453967,2.445,2.52516
0.446507,0.453967,2.445,2.52656
0.454442,0.453967,2.445,2.52797
0.462378,0.453967,2.445,2.52941
0.467044,0.45081,2.428,2.51327
0.474925,0.45081,2.428,2.51475
0.482805,0.45081,2.428,2.51625
0.490686,0.45081,2.428,2.51777
0.495076,0.447654,2.411,2.50168
0.502901,0.447654,2.411,2.50324
0.510727,0.447654,2.411,2.50483
0.518552,0.447654,2.411,2.50643
0.522667,0.444498,2.394,2.49038
0.530437,0.444498,2.394,2.49202
0.538207,0.444498,2.394,2.49369
0.545977,0.444498,2.394,2.49538
0.553748,0.444498,2.394,2.49709
0.561518,0.444498,2.394,2.49882
0.569288,0.444498,2.394,2.50058
0.577059,0.444498,2.394,2.50236
0.580676,0.441341,2.377,2.48638
0.588391,0.441341,2.377,2.4882
0.596106,0.441341,2.377,2.49003
0.603822,0.441341,2.377,2.49189
0.60742,0.43837,2.361,2.47698
0.615084,0.43837,2.361,2.47887
0.622747,0.43837,2.361,2.48079
0.63041,0.43837,2.361,2.48272
0.638073,0.43837,2.361,2.48468
0.645737,0.43837,2.361,2.48666
0.6534,0.43837,2.361,2.48866
0.661063,0.43837,2.361,2.49068
0.668726,0.43837,2.361,2.49273
0.676389,0.43837,2.361,2.49479
0.684053,0.43837,2.361,2.49688
0.691716,0.43837,2.361,2.49899
0.699379,0.43837,2.361,2.50112
0.707042,0.43837,2.361,2.50328
0.714706,0.43837,2.361,2.50545
0.727264,0.441341,2.377,2.52464
0.734979,0.441341,2.377,2.52688
0.742694,0.441341,2.377,2.52913
0.75041,0.441341,2.377,2.53141
0.758125,0.441341,2.377,2.53371
0.760685,0.43837,2.361,2.51895
0.768348,0.43837,2.361,2.52128
0.770752,0.4354,2.345,2.50652
0.773053,0.432429,2.329,2.49176
0.780612,0.432429,2.329,2.49411
0.782757,0.429458,2.313,2.47934
0.779673,0.423702,2.282,2.44846
0.776732,0.418132,2.252,2.41861
0.784042,0.418132,2.252,2.42096
0.78608,0.415347,2.237,2.4072
0.788376,0.412748,2.223,2.3945
0.795591,0.412748,2.223,2.39688
0.797751,0.410148,2.209,2.38418
0.804921,0.410148,2.209,2.38659
0.81209,0.410148,2.209,2.38902
0.81926,0.410148,2.209,2.39146
0.82643,0.410148,2.209,2.39393
0.8336,0.410148,2.209,2.39641
0.84077,0.410148,2.209,2.39892
0.84794,0.410148,2.209,2.40144
0.860529,0.412748,2.223,2.41921
0.873209,0.415347,2.237,2.43704
0.88047,0.415347,2.237,2.43965
0.893683,0.418132,2.252,2.45866
0.900993,0.418132,2.252,2.46133
0.908302,0.418132,2.252,2.46401
0.915612,0.418132,2.252,2.46672
0.929068,0.420917,2.267,2.48589
0.936427,0.420917,2.267,2.48865
0.950029,0.423702,2.282,2.50791
0.964149,0.426673,2.298,2.52833
0.971608,0.426673,2.298,2.53118
0.985457,0.429458,2.313,2.55059
0.992965,0.429458,2.313,2.5535
1.00047,0.429458,2.313,2.55643
1.00798,0.429458,2.313,2.55938
1.02251,0.432429,2.329,2.58007
1.03715,0.4354,2.345,2.60082
1.04476,0.4354,2.345,2.60387
1.05955,0.43837,2.361,2.62472
1.06721,0.43837,2.361,2.62782
1.07488,0.43837,2.361,2.63094
1.08988,0.441341,2.377,2.65193
1.09759,0.441341,2.377,2.65511
1.11321,0.444498,2.394,2.67732
1.12098,0.444498,2.394,2.68056
1.12875,0.444498,2.394,2.68382
1.14459,0.447654,2.411,2.70618
1.15242,0.447654,2.411,2.7095
1.16842,0.45081,2.428,2.73196
1.17631,0.45081,2.428,2.73534
1.18419,0.45081,2.428,2.73874
1.20041,0.453967,2.445,2.76136
1.20835,0.453967,2.445,2.76482
1.21629,0.453967,2.445,2.7683
1.23323,0.457309,2.463,2.7922
1.24123,0.457309,2.463,2.79574
1.24922,0.457309,2.463,2.7993
1.25722,0.457309,2.463,2.80287
1.26521,0.457309,2.463,2.80647
1.27321,0.457309,2.463,2.81008
1.2812,0.457309,2.463,2.81371
1.28919,0.457309,2.463,2.81736
1.29719,0.457309,2.463,2.82103
1.30518,0.457309,2.463,2.82471
1.31318,0.457309,2.463,2.82842
1.32117,0.457309,2.463,2.83214
1.32917,0.457309,2.463,2.83587
1.33716,0.457309,2.463,2.83963
1.35498,0.460651,2.481,2.86418
1.37293,0.463993,2.499,2.88881
1.38104,0.463993,2.499,2.89267
1.40972,0.470863,2.536,2.93944
1.43919,0.477919,2.574,2.9875
1.44755,0.477919,2.574,2.99153
1.46665,0.481446,2.593,3.0177
1.48644,0.48516,2.613,3.0451
1.49492,0.48516,2.613,3.04925
1.527,0.492772,2.654,3.10133
1.54776,0.496671,2.675,3.13015
1.56866,0.50057,2.696,3.15906
1.57741,0.50057,2.696,3.16342
1.59852,0.50447,2.717,3.19247
1.60734,0.50447,2.717,3.19689
1.60366,0.50057,2.696,3.17659
1.61241,0.50057,2.696,3.18102
1.62116,0.50057,2.696,3.18546
1.61722,0.496671,2.675,3.16508
1.61314,0.492772,2.654,3.14464
1.62175,0.492772,2.654,3.14907
1.61747,0.488873,2.633,3.12856
1.61366,0.48516,2.613,3.10919
1.59793,0.477919,2.574,3.06713
1.60629,0.477919,2.574,3.07149
1.60272,0.474391,2.555,3.05316
1.59903,0.470863,2.536,3.03478
1.60727,0.470863,2.536,3.03913
1.59193,0.463993,2.499,2.99909
1.58851,0.460651,2.481,2.98177
1.59657,0.460651,2.481,2.98606
1.59298,0.457309,2.463,2.96868
1.57822,0.45081,2.428,2.93073
1.5861,0.45081,2.428,2.93498
1.59398,0.45081,2.428,2.93925
1.57943,0.444498,2.394,2.90231
1.5872,0.444498,2.394,2.90655
1.59497,0.444498,2.394,2.9108
1.59136,0.441341,2.377,2.89436
1.59908,0.441341,2.377,2.89861
1.58516,0.4354,2.345,2.8638
1.5819,0.432429,2.329,2.84845
-1.72115,0.468702,2.481,3.05572
-1.70067,0.465301,2.463,3.02905
-1.69268,0.465301,2.463,3.02457
-1.68468,0.465301,2.463,3.0201
-1.67669,0.465301,2.463,3.01565
-1.66869,0.465301,2.463,3.01121
-1.6607,0.465301,2.463,3.00679
-1.64063,0.461901,2.445,2.98044
-1.63269,0.461901,2.445,2.97608
-1.62475,0.461901,2.445,2.97173
-1.61682,0.461901,2.445,2.9674
-1.5977,0.458689,2.428,2.94248
-1.58981,0.458689,2.428,2.93821
-1.58193,0.458689,2.428,2.93396
-1.56303,0.455477,2.411,2.9092
-1.54424,0.452266,2.394,2.88452
-1.53647,0.452266,2.394,2.88037
-1.5287,0.452266,2.394,2.87623
-1.52093,0.452266,2.394,2.87211
-1.51316,0.452266,2.394,2.868
-1.4947,0.449054,2.377,2.84357
-1.48698,0.449054,2.377,2.83952
-1.47927,0.449054,2.377,2.83549
-1.47155,0.449054,2.377,2.83148
-1.46384,0.449054,2.377,2.82747
-1.44632,0.446032,2.361,2.80448
-1.43866,0.446032,2.361,2.80054
-1.431,0.446032,2.361,2.79661
-1.43298,0.449054,2.377,2.81162
-1.42526,0.449054,2.377,2.8077
-1.41755,0.449054,2.377,2.80379
-1.40983,0.449054,2.377,2.79989
-1.40212,0.449054,2.377,2.79602
-1.3944,0.449054,2.377,2.79216
-1.38669,0.449054,2.377,2.78831
-1.37897,0.449054,2.377,2.78448
-1.38106,0.452266,2.394,2.80056
-1.37329,0.452266,2.394,2.79673
-1.37522,0.455477,2.411,2.81276
-1.37704,0.458689,2.428,2.82875
-1.36916,0.458689,2.428,2.82492
-1.37081,0.461901,2.445,2.84086
-1.3729,0.465301,2.463,2.85793
-1.36491,0.465301,2.463,2.85409
-1.37675,0.472102,2.499,2.89194
-1.3785,0.475502,2.517,2.90889
-1.39101,0.482681,2.555,2.94889
-1.38272,0.482681,2.555,2.94498
-1.38465,0.486271,2.574,2.96297
-1.39715,0.493638,2.613,3.00391
-1.38867,0.493638,2.613,2.99997
-1.39075,0.497417,2.633,3.01899
-1.39323,0.501384,2.654,3.03911
-1.38461,0.501384,2.654,3.03517
-1.376,0.501384,2.654,3.03125
-1.36738,0.501384,2.654,3.02735
-1.35877,0.501384,2.654,3.02347
-1.35016,0.501384,2.654,3.01961
-1.33093,0.497417,2.633,2.9919
-1.32238,0.497417,2.633,2.98811
-1.31383,0.497417,2.633,2.98434
-1.30529,0.497417,2.633,2.98059
-1.29674,0.497417,2.633,2.97685
-1.27841,0.493638,2.613,2.95056
-1.26021,0.48986,2.593,2.92434
-1.24262,0.486271,2.574,2.89932
-1.23427,0.486271,2.574,2.89575
-1.22591,0.486271,2.574,2.8922
-1.20857,0.482681,2.555,2.86734
-1.20028,0.482681,2.555,2.86386
-1.18312,0.479092,2.536,2.83912
-1.17489,0.479092,2.536,2.8357
-1.16666,0.479092,2.536,2.8323
-1.14975,0.475502,2.517,2.80772
-1.13341,0.472102,2.499,2.78433
-1.1253,0.472102,2.499,2.78104
-1.10914,0.468702,2.481,2.75776
-1.0931,0.465301,2.463,2.73455
-1.07718,0.461901,2.445,2.7114
-1.06924,0.461901,2.445,2.70826
-1.06131,0.461901,2.445,2.70513
-1.04605,0.458689,2.428,2.68324
-1.03817,0.458689,2.428,2.68018
-1.03029,0.458689,2.428,2.67714
-1.01525,0.455477,2.411,2.65539
-1.00742,0.455477,2.411,2.65241
-0.999596,0.455477,2.411,2.64945
-0.99177,0.455477,2.411,2.64651
-0.983945,0.455477,2.411,2.64358
-0.969237,0.452266,2.394,2.62206
-0.961466,0.452266,2.394,2.6192
-0.946924,0.449054,2.377,2.59778
-0.939209,0.449054,2.377,2.59497
-0.931494,0.449054,2.377,2.59219
-0.923778,0.449054,2.377,2.58943
-0.916063,0.449054,2.377,2.58669
-0.908348,0.449054,2.377,2.58397
-0.900633,0.449054,2.377,2.58126
-0.892918,0.449054,2.377,2.57858
-0.885203,0.449054,2.377,2.57592
-0.877488,0.449054,2.377,2.57328
-0.869772,0.449054,2.377,2.57066
-0.862057,0.449054,2.377,2.56806
-0.854342,0.449054,2.377,2.56548
-0.846627,0.449054,2.377,2.56292
-0.838912,0.449054,2.377,2.56038
-0.831197,0.449054,2.377,2.55786
-0.829371,0.452266,2.394,2.57364
-0.821601,0.452266,2.394,2.57115
-0.81383,0.452266,2.394,2.56868
-0.80606,0.452266,2.394,2.56623
-0.79829,0.452266,2.394,2.5638
-0.790519,0.452266,2.394,2.56139
-0.782749,0.452266,2.394,2.559
-0.780482,0.455477,2.411,2.57479
-0.772656,0.455477,2.411,2.57243
-0.764831,0.455477,2.411,2.57009
-0.762343,0.458689,2.428,2.58587
-0.759745,0.461901,2.445,2.60165
-0.751809,0.461901,2.445,2.59934
-0.743873,0.461901,2.445,2.59706
-0.741355,0.465301,2.463,2.6139
-0.733361,0.465301,2.463,2.61165
-0.725366,0.465301,2.463,2.60941
-0.717372,0.465301,2.463,2.6072
-0.714562,0.468702,2.481,2.62405
-0.706509,0.468702,2.481,2.62187
-0.698457,0.468702,2.481,2.61971
-0.695413,0.472102,2.499,2.63657
-0.687302,0.472102,2.499,2.63444
-0.679191,0.472102,2.499,2.63233
-0.67108,0.472102,2.499,2.63025
-0.662968,0.472102,2.499,2.6282
-0.65014,0.468702,2.481,2.60724
-0.642088,0.468702,2.481,2.60525
-0.634035,0.468702,2.481,2.60328
-0.625982,0.468702,2.481,2.60133
-0.61793,0.468702,2.481,2.5994
-0.609877,0.468702,2.481,2.5975
-0.601824,0.468702,2.481,2.59562
-0.593771,0.468702,2.481,2.59376
-0.585719,0.468702,2.481,2.59193
-0.577666,0.468702,2.481,2.59012
-0.569613,0.468702,2.481,2.58834
-0.561561,0.468702,2.481,2.58658
-0.553508,0.468702,2.481,2.58484
-0.545455,0.468702,2.481,2.58313
-0.537403,0.468702,2.481,2.58144
-0.52935,0.468702,2.481,2.57978
-0.521297,0.468702,2.481,2.57814
-0.513244,0.468702,2.481,2.57652
-0.505192,0.468702,2.481,2.57493
-0.497139,0.468702,2.481,2.57336
-0.492635,0.472102,2.499,2.59048
-0.484524,0.472102,2.499,2.58895
-0.476412,0.472102,2.499,2.58744
-0.468301,0.472102,2.499,2.58596
-0.463505,0.475502,2.517,2.60312
-0.455335,0.475502,2.517,2.60168
-0.447166,0.475502,2.517,2.60026
-0.438996,0.475502,2.517,2.59887
-0.430827,0.475502,2.517,2.5975
-0.422657,0.475502,2.517,2.59616
-0.414487,0.475502,2.517,2.59484
-0.406318,0.475502,2.517,2.59355
-0.398148,0.475502,2.517,2.59228
-0.389979,0.475502,2.517,2.59104
-0.381809,0.475502,2.517,2.58982
-0.37364,0.475502,2.517,2.58863
-0.36547,0.475502,2.517,2.58746
-0.357301,0.475502,2.517,2.58632
-0.349131,0.475502,2.517,2.58521
-0.340961,0.475502,2.517,2.58411
-0.330412,0.472102,2.499,2.56458
-0.322301,0.472102,2.499,2.56354
-0.31419,0.472102,2.499,2.56254
-0.306079,0.472102,2.499,2.56156
-0.297967,0.472102,2.499,2.5606
-0.289856,0.472102,2.499,2.55967
-0.279716,0.468702,2.481,2.54033
-0.271663,0.468702,2.481,2.53946
-0.26361,0.468702,2.481,2.53861
-0.255558,0.468702,2.481,2.53779
-0.247505,0.468702,2.481,2.53699
-0.239452,0.468702,2.481,2.53621
-0.2314,0.468702,2.481,2.53547
-0.223347,0.468702,2.481,2.53474
-0.215294,0.468702,2.481,2.53405
-0.207241,0.468702,2.481,2.53338
-0.199189,0.468702,2.481,2.53273
-0.191136,0.468702,2.481,2.53211
-0.183083,0.468702,2.481,2.53151
-0.175031,0.468702,2.481,2.53094
-0.166978,0.468702,2.481,2.5304
-0.160078,0.472102,2.499,2.54824
-0.151967,0.472102,2.499,2.54774
-0.143856,0.472102,2.499,2.54727
-0.135745,0.472102,2.499,2.54682
-0.127634,0.472102,2.499,2.5464
-0.119523,0.472102,2.499,2.54601
-0.111411,0.472102,2.499,2.54564
-0.1033,0.472102,2.499,2.5453
-0.0951891,0.472102,2.499,2.54498
-0.087078,0.472102,2.499,2.54469
-0.0789668,0.472102,2.499,2.54443
-0.0708557,0.472102,2.499,2.54419
-0.0627446,0.472102,2.499,2.54398
-0.0546334,0.472102,2.499,2.54379
-0.0465223,0.472102,2.499,2.54363
-0.0384112,0.472102,2.499,2.54349
-0.0303,0.472102,2.499,2.54338
-0.0221889,0.472102,2.499,2.5433
-0.0140778,0.472102,2.499,2.54324
-0.00596664,0.472102,2.499,2.54321
0.00214449,0.472102,2.499,2.5432
0.0102556,0.472102,2.499,2.54322
0.0184991,0.475502,2.517,2.56159
0.0266686,0.475502,2.517,2.56166
0.0348382,0.475502,2.517,2.56176
0.0430077,0.475502,2.517,2.56188
0.0511773,0.475502,2.517,2.56203
0.0593468,0.475502,2.517,2.56221
0.0675164,0.475502,2.517,2.56241
0.075686,0.475502,2.517,2.56264
0.0838555,0.475502,2.517,2.56289
0.0920251,0.475502,2.517,2.56317
0.100195,0.475502,2.517,2.56348
0.108364,0.475502,2.517,2.56381
0.116534,0.475502,2.517,2.56417
0.125645,0.479092,2.536,2.58391
0.133876,0.479092,2.536,2.58433
0.142107,0.479092,2.536,2.58477
0.150338,0.479092,2.536,2.58523
0.15857,0.479092,2.536,2.58572
0.166801,0.479092,2.536,2.58624
0.175032,0.479092,2.536,2.58679
0.183263,0.479092,2.536,2.58736
0.191494,0.479092,2.536,2.58795
0.198229,0.475502,2.517,2.56918
0.206399,0.475502,2.517,2.56982
0.216188,0.479092,2.536,2.5899
0.224419,0.479092,2.536,2.5906
0.232651,0.479092,2.536,2.59132
0.240882,0.479092,2.536,2.59207
0.247247,0.475502,2.517,2.57343
0.255416,0.475502,2.517,2.57422
0.263586,0.475502,2.517,2.57505
0.271755,0.475502,2.517,2.5759
0.279925,0.475502,2.517,2.57677
0.288094,0.475502,2.517,2.57767
0.296264,0.475502,2.517,2.5786
0.302256,0.472102,2.499,2.5611
0.310368,0.472102,2.499,2.56207
0.318479,0.472102,2.499,2.56307
0.32659,0.472102,2.499,2.56409
0.33229,0.468702,2.481,2.54666
0.340343,0.468702,2.481,2.54772
0.348396,0.468702,2.481,2.54881
0.353862,0.465301,2.463,2.53142
0.361856,0.465301,2.463,2.53255
0.369851,0.465301,2.463,2.53371
0.377845,0.465301,2.463,2.53488
0.385839,0.465301,2.463,2.53609
0.393834,0.465301,2.463,2.53732
0.401828,0.465301,2.463,2.53857
0.406827,0.461901,2.445,2.52129
0.414763,0.461901,2.445,2.52258
0.422699,0.461901,2.445,2.5239
0.430635,0.461901,2.445,2.52524
0.438571,0.461901,2.445,2.5266
0.446507,0.461901,2.445,2.52799
0.454442,0.461901,2.445,2.52941
0.462378,0.461901,2.445,2.53084
0.467044,0.458689,2.428,2.5147
0.474925,0.458689,2.428,2.51617
0.482805,0.458689,2.428,2.51767
0.490686,0.458689,2.428,2.5192
0.495076,0.455477,2.411,2.50309
0.502901,0.455477,2.411,2.50465
0.510727,0.455477,2.411,2.50624
0.518552,0.455477,2.411,2.50784
0.522667,0.452266,2.394,2.49178
0.530437,0.452266,2.394,2.49342
0.538207,0.452266,2.394,2.49508
0.545977,0.452266,2.394,2.49677
0.553748,0.452266,2.394,2.49848
0.561518,0.452266,2.394,2.50022
0.569288,0.452266,2.394,2.50197
0.577059,0.452266,2.394,2.50375
0.580676,0.449054,2.377,2.48776
0.588391,0.449054,2.377,2.48957
0.596106,0.449054,2.377,2.49141
0.603822,0.449054,2.377,2.49327
0.60742,0.446032,2.361,2.47835
0.615084,0.446032,2.361,2.48024
0.622747,0.446032,2.361,2.48215
0.63041,0.446032,2.361,2.48409
0.638073,0.446032,2.361,2.48604
0.645737,0.446032,2.361,2.48802
0.6534,0.446032,2.361,2.49002
0.661063,0.446032,2.361,2.49204
0.668726,0.446032,2.361,2.49409
0.676389,0.446032,2.361,2.49615
0.684053,0.446032,2.361,2.49824
0.691716,0.446032,2.361,2.50035
0.699379,0.446032,2.361,2.50248
0.707042,0.446032,2.361,2.50463
0.714706,0.446032,2.361,2.5068
0.727264,0.449054,2.377,2.526
0.730032,0.446032,2.361,2.51122
0.737695,0.446032,2.361,2.51346
0.745358,0.446032,2.361,2.51572
0.747919,0.443009,2.345,2.50093
0.75553,0.443009,2.345,2.50322
0.763141,0.443009,2.345,2.50553
0.765494,0.439986,2.329,2.49074
0.762763,0.43413,2.298,2.45989
0.770222,0.43413,2.298,2.46222
0.772266,0.431107,2.282,2.4474
0.774548,0.428273,2.267,2.43365
0.771559,0.422606,2.237,2.40376
0.77882,0.422606,2.237,2.4061
0.781161,0.419961,2.223,2.39339
0.783411,0.417316,2.209,2.38067
0.790581,0.417316,2.209,2.38303
0.792334,0.414483,2.194,2.36922
0.799455,0.414483,2.194,2.37162
0.81209,0.417316,2.209,2.39026
0.81926,0.417316,2.209,2.3927
0.82643,0.417316,2.209,2.39517
0.8336,0.417316,2.209,2.39765
0.84077,0.417316,2.209,2.40015
0.84794,0.417316,2.209,2.40267
0.860529,0.419961,2.223,2.42046
0.873209,0.422606,2.237,2.43829
0.88047,0.422606,2.237,2.4409
0.893683,0.42544,2.252,2.45991
0.900993,0.42544,2.252,2.46258
0.908302,0.42544,2.252,2.46526
0.915612,0.42544,2.252,2.46796
0.929068,0.428273,2.267,2.48714
0.936427,0.428273,2.267,2.4899
0.950029,0.431107,2.282,2.50917
0.964149,0.43413,2.298,2.5296
0.971608,0.43413,2.298,2.53245
0.985457,0.436964,2.313,2.55187
0.992965,0.436964,2.313,2.55478
1.00047,0.436964,2.313,2.5577
1.00798,0.436964,2.313,2.56065
1.02251,0.439986,2.329,2.58135
1.03007,0.439986,2.329,2.58435
1.03763,0.439986,2.329,2.58737
1.05237,0.443009,2.345,2.60821
1.06721,0.446032,2.361,2.62911
1.07488,0.446032,2.361,2.63223
1.08254,0.446032,2.361,2.63537
1.09759,0.449054,2.377,2.6564
1.10531,0.449054,2.377,2.6596
1.11302,0.449054,2.377,2.66282
1.12875,0.452266,2.394,2.68512
1.14459,0.455477,2.411,2.70748
1.15242,0.455477,2.411,2.7108
1.16842,0.458689,2.428,2.73328
1.17631,0.458689,2.428,2.73665
1.18419,0.458689,2.428,2.74005
1.20041,0.461901,2.445,2.76267
1.20835,0.461901,2.445,2.76613
1.21629,0.461901,2.445,2.76961
1.22422,0.461901,2.445,2.7731
1.24123,0.465301,2.463,2.79706
1.24922,0.465301,2.463,2.80061
1.25722,0.465301,2.463,2.80419
1.26521,0.465301,2.463,2.80778
1.27321,0.465301,2.463,2.81139
1.2812,0.465301,2.463,2.81502
1.28919,0.465301,2.463,2.81867
1.29719,0.465301,2.463,2.82233
1.30518,0.465301,2.463,2.82602
1.31318,0.465301,2.463,2.82972
1.33083,0.468702,2.481,2.85414
1.33888,0.468702,2.481,2.85791
1.34693,0.468702,2.481,2.86169
1.35498,0.468702,2.481,2.86549
1.37293,0.472102,2.499,2.89012
1.38104,0.472102,2.499,2.89398
1.39915,0.475502,2.517,2.91874
1.41795,0.479092,2.536,2.94472
1.42618,0.479092,2.536,2.9487
1.4559,0.486271,2.574,2.99693
1.48644,0.493638,2.613,3.04647
1.49492,0.493638,2.613,3.05061
1.51491,0.497417,2.633,3.07816
1.53561,0.501384,2.654,3.10696
1.55644,0.505351,2.675,3.13584
1.56512,0.505351,2.675,3.14016
1.58616,0.509319,2.696,3.16918
1.59491,0.509319,2.696,3.17357
1.60366,0.509319,2.696,3.17798
1.59985,0.505351,2.675,3.15762
1.60854,0.505351,2.675,3.16202
1.61722,0.505351,2.675,3.16645
1.61314,0.501384,2.654,3.146
1.62175,0.501384,2.654,3.15043
1.61747,0.497417,2.633,3.12991
1.61366,0.493638,2.613,3.11052
1.59793,0.486271,2.574,3.06844
1.60629,0.486271,2.574,3.0728
1.60272,0.482681,2.555,3.05446
1.59903,0.479092,2.536,3.03607
1.60727,0.479092,2.536,3.04042
1.59193,0.472102,2.499,3.00035
1.58851,0.468702,2.481,2.98302
1.59657,0.468702,2.481,2.98732
1.59298,0.465301,2.463,2.96992
1.57822,0.458689,2.428,2.93196
1.5861,0.458689,2.428,2.9362
1.59398,0.458689,2.428,2.94047
1.57943,0.452266,2.394,2.90351
1.5872,0.452266,2.394,2.90775
1.58365,0.449054,2.377,2.89132
1.58065,0.446032,2.361,2.87606
1.58831,0.446032,2.361,2.88028
1.58516,0.443009,2.345,2.86496
1.5819,0.439986,2.329,2.84961
-1.72115,0.476752,2.481,3.05696
-1.7131,0.476752,2.481,3.05244
-1.70505,0.476752,2.481,3.04792
-1.69699,0.476752,2.481,3.04343
-1.68894,0.476752,2.481,3.03894
-1.66869,0.473293,2.463,3.01246
-1.6607,0.473293,2.463,3.00804
-1.6527,0.473293,2.463,3.00363
-1.64471,0.473293,2.463,2.99924
-1.63672,0.473293,2.463,2.99486
-1.62872,0.473293,2.463,2.9905
-1.60888,0.469834,2.445,2.96433
-1.60095,0.469834,2.445,2.96003
-1.59301,0.469834,2.445,2.95575
-1.57405,0.466567,2.428,2.93096
-1.55521,0.463301,2.411,2.90624
-1.54738,0.463301,2.411,2.90206
-1.53956,0.463301,2.411,2.8979
-1.53173,0.463301,2.411,2.89375
-1.5239,0.463301,2.411,2.88961
-1.50539,0.460034,2.394,2.86515
-1.48698,0.456767,2.377,2.84075
-1.47927,0.456767,2.377,2.83672
-1.47155,0.456767,2.377,2.83271
-1.46384,0.456767,2.377,2.82871
-1.45612,0.456767,2.377,2.82472
-1.44841,0.456767,2.377,2.82075
-1.44069,0.456767,2.377,2.8168
-1.43298,0.456767,2.377,2.81286
-1.42526,0.456767,2.377,2.80894
-1.41755,0.456767,2.377,2.80503
-1.40983,0.456767,2.377,2.80114
-1.40212,0.456767,2.377,2.79727
-1.3944,0.456767,2.377,2.79341
-1.38669,0.456767,2.377,2.78956
-1.37897,0.456767,2.377,2.78574
-1.38106,0.460034,2.394,2.80182
-1.37329,0.460034,2.394,2.798
-1.37522,0.463301,2.411,2.81404
-1.37704,0.466567,2.428,2.83004
-1.36916,0.466567,2.428,2.82621
-1.37081,0.469834,2.445,2.84216
-1.3729,0.473293,2.463,2.85924
-1.36491,0.473293,2.463,2.85541
-1.37675,0.480211,2.499,2.89327
-1.3785,0.48367,2.517,2.91024
-1.39101,0.490972,2.555,2.95025
-1.38272,0.490972,2.555,2.94635
-1.39487,0.498274,2.593,2.98623
-1.39715,0.502117,2.613,3.00531
-1.38867,0.502117,2.613,3.00138
-1.39075,0.50596,2.633,3.02041
-1.39323,0.509996,2.654,3.04054
-1.38461,0.509996,2.654,3.0366
-1.376,0.509996,2.654,3.03269
-1.36738,0.509996,2.654,3.02879
-1.35877,0.509996,2.654,3.02491
-1.35016,0.509996,2.654,3.02105
-1.33093,0.50596,2.633,2.99333
-1.32238,0.50596,2.633,2.98954
-1.31383,0.50596,2.633,2.98577
-1.30529,0.50596,2.633,2.98202
-1.29674,0.50596,2.633,2.97829
-1.27841,0.502117,2.613,2.95199
-1.26021,0.498274,2.593,2.92576
-1.24262,0.494623,2.574,2.90073
-1.23427,0.494623,2.574,2.89716
-1.22591,0.494623,2.574,2.89361
-1.20857,0.490972,2.555,2.86875
-1.20028,0.490972,2.555,2.86527
-1.18312,0.487321,2.536,2.84052
-1.17489,0.487321,2.536,2.8371
-1.16666,0.487321,2.536,2.8337
-1.14975,0.48367,2.517,2.80912
-1.13341,0.480211,2.499,2.78572
-1.1253,0.480211,2.499,2.78243
-1.10914,0.476752,2.481,2.75914
-1.0931,0.473293,2.463,2.73592
-1.07718,0.469834,2.445,2.71276
-1.06924,0.469834,2.445,2.70962
-1.06131,0.469834,2.445,2.7065
-1.04605,0.466567,2.428,2.6846
-1.03817,0.466567,2.428,2.68154
-1.02307,0.463301,2.411,2.65975
-1.01525,0.463301,2.411,2.65675
-1.00742,0.463301,2.411,2.65376
-0.999596,0.463301,2.411,2.6508
-0.984778,0.460034,2.394,2.62919
-0.977007,0.460034,2.394,2.62629
-0.969237,0.460034,2.394,2.62341
-0.961466,0.460034,2.394,2.62055
-0.946924,0.456767,2.377,2.59912
-0.939209,0.456767,2.377,2.59632
-0.931494,0.456767,2.377,2.59354
-0.923778,0.456767,2.377,2.59078
-0.916063,0.456767,2.377,2.58804
-0.908348,0.456767,2.377,2.58532
-0.900633,0.456767,2.377,2.58262
-0.892918,0.456767,2.377,2.57994
-0.885203,0.456767,2.377,2.57728
-0.877488,0.456767,2.377,2.57464
-0.869772,0.456767,2.377,2.57202
-0.862057,0.456767,2.377,2.56942
-0.854342,0.456767,2.377,2.56684
-0.846627,0.456767,2.377,2.56428
-0.838912,0.456767,2.377,2.56175
-0.831197,0.456767,2.377,2.55923
-0.829371,0.460034,2.394,2.57502
-0.821601,0.460034,2.394,2.57253
-0.81383,0.460034,2.394,2.57006
-0.80606,0.460034,2.394,2.56761
-0.79829,0.460034,2.394,2.56518
-0.790519,0.460034,2.394,2.56277
-0.782749,0.460034,2.394,2.56038
-0.780482,0.463301,2.411,2.57618
-0.772656,0.463301,2.411,2.57382
-0.764831,0.463301,2.411,2.57148
-0.762343,0.466567,2.428,2.58728
-0.759745,0.469834,2.445,2.60307
-0.751809,0.469834,2.445,2.60077
-0.743873,0.469834,2.445,2.59848
-0.741355,0.473293,2.463,2.61534
-0.733361,0.473293,2.463,2.61308
-0.725366,0.473293,2.463,2.61085
-0.717372,0.473293,2.463,2.60864
-0.714562,0.476752,2.481,2.6255
-0.706509,0.476752,2.481,2.62332
-0.698457,0.476752,2.481,2.62116
-0.695413,0.480211,2.499,2.63803
-0.687302,0.480211,2.499,2.6359
-0.679191,0.480211,2.499,2.6338
-0.67108,0.480211,2.499,2.63172
-0.662968,0.480211,2.499,2.62966
-0.654857,0.480211,2.499,2.62763
-0.642088,0.476752,2.481,2.60671
-0.634035,0.476752,2.481,2.60474
-0.625982,0.476752,2.481,2.60279
-0.622413,0.480211,2.499,2.61973
-0.614302,0.480211,2.499,2.61782
-0.606191,0.480211,2.499,2.61593
-0.598079,0.480211,2.499,2.61406
-0.589968,0.480211,2.499,2.61221
-0.577666,0.476752,2.481,2.59159
-0.569613,0.476752,2.481,2.58981
-0.561561,0.476752,2.481,2.58805
-0.553508,0.476752,2.481,2.58631
-0.545455,0.476752,2.481,2.5846
-0.537403,0.476752,2.481,2.58292
-0.52935,0.476752,2.481,2.58125
-0.521297,0.476752,2.481,2.57961
-0.513244,0.476752,2.481,2.578
-0.508857,0.480211,2.499,2.5951
-0.500746,0.480211,2.499,2.59352
-0.492635,0.480211,2.499,2.59197
-0.484524,0.480211,2.499,2.59044
-0.476412,0.480211,2.499,2.58893
-0.471674,0.48367,2.517,2.60609
-0.463505,0.48367,2.517,2.60462
-0.455335,0.48367,2.517,2.60318
-0.447166,0.48367,2.517,2.60177
-0.438996,0.48367,2.517,2.60037
-0.430827,0.48367,2.517,2.59901
-0.422657,0.48367,2.517,2.59767
-0.414487,0.48367,2.517,2.59635
-0.409385,0.487321,2.536,2.61465
-0.401154,0.487321,2.536,2.61337
-0.392923,0.487321,2.536,2.61212
-0.384691,0.487321,2.536,2.61089
-0.37646,0.487321,2.536,2.60969
-0.368229,0.487321,2.536,2.60852
-0.357301,0.48367,2.517,2.58784
-0.349131,0.48367,2.517,2.58672
-0.340961,0.48367,2.517,2.58563
-0.332792,0.48367,2.517,2.58457
-0.324622,0.48367,2.517,2.58353
-0.316453,0.48367,2.517,2.58251
-0.306079,0.480211,2.499,2.56306
-0.297967,0.480211,2.499,2.56211
-0.289856,0.480211,2.499,2.56118
-0.279716,0.476752,2.481,2.54183
-0.271663,0.476752,2.481,2.54096
-0.26361,0.476752,2.481,2.54011
-0.255558,0.476752,2.481,2.53928
-0.247505,0.476752,2.481,2.53849
-0.239452,0.476752,2.481,2.53771
-0.2314,0.476752,2.481,2.53697
-0.223347,0.476752,2.481,2.53624
-0.215294,0.476752,2.481,2.53555
-0.207241,0.476752,2.481,2.53488
-0.199189,0.476752,2.481,2.53423
-0.192523,0.480211,2.499,2.55199
-0.183083,0.476752,2.481,2.53302
-0.175031,0.476752,2.481,2.53245
-0.166978,0.476752,2.481,2.5319
-0.160078,0.480211,2.499,2.54975
-0.151967,0.480211,2.499,2.54925
-0.143856,0.480211,2.499,2.54878
-0.135745,0.480211,2.499,2.54834
-0.127634,0.480211,2.499,2.54792
-0.119523,0.480211,2.499,2.54753
-0.111411,0.480211,2.499,2.54716
-0.1033,0.480211,2.499,2.54682
-0.0951891,0.480211,2.499,2.5465
-0.087078,0.480211,2.499,2.54621
-0.0795356,0.48367,2.517,2.56428
-0.0713661,0.48367,2.517,2.56404
-0.0627446,0.480211,2.499,2.54549
-0.0546334,0.480211,2.499,2.54531
-0.0465223,0.480211,2.499,2.54515
-0.0384112,0.480211,2.499,2.54501
-0.0303,0.480211,2.499,2.5449
-0.0221889,0.480211,2.499,2.54482
-0.0140778,0.480211,2.499,2.54476
-0.00596664,0.480211,2.499,2.54473
0.00214449,0.480211,2.499,2.54472
0.0103295,0.48367,2.517,2.56307
0.0184991,0.48367,2.517,2.56312
0.0266686,0.48367,2.517,2.56319
0.0348382,0.48367,2.517,2.56329
0.0430077,0.48367,2.517,2.56341
0.0511773,0.48367,2.517,2.56356
0.0593468,0.48367,2.517,2.56374
0.0675164,0.48367,2.517,2.56394
0.075686,0.48367,2.517,2.56417
0.0838555,0.48367,2.517,2.56442
0.0920251,0.48367,2.517,2.5647
0.100195,0.48367,2.517,2.56501
0.108364,0.48367,2.517,2.56534
0.116534,0.48367,2.517,2.5657
0.125645,0.487321,2.536,2.58545
0.133876,0.487321,2.536,2.58587
0.142107,0.487321,2.536,2.5863
0.150338,0.487321,2.536,2.58677
0.15857,0.487321,2.536,2.58726
0.166801,0.487321,2.536,2.58778
0.175032,0.487321,2.536,2.58832
0.183263,0.487321,2.536,2.58889
0.191494,0.487321,2.536,2.58949
0.199726,0.487321,2.536,2.59011
0.207957,0.487321,2.536,2.59076
0.216188,0.487321,2.536,2.59143
0.224419,0.487321,2.536,2.59213
0.232651,0.487321,2.536,2.59286
0.240882,0.487321,2.536,2.59361
0.249113,0.487321,2.536,2.59439
0.257344,0.487321,2.536,2.59519
0.265575,0.487321,2.536,2.59602
0.273807,0.487321,2.536,2.59687
0.279925,0.48367,2.517,2.57829
0.288094,0.48367,2.517,2.57919
0.296264,0.48367,2.517,2.58012
0.302256,0.480211,2.499,2.56261
0.310368,0.480211,2.499,2.56358
0.318479,0.480211,2.499,2.56457
0.324237,0.476752,2.481,2.54711
0.33229,0.476752,2.481,2.54815
0.340343,0.476752,2.481,2.54921
0.348396,0.476752,2.481,2.5503
0.353862,0.473293,2.463,2.5329
0.361856,0.473293,2.463,2.53403
0.369851,0.473293,2.463,2.53519
0.377845,0.473293,2.463,2.53636
0.385839,0.473293,2.463,2.53757
0.393834,0.473293,2.463,2.53879
0.401828,0.473293,2.463,2.54005
0.406827,0.469834,2.445,2.52275
0.414763,0.469834,2.445,2.52404
0.422699,0.469834,2.445,2.52536
0.430635,0.469834,2.445,2.5267
0.438571,0.469834,2.445,2.52807
0.446507,0.469834,2.445,2.52945
0.451283,0.466567,2.428,2.51327
0.459163,0.466567,2.428,2.5147
0.467044,0.466567,2.428,2.51615
0.474925,0.466567,2.428,2.51762
0.482805,0.466567,2.428,2.51912
0.48725,0.463301,2.411,2.50299
0.495076,0.463301,2.411,2.50453
0.502901,0.463301,2.411,2.50609
0.510727,0.463301,2.411,2.50767
0.514896,0.460034,2.394,2.49158
0.522667,0.460034,2.394,2.4932
0.530437,0.460034,2.394,2.49484
0.538207,0.460034,2.394,2.4965
0.545977,0.460034,2.394,2.49819
0.553748,0.460034,2.394,2.4999
0.557531,0.456767,2.377,2.48387
0.565246,0.456767,2.377,2.48561
0.572961,0.456767,2.377,2.48738
0.580676,0.456767,2.377,2.48917
0.584431,0.453693,2.361,2.47421
0.592094,0.453693,2.361,2.47603
0.599757,0.453693,2.361,2.47788
0.60742,0.453693,2.361,2.47974
