nan,nan,nan,NaN
nan,nan,nan,NaN
nan,nan,nan,NaN
nan,nan,nan,NaN
nan,nan,nan,NaN
nan,nan,nan,NaN
nan,nan,nan,NaN
nan,nan,nan,NaN
nan,nan,nan,NaN
nan,nan,nan,NaN
nan,nan,nan,NaN
nan,nan,nan,NaN
nan,nan,nan,NaN
nan,nan,nan,NaN
nan,nan,nan,NaN
nan,nan,nan,NaN
nan,nan,nan,NaN
nan,nan,nan,NaN
nan,nan,nan,NaN
nan,nan,nan,NaN
nan,nan,nan,NaN
nan,nan,nan,NaN
nan,nan,nan,NaN
nan,nan,nan,NaN
nan,nan,nan,NaN
nan,nan,nan,NaN
nan,nan,nan,NaN
nan,nan,nan,NaN
1.82501,-0.197477,3.423,3.88415
1.83612,-0.197477,3.423,3.88938
1.86612,-0.199496,3.458,3.93446
1.87734,-0.199496,3.458,3.9398
1.88857,-0.199496,3.458,3.94516
1.91902,-0.201515,3.493,3.99053
1.91102,-0.199496,3.458,3.95595
1.92224,-0.199496,3.458,3.96138
1.93346,-0.199496,3.458,3.96684
1.925,-0.197477,3.423,3.93212
1.91688,-0.195516,3.389,3.89846
1.92788,-0.195516,3.389,3.90388
1.92,-0.193612,3.356,3.87126
1.9309,-0.193612,3.356,3.87667
1.92327,-0.191766,3.324,3.84509
1.93406,-0.191766,3.324,3.8505
1.94485,-0.191766,3.324,3.85593
1.95564,-0.191766,3.324,3.86138
1.96643,-0.191766,3.324,3.86686
1.95818,-0.189919,3.292,3.83508
1.96887,-0.189919,3.292,3.84054
1.97955,-0.189919,3.292,3.84603
1.97089,-0.188073,3.26,3.8141
1.98147,-0.188073,3.26,3.81958
1.99205,-0.188073,3.26,3.82508
1.96516,-0.184554,3.199,3.75893
1.95764,-0.182881,3.17,3.73024
1.96793,-0.182881,3.17,3.73565
1.94202,-0.179535,3.112,3.67263
1.93456,-0.17792,3.084,3.64489
1.94457,-0.17792,3.084,3.65021
1.92035,-0.174804,3.03,3.59155
1.86394,-0.168804,2.926,3.47336
1.84206,-0.165978,2.877,3.42021
1.8514,-0.165978,2.877,3.42525
1.82969,-0.163208,2.829,3.37308
1.80897,-0.160555,2.783,3.32314
1.81801,-0.160555,2.783,3.32806
1.8126,-0.159285,2.761,3.30666
1.79253,-0.156747,2.717,3.25881
1.80135,-0.156747,2.717,3.26367
1.78218,-0.154324,2.675,3.21802
1.77681,-0.153112,2.654,3.19753
1.78542,-0.153112,2.654,3.20233
1.76632,-0.150747,2.613,3.15759
1.76122,-0.149593,2.593,3.13814
-1.96257,-0.154029,2.829,3.44654
-1.95339,-0.154029,2.829,3.44132
-1.9284,-0.152777,2.806,3.40818
-1.88851,-0.150326,2.761,3.34846
-1.86457,-0.149129,2.739,3.31677
-1.85568,-0.149129,2.739,3.31179
-1.84679,-0.149129,2.739,3.30681
-1.82314,-0.147931,2.717,3.27533
-1.81432,-0.147931,2.717,3.27043
-1.79155,-0.146787,2.696,3.24031
-1.7828,-0.146787,2.696,3.23548
-1.77405,-0.146787,2.696,3.23067
-1.7653,-0.146787,2.696,3.22587
-1.77023,-0.147931,2.717,3.24618
-1.76141,-0.147931,2.717,3.24138
-1.78097,-0.150326,2.761,3.28901
-1.77201,-0.150326,2.761,3.28417
-1.79179,-0.152777,2.806,3.33279
-1.81254,-0.155336,2.853,3.38364
-1.80328,-0.155336,2.853,3.37869
-1.8242,-0.157949,2.901,3.43052
-1.81478,-0.157949,2.901,3.42552
-1.82093,-0.15931,2.926,3.45002
-1.81143,-0.15931,2.926,3.44502
-1.81733,-0.160671,2.951,3.46942
-1.82368,-0.162087,2.977,3.49494
-1.81401,-0.162087,2.977,3.48991
-1.80435,-0.162087,2.977,3.48489
-1.79469,-0.162087,2.977,3.4799
-1.78503,-0.162087,2.977,3.47493
-1.77536,-0.162087,2.977,3.46997
-1.7657,-0.162087,2.977,3.46504
-1.75604,-0.162087,2.977,3.46013
-1.74638,-0.162087,2.977,3.45523
nan,nan,nan,NaN
nan,nan,nan,NaN
nan,nan,nan,NaN
nan,nan,nan,NaN
nan,nan,nan,NaN
nan,nan,nan,NaN
nan,nan,nan,NaN
nan,nan,nan,NaN
nan,nan,nan,NaN
nan,nan,nan,NaN
nan,nan,nan,NaN
nan,nan,nan,NaN
nan,nan,nan,NaN
nan,nan,nan,NaN
nan,nan,nan,NaN
nan,nan,nan,NaN
nan,nan,nan,NaN
nan,nan,nan,NaN
nan,nan,nan,NaN
nan,nan,nan,NaN
nan,nan,nan,NaN
nan,nan,nan,NaN
nan,nan,nan,NaN
nan,nan,nan,NaN
nan,nan,nan,NaN
nan,nan,nan,NaN
nan,nan,nan,NaN
nan,nan,nan,NaN
nan,nan,nan,NaN
-1.22264,-0.136061,2.499,2.78538
-1.21453,-0.136061,2.499,2.78183
-1.20641,-0.136061,2.499,2.7783
-1.18967,-0.135081,2.481,2.7548
-1.18162,-0.135081,2.481,2.75133
-1.16505,-0.134101,2.463,2.72795
-1.1486,-0.133121,2.445,2.70463
-1.14067,-0.133121,2.445,2.70127
-1.12485,-0.132196,2.428,2.67917
-1.10915,-0.13127,2.411,2.65714
-1.10133,-0.13127,2.411,2.65388
-1.0935,-0.13127,2.411,2.65064
-1.07802,-0.130345,2.394,2.62876
-1.07025,-0.130345,2.394,2.62558
-1.06248,-0.130345,2.394,2.62242
-1.05471,-0.130345,2.394,2.61928
-1.03951,-0.129419,2.377,2.59759
-1.03179,-0.129419,2.377,2.59451
-1.02408,-0.129419,2.377,2.59145
-1.01636,-0.129419,2.377,2.58841
-1.00865,-0.129419,2.377,2.58539
-1.00093,-0.129419,2.377,2.58239
-0.993215,-0.129419,2.377,2.57941
-0.992548,-0.130345,2.394,2.59488
-0.984778,-0.130345,2.394,2.59191
-0.977007,-0.130345,2.394,2.58897
-0.969237,-0.130345,2.394,2.58605
-0.961466,-0.130345,2.394,2.58315
-0.953696,-0.130345,2.394,2.58026
-0.945926,-0.130345,2.394,2.5774
-0.938156,-0.130345,2.394,2.57456
-0.930385,-0.130345,2.394,2.57174
-0.922615,-0.130345,2.394,2.56894
-0.914845,-0.130345,2.394,2.56616
-0.907074,-0.130345,2.394,2.5634
-0.899304,-0.130345,2.394,2.56066
-0.891534,-0.130345,2.394,2.55794
-0.883763,-0.130345,2.394,2.55524
-0.875993,-0.130345,2.394,2.55257
-0.868223,-0.130345,2.394,2.54991
-0.866562,-0.13127,2.411,2.56536
-0.858737,-0.13127,2.411,2.56273
-0.850911,-0.13127,2.411,2.56012
-0.843086,-0.13127,2.411,2.55753
-0.83526,-0.13127,2.411,2.55496
-0.827435,-0.13127,2.411,2.55241
-0.825388,-0.132196,2.428,2.56786
-0.817508,-0.132196,2.428,2.56534
-0.809627,-0.132196,2.428,2.56284
-0.801746,-0.132196,2.428,2.56036
-0.793866,-0.132196,2.428,2.55791
-0.785985,-0.132196,2.428,2.55547
-0.778104,-0.132196,2.428,2.55306
-0.770224,-0.132196,2.428,2.55067
-0.767681,-0.133121,2.445,2.56614
-0.754462,-0.132196,2.428,2.54595
-0.746581,-0.132196,2.428,2.54363
-0.738701,-0.132196,2.428,2.54133
-0.73082,-0.132196,2.428,2.53905
-0.722939,-0.132196,2.428,2.53679
-0.715059,-0.132196,2.428,2.53456
-0.707178,-0.132196,2.428,2.53234
-0.699297,-0.132196,2.428,2.53015
-0.691417,-0.132196,2.428,2.52799
-0.683536,-0.132196,2.428,2.52584
-0.675655,-0.132196,2.428,2.52372
-0.667775,-0.132196,2.428,2.52162
-0.659894,-0.132196,2.428,2.51955
-0.652013,-0.132196,2.428,2.5175
-0.644133,-0.132196,2.428,2.51547
-0.636252,-0.132196,2.428,2.51346
-0.628371,-0.132196,2.428,2.51148
-0.620491,-0.132196,2.428,2.50952
-0.61261,-0.132196,2.428,2.50758
-0.604729,-0.132196,2.428,2.50567
-0.596848,-0.132196,2.428,2.50377
-0.593092,-0.133121,2.445,2.51943
-0.585156,-0.133121,2.445,2.51757
-0.57722,-0.133121,2.445,2.51574
-0.569284,-0.133121,2.445,2.51393
-0.565481,-0.134101,2.463,2.53064
-0.557486,-0.134101,2.463,2.52886
-0.549492,-0.134101,2.463,2.52711
-0.545455,-0.135081,2.481,2.54384
-0.537403,-0.135081,2.481,2.54213
-0.52935,-0.135081,2.481,2.54044
-0.521297,-0.135081,2.481,2.53877
-0.516968,-0.136061,2.499,2.55554
-0.508857,-0.136061,2.499,2.55391
-0.500746,-0.136061,2.499,2.5523
-0.492635,-0.136061,2.499,2.55073
-0.484524,-0.136061,2.499,2.54917
-0.476412,-0.136061,2.499,2.54764
-0.468301,-0.136061,2.499,2.54614
-0.46019,-0.136061,2.499,2.54466
-0.452079,-0.136061,2.499,2.5432
-0.443968,-0.136061,2.499,2.54178
-0.435857,-0.136061,2.499,2.54037
-0.427746,-0.136061,2.499,2.53899
-0.419634,-0.136061,2.499,2.53764
-0.411523,-0.136061,2.499,2.53631
-0.403412,-0.136061,2.499,2.53501
-0.398148,-0.137042,2.517,2.55198
-0.389979,-0.137042,2.517,2.55072
-0.381809,-0.137042,2.517,2.54948
-0.37364,-0.137042,2.517,2.54827
-0.36547,-0.137042,2.517,2.54708
-0.357301,-0.137042,2.517,2.54592
-0.349131,-0.137042,2.517,2.54479
-0.340961,-0.137042,2.517,2.54368
-0.332792,-0.137042,2.517,2.5426
-0.324622,-0.137042,2.517,2.54154
-0.318842,-0.138076,2.536,2.55969
-0.31061,-0.138076,2.536,2.55868
-0.302379,-0.138076,2.536,2.55769
-0.294148,-0.138076,2.536,2.55673
-0.285917,-0.138076,2.536,2.5558
-0.277685,-0.138076,2.536,2.55489
-0.269454,-0.138076,2.536,2.55401
-0.261223,-0.138076,2.536,2.55315
-0.252992,-0.138076,2.536,2.55233
-0.244761,-0.138076,2.536,2.55152
-0.236529,-0.138076,2.536,2.55075
-0.228298,-0.138076,2.536,2.55
-0.220067,-0.138076,2.536,2.54927
-0.211836,-0.138076,2.536,2.54858
-0.203604,-0.138076,2.536,2.5479
-0.195373,-0.138076,2.536,2.54726
-0.187142,-0.138076,2.536,2.54664
-0.178911,-0.138076,2.536,2.54605
-0.170679,-0.138076,2.536,2.54548
-0.162448,-0.138076,2.536,2.54495
-0.154217,-0.138076,2.536,2.54443
-0.145986,-0.138076,2.536,2.54395
-0.136723,-0.137042,2.517,2.52443
-0.128553,-0.137042,2.517,2.524
-0.120383,-0.137042,2.517,2.5236
-0.112214,-0.137042,2.517,2.52322
-0.1033,-0.136061,2.499,2.50483
-0.0951891,-0.136061,2.499,2.50451
-0.087078,-0.136061,2.499,2.50422
-0.0789668,-0.136061,2.499,2.50395
-0.0708557,-0.136061,2.499,2.5037
-0.0627446,-0.136061,2.499,2.50349
-0.0542399,-0.135081,2.481,2.48527
-0.0461872,-0.135081,2.481,2.4851
-0.0381345,-0.135081,2.481,2.48497
-0.0300818,-0.135081,2.481,2.48486
-0.0220291,-0.135081,2.481,2.48477
-0.0139764,-0.135081,2.481,2.48471
-0.00592366,-0.135081,2.481,2.48468
0.0021136,-0.134101,2.463,2.46665
0.0101079,-0.134101,2.463,2.46667
0.0181022,-0.134101,2.463,2.46671
0.0260965,-0.134101,2.463,2.46679
0.0340907,-0.134101,2.463,2.46688
0.042085,-0.134101,2.463,2.46701
0.0500793,-0.134101,2.463,2.46716
0.0580736,-0.134101,2.463,2.46733
0.0660679,-0.134101,2.463,2.46753
0.0740622,-0.134101,2.463,2.46776
0.0820565,-0.134101,2.463,2.46801
0.0900507,-0.134101,2.463,2.46829
0.098045,-0.134101,2.463,2.4686
0.106039,-0.134101,2.463,2.46893
0.114034,-0.134101,2.463,2.46928
0.122028,-0.134101,2.463,2.46966
0.130022,-0.134101,2.463,2.47007
0.138016,-0.134101,2.463,2.47051
0.146011,-0.134101,2.463,2.47097
0.154005,-0.134101,2.463,2.47145
0.163183,-0.135081,2.481,2.49003
0.171236,-0.135081,2.481,2.49057
0.179289,-0.135081,2.481,2.49113
0.187341,-0.135081,2.481,2.49173
0.195394,-0.135081,2.481,2.49235
0.203447,-0.135081,2.481,2.49299
0.2115,-0.135081,2.481,2.49366
0.219552,-0.135081,2.481,2.49436
0.229256,-0.136061,2.499,2.51318
0.237367,-0.136061,2.499,2.51393
0.245479,-0.136061,2.499,2.51471
0.25359,-0.136061,2.499,2.51552
0.261701,-0.136061,2.499,2.51635
0.269812,-0.136061,2.499,2.5172
0.277923,-0.136061,2.499,2.51809
0.286034,-0.136061,2.499,2.51899
0.294145,-0.136061,2.499,2.51993
0.302256,-0.136061,2.499,2.52089
0.310368,-0.136061,2.499,2.52187
0.318479,-0.136061,2.499,2.52288
0.32659,-0.136061,2.499,2.52392
0.334701,-0.136061,2.499,2.52498
0.340343,-0.135081,2.481,2.50788
0.348396,-0.135081,2.481,2.50898
0.356448,-0.135081,2.481,2.51011
0.364501,-0.135081,2.481,2.51127
0.372554,-0.135081,2.481,2.51245
0.380606,-0.135081,2.481,2.51366
0.388659,-0.135081,2.481,2.51489
0.396712,-0.135081,2.481,2.51615
0.404765,-0.135081,2.481,2.51743
0.412817,-0.135081,2.481,2.51874
0.417816,-0.134101,2.463,2.50178
0.425811,-0.134101,2.463,2.50313
0.433805,-0.134101,2.463,2.5045
0.441799,-0.134101,2.463,2.5059
0.449794,-0.134101,2.463,2.50732
0.457788,-0.134101,2.463,2.50877
0.465782,-0.134101,2.463,2.51024
0.473776,-0.134101,2.463,2.51174
0.481771,-0.134101,2.463,2.51326
0.486186,-0.133121,2.445,2.49642
0.494122,-0.133121,2.445,2.49798
0.502058,-0.133121,2.445,2.49956
0.509993,-0.133121,2.445,2.50117
0.517929,-0.133121,2.445,2.5028
0.525865,-0.133121,2.445,2.50445
0.533801,-0.133121,2.445,2.50613
0.541737,-0.133121,2.445,2.50783
0.549673,-0.133121,2.445,2.50956
0.557609,-0.133121,2.445,2.51131
0.565544,-0.133121,2.445,2.51308
0.57348,-0.133121,2.445,2.51488
0.581416,-0.133121,2.445,2.5167
0.589352,-0.133121,2.445,2.51855
0.597288,-0.133121,2.445,2.52042
0.605224,-0.133121,2.445,2.52231
0.61316,-0.133121,2.445,2.52422
0.621095,-0.133121,2.445,2.52616
0.629031,-0.133121,2.445,2.52813
0.636967,-0.133121,2.445,2.53011
0.644903,-0.133121,2.445,2.53212
0.652839,-0.133121,2.445,2.53416
0.660775,-0.133121,2.445,2.53621
0.668711,-0.133121,2.445,2.53829
0.676647,-0.133121,2.445,2.54039
0.689622,-0.134101,2.463,2.56124
0.697617,-0.134101,2.463,2.5634
0.705611,-0.134101,2.463,2.56559
0.713605,-0.134101,2.463,2.5678
0.726873,-0.135081,2.481,2.58881
0.734926,-0.135081,2.481,2.59109
0.742978,-0.135081,2.481,2.59338
0.75648,-0.136061,2.499,2.61453
0.764591,-0.136061,2.499,2.61689
0.772702,-0.136061,2.499,2.61927
0.780813,-0.136061,2.499,2.62168
0.788924,-0.136061,2.499,2.6241
0.802777,-0.137042,2.517,2.64547
0.810946,-0.137042,2.517,2.64796
0.819116,-0.137042,2.517,2.65048
0.827285,-0.137042,2.517,2.65301
0.835455,-0.137042,2.517,2.65557
0.843624,-0.137042,2.517,2.65815
0.851794,-0.137042,2.517,2.66076
0.859963,-0.137042,2.517,2.66338
0.868133,-0.137042,2.517,2.66603
0.870036,-0.136061,2.499,2.64962
0.871822,-0.135081,2.481,2.63319
0.879874,-0.135081,2.481,2.63587
0.887927,-0.135081,2.481,2.63856
0.889479,-0.134101,2.463,2.62212
0.897474,-0.134101,2.463,2.62485
0.898851,-0.133121,2.445,2.60839
0.900482,-0.132196,2.428,2.59298
0.902002,-0.13127,2.411,2.57755
0.909828,-0.13127,2.411,2.5803
0.917653,-0.13127,2.411,2.58307
0.918953,-0.130345,2.394,2.56763
0.926724,-0.130345,2.394,2.57042
0.927858,-0.129419,2.377,2.55496
0.935573,-0.129419,2.377,2.55777
0.943288,-0.129419,2.377,2.5606
0.951003,-0.129419,2.377,2.56345
0.958719,-0.129419,2.377,2.56632
nan,nan,nan,NaN
0.981116,-0.130345,2.394,2.59052
0.988886,-0.130345,2.394,2.59348
nan,nan,nan,NaN
nan,nan,nan,NaN
nan,nan,nan,NaN
nan,nan,nan,NaN
nan,nan,nan,NaN
nan,nan,nan,NaN
nan,nan,nan,NaN
nan,nan,nan,NaN
nan,nan,nan,NaN
nan,nan,nan,NaN
nan,nan,nan,NaN
nan,nan,nan,NaN
nan,nan,nan,NaN
nan,nan,nan,NaN
nan,nan,nan,NaN
nan,nan,nan,NaN
nan,nan,nan,NaN
nan,nan,nan,NaN
nan,nan,nan,NaN
nan,nan,nan,NaN
nan,nan,nan,NaN
nan,nan,nan,NaN
nan,nan,nan,NaN
nan,nan,nan,NaN
nan,nan,nan,NaN
nan,nan,nan,NaN
nan,nan,nan,NaN
nan,nan,nan,NaN
nan,nan,nan,NaN
nan,nan,nan,NaN
nan,nan,nan,NaN
nan,nan,nan,NaN
nan,nan,nan,NaN
nan,nan,nan,NaN
nan,nan,nan,NaN
nan,nan,nan,NaN
1.78929,-0.182722,3.356,3.80758
1.80018,-0.182722,3.356,3.81271
1.82888,-0.184519,3.389,3.85541
1.83988,-0.184519,3.389,3.86064
1.86945,-0.18637,3.423,3.90468
1.88056,-0.18637,3.423,3.91001
1.89167,-0.18637,3.423,3.91537
1.90278,-0.18637,3.423,3.92075
1.91389,-0.18637,3.423,3.92615
1.90588,-0.184519,3.389,3.89253
1.89822,-0.182722,3.356,3.85997
1.90911,-0.182722,3.356,3.86534
1.92,-0.182722,3.356,3.87073
1.91248,-0.18098,3.324,3.83918
1.92327,-0.18098,3.324,3.84457
1.93406,-0.18098,3.324,3.84998
1.94485,-0.18098,3.324,3.85541
1.93681,-0.179237,3.292,3.82369
1.9475,-0.179237,3.292,3.82912
1.95818,-0.179237,3.292,3.83456
1.94973,-0.177495,3.26,3.8027
1.96031,-0.177495,3.26,3.80814
1.97089,-0.177495,3.26,3.8136
1.98147,-0.177495,3.26,3.81908
1.99205,-0.177495,3.26,3.82458
1.96516,-0.174174,3.199,3.75843
1.93973,-0.171016,3.141,3.69563
1.94992,-0.171016,3.141,3.70099
1.92455,-0.167913,3.084,3.63911
1.93456,-0.167913,3.084,3.64442
nan,nan,nan,NaN
nan,nan,nan,NaN
1.84801,-0.157949,2.901,3.44324
1.82669,-0.155336,2.853,3.39125
1.83595,-0.155336,2.853,3.39624
1.81482,-0.152777,2.806,3.34523
1.80897,-0.151524,2.783,3.32272
1.81801,-0.151524,2.783,3.32764
1.78371,-0.147931,2.717,3.25355
1.77867,-0.146787,2.696,3.23321
1.78743,-0.146787,2.696,3.23803
1.76819,-0.144501,2.654,3.19235
1.76275,-0.143357,2.633,3.17183
1.77129,-0.143357,2.633,3.17659
1.7528,-0.141179,2.593,3.13303
1.74831,-0.140145,2.574,3.11476
-1.96257,-0.144849,2.829,3.44614
-1.95339,-0.144849,2.829,3.44092
-1.9284,-0.143672,2.806,3.40779
-1.90356,-0.142494,2.783,3.37475
-1.87955,-0.141367,2.761,3.34302
-1.87059,-0.141367,2.761,3.33799
-1.84679,-0.140241,2.739,3.30642
-1.8379,-0.140241,2.739,3.30147
-1.82901,-0.140241,2.739,3.29653
-1.8055,-0.139115,2.717,3.26516
-1.79668,-0.139115,2.717,3.26029
-1.78787,-0.139115,2.717,3.25544
-1.77905,-0.139115,2.717,3.25061
-1.77023,-0.139115,2.717,3.24579
-1.76141,-0.139115,2.717,3.24099
-1.78097,-0.141367,2.761,3.28861
-1.77201,-0.141367,2.761,3.28377
-1.79179,-0.143672,2.806,3.33238
-1.81254,-0.146078,2.853,3.38323
-1.80328,-0.146078,2.853,3.37828
-1.8242,-0.148536,2.901,3.4301
-1.81478,-0.148536,2.901,3.4251
-1.82093,-0.149816,2.926,3.44959
-1.81143,-0.149816,2.926,3.44459
-1.81733,-0.151096,2.951,3.46899
-1.82368,-0.152427,2.977,3.4945
-1.81401,-0.152427,2.977,3.48947
-1.80435,-0.152427,2.977,3.48446
-1.79469,-0.152427,2.977,3.47946
-1.78503,-0.152427,2.977,3.47449
-1.77536,-0.152427,2.977,3.46954
-1.7657,-0.152427,2.977,3.4646
-1.75604,-0.152427,2.977,3.45969
-1.74638,-0.152427,2.977,3.45479
nan,nan,nan,NaN
nan,nan,nan,NaN
nan,nan,nan,NaN
nan,nan,nan,NaN
nan,nan,nan,NaN
nan,nan,nan,NaN
nan,nan,nan,NaN
nan,nan,nan,NaN
nan,nan,nan,NaN
nan,nan,nan,NaN
nan,nan,nan,NaN
nan,nan,nan,NaN
nan,nan,nan,NaN
nan,nan,nan,NaN
nan,nan,nan,NaN
nan,nan,nan,NaN
nan,nan,nan,NaN
nan,nan,nan,NaN
nan,nan,nan,NaN
nan,nan,nan,NaN
nan,nan,nan,NaN
nan,nan,nan,NaN
nan,nan,nan,NaN
nan,nan,nan,NaN
nan,nan,nan,NaN
nan,nan,nan,NaN
nan,nan,nan,NaN
nan,nan,nan,NaN
-1.25833,-0.13082,2.555,2.85106
-1.22264,-0.127953,2.499,2.785
-1.21453,-0.127953,2.499,2.78145
-1.20641,-0.127953,2.499,2.77791
-1.18967,-0.127031,2.481,2.75442
-1.18162,-0.127031,2.481,2.75095
-1.16505,-0.126109,2.463,2.72757
-1.1486,-0.125188,2.445,2.70425
-1.14067,-0.125188,2.445,2.70089
-1.12485,-0.124317,2.428,2.67879
-1.10915,-0.123447,2.411,2.65676
-1.10133,-0.123447,2.411,2.6535
-1.0935,-0.123447,2.411,2.65027
-1.07802,-0.122576,2.394,2.62838
-1.07025,-0.122576,2.394,2.6252
-1.06248,-0.122576,2.394,2.62205
-1.05471,-0.122576,2.394,2.61891
-1.03951,-0.121706,2.377,2.59721
-1.03179,-0.121706,2.377,2.59413
-1.02408,-0.121706,2.377,2.59108
-1.01636,-0.121706,2.377,2.58804
-1.00865,-0.121706,2.377,2.58502
-1.00093,-0.121706,2.377,2.58202
-0.993215,-0.121706,2.377,2.57903
-0.992548,-0.122576,2.394,2.5945
-0.984778,-0.122576,2.394,2.59153
-0.977007,-0.122576,2.394,2.58859
-0.969237,-0.122576,2.394,2.58567
-0.961466,-0.122576,2.394,2.58277
-0.953696,-0.122576,2.394,2.57988
-0.945926,-0.122576,2.394,2.57702
-0.938156,-0.122576,2.394,2.57418
-0.930385,-0.122576,2.394,2.57136
-0.922615,-0.122576,2.394,2.56856
-0.914845,-0.122576,2.394,2.56578
-0.907074,-0.122576,2.394,2.56301
-0.899304,-0.122576,2.394,2.56028
-0.891534,-0.122576,2.394,2.55756
-0.883763,-0.122576,2.394,2.55486
-0.875993,-0.122576,2.394,2.55218
-0.868223,-0.122576,2.394,2.54952
-0.866562,-0.123447,2.411,2.56497
-0.858737,-0.123447,2.411,2.56234
-0.850911,-0.123447,2.411,2.55973
-0.843086,-0.123447,2.411,2.55714
-0.83526,-0.123447,2.411,2.55457
-0.827435,-0.123447,2.411,2.55202
-0.825388,-0.124317,2.428,2.56747
-0.817508,-0.124317,2.428,2.56495
-0.809627,-0.124317,2.428,2.56245
-0.801746,-0.124317,2.428,2.55997
-0.793866,-0.124317,2.428,2.55751
-0.785985,-0.124317,2.428,2.55508
-0.778104,-0.124317,2.428,2.55266
-0.775616,-0.125188,2.445,2.56813
-0.767681,-0.125188,2.445,2.56574
-0.759745,-0.125188,2.445,2.56338
-0.746581,-0.124317,2.428,2.54323
-0.738701,-0.124317,2.428,2.54093
-0.73082,-0.124317,2.428,2.53865
-0.728001,-0.125188,2.445,2.55415
-0.720065,-0.125188,2.445,2.5519
-0.712129,-0.125188,2.445,2.54967
-0.699297,-0.124317,2.428,2.52975
-0.691417,-0.124317,2.428,2.52759
-0.683536,-0.124317,2.428,2.52544
-0.680386,-0.125188,2.445,2.54099
-0.67245,-0.125188,2.445,2.53888
-0.664514,-0.125188,2.445,2.53678
-0.652013,-0.124317,2.428,2.51709
-0.644133,-0.124317,2.428,2.51506
-0.640707,-0.125188,2.445,2.53065
-0.628371,-0.124317,2.428,2.51107
-0.620491,-0.124317,2.428,2.50911
-0.61261,-0.124317,2.428,2.50718
-0.604729,-0.124317,2.428,2.50526
-0.596848,-0.124317,2.428,2.50337
-0.593092,-0.125188,2.445,2.51902
-0.585156,-0.125188,2.445,2.51716
-0.57722,-0.125188,2.445,2.51533
-0.569284,-0.125188,2.445,2.51352
-0.565481,-0.126109,2.463,2.53023
-0.557486,-0.126109,2.463,2.52845
-0.549492,-0.126109,2.463,2.5267
-0.545455,-0.127031,2.481,2.54343
-0.537403,-0.127031,2.481,2.54171
-0.52935,-0.127031,2.481,2.54002
-0.525079,-0.127953,2.499,2.55677
-0.516968,-0.127953,2.499,2.55512
-0.508857,-0.127953,2.499,2.55349
-0.500746,-0.127953,2.499,2.55189
-0.492635,-0.127953,2.499,2.55031
-0.484524,-0.127953,2.499,2.54875
-0.476412,-0.127953,2.499,2.54722
-0.468301,-0.127953,2.499,2.54572
-0.46019,-0.127953,2.499,2.54424
-0.452079,-0.127953,2.499,2.54278
-0.443968,-0.127953,2.499,2.54135
-0.435857,-0.127953,2.499,2.53995
-0.427746,-0.127953,2.499,2.53857
-0.419634,-0.127953,2.499,2.53722
-0.414487,-0.128874,2.517,2.55415
-0.406318,-0.128874,2.517,2.55284
-0.398148,-0.128874,2.517,2.55155
-0.389979,-0.128874,2.517,2.55029
-0.381809,-0.128874,2.517,2.54905
-0.37364,-0.128874,2.517,2.54784
-0.36547,-0.128874,2.517,2.54666
-0.357301,-0.128874,2.517,2.5455
-0.349131,-0.128874,2.517,2.54436
-0.340961,-0.128874,2.517,2.54326
-0.332792,-0.128874,2.517,2.54217
-0.324622,-0.128874,2.517,2.54112
-0.316453,-0.128874,2.517,2.54009
-0.31061,-0.129847,2.536,2.55825
-0.302379,-0.129847,2.536,2.55726
-0.294148,-0.129847,2.536,2.5563
-0.285917,-0.129847,2.536,2.55537
-0.275605,-0.128874,2.517,2.53532
-0.267435,-0.128874,2.517,2.53445
-0.259266,-0.128874,2.517,2.5336
-0.251096,-0.128874,2.517,2.53277
-0.242927,-0.128874,2.517,2.53198
-0.234757,-0.128874,2.517,2.53121
-0.228298,-0.129847,2.536,2.54956
-0.220067,-0.129847,2.536,2.54884
-0.211836,-0.129847,2.536,2.54814
-0.203604,-0.129847,2.536,2.54747
-0.195373,-0.129847,2.536,2.54683
-0.187142,-0.129847,2.536,2.54621
-0.178911,-0.129847,2.536,2.54562
-0.170679,-0.129847,2.536,2.54505
-0.162448,-0.129847,2.536,2.54451
-0.154217,-0.129847,2.536,2.544
-0.145986,-0.129847,2.536,2.54351
-0.136723,-0.128874,2.517,2.524
-0.128553,-0.128874,2.517,2.52357
-0.120383,-0.128874,2.517,2.52317
-0.112214,-0.128874,2.517,2.52279
-0.1033,-0.127953,2.499,2.50441
-0.0951891,-0.127953,2.499,2.50408
-0.087078,-0.127953,2.499,2.50379
-0.0789668,-0.127953,2.499,2.50352
-0.0708557,-0.127953,2.499,2.50328
-0.0627446,-0.127953,2.499,2.50306
-0.0542399,-0.127031,2.481,2.48484
-0.0461872,-0.127031,2.481,2.48468
-0.0381345,-0.127031,2.481,2.48454
-0.0300818,-0.127031,2.481,2.48443
-0.0220291,-0.127031,2.481,2.48435
-0.0139764,-0.127031,2.481,2.48429
-0.00592366,-0.127031,2.481,2.48426
0.0021136,-0.126109,2.463,2.46623
0.0101079,-0.126109,2.463,2.46625
0.0181022,-0.126109,2.463,2.46629
0.0260965,-0.126109,2.463,2.46636
0.0340907,-0.126109,2.463,2.46646
0.042085,-0.126109,2.463,2.46659
0.0500793,-0.126109,2.463,2.46673
0.0580736,-0.126109,2.463,2.46691
0.0660679,-0.126109,2.463,2.46711
0.0740622,-0.126109,2.463,2.46734
0.0820565,-0.126109,2.463,2.46759
0.0900507,-0.126109,2.463,2.46787
0.098045,-0.126109,2.463,2.46817
0.106039,-0.126109,2.463,2.4685
0.114034,-0.126109,2.463,2.46886
0.122028,-0.126109,2.463,2.46924
0.130022,-0.126109,2.463,2.46965
0.138016,-0.126109,2.463,2.47009
0.146011,-0.126109,2.463,2.47054
0.154005,-0.126109,2.463,2.47103
0.163183,-0.127031,2.481,2.4896
0.171236,-0.127031,2.481,2.49014
0.179289,-0.127031,2.481,2.49071
0.187341,-0.127031,2.481,2.4913
0.195394,-0.127031,2.481,2.49192
0.203447,-0.127031,2.481,2.49257
0.2115,-0.127031,2.481,2.49324
0.219552,-0.127031,2.481,2.49393
0.229256,-0.127953,2.499,2.51275
0.237367,-0.127953,2.499,2.51351
0.245479,-0.127953,2.499,2.51429
0.25359,-0.127953,2.499,2.51509
0.259816,-0.127031,2.481,2.4978
0.267868,-0.127031,2.481,2.49865
0.277923,-0.127953,2.499,2.51766
0.283974,-0.127031,2.481,2.50043
0.292027,-0.127031,2.481,2.50136
0.300079,-0.127031,2.481,2.50231
0.308132,-0.127031,2.481,2.50329
0.316185,-0.127031,2.481,2.50429
0.324237,-0.127031,2.481,2.50532
0.33229,-0.127031,2.481,2.50638
0.340343,-0.127031,2.481,2.50746
0.345868,-0.126109,2.463,2.49036
0.353862,-0.126109,2.463,2.49148
0.361856,-0.126109,2.463,2.49263
0.369851,-0.126109,2.463,2.4938
0.377845,-0.126109,2.463,2.495
0.385839,-0.126109,2.463,2.49623
0.390955,-0.125188,2.445,2.47922
0.398891,-0.125188,2.445,2.48049
0.406827,-0.125188,2.445,2.48177
0.414763,-0.125188,2.445,2.48309
0.422699,-0.125188,2.445,2.48443
0.430635,-0.125188,2.445,2.48579
0.438571,-0.125188,2.445,2.48718
0.446507,-0.125188,2.445,2.48859
0.454442,-0.125188,2.445,2.49002
0.462378,-0.125188,2.445,2.49148
0.470314,-0.125188,2.445,2.49297
0.47825,-0.125188,2.445,2.49448
0.486186,-0.125188,2.445,2.49601
0.494122,-0.125188,2.445,2.49757
0.502058,-0.125188,2.445,2.49915
0.509993,-0.125188,2.445,2.50076
0.517929,-0.125188,2.445,2.50239
0.525865,-0.125188,2.445,2.50404
0.533801,-0.125188,2.445,2.50572
0.541737,-0.125188,2.445,2.50742
0.549673,-0.125188,2.445,2.50915
0.557609,-0.125188,2.445,2.5109
0.565544,-0.125188,2.445,2.51268
0.57348,-0.125188,2.445,2.51447
0.581416,-0.125188,2.445,2.5163
0.589352,-0.125188,2.445,2.51814
0.597288,-0.125188,2.445,2.52001
0.605224,-0.125188,2.445,2.5219
0.61316,-0.125188,2.445,2.52382
0.621095,-0.125188,2.445,2.52576
0.629031,-0.125188,2.445,2.52772
0.636967,-0.125188,2.445,2.52971
0.644903,-0.125188,2.445,2.53172
0.652839,-0.125188,2.445,2.53375
0.660775,-0.125188,2.445,2.53581
0.668711,-0.125188,2.445,2.53789
0.676647,-0.125188,2.445,2.53999
0.689622,-0.126109,2.463,2.56083
0.697617,-0.126109,2.463,2.56299
0.705611,-0.126109,2.463,2.56518
0.713605,-0.126109,2.463,2.56739
0.726873,-0.127031,2.481,2.58841
0.734926,-0.127031,2.481,2.59068
0.742978,-0.127031,2.481,2.59297
0.75648,-0.127953,2.499,2.61412
0.764591,-0.127953,2.499,2.61648
0.772702,-0.127953,2.499,2.61886
0.780813,-0.127953,2.499,2.62127
0.788924,-0.127953,2.499,2.62369
0.802777,-0.128874,2.517,2.64506
0.810946,-0.128874,2.517,2.64755
0.819116,-0.128874,2.517,2.65007
0.827285,-0.128874,2.517,2.6526
0.835455,-0.128874,2.517,2.65516
0.843624,-0.128874,2.517,2.65774
0.851794,-0.128874,2.517,2.66035
0.859963,-0.128874,2.517,2.66297
0.868133,-0.128874,2.517,2.66562
0.870036,-0.127953,2.499,2.64921
0.878147,-0.127953,2.499,2.65189
0.886258,-0.127953,2.499,2.65459
0.887927,-0.127031,2.481,2.63816
0.889479,-0.126109,2.463,2.62173
0.897474,-0.126109,2.463,2.62445
0.898851,-0.125188,2.445,2.60799
0.900482,-0.124317,2.428,2.59259
0.902002,-0.123447,2.411,2.57716
0.909828,-0.123447,2.411,2.57991
0.917653,-0.123447,2.411,2.58268
0.918953,-0.122576,2.394,2.56724
0.926724,-0.122576,2.394,2.57003
0.927858,-0.121706,2.377,2.55458
0.935573,-0.121706,2.377,2.55739
0.943288,-0.121706,2.377,2.56022
0.951003,-0.121706,2.377,2.56307
0.958719,-0.121706,2.377,2.56595
0.973346,-0.122576,2.394,2.58721
0.981116,-0.122576,2.394,2.59014
0.988886,-0.122576,2.394,2.5931
1.00373,-0.123447,2.411,2.61451
1.03338,-0.126109,2.463,2.67397
1.04137,-0.126109,2.463,2.67707
1.08047,-0.129847,2.536,2.75963
1.12175,-0.13379,2.613,2.84675
1.13024,-0.13379,2.613,2.85011
1.18404,-0.139115,2.717,2.96705
1.23193,-0.143672,2.806,3.06789
1.29411,-0.149816,2.926,3.20291
1.30361,-0.149816,2.926,3.20676
1.35978,-0.155141,3.03,3.32475
1.39402,-0.157906,3.084,3.38811
1.40403,-0.157906,3.084,3.39224
1.42688,-0.159339,3.112,3.42723
1.43698,-0.159339,3.112,3.43145
1.44708,-0.159339,3.112,3.43569
1.45718,-0.159339,3.112,3.43996
1.46728,-0.159339,3.112,3.44425
1.47738,-0.159339,3.112,3.44856
1.4741,-0.157906,3.084,3.42184
1.48411,-0.157906,3.084,3.42616
1.49412,-0.157906,3.084,3.43051
1.49096,-0.156523,3.057,3.40481
1.50089,-0.156523,3.057,3.40916
1.51081,-0.156523,3.057,3.41354
1.52073,-0.156523,3.057,3.41795
1.53065,-0.156523,3.057,3.42237
1.54057,-0.156523,3.057,3.42682
1.5505,-0.156523,3.057,3.4313
1.56042,-0.156523,3.057,3.43579
1.57034,-0.156523,3.057,3.44031
1.59422,-0.157906,3.084,3.47527
1.60423,-0.157906,3.084,3.47988
1.64408,-0.160824,3.141,3.54891
1.68482,-0.163794,3.199,3.61926
1.6952,-0.163794,3.199,3.6241
1.73811,-0.166917,3.26,3.69817
1.76585,-0.168555,3.292,3.73951
1.82888,-0.173522,3.389,3.8549
1.83988,-0.173522,3.389,3.86013
1.86945,-0.175263,3.423,3.90416
1.88056,-0.175263,3.423,3.9095
1.89167,-0.175263,3.423,3.91485
1.90278,-0.175263,3.423,3.92023
1.91389,-0.175263,3.423,3.92564
1.90588,-0.173522,3.389,3.89202
1.89822,-0.171832,3.356,3.85947
1.90911,-0.171832,3.356,3.86484
1.92,-0.171832,3.356,3.87023
1.91248,-0.170194,3.324,3.83869
1.92327,-0.170194,3.324,3.84408
1.93406,-0.170194,3.324,3.84949
1.94485,-0.170194,3.324,3.85492
1.93681,-0.168555,3.292,3.82321
1.9475,-0.168555,3.292,3.82863
1.95818,-0.168555,3.292,3.83408
1.94973,-0.166917,3.26,3.80222
1.96031,-0.166917,3.26,3.80766
1.97089,-0.166917,3.26,3.81312
nan,nan,nan,NaN
nan,nan,nan,NaN
1.96516,-0.163794,3.199,3.75796
1.93973,-0.160824,3.141,3.69517
1.94992,-0.160824,3.141,3.70053
1.92455,-0.157906,3.084,3.63866
1.93456,-0.157906,3.084,3.64397
nan,nan,nan,NaN
nan,nan,nan,NaN
1.84801,-0.148536,2.901,3.44282
1.82669,-0.146078,2.853,3.39083
1.83595,-0.146078,2.853,3.39583
1.81482,-0.143672,2.806,3.34482
1.80897,-0.142494,2.783,3.32232
1.81801,-0.142494,2.783,3.32724
1.78371,-0.139115,2.717,3.25316
1.77867,-0.138039,2.696,3.23282
1.78743,-0.138039,2.696,3.23765
1.76819,-0.135889,2.654,3.19197
1.76275,-0.134814,2.633,3.17146
1.77129,-0.134814,2.633,3.17622
1.7528,-0.132766,2.593,3.13267
1.74831,-0.131793,2.574,3.11439
-1.96257,-0.135669,2.829,3.44577
-1.95339,-0.135669,2.829,3.44055
-1.9284,-0.134567,2.806,3.40741
-1.90356,-0.133464,2.783,3.37438
-1.87955,-0.132408,2.761,3.34266
-1.87059,-0.132408,2.761,3.33763
-1.84679,-0.131353,2.739,3.30606
-1.8379,-0.131353,2.739,3.3011
-1.82901,-0.131353,2.739,3.29616
-1.8055,-0.130298,2.717,3.2648
-1.79668,-0.130298,2.717,3.25993
-1.78787,-0.130298,2.717,3.25508
-1.77905,-0.130298,2.717,3.25024
-1.77023,-0.130298,2.717,3.24542
-1.76141,-0.130298,2.717,3.24062
-1.78097,-0.132408,2.761,3.28824
-1.77201,-0.132408,2.761,3.28339
-1.79179,-0.134567,2.806,3.332
-1.81254,-0.13682,2.853,3.38284
-1.80328,-0.13682,2.853,3.37789
-1.79402,-0.13682,2.853,3.37296
-1.79977,-0.137971,2.877,3.39637
-1.80537,-0.139122,2.901,3.41972
-1.79595,-0.139122,2.901,3.41476
-1.80193,-0.140321,2.926,3.4392
-1.82368,-0.142767,2.977,3.4941
-1.81401,-0.142767,2.977,3.48906
-1.80435,-0.142767,2.977,3.48405
-1.79469,-0.142767,2.977,3.47905
-1.78503,-0.142767,2.977,3.47408
-1.77536,-0.142767,2.977,3.46913
-1.7657,-0.142767,2.977,3.46419
-1.75604,-0.142767,2.977,3.45928
-1.74638,-0.142767,2.977,3.45438
nan,nan,nan,NaN
nan,nan,nan,NaN
nan,nan,nan,NaN
nan,nan,nan,NaN
nan,nan,nan,NaN
nan,nan,nan,NaN
nan,nan,nan,NaN
nan,nan,nan,NaN
nan,nan,nan,NaN
nan,nan,nan,NaN
nan,nan,nan,NaN
nan,nan,nan,NaN
nan,nan,nan,NaN
nan,nan,nan,NaN
nan,nan,nan,NaN
nan,nan,nan,NaN
nan,nan,nan,NaN
nan,nan,nan,NaN
nan,nan,nan,NaN
nan,nan,nan,NaN
nan,nan,nan,NaN
nan,nan,nan,NaN
nan,nan,nan,NaN
nan,nan,nan,NaN
nan,nan,nan,NaN
nan,nan,nan,NaN
nan,nan,nan,NaN
nan,nan,nan,NaN
-1.25833,-0.122529,2.555,2.85069
-1.23144,-0.120707,2.517,2.80469
-1.22327,-0.120707,2.517,2.80112
-1.20641,-0.119844,2.499,2.77755
-1.1983,-0.119844,2.499,2.77404
-1.19019,-0.119844,2.499,2.77055
-1.17357,-0.118981,2.481,2.74714
-1.15706,-0.118117,2.463,2.7238
-1.14906,-0.118117,2.463,2.72042
-1.13273,-0.117254,2.445,2.69719
-1.11697,-0.116439,2.428,2.67514
-1.10133,-0.115624,2.411,2.65315
-1.0935,-0.115624,2.411,2.64991
-1.08568,-0.115624,2.411,2.64669
-1.07025,-0.114808,2.394,2.62485
-1.06248,-0.114808,2.394,2.62169
-1.05471,-0.114808,2.394,2.61856
-1.03951,-0.113993,2.377,2.59686
-1.03179,-0.113993,2.377,2.59378
-1.02408,-0.113993,2.377,2.59072
-1.01636,-0.113993,2.377,2.58768
-1.01586,-0.114808,2.394,2.60315
-1.00809,-0.114808,2.394,2.60013
-1.00032,-0.114808,2.394,2.59712
-0.992548,-0.114808,2.394,2.59414
-0.984778,-0.114808,2.394,2.59118
-0.977007,-0.114808,2.394,2.58823
-0.969237,-0.114808,2.394,2.58531
-0.961466,-0.114808,2.394,2.58241
-0.953696,-0.114808,2.394,2.57953
-0.945926,-0.114808,2.394,2.57666
-0.938156,-0.114808,2.394,2.57382
-0.930385,-0.114808,2.394,2.571
-0.922615,-0.114808,2.394,2.5682
-0.914845,-0.114808,2.394,2.56542
-0.907074,-0.114808,2.394,2.56266
-0.899304,-0.114808,2.394,2.55992
-0.891534,-0.114808,2.394,2.5572
-0.883763,-0.114808,2.394,2.5545
-0.875993,-0.114808,2.394,2.55182
-0.868223,-0.114808,2.394,2.54916
-0.866562,-0.115624,2.411,2.56461
-0.858737,-0.115624,2.411,2.56198
-0.850911,-0.115624,2.411,2.55936
-0.843086,-0.115624,2.411,2.55677
-0.83526,-0.115624,2.411,2.5542
-0.827435,-0.115624,2.411,2.55165
-0.825388,-0.116439,2.428,2.5671
-0.817508,-0.116439,2.428,2.56458
-0.809627,-0.116439,2.428,2.56208
-0.801746,-0.116439,2.428,2.5596
-0.799424,-0.117254,2.445,2.57504
-0.791488,-0.117254,2.445,2.57259
-0.783552,-0.117254,2.445,2.57016
-0.775616,-0.117254,2.445,2.56775
-0.767681,-0.117254,2.445,2.56537
-0.759745,-0.117254,2.445,2.563
-0.746581,-0.116439,2.428,2.54286
-0.738701,-0.116439,2.428,2.54056
-0.73082,-0.116439,2.428,2.53828
-0.728001,-0.117254,2.445,2.55377
-0.720065,-0.117254,2.445,2.55152
-0.712129,-0.117254,2.445,2.54929
-0.699297,-0.116439,2.428,2.52938
-0.691417,-0.116439,2.428,2.52721
-0.688322,-0.117254,2.445,2.54275
-0.680386,-0.117254,2.445,2.54061
-0.67245,-0.117254,2.445,2.5385
-0.664514,-0.117254,2.445,2.53641
-0.656578,-0.117254,2.445,2.53434
-0.648643,-0.117254,2.445,2.53229
-0.640707,-0.117254,2.445,2.53027
-0.632771,-0.117254,2.445,2.52827
-0.620491,-0.116439,2.428,2.50874
-0.61261,-0.116439,2.428,2.5068
-0.604729,-0.116439,2.428,2.50488
-0.601027,-0.117254,2.445,2.52052
-0.593092,-0.117254,2.445,2.51864
-0.585156,-0.117254,2.445,2.51678
-0.57722,-0.117254,2.445,2.51495
-0.569284,-0.117254,2.445,2.51314
-0.565481,-0.118117,2.463,2.52984
-0.557486,-0.118117,2.463,2.52806
-0.549492,-0.118117,2.463,2.52631
-0.545455,-0.118981,2.481,2.54304
-0.537403,-0.118981,2.481,2.54132
-0.52935,-0.118981,2.481,2.53963
-0.525079,-0.119844,2.499,2.55638
-0.516968,-0.119844,2.499,2.55472
-0.508857,-0.119844,2.499,2.5531
-0.500746,-0.119844,2.499,2.55149
-0.492635,-0.119844,2.499,2.54991
-0.484524,-0.119844,2.499,2.54836
-0.476412,-0.119844,2.499,2.54683
-0.468301,-0.119844,2.499,2.54532
-0.46019,-0.119844,2.499,2.54384
-0.452079,-0.119844,2.499,2.54239
-0.447166,-0.120707,2.517,2.55926
-0.438996,-0.120707,2.517,2.55785
-0.430827,-0.120707,2.517,2.55646
-0.422657,-0.120707,2.517,2.55509
-0.414487,-0.120707,2.517,2.55375
-0.406318,-0.120707,2.517,2.55244
-0.398148,-0.120707,2.517,2.55115
-0.389979,-0.120707,2.517,2.54989
-0.381809,-0.120707,2.517,2.54865
-0.37364,-0.120707,2.517,2.54744
-0.36547,-0.120707,2.517,2.54626
-0.357301,-0.120707,2.517,2.5451
-0.349131,-0.120707,2.517,2.54396
-0.340961,-0.120707,2.517,2.54286
-0.332792,-0.120707,2.517,2.54177
-0.324622,-0.120707,2.517,2.54072
-0.316453,-0.120707,2.517,2.53969
-0.31061,-0.121618,2.536,2.55784
-0.302379,-0.121618,2.536,2.55686
-0.294148,-0.121618,2.536,2.5559
-0.285917,-0.121618,2.536,2.55496
-0.275605,-0.120707,2.517,2.53492
-0.267435,-0.120707,2.517,2.53404
-0.259266,-0.120707,2.517,2.5332
-0.251096,-0.120707,2.517,2.53237
-0.242927,-0.120707,2.517,2.53158
-0.234757,-0.120707,2.517,2.5308
-0.226588,-0.120707,2.517,2.53006
-0.218418,-0.120707,2.517,2.52934
-0.210249,-0.120707,2.517,2.52865
-0.202079,-0.120707,2.517,2.52798
-0.193909,-0.120707,2.517,2.52734
-0.18574,-0.120707,2.517,2.52673
-0.178911,-0.121618,2.536,2.54521
-0.170679,-0.121618,2.536,2.54465
-0.162448,-0.121618,2.536,2.54411
-0.154217,-0.121618,2.536,2.54359
-0.145986,-0.121618,2.536,2.54311
-0.136723,-0.120707,2.517,2.5236
-0.128553,-0.120707,2.517,2.52317
-0.120383,-0.120707,2.517,2.52277
-0.112214,-0.120707,2.517,2.52239
-0.1033,-0.119844,2.499,2.504
-0.0951891,-0.119844,2.499,2.50368
-0.087078,-0.119844,2.499,2.50339
-0.0789668,-0.119844,2.499,2.50312
-0.0708557,-0.119844,2.499,2.50288
-0.0627446,-0.119844,2.499,2.50266
-0.0542399,-0.118981,2.481,2.48444
-0.0461872,-0.118981,2.481,2.48428
-0.0381345,-0.118981,2.481,2.48414
-0.0300818,-0.118981,2.481,2.48403
-0.0220291,-0.118981,2.481,2.48395
-0.0139764,-0.118981,2.481,2.48389
-0.00592366,-0.118981,2.481,2.48386
0.0021136,-0.118117,2.463,2.46583
0.0101079,-0.118117,2.463,2.46585
0.0181022,-0.118117,2.463,2.4659
0.0260965,-0.118117,2.463,2.46597
0.0340907,-0.118117,2.463,2.46607
0.042085,-0.118117,2.463,2.46619
0.0500793,-0.118117,2.463,2.46634
0.0580736,-0.118117,2.463,2.46651
0.0660679,-0.118117,2.463,2.46672
0.0735209,-0.117254,2.445,2.44891
0.0814568,-0.117254,2.445,2.44917
0.0900507,-0.118117,2.463,2.46747
0.098045,-0.118117,2.463,2.46778
0.106039,-0.118117,2.463,2.46811
0.114034,-0.118117,2.463,2.46847
0.122028,-0.118117,2.463,2.46885
0.130022,-0.118117,2.463,2.46926
0.138016,-0.118117,2.463,2.46969
0.146011,-0.118117,2.463,2.47015
0.154005,-0.118117,2.463,2.47064
0.161999,-0.118117,2.463,2.47115
0.171236,-0.118981,2.481,2.48975
0.179289,-0.118981,2.481,2.49031
0.187341,-0.118981,2.481,2.49091
0.195394,-0.118981,2.481,2.49153
0.203447,-0.118981,2.481,2.49217
0.2115,-0.118981,2.481,2.49284
0.219552,-0.118981,2.481,2.49354
0.227605,-0.118981,2.481,2.49426
0.235658,-0.118981,2.481,2.49501
0.24371,-0.118981,2.481,2.49578
0.251763,-0.118981,2.481,2.49658
0.259816,-0.118981,2.481,2.4974
0.267868,-0.118981,2.481,2.49825
0.275921,-0.118981,2.481,2.49913
0.283974,-0.118981,2.481,2.50003
0.292027,-0.118981,2.481,2.50096
0.300079,-0.118981,2.481,2.50191
0.308132,-0.118981,2.481,2.50289
0.316185,-0.118981,2.481,2.5039
0.321885,-0.118117,2.463,2.48675
0.329879,-0.118117,2.463,2.4878
0.337874,-0.118117,2.463,2.48887
0.345868,-0.118117,2.463,2.48997
0.353862,-0.118117,2.463,2.49109
0.361856,-0.118117,2.463,2.49224
0.367148,-0.117254,2.445,2.47519
0.375084,-0.117254,2.445,2.47638
0.38302,-0.117254,2.445,2.4776
0.390955,-0.117254,2.445,2.47883
0.398891,-0.117254,2.445,2.4801
0.406827,-0.117254,2.445,2.48139
0.414763,-0.117254,2.445,2.4827
0.422699,-0.117254,2.445,2.48404
0.430635,-0.117254,2.445,2.4854
0.438571,-0.117254,2.445,2.48679
0.446507,-0.117254,2.445,2.4882
0.454442,-0.117254,2.445,2.48964
0.462378,-0.117254,2.445,2.4911
0.470314,-0.117254,2.445,2.49258
0.47825,-0.117254,2.445,2.49409
0.486186,-0.117254,2.445,2.49563
0.494122,-0.117254,2.445,2.49718
0.502058,-0.117254,2.445,2.49877
0.509993,-0.117254,2.445,2.50037
0.517929,-0.117254,2.445,2.502
0.525865,-0.117254,2.445,2.50366
0.533801,-0.117254,2.445,2.50534
0.541737,-0.117254,2.445,2.50704
0.549673,-0.117254,2.445,2.50877
0.557609,-0.117254,2.445,2.51052
0.565544,-0.117254,2.445,2.51229
0.57348,-0.117254,2.445,2.51409
0.581416,-0.117254,2.445,2.51591
0.589352,-0.117254,2.445,2.51776
0.597288,-0.117254,2.445,2.51963
0.605224,-0.117254,2.445,2.52152
0.61316,-0.117254,2.445,2.52344
0.621095,-0.117254,2.445,2.52538
0.629031,-0.117254,2.445,2.52734
0.636967,-0.117254,2.445,2.52933
0.644903,-0.117254,2.445,2.53134
0.652839,-0.117254,2.445,2.53337
0.660775,-0.117254,2.445,2.53543
0.668711,-0.117254,2.445,2.53751
0.676647,-0.117254,2.445,2.53961
0.689622,-0.118117,2.463,2.56045
0.697617,-0.118117,2.463,2.56261
0.705611,-0.118117,2.463,2.5648
0.713605,-0.118117,2.463,2.56701
0.726873,-0.118981,2.481,2.58802
0.734926,-0.118981,2.481,2.5903
0.742978,-0.118981,2.481,2.59259
0.75648,-0.119844,2.499,2.61374
0.764591,-0.119844,2.499,2.6161
0.772702,-0.119844,2.499,2.61848
0.780813,-0.119844,2.499,2.62088
0.788924,-0.119844,2.499,2.62331
0.802777,-0.120707,2.517,2.64468
0.810946,-0.120707,2.517,2.64717
0.819116,-0.120707,2.517,2.64968
0.827285,-0.120707,2.517,2.65222
0.835455,-0.120707,2.517,2.65478
0.843624,-0.120707,2.517,2.65736
0.851794,-0.120707,2.517,2.65996
0.859963,-0.120707,2.517,2.66259
0.868133,-0.120707,2.517,2.66524
0.876303,-0.120707,2.517,2.66791
0.878147,-0.119844,2.499,2.65151
0.886258,-0.119844,2.499,2.65421
0.887927,-0.118981,2.481,2.63779
0.889479,-0.118117,2.463,2.62135
0.897474,-0.118117,2.463,2.62408
0.905468,-0.118117,2.463,2.62682
0.906787,-0.117254,2.445,2.61037
0.908362,-0.116439,2.428,2.59497
0.916243,-0.116439,2.428,2.59774
0.924124,-0.116439,2.428,2.60053
0.918953,-0.114808,2.394,2.56688
0.926724,-0.114808,2.394,2.56968
0.934494,-0.114808,2.394,2.57249
0.942264,-0.114808,2.394,2.57532
0.950035,-0.114808,2.394,2.57817
0.957805,-0.114808,2.394,2.58105
0.965575,-0.114808,2.394,2.58394
0.973346,-0.114808,2.394,2.58686
0.981116,-0.114808,2.394,2.58979
0.988886,-0.114808,2.394,2.59274
1.00373,-0.115624,2.411,2.61415
1.03338,-0.118117,2.463,2.67361
1.04137,-0.118117,2.463,2.67671
1.08047,-0.121618,2.536,2.75926
1.12175,-0.125311,2.613,2.84637
1.13024,-0.125311,2.613,2.84972
1.18404,-0.130298,2.717,2.96665
1.23193,-0.134567,2.806,3.06747
1.29411,-0.140321,2.926,3.20248
1.30361,-0.140321,2.926,3.20633
1.35978,-0.145309,3.03,3.32431
1.39402,-0.147898,3.084,3.38766
1.40403,-0.147898,3.084,3.39179
1.42688,-0.149241,3.112,3.42678
1.43698,-0.149241,3.112,3.431
1.44708,-0.149241,3.112,3.43524
1.45718,-0.149241,3.112,3.43951
1.46728,-0.149241,3.112,3.4438
1.47738,-0.149241,3.112,3.44811
1.4741,-0.147898,3.084,3.42139
1.48411,-0.147898,3.084,3.42571
1.49412,-0.147898,3.084,3.43006
1.49096,-0.146604,3.057,3.40437
1.50089,-0.146604,3.057,3.40872
1.51081,-0.146604,3.057,3.4131
1.52073,-0.146604,3.057,3.41751
1.53065,-0.146604,3.057,3.42193
1.54057,-0.146604,3.057,3.42638
1.5505,-0.146604,3.057,3.43086
1.56042,-0.146604,3.057,3.43535
1.57034,-0.146604,3.057,3.43987
1.59422,-0.147898,3.084,3.47483
1.60423,-0.147898,3.084,3.47944
1.64408,-0.150632,3.141,3.54846
1.68482,-0.153413,3.199,3.6188
1.6952,-0.153413,3.199,3.62365
1.73811,-0.156339,3.26,3.69771
1.76585,-0.157873,3.292,3.73904
1.79381,-0.159408,3.324,3.78049
1.8046,-0.159408,3.324,3.78562
1.83286,-0.160943,3.356,3.82727
1.84375,-0.160943,3.356,3.8325
1.85465,-0.160943,3.356,3.83775
1.86554,-0.160943,3.356,3.84303
1.87643,-0.160943,3.356,3.84833
1.88732,-0.160943,3.356,3.85365
1.88012,-0.159408,3.324,3.8222
1.89091,-0.159408,3.324,3.82752
1.9017,-0.159408,3.324,3.83286
1.91248,-0.159408,3.324,3.83823
1.90476,-0.157873,3.292,3.80661
1.91544,-0.157873,3.292,3.81197
1.92613,-0.157873,3.292,3.81735
1.93681,-0.157873,3.292,3.82275
1.9475,-0.157873,3.292,3.82818
1.95818,-0.157873,3.292,3.83362
1.94973,-0.156339,3.26,3.80177
1.96031,-0.156339,3.26,3.80721
1.95275,-0.1549,3.23,3.77758
1.9444,-0.153413,3.199,3.74671
1.95478,-0.153413,3.199,3.75211
1.94735,-0.152023,3.17,3.72346
1.92182,-0.149241,3.112,3.66063
1.93192,-0.149241,3.112,3.66594
1.9077,-0.146604,3.057,3.60639
1.88375,-0.144014,3.003,3.54785
1.89349,-0.144014,3.003,3.55304
1.87028,-0.14152,2.951,3.49663
1.83272,-0.137971,2.877,3.41395
1.82669,-0.13682,2.853,3.39045
1.82051,-0.135669,2.829,3.36688
1.79994,-0.133464,2.783,3.31703
1.78037,-0.131353,2.739,3.26942
1.78926,-0.131353,2.739,3.27427
1.78371,-0.130298,2.717,3.2528
1.75097,-0.127277,2.654,3.18211
1.75958,-0.127277,2.654,3.18685
1.7542,-0.12627,2.633,3.16636
1.73597,-0.124352,2.593,3.12293
1.74439,-0.124352,2.593,3.12762
1.73996,-0.123441,2.574,3.10937
1.73541,-0.122529,2.555,3.09106
-1.96257,-0.12649,2.829,3.44542
-1.93751,-0.125461,2.806,3.41223
-1.9284,-0.125461,2.806,3.40707
-1.91929,-0.125461,2.806,3.40192
-1.87955,-0.123449,2.761,3.34231
-1.87059,-0.123449,2.761,3.33728
-1.86163,-0.123449,2.761,3.33227
-1.8379,-0.122466,2.739,3.30076
-1.82901,-0.122466,2.739,3.29582
-1.82012,-0.122466,2.739,3.29089
-1.79668,-0.121482,2.717,3.25959
-1.78787,-0.121482,2.717,3.25474
-1.77905,-0.121482,2.717,3.2499
-1.78456,-0.122466,2.739,3.27136
-1.77567,-0.122466,2.739,3.26652
-1.78097,-0.123449,2.761,3.28789
-1.77201,-0.123449,2.761,3.28305
nan,nan,nan,NaN
nan,nan,nan,NaN
-1.80328,-0.127563,2.853,3.37753
-1.79402,-0.127563,2.853,3.37259
-1.79977,-0.128636,2.877,3.39601
-1.80537,-0.129709,2.901,3.41935
-1.79595,-0.129709,2.901,3.41439
-1.78654,-0.129709,2.901,3.40945
-1.80775,-0.131945,2.951,3.4632
-1.79817,-0.131945,2.951,3.45821
-1.78859,-0.131945,2.951,3.45324
-1.79469,-0.133107,2.977,3.47867
-1.78503,-0.133107,2.977,3.4737
-1.77536,-0.133107,2.977,3.46874
-1.7657,-0.133107,2.977,3.46381
-1.77138,-0.13427,3.003,3.4891
-1.76163,-0.13427,3.003,3.48416
nan,nan,nan,NaN
nan,nan,nan,NaN
nan,nan,nan,NaN
nan,nan,nan,NaN
nan,nan,nan,NaN
nan,nan,nan,NaN
nan,nan,nan,NaN
nan,nan,nan,NaN
nan,nan,nan,NaN
nan,nan,nan,NaN
nan,nan,nan,NaN
nan,nan,nan,NaN
nan,nan,nan,NaN
nan,nan,nan,NaN
nan,nan,nan,NaN
nan,nan,nan,NaN
nan,nan,nan,NaN
nan,nan,nan,NaN
nan,nan,nan,NaN
nan,nan,nan,NaN
nan,nan,nan,NaN
nan,nan,nan,NaN
nan,nan,nan,NaN
nan,nan,nan,NaN
nan,nan,nan,NaN
nan,nan,nan,NaN
-1.30385,-0.116832,2.613,2.92258
-1.29537,-0.116832,2.613,2.9188
-1.25833,-0.114239,2.555,2.85034
-1.24074,-0.113389,2.536,2.82552
-1.23251,-0.113389,2.536,2.82192
-1.2151,-0.11254,2.517,2.79722
-1.1983,-0.111735,2.499,2.7737
-1.19019,-0.111735,2.499,2.77021
-1.18208,-0.111735,2.499,2.76673
-1.16551,-0.11093,2.481,2.74337
-1.14906,-0.110125,2.463,2.72008
-1.14107,-0.110125,2.463,2.71671
-1.11697,-0.10856,2.428,2.67481
-1.10909,-0.10856,2.428,2.67153
-1.10121,-0.10856,2.428,2.66827
-1.08568,-0.1078,2.411,2.64636
-1.07785,-0.1078,2.411,2.64316
-1.07003,-0.1078,2.411,2.63998
-1.05471,-0.10704,2.394,2.61823
-1.03951,-0.10628,2.377,2.59654
-1.03179,-0.10628,2.377,2.59346
-1.02408,-0.10628,2.377,2.5904
-1.01636,-0.10628,2.377,2.58736
-1.01586,-0.10704,2.394,2.60282
-1.00809,-0.10704,2.394,2.5998
-1.00032,-0.10704,2.394,2.59679
-0.992548,-0.10704,2.394,2.59381
-0.984778,-0.10704,2.394,2.59085
-0.977007,-0.10704,2.394,2.5879
-0.969237,-0.10704,2.394,2.58498
-0.961466,-0.10704,2.394,2.58208
-0.953696,-0.10704,2.394,2.57919
-0.945926,-0.10704,2.394,2.57633
-0.938156,-0.10704,2.394,2.57349
-0.930385,-0.10704,2.394,2.57066
-0.922615,-0.10704,2.394,2.56786
-0.914845,-0.10704,2.394,2.56508
-0.907074,-0.10704,2.394,2.56232
-0.899304,-0.10704,2.394,2.55958
-0.891534,-0.10704,2.394,2.55686
-0.883763,-0.10704,2.394,2.55416
-0.875993,-0.10704,2.394,2.55148
-0.868223,-0.10704,2.394,2.54882
-0.866562,-0.1078,2.411,2.56427
-0.858737,-0.1078,2.411,2.56163
-0.850911,-0.1078,2.411,2.55902
-0.843086,-0.1078,2.411,2.55643
-0.83526,-0.1078,2.411,2.55386
-0.827435,-0.1078,2.411,2.55131
-0.825388,-0.10856,2.428,2.56676
-0.817508,-0.10856,2.428,2.56423
-0.809627,-0.10856,2.428,2.56173
-0.801746,-0.10856,2.428,2.55925
-0.799424,-0.109321,2.445,2.5747
-0.791488,-0.109321,2.445,2.57224
-0.783552,-0.109321,2.445,2.56981
-0.775616,-0.109321,2.445,2.5674
-0.767681,-0.109321,2.445,2.56502
-0.759745,-0.109321,2.445,2.56265
-0.746581,-0.10856,2.428,2.54251
-0.738701,-0.10856,2.428,2.54021
-0.73082,-0.10856,2.428,2.53793
-0.728001,-0.109321,2.445,2.55342
-0.720065,-0.109321,2.445,2.55117
-0.712129,-0.109321,2.445,2.54894
-0.699297,-0.10856,2.428,2.52903
-0.691417,-0.10856,2.428,2.52686
-0.688322,-0.109321,2.445,2.54239
-0.680386,-0.109321,2.445,2.54026
-0.67245,-0.109321,2.445,2.53814
-0.664514,-0.109321,2.445,2.53605
-0.656578,-0.109321,2.445,2.53398
-0.648643,-0.109321,2.445,2.53194
-0.640707,-0.109321,2.445,2.52992
-0.632771,-0.109321,2.445,2.52792
-0.620491,-0.10856,2.428,2.50838
-0.61261,-0.10856,2.428,2.50644
-0.604729,-0.10856,2.428,2.50453
-0.601027,-0.109321,2.445,2.52016
-0.593092,-0.109321,2.445,2.51828
-0.585156,-0.109321,2.445,2.51642
-0.57722,-0.109321,2.445,2.51459
-0.569284,-0.109321,2.445,2.51278
-0.565481,-0.110125,2.463,2.52948
-0.557486,-0.110125,2.463,2.5277
-0.549492,-0.110125,2.463,2.52595
-0.545455,-0.11093,2.481,2.54267
-0.537403,-0.11093,2.481,2.54096
-0.52935,-0.11093,2.481,2.53927
-0.525079,-0.111735,2.499,2.55601
-0.516968,-0.111735,2.499,2.55436
-0.508857,-0.111735,2.499,2.55273
-0.500746,-0.111735,2.499,2.55112
-0.492635,-0.111735,2.499,2.54954
-0.484524,-0.111735,2.499,2.54799
-0.476412,-0.111735,2.499,2.54646
-0.468301,-0.111735,2.499,2.54495
-0.46019,-0.111735,2.499,2.54347
-0.452079,-0.111735,2.499,2.54202
-0.447166,-0.11254,2.517,2.55889
-0.438996,-0.11254,2.517,2.55747
-0.430827,-0.11254,2.517,2.55608
-0.422657,-0.11254,2.517,2.55472
-0.414487,-0.11254,2.517,2.55338
-0.406318,-0.11254,2.517,2.55207
-0.398148,-0.11254,2.517,2.55078
-0.389979,-0.11254,2.517,2.54952
-0.381809,-0.11254,2.517,2.54828
-0.37364,-0.11254,2.517,2.54707
-0.36547,-0.11254,2.517,2.54588
-0.357301,-0.11254,2.517,2.54472
-0.349131,-0.11254,2.517,2.54359
-0.340961,-0.11254,2.517,2.54248
-0.332792,-0.11254,2.517,2.5414
-0.324622,-0.11254,2.517,2.54034
-0.316453,-0.11254,2.517,2.53931
-0.308283,-0.11254,2.517,2.53831
-0.300114,-0.11254,2.517,2.53733
-0.291944,-0.11254,2.517,2.53637
-0.285917,-0.113389,2.536,2.55458
-0.275605,-0.11254,2.517,2.53454
-0.267435,-0.11254,2.517,2.53367
-0.259266,-0.11254,2.517,2.53282
-0.251096,-0.11254,2.517,2.532
-0.242927,-0.11254,2.517,2.5312
-0.234757,-0.11254,2.517,2.53043
-0.226588,-0.11254,2.517,2.52968
-0.218418,-0.11254,2.517,2.52896
-0.210249,-0.11254,2.517,2.52827
-0.202079,-0.11254,2.517,2.52761
-0.193909,-0.11254,2.517,2.52697
-0.18574,-0.11254,2.517,2.52635
-0.178911,-0.113389,2.536,2.54483
-0.170679,-0.113389,2.536,2.54427
-0.162448,-0.113389,2.536,2.54373
-0.154217,-0.113389,2.536,2.54321
-0.145986,-0.113389,2.536,2.54273
-0.136723,-0.11254,2.517,2.52322
-0.128553,-0.11254,2.517,2.52279
-0.120383,-0.11254,2.517,2.52239
-0.111411,-0.111735,2.499,2.50398
-0.1033,-0.111735,2.499,2.50363
-0.0951891,-0.111735,2.499,2.50331
-0.087078,-0.111735,2.499,2.50301
-0.0789668,-0.111735,2.499,2.50274
-0.0703453,-0.11093,2.481,2.48447
