0.805147,-0.0955173,2.499,2.62724
0.813258,-0.0955173,2.499,2.62974
0.821369,-0.0955173,2.499,2.63226
0.82948,-0.0955173,2.499,2.6348
0.843624,-0.0962052,2.517,2.65636
0.851794,-0.0962052,2.517,2.65897
0.859963,-0.0962052,2.517,2.66159
0.868133,-0.0962052,2.517,2.66424
0.876303,-0.0962052,2.517,2.66692
0.878147,-0.0955173,2.499,2.65052
0.886258,-0.0955173,2.499,2.65322
0.894369,-0.0955173,2.499,2.65594
0.90248,-0.0955173,2.499,2.65868
0.910591,-0.0955173,2.499,2.66145
0.912085,-0.0948293,2.481,2.64504
0.913462,-0.0941413,2.463,2.62862
0.921457,-0.0941413,2.463,2.63141
0.929451,-0.0941413,2.463,2.63422
0.930594,-0.0934533,2.445,2.61778
0.93853,-0.0934533,2.445,2.62061
0.946466,-0.0934533,2.445,2.62346
0.947766,-0.0928035,2.428,2.60808
0.955646,-0.0928035,2.428,2.61095
0.963527,-0.0928035,2.428,2.61384
0.964606,-0.0921537,2.411,2.59844
0.972432,-0.0921537,2.411,2.60135
0.980257,-0.0921537,2.411,2.60429
0.988083,-0.0921537,2.411,2.60724
1.00293,-0.0928035,2.428,2.62862
1.02538,-0.0941413,2.463,2.66958
1.04848,-0.0955173,2.499,2.71172
1.05659,-0.0955173,2.499,2.71487
1.09666,-0.0983839,2.574,2.79961
1.13936,-0.101442,2.654,2.89001
1.14797,-0.101442,2.654,2.89341
1.19363,-0.104691,2.739,2.98962
1.24203,-0.108131,2.829,3.09153
1.29411,-0.111838,2.926,3.20136
1.30361,-0.111838,2.926,3.20521
1.34766,-0.114781,3.003,3.29354
1.35741,-0.114781,3.003,3.29754
1.36716,-0.114781,3.003,3.30156
1.38928,-0.115813,3.03,3.33533
1.38665,-0.114781,3.003,3.30968
1.3964,-0.114781,3.003,3.31378
1.39397,-0.113787,2.977,3.28917
1.39137,-0.112794,2.951,3.26451
1.40095,-0.112794,2.951,3.26861
1.39858,-0.111838,2.926,3.245
1.40808,-0.111838,2.926,3.2491
1.42969,-0.112794,2.951,3.28103
1.43926,-0.112794,2.951,3.28521
1.46161,-0.113787,2.977,3.3184
1.47127,-0.113787,2.977,3.32267
1.48093,-0.113787,2.977,3.32696
1.50361,-0.114781,3.003,3.36036
1.51336,-0.114781,3.003,3.36474
1.5368,-0.115813,3.03,3.39942
1.54664,-0.115813,3.03,3.40388
1.58421,-0.117877,3.084,3.4691
1.62369,-0.120056,3.141,3.53789
1.63388,-0.120056,3.141,3.54258
1.65925,-0.121164,3.17,3.58004
1.70114,-0.123458,3.23,3.65267
1.71163,-0.123458,3.23,3.65757
1.73811,-0.124604,3.26,3.6965
1.78302,-0.127051,3.324,3.77416
1.81108,-0.128274,3.356,3.81565
1.82197,-0.128274,3.356,3.82083
1.85088,-0.129535,3.389,3.86366
1.89979,-0.132172,3.458,3.94771
1.89167,-0.130835,3.423,3.91312
1.90278,-0.130835,3.423,3.9185
1.91389,-0.130835,3.423,3.92391
1.925,-0.130835,3.423,3.92934
1.93611,-0.130835,3.423,3.93479
1.94722,-0.130835,3.423,3.94027
1.95833,-0.130835,3.423,3.94577
1.9309,-0.128274,3.356,3.87396
1.92327,-0.127051,3.324,3.84241
1.93406,-0.127051,3.324,3.84782
1.94485,-0.127051,3.324,3.85325
1.93681,-0.125827,3.292,3.82156
1.9475,-0.125827,3.292,3.82699
1.93915,-0.124604,3.26,3.79518
1.93179,-0.123458,3.23,3.76563
1.94227,-0.123458,3.23,3.77102
1.91648,-0.121164,3.17,3.70628
1.89152,-0.118947,3.112,3.6437
1.90162,-0.118947,3.112,3.64895
1.89452,-0.117877,3.084,3.62135
1.87118,-0.115813,3.03,3.56309
1.88101,-0.115813,3.03,3.56827
1.874,-0.114781,3.003,3.54162
1.86744,-0.113787,2.977,3.51608
1.8771,-0.113787,2.977,3.52122
1.85444,-0.111838,2.926,3.46597
1.83272,-0.109965,2.877,3.41293
1.81133,-0.108131,2.829,3.36093
1.82051,-0.108131,2.829,3.36589
1.79994,-0.106372,2.783,3.31605
1.79467,-0.105531,2.761,3.29471
1.80364,-0.105531,2.761,3.2996
1.79815,-0.104691,2.739,3.27818
1.77867,-0.103047,2.696,3.23152
1.78743,-0.103047,2.696,3.23634
1.76819,-0.101442,2.654,3.19069
1.74936,-0.0998746,2.613,3.14611
1.75784,-0.0998746,2.613,3.15083
1.7528,-0.0991101,2.593,3.13142
1.73541,-0.0976577,2.555,3.09018
-2.02986,-0.102344,2.926,3.56262
-2.0031,-0.101469,2.901,3.52683
-1.99369,-0.101469,2.901,3.52149
-1.96786,-0.10063,2.877,3.48708
-1.95852,-0.10063,2.877,3.48182
-1.94918,-0.10063,2.877,3.47657
-1.92366,-0.0997904,2.853,3.44239
-1.9144,-0.0997904,2.853,3.43722
-1.90514,-0.0997904,2.853,3.43207
-1.87993,-0.0989509,2.829,3.39811
-1.87075,-0.0989509,2.829,3.39304
-1.87736,-0.0997904,2.853,3.41673
-1.8681,-0.0997904,2.853,3.41165
-1.85884,-0.0997904,2.853,3.40659
-1.84958,-0.0997904,2.853,3.40154
nan,nan,nan,NaN
nan,nan,nan,NaN
nan,nan,nan,NaN
nan,nan,nan,NaN
nan,nan,nan,NaN
nan,nan,nan,NaN
-1.83042,-0.102344,2.926,3.45288
-1.82093,-0.102344,2.926,3.44786
-1.81143,-0.102344,2.926,3.44285
-1.81733,-0.103218,2.951,3.46724
-1.80775,-0.103218,2.951,3.46223
-1.79817,-0.103218,2.951,3.45724
-1.78859,-0.103218,2.951,3.45226
-1.79469,-0.104128,2.977,3.47768
-1.78503,-0.104128,2.977,3.47271
-1.79087,-0.105037,3.003,3.49804
-1.78112,-0.105037,3.003,3.49306
-1.77138,-0.105037,3.003,3.4881
-1.76163,-0.105037,3.003,3.48316
-1.75188,-0.105037,3.003,3.47824
-1.7578,-0.105981,3.03,3.50457
-1.74796,-0.105981,3.03,3.49964
nan,nan,nan,NaN
nan,nan,nan,NaN
nan,nan,nan,NaN
nan,nan,nan,NaN
nan,nan,nan,NaN
nan,nan,nan,NaN
nan,nan,nan,NaN
nan,nan,nan,NaN
nan,nan,nan,NaN
nan,nan,nan,NaN
nan,nan,nan,NaN
nan,nan,nan,NaN
nan,nan,nan,NaN
nan,nan,nan,NaN
nan,nan,nan,NaN
nan,nan,nan,NaN
nan,nan,nan,NaN
nan,nan,nan,NaN
nan,nan,nan,NaN
nan,nan,nan,NaN
nan,nan,nan,NaN
nan,nan,nan,NaN
nan,nan,nan,NaN
nan,nan,nan,NaN
nan,nan,nan,NaN
-1.23075,-0.0874084,2.499,2.787
-1.21383,-0.0867788,2.481,2.76338
-1.20578,-0.0867788,2.481,2.75985
-1.18904,-0.0861492,2.463,2.73635
-1.18104,-0.0861492,2.463,2.73288
-1.17305,-0.0861492,2.463,2.72944
-1.15654,-0.0855196,2.445,2.70609
-1.14062,-0.084925,2.428,2.68392
-1.13274,-0.084925,2.428,2.68058
-1.11698,-0.0843304,2.411,2.65851
-1.10915,-0.0843304,2.411,2.65523
-1.09356,-0.0837358,2.394,2.63327
-1.08579,-0.0837358,2.394,2.63006
-1.07037,-0.0831412,2.377,2.6082
-1.06265,-0.0831412,2.377,2.60505
-1.05494,-0.0831412,2.377,2.60191
-1.04722,-0.0831412,2.377,2.59879
-1.03951,-0.0831412,2.377,2.59569
-1.03179,-0.0831412,2.377,2.59261
-1.02408,-0.0831412,2.377,2.58955
-1.01636,-0.0831412,2.377,2.58651
-1.00865,-0.0831412,2.377,2.58349
-1.00093,-0.0831412,2.377,2.58048
-0.993215,-0.0831412,2.377,2.5775
-0.9855,-0.0831412,2.377,2.57454
-0.977785,-0.0831412,2.377,2.5716
-0.970069,-0.0831412,2.377,2.56867
-0.962354,-0.0831412,2.377,2.56577
-0.954639,-0.0831412,2.377,2.56288
-0.946924,-0.0831412,2.377,2.56002
-0.939209,-0.0831412,2.377,2.55718
-0.938156,-0.0837358,2.394,2.57262
-0.930385,-0.0837358,2.394,2.5698
-0.922615,-0.0837358,2.394,2.567
-0.908348,-0.0831412,2.377,2.546
-0.900633,-0.0831412,2.377,2.54326
-0.892918,-0.0831412,2.377,2.54054
-0.885203,-0.0831412,2.377,2.53784
-0.877488,-0.0831412,2.377,2.53516
-0.869772,-0.0831412,2.377,2.5325
-0.862057,-0.0831412,2.377,2.52986
-0.854342,-0.0831412,2.377,2.52724
-0.846627,-0.0831412,2.377,2.52464
-0.838912,-0.0831412,2.377,2.52207
-0.837141,-0.0837358,2.394,2.53753
-0.829371,-0.0837358,2.394,2.53498
-0.821601,-0.0837358,2.394,2.53244
-0.81383,-0.0837358,2.394,2.52993
-0.80606,-0.0837358,2.394,2.52745
-0.79829,-0.0837358,2.394,2.52498
-0.790519,-0.0837358,2.394,2.52253
-0.782749,-0.0837358,2.394,2.52011
-0.774979,-0.0837358,2.394,2.51771
-0.767208,-0.0837358,2.394,2.51532
-0.759438,-0.0837358,2.394,2.51297
-0.757005,-0.0843304,2.411,2.52846
-0.74918,-0.0843304,2.411,2.52612
-0.741354,-0.0843304,2.411,2.52381
-0.733529,-0.0843304,2.411,2.52153
-0.725703,-0.0843304,2.411,2.51926
-0.717878,-0.0843304,2.411,2.51702
-0.710052,-0.0843304,2.411,2.5148
-0.702227,-0.0843304,2.411,2.5126
-0.699297,-0.084925,2.428,2.52812
-0.691417,-0.084925,2.428,2.52596
-0.683536,-0.084925,2.428,2.52381
-0.675655,-0.084925,2.428,2.52169
-0.667775,-0.084925,2.428,2.51959
-0.664514,-0.0855196,2.445,2.53514
-0.656578,-0.0855196,2.445,2.53307
-0.648643,-0.0855196,2.445,2.53102
-0.640707,-0.0855196,2.445,2.529
-0.632771,-0.0855196,2.445,2.527
-0.624835,-0.0855196,2.445,2.52503
-0.616899,-0.0855196,2.445,2.52307
-0.613446,-0.0861492,2.463,2.53971
-0.605452,-0.0861492,2.463,2.53779
-0.597458,-0.0861492,2.463,2.53589
-0.589464,-0.0861492,2.463,2.53402
-0.581469,-0.0861492,2.463,2.53217
-0.573475,-0.0861492,2.463,2.53035
-0.569613,-0.0867788,2.481,2.54703
-0.557486,-0.0861492,2.463,2.52677
-0.549492,-0.0861492,2.463,2.52502
-0.541498,-0.0861492,2.463,2.52329
-0.533504,-0.0861492,2.463,2.52159
-0.525509,-0.0861492,2.463,2.51991
-0.521297,-0.0867788,2.481,2.53666
-0.513244,-0.0867788,2.481,2.53502
-0.505192,-0.0867788,2.481,2.5334
-0.497139,-0.0867788,2.481,2.53181
-0.489086,-0.0867788,2.481,2.53024
-0.481034,-0.0867788,2.481,2.52869
-0.472981,-0.0867788,2.481,2.52717
-0.468301,-0.0874084,2.499,2.544
-0.46019,-0.0874084,2.499,2.54252
-0.452079,-0.0874084,2.499,2.54107
-0.443968,-0.0874084,2.499,2.53964
-0.435857,-0.0874084,2.499,2.53823
-0.427746,-0.0874084,2.499,2.53685
-0.422657,-0.088038,2.517,2.55376
-0.414487,-0.088038,2.517,2.55242
-0.406318,-0.088038,2.517,2.5511
-0.398148,-0.088038,2.517,2.54982
-0.389979,-0.088038,2.517,2.54855
-0.381809,-0.088038,2.517,2.54732
-0.37646,-0.0887026,2.536,2.56532
-0.368229,-0.0887026,2.536,2.56413
-0.359998,-0.0887026,2.536,2.56296
-0.351766,-0.0887026,2.536,2.56182
-0.340961,-0.088038,2.517,2.54151
-0.332792,-0.088038,2.517,2.54043
-0.324622,-0.088038,2.517,2.53937
-0.316453,-0.088038,2.517,2.53834
-0.308283,-0.088038,2.517,2.53734
-0.300114,-0.088038,2.517,2.53636
-0.291944,-0.088038,2.517,2.5354
-0.283775,-0.088038,2.517,2.53448
-0.275605,-0.088038,2.517,2.53357
-0.267435,-0.088038,2.517,2.5327
-0.257412,-0.0874084,2.499,2.51374
-0.249301,-0.0874084,2.499,2.51292
-0.24119,-0.0874084,2.499,2.51213
-0.233078,-0.0874084,2.499,2.51137
-0.224967,-0.0874084,2.499,2.51063
-0.216856,-0.0874084,2.499,2.50991
-0.208745,-0.0874084,2.499,2.50923
-0.200634,-0.0874084,2.499,2.50856
-0.192523,-0.0874084,2.499,2.50793
-0.184412,-0.0874084,2.499,2.50732
-0.1763,-0.0874084,2.499,2.50674
-0.168189,-0.0874084,2.499,2.50618
-0.160078,-0.0874084,2.499,2.50565
-0.153062,-0.088038,2.517,2.52319
-0.144892,-0.088038,2.517,2.5227
-0.136723,-0.088038,2.517,2.52225
-0.128553,-0.088038,2.517,2.52182
-0.120383,-0.088038,2.517,2.52141
-0.112214,-0.088038,2.517,2.52104
-0.104044,-0.088038,2.517,2.52069
-0.0958747,-0.088038,2.517,2.52036
-0.0877052,-0.088038,2.517,2.52007
-0.0795356,-0.088038,2.517,2.51979
-0.0713661,-0.088038,2.517,2.51955
-0.0631965,-0.088038,2.517,2.51933
-0.055027,-0.088038,2.517,2.51914
-0.0468574,-0.088038,2.517,2.51898
-0.0386878,-0.088038,2.517,2.51884
-0.0305183,-0.088038,2.517,2.51872
-0.0223487,-0.088038,2.517,2.51864
-0.0141792,-0.088038,2.517,2.51858
-0.00600962,-0.088038,2.517,2.51855
0.00214449,-0.0874084,2.499,2.50053
0.0102556,-0.0874084,2.499,2.50055
0.0183668,-0.0874084,2.499,2.5006
0.0264779,-0.0874084,2.499,2.50067
0.0343399,-0.0867788,2.481,2.48275
0.0423926,-0.0867788,2.481,2.48288
0.0504453,-0.0867788,2.481,2.48303
0.058498,-0.0867788,2.481,2.48321
0.0665507,-0.0867788,2.481,2.48341
0.0746034,-0.0867788,2.481,2.48364
0.0826561,-0.0867788,2.481,2.48389
0.0907089,-0.0867788,2.481,2.48417
0.098045,-0.0861492,2.463,2.46646
0.106039,-0.0861492,2.463,2.46679
0.114034,-0.0861492,2.463,2.46714
0.122028,-0.0861492,2.463,2.46753
0.130022,-0.0861492,2.463,2.46793
0.138016,-0.0861492,2.463,2.46837
0.146011,-0.0861492,2.463,2.46883
0.154005,-0.0861492,2.463,2.46931
0.163183,-0.0867788,2.481,2.48787
0.171236,-0.0867788,2.481,2.48842
0.179289,-0.0867788,2.481,2.48898
0.187341,-0.0867788,2.481,2.48958
0.195394,-0.0867788,2.481,2.4902
0.203447,-0.0867788,2.481,2.49084
0.2115,-0.0867788,2.481,2.49151
0.219552,-0.0867788,2.481,2.49221
0.229256,-0.0874084,2.499,2.51102
0.237367,-0.0874084,2.499,2.51177
0.245479,-0.0874084,2.499,2.51255
0.25359,-0.0874084,2.499,2.51335
0.261701,-0.0874084,2.499,2.51419
0.269812,-0.0874084,2.499,2.51504
0.279925,-0.088038,2.517,2.53405
0.288094,-0.088038,2.517,2.53496
0.296264,-0.088038,2.517,2.5359
0.304434,-0.088038,2.517,2.53687
0.312603,-0.088038,2.517,2.53787
0.320773,-0.088038,2.517,2.53888
0.331425,-0.0887026,2.536,2.5591
0.339657,-0.0887026,2.536,2.56018
0.347888,-0.0887026,2.536,2.56129
0.356119,-0.0887026,2.536,2.56242
0.36435,-0.0887026,2.536,2.56357
0.372581,-0.0887026,2.536,2.56476
0.380813,-0.0887026,2.536,2.56597
0.389044,-0.0887026,2.536,2.5672
0.397275,-0.0887026,2.536,2.56846
0.405506,-0.0887026,2.536,2.56975
0.413738,-0.0887026,2.536,2.57106
0.421969,-0.0887026,2.536,2.5724
0.4302,-0.0887026,2.536,2.57376
0.438431,-0.0887026,2.536,2.57515
0.446662,-0.0887026,2.536,2.57656
0.454894,-0.0887026,2.536,2.578
0.459655,-0.088038,2.517,2.56014
0.467825,-0.088038,2.517,2.56162
0.475994,-0.088038,2.517,2.56313
0.487819,-0.0887026,2.536,2.58401
0.49605,-0.0887026,2.536,2.58558
0.504281,-0.0887026,2.536,2.58717
0.512512,-0.0887026,2.536,2.58879
0.520743,-0.0887026,2.536,2.59043
0.528975,-0.0887026,2.536,2.5921
0.537206,-0.0887026,2.536,2.59379
0.545437,-0.0887026,2.536,2.59551
0.553668,-0.0887026,2.536,2.59725
0.5619,-0.0887026,2.536,2.59902
0.570131,-0.0887026,2.536,2.60081
0.578362,-0.0887026,2.536,2.60263
0.586593,-0.0887026,2.536,2.60447
0.594824,-0.0887026,2.536,2.60633
0.603056,-0.0887026,2.536,2.60823
0.611287,-0.0887026,2.536,2.61014
0.619518,-0.0887026,2.536,2.61208
0.627749,-0.0887026,2.536,2.61405
0.635981,-0.0887026,2.536,2.61603
0.639385,-0.088038,2.517,2.59843
0.647555,-0.088038,2.517,2.60046
0.655725,-0.088038,2.517,2.6025
0.659146,-0.0874084,2.499,2.58595
0.667257,-0.0874084,2.499,2.58803
0.675369,-0.0874084,2.499,2.59013
0.68348,-0.0874084,2.499,2.59226
0.686609,-0.0867788,2.481,2.57572
0.694662,-0.0867788,2.481,2.57788
0.702715,-0.0867788,2.481,2.58006
0.710768,-0.0867788,2.481,2.58226
0.71882,-0.0867788,2.481,2.58449
0.726873,-0.0867788,2.481,2.58674
0.734926,-0.0867788,2.481,2.58902
0.742978,-0.0867788,2.481,2.59131
0.751031,-0.0867788,2.481,2.59363
0.759084,-0.0867788,2.481,2.59598
0.767137,-0.0867788,2.481,2.59834
0.775189,-0.0867788,2.481,2.60073
0.783242,-0.0867788,2.481,2.60314
0.797036,-0.0874084,2.499,2.62448
0.805147,-0.0874084,2.499,2.62696
0.813258,-0.0874084,2.499,2.62945
0.821369,-0.0874084,2.499,2.63197
0.835455,-0.088038,2.517,2.65349
0.843624,-0.088038,2.517,2.65608
0.851794,-0.088038,2.517,2.65868
0.859963,-0.088038,2.517,2.66131
0.868133,-0.088038,2.517,2.66396
0.876303,-0.088038,2.517,2.66664
0.884472,-0.088038,2.517,2.66933
0.892642,-0.088038,2.517,2.67205
0.894369,-0.0874084,2.499,2.65566
0.90248,-0.0874084,2.499,2.6584
0.910591,-0.0874084,2.499,2.66117
0.912085,-0.0867788,2.481,2.64477
0.913462,-0.0861492,2.463,2.62835
0.921457,-0.0861492,2.463,2.63114
0.929451,-0.0861492,2.463,2.63395
0.930594,-0.0855196,2.445,2.61751
0.93853,-0.0855196,2.445,2.62034
0.946466,-0.0855196,2.445,2.62319
0.947766,-0.084925,2.428,2.60781
0.948955,-0.0843304,2.411,2.5924
0.956781,-0.0843304,2.411,2.59528
0.964606,-0.0843304,2.411,2.59817
0.972432,-0.0843304,2.411,2.60109
0.980257,-0.0843304,2.411,2.60402
0.988083,-0.0843304,2.411,2.60698
1.00293,-0.084925,2.428,2.62836
1.02538,-0.0861492,2.463,2.66931
1.04848,-0.0874084,2.499,2.71145
1.05659,-0.0874084,2.499,2.7146
1.08856,-0.0893671,2.555,2.77866
1.13034,-0.0920954,2.633,2.86685
1.13889,-0.0920954,2.633,2.87023
1.18404,-0.0950335,2.717,2.96531
1.23193,-0.0981465,2.806,3.06609
1.27244,-0.10063,2.877,3.14744
1.28178,-0.10063,2.877,3.15122
1.32433,-0.103218,2.951,3.23619
1.34566,-0.104128,2.977,3.26866
1.35532,-0.104128,2.977,3.27265
1.36498,-0.104128,2.977,3.27667
1.38665,-0.105037,3.003,3.30936
1.38431,-0.104128,2.977,3.28476
1.3818,-0.103218,2.951,3.26012
1.37959,-0.102344,2.926,3.23654
1.38908,-0.102344,2.926,3.2406
1.39858,-0.102344,2.926,3.24468
1.40808,-0.102344,2.926,3.24879
1.41757,-0.102344,2.926,3.25292
1.42707,-0.102344,2.926,3.25707
1.44884,-0.103218,2.951,3.2891
1.47127,-0.104128,2.977,3.32235
1.48093,-0.104128,2.977,3.32664
1.4906,-0.104128,2.977,3.33095
1.51336,-0.105037,3.003,3.36442
1.52311,-0.105037,3.003,3.36881
1.53285,-0.105037,3.003,3.37323
1.57034,-0.106926,3.057,3.43841
1.59422,-0.10787,3.084,3.47336
1.60423,-0.10787,3.084,3.47797
1.64408,-0.109864,3.141,3.54696
1.66954,-0.110878,3.17,3.58449
1.67983,-0.110878,3.17,3.58929
1.70558,-0.111893,3.199,3.627
1.74869,-0.114026,3.26,3.70115
1.77654,-0.115145,3.292,3.74254
1.78722,-0.115145,3.292,3.74762
1.81538,-0.116265,3.324,3.78921
1.84375,-0.117384,3.356,3.83092
1.85465,-0.117384,3.356,3.83617
1.86554,-0.117384,3.356,3.84145
1.87643,-0.117384,3.356,3.84675
1.88732,-0.117384,3.356,3.85208
1.89822,-0.117384,3.356,3.85743
1.90911,-0.117384,3.356,3.8628
1.9017,-0.116265,3.324,3.83131
1.89407,-0.115145,3.292,3.79974
1.90476,-0.115145,3.292,3.80508
1.91544,-0.115145,3.292,3.81044
1.88985,-0.112977,3.23,3.74396
1.90034,-0.112977,3.23,3.74926
1.91082,-0.112977,3.23,3.75458
1.90286,-0.111893,3.199,3.72384
1.8959,-0.110878,3.17,3.69535
1.90619,-0.110878,3.17,3.70064
1.88142,-0.10885,3.112,3.63815
1.8745,-0.10787,3.084,3.6106
1.88451,-0.10787,3.084,3.61581
1.86134,-0.105981,3.03,3.55763
1.85451,-0.105037,3.003,3.53104
1.86425,-0.105037,3.003,3.53617
1.85777,-0.104128,2.977,3.51066
1.85113,-0.103218,2.951,3.48507
1.86071,-0.103218,2.951,3.49017
1.8386,-0.101469,2.901,3.43606
1.83272,-0.10063,2.877,3.41264
1.81133,-0.0989509,2.829,3.36065
1.82051,-0.0989509,2.829,3.3656
1.79994,-0.097342,2.783,3.31577
1.79467,-0.0965725,2.761,3.29443
1.80364,-0.0965725,2.761,3.29933
1.78371,-0.0950335,2.717,3.25158
1.77867,-0.0942989,2.696,3.23125
1.78743,-0.0942989,2.696,3.23608
1.76819,-0.0928299,2.654,3.19043
1.74936,-0.0913958,2.613,3.14585
1.75784,-0.0913958,2.613,3.15058
1.73996,-0.0900317,2.574,3.10822
1.73541,-0.0893671,2.555,3.08993
-1.99587,-0.0912945,2.877,3.50271
-1.96996,-0.0905329,2.853,3.46822
-1.9607,-0.0905329,2.853,3.46297
-1.95144,-0.0905329,2.853,3.45773
-1.92584,-0.0897713,2.829,3.42347
-1.91666,-0.0897713,2.829,3.41832
-1.90748,-0.0897713,2.829,3.41318
-1.88286,-0.0890414,2.806,3.38034
-1.87375,-0.0890414,2.806,3.37528
-1.86465,-0.0890414,2.806,3.37023
-1.85554,-0.0890414,2.806,3.3652
-1.86157,-0.0897713,2.829,3.38773
-1.85238,-0.0897713,2.829,3.38269
-1.8432,-0.0897713,2.829,3.37768
-1.83402,-0.0897713,2.829,3.37267
-1.84032,-0.0905329,2.853,3.39626
-1.83106,-0.0905329,2.853,3.39125
-1.8218,-0.0905329,2.853,3.38626
-1.82778,-0.0912945,2.877,3.40973
-1.81845,-0.0912945,2.877,3.40473
-1.8242,-0.092056,2.901,3.42812
-1.83042,-0.0928493,2.926,3.45261
-1.82093,-0.0928493,2.926,3.44759
-1.81143,-0.0928493,2.926,3.44258
-1.81733,-0.0936427,2.951,3.46697
-1.80775,-0.0936427,2.951,3.46196
-1.79817,-0.0936427,2.951,3.45696
-1.78859,-0.0936427,2.951,3.45199
-1.81036,-0.0952927,3.003,3.50778
-1.80062,-0.0952927,3.003,3.50276
-1.79087,-0.0952927,3.003,3.49776
-1.78112,-0.0952927,3.003,3.49278
-1.77138,-0.0952927,3.003,3.48782
-1.76163,-0.0952927,3.003,3.48288
-1.75188,-0.0952927,3.003,3.47796
-1.7578,-0.0961495,3.03,3.50428
-1.74796,-0.0961495,3.03,3.49936
nan,nan,nan,NaN
nan,nan,nan,NaN
nan,nan,nan,NaN
nan,nan,nan,NaN
nan,nan,nan,NaN
nan,nan,nan,NaN
nan,nan,nan,NaN
nan,nan,nan,NaN
nan,nan,nan,NaN
nan,nan,nan,NaN
nan,nan,nan,NaN
nan,nan,nan,NaN
nan,nan,nan,NaN
nan,nan,nan,NaN
nan,nan,nan,NaN
nan,nan,nan,NaN
nan,nan,nan,NaN
nan,nan,nan,NaN
nan,nan,nan,NaN
nan,nan,nan,NaN
nan,nan,nan,NaN
nan,nan,nan,NaN
nan,nan,nan,NaN
nan,nan,nan,NaN
nan,nan,nan,NaN
-1.23961,-0.0798707,2.517,2.80683
-1.22264,-0.0792996,2.499,2.78319
-1.21453,-0.0792996,2.499,2.77963
-1.19772,-0.0787284,2.481,2.7561
-1.18967,-0.0787284,2.481,2.75261
-1.18162,-0.0787284,2.481,2.74914
-1.16505,-0.0781572,2.463,2.72577
-1.1486,-0.077586,2.445,2.70247
-1.13274,-0.0770466,2.428,2.68034
-1.12485,-0.0770466,2.428,2.67702
-1.10915,-0.0765071,2.411,2.65499
-1.10133,-0.0765071,2.411,2.65173
-1.0935,-0.0765071,2.411,2.64849
-1.07802,-0.0759676,2.394,2.62662
-1.07025,-0.0759676,2.394,2.62344
-1.06248,-0.0759676,2.394,2.62028
-1.04722,-0.0754282,2.377,2.59856
-1.03951,-0.0754282,2.377,2.59546
-1.03179,-0.0754282,2.377,2.59238
-1.02408,-0.0754282,2.377,2.58931
-1.01636,-0.0754282,2.377,2.58627
-1.00865,-0.0754282,2.377,2.58325
-1.00093,-0.0754282,2.377,2.58025
-0.993215,-0.0754282,2.377,2.57727
-0.9855,-0.0754282,2.377,2.5743
-0.977785,-0.0754282,2.377,2.57136
-0.970069,-0.0754282,2.377,2.56843
-0.962354,-0.0754282,2.377,2.56553
-0.954639,-0.0754282,2.377,2.56265
-0.946924,-0.0754282,2.377,2.55978
-0.939209,-0.0754282,2.377,2.55694
-0.938156,-0.0759676,2.394,2.57238
-0.930385,-0.0759676,2.394,2.56956
-0.922615,-0.0759676,2.394,2.56675
-0.908348,-0.0754282,2.377,2.54576
-0.900633,-0.0754282,2.377,2.54302
-0.892918,-0.0754282,2.377,2.5403
-0.885203,-0.0754282,2.377,2.5376
-0.877488,-0.0754282,2.377,2.53492
-0.869772,-0.0754282,2.377,2.53226
-0.862057,-0.0754282,2.377,2.52962
-0.854342,-0.0754282,2.377,2.527
-0.846627,-0.0754282,2.377,2.5244
-0.838912,-0.0754282,2.377,2.52182
-0.837141,-0.0759676,2.394,2.53728
-0.829371,-0.0759676,2.394,2.53473
-0.821601,-0.0759676,2.394,2.5322
-0.81383,-0.0759676,2.394,2.52969
-0.80606,-0.0759676,2.394,2.5272
-0.79829,-0.0759676,2.394,2.52473
-0.790519,-0.0759676,2.394,2.52229
-0.782749,-0.0759676,2.394,2.51986
-0.774979,-0.0759676,2.394,2.51746
-0.767208,-0.0759676,2.394,2.51508
-0.759438,-0.0759676,2.394,2.51272
-0.757005,-0.0765071,2.411,2.52821
-0.74918,-0.0765071,2.411,2.52588
-0.741354,-0.0765071,2.411,2.52357
-0.733529,-0.0765071,2.411,2.52128
-0.725703,-0.0765071,2.411,2.51901
-0.717878,-0.0765071,2.411,2.51677
-0.710052,-0.0765071,2.411,2.51455
-0.702227,-0.0765071,2.411,2.51235
-0.699297,-0.0770466,2.428,2.52787
-0.691417,-0.0770466,2.428,2.5257
-0.683536,-0.0770466,2.428,2.52356
-0.675655,-0.0770466,2.428,2.52143
-0.667775,-0.0770466,2.428,2.51933
-0.664514,-0.077586,2.445,2.53488
-0.656578,-0.077586,2.445,2.53281
-0.648643,-0.077586,2.445,2.53077
-0.640707,-0.077586,2.445,2.52874
-0.632771,-0.077586,2.445,2.52675
-0.624835,-0.077586,2.445,2.52477
-0.616899,-0.077586,2.445,2.52282
-0.613446,-0.0781572,2.463,2.53945
-0.605452,-0.0781572,2.463,2.53753
-0.597458,-0.0781572,2.463,2.53563
-0.589464,-0.0781572,2.463,2.53376
-0.581469,-0.0781572,2.463,2.53191
-0.577666,-0.0787284,2.481,2.54858
-0.569613,-0.0787284,2.481,2.54677
-0.561561,-0.0787284,2.481,2.54498
-0.553508,-0.0787284,2.481,2.54321
-0.545455,-0.0787284,2.481,2.54147
-0.537403,-0.0787284,2.481,2.53976
-0.52935,-0.0787284,2.481,2.53806
-0.521297,-0.0787284,2.481,2.5364
-0.513244,-0.0787284,2.481,2.53475
-0.505192,-0.0787284,2.481,2.53314
-0.500746,-0.0792996,2.499,2.54991
-0.492635,-0.0792996,2.499,2.54833
-0.484524,-0.0792996,2.499,2.54677
-0.476412,-0.0792996,2.499,2.54524
-0.468301,-0.0792996,2.499,2.54374
-0.46019,-0.0792996,2.499,2.54226
-0.452079,-0.0792996,2.499,2.5408
-0.447166,-0.0798707,2.517,2.55766
-0.438996,-0.0798707,2.517,2.55624
-0.430827,-0.0798707,2.517,2.55485
-0.422657,-0.0798707,2.517,2.55349
-0.414487,-0.0798707,2.517,2.55215
-0.406318,-0.0798707,2.517,2.55084
-0.398148,-0.0798707,2.517,2.54955
-0.389979,-0.0798707,2.517,2.54828
-0.381809,-0.0798707,2.517,2.54705
-0.37646,-0.0804737,2.536,2.56505
-0.368229,-0.0804737,2.536,2.56386
-0.359998,-0.0804737,2.536,2.56269
-0.351766,-0.0804737,2.536,2.56154
-0.343535,-0.0804737,2.536,2.56043
-0.335304,-0.0804737,2.536,2.55934
-0.327073,-0.0804737,2.536,2.55827
-0.318842,-0.0804737,2.536,2.55723
-0.31061,-0.0804737,2.536,2.55622
-0.300114,-0.0798707,2.517,2.53609
-0.291944,-0.0798707,2.517,2.53513
-0.283775,-0.0798707,2.517,2.53421
-0.275605,-0.0798707,2.517,2.5333
-0.267435,-0.0798707,2.517,2.53243
-0.259266,-0.0798707,2.517,2.53158
-0.251096,-0.0798707,2.517,2.53075
-0.24119,-0.0792996,2.499,2.51186
-0.233078,-0.0792996,2.499,2.5111
-0.224967,-0.0792996,2.499,2.51036
-0.216856,-0.0792996,2.499,2.50964
-0.208745,-0.0792996,2.499,2.50896
-0.200634,-0.0792996,2.499,2.50829
-0.192523,-0.0792996,2.499,2.50766
-0.184412,-0.0792996,2.499,2.50705
-0.1763,-0.0792996,2.499,2.50647
-0.168189,-0.0792996,2.499,2.50591
-0.160078,-0.0792996,2.499,2.50538
-0.153062,-0.0798707,2.517,2.52291
-0.144892,-0.0798707,2.517,2.52243
-0.136723,-0.0798707,2.517,2.52198
-0.128553,-0.0798707,2.517,2.52155
-0.120383,-0.0798707,2.517,2.52114
-0.112214,-0.0798707,2.517,2.52077
-0.104044,-0.0798707,2.517,2.52042
-0.0958747,-0.0798707,2.517,2.52009
-0.0877052,-0.0798707,2.517,2.51979
-0.0795356,-0.0798707,2.517,2.51952
-0.0713661,-0.0798707,2.517,2.51928
-0.0631965,-0.0798707,2.517,2.51906
-0.055027,-0.0798707,2.517,2.51887
-0.0468574,-0.0798707,2.517,2.5187
-0.0386878,-0.0798707,2.517,2.51856
-0.0305183,-0.0798707,2.517,2.51845
-0.0223487,-0.0798707,2.517,2.51837
-0.0141792,-0.0798707,2.517,2.51831
-0.00600962,-0.0798707,2.517,2.51827
0.00214449,-0.0792996,2.499,2.50026
0.0102556,-0.0792996,2.499,2.50028
0.0183668,-0.0792996,2.499,2.50033
0.0264779,-0.0792996,2.499,2.5004
0.034589,-0.0792996,2.499,2.5005
0.0427002,-0.0792996,2.499,2.50062
0.0504453,-0.0787284,2.481,2.48276
0.058498,-0.0787284,2.481,2.48294
0.0665507,-0.0787284,2.481,2.48314
0.0746034,-0.0787284,2.481,2.48337
0.0826561,-0.0787284,2.481,2.48362
0.0907089,-0.0787284,2.481,2.48391
0.0987616,-0.0787284,2.481,2.48421
0.106814,-0.0787284,2.481,2.48455
0.114867,-0.0787284,2.481,2.48491
0.12292,-0.0787284,2.481,2.48529
0.130972,-0.0787284,2.481,2.4857
0.139025,-0.0787284,2.481,2.48614
0.147078,-0.0787284,2.481,2.4866
0.155131,-0.0787284,2.481,2.48709
0.163183,-0.0787284,2.481,2.48761
0.171236,-0.0787284,2.481,2.48815
0.179289,-0.0787284,2.481,2.48872
0.187341,-0.0787284,2.481,2.48931
0.196812,-0.0792996,2.499,2.50799
0.204923,-0.0792996,2.499,2.50864
0.2115,-0.0787284,2.481,2.49124
0.219552,-0.0787284,2.481,2.49194
0.229256,-0.0792996,2.499,2.51075
0.237367,-0.0792996,2.499,2.5115
0.245479,-0.0792996,2.499,2.51228
0.25359,-0.0792996,2.499,2.51309
0.261701,-0.0792996,2.499,2.51392
0.269812,-0.0792996,2.499,2.51477
0.279925,-0.0798707,2.517,2.53378
0.288094,-0.0798707,2.517,2.53469
0.296264,-0.0798707,2.517,2.53563
0.304434,-0.0798707,2.517,2.5366
0.312603,-0.0798707,2.517,2.5376
0.320773,-0.0798707,2.517,2.53861
0.331425,-0.0804737,2.536,2.55883
0.339657,-0.0804737,2.536,2.55991
0.347888,-0.0804737,2.536,2.56101
0.356119,-0.0804737,2.536,2.56215
0.36435,-0.0804737,2.536,2.5633
0.372581,-0.0804737,2.536,2.56449
0.380813,-0.0804737,2.536,2.56569
0.389044,-0.0804737,2.536,2.56693
0.397275,-0.0804737,2.536,2.56819
0.405506,-0.0804737,2.536,2.56948
0.413738,-0.0804737,2.536,2.57079
0.421969,-0.0804737,2.536,2.57213
0.4302,-0.0804737,2.536,2.57349
0.438431,-0.0804737,2.536,2.57488
0.446662,-0.0804737,2.536,2.57629
0.454894,-0.0804737,2.536,2.57773
0.463125,-0.0804737,2.536,2.5792
0.471356,-0.0804737,2.536,2.58069
0.479587,-0.0804737,2.536,2.5822
0.487819,-0.0804737,2.536,2.58375
0.49605,-0.0804737,2.536,2.58531
0.504281,-0.0804737,2.536,2.5869
0.512512,-0.0804737,2.536,2.58852
0.520743,-0.0804737,2.536,2.59016
0.528975,-0.0804737,2.536,2.59183
0.537206,-0.0804737,2.536,2.59352
0.545437,-0.0804737,2.536,2.59524
0.553668,-0.0804737,2.536,2.59698
0.5619,-0.0804737,2.536,2.59875
0.570131,-0.0804737,2.536,2.60054
0.578362,-0.0804737,2.536,2.60236
0.586593,-0.0804737,2.536,2.6042
0.594824,-0.0804737,2.536,2.60607
0.603056,-0.0804737,2.536,2.60796
0.611287,-0.0804737,2.536,2.60987
0.619518,-0.0804737,2.536,2.61181
0.627749,-0.0804737,2.536,2.61378
0.635981,-0.0804737,2.536,2.61577
0.639385,-0.0798707,2.517,2.59817
0.647555,-0.0798707,2.517,2.60019
0.655725,-0.0798707,2.517,2.60224
0.659146,-0.0792996,2.499,2.58568
0.667257,-0.0792996,2.499,2.58776
0.675369,-0.0792996,2.499,2.58987
0.68348,-0.0792996,2.499,2.59199
0.686609,-0.0787284,2.481,2.57546
0.694662,-0.0787284,2.481,2.57762
0.702715,-0.0787284,2.481,2.5798
0.710768,-0.0787284,2.481,2.58201
0.71882,-0.0787284,2.481,2.58423
0.726873,-0.0787284,2.481,2.58648
0.734926,-0.0787284,2.481,2.58876
0.742978,-0.0787284,2.481,2.59106
0.751031,-0.0787284,2.481,2.59338
0.759084,-0.0787284,2.481,2.59572
0.767137,-0.0787284,2.481,2.59809
0.775189,-0.0787284,2.481,2.60048
0.783242,-0.0787284,2.481,2.60289
0.797036,-0.0792996,2.499,2.62422
0.805147,-0.0792996,2.499,2.6267
0.813258,-0.0792996,2.499,2.6292
0.821369,-0.0792996,2.499,2.63172
0.835455,-0.0798707,2.517,2.65323
0.843624,-0.0798707,2.517,2.65582
0.851794,-0.0798707,2.517,2.65842
0.859963,-0.0798707,2.517,2.66105
0.868133,-0.0798707,2.517,2.6637
0.876303,-0.0798707,2.517,2.66638
0.884472,-0.0798707,2.517,2.66907
0.892642,-0.0798707,2.517,2.67179
0.894369,-0.0792996,2.499,2.65541
0.90248,-0.0792996,2.499,2.65815
0.904033,-0.0787284,2.481,2.64175
0.912085,-0.0787284,2.481,2.64452
0.913462,-0.0781572,2.463,2.6281
0.921457,-0.0781572,2.463,2.63089
0.929451,-0.0781572,2.463,2.6337
0.930594,-0.077586,2.445,2.61726
0.93853,-0.077586,2.445,2.62009
0.946466,-0.077586,2.445,2.62295
0.947766,-0.0770466,2.428,2.60756
0.948955,-0.0765071,2.411,2.59216
0.956781,-0.0765071,2.411,2.59503
0.964606,-0.0765071,2.411,2.59793
0.972432,-0.0765071,2.411,2.60085
0.980257,-0.0765071,2.411,2.60378
0.988083,-0.0765071,2.411,2.60674
1.00995,-0.077586,2.445,2.64652
1.02538,-0.0781572,2.463,2.66906
1.04848,-0.0792996,2.499,2.7112
1.05659,-0.0792996,2.499,2.71435
1.08856,-0.0810766,2.555,2.77841
1.13034,-0.0835517,2.633,2.86659
1.13889,-0.0835517,2.633,2.86997
1.17489,-0.0855509,2.696,2.94212
1.22183,-0.0883116,2.783,3.04069
1.26183,-0.0905329,2.853,3.1209
1.27109,-0.0905329,2.853,3.12465
1.30189,-0.092056,2.901,3.18107
1.3226,-0.0928493,2.926,3.21238
1.3321,-0.0928493,2.926,3.2163
1.35306,-0.0936427,2.951,3.24776
1.37464,-0.0944677,2.977,3.28041
1.37222,-0.0936427,2.951,3.25579
1.3818,-0.0936427,2.951,3.25984
1.37959,-0.0928493,2.926,3.23626
1.38908,-0.0928493,2.926,3.24032
1.38663,-0.092056,2.901,3.21668
1.39605,-0.092056,2.901,3.22075
1.41757,-0.0928493,2.926,3.25263
1.42707,-0.0928493,2.926,3.25678
1.44884,-0.0936427,2.951,3.28882
1.45842,-0.0936427,2.951,3.29305
1.468,-0.0936427,2.951,3.2973
1.4906,-0.0944677,2.977,3.33067
1.50026,-0.0944677,2.977,3.335
1.52311,-0.0952927,3.003,3.36852
1.53285,-0.0952927,3.003,3.37294
1.55647,-0.0961495,3.03,3.40775
1.59422,-0.0978631,3.084,3.47306
1.60423,-0.0978631,3.084,3.47767
1.61424,-0.0978631,3.084,3.4823
1.639,-0.0987516,3.112,3.51861
1.6491,-0.0987516,3.112,3.52333
1.67466,-0.0996718,3.141,3.56094
1.71597,-0.101512,3.199,3.63159
1.74308,-0.102496,3.23,3.67175
1.75356,-0.102496,3.23,3.67674
1.78043,-0.103448,3.26,3.71594
1.79101,-0.103448,3.26,3.72102
1.80159,-0.103448,3.26,3.72613
1.81217,-0.103448,3.26,3.73126
1.84065,-0.104463,3.292,3.77308
1.85133,-0.104463,3.292,3.77831
1.86202,-0.104463,3.292,3.78355
1.8727,-0.104463,3.292,3.78882
1.86508,-0.103448,3.26,3.75724
1.87566,-0.103448,3.26,3.7625
1.86888,-0.102496,3.23,3.73311
1.87937,-0.102496,3.23,3.73837
1.87171,-0.101512,3.199,3.70772
1.8821,-0.101512,3.199,3.71298
1.89248,-0.101512,3.199,3.71825
1.88561,-0.100592,3.17,3.68979
1.87856,-0.0996718,3.141,3.66126
1.88875,-0.0996718,3.141,3.6665
1.88142,-0.0987516,3.112,3.63786
1.85809,-0.0970063,3.057,3.57871
1.86801,-0.0970063,3.057,3.58387
1.86134,-0.0961495,3.03,3.55735
1.83845,-0.0944677,2.977,3.50019
1.84811,-0.0944677,2.977,3.50528
1.84155,-0.0936427,2.951,3.47972
1.83545,-0.0928493,2.926,3.45528
1.84494,-0.0928493,2.926,3.46033
1.8386,-0.092056,2.901,3.4358
1.83272,-0.0912945,2.877,3.41238
1.81133,-0.0897713,2.829,3.36039
1.82051,-0.0897713,2.829,3.36535
1.79994,-0.0883116,2.783,3.31552
1.79467,-0.0876135,2.761,3.29418
1.80364,-0.0876135,2.761,3.29908
1.78371,-0.0862172,2.717,3.25133
1.77867,-0.0855509,2.696,3.23101
1.78743,-0.0855509,2.696,3.23583
1.76819,-0.0842181,2.654,3.19019
1.74936,-0.0829171,2.613,3.14562
1.75784,-0.0829171,2.613,3.15034
1.73996,-0.0816795,2.574,3.10799
1.73541,-0.0810766,2.555,3.0897
-1.99587,-0.0819591,2.877,3.50248
-1.96996,-0.0812754,2.853,3.46799
-1.9607,-0.0812754,2.853,3.46274
-1.95144,-0.0812754,2.853,3.4575
-1.92584,-0.0805916,2.829,3.42324
-1.91666,-0.0805916,2.829,3.41809
-1.90748,-0.0805916,2.829,3.41295
-1.88286,-0.0799364,2.806,3.38012
-1.87375,-0.0799364,2.806,3.37505
-1.86465,-0.0799364,2.806,3.37
-1.85554,-0.0799364,2.806,3.36497
-1.86157,-0.0805916,2.829,3.3875
-1.85238,-0.0805916,2.829,3.38246
-1.8432,-0.0805916,2.829,3.37744
-1.83402,-0.0805916,2.829,3.37244
-1.84032,-0.0812754,2.853,3.39602
-1.83106,-0.0812754,2.853,3.39102
-1.8218,-0.0812754,2.853,3.38602
-1.82778,-0.0819591,2.877,3.40949
-1.81845,-0.0819591,2.877,3.4045
-1.8242,-0.0826428,2.901,3.42788
-1.83042,-0.0833549,2.926,3.45237
-1.82093,-0.0833549,2.926,3.44735
-1.81143,-0.0833549,2.926,3.44234
-1.81733,-0.0840671,2.951,3.46672
-1.80775,-0.0840671,2.951,3.46171
-1.79817,-0.0840671,2.951,3.45672
-1.78859,-0.0840671,2.951,3.45174
-1.81036,-0.0855485,3.003,3.50753
-1.80062,-0.0855485,3.003,3.50251
-1.79087,-0.0855485,3.003,3.49751
-1.78112,-0.0855485,3.003,3.49252
-1.77138,-0.0855485,3.003,3.48756
-1.76163,-0.0855485,3.003,3.48262
-1.75188,-0.0855485,3.003,3.4777
-1.7578,-0.0863177,3.03,3.50403
-1.74796,-0.0863177,3.03,3.4991
-1.75362,-0.0870868,3.057,3.52534
nan,nan,nan,NaN
nan,nan,nan,NaN
nan,nan,nan,NaN
nan,nan,nan,NaN
nan,nan,nan,NaN
nan,nan,nan,NaN
nan,nan,nan,NaN
nan,nan,nan,NaN
nan,nan,nan,NaN
nan,nan,nan,NaN
nan,nan,nan,NaN
nan,nan,nan,NaN
nan,nan,nan,NaN
nan,nan,nan,NaN
nan,nan,nan,NaN
nan,nan,nan,NaN
nan,nan,nan,NaN
nan,nan,nan,NaN
nan,nan,nan,NaN
nan,nan,nan,NaN
nan,nan,nan,NaN
nan,nan,nan,NaN
nan,nan,nan,NaN
nan,nan,nan,NaN
-1.23961,-0.0717035,2.517,2.80661
-1.22264,-0.0711907,2.499,2.78297
-1.21453,-0.0711907,2.499,2.77941
-1.19772,-0.0706779,2.481,2.75588
-1.18967,-0.0706779,2.481,2.75239
-1.18162,-0.0706779,2.481,2.74892
-1.16505,-0.0701652,2.463,2.72555
-1.1486,-0.0696524,2.445,2.70225
-1.13274,-0.0691681,2.428,2.68012
-1.12485,-0.0691681,2.428,2.6768
-1.10915,-0.0686838,2.411,2.65478
-1.10133,-0.0686838,2.411,2.65152
-1.0935,-0.0686838,2.411,2.64828
-1.07802,-0.0681995,2.394,2.62641
-1.07025,-0.0681995,2.394,2.62323
-1.06248,-0.0681995,2.394,2.62007
-1.04722,-0.0677152,2.377,2.59834
-1.03951,-0.0677152,2.377,2.59524
-1.03179,-0.0677152,2.377,2.59216
-1.02408,-0.0677152,2.377,2.5891
-1.01636,-0.0677152,2.377,2.58606
-1.00865,-0.0677152,2.377,2.58304
-1.00093,-0.0677152,2.377,2.58003
-0.993215,-0.0677152,2.377,2.57705
-0.9855,-0.0677152,2.377,2.57409
-0.984778,-0.0681995,2.394,2.58953
-0.977007,-0.0681995,2.394,2.58659
-0.969237,-0.0681995,2.394,2.58366
-0.961466,-0.0681995,2.394,2.58076
-0.953696,-0.0681995,2.394,2.57787
-0.945926,-0.0681995,2.394,2.57501
-0.938156,-0.0681995,2.394,2.57216
-0.930385,-0.0681995,2.394,2.56934
-0.922615,-0.0681995,2.394,2.56654
-0.914845,-0.0681995,2.394,2.56375
-0.907074,-0.0681995,2.394,2.56099
-0.899304,-0.0681995,2.394,2.55825
-0.891534,-0.0681995,2.394,2.55553
-0.883763,-0.0681995,2.394,2.55283
-0.875993,-0.0681995,2.394,2.55015
-0.868223,-0.0681995,2.394,2.54749
-0.860452,-0.0681995,2.394,2.54485
-0.852682,-0.0681995,2.394,2.54223
-0.844912,-0.0681995,2.394,2.53964
-0.837141,-0.0681995,2.394,2.53706
-0.829371,-0.0681995,2.394,2.53451
-0.821601,-0.0681995,2.394,2.53198
-0.81383,-0.0681995,2.394,2.52947
-0.80606,-0.0681995,2.394,2.52698
-0.79829,-0.0681995,2.394,2.52451
-0.790519,-0.0681995,2.394,2.52206
-0.782749,-0.0681995,2.394,2.51964
-0.774979,-0.0681995,2.394,2.51724
-0.772656,-0.0686838,2.411,2.53271
-0.764831,-0.0686838,2.411,2.53034
-0.757005,-0.0686838,2.411,2.52798
-0.74918,-0.0686838,2.411,2.52565
-0.741354,-0.0686838,2.411,2.52334
-0.738701,-0.0691681,2.428,2.53883
-0.73082,-0.0691681,2.428,2.53655
-0.722939,-0.0691681,2.428,2.53429
-0.715059,-0.0691681,2.428,2.53205
-0.707178,-0.0691681,2.428,2.52984
-0.699297,-0.0691681,2.428,2.52764
-0.691417,-0.0691681,2.428,2.52548
-0.688322,-0.0696524,2.445,2.541
-0.680386,-0.0696524,2.445,2.53886
-0.67245,-0.0696524,2.445,2.53674
-0.664514,-0.0696524,2.445,2.53465
-0.656578,-0.0696524,2.445,2.53258
-0.653418,-0.0701652,2.463,2.54917
-0.645424,-0.0701652,2.463,2.54713
-0.637429,-0.0701652,2.463,2.54511
-0.629435,-0.0701652,2.463,2.54312
-0.621441,-0.0701652,2.463,2.54116
-0.613446,-0.0701652,2.463,2.53921
-0.605452,-0.0701652,2.463,2.53729
-0.597458,-0.0701652,2.463,2.5354
-0.593771,-0.0706779,2.481,2.55204
-0.585719,-0.0706779,2.481,2.55018
-0.577666,-0.0706779,2.481,2.54834
-0.569613,-0.0706779,2.481,2.54653
-0.561561,-0.0706779,2.481,2.54474
-0.553508,-0.0706779,2.481,2.54298
-0.545455,-0.0706779,2.481,2.54124
-0.537403,-0.0706779,2.481,2.53952
-0.52935,-0.0706779,2.481,2.53783
-0.521297,-0.0706779,2.481,2.53616
-0.513244,-0.0706779,2.481,2.53452
-0.505192,-0.0706779,2.481,2.5329
-0.500746,-0.0711907,2.499,2.54967
-0.492635,-0.0711907,2.499,2.54809
-0.484524,-0.0711907,2.499,2.54653
-0.476412,-0.0711907,2.499,2.545
-0.468301,-0.0711907,2.499,2.5435
-0.46019,-0.0711907,2.499,2.54202
-0.452079,-0.0711907,2.499,2.54056
-0.447166,-0.0717035,2.517,2.55742
-0.438996,-0.0717035,2.517,2.556
-0.430827,-0.0717035,2.517,2.55461
-0.422657,-0.0717035,2.517,2.55325
-0.417616,-0.0722448,2.536,2.57117
-0.409385,-0.0722448,2.536,2.56985
-0.398148,-0.0717035,2.517,2.5493
-0.389979,-0.0717035,2.517,2.54804
-0.381809,-0.0717035,2.517,2.5468
-0.37646,-0.0722448,2.536,2.56481
-0.368229,-0.0722448,2.536,2.56361
-0.359998,-0.0722448,2.536,2.56244
-0.351766,-0.0722448,2.536,2.5613
-0.343535,-0.0722448,2.536,2.56018
-0.335304,-0.0722448,2.536,2.55909
-0.327073,-0.0722448,2.536,2.55802
-0.318842,-0.0722448,2.536,2.55699
-0.31061,-0.0722448,2.536,2.55597
-0.300114,-0.0717035,2.517,2.53584
-0.291944,-0.0717035,2.517,2.53489
-0.283775,-0.0717035,2.517,2.53396
-0.275605,-0.0717035,2.517,2.53306
-0.267435,-0.0717035,2.517,2.53218
-0.259266,-0.0717035,2.517,2.53133
-0.251096,-0.0717035,2.517,2.53051
-0.24119,-0.0711907,2.499,2.51162
-0.233078,-0.0711907,2.499,2.51086
-0.224967,-0.0711907,2.499,2.51012
-0.216856,-0.0711907,2.499,2.5094
-0.208745,-0.0711907,2.499,2.50871
-0.200634,-0.0711907,2.499,2.50805
-0.192523,-0.0711907,2.499,2.50742
-0.184412,-0.0711907,2.499,2.50681
-0.1763,-0.0711907,2.499,2.50622
-0.169401,-0.0717035,2.517,2.52371
-0.161231,-0.0717035,2.517,2.52318
-0.153062,-0.0717035,2.517,2.52267
-0.144892,-0.0717035,2.517,2.52219
-0.136723,-0.0717035,2.517,2.52173
-0.128553,-0.0717035,2.517,2.5213
-0.120383,-0.0717035,2.517,2.5209
-0.112214,-0.0717035,2.517,2.52052
-0.104044,-0.0717035,2.517,2.52017
-0.0958747,-0.0717035,2.517,2.51985
-0.0877052,-0.0717035,2.517,2.51955
-0.0795356,-0.0717035,2.517,2.51928
-0.0713661,-0.0717035,2.517,2.51903
-0.0631965,-0.0717035,2.517,2.51881
-0.055027,-0.0717035,2.517,2.51862
-0.0468574,-0.0717035,2.517,2.51846
-0.0386878,-0.0717035,2.517,2.51832
-0.0305183,-0.0717035,2.517,2.51821
-0.0223487,-0.0717035,2.517,2.51812
-0.0141792,-0.0717035,2.517,2.51806
-0.00600962,-0.0717035,2.517,2.51803
0.00214449,-0.0711907,2.499,2.50001
0.0102556,-0.0711907,2.499,2.50003
0.0183668,-0.0711907,2.499,2.50008
0.0264779,-0.0711907,2.499,2.50015
0.034589,-0.0711907,2.499,2.50025
0.0427002,-0.0711907,2.499,2.50038
0.0504453,-0.0706779,2.481,2.48252
0.058498,-0.0706779,2.481,2.4827
0.0665507,-0.0706779,2.481,2.4829
0.0746034,-0.0706779,2.481,2.48313
0.0826561,-0.0706779,2.481,2.48338
0.0907089,-0.0706779,2.481,2.48366
0.0987616,-0.0706779,2.481,2.48397
0.106814,-0.0706779,2.481,2.4843
0.114867,-0.0706779,2.481,2.48466
0.12292,-0.0706779,2.481,2.48505
0.130972,-0.0706779,2.481,2.48546
0.139025,-0.0706779,2.481,2.4859
0.147078,-0.0706779,2.481,2.48636
0.155131,-0.0706779,2.481,2.48685
0.163183,-0.0706779,2.481,2.48737
0.171236,-0.0706779,2.481,2.48791
0.179289,-0.0706779,2.481,2.48847
0.187341,-0.0706779,2.481,2.48907
0.195394,-0.0706779,2.481,2.48969
0.203447,-0.0706779,2.481,2.49033
0.2115,-0.0706779,2.481,2.491
0.219552,-0.0706779,2.481,2.4917
0.229256,-0.0711907,2.499,2.5105
0.237367,-0.0711907,2.499,2.51126
0.245479,-0.0711907,2.499,2.51204
0.25359,-0.0711907,2.499,2.51284
0.261701,-0.0711907,2.499,2.51367
0.269812,-0.0711907,2.499,2.51453
0.277923,-0.0711907,2.499,2.51541
0.286034,-0.0711907,2.499,2.51632
0.296264,-0.0717035,2.517,2.53539
0.304434,-0.0717035,2.517,2.53636
0.312603,-0.0717035,2.517,2.53735
0.320773,-0.0717035,2.517,2.53837
0.328942,-0.0717035,2.517,2.53942
0.339657,-0.0722448,2.536,2.55966
0.347888,-0.0722448,2.536,2.56077
0.356119,-0.0722448,2.536,2.5619
0.36435,-0.0722448,2.536,2.56306
0.372581,-0.0722448,2.536,2.56424
0.380813,-0.0722448,2.536,2.56545
0.389044,-0.0722448,2.536,2.56668
0.397275,-0.0722448,2.536,2.56795
0.405506,-0.0722448,2.536,2.56923
0.413738,-0.0722448,2.536,2.57054
0.421969,-0.0722448,2.536,2.57188
0.4302,-0.0722448,2.536,2.57324
0.438431,-0.0722448,2.536,2.57463
0.446662,-0.0722448,2.536,2.57605
0.454894,-0.0722448,2.536,2.57749
0.463125,-0.0722448,2.536,2.57895
0.471356,-0.0722448,2.536,2.58044
0.479587,-0.0722448,2.536,2.58196
0.487819,-0.0722448,2.536,2.5835
0.49605,-0.0722448,2.536,2.58507
0.504281,-0.0722448,2.536,2.58666
0.512512,-0.0722448,2.536,2.58828
0.520743,-0.0722448,2.536,2.58992
0.528975,-0.0722448,2.536,2.59159
0.537206,-0.0722448,2.536,2.59328
0.545437,-0.0722448,2.536,2.595
0.553668,-0.0722448,2.536,2.59674
0.5619,-0.0722448,2.536,2.59851
0.570131,-0.0722448,2.536,2.6003
0.578362,-0.0722448,2.536,2.60212
0.586593,-0.0722448,2.536,2.60396
0.594824,-0.0722448,2.536,2.60583
0.603056,-0.0722448,2.536,2.60772
0.611287,-0.0722448,2.536,2.60963
0.619518,-0.0722448,2.536,2.61157
0.623046,-0.0717035,2.517,2.59396
0.631216,-0.0717035,2.517,2.59593
0.639385,-0.0717035,2.517,2.59793
0.642924,-0.0711907,2.499,2.58136
0.651035,-0.0711907,2.499,2.58339
0.659146,-0.0711907,2.499,2.58545
0.667257,-0.0711907,2.499,2.58753
0.675369,-0.0711907,2.499,2.58963
0.68348,-0.0711907,2.499,2.59176
0.686609,-0.0706779,2.481,2.57523
0.694662,-0.0706779,2.481,2.57738
0.702715,-0.0706779,2.481,2.57957
0.710768,-0.0706779,2.481,2.58177
0.71882,-0.0706779,2.481,2.584
0.726873,-0.0706779,2.481,2.58625
0.734926,-0.0706779,2.481,2.58853
0.742978,-0.0706779,2.481,2.59083
0.751031,-0.0706779,2.481,2.59315
0.759084,-0.0706779,2.481,2.59549
0.767137,-0.0706779,2.481,2.59786
0.775189,-0.0706779,2.481,2.60025
0.783242,-0.0706779,2.481,2.60266
0.797036,-0.0711907,2.499,2.62399
0.805147,-0.0711907,2.499,2.62647
0.813258,-0.0711907,2.499,2.62897
0.821369,-0.0711907,2.499,2.63149
0.835455,-0.0717035,2.517,2.653
0.843624,-0.0717035,2.517,2.65559
0.851794,-0.0717035,2.517,2.65819
0.859963,-0.0717035,2.517,2.66082
0.868133,-0.0717035,2.517,2.66347
0.876303,-0.0717035,2.517,2.66615
0.878147,-0.0711907,2.499,2.64976
0.886258,-0.0711907,2.499,2.65246
0.894369,-0.0711907,2.499,2.65518
0.89598,-0.0706779,2.481,2.63878
0.904033,-0.0706779,2.481,2.64152
0.912085,-0.0706779,2.481,2.64429
0.913462,-0.0701652,2.463,2.62787
0.921457,-0.0701652,2.463,2.63066
0.929451,-0.0701652,2.463,2.63347
0.930594,-0.0696524,2.445,2.61704
0.93853,-0.0696524,2.445,2.61987
0.946466,-0.0696524,2.445,2.62272
0.947766,-0.0691681,2.428,2.60734
0.955646,-0.0691681,2.428,2.61022
0.963527,-0.0691681,2.428,2.61311
0.964606,-0.0686838,2.411,2.59771
0.972432,-0.0686838,2.411,2.60063
0.980257,-0.0686838,2.411,2.60356
0.988083,-0.0686838,2.411,2.60652
1.00293,-0.0691681,2.428,2.6279
1.02538,-0.0701652,2.463,2.66884
1.04848,-0.0711907,2.499,2.71097
1.05659,-0.0711907,2.499,2.71412
1.08856,-0.072786,2.555,2.77818
1.12175,-0.0744383,2.613,2.84458
1.13024,-0.0744383,2.613,2.84794
1.16574,-0.0762045,2.675,2.91897
1.20252,-0.0780278,2.739,2.99237
1.24104,-0.0799364,2.806,3.06924
1.25015,-0.0799364,2.806,3.07293
1.30189,-0.0826428,2.901,3.18081
1.3226,-0.0833549,2.926,3.21212
1.3321,-0.0833549,2.926,3.21604
1.35306,-0.0840671,2.951,3.2475
1.37464,-0.0848078,2.977,3.28015
1.37222,-0.0840671,2.951,3.25553
1.3818,-0.0840671,2.951,3.25957
1.37959,-0.0833549,2.926,3.236
1.38908,-0.0833549,2.926,3.24006
1.38663,-0.0826428,2.901,3.21642
1.39605,-0.0826428,2.901,3.22049
1.41757,-0.0833549,2.926,3.25237
1.42707,-0.0833549,2.926,3.25653
1.44884,-0.0840671,2.951,3.28856
1.45842,-0.0840671,2.951,3.29279
1.468,-0.0840671,2.951,3.29704
1.4906,-0.0848078,2.977,3.33041
1.50026,-0.0848078,2.977,3.33474
1.52311,-0.0855485,3.003,3.36826
1.53285,-0.0855485,3.003,3.37268
1.55647,-0.0863177,3.03,3.40749
1.59422,-0.087856,3.084,3.4728
1.60423,-0.087856,3.084,3.4774
1.61424,-0.087856,3.084,3.48203
1.639,-0.0886537,3.112,3.51834
1.6491,-0.0886537,3.112,3.52306
1.67466,-0.0894798,3.141,3.56067
1.71597,-0.0911321,3.199,3.63131
1.74308,-0.0920152,3.23,3.67147
1.75356,-0.0920152,3.23,3.67646
1.78043,-0.0928698,3.26,3.71566
1.79101,-0.0928698,3.26,3.72075
1.80159,-0.0928698,3.26,3.72585
1.81217,-0.0928698,3.26,3.73098
1.84065,-0.0937814,3.292,3.7728
1.85133,-0.0937814,3.292,3.77803
1.86202,-0.0937814,3.292,3.78327
1.8727,-0.0937814,3.292,3.78855
1.86508,-0.0928698,3.26,3.75696
1.87566,-0.0928698,3.26,3.76222
1.86888,-0.0920152,3.23,3.73284
1.87937,-0.0920152,3.23,3.7381
1.87171,-0.0911321,3.199,3.70745
1.8821,-0.0911321,3.199,3.71271
1.89248,-0.0911321,3.199,3.71798
1.88561,-0.0903059,3.17,3.68952
1.87856,-0.0894798,3.141,3.66099
1.88875,-0.0894798,3.141,3.66623
1.88142,-0.0886537,3.112,3.6376
1.85809,-0.0870868,3.057,3.57845
1.86801,-0.0870868,3.057,3.58361
1.86134,-0.0863177,3.03,3.5571
1.83845,-0.0848078,2.977,3.49995
1.84811,-0.0848078,2.977,3.50503
1.84155,-0.0840671,2.951,3.47948
1.83545,-0.0833549,2.926,3.45504
1.84494,-0.0833549,2.926,3.46009
1.8386,-0.0826428,2.901,3.43556
1.83272,-0.0819591,2.877,3.41214
1.7966,-0.0799364,2.806,3.33284
1.80571,-0.0799364,2.806,3.33776
1.79994,-0.0792812,2.783,3.31529
1.78037,-0.0780278,2.739,3.26771
1.78926,-0.0780278,2.739,3.27256
1.76992,-0.0768028,2.696,3.22598
1.76482,-0.0762045,2.675,3.20562
1.7735,-0.0762045,2.675,3.21041
1.7542,-0.0750081,2.633,3.16473
1.73597,-0.0738686,2.593,3.12133
1.74439,-0.0738686,2.593,3.12602
1.72711,-0.072786,2.555,3.08484
1.7225,-0.0722448,2.536,3.06652
-1.96257,-0.071412,2.829,3.44384
-1.93751,-0.0708314,2.806,3.41066
-1.9284,-0.0708314,2.806,3.40549
-1.91929,-0.0708314,2.806,3.40034
-1.89453,-0.0702508,2.783,3.36738
-1.88549,-0.0702508,2.783,3.36231
-1.87646,-0.0702508,2.783,3.35725
-1.86743,-0.0702508,2.783,3.35221
-1.85839,-0.0702508,2.783,3.34719
-1.84936,-0.0702508,2.783,3.34218
-1.84033,-0.0702508,2.783,3.33719
-1.84643,-0.0708314,2.806,3.35976
-1.83732,-0.0708314,2.806,3.35476
-1.82822,-0.0708314,2.806,3.34978
-1.81911,-0.0708314,2.806,3.34482
-1.82484,-0.071412,2.829,3.36725
-1.81565,-0.071412,2.829,3.36228
-1.80647,-0.071412,2.829,3.35733
-1.81254,-0.0720178,2.853,3.38084
-1.80328,-0.0720178,2.853,3.37589
-1.80911,-0.0726237,2.877,3.39931
-1.81478,-0.0732295,2.901,3.42266
-1.82093,-0.0738606,2.926,3.44713
-1.81143,-0.0738606,2.926,3.44212
-1.81733,-0.0744916,2.951,3.4665
-1.80775,-0.0744916,2.951,3.46149
-1.79817,-0.0744916,2.951,3.4565
-1.80435,-0.0751479,2.977,3.48193
-1.81036,-0.0758043,3.003,3.5073
-1.80062,-0.0758043,3.003,3.50228
-1.79087,-0.0758043,3.003,3.49728
-1.79714,-0.0764858,3.03,3.5237
-1.7873,-0.0764858,3.03,3.51869
-1.77747,-0.0764858,3.03,3.51371
-1.76763,-0.0764858,3.03,3.50874
-1.77346,-0.0771674,3.057,3.53502
-1.76354,-0.0771674,3.057,3.53005
-1.75362,-0.0771674,3.057,3.52511
-1.74369,-0.0771674,3.057,3.52018
-1.73377,-0.0771674,3.057,3.51528
nan,nan,nan,NaN
nan,nan,nan,NaN
nan,nan,nan,NaN
nan,nan,nan,NaN
nan,nan,nan,NaN
nan,nan,nan,NaN
nan,nan,nan,NaN
nan,nan,nan,NaN
nan,nan,nan,NaN
nan,nan,nan,NaN
nan,nan,nan,NaN
nan,nan,nan,NaN
nan,nan,nan,NaN
nan,nan,nan,NaN
-1.40866,-0.0685848,2.717,3.06123
-1.39984,-0.0685848,2.717,3.05718
-1.39102,-0.0685848,2.717,3.05315
nan,nan,nan,NaN
nan,nan,nan,NaN
nan,nan,nan,NaN
-1.28439,-0.0649751,2.574,2.87739
-1.27604,-0.0649751,2.574,2.87367
-1.23961,-0.0635362,2.517,2.80642
-1.22264,-0.0630819,2.499,2.78277
-1.21453,-0.0630819,2.499,2.77922
-1.19772,-0.0626275,2.481,2.75569
-1.18967,-0.0626275,2.481,2.7522
-1.18162,-0.0626275,2.481,2.74873
-1.16505,-0.0621731,2.463,2.72536
-1.1486,-0.0617188,2.445,2.70206
-1.13274,-0.0612896,2.428,2.67993
-1.12485,-0.0612896,2.428,2.67661
-1.11697,-0.0612896,2.428,2.67331
-1.10133,-0.0608605,2.411,2.65133
-1.0935,-0.0608605,2.411,2.64809
-1.07802,-0.0604314,2.394,2.62622
-1.07025,-0.0604314,2.394,2.62304
-1.06248,-0.0604314,2.394,2.61988
-1.04722,-0.0600022,2.377,2.59815
-1.03951,-0.0600022,2.377,2.59505
-1.03179,-0.0600022,2.377,2.59197
-1.02408,-0.0600022,2.377,2.58891
-1.01636,-0.0600022,2.377,2.58587
-1.00865,-0.0600022,2.377,2.58285
-1.00093,-0.0600022,2.377,2.57984
-0.993215,-0.0600022,2.377,2.57686
-0.9855,-0.0600022,2.377,2.5739
-0.977785,-0.0600022,2.377,2.57095
-0.970069,-0.0600022,2.377,2.56803
-0.969237,-0.0604314,2.394,2.58347
-0.961466,-0.0604314,2.394,2.58056
-0.953696,-0.0604314,2.394,2.57768
-0.945926,-0.0604314,2.394,2.57481
-0.938156,-0.0604314,2.394,2.57197
-0.930385,-0.0604314,2.394,2.56914
