-1.10924,0.694111,2.345,2.68537
-1.10162,0.694111,2.345,2.68224
-1.09401,0.694111,2.345,2.67912
-1.07899,0.689375,2.329,2.65776
-1.07143,0.689375,2.329,2.6547
-1.05656,0.684639,2.313,2.63344
-1.04905,0.684639,2.313,2.63044
-1.02759,0.675463,2.282,2.59224
-1.02018,0.675463,2.282,2.58931
-1.00612,0.671023,2.267,2.5694
-0.99215,0.666583,2.252,2.54955
-0.984841,0.666583,2.252,2.54671
-0.97102,0.662143,2.237,2.52695
-0.96376,0.662143,2.237,2.52417
-0.956499,0.662143,2.237,2.52141
-0.949238,0.662143,2.237,2.51866
-0.941977,0.662143,2.237,2.51593
-0.934717,0.662143,2.237,2.51322
-0.921651,0.657999,2.223,2.49482
-0.914436,0.657999,2.223,2.49216
-0.912934,0.662143,2.237,2.5052
-0.905674,0.662143,2.237,2.50257
-0.898413,0.662143,2.237,2.49995
-0.897128,0.666583,2.252,2.5141
-0.895745,0.671023,2.267,2.52822
-0.888387,0.671023,2.267,2.52563
-0.886858,0.675463,2.282,2.53974
-0.885618,0.680199,2.298,2.55495
-0.883891,0.684639,2.313,2.56904
-0.876384,0.684639,2.313,2.56647
-0.874887,0.689375,2.329,2.58165
-0.879244,0.698846,2.361,2.61453
-0.871581,0.698846,2.361,2.61196
-0.863918,0.698846,2.361,2.60942
-0.856255,0.698846,2.361,2.60689
-0.848591,0.698846,2.361,2.60438
-0.846627,0.703582,2.377,2.61953
-0.838912,0.703582,2.377,2.61705
-0.831197,0.703582,2.377,2.61458
-0.817938,0.698846,2.361,2.59456
-0.804784,0.694111,2.345,2.57459
-0.797173,0.694111,2.345,2.57222
-0.789562,0.694111,2.345,2.56987
-0.776615,0.689375,2.329,2.55002
-0.769056,0.689375,2.329,2.54773
-0.761496,0.689375,2.329,2.54546
-0.748757,0.684639,2.313,2.52574
-0.74125,0.684639,2.313,2.52352
-0.728984,0.680199,2.298,2.50497
-0.716502,0.675463,2.282,2.48539
-0.709095,0.675463,2.282,2.48326
-0.701688,0.675463,2.282,2.48116
-0.689718,0.671023,2.267,2.46278
-0.68236,0.671023,2.267,2.46073
-0.675002,0.671023,2.267,2.4587
-0.663226,0.666583,2.252,2.44043
-0.655916,0.666583,2.252,2.43846
-0.648607,0.666583,2.252,2.4365
-0.641298,0.666583,2.252,2.43456
-0.633988,0.666583,2.252,2.43265
-0.626679,0.666583,2.252,2.43075
-0.619369,0.666583,2.252,2.42888
-0.61206,0.666583,2.252,2.42703
-0.60475,0.666583,2.252,2.42519
-0.597441,0.666583,2.252,2.42338
-0.590132,0.666583,2.252,2.42159
-0.582822,0.666583,2.252,2.41982
-0.575513,0.666583,2.252,2.41807
-0.568203,0.666583,2.252,2.41634
-0.560894,0.666583,2.252,2.41463
-0.553584,0.666583,2.252,2.41294
-0.546275,0.666583,2.252,2.41128
-0.538965,0.666583,2.252,2.40963
-0.531656,0.666583,2.252,2.40801
-0.524347,0.666583,2.252,2.4064
-0.517037,0.666583,2.252,2.40482
-0.509728,0.666583,2.252,2.40326
-0.502418,0.666583,2.252,2.40172
-0.495109,0.666583,2.252,2.4002
-0.48455,0.662143,2.237,2.38273
-0.47729,0.662143,2.237,2.38126
-0.470029,0.662143,2.237,2.37982
-0.459872,0.657999,2.223,2.36351
-0.452657,0.657999,2.223,2.36212
-0.445441,0.657999,2.223,2.36074
-0.435466,0.653855,2.209,2.34453
-0.428296,0.653855,2.209,2.34321
-0.421126,0.653855,2.209,2.34191
-0.413957,0.653855,2.209,2.34063
-0.406787,0.653855,2.209,2.33938
-0.399617,0.653855,2.209,2.33814
-0.392447,0.653855,2.209,2.33693
-0.382661,0.649415,2.194,2.31987
-0.37554,0.649415,2.194,2.31871
-0.368419,0.649415,2.194,2.31757
-0.361297,0.649415,2.194,2.31644
-0.354176,0.649415,2.194,2.31534
-0.347055,0.649415,2.194,2.31427
-0.339934,0.649415,2.194,2.31321
-0.332813,0.649415,2.194,2.31217
-0.325691,0.649415,2.194,2.31116
-0.31857,0.649415,2.194,2.31017
-0.311449,0.649415,2.194,2.30919
-0.304328,0.649415,2.194,2.30824
-0.297207,0.649415,2.194,2.30732
-0.288235,0.645271,2.18,2.29169
-0.281159,0.645271,2.18,2.29081
-0.274083,0.645271,2.18,2.28996
-0.265415,0.641423,2.167,2.27547
-0.258382,0.641423,2.167,2.27466
-0.251348,0.641423,2.167,2.27387
-0.242736,0.637279,2.153,2.25842
-0.234324,0.633431,2.14,2.24405
-0.227379,0.633431,2.14,2.24333
-0.220433,0.633431,2.14,2.24264
-0.21209,0.629287,2.126,2.2273
-0.20519,0.629287,2.126,2.22665
-0.198289,0.629287,2.126,2.22603
-0.192649,0.633431,2.14,2.24008
-0.185703,0.633431,2.14,2.23949
-0.178757,0.633431,2.14,2.23893
-0.171811,0.633431,2.14,2.23838
-0.165867,0.637279,2.153,2.25145
-0.158879,0.637279,2.153,2.25095
-0.151891,0.637279,2.153,2.25047
-0.145845,0.641423,2.167,2.26464
-0.139644,0.645271,2.18,2.27778
-0.132568,0.645271,2.18,2.27736
-0.126298,0.649415,2.194,2.29158
-0.119177,0.649415,2.194,2.2912
-0.112056,0.649415,2.194,2.29084
-0.105652,0.653855,2.209,2.30616
-0.0984825,0.653855,2.209,2.30584
-0.0913126,0.653855,2.209,2.30555
-0.084676,0.657999,2.223,2.31988
-0.0774607,0.657999,2.223,2.31963
-0.0702454,0.657999,2.223,2.3194
-0.0630301,0.657999,2.223,2.31919
-0.0561663,0.662143,2.237,2.33361
-0.0489056,0.662143,2.237,2.33345
-0.0416448,0.662143,2.237,2.33331
-0.0343841,0.662143,2.237,2.33319
-0.0271233,0.662143,2.237,2.3331
-0.0198626,0.662143,2.237,2.33302
-0.0126018,0.662143,2.237,2.33297
-0.0053769,0.666583,2.252,2.34859
0.00191966,0.662143,2.237,2.33294
0.00912295,0.657999,2.223,2.31836
0.0163383,0.657999,2.223,2.3184
0.0235536,0.657999,2.223,2.31846
0.0303675,0.649415,2.194,2.2883
0.0372494,0.645271,2.18,2.2738
0.0443252,0.645271,2.18,2.27393
0.0514009,0.645271,2.18,2.27408
0.0581279,0.641423,2.167,2.26068
0.0651615,0.641423,2.167,2.26088
0.0717286,0.637279,2.153,2.24648
0.0782414,0.633431,2.14,2.23315
0.0851873,0.633431,2.14,2.2334
0.0921332,0.633431,2.14,2.23368
0.098431,0.629287,2.126,2.21936
0.105331,0.629287,2.126,2.21968
0.112232,0.629287,2.126,2.22002
0.119132,0.629287,2.126,2.22038
0.126033,0.629287,2.126,2.22076
0.134622,0.637279,2.153,2.24937
0.14161,0.637279,2.153,2.2498
0.147701,0.633431,2.14,2.23666
0.154646,0.633431,2.14,2.23713
0.161592,0.633431,2.14,2.23762
0.168538,0.633431,2.14,2.23813
0.175484,0.633431,2.14,2.23867
0.18243,0.633431,2.14,2.23922
0.189376,0.633431,2.14,2.2398
0.196322,0.633431,2.14,2.2404
0.203268,0.633431,2.14,2.24102
0.210214,0.633431,2.14,2.24166
0.21716,0.633431,2.14,2.24232
0.224105,0.633431,2.14,2.243
0.231051,0.633431,2.14,2.24371
0.239443,0.637279,2.153,2.25807
0.246431,0.637279,2.153,2.25882
0.253419,0.637279,2.153,2.25959
0.260407,0.637279,2.153,2.26039
0.269134,0.641423,2.167,2.27591
0.276168,0.641423,2.167,2.27675
0.283201,0.641423,2.167,2.27761
0.290235,0.641423,2.167,2.2785
0.297268,0.641423,2.167,2.2794
0.304302,0.641423,2.167,2.28033
0.311336,0.641423,2.167,2.28128
0.320279,0.645271,2.18,2.29594
0.327355,0.645271,2.18,2.29694
0.33443,0.645271,2.18,2.29796
0.343699,0.649415,2.194,2.31376
0.348582,0.645271,2.18,2.30006
0.355658,0.645271,2.18,2.30114
0.365063,0.649415,2.194,2.31703
0.372184,0.649415,2.194,2.31817
0.379305,0.649415,2.194,2.31932
0.386426,0.649415,2.194,2.3205
0.396238,0.653855,2.209,2.33757
0.403408,0.653855,2.209,2.33879
0.410578,0.653855,2.209,2.34004
0.417748,0.653855,2.209,2.34131
0.422032,0.649415,2.194,2.32669
0.429154,0.649415,2.194,2.32799
0.436275,0.649415,2.194,2.32932
0.443396,0.649415,2.194,2.33066
0.447642,0.645271,2.18,2.31714
0.454718,0.645271,2.18,2.31852
0.461794,0.645271,2.18,2.31992
0.466074,0.641423,2.167,2.3075
0.473107,0.641423,2.167,2.30893
0.480141,0.641423,2.167,2.31038
0.484027,0.637279,2.153,2.29691
0.491015,0.637279,2.153,2.2984
0.501241,0.641423,2.167,2.31486
0.508275,0.641423,2.167,2.31639
0.515308,0.641423,2.167,2.31794
0.522342,0.641423,2.167,2.31952
0.529375,0.641423,2.167,2.32111
0.539627,0.645271,2.18,2.33666
0.546703,0.645271,2.18,2.3383
0.553778,0.645271,2.18,2.33997
0.560854,0.645271,2.18,2.34165
0.571577,0.649415,2.194,2.35841
0.578698,0.649415,2.194,2.36014
0.582081,0.645271,2.18,2.34683
0.589157,0.645271,2.18,2.34859
0.596233,0.645271,2.18,2.35038
0.603309,0.645271,2.18,2.35218
0.610384,0.645271,2.18,2.35401
0.61746,0.645271,2.18,2.35585
0.624536,0.645271,2.18,2.35772
0.631612,0.645271,2.18,2.3596
0.634879,0.641423,2.167,2.34742
0.641912,0.641423,2.167,2.34933
0.648946,0.641423,2.167,2.35126
0.655979,0.641423,2.167,2.35322
0.663013,0.641423,2.167,2.35519
0.665717,0.637279,2.153,2.34195
0.668644,0.633431,2.14,2.32979
0.67559,0.633431,2.14,2.33179
0.682535,0.633431,2.14,2.33381
0.680782,0.62544,2.113,2.30638
0.687641,0.62544,2.113,2.30842
0.694499,0.62544,2.113,2.31047
0.701357,0.62544,2.113,2.31254
0.708215,0.62544,2.113,2.31463
0.719473,0.629287,2.126,2.33099
0.726374,0.629287,2.126,2.33313
0.733274,0.629287,2.126,2.33529
0.745049,0.633431,2.14,2.35286
0.751995,0.633431,2.14,2.35507
0.75894,0.633431,2.14,2.35729
0.770539,0.637279,2.153,2.37387
0.777527,0.637279,2.153,2.37615
0.784515,0.637279,2.153,2.37844
0.791503,0.637279,2.153,2.38076
0.798491,0.637279,2.153,2.38309
0.800616,0.633431,2.14,2.37104
0.807562,0.633431,2.14,2.37339
0.814508,0.633431,2.14,2.37576
0.81608,0.629287,2.126,2.3626
0.82298,0.629287,2.126,2.36499
0.829881,0.629287,2.126,2.3674
0.831664,0.62544,2.113,2.35534
0.828205,0.617744,2.087,2.32875
0.834979,0.617744,2.087,2.33117
0.836913,0.614192,2.075,2.32019
0.838362,0.610344,2.062,2.30808
0.845055,0.610344,2.062,2.31052
0.851747,0.610344,2.062,2.31297
0.85844,0.610344,2.062,2.31544
0.870587,0.614192,2.075,2.33255
0.877322,0.614192,2.075,2.33507
0.884057,0.614192,2.075,2.33761
0.895944,0.617744,2.087,2.3537
0.902717,0.617744,2.087,2.35628
0.909491,0.617744,2.087,2.35889
0.921973,0.621592,2.1,2.37622
0.934538,0.62544,2.113,2.3936
0.941397,0.62544,2.113,2.39628
0.960372,0.633431,2.14,2.42964
0.967318,0.633431,2.14,2.43239
0.974264,0.633431,2.14,2.43516
0.98717,0.637279,2.153,2.45276
0.994158,0.637279,2.153,2.45558
1.00115,0.637279,2.153,2.45842
1.00813,0.637279,2.153,2.46127
1.02172,0.641423,2.167,2.48017
1.02876,0.641423,2.167,2.48307
1.03579,0.641423,2.167,2.486
1.04908,0.645271,2.18,2.50387
1.05616,0.645271,2.18,2.50684
1.06323,0.645271,2.18,2.50983
1.07031,0.645271,2.18,2.51283
1.07738,0.645271,2.18,2.51586
1.08446,0.645271,2.18,2.51889
1.08503,0.641423,2.167,2.50691
1.09206,0.641423,2.167,2.50996
1.09909,0.641423,2.167,2.51303
1.09898,0.637279,2.153,2.49986
1.10597,0.637279,2.153,2.50294
1.11296,0.637279,2.153,2.50603
1.11318,0.633431,2.14,2.49399
1.12013,0.633431,2.14,2.4971
1.13392,0.637279,2.153,2.51541
1.14091,0.637279,2.153,2.51857
1.1479,0.637279,2.153,2.52175
1.16239,0.641423,2.167,2.54135
1.16187,0.637279,2.153,2.52814
1.16886,0.637279,2.153,2.53136
1.1835,0.641423,2.167,2.55107
1.19053,0.641423,2.167,2.55434
1.19756,0.641423,2.167,2.55763
1.21182,0.645271,2.18,2.57629
1.2189,0.645271,2.18,2.57963
1.22597,0.645271,2.18,2.58298
1.23305,0.645271,2.18,2.58635
1.24013,0.645271,2.18,2.58973
1.23175,0.637279,2.153,2.56101
1.23874,0.637279,2.153,2.56437
1.24573,0.637279,2.153,2.56776
1.24515,0.633431,2.14,2.55563
1.2363,0.62544,2.113,2.52673
1.24316,0.62544,2.113,2.5301
1.24233,0.621592,2.1,2.51789
1.23427,0.614192,2.075,2.49124
1.24101,0.614192,2.075,2.49459
1.25496,0.617744,2.087,2.51239
1.25448,0.614192,2.075,2.50131
1.26121,0.614192,2.075,2.5047
1.26795,0.614192,2.075,2.5081
1.2667,0.610344,2.062,2.49577
1.27339,0.610344,2.062,2.49918
1.28008,0.610344,2.062,2.50259
1.28678,0.610344,2.062,2.50602
1.29347,0.610344,2.062,2.50947
1.30016,0.610344,2.062,2.51292
1.30685,0.610344,2.062,2.51639
1.32183,0.614192,2.075,2.53576
1.32856,0.614192,2.075,2.53928
1.3353,0.614192,2.075,2.54281
1.3582,0.621592,2.1,2.57703
1.37347,0.62544,2.113,2.59661
1.38882,0.629287,2.126,2.61624
1.39572,0.629287,2.126,2.61991
1.41186,0.633431,2.14,2.64087
1.42742,0.637279,2.153,2.66065
1.43441,0.637279,2.153,2.66441
1.45077,0.641423,2.167,2.68553
1.4578,0.641423,2.167,2.68933
1.46484,0.641423,2.167,2.69315
1.4807,0.645271,2.18,2.71316
-1.69618,0.731644,2.445,3.06437
-1.68824,0.731644,2.445,3.05998
-1.6803,0.731644,2.445,3.05561
-1.67237,0.731644,2.445,3.05125
-1.66443,0.731644,2.445,3.04691
-1.6565,0.731644,2.445,3.04258
-1.64856,0.731644,2.445,3.03827
-1.64063,0.731644,2.445,3.03397
-1.63269,0.731644,2.445,3.02969
-1.62475,0.731644,2.445,3.02542
-1.61682,0.731644,2.445,3.02116
-1.5977,0.726557,2.428,2.99595
-1.58981,0.726557,2.428,2.99175
-1.58193,0.726557,2.428,2.98757
-1.57405,0.726557,2.428,2.98341
-1.57714,0.731644,2.445,3.00012
-1.5692,0.731644,2.445,2.99595
-1.56127,0.731644,2.445,2.9918
-1.55333,0.731644,2.445,2.98767
-1.5454,0.731644,2.445,2.98355
-1.53746,0.731644,2.445,2.97945
-1.52952,0.731644,2.445,2.97536
-1.52159,0.731644,2.445,2.97129
-1.51365,0.731644,2.445,2.96723
-1.50572,0.731644,2.445,2.96319
-1.49778,0.731644,2.445,2.95917
-1.47949,0.726557,2.428,2.93461
-1.4716,0.726557,2.428,2.93065
-1.46372,0.726557,2.428,2.9267
-1.44565,0.72147,2.411,2.9023
-1.43782,0.72147,2.411,2.89841
-1.41992,0.716383,2.394,2.87413
-1.40212,0.711295,2.377,2.84991
-1.3944,0.711295,2.377,2.84613
-1.37735,0.706508,2.361,2.82322
-1.36041,0.70172,2.345,2.80038
-1.3528,0.70172,2.345,2.79669
-1.33601,0.696932,2.329,2.77396
-1.32845,0.696932,2.329,2.77033
-1.31181,0.692144,2.313,2.74771
-1.30431,0.692144,2.313,2.74413
-1.28839,0.687655,2.298,2.7228
-1.28093,0.687655,2.298,2.71928
-1.27347,0.687655,2.298,2.71577
-1.26601,0.687655,2.298,2.71228
-1.25855,0.687655,2.298,2.70881
-1.2511,0.687655,2.298,2.70535
-1.24364,0.687655,2.298,2.70191
-1.23618,0.687655,2.298,2.69848
-1.22872,0.687655,2.298,2.69507
-1.22126,0.687655,2.298,2.69168
-1.2138,0.687655,2.298,2.68831
-1.20634,0.687655,2.298,2.68495
-1.20671,0.692144,2.313,2.69911
-1.1992,0.692144,2.313,2.69576
-1.1917,0.692144,2.313,2.69243
-1.18419,0.692144,2.313,2.68911
-1.17668,0.692144,2.313,2.68582
-1.16917,0.692144,2.313,2.68254
-1.16167,0.692144,2.313,2.67927
-1.15416,0.692144,2.313,2.67603
-1.14665,0.692144,2.313,2.6728
-1.13914,0.692144,2.313,2.66958
-1.13946,0.696932,2.329,2.68483
-1.1319,0.696932,2.329,2.68163
-1.12435,0.696932,2.329,2.67845
-1.11679,0.696932,2.329,2.67529
-1.10161,0.692144,2.313,2.65378
-1.0941,0.692144,2.313,2.65068
-1.08659,0.692144,2.313,2.64759
-1.07908,0.692144,2.313,2.64451
-1.07158,0.692144,2.313,2.64146
-1.06407,0.692144,2.313,2.63842
-1.04971,0.687655,2.298,2.61831
-1.03499,0.682868,2.282,2.59712
-1.02083,0.678379,2.267,2.57713
-1.01348,0.678379,2.267,2.57422
-0.99946,0.67389,2.252,2.55432
-0.979374,0.665212,2.223,2.51861
-0.972159,0.665212,2.223,2.51582
-0.964943,0.665212,2.223,2.51304
-0.957728,0.665212,2.223,2.51027
-0.950513,0.665212,2.223,2.50753
-0.937357,0.661023,2.209,2.48903
-0.930187,0.661023,2.209,2.48634
-0.923017,0.661023,2.209,2.48367
-0.915847,0.661023,2.209,2.48101
-0.908677,0.661023,2.209,2.47837
-0.901507,0.661023,2.209,2.47575
-0.900006,0.665212,2.223,2.48882
-0.89279,0.665212,2.223,2.48622
-0.891152,0.669402,2.237,2.49928
-0.883891,0.669402,2.237,2.4967
-0.876631,0.669402,2.237,2.49414
-0.875199,0.67389,2.252,2.50831
-0.873671,0.678379,2.267,2.52246
-0.866313,0.678379,2.267,2.51992
-0.864638,0.682868,2.282,2.53405
-0.863242,0.687655,2.298,2.54929
-0.861369,0.692144,2.313,2.56339
-0.853861,0.692144,2.313,2.56088
-0.846354,0.692144,2.313,2.55839
-0.844649,0.696932,2.329,2.57359
-0.83709,0.696932,2.329,2.57112
-0.829531,0.696932,2.329,2.56867
-0.821971,0.696932,2.329,2.56624
-0.814412,0.696932,2.329,2.56383
-0.812395,0.70172,2.345,2.57904
-0.799293,0.696932,2.329,2.55907
-0.791734,0.696932,2.329,2.55672
-0.778787,0.692144,2.313,2.53684
-0.766278,0.687655,2.298,2.51811
-0.758819,0.687655,2.298,2.51585
-0.75136,0.687655,2.298,2.51361
-0.743902,0.687655,2.298,2.51139
-0.736443,0.687655,2.298,2.50919
-0.71915,0.678379,2.267,2.47319
-0.711792,0.678379,2.267,2.47106
-0.704434,0.678379,2.267,2.46895
-0.692464,0.67389,2.252,2.45054
-0.680591,0.669402,2.237,2.43217
-0.67333,0.669402,2.237,2.43015
-0.666069,0.669402,2.237,2.42815
-0.654685,0.665212,2.223,2.41098
-0.64747,0.665212,2.223,2.40904
-0.640255,0.665212,2.223,2.40711
-0.633039,0.665212,2.223,2.4052
-0.625824,0.665212,2.223,2.40331
-0.618609,0.665212,2.223,2.40144
-0.607543,0.661023,2.209,2.38448
-0.600373,0.661023,2.209,2.38266
-0.593203,0.661023,2.209,2.38087
-0.586033,0.661023,2.209,2.37909
-0.578864,0.661023,2.209,2.37733
-0.571694,0.661023,2.209,2.3756
-0.564524,0.661023,2.209,2.37388
-0.557354,0.661023,2.209,2.37219
-0.550184,0.661023,2.209,2.37051
-0.546456,0.665212,2.223,2.38387
-0.53924,0.665212,2.223,2.38223
-0.532025,0.665212,2.223,2.38061
-0.52481,0.665212,2.223,2.379
-0.517594,0.665212,2.223,2.37742
-0.510379,0.665212,2.223,2.37586
-0.499995,0.661023,2.209,2.35937
-0.492825,0.661023,2.209,2.35786
-0.485655,0.661023,2.209,2.35637
-0.478485,0.661023,2.209,2.35491
-0.471316,0.661023,2.209,2.35346
-0.464146,0.661023,2.209,2.35203
-0.453873,0.656534,2.194,2.33467
-0.446752,0.656534,2.194,2.33329
-0.43963,0.656534,2.194,2.33194
-0.429749,0.652345,2.18,2.31574
-0.422674,0.652345,2.18,2.31443
-0.415598,0.652345,2.18,2.31315
-0.406086,0.648455,2.167,2.29811
-0.399052,0.648455,2.167,2.29687
-0.392019,0.648455,2.167,2.29566
-0.384985,0.648455,2.167,2.29447
-0.377952,0.648455,2.167,2.2933
-0.370918,0.648455,2.167,2.29215
-0.363885,0.648455,2.167,2.29102
-0.356851,0.648455,2.167,2.28992
-0.349818,0.648455,2.167,2.28883
-0.342784,0.648455,2.167,2.28777
-0.335751,0.648455,2.167,2.28673
-0.328717,0.648455,2.167,2.2857
-0.321683,0.648455,2.167,2.2847
-0.31465,0.648455,2.167,2.28372
-0.307616,0.648455,2.167,2.28276
-0.300583,0.648455,2.167,2.28183
-0.291653,0.644265,2.153,2.26617
-0.284665,0.644265,2.153,2.26529
-0.277677,0.644265,2.153,2.26442
-0.270688,0.644265,2.153,2.26357
-0.262108,0.640375,2.14,2.24908
-0.255162,0.640375,2.14,2.24829
-0.246592,0.636186,2.126,2.2328
-0.238226,0.632296,2.113,2.2184
-0.231368,0.632296,2.113,2.21768
-0.223128,0.628406,2.1,2.20333
-0.216312,0.628406,2.1,2.20265
-0.21209,0.636186,2.126,2.22926
-0.20519,0.636186,2.126,2.22861
-0.198289,0.636186,2.126,2.22799
-0.192649,0.640375,2.14,2.24205
-0.185703,0.640375,2.14,2.24147
-0.178757,0.640375,2.14,2.2409
-0.171811,0.640375,2.14,2.24036
-0.165867,0.644265,2.153,2.25344
-0.158879,0.644265,2.153,2.25294
-0.151891,0.644265,2.153,2.25246
-0.145845,0.648455,2.167,2.26664
-0.139644,0.652345,2.18,2.27979
-0.132568,0.652345,2.18,2.27937
-0.126298,0.656534,2.194,2.29361
-0.119177,0.656534,2.194,2.29322
-0.112056,0.656534,2.194,2.29287
-0.105652,0.661023,2.209,2.3082
-0.0984825,0.661023,2.209,2.30788
-0.0913126,0.661023,2.209,2.30759
-0.084676,0.665212,2.223,2.32194
-0.0774607,0.665212,2.223,2.32169
-0.0702454,0.665212,2.223,2.32146
-0.0630301,0.665212,2.223,2.32125
-0.0561663,0.669402,2.237,2.33568
-0.0489056,0.669402,2.237,2.33552
-0.0416448,0.669402,2.237,2.33538
-0.0343841,0.669402,2.237,2.33526
-0.0271233,0.669402,2.237,2.33517
-0.0198626,0.669402,2.237,2.33509
-0.0126018,0.669402,2.237,2.33504
-0.0053769,0.67389,2.252,2.35067
0.00191966,0.669402,2.237,2.33501
0.00912295,0.665212,2.223,2.32041
0.0163383,0.665212,2.223,2.32045
0.0235536,0.665212,2.223,2.32052
0.0303675,0.656534,2.194,2.29033
0.0372494,0.652345,2.18,2.27582
0.0443252,0.652345,2.18,2.27594
0.0514009,0.652345,2.18,2.27609
0.0581279,0.648455,2.167,2.26269
0.0651615,0.648455,2.167,2.26288
0.0717286,0.644265,2.153,2.24847
0.0782414,0.640375,2.14,2.23513
0.0851873,0.640375,2.14,2.23538
0.0921332,0.640375,2.14,2.23566
0.098431,0.636186,2.126,2.22133
0.105331,0.636186,2.126,2.22164
0.112232,0.636186,2.126,2.22198
0.119132,0.636186,2.126,2.22234
0.126033,0.636186,2.126,2.22272
0.132933,0.636186,2.126,2.22312
0.139834,0.636186,2.126,2.22355
0.14494,0.628406,2.1,2.19679
0.151756,0.628406,2.1,2.19725
0.158572,0.628406,2.1,2.19774
0.165388,0.628406,2.1,2.19824
0.172204,0.628406,2.1,2.19876
0.17902,0.628406,2.1,2.19931
0.185836,0.628406,2.1,2.19987
0.192652,0.628406,2.1,2.20046
0.200703,0.632296,2.113,2.21469
0.207561,0.632296,2.113,2.21532
0.213101,0.628406,2.1,2.20234
0.219917,0.628406,2.1,2.20301
0.226733,0.628406,2.1,2.2037
0.234995,0.632296,2.113,2.21806
0.241853,0.632296,2.113,2.2188
0.248711,0.632296,2.113,2.21956
0.255569,0.632296,2.113,2.22033
0.262428,0.632296,2.113,2.22113
0.269286,0.632296,2.113,2.22195
0.276144,0.632296,2.113,2.2228
0.283002,0.632296,2.113,2.22366
0.291644,0.636186,2.126,2.23823
0.298545,0.636186,2.126,2.23914
0.305445,0.636186,2.126,2.24007
0.312345,0.636186,2.126,2.24102
0.319246,0.636186,2.126,2.24199
0.328294,0.640375,2.14,2.25776
0.337277,0.644265,2.153,2.2725
0.344265,0.644265,2.153,2.27354
0.351253,0.644265,2.153,2.27461
0.358241,0.644265,2.153,2.2757
0.367604,0.648455,2.167,2.29162
0.374637,0.648455,2.167,2.29276
0.381671,0.648455,2.167,2.29392
0.388705,0.648455,2.167,2.2951
0.395738,0.648455,2.167,2.2963
0.402772,0.648455,2.167,2.29752
0.409805,0.648455,2.167,2.29877
0.414146,0.644265,2.153,2.28517
0.421134,0.644265,2.153,2.28645
0.428122,0.644265,2.153,2.28774
0.43511,0.644265,2.153,2.28906
0.442098,0.644265,2.153,2.2904
0.446375,0.640375,2.14,2.27792
0.453321,0.640375,2.14,2.27929
0.460266,0.640375,2.14,2.28069
0.464156,0.636186,2.126,2.26717
0.471056,0.636186,2.126,2.26859
0.477957,0.636186,2.126,2.27003
0.484857,0.636186,2.126,2.2715
0.491758,0.636186,2.126,2.27298
0.498658,0.636186,2.126,2.27448
0.505559,0.636186,2.126,2.27601
0.512459,0.636186,2.126,2.27755
0.51936,0.636186,2.126,2.27911
0.52626,0.636186,2.126,2.28069
0.53316,0.636186,2.126,2.28229
0.540061,0.636186,2.126,2.28392
0.546961,0.636186,2.126,2.28556
0.557509,0.640375,2.14,2.30228
0.564455,0.640375,2.14,2.30397
0.571401,0.640375,2.14,2.30568
0.574563,0.636186,2.126,2.29232
0.581464,0.636186,2.126,2.29406
0.588364,0.636186,2.126,2.29582
0.595265,0.636186,2.126,2.2976
0.60613,0.640375,2.14,2.31454
0.609066,0.636186,2.126,2.30121
0.615966,0.636186,2.126,2.30305
0.622867,0.636186,2.126,2.3049
0.629767,0.636186,2.126,2.30678
0.636667,0.636186,2.126,2.30867
0.639633,0.632296,2.113,2.29645
0.646491,0.632296,2.113,2.29837
0.653349,0.632296,2.113,2.30031
0.660208,0.632296,2.113,2.30227
0.667066,0.632296,2.113,2.30424
0.669778,0.628406,2.1,2.29205
0.672405,0.624516,2.087,2.27985
0.679179,0.624516,2.087,2.28186
0.685953,0.624516,2.087,2.28388
0.692727,0.624516,2.087,2.28593
0.699501,0.624516,2.087,2.28799
0.706275,0.624516,2.087,2.29007
0.71749,0.628406,2.1,2.30644
0.72879,0.632296,2.113,2.32287
0.735649,0.632296,2.113,2.32503
0.742507,0.632296,2.113,2.32721
0.749365,0.632296,2.113,2.3294
0.760876,0.636186,2.126,2.34596
0.767776,0.636186,2.126,2.34821
0.774677,0.636186,2.126,2.35048
0.781577,0.636186,2.126,2.35276
0.788478,0.636186,2.126,2.35506
0.790515,0.632296,2.113,2.34296
0.797373,0.632296,2.113,2.34529
0.799283,0.628406,2.1,2.33318
0.801109,0.624516,2.087,2.32107
0.803238,0.620925,2.075,2.31006
0.809973,0.620925,2.075,2.31241
0.811591,0.617035,2.062,2.30027
0.813522,0.613444,2.05,2.28924
0.820175,0.613444,2.05,2.29162
0.821989,0.609853,2.038,2.28058
0.823725,0.606262,2.026,2.26953
0.830301,0.606262,2.026,2.27192
0.836877,0.606262,2.026,2.27433
0.843453,0.606262,2.026,2.27676
0.850029,0.606262,2.026,2.27921
0.856605,0.606262,2.026,2.28167
0.863181,0.606262,2.026,2.28414
0.869756,0.606262,2.026,2.28664
0.881523,0.609853,2.038,2.3027
0.888138,0.609853,2.038,2.30524
0.921973,0.628406,2.1,2.37801
0.934538,0.632296,2.113,2.3954
0.941397,0.632296,2.113,2.39808
0.960372,0.640375,2.14,2.43146
0.967318,0.640375,2.14,2.43421
0.974264,0.640375,2.14,2.43698
0.98717,0.644265,2.153,2.45459
0.994158,0.644265,2.153,2.4574
1.00115,0.644265,2.153,2.46024
1.00813,0.644265,2.153,2.46309
1.02172,0.648455,2.167,2.482
1.02876,0.648455,2.167,2.4849
1.03579,0.648455,2.167,2.48782
1.04908,0.652345,2.18,2.5057
1.05616,0.652345,2.18,2.50867
1.06323,0.652345,2.18,2.51166
1.07031,0.652345,2.18,2.51466
1.07738,0.652345,2.18,2.51768
1.08446,0.652345,2.18,2.52072
1.08503,0.648455,2.167,2.50872
1.09206,0.648455,2.167,2.51177
1.09909,0.648455,2.167,2.51483
1.09898,0.644265,2.153,2.50165
1.10597,0.644265,2.153,2.50473
1.11296,0.644265,2.153,2.50782
1.11318,0.640375,2.14,2.49577
1.12013,0.640375,2.14,2.49887
1.13392,0.644265,2.153,2.51719
1.14091,0.644265,2.153,2.52035
1.1479,0.644265,2.153,2.52352
1.16239,0.648455,2.167,2.54314
1.16187,0.644265,2.153,2.52991
1.16886,0.644265,2.153,2.53313
1.1835,0.648455,2.167,2.55285
1.19053,0.648455,2.167,2.55612
1.19756,0.648455,2.167,2.5594
1.21182,0.652345,2.18,2.57807
1.2189,0.652345,2.18,2.58141
1.22597,0.652345,2.18,2.58476
1.23305,0.652345,2.18,2.58812
1.24013,0.652345,2.18,2.5915
1.23175,0.644265,2.153,2.56275
1.23874,0.644265,2.153,2.56612
1.24573,0.644265,2.153,2.5695
1.24515,0.640375,2.14,2.55736
1.2363,0.632296,2.113,2.52844
1.24316,0.632296,2.113,2.5318
1.24233,0.628406,2.1,2.51958
1.23427,0.620925,2.075,2.49291
1.24101,0.620925,2.075,2.49625
1.23271,0.613444,2.05,2.46949
1.23936,0.613444,2.05,2.47282
1.23143,0.606262,2.026,2.44717
1.23801,0.606262,2.026,2.45049
1.24458,0.606262,2.026,2.45382
1.25116,0.606262,2.026,2.45716
1.25773,0.606262,2.026,2.46051
1.26431,0.606262,2.026,2.46388
1.27089,0.606262,2.026,2.46726
1.27746,0.606262,2.026,2.47066
1.28404,0.606262,2.026,2.47406
1.29826,0.609853,2.038,2.49216
1.30487,0.609853,2.038,2.49561
1.31149,0.609853,2.038,2.49907
1.33362,0.617035,2.062,2.53202
1.34032,0.617035,2.062,2.53555
1.36334,0.624516,2.087,2.56988
1.37012,0.624516,2.087,2.57348
1.38547,0.628406,2.1,2.59315
1.4009,0.632296,2.113,2.61287
1.40776,0.632296,2.113,2.61655
1.42332,0.636186,2.126,2.63637
1.43964,0.640375,2.14,2.65749
1.44659,0.640375,2.14,2.66126
1.46236,0.644265,2.153,2.68123
-1.69618,0.739577,2.445,3.06627
-1.68824,0.739577,2.445,3.06189
-1.6803,0.739577,2.445,3.05752
-1.67237,0.739577,2.445,3.05317
-1.66443,0.739577,2.445,3.04883
-1.6565,0.739577,2.445,3.0445
-1.64856,0.739577,2.445,3.04019
-1.64063,0.739577,2.445,3.03589
-1.63269,0.739577,2.445,3.03161
-1.62475,0.739577,2.445,3.02735
-1.61682,0.739577,2.445,3.02309
-1.5977,0.734435,2.428,2.99787
-1.58981,0.734435,2.428,2.99368
-1.58193,0.734435,2.428,2.9895
-1.57405,0.734435,2.428,2.98533
-1.57714,0.739577,2.445,3.00206
-1.5692,0.739577,2.445,2.9979
-1.56127,0.739577,2.445,2.99375
-1.54253,0.734435,2.428,2.96883
-1.53465,0.734435,2.428,2.96475
-1.52677,0.734435,2.428,2.96068
-1.51889,0.734435,2.428,2.95662
-1.51101,0.734435,2.428,2.95258
-1.50313,0.734435,2.428,2.94855
-1.49525,0.734435,2.428,2.94454
-1.48737,0.734435,2.428,2.94055
-1.47949,0.734435,2.428,2.93657
-1.4716,0.734435,2.428,2.93261
-1.45348,0.729293,2.411,2.90816
-1.43546,0.724151,2.394,2.88378
-1.42769,0.724151,2.394,2.87992
-1.40983,0.719008,2.377,2.85565
-1.39268,0.714169,2.361,2.83265
-1.38502,0.714169,2.361,2.82889
-1.36802,0.709329,2.345,2.806
-1.35113,0.704489,2.329,2.78318
-1.34357,0.704489,2.329,2.77952
-1.32683,0.699649,2.313,2.7568
-1.31077,0.695112,2.298,2.73534
-1.30331,0.695112,2.298,2.73178
-1.29585,0.695112,2.298,2.72822
-1.27942,0.690272,2.282,2.70572
-1.27201,0.690272,2.282,2.70222
-1.26461,0.690272,2.282,2.69875
-1.2572,0.690272,2.282,2.69528
-1.24158,0.685735,2.267,2.67414
-1.23422,0.685735,2.267,2.67073
-1.22686,0.685735,2.267,2.66734
-1.2195,0.685735,2.267,2.66396
-1.21214,0.685735,2.267,2.6606
-1.20479,0.685735,2.267,2.65726
-1.20535,0.690272,2.282,2.67149
-1.19794,0.690272,2.282,2.66816
-1.19888,0.695112,2.298,2.68353
-1.19143,0.695112,2.298,2.6802
-1.18397,0.695112,2.298,2.67689
-1.17651,0.695112,2.298,2.6736
-1.16905,0.695112,2.298,2.67033
-1.16159,0.695112,2.298,2.66707
-1.15413,0.695112,2.298,2.66383
-1.14667,0.695112,2.298,2.66061
-1.13921,0.695112,2.298,2.6574
-1.13176,0.695112,2.298,2.65421
-1.1243,0.695112,2.298,2.65104
-1.11684,0.695112,2.298,2.64789
-1.10938,0.695112,2.298,2.64475
-1.10192,0.695112,2.298,2.64163
-1.09446,0.695112,2.298,2.63853
-1.07944,0.690272,2.282,2.61709
-1.07203,0.690272,2.282,2.61405
-1.06462,0.690272,2.282,2.61102
-1.05027,0.685735,2.267,2.59086
-1.04291,0.685735,2.267,2.58789
-1.03555,0.685735,2.267,2.58493
-1.02139,0.681198,2.252,2.56491
-1.00732,0.67666,2.237,2.54494
-1.00006,0.67666,2.237,2.54208
-0.986589,0.672426,2.223,2.52334
-0.973206,0.668191,2.209,2.50465
-0.966036,0.668191,2.209,2.50188
-0.958866,0.668191,2.209,2.49912
-0.945234,0.663653,2.194,2.47942
-0.938113,0.663653,2.194,2.47672
-0.930992,0.663653,2.194,2.47403
-0.923871,0.663653,2.194,2.47136
-0.916749,0.663653,2.194,2.4687
-0.909628,0.663653,2.194,2.46607
-0.902507,0.663653,2.194,2.46345
-0.895386,0.663653,2.194,2.46085
-0.888265,0.663653,2.194,2.45827
-0.881144,0.663653,2.194,2.4557
-0.874022,0.663653,2.194,2.45316
-0.866901,0.663653,2.194,2.45063
-0.85978,0.663653,2.194,2.44812
-0.863929,0.672426,2.223,2.47795
-0.856714,0.672426,2.223,2.47545
-0.849498,0.672426,2.223,2.47296
-0.847588,0.67666,2.237,2.48605
-0.845962,0.681198,2.252,2.50024
-0.849824,0.690272,2.282,2.53105
-0.842418,0.690272,2.282,2.52857
-0.835011,0.690272,2.282,2.52611
-0.833407,0.695112,2.298,2.54137
-0.825948,0.695112,2.298,2.53893
-0.818489,0.695112,2.298,2.53652
-0.81103,0.695112,2.298,2.53412
-0.803572,0.695112,2.298,2.53174
-0.796113,0.695112,2.298,2.52938
-0.788654,0.695112,2.298,2.52705
-0.781195,0.695112,2.298,2.52473
-0.76835,0.690272,2.282,2.50487
-0.755941,0.685735,2.267,2.48616
-0.748583,0.685735,2.267,2.48393
-0.73632,0.681198,2.252,2.4653
-0.729011,0.681198,2.252,2.46313
-0.721701,0.681198,2.252,2.46097
-0.709634,0.67666,2.237,2.44246
-0.702373,0.67666,2.237,2.44036
-0.695112,0.67666,2.237,2.43828
-0.679242,0.668191,2.209,2.40573
-0.667508,0.663653,2.194,2.38739
-0.660387,0.663653,2.194,2.38541
-0.653266,0.663653,2.194,2.38345
-0.646145,0.663653,2.194,2.38151
-0.639023,0.663653,2.194,2.37958
-0.631902,0.663653,2.194,2.37768
-0.620794,0.659419,2.18,2.36064
-0.613719,0.659419,2.18,2.35879
-0.606643,0.659419,2.18,2.35696
-0.599567,0.659419,2.18,2.35515
-0.592491,0.659419,2.18,2.35335
-0.585416,0.659419,2.18,2.35158
-0.57834,0.659419,2.18,2.34983
-0.578864,0.668191,2.209,2.37934
-0.571694,0.668191,2.209,2.3776
-0.564524,0.668191,2.209,2.37589
-0.557354,0.668191,2.209,2.3742
-0.550184,0.668191,2.209,2.37252
-0.546456,0.672426,2.223,2.3859
-0.53924,0.672426,2.223,2.38425
-0.532025,0.672426,2.223,2.38263
-0.52481,0.672426,2.223,2.38103
-0.517594,0.672426,2.223,2.37945
-0.510379,0.672426,2.223,2.37789
-0.499995,0.668191,2.209,2.36139
-0.492825,0.668191,2.209,2.35988
-0.485655,0.668191,2.209,2.35839
-0.478485,0.668191,2.209,2.35693
-0.471316,0.668191,2.209,2.35548
-0.464146,0.668191,2.209,2.35406
-0.453873,0.663653,2.194,2.33668
-0.446752,0.663653,2.194,2.33531
-0.43963,0.663653,2.194,2.33396
-0.429749,0.659419,2.18,2.31774
-0.422674,0.659419,2.18,2.31644
-0.415598,0.659419,2.18,2.31516
-0.406086,0.655486,2.167,2.3001
-0.399052,0.655486,2.167,2.29887
-0.392019,0.655486,2.167,2.29766
-0.384985,0.655486,2.167,2.29647
-0.377952,0.655486,2.167,2.2953
-0.370918,0.655486,2.167,2.29415
-0.363885,0.655486,2.167,2.29303
-0.356851,0.655486,2.167,2.29192
-0.349818,0.655486,2.167,2.29083
-0.342784,0.655486,2.167,2.28977
-0.335751,0.655486,2.167,2.28873
-0.328717,0.655486,2.167,2.28771
-0.321683,0.655486,2.167,2.28671
-0.31465,0.655486,2.167,2.28573
-0.307616,0.655486,2.167,2.28477
-0.300583,0.655486,2.167,2.28383
-0.291653,0.651252,2.153,2.26817
-0.284665,0.651252,2.153,2.26728
-0.277677,0.651252,2.153,2.26642
-0.270688,0.651252,2.153,2.26557
-0.262108,0.647319,2.14,2.25107
-0.255162,0.647319,2.14,2.25027
-0.246592,0.643084,2.126,2.23478
-0.238226,0.639152,2.113,2.22037
-0.231368,0.639152,2.113,2.21964
-0.223128,0.63522,2.1,2.20529
-0.216312,0.63522,2.1,2.20461
-0.209496,0.63522,2.1,2.20395
-0.20268,0.63522,2.1,2.20331
-0.195864,0.63522,2.1,2.2027
-0.189048,0.63522,2.1,2.2021
-0.182232,0.63522,2.1,2.20153
-0.175416,0.63522,2.1,2.20097
-0.1686,0.63522,2.1,2.20044
-0.162785,0.639152,2.113,2.21355
-0.155927,0.639152,2.113,2.21305
-0.149069,0.639152,2.113,2.21258
-0.143085,0.643084,2.126,2.22574
-0.137082,0.647319,2.14,2.23996
-0.130136,0.647319,2.14,2.23954
-0.12319,0.647319,2.14,2.23915
-0.11695,0.651252,2.153,2.25238
-0.109962,0.651252,2.153,2.25203
-0.103644,0.655486,2.167,2.26634
-0.09661,0.655486,2.167,2.26603
-0.0895765,0.655486,2.167,2.26574
-0.0830381,0.659419,2.18,2.27906
-0.0759624,0.659419,2.18,2.27882
-0.0688866,0.659419,2.18,2.27859
-0.0618109,0.659419,2.18,2.27839
-0.0547352,0.659419,2.18,2.27821
-0.0476594,0.659419,2.18,2.27805
-0.0405837,0.659419,2.18,2.27791
-0.0335079,0.659419,2.18,2.2778
-0.0264322,0.659419,2.18,2.2777
-0.0193565,0.659419,2.18,2.27763
-0.0122807,0.659419,2.18,2.27758
-0.00520499,0.659419,2.18,2.27756
0.00185959,0.655486,2.167,2.26397
0.00883568,0.651252,2.153,2.24936
0.0158238,0.651252,2.153,2.2494
0.0228119,0.651252,2.153,2.24946
0.0296201,0.647319,2.14,2.23596
0.0363267,0.643084,2.126,2.22143
0.0432272,0.643084,2.126,2.22155
0.0498212,0.639152,2.113,2.20811
0.0566794,0.639152,2.113,2.20828
0.0635377,0.639152,2.113,2.20847
0.0699629,0.63522,2.1,2.19509
0.0763037,0.631288,2.087,2.18172
0.0830775,0.631288,2.087,2.18197
0.0898514,0.631288,2.087,2.18224
0.0966253,0.631288,2.087,2.18253
0.103399,0.631288,2.087,2.18284
0.110173,0.631288,2.087,2.18317
0.116275,0.627658,2.075,2.17097
0.123009,0.627658,2.075,2.17134
0.129744,0.627658,2.075,2.17173
0.136479,0.627658,2.075,2.17214
0.143214,0.627658,2.075,2.17258
0.149949,0.627658,2.075,2.17303
0.156684,0.627658,2.075,2.17351
0.163419,0.627658,2.075,2.174
0.170154,0.627658,2.075,2.17452
0.176889,0.627658,2.075,2.17506
0.183624,0.627658,2.075,2.17561
0.190359,0.627658,2.075,2.17619
0.197094,0.627658,2.075,2.17679
0.203829,0.627658,2.075,2.17741
0.210564,0.627658,2.075,2.17805
0.217299,0.627658,2.075,2.17871
0.22263,0.623725,2.062,2.16574
0.229323,0.623725,2.062,2.16644
0.237503,0.627658,2.075,2.18082
0.244238,0.627658,2.075,2.18157
0.250973,0.627658,2.075,2.18233
0.257708,0.627658,2.075,2.18312
0.264443,0.627658,2.075,2.18392
0.271178,0.627658,2.075,2.18475
0.277913,0.627658,2.075,2.18559
0.284648,0.627658,2.075,2.18646
0.291383,0.627658,2.075,2.18735
0.299842,0.631288,2.087,2.20091
0.306616,0.631288,2.087,2.20184
0.31339,0.631288,2.087,2.2028
0.322158,0.63522,2.1,2.2175
0.328974,0.63522,2.1,2.2185
0.33579,0.63522,2.1,2.21952
0.344727,0.639152,2.113,2.23431
0.351585,0.639152,2.113,2.23537
0.358443,0.639152,2.113,2.23646
0.367549,0.643084,2.126,2.25134
0.37445,0.643084,2.126,2.25248
0.38135,0.643084,2.126,2.25363
0.388251,0.643084,2.126,2.25481
0.395151,0.643084,2.126,2.25601
0.402052,0.643084,2.126,2.25723
0.408952,0.643084,2.126,2.25847
0.41331,0.639152,2.113,2.24591
0.420168,0.639152,2.113,2.24718
0.427026,0.639152,2.113,2.24847
0.433884,0.639152,2.113,2.24979
0.440743,0.639152,2.113,2.25112
0.444847,0.63522,2.1,2.23861
0.448867,0.631288,2.087,2.22611
0.455641,0.631288,2.087,2.22749
0.462415,0.631288,2.087,2.22888
0.466491,0.627658,2.075,2.21747
0.473226,0.627658,2.075,2.2189
0.479961,0.627658,2.075,2.22035
0.486696,0.627658,2.075,2.22181
0.493431,0.627658,2.075,2.2233
0.500166,0.627658,2.075,2.2248
0.506901,0.627658,2.075,2.22633
0.513636,0.627658,2.075,2.22787
0.520371,0.627658,2.075,2.22943
0.527106,0.627658,2.075,2.23101
0.53384,0.627658,2.075,2.23261
0.540575,0.627658,2.075,2.23423
0.54731,0.627658,2.075,2.23587
0.554045,0.627658,2.075,2.23753
0.574563,0.643084,2.126,2.29424
0.581464,0.643084,2.126,2.29598
0.588364,0.643084,2.126,2.29774
0.595265,0.643084,2.126,2.29952
0.60613,0.647319,2.14,2.31647
0.609066,0.643084,2.126,2.30313
0.615966,0.643084,2.126,2.30496
0.622867,0.643084,2.126,2.30682
0.629767,0.643084,2.126,2.30869
0.636667,0.643084,2.126,2.31058
0.639633,0.639152,2.113,2.29835
0.646491,0.639152,2.113,2.30027
0.653349,0.639152,2.113,2.30221
0.660208,0.639152,2.113,2.30416
0.667066,0.639152,2.113,2.30614
0.669778,0.63522,2.1,2.29393
0.672405,0.631288,2.087,2.28171
0.679179,0.631288,2.087,2.28372
0.685953,0.631288,2.087,2.28574
0.692727,0.631288,2.087,2.28779
0.699501,0.631288,2.087,2.28985
0.706275,0.631288,2.087,2.29192
0.71749,0.63522,2.1,2.30831
0.72879,0.639152,2.113,2.32474
0.735649,0.639152,2.113,2.3269
0.742507,0.639152,2.113,2.32908
0.749365,0.639152,2.113,2.33127
0.760876,0.643084,2.126,2.34784
0.767776,0.643084,2.126,2.35009
0.774677,0.643084,2.126,2.35235
0.781577,0.643084,2.126,2.35463
0.788478,0.643084,2.126,2.35693
0.790515,0.639152,2.113,2.34482
0.797373,0.639152,2.113,2.34714
0.799283,0.63522,2.1,2.33503
0.801109,0.631288,2.087,2.3229
0.803238,0.627658,2.075,2.31188
0.809973,0.627658,2.075,2.31422
0.811591,0.623725,2.062,2.30208
0.813522,0.620096,2.05,2.29103
0.820175,0.620096,2.05,2.29341
0.821989,0.616466,2.038,2.28235
0.823725,0.612836,2.026,2.27129
0.830301,0.612836,2.026,2.27368
0.836877,0.612836,2.026,2.27609
0.843453,0.612836,2.026,2.27852
0.850029,0.612836,2.026,2.28096
0.856605,0.612836,2.026,2.28342
0.863181,0.612836,2.026,2.2859
0.869756,0.612836,2.026,2.28839
0.881523,0.616466,2.038,2.30446
0.888138,0.616466,2.038,2.307
0.900021,0.620096,2.05,2.32316
0.911982,0.623725,2.062,2.33936
0.918675,0.623725,2.062,2.34197
0.931202,0.627658,2.075,2.35939
0.943361,0.631288,2.087,2.37572
0.950135,0.631288,2.087,2.37841
0.962869,0.63522,2.1,2.39596
0.969685,0.63522,2.1,2.39871
0.976501,0.63522,2.1,2.40147
0.983317,0.63522,2.1,2.40425
0.996263,0.639152,2.113,2.42195
1.00312,0.639152,2.113,2.42478
1.00998,0.639152,2.113,2.42762
1.02309,0.643084,2.126,2.44544
1.02999,0.643084,2.126,2.44833
1.03055,0.639152,2.113,2.43625
1.03741,0.639152,2.113,2.43916
1.04427,0.639152,2.113,2.44209
1.05113,0.639152,2.113,2.44503
1.05799,0.639152,2.113,2.44798
1.06485,0.639152,2.113,2.45096
1.0717,0.639152,2.113,2.45394
1.07193,0.63522,2.1,2.44183
1.07874,0.63522,2.1,2.44483
1.08556,0.63522,2.1,2.44784
1.09237,0.63522,2.1,2.45087
1.09919,0.63522,2.1,2.45392
1.10601,0.63522,2.1,2.45698
1.11282,0.63522,2.1,2.46006
1.12657,0.639152,2.113,2.4784
1.13343,0.639152,2.113,2.48152
1.14029,0.639152,2.113,2.48466
1.14714,0.639152,2.113,2.48782
1.1611,0.643084,2.126,2.50631
1.168,0.643084,2.126,2.50952
1.18264,0.647319,2.14,2.52928
1.18959,0.647319,2.14,2.53254
1.2038,0.651252,2.153,2.55121
1.21079,0.651252,2.153,2.55452
1.21042,0.647319,2.14,2.54239
1.21737,0.647319,2.14,2.5457
1.21631,0.643084,2.126,2.53236
1.22321,0.643084,2.126,2.53568
1.23011,0.643084,2.126,2.53902
1.22944,0.639152,2.113,2.52682
1.22109,0.631288,2.087,2.49903
1.22786,0.631288,2.087,2.50235
1.22754,0.627658,2.075,2.49127
1.22654,0.623725,2.062,2.47897
1.23323,0.623725,2.062,2.48229
1.22549,0.616466,2.038,2.45669
1.22485,0.612836,2.026,2.44551
1.22414,0.609206,2.014,2.4343
1.23067,0.609206,2.014,2.4376
1.22984,0.605576,2.002,2.42636
1.22893,0.601946,1.99,2.4151
1.23539,0.601946,1.99,2.41839
1.24184,0.601946,1.99,2.4217
1.2483,0.601946,1.99,2.42502
1.25476,0.601946,1.99,2.42835
1.26122,0.601946,1.99,2.43169
1.27533,0.605576,2.002,2.44973
1.28951,0.609206,2.014,2.46782
1.29604,0.609206,2.014,2.47125
1.30258,0.609206,2.014,2.47468
1.32472,0.616466,2.038,2.50766
1.33133,0.616466,2.038,2.51116
1.33795,0.616466,2.038,2.51467
1.3604,0.623725,2.062,2.54785
1.37571,0.627658,2.075,2.56752
1.38244,0.627658,2.075,2.57113
1.40591,0.63522,2.1,2.60578
1.42148,0.639152,2.113,2.62562
1.42833,0.639152,2.113,2.62934
1.44402,0.643084,2.126,2.64927
-1.68438,0.742314,2.428,3.04686
-1.6765,0.742314,2.428,3.04251
-1.66862,0.742314,2.428,3.03818
-1.66074,0.742314,2.428,3.03385
-1.65286,0.742314,2.428,3.02955
-1.64498,0.742314,2.428,3.02526
-1.62564,0.737116,2.411,2.99983
-1.61781,0.737116,2.411,2.99559
-1.60999,0.737116,2.411,2.99137
-1.60216,0.737116,2.411,2.98717
-1.59433,0.737116,2.411,2.98298
-1.57532,0.731919,2.394,2.9578
-1.56755,0.731919,2.394,2.95367
-1.55978,0.731919,2.394,2.94955
-1.55201,0.731919,2.394,2.94545
-1.54424,0.731919,2.394,2.94136
-1.52556,0.726721,2.377,2.91643
-1.51785,0.726721,2.377,2.91241
-1.51013,0.726721,2.377,2.90839
-1.50241,0.726721,2.377,2.90439
-1.50539,0.731919,2.394,2.92115
-1.49762,0.731919,2.394,2.91716
-1.48985,0.731919,2.394,2.91318
-1.48208,0.731919,2.394,2.90921
-1.47431,0.731919,2.394,2.90526
-1.46654,0.731919,2.394,2.90132
-1.45877,0.731919,2.394,2.8974
-1.451,0.731919,2.394,2.8935
-1.44323,0.731919,2.394,2.88961
-1.42526,0.726721,2.377,2.86525
-1.41755,0.726721,2.377,2.86142
-1.40034,0.72183,2.361,2.83837
-1.38324,0.716938,2.345,2.81538
-1.37563,0.716938,2.345,2.81165
-1.35869,0.712046,2.329,2.78878
-1.34184,0.707155,2.313,2.76597
-1.33434,0.707155,2.313,2.76233
-1.31822,0.702569,2.298,2.74083
-1.30164,0.697677,2.282,2.71819
-1.29423,0.697677,2.282,2.71465
-1.28683,0.697677,2.282,2.71112
-1.27101,0.693091,2.267,2.68982
-1.26365,0.693091,2.267,2.68635
-1.25629,0.693091,2.267,2.6829
-1.24893,0.693091,2.267,2.67946
-1.23336,0.688505,2.252,2.65833
-1.22605,0.688505,2.252,2.65495
-1.21874,0.688505,2.252,2.65158
-1.2195,0.693091,2.267,2.66587
-1.21214,0.693091,2.267,2.66251
-1.20479,0.693091,2.267,2.65917
-1.19743,0.693091,2.267,2.65584
-1.19794,0.697677,2.282,2.67008
-1.19054,0.697677,2.282,2.66677
-1.18313,0.697677,2.282,2.66347
-1.17572,0.697677,2.282,2.66019
-1.17651,0.702569,2.298,2.67555
-1.16091,0.697677,2.282,2.65367
-1.1535,0.697677,2.282,2.65044
-1.1461,0.697677,2.282,2.64723
-1.13869,0.697677,2.282,2.64403
-1.13128,0.697677,2.282,2.64085
-1.12388,0.697677,2.282,2.63768
-1.11647,0.697677,2.282,2.63454
-1.10906,0.697677,2.282,2.63141
-1.09441,0.693091,2.267,2.61102
-1.08706,0.693091,2.267,2.60794
-1.0797,0.693091,2.267,2.60488
-1.07234,0.693091,2.267,2.60184
-1.06498,0.693091,2.267,2.59882
-1.05063,0.688505,2.252,2.57863
-1.04332,0.688505,2.252,2.57567
-1.03601,0.688505,2.252,2.57271
-1.02185,0.683919,2.237,2.55266
-1.00824,0.679639,2.223,2.53381
-0.994716,0.675359,2.209,2.51501
-0.987546,0.675359,2.209,2.51218
-0.973719,0.670773,2.194,2.49233
-0.96043,0.666492,2.18,2.47367
-0.953354,0.666492,2.18,2.47093
-0.946278,0.666492,2.18,2.46821
-0.939202,0.666492,2.18,2.4655
-0.938113,0.670773,2.194,2.47863
-0.930992,0.670773,2.194,2.47595
-0.923871,0.670773,2.194,2.47328
-0.916749,0.670773,2.194,2.47063
-0.909628,0.670773,2.194,2.46799
-0.902507,0.670773,2.194,2.46538
-0.895386,0.670773,2.194,2.46278
-0.888265,0.670773,2.194,2.4602
-0.881144,0.670773,2.194,2.45764
-0.874022,0.670773,2.194,2.45509
-0.866901,0.670773,2.194,2.45257
-0.85978,0.670773,2.194,2.45006
-0.863929,0.679639,2.223,2.47992
-0.856714,0.679639,2.223,2.47742
-0.849498,0.679639,2.223,2.47493
-0.847588,0.683919,2.237,2.48804
-0.845962,0.688505,2.252,2.50224
-0.849824,0.697677,2.282,2.53308
-0.842418,0.697677,2.282,2.5306
-0.835011,0.697677,2.282,2.52815
-0.833407,0.702569,2.298,2.54342
-0.825948,0.702569,2.298,2.54098
-0.818489,0.702569,2.298,2.53857
-0.81103,0.702569,2.298,2.53617
-0.803572,0.702569,2.298,2.5338
-0.796113,0.702569,2.298,2.53144
-0.788654,0.702569,2.298,2.52911
-0.781195,0.702569,2.298,2.52679
-0.76835,0.697677,2.282,2.50692
-0.755941,0.693091,2.267,2.48819
-0.748583,0.693091,2.267,2.48597
-0.73632,0.688505,2.252,2.46733
-0.729011,0.688505,2.252,2.46516
-0.721701,0.688505,2.252,2.46301
-0.709634,0.683919,2.237,2.44448
-0.702373,0.683919,2.237,2.44238
-0.695112,0.683919,2.237,2.44031
-0.679242,0.675359,2.209,2.40773
-0.667508,0.670773,2.194,2.38938
-0.660387,0.670773,2.194,2.3874
-0.653266,0.670773,2.194,2.38544
-0.646145,0.670773,2.194,2.3835
-0.639023,0.670773,2.194,2.38158
-0.631902,0.670773,2.194,2.37968
-0.620794,0.666492,2.18,2.36263
-0.613719,0.666492,2.18,2.36078
-0.606643,0.666492,2.18,2.35895
-0.599567,0.666492,2.18,2.35714
-0.592491,0.666492,2.18,2.35535
-0.585416,0.666492,2.18,2.35358
-0.57834,0.666492,2.18,2.35183
-0.571264,0.666492,2.18,2.3501
-0.564188,0.666492,2.18,2.34839
-0.557113,0.666492,2.18,2.3467
-0.550037,0.666492,2.18,2.34503
-0.542961,0.666492,2.18,2.34338
-0.535885,0.666492,2.18,2.34175
-0.52881,0.666492,2.18,2.34014
-0.525085,0.670773,2.194,2.35357
-0.517963,0.670773,2.194,2.35199
-0.507582,0.666492,2.18,2.33543
-0.500507,0.666492,2.18,2.33391
-0.493431,0.666492,2.18,2.3324
-0.486355,0.666492,2.18,2.33091
-0.479279,0.666492,2.18,2.32945
-0.472204,0.666492,2.18,2.328
-0.465128,0.666492,2.18,2.32658
-0.458052,0.666492,2.18,2.32517
-0.448287,0.662518,2.167,2.30993
-0.441254,0.662518,2.167,2.30858
-0.431415,0.658238,2.153,2.29234
-0.424427,0.658238,2.153,2.29103
-0.417439,0.658238,2.153,2.28975
-0.410451,0.658238,2.153,2.28848
-0.401026,0.654263,2.14,2.27343
-0.39408,0.654263,2.14,2.27221
-0.387134,0.654263,2.14,2.27102
-0.380189,0.654263,2.14,2.26985
-0.373243,0.654263,2.14,2.26869
-0.366297,0.654263,2.14,2.26756
-0.359351,0.654263,2.14,2.26645
-0.350099,0.649983,2.126,2.25054
-0.343199,0.649983,2.126,2.24948
-0.336299,0.649983,2.126,2.24843
-0.329398,0.649983,2.126,2.24741
-0.322498,0.649983,2.126,2.24641
-0.315597,0.649983,2.126,2.24543
-0.308697,0.649983,2.126,2.24447
-0.299951,0.646009,2.113,2.22981
-0.293092,0.646009,2.113,2.2289
-0.286234,0.646009,2.113,2.22801
-0.277657,0.642034,2.1,2.21344
-0.270841,0.642034,2.1,2.21259
-0.264025,0.642034,2.1,2.21177
-0.255617,0.63806,2.087,2.19728
-0.248843,0.63806,2.087,2.1965
-0.242069,0.63806,2.087,2.19574
-0.233942,0.634391,2.075,2.18239
-0.227207,0.634391,2.075,2.18167
-0.220472,0.634391,2.075,2.18098
-0.212398,0.630416,2.062,2.16665
-0.205705,0.630416,2.062,2.16601
-0.199013,0.630416,2.062,2.16538
-0.19232,0.630416,2.062,2.16478
-0.185627,0.630416,2.062,2.16419
-0.178934,0.630416,2.062,2.16363
-0.172242,0.630416,2.062,2.16308
-0.165549,0.630416,2.062,2.16256
-0.158856,0.630416,2.062,2.16206
-0.152164,0.630416,2.062,2.16158
-0.146388,0.634391,2.075,2.17474
-0.139653,0.634391,2.075,2.1743
-0.133687,0.63806,2.087,2.18645
-0.126913,0.63806,2.087,2.18605
-0.120139,0.63806,2.087,2.18566
-0.114071,0.642034,2.1,2.19891
-0.107255,0.642034,2.1,2.19857
-0.101061,0.646009,2.113,2.21186
-0.0947821,0.649983,2.126,2.22516
-0.0878817,0.649983,2.126,2.22488
-0.0809812,0.649983,2.126,2.22462
-0.0745686,0.654263,2.14,2.23902
-0.0676227,0.654263,2.14,2.2388
-0.0606768,0.654263,2.14,2.2386
-0.0537308,0.654263,2.14,2.23843
-0.0467849,0.654263,2.14,2.23827
-0.039839,0.654263,2.14,2.23813
-0.0328931,0.654263,2.14,2.23802
-0.0259472,0.654263,2.14,2.23793
-0.018877,0.649983,2.126,2.22322
-0.0119765,0.649983,2.126,2.22317
-0.00507606,0.649983,2.126,2.22315
0.00181325,0.646009,2.113,2.20955
0.00867153,0.646009,2.113,2.20956
0.0155298,0.646009,2.113,2.2096
0.0221126,0.63806,2.087,2.18247
0.0288865,0.63806,2.087,2.18255
0.0354553,0.634391,2.075,2.1701
0.0421903,0.634391,2.075,2.17022
0.0489252,0.634391,2.075,2.17036
0.0549895,0.626747,2.05,2.14437
0.0616433,0.626747,2.05,2.14455
0.0682971,0.626747,2.05,2.14476
0.0749509,0.626747,2.05,2.14498
0.0816047,0.626747,2.05,2.14522
0.0882585,0.626747,2.05,2.14548
0.0949123,0.626747,2.05,2.14577
0.101566,0.626747,2.05,2.14607
0.107586,0.623079,2.038,2.13383
0.114201,0.623079,2.038,2.13418
0.120816,0.623079,2.038,2.13454
0.127431,0.623079,2.038,2.13493
0.134046,0.623079,2.038,2.13533
0.140661,0.623079,2.038,2.13576
0.148143,0.626747,2.05,2.14878
0.15389,0.623079,2.038,2.13667
0.160505,0.623079,2.038,2.13716
0.16712,0.623079,2.038,2.13766
0.173735,0.623079,2.038,2.13819
0.181412,0.626747,2.05,2.15133
0.188065,0.626747,2.05,2.1519
0.193579,0.623079,2.038,2.13989
0.200194,0.623079,2.038,2.1405
0.206809,0.623079,2.038,2.14113
0.217299,0.634391,2.075,2.18066
0.22263,0.630416,2.062,2.16768
0.229323,0.630416,2.062,2.16838
0.237503,0.634391,2.075,2.18277
0.244238,0.634391,2.075,2.18351
0.250973,0.634391,2.075,2.18428
0.257708,0.634391,2.075,2.18506
0.264443,0.634391,2.075,2.18587
0.271178,0.634391,2.075,2.18669
0.277913,0.634391,2.075,2.18754
0.284648,0.634391,2.075,2.1884
0.291383,0.634391,2.075,2.18929
0.299842,0.63806,2.087,2.20286
0.306616,0.63806,2.087,2.20379
0.31339,0.63806,2.087,2.20475
0.322158,0.642034,2.1,2.21946
0.328974,0.642034,2.1,2.22046
0.33579,0.642034,2.1,2.22148
0.344727,0.646009,2.113,2.23628
0.351585,0.646009,2.113,2.23734
0.358443,0.646009,2.113,2.23843
0.367549,0.649983,2.126,2.25332
0.37445,0.649983,2.126,2.25445
0.38135,0.649983,2.126,2.25561
0.388251,0.649983,2.126,2.25679
0.395151,0.649983,2.126,2.25799
0.402052,0.649983,2.126,2.2592
0.408952,0.649983,2.126,2.26044
0.41331,0.646009,2.113,2.24787
0.420168,0.646009,2.113,2.24914
0.427026,0.646009,2.113,2.25043
0.433884,0.646009,2.113,2.25174
0.440743,0.646009,2.113,2.25308
0.444847,0.642034,2.1,2.24056
0.448867,0.63806,2.087,2.22804
0.455641,0.63806,2.087,2.22942
0.462415,0.63806,2.087,2.23081
0.466491,0.634391,2.075,2.21939
0.473226,0.634391,2.075,2.22081
0.479961,0.634391,2.075,2.22226
0.486696,0.634391,2.075,2.22372
0.493431,0.634391,2.075,2.22521
0.500166,0.634391,2.075,2.22671
0.506901,0.634391,2.075,2.22823
0.513636,0.634391,2.075,2.22978
0.520371,0.634391,2.075,2.23134
0.527106,0.634391,2.075,2.23292
0.53384,0.634391,2.075,2.23452
0.540575,0.634391,2.075,2.23613
0.54731,0.634391,2.075,2.23777
0.554045,0.634391,2.075,2.23943
0.56078,0.634391,2.075,2.2411
0.570797,0.63806,2.087,2.25577
0.57425,0.634391,2.075,2.24451
0.580985,0.634391,2.075,2.24625
0.591119,0.63806,2.087,2.261
0.597893,0.63806,2.087,2.26278
