1.82243,-0.313001,2.696,3.26919
1.81691,-0.310563,2.675,3.24858
-2.26157,-0.367902,3.26,3.98468
-2.25099,-0.367902,3.26,3.97868
-2.28439,-0.375125,3.324,4.0507
-2.2736,-0.375125,3.324,4.04462
-2.26281,-0.375125,3.324,4.03857
-2.25202,-0.375125,3.324,4.03253
-2.24123,-0.375125,3.324,4.02652
-2.23045,-0.375125,3.324,4.02052
-2.21966,-0.375125,3.324,4.01454
-2.20887,-0.375125,3.324,4.00859
-2.21924,-0.378736,3.356,4.04119
-2.20835,-0.378736,3.356,4.03522
-2.19745,-0.378736,3.356,4.02927
-2.18656,-0.378736,3.356,4.02334
-2.17567,-0.378736,3.356,4.01743
-2.16478,-0.378736,3.356,4.01154
-2.15388,-0.378736,3.356,4.00567
-2.14299,-0.378736,3.356,3.99982
-2.1321,-0.378736,3.356,3.994
-2.1212,-0.378736,3.356,3.98819
-2.13106,-0.38246,3.389,4.02157
-2.12006,-0.38246,3.389,4.01575
-2.10906,-0.38246,3.389,4.00996
-2.09806,-0.38246,3.389,4.00418
-2.08706,-0.38246,3.389,3.99843
-2.07606,-0.38246,3.389,3.9927
-2.04496,-0.378736,3.356,3.94817
-2.03406,-0.378736,3.356,3.94254
-2.04306,-0.38246,3.389,3.97564
-2.03206,-0.38246,3.389,3.97
-2.02106,-0.38246,3.389,3.96438
nan,nan,nan,NaN
nan,nan,nan,NaN
nan,nan,nan,NaN
nan,nan,nan,NaN
nan,nan,nan,NaN
nan,nan,nan,NaN
nan,nan,nan,NaN
nan,nan,nan,NaN
nan,nan,nan,NaN
nan,nan,nan,NaN
nan,nan,nan,NaN
nan,nan,nan,NaN
nan,nan,nan,NaN
nan,nan,nan,NaN
nan,nan,nan,NaN
nan,nan,nan,NaN
nan,nan,nan,NaN
nan,nan,nan,NaN
nan,nan,nan,NaN
nan,nan,nan,NaN
nan,nan,nan,NaN
nan,nan,nan,NaN
nan,nan,nan,NaN
nan,nan,nan,NaN
nan,nan,nan,NaN
nan,nan,nan,NaN
nan,nan,nan,NaN
nan,nan,nan,NaN
nan,nan,nan,NaN
nan,nan,nan,NaN
nan,nan,nan,NaN
-1.21302,-0.277958,2.463,2.75954
-1.20502,-0.277958,2.463,2.75603
-1.19703,-0.277958,2.463,2.75255
-1.18904,-0.277958,2.463,2.74908
-1.18104,-0.277958,2.463,2.74563
-1.17305,-0.277958,2.463,2.7422
-1.15654,-0.275927,2.445,2.71878
-1.14062,-0.274008,2.428,2.69653
-1.13274,-0.274008,2.428,2.69321
-1.11698,-0.27209,2.411,2.67107
-1.10915,-0.27209,2.411,2.6678
-1.10133,-0.27209,2.411,2.66456
-1.0935,-0.27209,2.411,2.66133
-1.08568,-0.27209,2.411,2.65813
-1.07785,-0.27209,2.411,2.65494
-1.07003,-0.27209,2.411,2.65177
-1.05471,-0.270171,2.394,2.62995
-1.04694,-0.270171,2.394,2.62684
-1.03917,-0.270171,2.394,2.62376
-1.0314,-0.270171,2.394,2.62069
-1.0309,-0.27209,2.411,2.63623
-1.02307,-0.27209,2.411,2.63318
-1.01525,-0.27209,2.411,2.63015
-1.00742,-0.27209,2.411,2.62714
-0.999596,-0.27209,2.411,2.62415
-0.99177,-0.27209,2.411,2.62118
-0.983945,-0.27209,2.411,2.61822
-0.983002,-0.274008,2.428,2.63373
-0.975121,-0.274008,2.428,2.6308
-0.967241,-0.274008,2.428,2.62789
-0.95936,-0.274008,2.428,2.625
-0.951479,-0.274008,2.428,2.62213
-0.943599,-0.274008,2.428,2.61928
-0.935718,-0.274008,2.428,2.61645
-0.927837,-0.274008,2.428,2.61365
-0.913515,-0.27209,2.411,2.59258
-0.90569,-0.27209,2.411,2.58983
-0.904195,-0.274008,2.428,2.60535
-0.896315,-0.274008,2.428,2.60262
-0.888434,-0.274008,2.428,2.59992
-0.880553,-0.274008,2.428,2.59724
-0.872672,-0.274008,2.428,2.59458
-0.864792,-0.274008,2.428,2.59194
-0.856911,-0.274008,2.428,2.58932
-0.84903,-0.274008,2.428,2.58672
-0.84115,-0.274008,2.428,2.58414
-0.833269,-0.274008,2.428,2.58159
-0.825388,-0.274008,2.428,2.57906
-0.817508,-0.274008,2.428,2.57655
-0.809627,-0.274008,2.428,2.57406
-0.801746,-0.274008,2.428,2.57159
-0.793866,-0.274008,2.428,2.56914
-0.785985,-0.274008,2.428,2.56672
-0.778104,-0.274008,2.428,2.56432
-0.775616,-0.275927,2.445,2.57987
-0.767681,-0.275927,2.445,2.5775
-0.759745,-0.275927,2.445,2.57515
-0.751809,-0.275927,2.445,2.57282
-0.743873,-0.275927,2.445,2.57051
-0.735937,-0.275927,2.445,2.56822
-0.728001,-0.275927,2.445,2.56596
-0.720065,-0.275927,2.445,2.56372
-0.712129,-0.275927,2.445,2.5615
-0.704194,-0.275927,2.445,2.55931
-0.696258,-0.275927,2.445,2.55713
-0.688322,-0.275927,2.445,2.55499
-0.680386,-0.275927,2.445,2.55286
-0.677401,-0.277958,2.463,2.56953
-0.669406,-0.277958,2.463,2.56744
-0.661412,-0.277958,2.463,2.56536
-0.653418,-0.277958,2.463,2.56332
-0.645424,-0.277958,2.463,2.56129
-0.637429,-0.277958,2.463,2.55929
-0.629435,-0.277958,2.463,2.55731
-0.621441,-0.277958,2.463,2.55535
-0.613446,-0.277958,2.463,2.55342
-0.605452,-0.277958,2.463,2.55151
-0.597458,-0.277958,2.463,2.54962
-0.589464,-0.277958,2.463,2.54776
-0.581469,-0.277958,2.463,2.54593
-0.577666,-0.279989,2.481,2.5627
-0.569613,-0.279989,2.481,2.5609
-0.561561,-0.279989,2.481,2.55912
-0.557524,-0.282021,2.499,2.57592
-0.549413,-0.282021,2.499,2.57418
-0.541301,-0.282021,2.499,2.57246
-0.53319,-0.282021,2.499,2.57076
-0.525079,-0.282021,2.499,2.56909
-0.516968,-0.282021,2.499,2.56745
-0.512522,-0.284052,2.517,2.58431
-0.504353,-0.284052,2.517,2.5827
-0.496183,-0.284052,2.517,2.58112
-0.488013,-0.284052,2.517,2.57956
-0.476412,-0.282021,2.499,2.55959
-0.468301,-0.282021,2.499,2.55809
-0.46019,-0.282021,2.499,2.55662
-0.452079,-0.282021,2.499,2.55517
-0.443968,-0.282021,2.499,2.55375
-0.435857,-0.282021,2.499,2.55235
-0.427746,-0.282021,2.499,2.55098
-0.419634,-0.282021,2.499,2.54963
-0.408559,-0.279989,2.481,2.52996
-0.400506,-0.279989,2.481,2.52867
-0.392454,-0.279989,2.481,2.52741
-0.384401,-0.279989,2.481,2.52617
-0.376348,-0.279989,2.481,2.52495
-0.365624,-0.277958,2.463,2.50546
-0.357629,-0.277958,2.463,2.5043
-0.349635,-0.277958,2.463,2.50317
-0.341641,-0.277958,2.463,2.50207
-0.333646,-0.277958,2.463,2.50099
-0.325652,-0.277958,2.463,2.49994
-0.317658,-0.277958,2.463,2.49891
-0.309664,-0.277958,2.463,2.4979
-0.301669,-0.277958,2.463,2.49692
-0.293675,-0.277958,2.463,2.49597
-0.285681,-0.277958,2.463,2.49504
-0.277686,-0.277958,2.463,2.49414
-0.269692,-0.277958,2.463,2.49326
-0.259785,-0.275927,2.445,2.4742
-0.251849,-0.275927,2.445,2.47338
-0.243914,-0.275927,2.445,2.47258
-0.235978,-0.275927,2.445,2.47181
-0.229721,-0.277958,2.463,2.48926
-0.221726,-0.277958,2.463,2.48853
-0.213732,-0.277958,2.463,2.48783
-0.205738,-0.277958,2.463,2.48716
-0.197744,-0.277958,2.463,2.48651
-0.189749,-0.277958,2.463,2.48589
-0.181755,-0.277958,2.463,2.48529
-0.173761,-0.277958,2.463,2.48472
-0.165766,-0.277958,2.463,2.48417
-0.157772,-0.277958,2.463,2.48365
-0.149778,-0.277958,2.463,2.48316
-0.141784,-0.277958,2.463,2.48269
-0.134767,-0.279989,2.481,2.50038
-0.126714,-0.279989,2.481,2.49996
-0.118662,-0.279989,2.481,2.49957
-0.110609,-0.279989,2.481,2.4992
-0.102556,-0.279989,2.481,2.49885
-0.0951891,-0.282021,2.499,2.51666
-0.087078,-0.282021,2.499,2.51637
-0.0789668,-0.282021,2.499,2.5161
-0.0708557,-0.282021,2.499,2.51586
-0.0627446,-0.282021,2.499,2.51565
-0.0546334,-0.282021,2.499,2.51546
-0.0465223,-0.282021,2.499,2.51529
-0.0384112,-0.282021,2.499,2.51516
-0.0303,-0.282021,2.499,2.51505
-0.0221889,-0.282021,2.499,2.51496
-0.0140778,-0.282021,2.499,2.5149
-0.00596664,-0.282021,2.499,2.51487
0.00214449,-0.282021,2.499,2.51486
0.0102556,-0.282021,2.499,2.51488
0.0183668,-0.282021,2.499,2.51493
0.0264779,-0.282021,2.499,2.515
0.0348382,-0.284052,2.517,2.53322
0.0427002,-0.282021,2.499,2.51523
0.0508113,-0.282021,2.499,2.51538
0.0589224,-0.282021,2.499,2.51555
0.0675164,-0.284052,2.517,2.53388
0.0751447,-0.282021,2.499,2.51599
0.0832558,-0.282021,2.499,2.51624
0.091367,-0.282021,2.499,2.51652
0.0994781,-0.282021,2.499,2.51683
0.107589,-0.282021,2.499,2.51716
0.1157,-0.282021,2.499,2.51752
0.123811,-0.282021,2.499,2.51791
0.131923,-0.282021,2.499,2.51832
0.140034,-0.282021,2.499,2.51876
0.147078,-0.279989,2.481,2.50108
0.155131,-0.279989,2.481,2.50156
0.163183,-0.279989,2.481,2.50208
0.171236,-0.279989,2.481,2.50261
0.179289,-0.279989,2.481,2.50318
0.187341,-0.279989,2.481,2.50377
0.196812,-0.282021,2.499,2.52255
0.204923,-0.282021,2.499,2.5232
0.213034,-0.282021,2.499,2.52387
0.221145,-0.282021,2.499,2.52457
0.229256,-0.282021,2.499,2.52529
0.237367,-0.282021,2.499,2.52604
0.245479,-0.282021,2.499,2.52682
0.255416,-0.284052,2.517,2.54582
0.263586,-0.284052,2.517,2.54666
0.271755,-0.284052,2.517,2.54751
0.279925,-0.284052,2.517,2.5484
0.288094,-0.284052,2.517,2.54931
0.2985,-0.286196,2.536,2.5695
0.306732,-0.286196,2.536,2.57046
0.314963,-0.286196,2.536,2.57146
0.320773,-0.284052,2.517,2.55321
0.328942,-0.284052,2.517,2.55425
0.337112,-0.284052,2.517,2.55531
0.345281,-0.284052,2.517,2.5564
0.353451,-0.284052,2.517,2.55752
0.36162,-0.284052,2.517,2.55866
0.36979,-0.284052,2.517,2.55983
0.37796,-0.284052,2.517,2.56102
0.386129,-0.284052,2.517,2.56224
0.394299,-0.284052,2.517,2.56348
0.402468,-0.284052,2.517,2.56475
0.410638,-0.284052,2.517,2.56605
0.418807,-0.284052,2.517,2.56737
0.426977,-0.284052,2.517,2.56871
0.435146,-0.284052,2.517,2.57008
0.443316,-0.284052,2.517,2.57148
0.451486,-0.284052,2.517,2.5729
0.459655,-0.284052,2.517,2.57435
0.467825,-0.284052,2.517,2.57582
0.475994,-0.284052,2.517,2.57731
0.484164,-0.284052,2.517,2.57884
0.492333,-0.284052,2.517,2.58038
0.500503,-0.284052,2.517,2.58195
0.505035,-0.282021,2.499,2.56507
0.513146,-0.282021,2.499,2.56668
0.521257,-0.282021,2.499,2.56832
0.529368,-0.282021,2.499,2.56997
0.541351,-0.284052,2.517,2.59018
0.54952,-0.284052,2.517,2.5919
0.55769,-0.284052,2.517,2.59364
0.565859,-0.284052,2.517,2.59541
0.574029,-0.284052,2.517,2.59721
0.582199,-0.284052,2.517,2.59903
0.590368,-0.284052,2.517,2.60087
0.598538,-0.284052,2.517,2.60273
0.606707,-0.284052,2.517,2.60462
0.614877,-0.284052,2.517,2.60654
0.623046,-0.284052,2.517,2.60848
0.626702,-0.282021,2.499,2.59177
0.634813,-0.282021,2.499,2.59375
0.642924,-0.282021,2.499,2.59574
0.651035,-0.282021,2.499,2.59777
0.659146,-0.282021,2.499,2.59981
0.667257,-0.282021,2.499,2.60188
0.675369,-0.282021,2.499,2.60397
0.68348,-0.282021,2.499,2.60609
0.691591,-0.282021,2.499,2.60822
0.699702,-0.282021,2.499,2.61039
0.707813,-0.282021,2.499,2.61257
0.715924,-0.282021,2.499,2.61478
0.724035,-0.282021,2.499,2.61701
0.732147,-0.282021,2.499,2.61927
0.740258,-0.282021,2.499,2.62155
0.748369,-0.282021,2.499,2.62385
0.75648,-0.282021,2.499,2.62618
0.764591,-0.282021,2.499,2.62852
0.772702,-0.282021,2.499,2.63089
0.786437,-0.284052,2.517,2.65226
0.794607,-0.284052,2.517,2.65469
0.802777,-0.284052,2.517,2.65715
0.810946,-0.284052,2.517,2.65963
0.819116,-0.284052,2.517,2.66213
0.827285,-0.284052,2.517,2.66465
0.835455,-0.284052,2.517,2.6672
0.843624,-0.284052,2.517,2.66977
0.851794,-0.284052,2.517,2.67236
0.859963,-0.284052,2.517,2.67498
0.868133,-0.284052,2.517,2.67762
0.876303,-0.284052,2.517,2.68028
0.878147,-0.282021,2.499,2.66377
0.886258,-0.282021,2.499,2.66646
0.894369,-0.282021,2.499,2.66916
0.90248,-0.282021,2.499,2.67189
0.910591,-0.282021,2.499,2.67464
0.918703,-0.282021,2.499,2.67742
0.920138,-0.279989,2.481,2.6609
0.928191,-0.279989,2.481,2.6637
0.936243,-0.279989,2.481,2.66652
0.944296,-0.279989,2.481,2.66935
0.952349,-0.279989,2.481,2.67221
0.960401,-0.279989,2.481,2.67509
0.968454,-0.279989,2.481,2.678
0.976507,-0.279989,2.481,2.68092
0.98456,-0.279989,2.481,2.68386
0.992612,-0.279989,2.481,2.68683
1.00067,-0.279989,2.481,2.68981
1.00872,-0.279989,2.481,2.69282
1.01677,-0.279989,2.481,2.69584
1.02482,-0.279989,2.481,2.69889
nan,nan,nan,NaN
nan,nan,nan,NaN
nan,nan,nan,NaN
nan,nan,nan,NaN
nan,nan,nan,NaN
nan,nan,nan,NaN
nan,nan,nan,NaN
nan,nan,nan,NaN
nan,nan,nan,NaN
nan,nan,nan,NaN
nan,nan,nan,NaN
nan,nan,nan,NaN
nan,nan,nan,NaN
nan,nan,nan,NaN
nan,nan,nan,NaN
nan,nan,nan,NaN
nan,nan,nan,NaN
nan,nan,nan,NaN
nan,nan,nan,NaN
1.79817,-0.424555,3.762,4.19122
1.81038,-0.424555,3.762,4.19647
1.84294,-0.429294,3.804,4.24866
1.85529,-0.429294,3.804,4.25403
1.86764,-0.429294,3.804,4.25943
1.85923,-0.424555,3.762,4.21777
1.87144,-0.424555,3.762,4.22317
1.86312,-0.419928,3.721,4.18251
1.8752,-0.419928,3.721,4.1879
1.88727,-0.419928,3.721,4.19333
1.87893,-0.415413,3.681,4.15364
1.87085,-0.411012,3.642,4.11499
1.88267,-0.411012,3.642,4.12038
1.87472,-0.406724,3.604,4.08275
1.88642,-0.406724,3.604,4.08813
nan,nan,nan,NaN
1.88968,-0.402435,3.566,4.05576
1.90125,-0.402435,3.566,4.06117
1.91283,-0.402435,3.566,4.0666
1.94491,-0.406724,3.604,4.11545
1.95661,-0.406724,3.604,4.12099
1.9683,-0.406724,3.604,4.12656
1.98,-0.406724,3.604,4.13215
1.9917,-0.406724,3.604,4.13777
2.0034,-0.406724,3.604,4.14341
2.0151,-0.406724,3.604,4.14908
2.02679,-0.406724,3.604,4.15477
2.03849,-0.406724,3.604,4.16049
2.05019,-0.406724,3.604,4.16623
2.06189,-0.406724,3.604,4.172
2.07358,-0.406724,3.604,4.1778
2.08528,-0.406724,3.604,4.18362
2.05334,-0.39826,3.529,4.10227
2.06479,-0.39826,3.529,4.10802
2.05507,-0.394197,3.493,4.07182
2.06641,-0.394197,3.493,4.07756
2.05692,-0.390247,3.458,4.0424
2.02688,-0.38246,3.389,3.96735
2.03788,-0.38246,3.389,3.97298
2.00958,-0.375125,3.324,3.90232
2.00092,-0.371514,3.292,3.87027
2.01161,-0.371514,3.292,3.8758
1.96516,-0.361018,3.199,3.77171
1.95764,-0.357745,3.17,3.74289
1.96793,-0.357745,3.17,3.74828
1.92455,-0.34804,3.084,3.65186
1.90068,-0.341946,3.03,3.59311
1.91052,-0.341946,3.03,3.59832
1.88676,-0.335965,2.977,3.54052
1.87986,-0.33303,2.951,3.51471
1.88944,-0.33303,2.951,3.51984
1.88293,-0.330209,2.926,3.49513
1.87626,-0.327388,2.901,3.47035
1.87007,-0.324679,2.877,3.4467
1.87941,-0.324679,2.877,3.45177
1.85724,-0.319262,2.829,3.39919
1.85125,-0.316667,2.806,3.37654
1.86035,-0.316667,2.806,3.38154
1.83948,-0.311588,2.761,3.33225
1.83371,-0.309106,2.739,3.31062
1.8426,-0.309106,2.739,3.31555
1.82243,-0.304253,2.696,3.26837
1.81691,-0.301883,2.675,3.24776
-2.24076,-0.354036,3.23,3.94705
-2.23027,-0.354036,3.23,3.94111
-2.21979,-0.354036,3.23,3.93519
-2.20931,-0.354036,3.23,3.92928
-2.21924,-0.357324,3.26,3.95984
-2.23034,-0.360831,3.292,3.99273
-2.19808,-0.357324,3.26,3.94802
-2.1875,-0.357324,3.26,3.94214
-2.17692,-0.357324,3.26,3.93628
-2.16634,-0.357324,3.26,3.93043
-2.17692,-0.360831,3.292,3.96313
-2.18729,-0.364339,3.324,3.99574
-2.1765,-0.364339,3.324,3.98985
-2.16571,-0.364339,3.324,3.98397
-2.15492,-0.364339,3.324,3.97812
-2.14413,-0.364339,3.324,3.97228
-2.13335,-0.364339,3.324,3.96647
-2.12256,-0.364339,3.324,3.96068
-2.11177,-0.364339,3.324,3.95491
-2.10098,-0.364339,3.324,3.94916
-2.11031,-0.367846,3.356,3.98139
-2.09942,-0.367846,3.356,3.97563
-2.08853,-0.367846,3.356,3.96989
-2.07763,-0.367846,3.356,3.96417
-2.06674,-0.367846,3.356,3.95847
-2.05585,-0.367846,3.356,3.95279
-2.02546,-0.364339,3.324,3.9095
-2.01467,-0.364339,3.324,3.90392
-2.02317,-0.367846,3.356,3.93589
-2.01228,-0.367846,3.356,3.93031
-2.00138,-0.367846,3.356,3.92474
nan,nan,nan,NaN
nan,nan,nan,NaN
nan,nan,nan,NaN
nan,nan,nan,NaN
nan,nan,nan,NaN
nan,nan,nan,NaN
nan,nan,nan,NaN
nan,nan,nan,NaN
nan,nan,nan,NaN
nan,nan,nan,NaN
nan,nan,nan,NaN
nan,nan,nan,NaN
nan,nan,nan,NaN
nan,nan,nan,NaN
nan,nan,nan,NaN
nan,nan,nan,NaN
nan,nan,nan,NaN
nan,nan,nan,NaN
nan,nan,nan,NaN
nan,nan,nan,NaN
nan,nan,nan,NaN
nan,nan,nan,NaN
nan,nan,nan,NaN
nan,nan,nan,NaN
nan,nan,nan,NaN
nan,nan,nan,NaN
nan,nan,nan,NaN
nan,nan,nan,NaN
nan,nan,nan,NaN
nan,nan,nan,NaN
nan,nan,nan,NaN
-1.21302,-0.269966,2.463,2.75874
-1.20502,-0.269966,2.463,2.75524
-1.19703,-0.269966,2.463,2.75175
-1.18904,-0.269966,2.463,2.74828
-1.17241,-0.267993,2.445,2.72477
-1.16447,-0.267993,2.445,2.72137
-1.15654,-0.267993,2.445,2.71798
-1.14062,-0.26613,2.428,2.69574
-1.13274,-0.26613,2.428,2.69241
-1.11698,-0.264266,2.411,2.67028
-1.10915,-0.264266,2.411,2.66702
-1.10133,-0.264266,2.411,2.66377
-1.0935,-0.264266,2.411,2.66055
-1.08568,-0.264266,2.411,2.65734
-1.07785,-0.264266,2.411,2.65415
-1.07003,-0.264266,2.411,2.65098
-1.05471,-0.262403,2.394,2.62916
-1.04694,-0.262403,2.394,2.62606
-1.03917,-0.262403,2.394,2.62297
-1.0314,-0.262403,2.394,2.6199
-1.0309,-0.264266,2.411,2.63543
-1.02307,-0.264266,2.411,2.63238
-1.01525,-0.264266,2.411,2.62935
-1.00742,-0.264266,2.411,2.62634
-0.999596,-0.264266,2.411,2.62335
-0.99177,-0.264266,2.411,2.62038
-0.983945,-0.264266,2.411,2.61742
-0.983002,-0.26613,2.428,2.63293
-0.975121,-0.26613,2.428,2.62999
-0.967241,-0.26613,2.428,2.62708
-0.95936,-0.26613,2.428,2.62419
-0.951479,-0.26613,2.428,2.62132
-0.943599,-0.26613,2.428,2.61847
-0.935718,-0.26613,2.428,2.61564
-0.927837,-0.26613,2.428,2.61283
-0.913515,-0.264266,2.411,2.59177
-0.90569,-0.264266,2.411,2.58902
-0.904195,-0.26613,2.428,2.60453
-0.896315,-0.26613,2.428,2.6018
-0.888434,-0.26613,2.428,2.5991
-0.880553,-0.26613,2.428,2.59642
-0.872672,-0.26613,2.428,2.59376
-0.864792,-0.26613,2.428,2.59111
-0.856911,-0.26613,2.428,2.5885
-0.84903,-0.26613,2.428,2.5859
-0.84115,-0.26613,2.428,2.58332
-0.833269,-0.26613,2.428,2.58077
-0.825388,-0.26613,2.428,2.57823
-0.817508,-0.26613,2.428,2.57572
-0.809627,-0.26613,2.428,2.57323
-0.801746,-0.26613,2.428,2.57076
-0.793866,-0.26613,2.428,2.56831
-0.785985,-0.26613,2.428,2.56589
-0.778104,-0.26613,2.428,2.56349
-0.775616,-0.267993,2.445,2.57904
-0.767681,-0.267993,2.445,2.57666
-0.759745,-0.267993,2.445,2.57431
-0.751809,-0.267993,2.445,2.57198
-0.743873,-0.267993,2.445,2.56967
-0.735937,-0.267993,2.445,2.56738
-0.728001,-0.267993,2.445,2.56512
-0.720065,-0.267993,2.445,2.56288
-0.712129,-0.267993,2.445,2.56066
-0.704194,-0.267993,2.445,2.55846
-0.696258,-0.267993,2.445,2.55629
-0.688322,-0.267993,2.445,2.55414
-0.680386,-0.267993,2.445,2.55201
-0.677401,-0.269966,2.463,2.56868
-0.669406,-0.269966,2.463,2.56658
-0.661412,-0.269966,2.463,2.56451
-0.653418,-0.269966,2.463,2.56246
-0.645424,-0.269966,2.463,2.56043
-0.637429,-0.269966,2.463,2.55843
-0.629435,-0.269966,2.463,2.55645
-0.621441,-0.269966,2.463,2.55449
-0.613446,-0.269966,2.463,2.55256
-0.605452,-0.269966,2.463,2.55065
-0.597458,-0.269966,2.463,2.54877
-0.589464,-0.269966,2.463,2.5469
-0.581469,-0.269966,2.463,2.54507
-0.577666,-0.271939,2.481,2.56184
-0.569613,-0.271939,2.481,2.56003
-0.561561,-0.271939,2.481,2.55825
-0.553508,-0.271939,2.481,2.5565
-0.549413,-0.273912,2.499,2.5733
-0.541301,-0.273912,2.499,2.57158
-0.53319,-0.273912,2.499,2.56989
-0.525079,-0.273912,2.499,2.56822
-0.516968,-0.273912,2.499,2.56657
-0.508857,-0.273912,2.499,2.56495
-0.500746,-0.273912,2.499,2.56335
-0.492635,-0.273912,2.499,2.56178
-0.484524,-0.273912,2.499,2.56023
-0.476412,-0.273912,2.499,2.55871
-0.468301,-0.273912,2.499,2.55721
-0.46019,-0.273912,2.499,2.55574
-0.448823,-0.271939,2.481,2.53589
-0.44077,-0.271939,2.481,2.53448
-0.432717,-0.271939,2.481,2.53309
-0.424665,-0.271939,2.481,2.53173
-0.416612,-0.271939,2.481,2.53039
-0.405595,-0.269966,2.463,2.51073
-0.397601,-0.269966,2.463,2.50945
-0.389606,-0.269966,2.463,2.5082
-0.381612,-0.269966,2.463,2.50697
-0.373618,-0.269966,2.463,2.50576
-0.365624,-0.269966,2.463,2.50458
-0.357629,-0.269966,2.463,2.50343
-0.349635,-0.269966,2.463,2.5023
-0.341641,-0.269966,2.463,2.50119
-0.333646,-0.269966,2.463,2.50011
-0.325652,-0.269966,2.463,2.49906
-0.317658,-0.269966,2.463,2.49803
-0.309664,-0.269966,2.463,2.49703
-0.301669,-0.269966,2.463,2.49605
-0.293675,-0.269966,2.463,2.49509
-0.285681,-0.269966,2.463,2.49417
-0.277686,-0.269966,2.463,2.49326
-0.269692,-0.269966,2.463,2.49239
-0.259785,-0.267993,2.445,2.47332
-0.251849,-0.267993,2.445,2.4725
-0.243914,-0.267993,2.445,2.47171
-0.235978,-0.267993,2.445,2.47094
-0.229721,-0.269966,2.463,2.48838
-0.221726,-0.269966,2.463,2.48765
-0.213732,-0.269966,2.463,2.48695
-0.205738,-0.269966,2.463,2.48628
-0.197744,-0.269966,2.463,2.48563
-0.189749,-0.269966,2.463,2.48501
-0.181755,-0.269966,2.463,2.48441
-0.173761,-0.269966,2.463,2.48384
-0.165766,-0.269966,2.463,2.48329
-0.157772,-0.269966,2.463,2.48277
-0.149778,-0.269966,2.463,2.48227
-0.141784,-0.269966,2.463,2.4818
-0.133789,-0.269966,2.463,2.48136
-0.126714,-0.271939,2.481,2.49907
-0.118662,-0.271939,2.481,2.49868
-0.110609,-0.271939,2.481,2.49831
-0.102556,-0.271939,2.481,2.49797
-0.0951891,-0.273912,2.499,2.51577
-0.0864508,-0.271939,2.481,2.49736
-0.078398,-0.271939,2.481,2.49709
-0.0703453,-0.271939,2.481,2.49685
-0.0622926,-0.271939,2.481,2.49664
-0.0546334,-0.273912,2.499,2.51456
-0.0465223,-0.273912,2.499,2.5144
-0.0384112,-0.273912,2.499,2.51426
-0.0303,-0.273912,2.499,2.51415
-0.0221889,-0.273912,2.499,2.51406
-0.0140778,-0.273912,2.499,2.51401
-0.00596664,-0.273912,2.499,2.51397
0.00214449,-0.273912,2.499,2.51397
0.0102556,-0.273912,2.499,2.51399
0.0183668,-0.273912,2.499,2.51403
0.0264779,-0.273912,2.499,2.51411
0.034589,-0.273912,2.499,2.5142
0.0427002,-0.273912,2.499,2.51433
0.0508113,-0.273912,2.499,2.51448
0.0589224,-0.273912,2.499,2.51466
0.0675164,-0.275885,2.517,2.53297
0.0751447,-0.273912,2.499,2.51509
0.0832558,-0.273912,2.499,2.51535
0.091367,-0.273912,2.499,2.51563
0.0994781,-0.273912,2.499,2.51593
0.107589,-0.273912,2.499,2.51627
0.1157,-0.273912,2.499,2.51663
0.123811,-0.273912,2.499,2.51701
0.131923,-0.273912,2.499,2.51743
0.140034,-0.273912,2.499,2.51786
0.147078,-0.271939,2.481,2.50019
0.155131,-0.271939,2.481,2.50068
0.163183,-0.271939,2.481,2.50119
0.171236,-0.271939,2.481,2.50173
0.179289,-0.271939,2.481,2.50229
0.187341,-0.271939,2.481,2.50288
0.196812,-0.273912,2.499,2.52166
0.204923,-0.273912,2.499,2.52231
0.213034,-0.273912,2.499,2.52298
0.221145,-0.273912,2.499,2.52367
0.229256,-0.273912,2.499,2.5244
0.237367,-0.273912,2.499,2.52515
0.245479,-0.273912,2.499,2.52592
0.255416,-0.275885,2.517,2.54492
0.263586,-0.275885,2.517,2.54576
0.271755,-0.275885,2.517,2.54662
0.279925,-0.275885,2.517,2.5475
0.288094,-0.275885,2.517,2.54841
0.2985,-0.277967,2.536,2.56859
0.306732,-0.277967,2.536,2.56956
0.314963,-0.277967,2.536,2.57056
0.320773,-0.275885,2.517,2.55231
0.328942,-0.275885,2.517,2.55335
0.337112,-0.275885,2.517,2.55442
0.345281,-0.275885,2.517,2.55551
0.353451,-0.275885,2.517,2.55662
0.36162,-0.275885,2.517,2.55777
0.36979,-0.275885,2.517,2.55893
0.37796,-0.275885,2.517,2.56013
0.386129,-0.275885,2.517,2.56135
0.394299,-0.275885,2.517,2.56259
0.402468,-0.275885,2.517,2.56386
0.410638,-0.275885,2.517,2.56516
0.418807,-0.275885,2.517,2.56648
0.426977,-0.275885,2.517,2.56782
0.435146,-0.275885,2.517,2.56919
0.443316,-0.275885,2.517,2.57059
0.451486,-0.275885,2.517,2.57201
0.459655,-0.275885,2.517,2.57346
0.467825,-0.275885,2.517,2.57493
0.475994,-0.275885,2.517,2.57643
0.484164,-0.275885,2.517,2.57795
0.492333,-0.275885,2.517,2.57949
0.500503,-0.275885,2.517,2.58107
0.505035,-0.273912,2.499,2.56419
0.513146,-0.273912,2.499,2.5658
0.521257,-0.273912,2.499,2.56744
0.529368,-0.273912,2.499,2.5691
0.537479,-0.273912,2.499,2.57078
0.54559,-0.273912,2.499,2.57249
0.553702,-0.273912,2.499,2.57422
0.565859,-0.275885,2.517,2.59453
0.574029,-0.275885,2.517,2.59633
0.582199,-0.275885,2.517,2.59815
0.590368,-0.275885,2.517,2.59999
0.598538,-0.275885,2.517,2.60186
0.606707,-0.275885,2.517,2.60375
0.614877,-0.275885,2.517,2.60566
0.623046,-0.275885,2.517,2.6076
0.626702,-0.273912,2.499,2.5909
0.634813,-0.273912,2.499,2.59288
0.642924,-0.273912,2.499,2.59488
0.651035,-0.273912,2.499,2.5969
0.659146,-0.273912,2.499,2.59894
0.667257,-0.273912,2.499,2.60101
0.675369,-0.273912,2.499,2.6031
0.68348,-0.273912,2.499,2.60522
0.691591,-0.273912,2.499,2.60736
0.699702,-0.273912,2.499,2.60952
0.707813,-0.273912,2.499,2.61171
0.715924,-0.273912,2.499,2.61392
0.724035,-0.273912,2.499,2.61615
0.732147,-0.273912,2.499,2.61841
0.740258,-0.273912,2.499,2.62069
0.748369,-0.273912,2.499,2.62299
0.75648,-0.273912,2.499,2.62532
0.764591,-0.273912,2.499,2.62767
0.772702,-0.273912,2.499,2.63004
0.786437,-0.275885,2.517,2.65139
0.794607,-0.275885,2.517,2.65383
0.802777,-0.275885,2.517,2.65629
0.810946,-0.275885,2.517,2.65877
0.819116,-0.275885,2.517,2.66127
0.827285,-0.275885,2.517,2.66379
0.835455,-0.275885,2.517,2.66634
0.843624,-0.275885,2.517,2.66891
0.851794,-0.275885,2.517,2.67151
0.859963,-0.275885,2.517,2.67412
0.868133,-0.275885,2.517,2.67676
0.876303,-0.275885,2.517,2.67942
0.878147,-0.273912,2.499,2.66293
0.886258,-0.273912,2.499,2.66561
0.894369,-0.273912,2.499,2.66832
0.90248,-0.273912,2.499,2.67105
0.910591,-0.273912,2.499,2.6738
0.918703,-0.273912,2.499,2.67657
0.920138,-0.271939,2.481,2.66007
0.928191,-0.271939,2.481,2.66287
0.936243,-0.271939,2.481,2.66568
0.944296,-0.271939,2.481,2.66852
0.952349,-0.271939,2.481,2.67138
0.960401,-0.271939,2.481,2.67426
0.968454,-0.271939,2.481,2.67717
0.976507,-0.271939,2.481,2.68009
0.98456,-0.271939,2.481,2.68303
0.992612,-0.271939,2.481,2.686
1.00067,-0.271939,2.481,2.68899
1.00872,-0.271939,2.481,2.69199
1.01677,-0.271939,2.481,2.69502
1.02482,-0.271939,2.481,2.69807
nan,nan,nan,NaN
nan,nan,nan,NaN
nan,nan,nan,NaN
nan,nan,nan,NaN
nan,nan,nan,NaN
nan,nan,nan,NaN
nan,nan,nan,NaN
nan,nan,nan,NaN
nan,nan,nan,NaN
nan,nan,nan,NaN
nan,nan,nan,NaN
nan,nan,nan,NaN
nan,nan,nan,NaN
nan,nan,nan,NaN
1.73712,-0.412348,3.762,4.16416
1.74933,-0.412348,3.762,4.16927
1.76154,-0.412348,3.762,4.17441
1.77375,-0.412348,3.762,4.17958
1.78596,-0.412348,3.762,4.18477
1.79817,-0.412348,3.762,4.19
1.81038,-0.412348,3.762,4.19526
1.84294,-0.416951,3.804,4.24744
1.85529,-0.416951,3.804,4.25281
1.86764,-0.416951,3.804,4.25821
1.85923,-0.412348,3.762,4.21656
1.87144,-0.412348,3.762,4.22196
1.86312,-0.407854,3.721,4.18132
1.8752,-0.407854,3.721,4.18671
1.88727,-0.407854,3.721,4.19213
1.87893,-0.403469,3.681,4.15246
1.87085,-0.399194,3.642,4.11383
1.88267,-0.399194,3.642,4.11922
1.87472,-0.395029,3.604,4.0816
1.88642,-0.395029,3.604,4.08699
1.89812,-0.395029,3.604,4.0924
1.88968,-0.390864,3.566,4.05463
1.90125,-0.390864,3.566,4.06004
1.91283,-0.390864,3.566,4.06547
1.94491,-0.395029,3.604,4.11431
1.95661,-0.395029,3.604,4.11985
1.9683,-0.395029,3.604,4.12542
1.98,-0.395029,3.604,4.13101
1.9917,-0.395029,3.604,4.13663
2.0034,-0.395029,3.604,4.14228
2.0151,-0.395029,3.604,4.14795
2.02679,-0.395029,3.604,4.15364
2.017,-0.390864,3.566,4.11551
2.02857,-0.390864,3.566,4.12119
2.04015,-0.390864,3.566,4.1269
2.05172,-0.390864,3.566,4.13264
2.06329,-0.390864,3.566,4.1384
2.05334,-0.386809,3.529,4.10118
2.04373,-0.382863,3.493,4.06503
2.05507,-0.382863,3.493,4.07074
2.06641,-0.382863,3.493,4.07648
2.03611,-0.37519,3.423,4.00043
2.02688,-0.371464,3.389,3.9663
2.03788,-0.371464,3.389,3.97193
2.00958,-0.364339,3.324,3.9013
2.00092,-0.360831,3.292,3.86926
2.01161,-0.360831,3.292,3.87479
1.96516,-0.350638,3.199,3.77073
1.95764,-0.347459,3.17,3.74192
1.96793,-0.347459,3.17,3.74731
1.92455,-0.338033,3.084,3.65092
1.90068,-0.332114,3.03,3.59219
1.91052,-0.332114,3.03,3.5974
1.88676,-0.326305,2.977,3.53962
1.89642,-0.326305,2.977,3.54478
1.90609,-0.326305,2.977,3.54995
1.88293,-0.320715,2.926,3.49425
1.89243,-0.320715,2.926,3.49937
1.87007,-0.315344,2.877,3.44583
1.87941,-0.315344,2.877,3.45091
1.87299,-0.312713,2.853,3.42717
1.85125,-0.307562,2.806,3.3757
1.86035,-0.307562,2.806,3.3807
1.85414,-0.305041,2.783,3.35797
1.83371,-0.300218,2.739,3.3098
1.8426,-0.300218,2.739,3.31473
1.83662,-0.297807,2.717,3.29302
1.81691,-0.293203,2.675,3.24696
-2.19913,-0.337173,3.17,3.87282
-2.18884,-0.337173,3.17,3.86699
-2.17855,-0.337173,3.17,3.86118
-2.16827,-0.337173,3.17,3.85538
-2.17772,-0.340258,3.199,3.88482
-2.16734,-0.340258,3.199,3.87901
-2.15695,-0.340258,3.199,3.87322
-2.14657,-0.340258,3.199,3.86745
-2.15689,-0.343555,3.23,3.89911
-2.1464,-0.343555,3.23,3.89332
-2.13592,-0.343555,3.23,3.88755
-2.14518,-0.346746,3.26,3.91786
-2.15555,-0.35015,3.292,3.95048
-2.14486,-0.35015,3.292,3.94466
-2.13418,-0.35015,3.292,3.93886
-2.12349,-0.35015,3.292,3.93308
-2.11281,-0.35015,3.292,3.92732
-2.10212,-0.35015,3.292,3.92158
-2.09144,-0.35015,3.292,3.91586
-2.08075,-0.35015,3.292,3.91017
-2.09019,-0.353553,3.324,3.94244
-2.0794,-0.353553,3.324,3.93674
-2.06861,-0.353553,3.324,3.93105
-2.05782,-0.353553,3.324,3.92538
-2.06674,-0.356957,3.356,3.95747
-2.05585,-0.356957,3.356,3.95179
-2.02546,-0.353553,3.324,3.90851
-2.01467,-0.353553,3.324,3.90293
-2.02317,-0.356957,3.356,3.93489
-2.01228,-0.356957,3.356,3.9293
-2.00138,-0.356957,3.356,3.92374
nan,nan,nan,NaN
nan,nan,nan,NaN
nan,nan,nan,NaN
nan,nan,nan,NaN
nan,nan,nan,NaN
nan,nan,nan,NaN
nan,nan,nan,NaN
nan,nan,nan,NaN
nan,nan,nan,NaN
nan,nan,nan,NaN
nan,nan,nan,NaN
nan,nan,nan,NaN
nan,nan,nan,NaN
nan,nan,nan,NaN
nan,nan,nan,NaN
nan,nan,nan,NaN
nan,nan,nan,NaN
nan,nan,nan,NaN
nan,nan,nan,NaN
nan,nan,nan,NaN
nan,nan,nan,NaN
nan,nan,nan,NaN
nan,nan,nan,NaN
nan,nan,nan,NaN
nan,nan,nan,NaN
nan,nan,nan,NaN
nan,nan,nan,NaN
nan,nan,nan,NaN
nan,nan,nan,NaN
nan,nan,nan,NaN
nan,nan,nan,NaN
-1.21302,-0.261974,2.463,2.75797
-1.20502,-0.261974,2.463,2.75447
-1.19703,-0.261974,2.463,2.75098
-1.18904,-0.261974,2.463,2.74751
-1.17241,-0.260059,2.445,2.724
-1.16447,-0.260059,2.445,2.7206
-1.15654,-0.260059,2.445,2.71721
-1.14062,-0.258251,2.428,2.69497
-1.13274,-0.258251,2.428,2.69165
-1.11698,-0.256443,2.411,2.66952
-1.10915,-0.256443,2.411,2.66625
-1.10133,-0.256443,2.411,2.66301
-1.0935,-0.256443,2.411,2.65978
-1.08568,-0.256443,2.411,2.65657
-1.07785,-0.256443,2.411,2.65338
-1.07003,-0.256443,2.411,2.65021
-1.05471,-0.254635,2.394,2.6284
-1.04694,-0.254635,2.394,2.62529
-1.03917,-0.254635,2.394,2.6222
-1.0314,-0.254635,2.394,2.61913
-1.0309,-0.256443,2.411,2.63466
-1.02307,-0.256443,2.411,2.63161
-1.01525,-0.256443,2.411,2.62858
-1.00742,-0.256443,2.411,2.62556
-0.999596,-0.256443,2.411,2.62257
-0.99177,-0.256443,2.411,2.6196
-0.983945,-0.256443,2.411,2.61665
-0.983002,-0.258251,2.428,2.63214
-0.975121,-0.258251,2.428,2.62921
-0.967241,-0.258251,2.428,2.6263
-0.95936,-0.258251,2.428,2.6234
-0.951479,-0.258251,2.428,2.62053
-0.943599,-0.258251,2.428,2.61768
-0.929166,-0.256443,2.411,2.59654
-0.921341,-0.256443,2.411,2.59375
-0.913515,-0.256443,2.411,2.59098
-0.90569,-0.256443,2.411,2.58823
-0.904195,-0.258251,2.428,2.60374
-0.896315,-0.258251,2.428,2.60101
-0.888434,-0.258251,2.428,2.59831
-0.880553,-0.258251,2.428,2.59562
-0.872672,-0.258251,2.428,2.59296
-0.858737,-0.256443,2.411,2.57218
-0.850911,-0.256443,2.411,2.56958
-0.843086,-0.256443,2.411,2.567
-0.83526,-0.256443,2.411,2.56444
-0.833269,-0.258251,2.428,2.57996
-0.819609,-0.256443,2.411,2.55938
-0.811784,-0.256443,2.411,2.55689
-0.803958,-0.256443,2.411,2.55441
-0.796133,-0.256443,2.411,2.55196
-0.793866,-0.258251,2.428,2.56751
-0.785985,-0.258251,2.428,2.56508
-0.778104,-0.258251,2.428,2.56268
-0.770224,-0.258251,2.428,2.5603
-0.762343,-0.258251,2.428,2.55794
-0.759745,-0.260059,2.445,2.57349
-0.751809,-0.260059,2.445,2.57116
-0.743873,-0.260059,2.445,2.56885
-0.735937,-0.260059,2.445,2.56657
-0.728001,-0.260059,2.445,2.5643
-0.720065,-0.260059,2.445,2.56206
-0.712129,-0.260059,2.445,2.55984
-0.704194,-0.260059,2.445,2.55764
-0.696258,-0.260059,2.445,2.55547
-0.688322,-0.260059,2.445,2.55332
-0.680386,-0.260059,2.445,2.55119
-0.67245,-0.260059,2.445,2.54909
-0.664514,-0.260059,2.445,2.54701
-0.656578,-0.260059,2.445,2.54495
-0.648643,-0.260059,2.445,2.54291
-0.645424,-0.261974,2.463,2.5596
-0.637429,-0.261974,2.463,2.5576
-0.629435,-0.261974,2.463,2.55562
-0.621441,-0.261974,2.463,2.55366
-0.613446,-0.261974,2.463,2.55173
-0.605452,-0.261974,2.463,2.54982
-0.597458,-0.261974,2.463,2.54793
-0.589464,-0.261974,2.463,2.54607
-0.581469,-0.261974,2.463,2.54423
-0.573475,-0.261974,2.463,2.54241
-0.565481,-0.261974,2.463,2.54062
-0.557486,-0.261974,2.463,2.53886
-0.553508,-0.263888,2.481,2.55565
-0.545455,-0.263888,2.481,2.55392
-0.537403,-0.263888,2.481,2.55221
-0.52935,-0.263888,2.481,2.55053
-0.521297,-0.263888,2.481,2.54887
-0.513244,-0.263888,2.481,2.54724
-0.505192,-0.263888,2.481,2.54563
-0.497139,-0.263888,2.481,2.54404
-0.489086,-0.263888,2.481,2.54248
-0.481034,-0.263888,2.481,2.54094
-0.472981,-0.263888,2.481,2.53943
-0.464928,-0.263888,2.481,2.53794
-0.456875,-0.263888,2.481,2.53648
-0.445566,-0.261974,2.463,2.51665
-0.437572,-0.261974,2.463,2.51525
-0.429578,-0.261974,2.463,2.51387
-0.421584,-0.261974,2.463,2.51252
-0.413589,-0.261974,2.463,2.51119
-0.405595,-0.261974,2.463,2.50988
-0.397601,-0.261974,2.463,2.5086
-0.389606,-0.261974,2.463,2.50735
-0.381612,-0.261974,2.463,2.50612
-0.370887,-0.260059,2.445,2.48661
-0.362952,-0.260059,2.445,2.48544
-0.355016,-0.260059,2.445,2.48429
-0.34708,-0.260059,2.445,2.48317
-0.339144,-0.260059,2.445,2.48207
-0.331208,-0.260059,2.445,2.481
-0.323272,-0.260059,2.445,2.47995
-0.315336,-0.260059,2.445,2.47893
-0.3074,-0.260059,2.445,2.47793
-0.299465,-0.260059,2.445,2.47696
-0.291529,-0.260059,2.445,2.47601
-0.283593,-0.260059,2.445,2.47509
-0.275657,-0.260059,2.445,2.4742
-0.267721,-0.260059,2.445,2.47332
-0.259785,-0.260059,2.445,2.47248
-0.251849,-0.260059,2.445,2.47166
-0.243914,-0.260059,2.445,2.47086
-0.235978,-0.260059,2.445,2.47009
-0.228042,-0.260059,2.445,2.46934
-0.220106,-0.260059,2.445,2.46862
-0.21217,-0.260059,2.445,2.46793
-0.205738,-0.261974,2.463,2.48542
-0.197744,-0.261974,2.463,2.48477
-0.189749,-0.261974,2.463,2.48415
-0.181755,-0.261974,2.463,2.48355
-0.173761,-0.261974,2.463,2.48298
-0.165766,-0.261974,2.463,2.48243
-0.157772,-0.261974,2.463,2.48191
-0.149778,-0.261974,2.463,2.48142
-0.141784,-0.261974,2.463,2.48095
-0.133789,-0.261974,2.463,2.4805
-0.126714,-0.263888,2.481,2.49821
-0.118662,-0.263888,2.481,2.49782
-0.110609,-0.263888,2.481,2.49745
-0.102556,-0.263888,2.481,2.4971
-0.0945035,-0.263888,2.481,2.49678
-0.0864508,-0.263888,2.481,2.49649
-0.078398,-0.263888,2.481,2.49623
-0.0703453,-0.263888,2.481,2.49599
-0.0622926,-0.263888,2.481,2.49577
-0.0546334,-0.265803,2.499,2.51369
-0.0465223,-0.265803,2.499,2.51353
-0.0384112,-0.265803,2.499,2.51339
-0.0303,-0.265803,2.499,2.51328
-0.0221889,-0.265803,2.499,2.51319
-0.0140778,-0.265803,2.499,2.51314
-0.00596664,-0.265803,2.499,2.5131
0.00214449,-0.265803,2.499,2.5131
0.0102556,-0.265803,2.499,2.51312
0.0183668,-0.265803,2.499,2.51316
0.0264779,-0.265803,2.499,2.51324
0.034589,-0.265803,2.499,2.51333
0.0427002,-0.265803,2.499,2.51346
0.0508113,-0.265803,2.499,2.51361
0.0589224,-0.265803,2.499,2.51379
0.0675164,-0.267718,2.517,2.5321
0.0751447,-0.265803,2.499,2.51422
0.0832558,-0.265803,2.499,2.51447
0.091367,-0.265803,2.499,2.51476
0.0994781,-0.265803,2.499,2.51506
0.107589,-0.265803,2.499,2.5154
0.1157,-0.265803,2.499,2.51576
0.123811,-0.265803,2.499,2.51614
0.131923,-0.265803,2.499,2.51656
0.140034,-0.265803,2.499,2.51699
0.148145,-0.265803,2.499,2.51746
0.156256,-0.265803,2.499,2.51795
0.164367,-0.265803,2.499,2.51847
0.172478,-0.265803,2.499,2.51901
0.180589,-0.265803,2.499,2.51958
0.188701,-0.265803,2.499,2.52017
0.196812,-0.265803,2.499,2.52079
0.204923,-0.265803,2.499,2.52144
0.214568,-0.267718,2.517,2.54028
0.222738,-0.267718,2.517,2.54098
0.230908,-0.267718,2.517,2.54171
0.239077,-0.267718,2.517,2.54246
0.247247,-0.267718,2.517,2.54324
0.255416,-0.267718,2.517,2.54405
0.263586,-0.267718,2.517,2.54489
0.271755,-0.267718,2.517,2.54574
0.282038,-0.269738,2.536,2.56585
0.290269,-0.269738,2.536,2.56677
0.2985,-0.269738,2.536,2.56771
0.306732,-0.269738,2.536,2.56868
0.314963,-0.269738,2.536,2.56968
0.323194,-0.269738,2.536,2.5707
0.331425,-0.269738,2.536,2.57175
0.339657,-0.269738,2.536,2.57282
0.347888,-0.269738,2.536,2.57392
0.353451,-0.267718,2.517,2.55576
0.36162,-0.267718,2.517,2.5569
0.36979,-0.267718,2.517,2.55807
0.37796,-0.267718,2.517,2.55926
0.386129,-0.267718,2.517,2.56048
0.394299,-0.267718,2.517,2.56172
0.402468,-0.267718,2.517,2.56299
0.410638,-0.267718,2.517,2.56429
0.418807,-0.267718,2.517,2.56561
0.426977,-0.267718,2.517,2.56696
0.435146,-0.267718,2.517,2.56833
0.443316,-0.267718,2.517,2.56973
0.451486,-0.267718,2.517,2.57115
0.459655,-0.267718,2.517,2.5726
0.467825,-0.267718,2.517,2.57407
0.475994,-0.267718,2.517,2.57556
0.484164,-0.267718,2.517,2.57709
0.492333,-0.267718,2.517,2.57863
0.500503,-0.267718,2.517,2.58021
0.505035,-0.265803,2.499,2.56334
0.513146,-0.265803,2.499,2.56495
0.521257,-0.265803,2.499,2.56659
0.529368,-0.265803,2.499,2.56825
0.537479,-0.265803,2.499,2.56993
0.54559,-0.265803,2.499,2.57164
0.553702,-0.265803,2.499,2.57337
0.561813,-0.265803,2.499,2.57513
0.569924,-0.265803,2.499,2.57691
0.578035,-0.265803,2.499,2.57872
0.586146,-0.265803,2.499,2.58055
0.594257,-0.265803,2.499,2.5824
0.602368,-0.265803,2.499,2.58428
0.610479,-0.265803,2.499,2.58618
0.618591,-0.265803,2.499,2.58811
0.626702,-0.265803,2.499,2.59006
0.634813,-0.265803,2.499,2.59203
0.638293,-0.263888,2.481,2.57535
0.646346,-0.263888,2.481,2.57736
0.654399,-0.263888,2.481,2.57939
0.662451,-0.263888,2.481,2.58144
0.670504,-0.263888,2.481,2.58352
0.678557,-0.263888,2.481,2.58562
0.686609,-0.263888,2.481,2.58775
0.694662,-0.263888,2.481,2.58989
0.702715,-0.263888,2.481,2.59207
0.710768,-0.263888,2.481,2.59426
0.724035,-0.265803,2.499,2.61532
0.732147,-0.265803,2.499,2.61757
0.740258,-0.265803,2.499,2.61985
0.748369,-0.265803,2.499,2.62216
0.75648,-0.265803,2.499,2.62448
0.764591,-0.265803,2.499,2.62683
0.772702,-0.265803,2.499,2.62921
0.780813,-0.265803,2.499,2.6316
0.788924,-0.265803,2.499,2.63402
0.797036,-0.265803,2.499,2.63646
0.810946,-0.267718,2.517,2.65793
0.819116,-0.267718,2.517,2.66043
0.827285,-0.267718,2.517,2.66296
0.835455,-0.267718,2.517,2.66551
0.843624,-0.267718,2.517,2.66808
0.845702,-0.265803,2.499,2.65158
0.853814,-0.265803,2.499,2.65418
0.868133,-0.267718,2.517,2.67593
0.876303,-0.267718,2.517,2.67859
0.878147,-0.265803,2.499,2.6621
0.886258,-0.265803,2.499,2.66479
0.894369,-0.265803,2.499,2.6675
0.90248,-0.265803,2.499,2.67023
0.910591,-0.265803,2.499,2.67298
0.912085,-0.263888,2.481,2.65648
0.920138,-0.263888,2.481,2.65926
0.928191,-0.263888,2.481,2.66206
0.936243,-0.263888,2.481,2.66487
0.944296,-0.263888,2.481,2.66771
0.952349,-0.263888,2.481,2.67057
0.960401,-0.263888,2.481,2.67346
0.961428,-0.261974,2.463,2.65694
0.969422,-0.261974,2.463,2.65985
0.977417,-0.261974,2.463,2.66277
0.985411,-0.261974,2.463,2.66571
0.993405,-0.261974,2.463,2.66868
1.0014,-0.261974,2.463,2.67167
1.00939,-0.261974,2.463,2.67467
1.02482,-0.263888,2.481,2.69727
nan,nan,nan,NaN
nan,nan,nan,NaN
nan,nan,nan,NaN
nan,nan,nan,NaN
nan,nan,nan,NaN
nan,nan,nan,NaN
nan,nan,nan,NaN
nan,nan,nan,NaN
nan,nan,nan,NaN
nan,nan,nan,NaN
nan,nan,nan,NaN
nan,nan,nan,NaN
nan,nan,nan,NaN
nan,nan,nan,NaN
1.73712,-0.40014,3.762,4.16297
1.74933,-0.40014,3.762,4.16808
1.76154,-0.40014,3.762,4.17322
1.77375,-0.40014,3.762,4.17839
1.78596,-0.40014,3.762,4.18359
1.79817,-0.40014,3.762,4.18882
1.8306,-0.404608,3.804,4.2409
1.86329,-0.409075,3.846,4.29312
1.85529,-0.404608,3.804,4.25161
1.86764,-0.404608,3.804,4.25702
1.87998,-0.404608,3.804,4.26245
1.89233,-0.404608,3.804,4.26791
1.88365,-0.40014,3.762,4.22621
1.89586,-0.40014,3.762,4.23167
1.90807,-0.40014,3.762,4.23715
1.89935,-0.39578,3.721,4.19643
1.91143,-0.39578,3.721,4.20191
nan,nan,nan,NaN
nan,nan,nan,NaN
1.88642,-0.383335,3.604,4.08587
1.89812,-0.383335,3.604,4.09129
1.90982,-0.383335,3.604,4.09673
1.92151,-0.383335,3.604,4.10219
1.93321,-0.383335,3.604,4.10768
1.94491,-0.383335,3.604,4.1132
1.95661,-0.383335,3.604,4.11875
1.98906,-0.387377,3.642,4.1678
2.00088,-0.387377,3.642,4.17346
1.9917,-0.383335,3.604,4.13553
2.0034,-0.383335,3.604,4.14118
2.03634,-0.387377,3.642,4.19057
2.02679,-0.383335,3.604,4.15255
2.017,-0.379293,3.566,4.11443
2.02857,-0.379293,3.566,4.12011
2.04015,-0.379293,3.566,4.12582
2.03043,-0.375358,3.529,4.08869
2.04189,-0.375358,3.529,4.09439
2.05334,-0.375358,3.529,4.10012
2.04373,-0.371529,3.493,4.06398
2.03448,-0.367806,3.458,4.02891
2.0457,-0.367806,3.458,4.03459
2.03611,-0.364083,3.423,3.9994
2.02688,-0.360467,3.389,3.96529
2.03788,-0.360467,3.389,3.97092
2.00958,-0.353553,3.324,3.90031
2.00092,-0.35015,3.292,3.86828
2.01161,-0.35015,3.292,3.87381
1.96516,-0.340258,3.199,3.76978
1.95764,-0.337173,3.17,3.74098
1.96793,-0.337173,3.17,3.74637
1.92455,-0.328026,3.084,3.65001
1.90068,-0.322282,3.03,3.59129
1.91052,-0.322282,3.03,3.5965
1.88676,-0.316645,2.977,3.53874
1.87986,-0.313879,2.951,3.51295
1.88944,-0.313879,2.951,3.51808
1.88293,-0.31122,2.926,3.49339
1.89243,-0.31122,2.926,3.49852
1.88567,-0.308561,2.901,3.47373
1.89509,-0.308561,2.901,3.47885
1.87299,-0.303456,2.853,3.42634
1.85125,-0.298457,2.806,3.37488
1.86035,-0.298457,2.806,3.37989
1.85414,-0.29601,2.783,3.35716
1.84844,-0.29367,2.761,3.33558
1.8574,-0.29367,2.761,3.34056
1.83662,-0.28899,2.717,3.29223
1.83118,-0.286757,2.696,3.27168
-2.19913,-0.326887,3.17,3.87194
-2.18884,-0.326887,3.17,3.86611
-2.17855,-0.326887,3.17,3.86029
-2.16827,-0.326887,3.17,3.85449
-2.17772,-0.329877,3.199,3.88393
-2.16734,-0.329877,3.199,3.87811
-2.15695,-0.329877,3.199,3.87232
-2.14657,-0.329877,3.199,3.86655
-2.15689,-0.333074,3.23,3.8982
-2.1464,-0.333074,3.23,3.89241
-2.13592,-0.333074,3.23,3.88664
-2.14518,-0.336168,3.26,3.91694
-2.15555,-0.339467,3.292,3.94954
-2.14486,-0.339467,3.292,3.94372
-2.13418,-0.339467,3.292,3.93792
-2.12349,-0.339467,3.292,3.93214
-2.11281,-0.339467,3.292,3.92638
-2.10212,-0.339467,3.292,3.92064
-2.09144,-0.339467,3.292,3.91492
-2.08075,-0.339467,3.292,3.90922
-2.09019,-0.342767,3.324,3.94149
-2.0794,-0.342767,3.324,3.93578
-2.06861,-0.342767,3.324,3.93009
-2.03801,-0.339467,3.292,3.88664
-2.02733,-0.339467,3.292,3.88105
-2.01664,-0.339467,3.292,3.87548
-2.00596,-0.339467,3.292,3.86993
-1.99527,-0.339467,3.292,3.8644
-1.98459,-0.339467,3.292,3.8589
-1.9739,-0.339467,3.292,3.85341
-1.96322,-0.339467,3.292,3.84795
nan,nan,nan,NaN
nan,nan,nan,NaN
nan,nan,nan,NaN
nan,nan,nan,NaN
nan,nan,nan,NaN
nan,nan,nan,NaN
nan,nan,nan,NaN
nan,nan,nan,NaN
nan,nan,nan,NaN
nan,nan,nan,NaN
nan,nan,nan,NaN
nan,nan,nan,NaN
nan,nan,nan,NaN
nan,nan,nan,NaN
nan,nan,nan,NaN
nan,nan,nan,NaN
nan,nan,nan,NaN
nan,nan,nan,NaN
nan,nan,nan,NaN
nan,nan,nan,NaN
nan,nan,nan,NaN
nan,nan,nan,NaN
nan,nan,nan,NaN
nan,nan,nan,NaN
nan,nan,nan,NaN
nan,nan,nan,NaN
nan,nan,nan,NaN
nan,nan,nan,NaN
nan,nan,nan,NaN
nan,nan,nan,NaN
nan,nan,nan,NaN
-1.21302,-0.253982,2.463,2.75722
-1.20502,-0.253982,2.463,2.75372
-1.18828,-0.252126,2.445,2.73013
-1.18035,-0.252126,2.445,2.72668
-1.17241,-0.252126,2.445,2.72326
-1.16447,-0.252126,2.445,2.71985
-1.15654,-0.252126,2.445,2.71646
-1.14062,-0.250373,2.428,2.69423
-1.13274,-0.250373,2.428,2.6909
-1.11698,-0.24862,2.411,2.66878
-1.10915,-0.24862,2.411,2.66551
-1.10133,-0.24862,2.411,2.66227
-1.0935,-0.24862,2.411,2.65904
-1.08568,-0.24862,2.411,2.65583
-1.07785,-0.24862,2.411,2.65264
-1.07003,-0.24862,2.411,2.64947
-1.05471,-0.246867,2.394,2.62766
-1.04694,-0.246867,2.394,2.62455
-1.03917,-0.246867,2.394,2.62146
-1.0314,-0.246867,2.394,2.61839
-1.0309,-0.24862,2.411,2.63391
-1.02307,-0.24862,2.411,2.63086
-1.01525,-0.24862,2.411,2.62782
-1.00742,-0.24862,2.411,2.62481
-0.999596,-0.24862,2.411,2.62182
-0.99177,-0.24862,2.411,2.61884
-0.983945,-0.24862,2.411,2.61589
-0.983002,-0.250373,2.428,2.63138
-0.975121,-0.250373,2.428,2.62845
-0.967241,-0.250373,2.428,2.62553
-0.95936,-0.250373,2.428,2.62264
-0.951479,-0.250373,2.428,2.61977
-0.943599,-0.250373,2.428,2.61692
-0.929166,-0.24862,2.411,2.59578
-0.921341,-0.24862,2.411,2.59299
-0.913515,-0.24862,2.411,2.59022
-0.90569,-0.24862,2.411,2.58747
-0.904195,-0.250373,2.428,2.60297
-0.896315,-0.250373,2.428,2.60024
-0.888434,-0.250373,2.428,2.59753
-0.874388,-0.24862,2.411,2.57668
-0.866562,-0.24862,2.411,2.57404
-0.858737,-0.24862,2.411,2.57141
-0.850911,-0.24862,2.411,2.56881
-0.843086,-0.24862,2.411,2.56623
-0.83526,-0.24862,2.411,2.56367
-0.827435,-0.24862,2.411,2.56113
-0.819609,-0.24862,2.411,2.55861
-0.811784,-0.24862,2.411,2.55612
-0.803958,-0.24862,2.411,2.55364
-0.796133,-0.24862,2.411,2.55119
-0.793866,-0.250373,2.428,2.56673
-0.785985,-0.250373,2.428,2.5643
-0.778104,-0.250373,2.428,2.5619
-0.770224,-0.250373,2.428,2.55951
-0.762343,-0.250373,2.428,2.55715
-0.754462,-0.250373,2.428,2.55482
-0.751809,-0.252126,2.445,2.57037
-0.743873,-0.252126,2.445,2.56806
-0.735937,-0.252126,2.445,2.56577
-0.728001,-0.252126,2.445,2.56351
-0.720065,-0.252126,2.445,2.56127
-0.712129,-0.252126,2.445,2.55905
-0.704194,-0.252126,2.445,2.55685
-0.696258,-0.252126,2.445,2.55468
-0.688322,-0.252126,2.445,2.55252
-0.680386,-0.252126,2.445,2.5504
-0.67245,-0.252126,2.445,2.54829
-0.664514,-0.252126,2.445,2.54621
-0.656578,-0.252126,2.445,2.54415
-0.648643,-0.252126,2.445,2.54211
-0.640707,-0.252126,2.445,2.5401
-0.632771,-0.252126,2.445,2.53811
-0.624835,-0.252126,2.445,2.53614
-0.616899,-0.252126,2.445,2.5342
-0.608963,-0.252126,2.445,2.53228
-0.601027,-0.252126,2.445,2.53038
-0.593092,-0.252126,2.445,2.52851
-0.585156,-0.252126,2.445,2.52666
-0.57722,-0.252126,2.445,2.52483
-0.569284,-0.252126,2.445,2.52303
-0.565481,-0.253982,2.463,2.53981
-0.557486,-0.253982,2.463,2.53804
-0.549492,-0.253982,2.463,2.5363
-0.541498,-0.253982,2.463,2.53458
-0.533504,-0.253982,2.463,2.53288
-0.525509,-0.253982,2.463,2.53121
-0.517515,-0.253982,2.463,2.52956
-0.509521,-0.253982,2.463,2.52794
-0.501526,-0.253982,2.463,2.52634
-0.493532,-0.253982,2.463,2.52477
-0.485538,-0.253982,2.463,2.52322
-0.477544,-0.253982,2.463,2.52169
-0.469549,-0.253982,2.463,2.52019
-0.461555,-0.253982,2.463,2.51871
-0.453561,-0.253982,2.463,2.51726
-0.445566,-0.253982,2.463,2.51583
-0.437572,-0.253982,2.463,2.51443
-0.426438,-0.252126,2.445,2.49468
-0.418503,-0.252126,2.445,2.49334
-0.413589,-0.253982,2.463,2.51036
-0.405595,-0.253982,2.463,2.50906
-0.397601,-0.253982,2.463,2.50778
-0.389606,-0.253982,2.463,2.50653
-0.381612,-0.253982,2.463,2.5053
-0.370887,-0.252126,2.445,2.48579
-0.362952,-0.252126,2.445,2.48462
-0.355016,-0.252126,2.445,2.48347
-0.34708,-0.252126,2.445,2.48235
-0.339144,-0.252126,2.445,2.48125
-0.331208,-0.252126,2.445,2.48018
-0.323272,-0.252126,2.445,2.47913
-0.315336,-0.252126,2.445,2.47811
-0.3074,-0.252126,2.445,2.47711
-0.299465,-0.252126,2.445,2.47614
-0.291529,-0.252126,2.445,2.47519
-0.283593,-0.252126,2.445,2.47427
-0.275657,-0.252126,2.445,2.47337
-0.267721,-0.252126,2.445,2.4725
-0.259785,-0.252126,2.445,2.47166
-0.251849,-0.252126,2.445,2.47083
-0.243914,-0.252126,2.445,2.47004
-0.235978,-0.252126,2.445,2.46927
-0.228042,-0.252126,2.445,2.46852
-0.220106,-0.252126,2.445,2.4678
-0.21217,-0.252126,2.445,2.46711
-0.205738,-0.253982,2.463,2.48459
-0.197744,-0.253982,2.463,2.48394
-0.189749,-0.253982,2.463,2.48332
-0.181755,-0.253982,2.463,2.48272
-0.173761,-0.253982,2.463,2.48215
-0.165766,-0.253982,2.463,2.4816
-0.157772,-0.253982,2.463,2.48108
-0.149778,-0.253982,2.463,2.48059
-0.141784,-0.253982,2.463,2.48012
-0.133789,-0.253982,2.463,2.47967
-0.126714,-0.255838,2.481,2.49737
-0.118662,-0.255838,2.481,2.49698
-0.110609,-0.255838,2.481,2.49661
-0.102556,-0.255838,2.481,2.49626
-0.0945035,-0.255838,2.481,2.49595
-0.0864508,-0.255838,2.481,2.49565
-0.078398,-0.255838,2.481,2.49539
-0.0703453,-0.255838,2.481,2.49515
-0.0622926,-0.255838,2.481,2.49493
-0.0546334,-0.257694,2.499,2.51285
-0.0465223,-0.257694,2.499,2.51268
-0.0384112,-0.257694,2.499,2.51255
-0.0303,-0.257694,2.499,2.51243
-0.0221889,-0.257694,2.499,2.51235
-0.0140778,-0.257694,2.499,2.51229
-0.00596664,-0.257694,2.499,2.51226
0.00214449,-0.257694,2.499,2.51225
0.0102556,-0.257694,2.499,2.51227
0.0183668,-0.257694,2.499,2.51232
0.0264779,-0.257694,2.499,2.51239
0.034589,-0.257694,2.499,2.51249
0.0427002,-0.257694,2.499,2.51261
0.0508113,-0.257694,2.499,2.51277
0.0589224,-0.257694,2.499,2.51294
0.0675164,-0.25955,2.517,2.53125
0.0751447,-0.257694,2.499,2.51338
0.0832558,-0.257694,2.499,2.51363
0.091367,-0.257694,2.499,2.51391
0.0994781,-0.257694,2.499,2.51422
0.107589,-0.257694,2.499,2.51455
0.1157,-0.257694,2.499,2.51491
0.123811,-0.257694,2.499,2.5153
0.131923,-0.257694,2.499,2.51571
0.140034,-0.257694,2.499,2.51615
0.148145,-0.257694,2.499,2.51662
0.156256,-0.257694,2.499,2.51711
0.164367,-0.257694,2.499,2.51762
0.172478,-0.257694,2.499,2.51817
0.180589,-0.257694,2.499,2.51873
0.188701,-0.257694,2.499,2.51933
0.196812,-0.257694,2.499,2.51995
0.204923,-0.257694,2.499,2.5206
0.214568,-0.25955,2.517,2.53943
0.222738,-0.25955,2.517,2.54013
0.230908,-0.25955,2.517,2.54086
0.239077,-0.25955,2.517,2.54162
0.247247,-0.25955,2.517,2.5424
0.255416,-0.25955,2.517,2.54321
0.263586,-0.25955,2.517,2.54404
0.271755,-0.25955,2.517,2.5449
0.282038,-0.26151,2.536,2.565
0.290269,-0.26151,2.536,2.56592
0.2985,-0.26151,2.536,2.56686
0.306732,-0.26151,2.536,2.56783
0.314963,-0.26151,2.536,2.56883
0.323194,-0.26151,2.536,2.56985
0.331425,-0.26151,2.536,2.5709
0.339657,-0.26151,2.536,2.57197
0.347888,-0.26151,2.536,2.57307
0.353451,-0.25955,2.517,2.55491
0.36162,-0.25955,2.517,2.55606
0.36979,-0.25955,2.517,2.55723
0.37796,-0.25955,2.517,2.55842
0.386129,-0.25955,2.517,2.55964
0.394299,-0.25955,2.517,2.56088
0.402468,-0.25955,2.517,2.56215
0.410638,-0.25955,2.517,2.56345
0.418807,-0.25955,2.517,2.56477
0.426977,-0.25955,2.517,2.56612
0.435146,-0.25955,2.517,2.56749
0.443316,-0.25955,2.517,2.56889
0.451486,-0.25955,2.517,2.57031
0.459655,-0.25955,2.517,2.57176
0.467825,-0.25955,2.517,2.57323
