-0.817508,0.0962796,2.428,2.56374
-0.809627,0.0962796,2.428,2.56124
-0.801746,0.0962796,2.428,2.55876
-0.793866,0.0962796,2.428,2.5563
-0.785985,0.0962796,2.428,2.55387
-0.778104,0.0962796,2.428,2.55145
-0.775616,0.0969537,2.445,2.56691
-0.767681,0.0969537,2.445,2.56452
-0.759745,0.0969537,2.445,2.56215
-0.751809,0.0969537,2.445,2.55981
-0.743873,0.0969537,2.445,2.55749
-0.741355,0.0976675,2.463,2.57401
-0.733361,0.0976675,2.463,2.57172
-0.725366,0.0976675,2.463,2.56945
-0.722615,0.0983813,2.481,2.58596
-0.714562,0.0983813,2.481,2.58373
-0.706509,0.0983813,2.481,2.58151
-0.703524,0.0990951,2.499,2.59803
-0.690404,0.0983813,2.481,2.57715
-0.682351,0.0983813,2.481,2.575
-0.674299,0.0983813,2.481,2.57288
-0.666246,0.0983813,2.481,2.57078
-0.658193,0.0983813,2.481,2.56871
-0.65014,0.0983813,2.481,2.56666
-0.642088,0.0983813,2.481,2.56463
-0.629435,0.0976675,2.463,2.54403
-0.621441,0.0976675,2.463,2.54207
-0.613446,0.0976675,2.463,2.54012
-0.601027,0.0969537,2.445,2.51965
-0.593092,0.0969537,2.445,2.51777
-0.585156,0.0969537,2.445,2.51592
-0.57722,0.0969537,2.445,2.51408
-0.569284,0.0969537,2.445,2.51227
-0.561348,0.0969537,2.445,2.51049
-0.553412,0.0969537,2.445,2.50872
-0.541684,0.0962796,2.428,2.48955
-0.533803,0.0962796,2.428,2.48785
-0.525922,0.0962796,2.428,2.48617
-0.518042,0.0962796,2.428,2.48452
-0.510161,0.0962796,2.428,2.48289
-0.50228,0.0962796,2.428,2.48128
-0.4944,0.0962796,2.428,2.47969
-0.489925,0.0969537,2.445,2.49549
-0.481989,0.0969537,2.445,2.49394
-0.474054,0.0969537,2.445,2.49242
-0.466118,0.0969537,2.445,2.49092
-0.461555,0.0976675,2.463,2.50778
-0.453561,0.0976675,2.463,2.50632
-0.445566,0.0976675,2.463,2.50488
-0.437572,0.0976675,2.463,2.50347
-0.432717,0.0983813,2.481,2.52037
-0.424665,0.0983813,2.481,2.519
-0.416612,0.0983813,2.481,2.51766
-0.408559,0.0983813,2.481,2.51634
-0.400506,0.0983813,2.481,2.51504
-0.395301,0.0990951,2.499,2.53201
-0.38719,0.0990951,2.499,2.53076
-0.381809,0.0998088,2.517,2.54775
-0.37364,0.0998088,2.517,2.54654
-0.36547,0.0998088,2.517,2.54535
-0.357301,0.0998088,2.517,2.54419
-0.349131,0.0998088,2.517,2.54306
-0.340961,0.0998088,2.517,2.54195
-0.332792,0.0998088,2.517,2.54087
-0.324622,0.0998088,2.517,2.53981
-0.316453,0.0998088,2.517,2.53878
-0.31061,0.100562,2.536,2.55693
-0.302379,0.100562,2.536,2.55594
-0.294148,0.100562,2.536,2.55498
-0.283775,0.0998088,2.517,2.53491
-0.275605,0.0998088,2.517,2.53401
-0.267435,0.0998088,2.517,2.53314
-0.259266,0.0998088,2.517,2.53229
-0.251096,0.0998088,2.517,2.53146
-0.242927,0.0998088,2.517,2.53066
-0.234757,0.0998088,2.517,2.52989
-0.226588,0.0998088,2.517,2.52915
-0.218418,0.0998088,2.517,2.52843
-0.208745,0.0990951,2.499,2.50966
-0.200634,0.0990951,2.499,2.509
-0.192523,0.0990951,2.499,2.50836
-0.184412,0.0990951,2.499,2.50775
-0.1763,0.0990951,2.499,2.50717
-0.168189,0.0990951,2.499,2.50661
-0.160078,0.0990951,2.499,2.50608
-0.151967,0.0990951,2.499,2.50558
-0.143856,0.0990951,2.499,2.5051
-0.135745,0.0990951,2.499,2.50465
-0.128553,0.0998088,2.517,2.52226
-0.120383,0.0998088,2.517,2.52185
-0.112214,0.0998088,2.517,2.52148
-0.104044,0.0998088,2.517,2.52113
-0.0958747,0.0998088,2.517,2.5208
-0.0877052,0.0998088,2.517,2.5205
-0.0795356,0.0998088,2.517,2.52023
-0.0713661,0.0998088,2.517,2.51999
-0.0631965,0.0998088,2.517,2.51977
-0.055027,0.0998088,2.517,2.51958
-0.0468574,0.0998088,2.517,2.51941
-0.0386878,0.0998088,2.517,2.51928
-0.0305183,0.0998088,2.517,2.51916
-0.0223487,0.0998088,2.517,2.51908
-0.0141792,0.0998088,2.517,2.51902
-0.00600962,0.0998088,2.517,2.51899
0.00215994,0.0998088,2.517,2.51898
0.0103295,0.0998088,2.517,2.519
0.0184991,0.0998088,2.517,2.51905
0.0266686,0.0998088,2.517,2.51912
0.0348382,0.0998088,2.517,2.51922
0.0430077,0.0998088,2.517,2.51935
0.0511773,0.0998088,2.517,2.5195
0.0593468,0.0998088,2.517,2.51968
0.0675164,0.0998088,2.517,2.51988
0.075686,0.0998088,2.517,2.52012
0.0838555,0.0998088,2.517,2.52037
0.0920251,0.0998088,2.517,2.52066
0.100195,0.0998088,2.517,2.52097
0.108364,0.0998088,2.517,2.52131
0.116534,0.0998088,2.517,2.52167
0.124703,0.0998088,2.517,2.52206
0.132873,0.0998088,2.517,2.52248
0.142107,0.100562,2.536,2.54197
0.150338,0.100562,2.536,2.54244
0.15857,0.100562,2.536,2.54294
0.166801,0.100562,2.536,2.54347
0.175032,0.100562,2.536,2.54402
0.183263,0.100562,2.536,2.5446
0.191494,0.100562,2.536,2.54521
0.198229,0.0998088,2.517,2.52677
0.206399,0.0998088,2.517,2.52742
0.214568,0.0998088,2.517,2.5281
0.222738,0.0998088,2.517,2.52881
0.230908,0.0998088,2.517,2.52954
0.239077,0.0998088,2.517,2.5303
0.245479,0.0990951,2.499,2.51298
0.25359,0.0990951,2.499,2.51379
0.261701,0.0990951,2.499,2.51462
0.269812,0.0990951,2.499,2.51548
0.277923,0.0990951,2.499,2.51636
0.286034,0.0990951,2.499,2.51727
0.292027,0.0983813,2.481,2.50006
0.300079,0.0983813,2.481,2.50102
0.308132,0.0983813,2.481,2.502
0.316185,0.0983813,2.481,2.503
0.321885,0.0976675,2.463,2.48586
0.329879,0.0976675,2.463,2.48691
0.337874,0.0976675,2.463,2.48798
0.345868,0.0976675,2.463,2.48908
0.353862,0.0976675,2.463,2.49021
0.361856,0.0976675,2.463,2.49135
0.369851,0.0976675,2.463,2.49253
0.377845,0.0976675,2.463,2.49373
0.385839,0.0976675,2.463,2.49495
0.393834,0.0976675,2.463,2.4962
0.401828,0.0976675,2.463,2.49747
0.409822,0.0976675,2.463,2.49877
0.417816,0.0976675,2.463,2.5001
0.425811,0.0976675,2.463,2.50144
0.433805,0.0976675,2.463,2.50282
0.441799,0.0976675,2.463,2.50422
0.449794,0.0976675,2.463,2.50564
0.461134,0.0983813,2.481,2.52541
0.469186,0.0983813,2.481,2.52689
0.477239,0.0983813,2.481,2.5284
0.485292,0.0983813,2.481,2.52993
0.493344,0.0983813,2.481,2.53149
0.501397,0.0983813,2.481,2.53307
0.513146,0.0990951,2.499,2.55306
0.521257,0.0990951,2.499,2.55471
0.529368,0.0990951,2.499,2.55637
0.537479,0.0990951,2.499,2.55807
0.54559,0.0990951,2.499,2.55978
0.553702,0.0990951,2.499,2.56152
0.561813,0.0990951,2.499,2.56329
0.569924,0.0990951,2.499,2.56508
0.578035,0.0990951,2.499,2.56689
0.590368,0.0998088,2.517,2.58724
0.598538,0.0998088,2.517,2.58911
0.606707,0.0998088,2.517,2.59101
0.614877,0.0998088,2.517,2.59294
0.623046,0.0998088,2.517,2.59489
0.631216,0.0998088,2.517,2.59686
0.639385,0.0998088,2.517,2.59886
0.642924,0.0990951,2.499,2.58228
0.651035,0.0990951,2.499,2.58431
0.659146,0.0990951,2.499,2.58637
0.662451,0.0983813,2.481,2.5698
0.670504,0.0983813,2.481,2.57189
0.678557,0.0983813,2.481,2.574
0.686609,0.0983813,2.481,2.57614
0.694662,0.0983813,2.481,2.57829
0.702715,0.0983813,2.481,2.58047
0.705611,0.0976675,2.463,2.56394
0.713605,0.0976675,2.463,2.56615
0.721599,0.0976675,2.463,2.56839
0.729594,0.0976675,2.463,2.57064
0.737588,0.0976675,2.463,2.57293
0.745582,0.0976675,2.463,2.57523
0.748069,0.0969537,2.445,2.55872
0.756005,0.0969537,2.445,2.56105
0.769565,0.0976675,2.463,2.58227
0.777559,0.0976675,2.463,2.58467
0.785554,0.0976675,2.463,2.58708
0.793548,0.0976675,2.463,2.58952
0.801542,0.0976675,2.463,2.59198
0.809537,0.0976675,2.463,2.59447
0.817531,0.0976675,2.463,2.59697
0.825525,0.0976675,2.463,2.5995
0.827428,0.0969537,2.445,2.58303
0.835364,0.0969537,2.445,2.58559
0.8433,0.0969537,2.445,2.58816
0.851236,0.0969537,2.445,2.59076
0.859171,0.0969537,2.445,2.59338
0.873491,0.0976675,2.463,2.61513
0.881485,0.0976675,2.463,2.61781
0.889479,0.0976675,2.463,2.62051
0.897474,0.0976675,2.463,2.62324
0.905468,0.0976675,2.463,2.62598
0.913462,0.0976675,2.463,2.62875
0.921457,0.0976675,2.463,2.63154
0.929451,0.0976675,2.463,2.63435
0.937445,0.0976675,2.463,2.63718
0.93853,0.0969537,2.445,2.62074
0.946466,0.0969537,2.445,2.62359
0.954402,0.0969537,2.445,2.62646
0.962338,0.0969537,2.445,2.62936
0.970273,0.0969537,2.445,2.63227
0.978209,0.0969537,2.445,2.63521
0.986145,0.0969537,2.445,2.63816
0.994081,0.0969537,2.445,2.64114
1.00939,0.0976675,2.463,2.6636
1.01739,0.0976675,2.463,2.66664
1.03288,0.0983813,2.481,2.68921
1.04848,0.0990951,2.499,2.71185
1.05659,0.0990951,2.499,2.715
1.07237,0.0998088,2.517,2.73774
1.0887,0.100562,2.536,2.76164
1.09693,0.100562,2.536,2.7649
1.11344,0.101316,2.555,2.78891
1.13008,0.102069,2.574,2.813
1.15568,0.103616,2.613,2.85904
1.16416,0.103616,2.613,2.86248
1.17264,0.103616,2.613,2.86594
1.19016,0.104409,2.633,2.89138
1.19871,0.104409,2.633,2.89491
1.20725,0.104409,2.633,2.89846
1.2255,0.105241,2.654,2.92517
1.23411,0.105241,2.654,2.92879
1.24273,0.105241,2.654,2.93243
1.25134,0.105241,2.654,2.93609
1.25995,0.105241,2.654,2.93977
1.26857,0.105241,2.654,2.94348
1.27718,0.105241,2.654,2.9472
1.2858,0.105241,2.654,2.95094
1.29441,0.105241,2.654,2.95471
1.30303,0.105241,2.654,2.95849
1.31164,0.105241,2.654,2.96229
1.32025,0.105241,2.654,2.96612
1.32887,0.105241,2.654,2.96996
1.34807,0.106074,2.675,2.99736
1.35675,0.106074,2.675,3.00127
1.37615,0.106907,2.696,3.0288
1.39569,0.10774,2.717,3.05641
1.41588,0.108612,2.739,3.08523
1.42477,0.108612,2.739,3.08932
1.45669,0.110357,2.783,3.14312
1.50259,0.113133,2.853,3.22648
1.51185,0.113133,2.853,3.2308
1.53391,0.114084,2.877,3.26236
1.58294,0.117019,2.951,3.35079
1.60655,0.11805,2.977,3.38489
1.61621,0.11805,2.977,3.38948
1.64007,0.119081,3.003,3.42374
1.64982,0.119081,3.003,3.42842
1.65957,0.119081,3.003,3.43313
1.68432,0.120151,3.03,3.46876
1.69416,0.120151,3.03,3.47354
1.68881,0.119081,3.003,3.44736
1.69855,0.119081,3.003,3.45214
1.7083,0.119081,3.003,3.45695
1.70317,0.11805,2.977,3.4318
1.71284,0.11805,2.977,3.43661
1.70745,0.117019,2.951,3.41138
1.71703,0.117019,2.951,3.41618
1.71198,0.116027,2.926,3.39202
1.70677,0.115036,2.901,3.3678
1.71619,0.115036,2.901,3.37259
1.71133,0.114084,2.877,3.34945
1.70631,0.113133,2.853,3.32625
1.71557,0.113133,2.853,3.33101
1.72483,0.113133,2.853,3.33578
1.7195,0.112181,2.829,3.31248
1.72869,0.112181,2.829,3.31726
1.70961,0.110357,2.783,3.26803
1.70506,0.109484,2.761,3.2469
1.71402,0.109484,2.761,3.25161
1.69552,0.10774,2.717,3.20445
1.678,0.106074,2.675,3.15952
1.68668,0.106074,2.675,3.16414
1.68205,0.105241,2.654,3.1439
1.67729,0.104409,2.633,3.1236
1.67303,0.103616,2.613,3.10444
1.68151,0.103616,2.613,3.10902
1.66477,0.102069,2.574,3.06714
1.66077,0.101316,2.555,3.04901
1.66906,0.101316,2.555,3.05353
1.66488,0.100562,2.536,3.03533
1.66058,0.0998088,2.517,3.01708
1.66875,0.0998088,2.517,3.02159
1.66493,0.0990951,2.499,3.00446
1.66099,0.0983813,2.481,2.98729
1.66904,0.0983813,2.481,2.99178
1.66493,0.0976675,2.463,2.97454
1.66069,0.0969537,2.445,2.95725
-1.9154,0.118443,2.761,3.36242
-1.90643,0.118443,2.761,3.35733
-1.89747,0.118443,2.761,3.35225
-1.88851,0.118443,2.761,3.34718
-1.87955,0.118443,2.761,3.34213
-1.87059,0.118443,2.761,3.3371
-1.86163,0.118443,2.761,3.33209
-1.8379,0.1175,2.739,3.30058
-1.81432,0.116556,2.717,3.26917
-1.8055,0.116556,2.717,3.26428
-1.7828,0.115655,2.696,3.23422
-1.76023,0.114754,2.675,3.20425
-1.75155,0.114754,2.675,3.19949
-1.72918,0.113853,2.654,3.16966
-1.70695,0.112952,2.633,3.13993
-1.69841,0.112952,2.633,3.13529
-1.67703,0.112094,2.613,3.10689
-1.64364,0.110421,2.574,3.05601
-1.63529,0.110421,2.574,3.05153
-1.62693,0.110421,2.574,3.04706
-1.61858,0.110421,2.574,3.04261
-1.61022,0.110421,2.574,3.03817
-1.61369,0.111236,2.593,3.05615
-1.60528,0.111236,2.593,3.05171
-1.59686,0.111236,2.593,3.04729
-1.58844,0.111236,2.593,3.04289
-1.58003,0.111236,2.593,3.0385
-1.57161,0.111236,2.593,3.03414
-1.57525,0.112094,2.613,3.05315
-1.56677,0.112094,2.613,3.04879
-1.57022,0.112952,2.633,3.06774
-1.56167,0.112952,2.633,3.06337
-1.55312,0.112952,2.633,3.05903
-1.54458,0.112952,2.633,3.0547
-1.5127,0.111236,2.593,3.00404
-1.50428,0.111236,2.593,2.99981
-1.4849,0.110421,2.574,2.97365
-1.47655,0.110421,2.574,2.96949
-1.46819,0.110421,2.574,2.96534
-1.44906,0.109606,2.555,2.93936
-1.43006,0.108791,2.536,2.91345
-1.42183,0.108791,2.536,2.90942
-1.403,0.107976,2.517,2.88364
-1.39483,0.107976,2.517,2.87967
-1.38666,0.107976,2.517,2.87572
-1.3785,0.107976,2.517,2.87179
-1.37033,0.107976,2.517,2.86788
-1.37244,0.108791,2.536,2.88561
-1.36421,0.108791,2.536,2.8817
-1.35598,0.108791,2.536,2.87781
-1.35784,0.109606,2.555,2.89547
-1.35959,0.110421,2.574,2.9131
-1.35123,0.110421,2.574,2.90921
-1.35279,0.111236,2.593,2.92678
-1.35474,0.112094,2.613,2.94545
-1.35656,0.112952,2.633,2.96407
-1.34802,0.112952,2.633,2.96017
-1.33947,0.112952,2.633,2.95629
-1.33093,0.112952,2.633,2.95243
-1.31234,0.112094,2.613,2.92619
-1.29387,0.111236,2.593,2.90002
-1.28546,0.111236,2.593,2.89628
-1.27704,0.111236,2.593,2.89255
-1.25933,0.110421,2.574,2.86768
-1.24174,0.109606,2.555,2.84288
-1.23345,0.109606,2.555,2.83927
-1.21605,0.108791,2.536,2.81459
-1.19876,0.107976,2.517,2.78998
-1.1906,0.107976,2.517,2.78648
-1.17397,0.107204,2.499,2.7631
-1.15746,0.106432,2.481,2.73978
-1.14941,0.106432,2.481,2.73639
-1.13308,0.10566,2.463,2.71319
-1.12508,0.10566,2.463,2.70986
-1.11709,0.10566,2.463,2.70655
-1.10099,0.104887,2.445,2.68351
-1.08545,0.104158,2.428,2.66162
-1.07757,0.104158,2.428,2.65842
-1.06969,0.104158,2.428,2.65523
-1.05437,0.103429,2.411,2.6335
-1.04655,0.103429,2.411,2.63038
-1.03872,0.103429,2.411,2.62727
-1.0309,0.103429,2.411,2.62419
-1.02307,0.103429,2.411,2.62112
-1.01525,0.103429,2.411,2.61808
-1.00742,0.103429,2.411,2.61506
-0.999596,0.103429,2.411,2.61205
-0.99177,0.103429,2.411,2.60907
-0.983945,0.103429,2.411,2.6061
-0.976119,0.103429,2.411,2.60316
-0.968294,0.103429,2.411,2.60023
-0.960468,0.103429,2.411,2.59733
-0.952643,0.103429,2.411,2.59445
-0.944817,0.103429,2.411,2.59158
-0.936992,0.103429,2.411,2.58874
-0.929166,0.103429,2.411,2.58592
-0.921341,0.103429,2.411,2.58312
-0.913515,0.103429,2.411,2.58033
-0.90569,0.103429,2.411,2.57757
-0.897864,0.103429,2.411,2.57484
-0.890039,0.103429,2.411,2.57212
-0.882213,0.103429,2.411,2.56942
-0.874388,0.103429,2.411,2.56674
-0.866562,0.103429,2.411,2.56409
-0.858737,0.103429,2.411,2.56145
-0.850911,0.103429,2.411,2.55884
-0.843086,0.103429,2.411,2.55625
-0.84115,0.104158,2.428,2.57169
-0.833269,0.104158,2.428,2.56912
-0.825388,0.104158,2.428,2.56657
-0.817508,0.104158,2.428,2.56405
-0.809627,0.104158,2.428,2.56155
-0.801746,0.104158,2.428,2.55907
-0.793866,0.104158,2.428,2.55661
-0.785985,0.104158,2.428,2.55417
-0.778104,0.104158,2.428,2.55176
-0.775616,0.104887,2.445,2.56722
-0.767681,0.104887,2.445,2.56483
-0.759745,0.104887,2.445,2.56247
-0.751809,0.104887,2.445,2.56013
-0.743873,0.104887,2.445,2.55781
-0.741355,0.10566,2.463,2.57432
-0.733361,0.10566,2.463,2.57203
-0.725366,0.10566,2.463,2.56976
-0.722615,0.106432,2.481,2.58628
-0.714562,0.106432,2.481,2.58405
-0.706509,0.106432,2.481,2.58183
-0.703524,0.107204,2.499,2.59835
-0.690404,0.106432,2.481,2.57747
-0.682351,0.106432,2.481,2.57532
-0.674299,0.106432,2.481,2.5732
-0.666246,0.106432,2.481,2.5711
-0.658193,0.106432,2.481,2.56903
-0.65014,0.106432,2.481,2.56698
-0.642088,0.106432,2.481,2.56495
-0.629435,0.10566,2.463,2.54435
-0.621441,0.10566,2.463,2.54239
-0.613446,0.10566,2.463,2.54044
-0.601027,0.104887,2.445,2.51997
-0.593092,0.104887,2.445,2.51809
-0.585156,0.104887,2.445,2.51623
-0.57722,0.104887,2.445,2.5144
-0.569284,0.104887,2.445,2.51259
-0.561348,0.104887,2.445,2.5108
-0.553412,0.104887,2.445,2.50904
-0.545476,0.104887,2.445,2.5073
-0.53754,0.104887,2.445,2.50559
-0.529605,0.104887,2.445,2.5039
-0.521669,0.104887,2.445,2.50223
-0.513733,0.104887,2.445,2.50059
-0.505797,0.104887,2.445,2.49897
-0.497861,0.104887,2.445,2.49738
-0.489925,0.104887,2.445,2.49581
-0.481989,0.104887,2.445,2.49426
-0.474054,0.104887,2.445,2.49274
-0.466118,0.104887,2.445,2.49124
-0.461555,0.10566,2.463,2.5081
-0.453561,0.10566,2.463,2.50664
-0.445566,0.10566,2.463,2.50521
-0.437572,0.10566,2.463,2.5038
-0.432717,0.106432,2.481,2.5207
-0.424665,0.106432,2.481,2.51933
-0.416612,0.106432,2.481,2.51799
-0.411523,0.107204,2.499,2.53493
-0.403412,0.107204,2.499,2.53362
-0.395301,0.107204,2.499,2.53234
-0.38719,0.107204,2.499,2.53109
-0.381809,0.107976,2.517,2.54808
-0.37364,0.107976,2.517,2.54687
-0.36547,0.107976,2.517,2.54569
-0.359998,0.108791,2.536,2.56373
-0.351766,0.108791,2.536,2.56259
-0.343535,0.108791,2.536,2.56147
-0.335304,0.108791,2.536,2.56038
-0.327073,0.108791,2.536,2.55932
-0.318842,0.108791,2.536,2.55828
-0.31061,0.108791,2.536,2.55727
-0.302379,0.108791,2.536,2.55628
-0.294148,0.108791,2.536,2.55532
-0.285917,0.108791,2.536,2.55438
-0.277685,0.108791,2.536,2.55348
-0.267435,0.107976,2.517,2.53347
-0.259266,0.107976,2.517,2.53262
-0.251096,0.107976,2.517,2.5318
-0.242927,0.107976,2.517,2.531
-0.234757,0.107976,2.517,2.53023
-0.226588,0.107976,2.517,2.52948
-0.218418,0.107976,2.517,2.52877
-0.210249,0.107976,2.517,2.52807
-0.202079,0.107976,2.517,2.52741
-0.193909,0.107976,2.517,2.52677
-0.184412,0.107204,2.499,2.50809
-0.1763,0.107204,2.499,2.5075
-0.169401,0.107976,2.517,2.525
-0.160078,0.107204,2.499,2.50642
-0.151967,0.107204,2.499,2.50591
-0.144892,0.107976,2.517,2.52348
-0.136723,0.107976,2.517,2.52302
-0.128553,0.107976,2.517,2.52259
-0.120383,0.107976,2.517,2.52219
-0.112214,0.107976,2.517,2.52181
-0.1033,0.107204,2.499,2.50343
-0.0951891,0.107204,2.499,2.50311
-0.0877052,0.107976,2.517,2.52084
-0.0795356,0.107976,2.517,2.52057
-0.0713661,0.107976,2.517,2.52033
-0.0631965,0.107976,2.517,2.52011
-0.055027,0.107976,2.517,2.51992
-0.0465223,0.107204,2.499,2.50173
-0.0384112,0.107204,2.499,2.50159
-0.0303,0.107204,2.499,2.50148
-0.0221889,0.107204,2.499,2.5014
-0.0140778,0.107204,2.499,2.50134
-0.00600962,0.107976,2.517,2.51932
0.00215994,0.107976,2.517,2.51932
0.0103295,0.107976,2.517,2.51934
0.0184991,0.107976,2.517,2.51938
0.0266686,0.107976,2.517,2.51946
0.0348382,0.107976,2.517,2.51956
0.0430077,0.107976,2.517,2.51968
0.0511773,0.107976,2.517,2.51983
0.0593468,0.107976,2.517,2.52001
0.0675164,0.107976,2.517,2.52022
0.075686,0.107976,2.517,2.52045
0.0838555,0.107976,2.517,2.52071
0.0920251,0.107976,2.517,2.521
0.100195,0.107976,2.517,2.52131
0.108364,0.107976,2.517,2.52164
0.116534,0.107976,2.517,2.52201
0.124703,0.107976,2.517,2.5224
0.132873,0.107976,2.517,2.52282
0.142107,0.108791,2.536,2.54231
0.150338,0.108791,2.536,2.54278
0.15857,0.108791,2.536,2.54328
0.166801,0.108791,2.536,2.54381
0.175032,0.108791,2.536,2.54436
0.183263,0.108791,2.536,2.54494
0.191494,0.108791,2.536,2.54555
0.198229,0.107976,2.517,2.5271
0.206399,0.107976,2.517,2.52776
0.214568,0.107976,2.517,2.52844
0.222738,0.107976,2.517,2.52914
0.230908,0.107976,2.517,2.52988
0.239077,0.107976,2.517,2.53063
0.245479,0.107204,2.499,2.51332
0.25359,0.107204,2.499,2.51412
0.261701,0.107204,2.499,2.51495
0.269812,0.107204,2.499,2.51581
0.277923,0.107204,2.499,2.51669
0.286034,0.107204,2.499,2.5176
0.292027,0.106432,2.481,2.50039
0.300079,0.106432,2.481,2.50135
0.308132,0.106432,2.481,2.50233
0.316185,0.106432,2.481,2.50333
0.321885,0.10566,2.463,2.48619
0.329879,0.10566,2.463,2.48724
0.337874,0.10566,2.463,2.48831
0.345868,0.10566,2.463,2.48941
0.353862,0.10566,2.463,2.49053
0.361856,0.10566,2.463,2.49168
0.369851,0.10566,2.463,2.49285
0.377845,0.10566,2.463,2.49405
0.385839,0.10566,2.463,2.49528
0.393834,0.10566,2.463,2.49653
0.401828,0.10566,2.463,2.4978
0.409822,0.10566,2.463,2.4991
0.417816,0.10566,2.463,2.50042
0.425811,0.10566,2.463,2.50177
0.433805,0.10566,2.463,2.50314
0.441799,0.10566,2.463,2.50454
0.449794,0.10566,2.463,2.50596
0.457788,0.10566,2.463,2.50741
0.465782,0.10566,2.463,2.50888
0.477239,0.106432,2.481,2.52872
0.485292,0.106432,2.481,2.53026
0.493344,0.106432,2.481,2.53181
0.501397,0.106432,2.481,2.53339
0.50945,0.106432,2.481,2.535
0.521257,0.107204,2.499,2.55503
0.529368,0.107204,2.499,2.5567
0.537479,0.107204,2.499,2.55839
0.54559,0.107204,2.499,2.56011
0.553702,0.107204,2.499,2.56185
0.561813,0.107204,2.499,2.56362
0.569924,0.107204,2.499,2.56541
0.578035,0.107204,2.499,2.56722
0.586146,0.107204,2.499,2.56906
0.594257,0.107204,2.499,2.57092
0.602368,0.107204,2.499,2.57281
0.610479,0.107204,2.499,2.57472
0.618591,0.107204,2.499,2.57665
0.626702,0.107204,2.499,2.57861
0.634813,0.107204,2.499,2.5806
0.638293,0.106432,2.481,2.564
0.646346,0.106432,2.481,2.56602
0.654399,0.106432,2.481,2.56806
0.662451,0.106432,2.481,2.57012
0.670504,0.106432,2.481,2.57221
0.673634,0.10566,2.463,2.55564
0.681628,0.10566,2.463,2.55776
0.689622,0.10566,2.463,2.5599
0.697617,0.10566,2.463,2.56207
0.700454,0.104887,2.445,2.54552
0.70839,0.104887,2.445,2.54771
0.716326,0.104887,2.445,2.54993
0.724262,0.104887,2.445,2.55217
0.732198,0.104887,2.445,2.55444
0.745582,0.10566,2.463,2.57554
0.748069,0.104887,2.445,2.55903
0.756005,0.104887,2.445,2.56136
0.763941,0.104887,2.445,2.56371
0.771877,0.104887,2.445,2.56609
0.779813,0.104887,2.445,2.56849
0.787749,0.104887,2.445,2.57091
0.795684,0.104887,2.445,2.57335
0.80362,0.104887,2.445,2.57582
0.811556,0.104887,2.445,2.5783
0.819492,0.104887,2.445,2.58081
0.827428,0.104887,2.445,2.58334
0.835364,0.104887,2.445,2.5859
0.8433,0.104887,2.445,2.58847
0.851236,0.104887,2.445,2.59107
0.859171,0.104887,2.445,2.59369
0.867107,0.104887,2.445,2.59632
0.875043,0.104887,2.445,2.59899
0.882979,0.104887,2.445,2.60167
0.890915,0.104887,2.445,2.60437
0.898851,0.104887,2.445,2.6071
0.906787,0.104887,2.445,2.60984
0.914722,0.104887,2.445,2.61261
0.922658,0.104887,2.445,2.6154
0.930594,0.104887,2.445,2.61821
0.932004,0.104158,2.428,2.60282
0.939885,0.104158,2.428,2.60565
0.947766,0.104158,2.428,2.6085
0.955646,0.104158,2.428,2.61138
0.963527,0.104158,2.428,2.61427
0.971408,0.104158,2.428,2.61719
0.979289,0.104158,2.428,2.62012
0.994081,0.104887,2.445,2.64144
1.00202,0.104887,2.445,2.64444
1.00995,0.104887,2.445,2.64746
1.02538,0.10566,2.463,2.67001
1.04093,0.106432,2.481,2.69262
1.04898,0.106432,2.481,2.69575
1.0647,0.107204,2.499,2.71847
1.08054,0.107976,2.517,2.74126
1.08871,0.107976,2.517,2.74449
1.10516,0.108791,2.536,2.76849
1.13008,0.110421,2.574,2.81331
1.14683,0.111236,2.593,2.83747
1.15525,0.111236,2.593,2.84088
1.17264,0.112094,2.613,2.86626
1.18112,0.112094,2.613,2.86974
1.1896,0.112094,2.613,2.87324
1.20725,0.112952,2.633,2.89878
1.2255,0.113853,2.654,2.9255
1.23411,0.113853,2.654,2.92911
1.24273,0.113853,2.654,2.93275
1.25134,0.113853,2.654,2.93641
1.25995,0.113853,2.654,2.9401
1.26857,0.113853,2.654,2.9438
1.27718,0.113853,2.654,2.94752
1.2858,0.113853,2.654,2.95126
1.29441,0.113853,2.654,2.95503
1.29272,0.112952,2.633,2.9354
1.30126,0.112952,2.633,2.93917
1.30981,0.112952,2.633,2.94297
1.31835,0.112952,2.633,2.94678
1.33748,0.113853,2.654,2.97414
1.3461,0.113853,2.654,2.97803
1.36543,0.114754,2.675,3.00553
1.3849,0.115655,2.696,3.03311
1.40451,0.116556,2.717,3.06077
1.41332,0.116556,2.717,3.06483
1.45669,0.119387,2.783,3.14345
1.47784,0.120374,2.806,3.17366
1.48694,0.120374,2.806,3.17791
1.52111,0.12239,2.853,3.23549
1.55612,0.124449,2.901,3.29436
1.56553,0.124449,2.901,3.29882
1.58852,0.125522,2.926,3.33176
1.62587,0.12771,2.977,3.39445
1.63553,0.12771,2.977,3.39909
1.6452,0.12771,2.977,3.40375
1.66931,0.128825,3.003,3.4382
1.67906,0.128825,3.003,3.44294
1.67419,0.12771,2.977,3.41786
1.66914,0.126594,2.951,3.39271
1.67872,0.126594,2.951,3.39743
1.6883,0.126594,2.951,3.40217
1.68349,0.125522,2.926,3.37807
1.69299,0.125522,2.926,3.38282
1.70249,0.125522,2.926,3.38758
1.69736,0.124449,2.901,3.36338
1.69265,0.12342,2.877,3.34027
1.70199,0.12342,2.877,3.34502
1.71133,0.12342,2.877,3.34978
1.70631,0.12239,2.853,3.32657
1.71557,0.12239,2.853,3.33133
1.72483,0.12239,2.853,3.33611
1.7195,0.12136,2.829,3.3128
1.72869,0.12136,2.829,3.31758
1.70961,0.119387,2.783,3.26835
1.70506,0.118443,2.761,3.24721
1.71402,0.118443,2.761,3.25192
1.69552,0.116556,2.717,3.20476
1.678,0.114754,2.675,3.15982
1.68668,0.114754,2.675,3.16444
1.68205,0.113853,2.654,3.1442
1.67729,0.112952,2.633,3.1239
1.67303,0.112094,2.613,3.10473
1.68151,0.112094,2.613,3.10931
1.66477,0.110421,2.574,3.06743
1.66077,0.109606,2.555,3.0493
1.66906,0.109606,2.555,3.05382
1.66488,0.108791,2.536,3.03562
1.66058,0.107976,2.517,3.01736
1.66875,0.107976,2.517,3.02187
1.66493,0.107204,2.499,3.00474
1.66099,0.106432,2.481,2.98757
1.66904,0.106432,2.481,2.99205
1.66493,0.10566,2.463,2.97481
1.66069,0.104887,2.445,2.95752
-1.9154,0.127402,2.761,3.36275
-1.90643,0.127402,2.761,3.35765
-1.89747,0.127402,2.761,3.35257
-1.88851,0.127402,2.761,3.34751
-1.87955,0.127402,2.761,3.34246
-1.87059,0.127402,2.761,3.33743
-1.86163,0.127402,2.761,3.33242
-1.8379,0.126387,2.739,3.30091
-1.81432,0.125372,2.717,3.26949
-1.8055,0.125372,2.717,3.26461
-1.7828,0.124403,2.696,3.23454
-1.76023,0.123434,2.675,3.20457
-1.75155,0.123434,2.675,3.19981
-1.72918,0.122465,2.654,3.16998
-1.70695,0.121496,2.633,3.14025
-1.69841,0.121496,2.633,3.13561
-1.67703,0.120573,2.613,3.1072
-1.64364,0.118774,2.574,3.05633
-1.63529,0.118774,2.574,3.05184
-1.62693,0.118774,2.574,3.04737
-1.61858,0.118774,2.574,3.04292
-1.61022,0.118774,2.574,3.03849
-1.61369,0.11965,2.593,3.05646
-1.60528,0.11965,2.593,3.05203
-1.59686,0.11965,2.593,3.04761
-1.58844,0.11965,2.593,3.04321
-1.58003,0.11965,2.593,3.03882
-1.57161,0.11965,2.593,3.03446
-1.57525,0.120573,2.613,3.05348
-1.56677,0.120573,2.613,3.04911
-1.55829,0.120573,2.613,3.04476
-1.56167,0.121496,2.633,3.0637
-1.55312,0.121496,2.633,3.05935
-1.53285,0.120573,2.613,3.03182
-1.50161,0.118774,2.574,2.98235
-1.49326,0.118774,2.574,2.97815
-1.4849,0.118774,2.574,2.97397
-1.46565,0.117897,2.555,2.94789
-1.45736,0.117897,2.555,2.94378
-1.43829,0.11702,2.536,2.91782
-1.41934,0.116143,2.517,2.89194
-1.41117,0.116143,2.517,2.88794
-1.39297,0.115313,2.499,2.86333
-1.38486,0.115313,2.499,2.85939
-1.37675,0.115313,2.499,2.85547
-1.36864,0.115313,2.499,2.85157
-1.36053,0.115313,2.499,2.84769
-1.35241,0.115313,2.499,2.84382
-1.3443,0.115313,2.499,2.83997
-1.33619,0.115313,2.499,2.83614
-1.33765,0.116143,2.517,2.85273
-1.33951,0.11702,2.536,2.87042
-1.33128,0.11702,2.536,2.86658
-1.34288,0.118774,2.574,2.90567
-1.34437,0.11965,2.593,2.92324
-1.33596,0.11965,2.593,2.91937
-1.32754,0.11965,2.593,2.91553
-1.3293,0.120573,2.613,2.93417
-1.33093,0.121496,2.633,2.95276
-1.31234,0.120573,2.613,2.92652
-1.29387,0.11965,2.593,2.90036
-1.28546,0.11965,2.593,2.89661
-1.27704,0.11965,2.593,2.89289
-1.25933,0.118774,2.574,2.86801
-1.24174,0.117897,2.555,2.84321
-1.23345,0.117897,2.555,2.8396
-1.21605,0.11702,2.536,2.81492
-1.19876,0.116143,2.517,2.79031
-1.1906,0.116143,2.517,2.78681
-1.17397,0.115313,2.499,2.76342
-1.15746,0.114482,2.481,2.74011
-1.14941,0.114482,2.481,2.73671
-1.13308,0.113652,2.463,2.71351
-1.12508,0.113652,2.463,2.71018
-1.11709,0.113652,2.463,2.70687
-1.10099,0.112821,2.445,2.68383
-1.08545,0.112037,2.428,2.66194
-1.07757,0.112037,2.428,2.65874
-1.06969,0.112037,2.428,2.65556
-1.05437,0.111252,2.411,2.63382
-1.04655,0.111252,2.411,2.6307
-1.03872,0.111252,2.411,2.62759
-1.0309,0.111252,2.411,2.62451
-1.02307,0.111252,2.411,2.62145
-1.01525,0.111252,2.411,2.6184
-1.00742,0.111252,2.411,2.61538
-0.999596,0.111252,2.411,2.61237
-0.99177,0.111252,2.411,2.60939
-0.983945,0.111252,2.411,2.60642
-0.976119,0.111252,2.411,2.60348
-0.968294,0.111252,2.411,2.60056
-0.960468,0.111252,2.411,2.59765
-0.952643,0.111252,2.411,2.59477
-0.944817,0.111252,2.411,2.59191
-0.936992,0.111252,2.411,2.58906
-0.929166,0.111252,2.411,2.58624
-0.921341,0.111252,2.411,2.58344
-0.913515,0.111252,2.411,2.58066
-0.90569,0.111252,2.411,2.5779
-0.897864,0.111252,2.411,2.57516
-0.896315,0.112037,2.428,2.59058
-0.888434,0.112037,2.428,2.58787
-0.880553,0.112037,2.428,2.58517
-0.872672,0.112037,2.428,2.5825
-0.864792,0.112037,2.428,2.57985
-0.856911,0.112037,2.428,2.57721
-0.84903,0.112037,2.428,2.5746
-0.84115,0.112037,2.428,2.57202
-0.833269,0.112037,2.428,2.56945
-0.825388,0.112037,2.428,2.56691
-0.817508,0.112037,2.428,2.56438
-0.809627,0.112037,2.428,2.56188
-0.801746,0.112037,2.428,2.5594
-0.793866,0.112037,2.428,2.55694
-0.791488,0.112821,2.445,2.57239
-0.783552,0.112821,2.445,2.56996
-0.775616,0.112821,2.445,2.56755
-0.767681,0.112821,2.445,2.56517
-0.759745,0.112821,2.445,2.5628
-0.751809,0.112821,2.445,2.56046
-0.743873,0.112821,2.445,2.55814
-0.741355,0.113652,2.463,2.57466
-0.733361,0.113652,2.463,2.57237
-0.725366,0.113652,2.463,2.57011
-0.722615,0.114482,2.481,2.58663
-0.714562,0.114482,2.481,2.58439
-0.706509,0.114482,2.481,2.58217
-0.698457,0.114482,2.481,2.57998
-0.690404,0.114482,2.481,2.57781
-0.682351,0.114482,2.481,2.57567
-0.674299,0.114482,2.481,2.57355
-0.666246,0.114482,2.481,2.57145
-0.658193,0.114482,2.481,2.56937
-0.65014,0.114482,2.481,2.56732
-0.642088,0.114482,2.481,2.5653
-0.634035,0.114482,2.481,2.56329
-0.621441,0.113652,2.463,2.54273
-0.613446,0.113652,2.463,2.54079
-0.605452,0.113652,2.463,2.53887
-0.593092,0.112821,2.445,2.51843
-0.585156,0.112821,2.445,2.51658
-0.57722,0.112821,2.445,2.51474
-0.569284,0.112821,2.445,2.51293
-0.561348,0.112821,2.445,2.51115
-0.553412,0.112821,2.445,2.50939
-0.545476,0.112821,2.445,2.50765
-0.53754,0.112821,2.445,2.50593
-0.529605,0.112821,2.445,2.50424
-0.521669,0.112821,2.445,2.50258
-0.513733,0.112821,2.445,2.50094
-0.505797,0.112821,2.445,2.49932
-0.497861,0.112821,2.445,2.49772
-0.489925,0.112821,2.445,2.49615
-0.481989,0.112821,2.445,2.49461
-0.474054,0.112821,2.445,2.49309
-0.466118,0.112821,2.445,2.49159
-0.461555,0.113652,2.463,2.50845
-0.453561,0.113652,2.463,2.50699
-0.445566,0.113652,2.463,2.50556
-0.44077,0.114482,2.481,2.52245
-0.432717,0.114482,2.481,2.52105
-0.424665,0.114482,2.481,2.51968
-0.416612,0.114482,2.481,2.51834
-0.411523,0.115313,2.499,2.53528
-0.403412,0.115313,2.499,2.53398
-0.395301,0.115313,2.499,2.5327
-0.389979,0.116143,2.517,2.54968
-0.381809,0.116143,2.517,2.54844
-0.37364,0.116143,2.517,2.54723
-0.36547,0.116143,2.517,2.54605
-0.359998,0.11702,2.536,2.5641
-0.351766,0.11702,2.536,2.56295
-0.343535,0.11702,2.536,2.56184
-0.335304,0.11702,2.536,2.56075
-0.327073,0.11702,2.536,2.55968
-0.318842,0.11702,2.536,2.55864
-0.31061,0.11702,2.536,2.55763
-0.302379,0.11702,2.536,2.55664
-0.294148,0.11702,2.536,2.55568
-0.285917,0.11702,2.536,2.55475
-0.277685,0.11702,2.536,2.55384
-0.269454,0.11702,2.536,2.55296
-0.259266,0.116143,2.517,2.53298
-0.251096,0.116143,2.517,2.53216
-0.242927,0.116143,2.517,2.53136
-0.234757,0.116143,2.517,2.53059
-0.226588,0.116143,2.517,2.52985
-0.218418,0.116143,2.517,2.52913
-0.210249,0.116143,2.517,2.52843
-0.202079,0.116143,2.517,2.52777
-0.193909,0.116143,2.517,2.52713
-0.18574,0.116143,2.517,2.52652
-0.17757,0.116143,2.517,2.52593
-0.169401,0.116143,2.517,2.52537
-0.161231,0.116143,2.517,2.52483
-0.153062,0.116143,2.517,2.52432
-0.144892,0.116143,2.517,2.52384
-0.136723,0.116143,2.517,2.52339
-0.128553,0.116143,2.517,2.52296
-0.120383,0.116143,2.517,2.52255
-0.112214,0.116143,2.517,2.52218
-0.1033,0.115313,2.499,2.50379
-0.0951891,0.115313,2.499,2.50347
-0.0877052,0.116143,2.517,2.5212
-0.0795356,0.116143,2.517,2.52093
-0.0713661,0.116143,2.517,2.52069
-0.0631965,0.116143,2.517,2.52047
-0.055027,0.116143,2.517,2.52028
-0.0465223,0.115313,2.499,2.50209
-0.0384112,0.115313,2.499,2.50195
-0.0303,0.115313,2.499,2.50184
-0.0221889,0.115313,2.499,2.50176
-0.0140778,0.115313,2.499,2.5017
-0.00596664,0.115313,2.499,2.50167
0.00214449,0.115313,2.499,2.50166
0.0102556,0.115313,2.499,2.50168
0.0183668,0.115313,2.499,2.50173
0.0264779,0.115313,2.499,2.5018
0.034589,0.115313,2.499,2.5019
0.0427002,0.115313,2.499,2.50202
0.0508113,0.115313,2.499,2.50218
0.0589224,0.115313,2.499,2.50235
0.0670336,0.115313,2.499,2.50256
0.0751447,0.115313,2.499,2.50279
0.0832558,0.115313,2.499,2.50304
0.091367,0.115313,2.499,2.50333
0.100195,0.116143,2.517,2.52167
0.108364,0.116143,2.517,2.52201
0.116534,0.116143,2.517,2.52237
0.124703,0.116143,2.517,2.52276
0.132873,0.116143,2.517,2.52318
0.141042,0.116143,2.517,2.52362
0.149212,0.116143,2.517,2.52409
0.157382,0.116143,2.517,2.52459
0.165551,0.116143,2.517,2.52511
0.173721,0.116143,2.517,2.52566
0.18189,0.116143,2.517,2.52623
0.19006,0.116143,2.517,2.52684
0.198229,0.116143,2.517,2.52746
0.206399,0.116143,2.517,2.52812
0.214568,0.116143,2.517,2.5288
0.221145,0.115313,2.499,2.51141
0.229256,0.115313,2.499,2.51214
0.237367,0.115313,2.499,2.5129
0.245479,0.115313,2.499,2.51367
0.25359,0.115313,2.499,2.51448
0.261701,0.115313,2.499,2.51531
0.269812,0.115313,2.499,2.51617
0.277923,0.115313,2.499,2.51705
0.286034,0.115313,2.499,2.51796
0.292027,0.114482,2.481,2.50075
0.300079,0.114482,2.481,2.5017
0.308132,0.114482,2.481,2.50268
0.313891,0.113652,2.463,2.48552
0.321885,0.113652,2.463,2.48654
0.329879,0.113652,2.463,2.48759
0.337874,0.113652,2.463,2.48866
0.345868,0.113652,2.463,2.48976
0.353862,0.113652,2.463,2.49088
0.359212,0.112821,2.445,2.47382
0.367148,0.112821,2.445,2.47499
0.377845,0.113652,2.463,2.4944
0.385839,0.113652,2.463,2.49563
0.393834,0.113652,2.463,2.49688
0.401828,0.113652,2.463,2.49815
0.409822,0.113652,2.463,2.49945
0.417816,0.113652,2.463,2.50077
0.425811,0.113652,2.463,2.50212
0.433805,0.113652,2.463,2.50349
0.441799,0.113652,2.463,2.50489
0.449794,0.113652,2.463,2.50631
0.457788,0.113652,2.463,2.50776
0.465782,0.113652,2.463,2.50923
0.477239,0.114482,2.481,2.52908
0.485292,0.114482,2.481,2.53061
0.493344,0.114482,2.481,2.53216
0.501397,0.114482,2.481,2.53375
0.50945,0.114482,2.481,2.53535
0.517502,0.114482,2.481,2.53698
0.525555,0.114482,2.481,2.53864
0.533608,0.114482,2.481,2.54032
0.541661,0.114482,2.481,2.54202
0.549713,0.114482,2.481,2.54375
0.557766,0.114482,2.481,2.5455
0.565819,0.114482,2.481,2.54728
0.573871,0.114482,2.481,2.54908
0.581924,0.114482,2.481,2.5509
0.589977,0.114482,2.481,2.55275
0.59803,0.114482,2.481,2.55462
0.606082,0.114482,2.481,2.55652
0.614135,0.114482,2.481,2.55844
0.622188,0.114482,2.481,2.56039
0.63024,0.114482,2.481,2.56236
0.633662,0.113652,2.463,2.54574
0.641657,0.113652,2.463,2.54775
0.649651,0.113652,2.463,2.54977
0.657645,0.113652,2.463,2.55182
0.665639,0.113652,2.463,2.55389
0.668711,0.112821,2.445,2.53731
0.676647,0.112821,2.445,2.53941
0.684582,0.112821,2.445,2.54154
0.692518,0.112821,2.445,2.54369
0.700454,0.112821,2.445,2.54586
0.70839,0.112821,2.445,2.54805
0.716326,0.112821,2.445,2.55027
0.724262,0.112821,2.445,2.55251
0.727107,0.112037,2.428,2.53701
0.734987,0.112037,2.428,2.53928
0.742868,0.112037,2.428,2.54157
0.756005,0.112821,2.445,2.5617
0.763941,0.112821,2.445,2.56405
0.771877,0.112821,2.445,2.56643
0.779813,0.112821,2.445,2.56883
0.787749,0.112821,2.445,2.57125
0.795684,0.112821,2.445,2.57369
0.80362,0.112821,2.445,2.57615
0.811556,0.112821,2.445,2.57864
0.819492,0.112821,2.445,2.58115
0.827428,0.112821,2.445,2.58368
0.835364,0.112821,2.445,2.58623
0.8433,0.112821,2.445,2.5888
0.851236,0.112821,2.445,2.5914
0.859171,0.112821,2.445,2.59402
0.867107,0.112821,2.445,2.59666
0.875043,0.112821,2.445,2.59932
0.87684,0.112037,2.428,2.58391
0.88472,0.112037,2.428,2.58659
0.892601,0.112037,2.428,2.5893
0.900482,0.112037,2.428,2.59203
0.908362,0.112037,2.428,2.59478
0.916243,0.112037,2.428,2.59754
0.924124,0.112037,2.428,2.60033
0.932004,0.112037,2.428,2.60315
0.939885,0.112037,2.428,2.60598
0.94113,0.111252,2.411,2.59056
0.948955,0.111252,2.411,2.59342
0.963527,0.112037,2.428,2.6146
0.971408,0.112037,2.428,2.61751
0.979289,0.112037,2.428,2.62045
0.987169,0.112037,2.428,2.6234
1.00202,0.112821,2.445,2.64477
1.00995,0.112821,2.445,2.64778
1.02538,0.113652,2.463,2.67034
1.04093,0.114482,2.481,2.69295
1.04898,0.114482,2.481,2.69608
1.0647,0.115313,2.499,2.7188
1.08054,0.116143,2.517,2.7416
1.08871,0.116143,2.517,2.74483
1.10516,0.11702,2.536,2.76882
1.13008,0.118774,2.574,2.81365
1.14683,0.11965,2.593,2.83781
1.15525,0.11965,2.593,2.84123
1.17264,0.120573,2.613,2.8666
1.18112,0.120573,2.613,2.87008
1.1896,0.120573,2.613,2.87358
1.20725,0.121496,2.633,2.89912
1.2255,0.122465,2.654,2.92584
1.23411,0.122465,2.654,2.92946
1.24273,0.122465,2.654,2.9331
1.25134,0.122465,2.654,2.93676
1.25995,0.122465,2.654,2.94044
1.26857,0.122465,2.654,2.94414
1.27718,0.122465,2.654,2.94787
1.2858,0.122465,2.654,2.95161
1.29441,0.122465,2.654,2.95537
1.29272,0.121496,2.633,2.93574
1.30126,0.121496,2.633,2.93951
1.30981,0.121496,2.633,2.94331
1.31835,0.121496,2.633,2.94712
1.33748,0.122465,2.654,2.97449
1.3461,0.122465,2.654,2.97837
1.36543,0.123434,2.675,3.00587
1.3849,0.124403,2.696,3.03345
1.40451,0.125372,2.717,3.06112
1.41332,0.125372,2.717,3.06517
1.45669,0.128418,2.783,3.14381
1.47784,0.129479,2.806,3.17402
1.48694,0.129479,2.806,3.17827
1.52111,0.131648,2.853,3.23585
1.55612,0.133862,2.901,3.29473
1.56553,0.133862,2.901,3.29918
1.58852,0.135016,2.926,3.33213
1.62587,0.137369,2.977,3.39483
1.63553,0.137369,2.977,3.39947
1.6452,0.137369,2.977,3.40413
1.66931,0.138569,3.003,3.43858
1.67906,0.138569,3.003,3.44332
1.67419,0.137369,2.977,3.41823
1.66914,0.13617,2.951,3.39308
1.67872,0.13617,2.951,3.3978
1.6883,0.13617,2.951,3.40254
1.68349,0.135016,2.926,3.37844
1.69299,0.135016,2.926,3.38318
1.70249,0.135016,2.926,3.38794
1.69736,0.133862,2.901,3.36374
1.69265,0.132755,2.877,3.34063
1.70199,0.132755,2.877,3.34537
1.71133,0.132755,2.877,3.35013
1.70631,0.131648,2.853,3.32693
1.71557,0.131648,2.853,3.33169
1.71032,0.13054,2.829,3.3084
1.70553,0.129479,2.806,3.28622
1.71463,0.129479,2.806,3.29095
1.70961,0.128418,2.783,3.26869
1.69147,0.126387,2.739,3.22167
1.70036,0.126387,2.739,3.22635
1.68242,0.124403,2.696,3.18032
1.678,0.123434,2.675,3.16015
1.68668,0.123434,2.675,3.16477
1.68205,0.122465,2.654,3.14452
1.67729,0.121496,2.633,3.12422
1.66022,0.11965,2.593,3.08128
1.66864,0.11965,2.593,3.08583
1.66477,0.118774,2.574,3.06774
1.66077,0.117897,2.555,3.0496
1.66906,0.117897,2.555,3.05413
1.65241,0.116143,2.517,3.01318
1.6487,0.115313,2.499,2.99608
1.65682,0.115313,2.499,3.00056
1.66493,0.115313,2.499,3.00504
1.66099,0.114482,2.481,2.98787
1.66904,0.114482,2.481,2.99235
1.66493,0.113652,2.463,2.97511
1.66069,0.112821,2.445,2.95781
-1.90013,0.135275,2.739,3.3363
-1.89124,0.135275,2.739,3.33125
-1.88235,0.135275,2.739,3.32621
-1.87346,0.135275,2.739,3.32119
-1.86457,0.135275,2.739,3.31618
-1.85568,0.135275,2.739,3.31119
-1.84679,0.135275,2.739,3.30622
-1.8379,0.135275,2.739,3.30126
-1.81432,0.134188,2.717,3.26984
-1.8055,0.134188,2.717,3.26496
-1.76891,0.132114,2.675,3.20969
-1.74641,0.131077,2.654,3.17976
-1.7378,0.131077,2.654,3.17503
-1.7155,0.13004,2.633,3.14524
-1.70695,0.13004,2.633,3.14059
-1.69841,0.13004,2.633,3.13595
-1.66419,0.128064,2.593,3.08376
-1.64364,0.127126,2.574,3.05666
-1.63529,0.127126,2.574,3.05218
-1.62693,0.127126,2.574,3.04771
-1.61858,0.127126,2.574,3.04326
-1.61022,0.127126,2.574,3.03882
-1.60187,0.127126,2.574,3.03441
-1.59351,0.127126,2.574,3.03
-1.58516,0.127126,2.574,3.02562
-1.5768,0.127126,2.574,3.02125
-1.56845,0.127126,2.574,3.0169
-1.57161,0.128064,2.593,3.0348
-1.56319,0.128064,2.593,3.03045
-1.55478,0.128064,2.593,3.02612
-1.55829,0.129052,2.613,3.04511
-1.54981,0.129052,2.613,3.04078
-1.54133,0.129052,2.613,3.03646
-1.50997,0.127126,2.574,2.98691
-1.50161,0.127126,2.574,2.9827
-1.49326,0.127126,2.574,2.9785
-1.46298,0.125249,2.536,2.93041
-1.45475,0.125249,2.536,2.92631
-1.44652,0.125249,2.536,2.92223
-1.4173,0.123422,2.499,2.87558
-1.40919,0.123422,2.499,2.8716
-1.40108,0.123422,2.499,2.86762
-1.38294,0.122533,2.481,2.84304
-1.36491,0.121644,2.463,2.81854
-1.35692,0.121644,2.463,2.81467
-1.34892,0.121644,2.463,2.81083
-1.34093,0.121644,2.463,2.807
-1.34267,0.122533,2.481,2.82368
-1.33462,0.122533,2.481,2.81986
-1.32657,0.122533,2.481,2.81605
-1.32808,0.123422,2.499,2.83267
-1.32948,0.124311,2.517,2.84926
-1.32131,0.124311,2.517,2.84545
-1.33296,0.126187,2.555,2.88457
-1.33452,0.127126,2.574,2.90217
-1.33596,0.128064,2.593,2.91973
-1.32754,0.128064,2.593,2.91589
-1.3293,0.129052,2.613,2.93453
-1.33093,0.13004,2.633,2.95313
-1.32238,0.13004,2.633,2.94929
-1.31383,0.13004,2.633,2.94546
-1.30529,0.13004,2.633,2.94166
-1.28689,0.129052,2.613,2.91556
-1.27841,0.129052,2.613,2.91183
-1.26021,0.128064,2.593,2.88586
-1.25179,0.128064,2.593,2.88219
-1.23427,0.127126,2.574,2.85746
-1.21686,0.126187,2.555,2.83279
-1.20857,0.126187,2.555,2.82924
-1.19135,0.125249,2.536,2.80469
-1.16586,0.123422,2.499,2.76034
-1.15775,0.123422,2.499,2.75692
-1.14136,0.122533,2.481,2.73369
-1.1333,0.122533,2.481,2.73034
-1.12525,0.122533,2.481,2.72701
-1.10909,0.121644,2.463,2.70393
-1.09305,0.120755,2.445,2.68093
-1.07757,0.119915,2.428,2.65908
-1.06969,0.119915,2.428,2.6559
-1.06181,0.119915,2.428,2.65273
-1.04655,0.119075,2.411,2.63104
-1.03872,0.119075,2.411,2.62794
-1.0309,0.119075,2.411,2.62485
-1.02307,0.119075,2.411,2.62179
-1.01525,0.119075,2.411,2.61875
-1.00742,0.119075,2.411,2.61572
-0.999596,0.119075,2.411,2.61272
-0.99177,0.119075,2.411,2.60973
-0.983945,0.119075,2.411,2.60677
-0.976119,0.119075,2.411,2.60383
-0.968294,0.119075,2.411,2.6009
-0.960468,0.119075,2.411,2.598
-0.952643,0.119075,2.411,2.59512
-0.951479,0.119915,2.428,2.61053
-0.943599,0.119915,2.428,2.60767
-0.935718,0.119915,2.428,2.60483
-0.927837,0.119915,2.428,2.60201
-0.919957,0.119915,2.428,2.59921
-0.90569,0.119075,2.411,2.57825
-0.897864,0.119075,2.411,2.57551
-0.896315,0.119915,2.428,2.59093
-0.888434,0.119915,2.428,2.58822
-0.880553,0.119915,2.428,2.58552
-0.872672,0.119915,2.428,2.58285
-0.864792,0.119915,2.428,2.5802
-0.856911,0.119915,2.428,2.57757
-0.84903,0.119915,2.428,2.57496
-0.84115,0.119915,2.428,2.57237
-0.833269,0.119915,2.428,2.56981
-0.825388,0.119915,2.428,2.56726
-0.817508,0.119915,2.428,2.56474
-0.809627,0.119915,2.428,2.56224
-0.801746,0.119915,2.428,2.55976
-0.793866,0.119915,2.428,2.5573
-0.791488,0.120755,2.445,2.57275
-0.783552,0.120755,2.445,2.57032
-0.775616,0.120755,2.445,2.56792
-0.767681,0.120755,2.445,2.56553
-0.759745,0.120755,2.445,2.56317
-0.751809,0.120755,2.445,2.56082
-0.749349,0.121644,2.463,2.57734
-0.741355,0.121644,2.463,2.57503
-0.733361,0.121644,2.463,2.57274
-0.725366,0.121644,2.463,2.57047
-0.722615,0.122533,2.481,2.587
-0.714562,0.122533,2.481,2.58476
-0.706509,0.122533,2.481,2.58254
-0.698457,0.122533,2.481,2.58035
-0.690404,0.122533,2.481,2.57818
-0.682351,0.122533,2.481,2.57604
-0.674299,0.122533,2.481,2.57392
-0.666246,0.122533,2.481,2.57182
-0.658193,0.122533,2.481,2.56975
-0.65014,0.122533,2.481,2.5677
-0.642088,0.122533,2.481,2.56567
-0.634035,0.122533,2.481,2.56366
-0.625982,0.122533,2.481,2.56169
-0.61793,0.122533,2.481,2.55973
-0.605452,0.121644,2.463,2.53924
-0.597458,0.121644,2.463,2.53735
-0.589464,0.121644,2.463,2.53548
-0.57722,0.120755,2.445,2.51511
-0.569284,0.120755,2.445,2.5133
-0.561348,0.120755,2.445,2.51152
-0.553412,0.120755,2.445,2.50976
-0.545476,0.120755,2.445,2.50802
-0.53754,0.120755,2.445,2.5063
-0.529605,0.120755,2.445,2.50461
-0.521669,0.120755,2.445,2.50295
-0.513733,0.120755,2.445,2.50131
-0.505797,0.120755,2.445,2.49969
-0.497861,0.120755,2.445,2.49809
-0.489925,0.120755,2.445,2.49652
-0.481989,0.120755,2.445,2.49498
-0.474054,0.120755,2.445,2.49346
-0.466118,0.120755,2.445,2.49196
-0.461555,0.121644,2.463,2.50882
-0.453561,0.121644,2.463,2.50737
-0.445566,0.121644,2.463,2.50593
-0.44077,0.122533,2.481,2.52283
-0.432717,0.122533,2.481,2.52143
-0.424665,0.122533,2.481,2.52006
-0.416612,0.122533,2.481,2.51872
-0.411523,0.123422,2.499,2.53566
-0.403412,0.123422,2.499,2.53436
-0.395301,0.123422,2.499,2.53308
-0.389979,0.124311,2.517,2.55006
-0.381809,0.124311,2.517,2.54883
-0.37364,0.124311,2.517,2.54762
-0.36547,0.124311,2.517,2.54643
-0.359998,0.125249,2.536,2.56448
-0.351766,0.125249,2.536,2.56334
-0.343535,0.125249,2.536,2.56223
-0.335304,0.125249,2.536,2.56113
-0.327073,0.125249,2.536,2.56007
-0.318842,0.125249,2.536,2.55903
-0.31061,0.125249,2.536,2.55802
-0.302379,0.125249,2.536,2.55703
-0.294148,0.125249,2.536,2.55607
-0.285917,0.125249,2.536,2.55514
-0.277685,0.125249,2.536,2.55423
-0.269454,0.125249,2.536,2.55335
-0.259266,0.124311,2.517,2.53337
-0.251096,0.124311,2.517,2.53255
-0.242927,0.124311,2.517,2.53175
-0.234757,0.124311,2.517,2.53098
-0.226588,0.124311,2.517,2.53023
-0.218418,0.124311,2.517,2.52952
-0.210249,0.124311,2.517,2.52882
-0.202079,0.124311,2.517,2.52816
-0.193909,0.124311,2.517,2.52752
-0.18574,0.124311,2.517,2.5269
-0.17757,0.124311,2.517,2.52632
-0.169401,0.124311,2.517,2.52576
-0.161231,0.124311,2.517,2.52522
-0.153062,0.124311,2.517,2.52471
-0.144892,0.124311,2.517,2.52423
-0.136723,0.124311,2.517,2.52377
-0.128553,0.124311,2.517,2.52334
-0.120383,0.124311,2.517,2.52294
-0.112214,0.124311,2.517,2.52257
-0.1033,0.123422,2.499,2.50418
-0.0951891,0.123422,2.499,2.50386
-0.0877052,0.124311,2.517,2.52159
-0.0795356,0.124311,2.517,2.52132
-0.0713661,0.124311,2.517,2.52108
-0.0631965,0.124311,2.517,2.52086
-0.0546334,0.123422,2.499,2.50264
-0.0465223,0.123422,2.499,2.50248
-0.0384112,0.123422,2.499,2.50234
-0.0303,0.123422,2.499,2.50223
-0.0221889,0.123422,2.499,2.50214
-0.0140778,0.123422,2.499,2.50209
-0.00596664,0.123422,2.499,2.50205
0.00214449,0.123422,2.499,2.50205
0.0102556,0.123422,2.499,2.50207
0.0183668,0.123422,2.499,2.50211
0.0264779,0.123422,2.499,2.50219
0.034589,0.123422,2.499,2.50229
0.0427002,0.123422,2.499,2.50241
0.0508113,0.123422,2.499,2.50256
0.0589224,0.123422,2.499,2.50274
0.0670336,0.123422,2.499,2.50294
0.0751447,0.123422,2.499,2.50317
0.0832558,0.123422,2.499,2.50343
0.091367,0.123422,2.499,2.50371
0.100195,0.124311,2.517,2.52206
0.108364,0.124311,2.517,2.5224
0.116534,0.124311,2.517,2.52276
0.124703,0.124311,2.517,2.52315
0.132873,0.124311,2.517,2.52357
0.141042,0.124311,2.517,2.52401
0.149212,0.124311,2.517,2.52448
0.157382,0.124311,2.517,2.52498
0.165551,0.124311,2.517,2.5255
0.173721,0.124311,2.517,2.52605
0.18189,0.124311,2.517,2.52662
0.19006,0.124311,2.517,2.52722
0.198229,0.124311,2.517,2.52785
0.206399,0.124311,2.517,2.52851
0.214568,0.124311,2.517,2.52919
0.221145,0.123422,2.499,2.5118
0.229256,0.123422,2.499,2.51253
0.237367,0.123422,2.499,2.51328
0.245479,0.123422,2.499,2.51406
0.25359,0.123422,2.499,2.51486
0.261701,0.123422,2.499,2.5157
0.269812,0.123422,2.499,2.51655
0.275921,0.122533,2.481,2.4993
0.283974,0.122533,2.481,2.5002
0.292027,0.122533,2.481,2.50113
0.300079,0.122533,2.481,2.50208
0.308132,0.122533,2.481,2.50306
0.313891,0.121644,2.463,2.4859
0.321885,0.121644,2.463,2.48692
0.329879,0.121644,2.463,2.48797
0.337874,0.121644,2.463,2.48904
0.34334,0.120755,2.445,2.47194
0.351276,0.120755,2.445,2.47306
0.359212,0.120755,2.445,2.4742
0.367148,0.120755,2.445,2.47536
0.375084,0.120755,2.445,2.47655
0.38302,0.120755,2.445,2.47776
0.390955,0.120755,2.445,2.479
0.398891,0.120755,2.445,2.48027
0.406827,0.120755,2.445,2.48156
0.414763,0.120755,2.445,2.48287
0.422699,0.120755,2.445,2.48421
0.430635,0.120755,2.445,2.48557
0.438571,0.120755,2.445,2.48696
0.449794,0.121644,2.463,2.50669
0.457788,0.121644,2.463,2.50813
0.465782,0.121644,2.463,2.50961
0.473776,0.121644,2.463,2.5111
0.481771,0.121644,2.463,2.51262
0.489765,0.121644,2.463,2.51417
0.497759,0.121644,2.463,2.51574
0.505754,0.121644,2.463,2.51733
0.513748,0.121644,2.463,2.51895
0.521742,0.121644,2.463,2.52059
0.529737,0.121644,2.463,2.52226
0.541661,0.122533,2.481,2.5424
0.549713,0.122533,2.481,2.54412
0.557766,0.122533,2.481,2.54587
0.565819,0.122533,2.481,2.54765
0.573871,0.122533,2.481,2.54945
0.581924,0.122533,2.481,2.55128
0.589977,0.122533,2.481,2.55313
0.59803,0.122533,2.481,2.555
0.606082,0.122533,2.481,2.5569
0.614135,0.122533,2.481,2.55882
0.622188,0.122533,2.481,2.56076
0.63024,0.122533,2.481,2.56273
0.633662,0.121644,2.463,2.54611
0.641657,0.121644,2.463,2.54811
0.649651,0.121644,2.463,2.55014
0.657645,0.121644,2.463,2.55219
0.665639,0.121644,2.463,2.55426
0.668711,0.120755,2.445,2.53767
0.676647,0.120755,2.445,2.53978
0.684582,0.120755,2.445,2.5419
0.692518,0.120755,2.445,2.54405
0.700454,0.120755,2.445,2.54622
0.70839,0.120755,2.445,2.54842
0.716326,0.120755,2.445,2.55063
0.724262,0.120755,2.445,2.55287
0.727107,0.119915,2.428,2.53737
0.734987,0.119915,2.428,2.53964
0.742868,0.119915,2.428,2.54193
0.756005,0.120755,2.445,2.56206
0.763941,0.120755,2.445,2.56441
0.771877,0.120755,2.445,2.56679
0.779813,0.120755,2.445,2.56919
0.787749,0.120755,2.445,2.57161
0.795684,0.120755,2.445,2.57405
0.80362,0.120755,2.445,2.57651
0.811556,0.120755,2.445,2.579
0.819492,0.120755,2.445,2.58151
0.827428,0.120755,2.445,2.58404
0.835364,0.120755,2.445,2.58659
0.8433,0.120755,2.445,2.58916
0.851236,0.120755,2.445,2.59176
0.859171,0.120755,2.445,2.59438
0.867107,0.120755,2.445,2.59701
0.875043,0.120755,2.445,2.59967
0.87684,0.119915,2.428,2.58426
0.88472,0.119915,2.428,2.58695
0.892601,0.119915,2.428,2.58965
0.900482,0.119915,2.428,2.59238
0.908362,0.119915,2.428,2.59513
0.916243,0.119915,2.428,2.5979
0.924124,0.119915,2.428,2.60069
0.932004,0.119915,2.428,2.6035
0.939885,0.119915,2.428,2.60633
